//X Y Z R G B PointSourceId ScanDirectionFlag NumberOfReturns ReturnNumber GpsTime Intensity Classification Nx Ny Nz
4350.00000000 3310.00000000 340.00000000 158 221 66 97.000000 1.000000 4.000000 1.000000 -60.708740 114.000000 145.000000 -0.311477 0.698806 -0.643935
4320.00000000 3280.00000000 320.00000000 158 221 66 97.000000 1.000000 4.000000 1.000000 -60.708740 114.000000 145.000000 0.199712 -0.657965 0.726084
4300.00000000 3270.00000000 330.00000000 158 221 66 97.000000 1.000000 4.000000 1.000000 -60.708740 114.000000 145.000000 -0.513804 0.684514 -0.517151
4320.00000000 3280.00000000 320.00000000 158 221 66 97.000000 1.000000 4.000000 1.000000 -60.708740 114.000000 145.000000 0.199712 -0.657965 0.726084
4280.00000000 3310.00000000 360.00000000 158 221 66 97.000000 1.000000 4.000000 1.000000 -60.708740 114.000000 145.000000 0.021463 0.945651 -0.324476
4240.00000000 3290.00000000 360.00000000 158 221 66 97.000000 1.000000 4.000000 1.000000 -60.708740 114.000000 145.000000 -0.233458 0.747378 -0.622032
4230.00000000 3280.00000000 370.00000000 158 221 66 97.000000 1.000000 4.000000 1.000000 -60.708740 114.000000 145.000000 -0.545007 0.778354 -0.311661
4200.00000000 3290.00000000 360.00000000 158 221 66 97.000000 1.000000 4.000000 1.000000 -60.708740 114.000000 145.000000 -0.253293 0.929686 -0.267444
4200.00000000 3300.00000000 360.00000000 158 221 66 97.000000 1.000000 4.000000 1.000000 -60.708740 114.000000 145.000000 -0.201456 0.886700 -0.416146
4180.00000000 3240.00000000 450.00000000 158 221 66 97.000000 1.000000 4.000000 1.000000 -60.708740 114.000000 145.000000 -0.217918 0.899458 -0.378796
4200.00000000 3240.00000000 440.00000000 158 221 66 97.000000 1.000000 4.000000 1.000000 -60.708740 114.000000 145.000000 -0.547520 0.782399 0.296772
4180.00000000 3190.00000000 430.00000000 158 221 66 97.000000 1.000000 4.000000 1.000000 -60.708740 114.000000 145.000000 -0.542218 0.820123 -0.182753
4160.00000000 3250.00000000 410.00000000 158 221 66 97.000000 1.000000 4.000000 1.000000 -60.708740 114.000000 145.000000 -0.670845 0.735434 -0.095416
4190.00000000 3220.00000000 370.00000000 158 221 66 97.000000 1.000000 4.000000 1.000000 -60.708740 114.000000 145.000000 -0.554195 0.815522 -0.166709
4180.00000000 3180.00000000 400.00000000 158 221 66 97.000000 1.000000 4.000000 1.000000 -60.708740 114.000000 145.000000 0.747307 -0.632812 0.202686
4130.00000000 3250.00000000 340.00000000 158 221 66 97.000000 1.000000 4.000000 1.000000 -60.708740 114.000000 145.000000 -0.205631 0.949169 -0.238314
4360.00000000 3300.00000000 240.00000000 158 221 66 97.000000 1.000000 4.000000 1.000000 -60.708740 114.000000 145.000000 -0.408451 0.849515 -0.333904
4350.00000000 3280.00000000 300.00000000 158 221 66 97.000000 1.000000 4.000000 1.000000 -60.708740 114.000000 145.000000 -0.179770 0.881312 -0.437002
4370.00000000 3280.00000000 290.00000000 158 221 66 97.000000 1.000000 4.000000 1.000000 -60.708740 114.000000 145.000000 0.113567 -0.768424 0.629783
4350.00000000 3280.00000000 270.00000000 158 221 66 97.000000 1.000000 4.000000 1.000000 -60.708740 114.000000 145.000000 -0.483188 0.831207 -0.274998
4320.00000000 3280.00000000 310.00000000 158 221 66 97.000000 1.000000 4.000000 1.000000 -60.708740 114.000000 145.000000 -0.279721 0.779109 -0.561022
4300.00000000 3270.00000000 310.00000000 158 221 66 97.000000 1.000000 4.000000 1.000000 -60.708740 114.000000 145.000000 0.536982 -0.684192 0.493488
4330.00000000 3230.00000000 280.00000000 158 221 66 97.000000 1.000000 4.000000 1.000000 -60.708740 114.000000 145.000000 -0.086240 0.938023 -0.335672
4370.00000000 3170.00000000 230.00000000 158 221 66 97.000000 1.000000 4.000000 1.000000 -60.708740 114.000000 145.000000 -0.373506 0.857049 -0.354908
4270.00000000 3330.00000000 310.00000000 158 221 66 97.000000 1.000000 4.000000 1.000000 -60.708740 114.000000 145.000000 -0.537218 0.752759 -0.380462
4230.00000000 3270.00000000 180.00000000 158 221 66 97.000000 1.000000 4.000000 1.000000 -60.708740 114.000000 145.000000 0.023890 -0.698423 0.715286
4240.00000000 3250.00000000 250.00000000 158 221 66 97.000000 1.000000 4.000000 1.000000 -60.708740 114.000000 145.000000 0.265414 -0.827286 0.495130
4250.00000000 3230.00000000 310.00000000 158 221 66 97.000000 1.000000 4.000000 1.000000 -60.708740 114.000000 145.000000 -0.565033 0.824976 -0.012313
4230.00000000 3230.00000000 250.00000000 158 221 66 97.000000 1.000000 4.000000 1.000000 -60.708740 114.000000 145.000000 -0.291285 0.944307 -0.153094
4370.00000000 3140.00000000 220.00000000 158 221 66 97.000000 1.000000 4.000000 1.000000 -60.708740 114.000000 145.000000 0.219848 -0.659545 0.718795
4180.00000000 3280.00000000 260.00000000 158 221 66 97.000000 1.000000 4.000000 1.000000 -60.708740 114.000000 145.000000 -0.499154 0.842982 -0.200566
4170.00000000 3280.00000000 240.00000000 158 221 66 97.000000 1.000000 4.000000 1.000000 -60.708740 114.000000 145.000000 -0.466874 0.883677 -0.033831
4150.00000000 3320.00000000 240.00000000 158 221 66 97.000000 1.000000 4.000000 1.000000 -60.708740 114.000000 145.000000 -0.609085 0.642644 -0.464784
4140.00000000 3300.00000000 270.00000000 158 221 66 97.000000 1.000000 4.000000 1.000000 -60.708740 114.000000 145.000000 0.597689 -0.736236 0.317371
4160.00000000 3270.00000000 310.00000000 158 221 66 97.000000 1.000000 4.000000 1.000000 -60.708740 114.000000 145.000000 -0.072347 0.996663 -0.037793
4130.00000000 3260.00000000 290.00000000 158 221 66 97.000000 1.000000 4.000000 1.000000 -60.708740 114.000000 145.000000 -0.140140 0.989948 -0.019059
4180.00000000 3230.00000000 290.00000000 158 221 66 97.000000 1.000000 4.000000 1.000000 -60.708740 114.000000 145.000000 -0.095166 0.988079 -0.121013
4140.00000000 3220.00000000 300.00000000 158 221 66 97.000000 1.000000 4.000000 1.000000 -60.708740 114.000000 145.000000 -0.167647 0.932449 -0.320053
4120.00000000 3240.00000000 250.00000000 158 221 66 97.000000 1.000000 4.000000 1.000000 -60.708740 114.000000 145.000000 0.494169 -0.675085 0.547774
4180.00000000 3220.00000000 220.00000000 158 221 66 97.000000 1.000000 4.000000 1.000000 -60.708740 114.000000 145.000000 0.045314 0.871961 -0.487474
4180.00000000 3230.00000000 180.00000000 158 221 66 97.000000 1.000000 4.000000 1.000000 -60.708740 114.000000 145.000000 -0.395496 0.854582 -0.336560
4200.00000000 3250.00000000 160.00000000 158 221 66 97.000000 1.000000 4.000000 1.000000 -60.708740 114.000000 145.000000 0.143780 0.816732 -0.558817
4090.00000000 3240.00000000 280.00000000 158 221 66 97.000000 1.000000 4.000000 1.000000 -60.708740 114.000000 145.000000 0.311448 -0.724560 0.614827
4100.00000000 3220.00000000 240.00000000 158 221 66 97.000000 1.000000 4.000000 1.000000 -60.708740 114.000000 145.000000 -0.407999 0.912386 -0.033010
4100.00000000 3210.00000000 260.00000000 158 221 66 97.000000 1.000000 4.000000 1.000000 -60.708740 114.000000 145.000000 0.006315 0.935843 -0.352362
4040.00000000 3220.00000000 260.00000000 158 221 66 97.000000 1.000000 4.000000 1.000000 -60.708740 114.000000 145.000000 -0.445155 0.771276 -0.454939
4110.00000000 3160.00000000 280.00000000 158 221 66 97.000000 1.000000 4.000000 1.000000 -60.708740 114.000000 145.000000 -0.281186 0.950168 -0.134596
3990.00000000 3200.00000000 330.00000000 158 221 66 97.000000 1.000000 4.000000 1.000000 -60.708740 114.000000 145.000000 0.763175 -0.627164 0.155658
4030.00000000 3240.00000000 330.00000000 158 221 66 97.000000 1.000000 4.000000 1.000000 -60.708740 114.000000 145.000000 -0.356989 0.776977 -0.518523
3580.00000000 3090.00000000 420.00000000 158 221 66 97.000000 1.000000 4.000000 1.000000 -60.708740 114.000000 205.000000 -0.438846 0.717057 0.541519
3560.00000000 3110.00000000 340.00000000 158 221 66 97.000000 1.000000 4.000000 1.000000 -60.708740 114.000000 205.000000 -0.251683 0.919004 0.303458
3580.00000000 3120.00000000 330.00000000 158 221 66 97.000000 1.000000 4.000000 1.000000 -60.708740 114.000000 205.000000 -0.517443 0.849983 0.098902
3560.00000000 3000.00000000 410.00000000 158 221 66 97.000000 1.000000 4.000000 1.000000 -60.708740 114.000000 205.000000 0.616777 -0.616777 -0.489052
3610.00000000 3050.00000000 360.00000000 158 221 66 97.000000 1.000000 4.000000 1.000000 -60.708740 114.000000 205.000000 -0.392433 0.805690 0.443690
3610.00000000 3060.00000000 330.00000000 158 221 66 97.000000 1.000000 4.000000 1.000000 -60.708740 114.000000 205.000000 -0.661564 0.699823 -0.269408
3600.00000000 3050.00000000 350.00000000 158 221 66 97.000000 1.000000 4.000000 1.000000 -60.708740 114.000000 205.000000 0.800009 -0.564443 -0.203444
3580.00000000 3030.00000000 320.00000000 158 221 66 97.000000 1.000000 4.000000 1.000000 -60.708740 114.000000 205.000000 -0.694569 0.714955 -0.080087
3540.00000000 3070.00000000 400.00000000 158 221 66 97.000000 1.000000 4.000000 1.000000 -60.708740 114.000000 205.000000 0.575029 -0.734669 -0.360004
3570.00000000 3070.00000000 320.00000000 158 221 66 97.000000 1.000000 4.000000 1.000000 -60.708740 114.000000 205.000000 -0.245263 0.961586 0.123280
3550.00000000 3000.00000000 400.00000000 158 221 66 97.000000 1.000000 4.000000 1.000000 -60.708740 114.000000 205.000000 -0.469368 0.866639 0.169208
3550.00000000 3000.00000000 400.00000000 158 221 66 97.000000 1.000000 4.000000 1.000000 -60.708740 114.000000 205.000000 -0.469368 0.866639 0.169208
3560.00000000 3010.00000000 350.00000000 158 221 66 97.000000 1.000000 4.000000 1.000000 -60.708740 114.000000 205.000000 -0.384135 0.817681 0.428764
3550.00000000 3010.00000000 340.00000000 158 221 66 97.000000 1.000000 4.000000 1.000000 -60.708740 114.000000 205.000000 -0.320985 0.944762 0.066276
3530.00000000 3050.00000000 420.00000000 158 221 66 97.000000 1.000000 4.000000 1.000000 -60.708740 114.000000 205.000000 -0.608069 0.792333 -0.049609
3520.00000000 3000.00000000 440.00000000 158 221 66 97.000000 1.000000 4.000000 1.000000 -60.708740 114.000000 205.000000 -0.574322 0.737020 0.356308
3520.00000000 3000.00000000 430.00000000 158 221 66 97.000000 1.000000 4.000000 1.000000 -60.708740 114.000000 205.000000 -0.218763 0.962818 0.158505
3510.00000000 3000.00000000 430.00000000 158 221 66 97.000000 1.000000 4.000000 1.000000 -60.708740 114.000000 205.000000 -0.171830 0.938879 0.298297
3530.00000000 3080.00000000 380.00000000 158 221 66 97.000000 1.000000 4.000000 1.000000 -60.708740 114.000000 205.000000 -0.465630 0.883186 -0.056315
3660.00000000 3030.00000000 270.00000000 158 221 66 97.000000 1.000000 4.000000 1.000000 -60.708740 114.000000 205.000000 -0.453589 0.806203 -0.379861
3620.00000000 3080.00000000 260.00000000 158 221 66 97.000000 1.000000 4.000000 1.000000 -60.708740 114.000000 205.000000 0.765161 -0.643838 -0.001379
3600.00000000 3100.00000000 300.00000000 158 221 66 97.000000 1.000000 4.000000 1.000000 -60.708740 114.000000 205.000000 -0.464300 0.878904 -0.109331
3610.00000000 3070.00000000 260.00000000 158 221 66 97.000000 1.000000 4.000000 1.000000 -60.708740 114.000000 205.000000 -0.536119 0.830168 -0.152965
3590.00000000 3050.00000000 240.00000000 158 221 66 97.000000 1.000000 4.000000 1.000000 -60.708740 114.000000 205.000000 -0.323363 0.934313 -0.149985
3610.00000000 3060.00000000 240.00000000 158 221 66 97.000000 1.000000 4.000000 1.000000 -60.708740 114.000000 205.000000 -0.658081 0.714622 -0.237160
3610.00000000 3070.00000000 240.00000000 158 221 66 97.000000 1.000000 4.000000 1.000000 -60.708740 114.000000 205.000000 -0.708163 0.690043 -0.149484
3570.00000000 3070.00000000 260.00000000 158 221 66 97.000000 1.000000 4.000000 1.000000 -60.708740 114.000000 205.000000 0.697182 -0.694117 0.179275
3600.00000000 3010.00000000 220.00000000 158 221 66 97.000000 1.000000 4.000000 1.000000 -60.708740 114.000000 205.000000 -0.125100 0.954712 -0.269953
3630.00000000 3070.00000000 20.00000000 158 221 66 97.000000 1.000000 4.000000 1.000000 -60.708740 114.000000 205.000000 0.684125 -0.677746 0.269504
3590.00000000 3050.00000000 0.00000000 158 221 66 97.000000 1.000000 4.000000 1.000000 -60.708740 114.000000 205.000000 -0.125184 0.977922 -0.167325
3600.00000000 3080.00000000 40.00000000 158 221 66 97.000000 1.000000 4.000000 1.000000 -60.708740 114.000000 205.000000 0.001152 0.979955 -0.199215
4210.00000000 2780.00000000 150.00000000 158 221 66 97.000000 1.000000 4.000000 1.000000 -60.708740 114.000000 145.000000 -0.299028 0.159755 0.940777
4290.00000000 2740.00000000 110.00000000 158 221 66 97.000000 1.000000 4.000000 1.000000 -60.708740 114.000000 145.000000 -0.112901 0.352305 0.929051
4330.00000000 2720.00000000 70.00000000 158 221 66 97.000000 1.000000 4.000000 1.000000 -60.708740 114.000000 145.000000 0.700104 0.058941 -0.711604
4330.00000000 2690.00000000 70.00000000 158 221 66 97.000000 1.000000 4.000000 1.000000 -60.708740 114.000000 145.000000 -0.240831 -0.163658 0.956670
4260.00000000 2770.00000000 120.00000000 158 221 66 97.000000 1.000000 4.000000 1.000000 -60.708740 114.000000 145.000000 -0.278070 -0.405708 0.870677
4210.00000000 2790.00000000 140.00000000 158 221 66 97.000000 1.000000 4.000000 1.000000 -60.708740 114.000000 145.000000 -0.143533 -0.156014 0.977271
4210.00000000 2780.00000000 140.00000000 158 221 66 97.000000 1.000000 4.000000 1.000000 -60.708740 114.000000 145.000000 0.028773 -0.162278 0.986326
4230.00000000 2770.00000000 140.00000000 158 221 66 97.000000 1.000000 4.000000 1.000000 -60.708740 114.000000 145.000000 -0.130753 -0.400694 0.906834
4220.00000000 2740.00000000 120.00000000 158 221 66 97.000000 1.000000 4.000000 1.000000 -60.708740 114.000000 145.000000 -0.382080 0.191761 0.904015
4150.00000000 2830.00000000 200.00000000 158 221 66 97.000000 1.000000 4.000000 1.000000 -60.708740 114.000000 145.000000 0.236435 -0.365666 0.900215
4080.00000000 2830.00000000 170.00000000 158 221 66 97.000000 1.000000 4.000000 1.000000 -60.708740 114.000000 145.000000 -0.226772 -0.285929 0.931031
4180.00000000 2800.00000000 160.00000000 158 221 66 97.000000 1.000000 4.000000 1.000000 -60.708740 114.000000 145.000000 -0.048709 -0.061698 0.996906
4190.00000000 2760.00000000 160.00000000 158 221 66 97.000000 1.000000 4.000000 1.000000 -60.708740 114.000000 145.000000 -0.155190 -0.448166 0.880377
4150.00000000 2800.00000000 180.00000000 158 221 66 97.000000 1.000000 4.000000 1.000000 -60.708740 114.000000 145.000000 -0.043800 -0.611785 0.789810
4160.00000000 2720.00000000 180.00000000 158 221 66 97.000000 1.000000 4.000000 1.000000 -60.708740 114.000000 145.000000 -0.420767 -0.060883 0.905123
4130.00000000 2730.00000000 170.00000000 158 221 66 97.000000 1.000000 4.000000 1.000000 -60.708740 114.000000 145.000000 -0.129595 -0.250027 0.959527
4050.00000000 2810.00000000 260.00000000 158 221 66 97.000000 1.000000 4.000000 1.000000 -60.708740 114.000000 145.000000 0.337478 -0.640719 0.689629
4060.00000000 2800.00000000 240.00000000 158 221 66 97.000000 1.000000 4.000000 1.000000 -60.708740 114.000000 145.000000 0.137495 0.866945 -0.479063
4060.00000000 2810.00000000 250.00000000 158 221 66 97.000000 1.000000 4.000000 1.000000 -60.708740 114.000000 145.000000 -0.165805 0.749927 -0.640404
4110.00000000 2810.00000000 180.00000000 158 221 66 97.000000 1.000000 4.000000 1.000000 -60.708740 114.000000 145.000000 0.012405 -0.591318 0.806343
4100.00000000 2820.00000000 190.00000000 158 221 66 97.000000 1.000000 4.000000 1.000000 -60.708740 114.000000 145.000000 -0.224588 0.791478 -0.568439
4090.00000000 2770.00000000 200.00000000 158 221 66 97.000000 1.000000 4.000000 1.000000 -60.708740 114.000000 145.000000 0.120510 -0.331740 0.935642
4190.00000000 2750.00000000 140.00000000 158 221 66 97.000000 1.000000 4.000000 1.000000 -60.708740 114.000000 145.000000 0.092458 0.115865 0.988952
4120.00000000 2750.00000000 100.00000000 158 221 66 97.000000 1.000000 4.000000 1.000000 -60.708740 114.000000 145.000000 -0.144206 -0.487970 0.860866
4120.00000000 2750.00000000 110.00000000 158 221 66 97.000000 1.000000 4.000000 1.000000 -60.708740 114.000000 145.000000 -0.044058 -0.194093 0.979993
4150.00000000 2780.00000000 140.00000000 158 221 66 97.000000 1.000000 4.000000 1.000000 -60.708740 114.000000 145.000000 0.171907 -0.182247 0.968108
4190.00000000 2720.00000000 130.00000000 158 221 66 97.000000 1.000000 4.000000 1.000000 -60.708740 114.000000 145.000000 -0.088330 -0.381857 0.919991
4100.00000000 2760.00000000 130.00000000 158 221 66 97.000000 1.000000 4.000000 1.000000 -60.708740 114.000000 145.000000 -0.177261 -0.571173 0.801461
4110.00000000 2720.00000000 120.00000000 158 221 66 97.000000 1.000000 4.000000 1.000000 -60.708740 114.000000 145.000000 -0.329682 -0.135430 0.934328
4050.00000000 2730.00000000 80.00000000 158 221 66 97.000000 1.000000 4.000000 1.000000 -60.708740 114.000000 145.000000 -0.531083 -0.169049 0.830285
4090.00000000 2730.00000000 130.00000000 158 221 66 97.000000 1.000000 4.000000 1.000000 -60.708740 114.000000 145.000000 -0.111149 0.072190 0.991178
4290.00000000 2520.00000000 30.00000000 158 221 66 97.000000 1.000000 4.000000 1.000000 -60.708740 114.000000 145.000000 -0.163684 0.309486 0.936710
4260.00000000 2500.00000000 70.00000000 158 221 66 97.000000 1.000000 4.000000 1.000000 -60.708740 114.000000 145.000000 -0.282905 0.501727 0.817456
4270.00000000 2550.00000000 50.00000000 158 221 66 97.000000 1.000000 4.000000 1.000000 -60.708740 114.000000 145.000000 0.666480 -0.532177 -0.522104
4250.00000000 2550.00000000 0.00000000 158 221 66 97.000000 1.000000 4.000000 1.000000 -60.708740 114.000000 145.000000 -0.177305 0.583439 0.792567
4250.00000000 2500.00000000 60.00000000 158 221 66 97.000000 1.000000 4.000000 1.000000 -60.708740 114.000000 145.000000 -0.382761 0.519578 0.763893
4250.00000000 2530.00000000 0.00000000 158 221 66 97.000000 1.000000 4.000000 1.000000 -60.708740 114.000000 145.000000 -0.491697 0.501698 0.711711
4260.00000000 2480.00000000 20.00000000 158 221 66 97.000000 1.000000 4.000000 1.000000 -60.708740 114.000000 145.000000 -0.293767 0.391182 0.872168
4140.00000000 2530.00000000 190.00000000 158 221 66 97.000000 1.000000 4.000000 1.000000 -60.708740 114.000000 145.000000 -0.233455 0.643961 0.728569
4160.00000000 2580.00000000 100.00000000 158 221 66 97.000000 1.000000 4.000000 1.000000 -60.708740 114.000000 145.000000 -0.178153 0.598411 0.781131
4130.00000000 2500.00000000 120.00000000 158 221 66 97.000000 1.000000 4.000000 1.000000 -60.708740 114.000000 145.000000 -0.425225 0.238907 0.872988
4130.00000000 2500.00000000 120.00000000 158 221 66 97.000000 1.000000 4.000000 1.000000 -60.708740 114.000000 145.000000 -0.425225 0.238907 0.872988
4080.00000000 2520.00000000 120.00000000 158 221 66 97.000000 1.000000 4.000000 1.000000 -60.708740 114.000000 145.000000 -0.529873 0.004045 0.848067
4050.00000000 2520.00000000 110.00000000 158 221 66 97.000000 1.000000 4.000000 1.000000 -60.708740 114.000000 145.000000 -0.213098 0.639295 0.738844
4040.00000000 2500.00000000 110.00000000 158 221 66 97.000000 1.000000 4.000000 1.000000 -60.708740 114.000000 145.000000 -0.198976 0.317515 0.927142
4040.00000000 2510.00000000 110.00000000 158 221 66 97.000000 1.000000 4.000000 1.000000 -60.708740 114.000000 145.000000 -0.308784 0.677385 0.667684
4060.00000000 2510.00000000 120.00000000 158 221 66 97.000000 1.000000 4.000000 1.000000 -60.708740 114.000000 145.000000 -0.168002 0.515901 0.840012
4110.00000000 2510.00000000 50.00000000 158 221 66 97.000000 1.000000 4.000000 1.000000 -60.708740 114.000000 145.000000 -0.375821 -0.040594 0.925803
4110.00000000 2510.00000000 50.00000000 158 221 66 97.000000 1.000000 4.000000 1.000000 -60.708740 114.000000 145.000000 -0.375821 -0.040594 0.925803
3960.00000000 2880.00000000 80.00000000 158 221 66 97.000000 1.000000 4.000000 1.000000 -60.708740 114.000000 145.000000 -0.238782 0.772530 -0.588371
3970.00000000 2860.00000000 0.00000000 158 221 66 97.000000 1.000000 4.000000 1.000000 -60.708740 114.000000 145.000000 -0.259157 -0.259157 0.930417
3980.00000000 2830.00000000 50.00000000 158 221 66 97.000000 1.000000 4.000000 1.000000 -60.708740 114.000000 145.000000 -0.252010 -0.571327 0.781074
3880.00000000 2830.00000000 80.00000000 158 221 66 97.000000 1.000000 4.000000 1.000000 -60.708740 114.000000 145.000000 0.357000 -0.388179 0.849628
3940.00000000 2860.00000000 100.00000000 158 221 66 97.000000 1.000000 4.000000 1.000000 -60.708740 114.000000 145.000000 -0.199459 0.879098 -0.432900
3900.00000000 2830.00000000 0.00000000 158 221 66 97.000000 1.000000 4.000000 1.000000 -60.708740 114.000000 145.000000 -0.307660 0.710357 -0.633039
3890.00000000 2840.00000000 60.00000000 158 221 66 97.000000 1.000000 4.000000 1.000000 -60.708740 114.000000 145.000000 -0.076687 0.753846 -0.652561
3970.00000000 2820.00000000 60.00000000 158 221 66 97.000000 1.000000 4.000000 1.000000 -60.708740 114.000000 145.000000 0.025012 -0.414665 0.909630
3970.00000000 2800.00000000 -10.00000000 158 221 66 97.000000 1.000000 4.000000 1.000000 -60.708740 114.000000 145.000000 0.188842 0.744619 -0.640219
3980.00000000 2750.00000000 0.00000000 158 221 66 97.000000 1.000000 4.000000 1.000000 -60.708740 114.000000 145.000000 -0.325650 -0.069315 0.942946
3970.00000000 2740.00000000 -10.00000000 158 221 66 97.000000 1.000000 4.000000 1.000000 -60.708740 114.000000 145.000000 -0.020646 0.557437 -0.829962
3980.00000000 2710.00000000 30.00000000 158 221 66 97.000000 1.000000 4.000000 1.000000 -60.708740 114.000000 145.000000 -0.222048 0.017811 0.974873
3920.00000000 2820.00000000 40.00000000 158 221 66 97.000000 1.000000 4.000000 1.000000 -60.708740 114.000000 145.000000 0.172938 -0.684102 0.708588
3910.00000000 2780.00000000 30.00000000 158 221 66 97.000000 1.000000 4.000000 1.000000 -60.708740 114.000000 145.000000 -0.028913 -0.535582 0.843988
3940.00000000 2750.00000000 10.00000000 158 221 66 97.000000 1.000000 4.000000 1.000000 -60.708740 114.000000 145.000000 -0.151797 -0.614703 0.774014
3920.00000000 2770.00000000 20.00000000 158 221 66 97.000000 1.000000 4.000000 1.000000 -60.708740 114.000000 145.000000 -0.079343 -0.601565 0.794874
3910.00000000 2770.00000000 20.00000000 158 221 66 97.000000 1.000000 4.000000 1.000000 -60.708740 114.000000 145.000000 0.095293 0.719831 -0.687578
3890.00000000 2810.00000000 50.00000000 158 221 66 97.000000 1.000000 4.000000 1.000000 -60.708740 114.000000 145.000000 0.181562 -0.614870 0.767444
3900.00000000 2760.00000000 -10.00000000 158 221 66 97.000000 1.000000 4.000000 1.000000 -60.708740 114.000000 145.000000 0.248768 -0.215783 0.944220
3940.00000000 2730.00000000 0.00000000 158 221 66 97.000000 1.000000 4.000000 1.000000 -60.708740 114.000000 145.000000 -0.240291 -0.491295 0.837191
3950.00000000 2740.00000000 0.00000000 158 221 66 97.000000 1.000000 4.000000 1.000000 -60.708740 114.000000 145.000000 -0.112901 -0.352305 0.929051
3700.00000000 2920.00000000 160.00000000 158 221 66 97.000000 1.000000 4.000000 1.000000 -60.708740 114.000000 145.000000 -0.142393 0.982148 -0.122921
3830.00000000 2840.00000000 80.00000000 158 221 66 97.000000 1.000000 4.000000 1.000000 -60.708740 114.000000 145.000000 -0.080066 -0.685658 0.723507
3700.00000000 2930.00000000 140.00000000 158 221 66 97.000000 1.000000 4.000000 1.000000 -60.708740 114.000000 145.000000 -0.172753 0.886992 -0.428253
3750.00000000 2870.00000000 120.00000000 158 221 66 97.000000 1.000000 4.000000 1.000000 -60.708740 114.000000 145.000000 -0.506508 0.690389 -0.516538
3700.00000000 2890.00000000 100.00000000 158 221 66 97.000000 1.000000 4.000000 1.000000 -60.708740 114.000000 145.000000 -0.213610 0.681368 -0.700078
3740.00000000 2840.00000000 100.00000000 158 221 66 97.000000 1.000000 4.000000 1.000000 -60.708740 114.000000 145.000000 -0.538831 0.666405 -0.515331
3730.00000000 2830.00000000 90.00000000 158 221 66 97.000000 1.000000 4.000000 1.000000 -60.708740 114.000000 145.000000 -0.534748 0.720172 -0.442037
3790.00000000 2790.00000000 70.00000000 158 221 66 97.000000 1.000000 4.000000 1.000000 -60.708740 114.000000 145.000000 0.434011 -0.567041 0.700071
3810.00000000 2810.00000000 70.00000000 158 221 66 97.000000 1.000000 4.000000 1.000000 -60.708740 114.000000 145.000000 -0.159262 -0.531371 0.832034
3850.00000000 2810.00000000 50.00000000 158 221 66 97.000000 1.000000 4.000000 1.000000 -60.708740 114.000000 145.000000 0.385953 -0.348753 0.854056
3830.00000000 2810.00000000 60.00000000 158 221 66 97.000000 1.000000 4.000000 1.000000 -60.708740 114.000000 145.000000 0.446756 -0.549725 0.705841
3850.00000000 2810.00000000 50.00000000 158 221 66 97.000000 1.000000 4.000000 1.000000 -60.708740 114.000000 145.000000 0.385953 -0.348753 0.854056
3860.00000000 2770.00000000 30.00000000 158 221 66 97.000000 1.000000 4.000000 1.000000 -60.708740 114.000000 145.000000 0.031525 0.853906 -0.519471
3850.00000000 2770.00000000 20.00000000 158 221 66 97.000000 1.000000 4.000000 1.000000 -60.708740 114.000000 145.000000 0.073463 0.785043 -0.615070
3800.00000000 2790.00000000 50.00000000 158 221 66 97.000000 1.000000 4.000000 1.000000 -60.708740 114.000000 145.000000 0.128574 -0.799524 0.586712
3800.00000000 2810.00000000 60.00000000 158 221 66 97.000000 1.000000 4.000000 1.000000 -60.708740 114.000000 145.000000 0.122327 -0.591004 0.797339
3820.00000000 2790.00000000 40.00000000 158 221 66 97.000000 1.000000 4.000000 1.000000 -60.708740 114.000000 145.000000 -0.092400 -0.501804 0.860032
3820.00000000 2760.00000000 60.00000000 158 221 66 97.000000 1.000000 4.000000 1.000000 -60.708740 114.000000 145.000000 0.470533 -0.444301 0.762362
3800.00000000 2760.00000000 10.00000000 158 221 66 97.000000 1.000000 4.000000 1.000000 -60.708740 114.000000 145.000000 -0.224613 -0.456763 0.860765
3780.00000000 2790.00000000 70.00000000 158 221 66 97.000000 1.000000 4.000000 1.000000 -60.708740 114.000000 145.000000 0.282656 -0.637173 0.717019
3770.00000000 2820.00000000 50.00000000 158 221 66 97.000000 1.000000 4.000000 1.000000 -60.708740 114.000000 145.000000 -0.246786 0.894045 -0.373873
3780.00000000 2790.00000000 40.00000000 158 221 66 97.000000 1.000000 4.000000 1.000000 -60.708740 114.000000 145.000000 -0.265066 -0.646000 0.715838
3750.00000000 2810.00000000 60.00000000 158 221 66 97.000000 1.000000 4.000000 1.000000 -60.708740 114.000000 145.000000 0.085086 0.882946 -0.461699
3750.00000000 2800.00000000 20.00000000 158 221 66 97.000000 1.000000 4.000000 1.000000 -60.708740 114.000000 145.000000 0.205650 0.746835 -0.632413
3750.00000000 2800.00000000 20.00000000 158 221 66 97.000000 1.000000 4.000000 1.000000 -60.708740 114.000000 145.000000 0.205650 0.746835 -0.632413
3760.00000000 2770.00000000 10.00000000 158 221 66 97.000000 1.000000 4.000000 1.000000 -60.708740 114.000000 145.000000 -0.025697 0.872333 -0.488236
3710.00000000 2800.00000000 50.00000000 158 221 66 97.000000 1.000000 4.000000 1.000000 -60.708740 114.000000 145.000000 -0.038963 0.896153 -0.442031
3970.00000000 2570.00000000 160.00000000 158 221 66 97.000000 1.000000 4.000000 1.000000 -60.708740 114.000000 145.000000 -0.421332 -0.072267 0.904023
3970.00000000 2540.00000000 110.00000000 158 221 66 97.000000 1.000000 4.000000 1.000000 -60.708740 114.000000 145.000000 -0.562920 -0.066643 0.823820
3950.00000000 2520.00000000 100.00000000 158 221 66 97.000000 1.000000 4.000000 1.000000 -60.708740 114.000000 145.000000 -0.669876 -0.046934 0.740988
3970.00000000 2490.00000000 160.00000000 158 221 66 97.000000 1.000000 4.000000 1.000000 -60.708740 114.000000 145.000000 -0.265414 0.495130 0.827286
4010.00000000 2490.00000000 170.00000000 158 221 66 97.000000 1.000000 4.000000 1.000000 -60.708740 114.000000 145.000000 -0.259086 0.504209 0.823801
3960.00000000 2470.00000000 100.00000000 158 221 66 97.000000 1.000000 4.000000 1.000000 -60.708740 114.000000 145.000000 -0.620671 0.195596 0.759282
3970.00000000 2480.00000000 110.00000000 158 221 66 97.000000 1.000000 4.000000 1.000000 -60.708740 114.000000 145.000000 -0.514657 0.132674 0.847069
3700.00000000 2410.00000000 230.00000000 158 221 66 97.000000 1.000000 4.000000 1.000000 -60.708740 114.000000 143.000000 -0.445998 0.800220 -0.400915
3700.00000000 2410.00000000 210.00000000 158 221 66 97.000000 1.000000 4.000000 1.000000 -60.708740 114.000000 143.000000 -0.448776 0.881679 -0.145744
3740.00000000 2400.00000000 210.00000000 158 221 66 97.000000 1.000000 4.000000 1.000000 -60.708740 114.000000 143.000000 -0.529572 0.848133 0.014975
3640.00000000 2980.00000000 450.00000000 158 221 66 97.000000 1.000000 4.000000 1.000000 -60.708740 114.000000 205.000000 -0.671241 0.741017 -0.018142
3550.00000000 2990.00000000 410.00000000 158 221 66 97.000000 1.000000 4.000000 1.000000 -60.708740 114.000000 205.000000 0.743744 -0.523740 -0.415380
3570.00000000 2950.00000000 450.00000000 158 221 66 97.000000 1.000000 4.000000 1.000000 -60.708740 114.000000 205.000000 -0.590787 0.563702 0.577244
3560.00000000 2940.00000000 450.00000000 158 221 66 97.000000 1.000000 4.000000 1.000000 -60.708740 114.000000 205.000000 -0.269787 0.911444 0.310620
3570.00000000 2950.00000000 450.00000000 158 221 66 97.000000 1.000000 4.000000 1.000000 -60.708740 114.000000 205.000000 -0.590787 0.563702 0.577244
3590.00000000 2890.00000000 350.00000000 158 221 66 97.000000 1.000000 4.000000 1.000000 -60.708740 114.000000 205.000000 -0.462130 0.859531 0.218270
3590.00000000 2890.00000000 350.00000000 158 221 66 97.000000 1.000000 4.000000 1.000000 -60.708740 114.000000 205.000000 -0.462130 0.859531 0.218270
3600.00000000 2770.00000000 380.00000000 158 221 66 97.000000 1.000000 4.000000 1.000000 -60.708740 114.000000 145.000000 0.383754 -0.683510 -0.620924
3580.00000000 2780.00000000 370.00000000 158 221 66 97.000000 1.000000 4.000000 1.000000 -60.708740 114.000000 145.000000 -0.222989 0.847964 0.480867
3580.00000000 2750.00000000 350.00000000 158 221 66 97.000000 1.000000 4.000000 1.000000 -60.708740 114.000000 145.000000 0.763803 -0.645448 0.001376
3610.00000000 2780.00000000 320.00000000 158 221 66 97.000000 1.000000 4.000000 1.000000 -60.708740 114.000000 145.000000 -0.259341 0.821505 0.507811
3550.00000000 2750.00000000 370.00000000 158 221 66 97.000000 1.000000 4.000000 1.000000 -60.708740 114.000000 145.000000 -0.229819 0.812851 0.535217
3580.00000000 2710.00000000 420.00000000 158 221 66 97.000000 1.000000 4.000000 1.000000 -60.708740 114.000000 145.000000 -0.380451 0.493776 0.781948
3560.00000000 2710.00000000 360.00000000 158 221 66 97.000000 1.000000 4.000000 1.000000 -60.708740 114.000000 145.000000 -0.544523 0.835878 0.069303
3520.00000000 2990.00000000 390.00000000 158 221 66 97.000000 1.000000 4.000000 1.000000 -60.708740 114.000000 205.000000 -0.643640 0.734031 0.216625
3480.00000000 2990.00000000 340.00000000 158 221 66 97.000000 1.000000 4.000000 1.000000 -60.708740 114.000000 205.000000 -0.529390 0.837345 -0.136380
3460.00000000 2920.00000000 320.00000000 158 221 66 97.000000 1.000000 4.000000 1.000000 -60.708740 114.000000 145.000000 -0.540746 0.839763 -0.048905
3460.00000000 2830.00000000 330.00000000 158 221 66 97.000000 1.000000 4.000000 1.000000 -60.708740 114.000000 145.000000 -0.408766 0.910618 -0.060708
3370.00000000 2940.00000000 370.00000000 158 221 66 97.000000 1.000000 4.000000 1.000000 -60.708740 114.000000 145.000000 -0.406277 0.909677 -0.086180
3410.00000000 2950.00000000 320.00000000 158 221 66 97.000000 1.000000 4.000000 1.000000 -60.708740 114.000000 145.000000 -0.622677 0.629390 0.464910
3440.00000000 2910.00000000 320.00000000 158 221 66 97.000000 1.000000 4.000000 1.000000 -60.708740 114.000000 145.000000 -0.249134 0.939471 0.235216
3430.00000000 2860.00000000 360.00000000 158 221 66 97.000000 1.000000 4.000000 1.000000 -60.708740 114.000000 145.000000 -0.249836 0.768364 0.589236
3390.00000000 2900.00000000 320.00000000 158 221 66 97.000000 1.000000 4.000000 1.000000 -60.708740 114.000000 145.000000 -0.596016 0.800852 0.058321
3390.00000000 2900.00000000 350.00000000 158 221 66 97.000000 1.000000 4.000000 1.000000 -60.708740 114.000000 145.000000 -0.685658 0.723507 -0.080066
3380.00000000 2890.00000000 320.00000000 158 221 66 97.000000 1.000000 4.000000 1.000000 -60.708740 114.000000 145.000000 -0.546398 0.803345 0.236824
3510.00000000 2780.00000000 410.00000000 158 221 66 97.000000 1.000000 4.000000 1.000000 -60.708740 114.000000 145.000000 -0.600702 0.730233 0.325448
3510.00000000 2770.00000000 370.00000000 158 221 66 97.000000 1.000000 4.000000 1.000000 -60.708740 114.000000 145.000000 -0.624567 0.766036 0.152003
3500.00000000 2770.00000000 380.00000000 158 221 66 97.000000 1.000000 4.000000 1.000000 -60.708740 114.000000 145.000000 0.789995 -0.497166 -0.358796
3500.00000000 2780.00000000 400.00000000 158 221 66 97.000000 1.000000 4.000000 1.000000 -60.708740 114.000000 145.000000 0.714513 -0.488001 -0.501325
3510.00000000 2760.00000000 390.00000000 158 221 66 97.000000 1.000000 4.000000 1.000000 -60.708740 114.000000 145.000000 -0.313803 0.887356 0.337826
3490.00000000 2760.00000000 370.00000000 158 221 66 97.000000 1.000000 4.000000 1.000000 -60.708740 114.000000 145.000000 -0.350909 0.598993 0.719771
3460.00000000 2810.00000000 390.00000000 158 221 66 97.000000 1.000000 4.000000 1.000000 -60.708740 114.000000 145.000000 -0.555196 0.777910 0.294301
3470.00000000 2750.00000000 400.00000000 158 221 66 97.000000 1.000000 4.000000 1.000000 -60.708740 114.000000 145.000000 0.610728 -0.421020 -0.670636
3450.00000000 2720.00000000 430.00000000 158 221 66 97.000000 1.000000 4.000000 1.000000 -60.708740 114.000000 145.000000 -0.413777 0.757229 0.505364
3460.00000000 2740.00000000 410.00000000 158 221 66 97.000000 1.000000 4.000000 1.000000 -60.708740 114.000000 145.000000 -0.319545 0.656932 0.682885
3480.00000000 2690.00000000 420.00000000 158 221 66 97.000000 1.000000 4.000000 1.000000 -60.708740 114.000000 145.000000 0.774521 -0.467974 -0.425579
3530.00000000 2730.00000000 380.00000000 158 221 66 97.000000 1.000000 4.000000 1.000000 -60.708740 114.000000 145.000000 0.719739 -0.467082 -0.513624
3500.00000000 2720.00000000 380.00000000 158 221 66 97.000000 1.000000 4.000000 1.000000 -60.708740 114.000000 145.000000 0.372870 -0.545464 -0.750624
3500.00000000 2740.00000000 400.00000000 158 221 66 97.000000 1.000000 4.000000 1.000000 -60.708740 114.000000 145.000000 -0.497798 0.810700 0.308161
3510.00000000 2720.00000000 380.00000000 158 221 66 97.000000 1.000000 4.000000 1.000000 -60.708740 114.000000 145.000000 -0.534956 0.672468 0.511478
3470.00000000 2710.00000000 380.00000000 158 221 66 97.000000 1.000000 4.000000 1.000000 -60.708740 114.000000 145.000000 0.373806 -0.559893 -0.739451
3480.00000000 2720.00000000 370.00000000 158 221 66 97.000000 1.000000 4.000000 1.000000 -60.708740 114.000000 145.000000 -0.265145 0.885315 0.381989
3460.00000000 2720.00000000 360.00000000 158 221 66 97.000000 1.000000 4.000000 1.000000 -60.708740 114.000000 145.000000 -0.235947 0.947881 0.214126
3470.00000000 2690.00000000 340.00000000 158 221 66 97.000000 1.000000 4.000000 1.000000 -60.708740 114.000000 145.000000 -0.279560 0.841768 0.461814
3480.00000000 2690.00000000 350.00000000 158 221 66 97.000000 1.000000 4.000000 1.000000 -60.708740 114.000000 145.000000 -0.231620 0.933500 0.273733
3480.00000000 2690.00000000 320.00000000 158 221 66 97.000000 1.000000 4.000000 1.000000 -60.708740 114.000000 145.000000 -0.385351 0.922507 0.022057
3460.00000000 2680.00000000 320.00000000 158 221 66 97.000000 1.000000 4.000000 1.000000 -60.708740 114.000000 145.000000 0.839057 -0.483186 -0.250030
3430.00000000 2670.00000000 350.00000000 158 221 66 97.000000 1.000000 4.000000 1.000000 -60.708740 114.000000 145.000000 -0.700511 0.675437 0.230369
3660.00000000 2970.00000000 290.00000000 158 221 66 97.000000 1.000000 4.000000 1.000000 -60.708740 114.000000 205.000000 -0.407348 0.835142 0.369601
3680.00000000 2920.00000000 150.00000000 158 221 66 97.000000 1.000000 4.000000 1.000000 -60.708740 114.000000 145.000000 -0.130369 0.987751 -0.085738
3690.00000000 2920.00000000 170.00000000 158 221 66 97.000000 1.000000 4.000000 1.000000 -60.708740 114.000000 145.000000 -0.184795 0.836836 -0.515322
3660.00000000 2910.00000000 150.00000000 158 221 66 97.000000 1.000000 4.000000 1.000000 -60.708740 114.000000 145.000000 -0.151244 0.984874 -0.084554
3560.00000000 2960.00000000 210.00000000 158 221 66 97.000000 1.000000 4.000000 1.000000 -60.708740 114.000000 145.000000 -0.583501 0.705822 -0.401674
3550.00000000 2940.00000000 150.00000000 158 221 66 97.000000 1.000000 4.000000 1.000000 -60.708740 114.000000 145.000000 -0.525095 0.841029 0.130177
3540.00000000 2930.00000000 190.00000000 158 221 66 97.000000 1.000000 4.000000 1.000000 -60.708740 114.000000 145.000000 -0.340325 0.821529 -0.457460
3590.00000000 2910.00000000 150.00000000 158 221 66 97.000000 1.000000 4.000000 1.000000 -60.708740 114.000000 145.000000 -0.513179 0.815784 -0.266728
3640.00000000 2950.00000000 80.00000000 158 221 66 97.000000 1.000000 4.000000 1.000000 -60.708740 114.000000 145.000000 -0.070134 0.957650 -0.279262
3680.00000000 2930.00000000 50.00000000 158 221 66 97.000000 1.000000 4.000000 1.000000 -60.708740 114.000000 145.000000 -0.401240 0.844633 -0.354403
3670.00000000 2910.00000000 140.00000000 158 221 66 97.000000 1.000000 4.000000 1.000000 -60.708740 114.000000 145.000000 -0.246977 0.740930 -0.624520
3690.00000000 2890.00000000 120.00000000 158 221 66 97.000000 1.000000 4.000000 1.000000 -60.708740 114.000000 145.000000 -0.093370 0.831715 -0.547295
3660.00000000 2850.00000000 90.00000000 158 221 66 97.000000 1.000000 4.000000 1.000000 -60.708740 114.000000 145.000000 -0.334595 0.754858 -0.564123
3630.00000000 2890.00000000 90.00000000 158 221 66 97.000000 1.000000 4.000000 1.000000 -60.708740 114.000000 145.000000 -0.553473 0.781840 -0.287045
3650.00000000 2910.00000000 90.00000000 158 221 66 97.000000 1.000000 4.000000 1.000000 -60.708740 114.000000 145.000000 -0.478844 0.865995 -0.144090
3630.00000000 2850.00000000 110.00000000 158 221 66 97.000000 1.000000 4.000000 1.000000 -60.708740 114.000000 145.000000 -0.199821 0.717187 -0.667619
3690.00000000 2830.00000000 20.00000000 158 221 66 97.000000 1.000000 4.000000 1.000000 -60.708740 114.000000 145.000000 0.128882 -0.490909 0.861625
3640.00000000 2900.00000000 20.00000000 158 221 66 97.000000 1.000000 4.000000 1.000000 -60.708740 114.000000 145.000000 -0.321180 0.744041 -0.585872
3550.00000000 2960.00000000 90.00000000 158 221 66 97.000000 1.000000 4.000000 1.000000 -60.708740 114.000000 145.000000 -0.191119 0.866703 -0.460760
3550.00000000 2950.00000000 -10.00000000 158 221 66 97.000000 1.000000 4.000000 1.000000 -60.708740 114.000000 145.000000 0.375314 -0.588374 0.716210
3590.00000000 2880.00000000 120.00000000 158 221 66 97.000000 1.000000 4.000000 1.000000 -60.708740 114.000000 145.000000 0.372492 -0.717088 0.589096
3600.00000000 2890.00000000 120.00000000 158 221 66 97.000000 1.000000 4.000000 1.000000 -60.708740 114.000000 145.000000 -0.366048 0.902725 -0.226046
3600.00000000 2890.00000000 90.00000000 158 221 66 97.000000 1.000000 4.000000 1.000000 -60.708740 114.000000 145.000000 -0.180671 0.969988 -0.162732
3610.00000000 2890.00000000 100.00000000 158 221 66 97.000000 1.000000 4.000000 1.000000 -60.708740 114.000000 145.000000 -0.347023 0.851217 -0.393707
3600.00000000 2840.00000000 100.00000000 158 221 66 97.000000 1.000000 4.000000 1.000000 -60.708740 114.000000 145.000000 -0.461142 0.710859 -0.531063
3610.00000000 2850.00000000 90.00000000 158 221 66 97.000000 1.000000 4.000000 1.000000 -60.708740 114.000000 145.000000 -0.440763 0.885833 -0.145007
3590.00000000 2830.00000000 70.00000000 158 221 66 97.000000 1.000000 4.000000 1.000000 -60.708740 114.000000 145.000000 0.069187 0.840125 -0.537962
3600.00000000 2840.00000000 100.00000000 158 221 66 97.000000 1.000000 4.000000 1.000000 -60.708740 114.000000 145.000000 -0.461142 0.710859 -0.531063
3570.00000000 2900.00000000 140.00000000 158 221 66 97.000000 1.000000 4.000000 1.000000 -60.708740 114.000000 145.000000 -0.461817 0.872645 -0.158795
3540.00000000 2710.00000000 300.00000000 158 221 66 97.000000 1.000000 4.000000 1.000000 -60.708740 114.000000 145.000000 -0.578492 0.808723 0.106373
3630.00000000 2800.00000000 20.00000000 158 221 66 97.000000 1.000000 4.000000 1.000000 -60.708740 114.000000 145.000000 0.001211 0.960094 -0.279674
3540.00000000 2800.00000000 60.00000000 158 221 66 97.000000 1.000000 4.000000 1.000000 -60.708740 114.000000 145.000000 -0.450294 0.875654 -0.174544
3550.00000000 2810.00000000 60.00000000 158 221 66 97.000000 1.000000 4.000000 1.000000 -60.708740 114.000000 145.000000 -0.622518 0.769522 -0.142504
3480.00000000 2940.00000000 240.00000000 158 221 66 97.000000 1.000000 4.000000 1.000000 -60.708740 114.000000 145.000000 -0.546654 0.837106 -0.020551
3490.00000000 2940.00000000 280.00000000 158 221 66 97.000000 1.000000 4.000000 1.000000 -60.708740 114.000000 145.000000 -0.732462 0.666285 0.139875
3480.00000000 2940.00000000 160.00000000 158 221 66 97.000000 1.000000 4.000000 1.000000 -60.708740 114.000000 145.000000 -0.201684 0.926619 -0.317335
3470.00000000 2900.00000000 250.00000000 158 221 66 97.000000 1.000000 4.000000 1.000000 -60.708740 114.000000 145.000000 -0.247981 0.912162 0.326290
3500.00000000 2840.00000000 160.00000000 158 221 66 97.000000 1.000000 4.000000 1.000000 -60.708740 114.000000 145.000000 -0.439590 0.749115 -0.495568
3480.00000000 2890.00000000 160.00000000 158 221 66 97.000000 1.000000 4.000000 1.000000 -60.708740 114.000000 145.000000 -0.398491 0.836359 -0.376441
3440.00000000 2890.00000000 180.00000000 158 221 66 97.000000 1.000000 4.000000 1.000000 -60.708740 114.000000 145.000000 -0.268465 0.927554 -0.259942
3400.00000000 2860.00000000 160.00000000 158 221 66 97.000000 1.000000 4.000000 1.000000 -60.708740 114.000000 145.000000 -0.631566 0.775292 -0.006910
3470.00000000 2920.00000000 70.00000000 158 221 66 97.000000 1.000000 4.000000 1.000000 -60.708740 114.000000 145.000000 -0.129446 0.967641 -0.216598
3510.00000000 2920.00000000 130.00000000 158 221 66 97.000000 1.000000 4.000000 1.000000 -60.708740 114.000000 145.000000 -0.530969 0.688417 -0.494119
3530.00000000 2870.00000000 130.00000000 158 221 66 97.000000 1.000000 4.000000 1.000000 -60.708740 114.000000 145.000000 -0.081808 0.978038 -0.191700
3470.00000000 2910.00000000 120.00000000 158 221 66 97.000000 1.000000 4.000000 1.000000 -60.708740 114.000000 145.000000 -0.589236 0.768364 -0.249836
3450.00000000 2900.00000000 110.00000000 158 221 66 97.000000 1.000000 4.000000 1.000000 -60.708740 114.000000 145.000000 -0.394441 0.912058 0.112104
3470.00000000 2850.00000000 130.00000000 158 221 66 97.000000 1.000000 4.000000 1.000000 -60.708740 114.000000 145.000000 -0.271419 0.832869 -0.482350
3530.00000000 2880.00000000 -10.00000000 158 221 66 97.000000 1.000000 4.000000 1.000000 -60.708740 114.000000 145.000000 0.467351 -0.604709 0.644911
3440.00000000 2890.00000000 120.00000000 158 221 66 97.000000 1.000000 4.000000 1.000000 -60.708740 114.000000 145.000000 -0.280633 0.919613 -0.274876
3440.00000000 2860.00000000 0.00000000 158 221 66 97.000000 1.000000 4.000000 1.000000 -60.708740 114.000000 145.000000 0.412730 -0.608321 0.677938
3490.00000000 2710.00000000 290.00000000 158 221 66 97.000000 1.000000 4.000000 1.000000 -60.708740 114.000000 145.000000 -0.449694 0.883684 0.129912
3490.00000000 2710.00000000 300.00000000 158 221 66 97.000000 1.000000 4.000000 1.000000 -60.708740 114.000000 145.000000 -0.590511 0.803152 0.079022
3510.00000000 2710.00000000 260.00000000 158 221 66 97.000000 1.000000 4.000000 1.000000 -60.708740 114.000000 145.000000 0.717546 -0.641178 -0.272063
3490.00000000 2730.00000000 240.00000000 158 221 66 97.000000 1.000000 4.000000 1.000000 -60.708740 114.000000 145.000000 -0.521730 0.738980 0.426271
3520.00000000 2710.00000000 270.00000000 158 221 66 97.000000 1.000000 4.000000 1.000000 -60.708740 114.000000 145.000000 0.788844 -0.560782 -0.251493
3470.00000000 2710.00000000 240.00000000 158 221 66 97.000000 1.000000 4.000000 1.000000 -60.708740 114.000000 145.000000 -0.705273 0.664250 0.247713
3470.00000000 2700.00000000 290.00000000 158 221 66 97.000000 1.000000 4.000000 1.000000 -60.708740 114.000000 145.000000 -0.562521 0.823027 -0.078724
3500.00000000 2740.00000000 230.00000000 158 221 66 97.000000 1.000000 4.000000 1.000000 -60.708740 114.000000 145.000000 -0.648905 0.737880 0.185621
3460.00000000 2710.00000000 190.00000000 158 221 66 97.000000 1.000000 4.000000 1.000000 -60.708740 114.000000 145.000000 -0.521853 0.848900 0.083895
3480.00000000 2720.00000000 170.00000000 158 221 66 97.000000 1.000000 4.000000 1.000000 -60.708740 114.000000 145.000000 0.677459 -0.725105 -0.123580
3470.00000000 2710.00000000 190.00000000 158 221 66 97.000000 1.000000 4.000000 1.000000 -60.708740 114.000000 145.000000 -0.425668 0.897696 0.113792
3470.00000000 2720.00000000 190.00000000 158 221 66 97.000000 1.000000 4.000000 1.000000 -60.708740 114.000000 145.000000 -0.641026 0.757036 -0.126421
3450.00000000 2690.00000000 210.00000000 158 221 66 97.000000 1.000000 4.000000 1.000000 -60.708740 114.000000 145.000000 -0.487745 0.808671 0.328870
3430.00000000 2780.00000000 180.00000000 158 221 66 97.000000 1.000000 4.000000 1.000000 -60.708740 114.000000 145.000000 -0.647773 0.708552 0.279902
3440.00000000 2780.00000000 180.00000000 158 221 66 97.000000 1.000000 4.000000 1.000000 -60.708740 114.000000 145.000000 0.735317 -0.663138 -0.139846
3440.00000000 2680.00000000 230.00000000 158 221 66 97.000000 1.000000 4.000000 1.000000 -60.708740 114.000000 145.000000 -0.364878 0.811017 0.457292
3400.00000000 2710.00000000 190.00000000 158 221 66 97.000000 1.000000 4.000000 1.000000 -60.708740 114.000000 145.000000 -0.343401 0.900507 0.266762
3390.00000000 2720.00000000 150.00000000 158 221 66 97.000000 1.000000 4.000000 1.000000 -60.708740 114.000000 145.000000 -0.436821 0.899023 -0.030724
3520.00000000 2800.00000000 80.00000000 158 221 66 97.000000 1.000000 4.000000 1.000000 -60.708740 114.000000 145.000000 0.017811 0.974873 -0.222048
3480.00000000 2790.00000000 80.00000000 158 221 66 97.000000 1.000000 4.000000 1.000000 -60.708740 114.000000 145.000000 -0.262949 0.964145 -0.035801
3480.00000000 2760.00000000 120.00000000 158 221 66 97.000000 1.000000 4.000000 1.000000 -60.708740 114.000000 145.000000 -0.120775 0.990357 -0.067864
3470.00000000 2760.00000000 90.00000000 158 221 66 97.000000 1.000000 4.000000 1.000000 -60.708740 114.000000 145.000000 0.721269 -0.658956 0.213421
3530.00000000 2790.00000000 60.00000000 158 221 66 97.000000 1.000000 4.000000 1.000000 -60.708740 114.000000 145.000000 -0.548963 0.802568 -0.233503
3450.00000000 2810.00000000 -10.00000000 158 221 66 97.000000 1.000000 4.000000 1.000000 -60.708740 114.000000 145.000000 0.047074 -0.688997 0.723233
3460.00000000 2760.00000000 -10.00000000 158 221 66 97.000000 1.000000 4.000000 1.000000 -60.708740 114.000000 145.000000 -0.532946 0.804889 -0.261003
3450.00000000 2710.00000000 120.00000000 158 221 66 97.000000 1.000000 4.000000 1.000000 -60.708740 114.000000 145.000000 -0.291483 0.901082 -0.321075
3460.00000000 2690.00000000 120.00000000 158 221 66 97.000000 1.000000 4.000000 1.000000 -60.708740 114.000000 145.000000 -0.103824 0.980831 -0.164897
3450.00000000 2700.00000000 120.00000000 158 221 66 97.000000 1.000000 4.000000 1.000000 -60.708740 114.000000 145.000000 -0.108521 0.981571 -0.157295
3440.00000000 2780.00000000 130.00000000 158 221 66 97.000000 1.000000 4.000000 1.000000 -60.708740 114.000000 145.000000 -0.530293 0.834584 -0.149191
3440.00000000 2770.00000000 140.00000000 158 221 66 97.000000 1.000000 4.000000 1.000000 -60.708740 114.000000 145.000000 -0.204238 0.888950 -0.409945
3440.00000000 2780.00000000 10.00000000 158 221 66 97.000000 1.000000 4.000000 1.000000 -60.708740 114.000000 145.000000 0.646302 -0.691657 0.322341
3390.00000000 2810.00000000 40.00000000 158 221 66 97.000000 1.000000 4.000000 1.000000 -60.708740 114.000000 145.000000 -0.545829 0.805600 -0.230392
3380.00000000 2750.00000000 10.00000000 158 221 66 97.000000 1.000000 4.000000 1.000000 -60.708740 114.000000 145.000000 0.395763 -0.630903 0.667333
