//X Y Z R G B PointSourceId ScanDirectionFlag NumberOfReturns ReturnNumber GpsTime Intensity Classification Nx Ny Nz
500.00000000 4390.00000000 20.00000000 72 71 184 97.000000 1.000000 4.000000 1.000000 -60.708740 114.000000 149.000000 0.681849 0.139982 -0.717974
500.00000000 4380.00000000 50.00000000 72 71 184 97.000000 1.000000 4.000000 1.000000 -60.708740 114.000000 149.000000 -0.566778 -0.037600 0.823012
480.00000000 4410.00000000 20.00000000 72 71 184 97.000000 1.000000 4.000000 1.000000 -60.708740 114.000000 149.000000 -0.411030 0.227031 0.882899
490.00000000 4370.00000000 30.00000000 72 71 184 97.000000 1.000000 4.000000 1.000000 -60.708740 114.000000 149.000000 -0.480515 0.444435 0.756031
460.00000000 4350.00000000 30.00000000 72 71 184 97.000000 1.000000 4.000000 1.000000 -60.708740 114.000000 149.000000 -0.203365 0.399415 0.893929
470.00000000 4380.00000000 30.00000000 72 71 184 97.000000 1.000000 4.000000 1.000000 -60.708740 114.000000 149.000000 0.684055 -0.427743 -0.590851
470.00000000 4320.00000000 40.00000000 72 71 184 97.000000 1.000000 4.000000 1.000000 -60.708740 114.000000 149.000000 -0.544425 -0.213169 0.811270
460.00000000 4300.00000000 0.00000000 72 71 184 97.000000 1.000000 4.000000 1.000000 -60.708740 114.000000 149.000000 0.459172 -0.518847 -0.721082
440.00000000 4310.00000000 30.00000000 72 71 184 97.000000 1.000000 4.000000 1.000000 -60.708740 114.000000 149.000000 -0.179156 0.019649 0.983624
450.00000000 4330.00000000 40.00000000 72 71 184 97.000000 1.000000 4.000000 1.000000 -60.708740 114.000000 149.000000 0.759816 0.098088 -0.642696
430.00000000 4310.00000000 20.00000000 72 71 184 97.000000 1.000000 4.000000 1.000000 -60.708740 114.000000 149.000000 0.659755 -0.388577 -0.643220
450.00000000 4310.00000000 -10.00000000 72 71 184 97.000000 1.000000 4.000000 1.000000 -60.708740 114.000000 149.000000 -0.325864 0.344052 0.880591
430.00000000 4320.00000000 20.00000000 72 71 184 97.000000 1.000000 4.000000 1.000000 -60.708740 114.000000 149.000000 0.725520 0.064907 -0.685133
430.00000000 4290.00000000 0.00000000 72 71 184 97.000000 1.000000 4.000000 1.000000 -60.708740 114.000000 149.000000 -0.649312 -0.192789 0.735681
440.00000000 4290.00000000 10.00000000 72 71 184 97.000000 1.000000 4.000000 1.000000 -60.708740 114.000000 149.000000 0.759266 -0.015325 -0.650600
430.00000000 4290.00000000 0.00000000 72 71 184 97.000000 1.000000 4.000000 1.000000 -60.708740 114.000000 149.000000 -0.649312 -0.192789 0.735681
450.00000000 4290.00000000 10.00000000 72 71 184 97.000000 1.000000 4.000000 1.000000 -60.708740 114.000000 149.000000 -0.198851 0.106304 0.974247
430.00000000 4290.00000000 0.00000000 72 71 184 97.000000 1.000000 4.000000 1.000000 -60.708740 114.000000 149.000000 -0.649312 -0.192789 0.735681
440.00000000 4290.00000000 10.00000000 72 71 184 97.000000 1.000000 4.000000 1.000000 -60.708740 114.000000 149.000000 0.759266 -0.015325 -0.650600
400.00000000 4300.00000000 -10.00000000 72 71 184 97.000000 1.000000 4.000000 1.000000 -60.708740 114.000000 149.000000 -0.745272 0.518236 0.419524
410.00000000 4230.00000000 -10.00000000 72 71 184 97.000000 1.000000 4.000000 1.000000 -60.708740 114.000000 149.000000 0.603277 0.091582 -0.792256
410.00000000 4260.00000000 -10.00000000 72 71 184 97.000000 1.000000 4.000000 1.000000 -60.708740 114.000000 149.000000 -0.414398 0.077956 0.906751
430.00000000 3790.00000000 20.00000000 72 71 184 97.000000 1.000000 4.000000 1.000000 -60.708740 114.000000 149.000000 0.394858 -0.332920 0.856301
420.00000000 3770.00000000 0.00000000 72 71 184 97.000000 1.000000 4.000000 1.000000 -60.708740 114.000000 149.000000 0.347205 -0.287599 0.892600
420.00000000 3740.00000000 10.00000000 72 71 184 97.000000 1.000000 4.000000 1.000000 -60.708740 114.000000 149.000000 -0.028474 -0.484064 0.874569
440.00000000 3730.00000000 0.00000000 72 71 184 97.000000 1.000000 4.000000 1.000000 -60.708740 114.000000 149.000000 0.108396 -0.527525 0.842596
420.00000000 3740.00000000 10.00000000 72 71 184 97.000000 1.000000 4.000000 1.000000 -60.708740 114.000000 149.000000 -0.028474 -0.484064 0.874569
420.00000000 3750.00000000 10.00000000 72 71 184 97.000000 1.000000 4.000000 1.000000 -60.708740 114.000000 149.000000 0.176440 -0.107345 0.978441
390.00000000 3810.00000000 30.00000000 72 71 184 97.000000 1.000000 4.000000 1.000000 -60.708740 114.000000 149.000000 0.346055 -0.240925 0.906753
400.00000000 3790.00000000 10.00000000 72 71 184 97.000000 1.000000 4.000000 1.000000 -60.708740 114.000000 149.000000 0.011914 -0.454052 0.890895
410.00000000 3730.00000000 10.00000000 72 71 184 97.000000 1.000000 4.000000 1.000000 -60.708740 114.000000 149.000000 0.558897 -0.388442 0.732630
1180.00000000 5750.00000000 -220.00000000 72 71 184 97.000000 1.000000 4.000000 1.000000 -60.708740 114.000000 149.000000 0.329802 -0.622236 0.709967
1180.00000000 5750.00000000 -220.00000000 72 71 184 97.000000 1.000000 4.000000 1.000000 -60.708740 114.000000 149.000000 0.329802 -0.622236 0.709967
1190.00000000 5720.00000000 -240.00000000 72 71 184 97.000000 1.000000 4.000000 1.000000 -60.708740 114.000000 149.000000 0.494727 -0.461635 0.736300
1150.00000000 5970.00000000 -70.00000000 72 71 184 97.000000 1.000000 4.000000 1.000000 -60.708740 114.000000 149.000000 0.976796 -0.199771 0.077212
1090.00000000 5910.00000000 -50.00000000 72 71 184 97.000000 1.000000 4.000000 1.000000 -60.708740 114.000000 149.000000 0.775444 -0.492577 0.395037
1090.00000000 5920.00000000 -50.00000000 72 71 184 97.000000 1.000000 4.000000 1.000000 -60.708740 114.000000 149.000000 -0.674783 0.737027 -0.038195
1120.00000000 5930.00000000 -130.00000000 72 71 184 97.000000 1.000000 4.000000 1.000000 -60.708740 114.000000 149.000000 0.906814 -0.387003 0.167082
1120.00000000 5830.00000000 -70.00000000 72 71 184 97.000000 1.000000 4.000000 1.000000 -60.708740 114.000000 149.000000 0.842530 -0.407978 0.351705
1100.00000000 5810.00000000 -100.00000000 72 71 184 97.000000 1.000000 4.000000 1.000000 -60.708740 114.000000 149.000000 0.876146 -0.209030 0.434367
1090.00000000 5840.00000000 -110.00000000 72 71 184 97.000000 1.000000 4.000000 1.000000 -60.708740 114.000000 149.000000 0.982222 -0.151765 0.110485
1090.00000000 5830.00000000 -160.00000000 72 71 184 97.000000 1.000000 4.000000 1.000000 -60.708740 114.000000 149.000000 -0.538213 0.494619 -0.682407
1110.00000000 5790.00000000 -160.00000000 72 71 184 97.000000 1.000000 4.000000 1.000000 -60.708740 114.000000 149.000000 0.448164 -0.422278 0.787928
1110.00000000 5800.00000000 -160.00000000 72 71 184 97.000000 1.000000 4.000000 1.000000 -60.708740 114.000000 149.000000 0.664967 -0.460620 0.587918
1100.00000000 5760.00000000 -60.00000000 72 71 184 97.000000 1.000000 4.000000 1.000000 -60.708740 114.000000 149.000000 0.894693 -0.244007 0.374145
1100.00000000 5750.00000000 -100.00000000 72 71 184 97.000000 1.000000 4.000000 1.000000 -60.708740 114.000000 149.000000 0.977793 -0.188179 0.092245
1100.00000000 5700.00000000 -90.00000000 72 71 184 97.000000 1.000000 4.000000 1.000000 -60.708740 114.000000 149.000000 0.940003 -0.194626 0.280206
1090.00000000 5700.00000000 -80.00000000 72 71 184 97.000000 1.000000 4.000000 1.000000 -60.708740 114.000000 149.000000 0.862651 -0.481854 0.153783
1170.00000000 5710.00000000 -160.00000000 72 71 184 97.000000 1.000000 4.000000 1.000000 -60.708740 114.000000 149.000000 0.487530 -0.409265 0.771244
1140.00000000 5710.00000000 -180.00000000 72 71 184 97.000000 1.000000 4.000000 1.000000 -60.708740 114.000000 149.000000 0.795366 -0.329941 0.508460
1140.00000000 5710.00000000 -180.00000000 72 71 184 97.000000 1.000000 4.000000 1.000000 -60.708740 114.000000 149.000000 0.795366 -0.329941 0.508460
1120.00000000 5750.00000000 -140.00000000 72 71 184 97.000000 1.000000 4.000000 1.000000 -60.708740 114.000000 149.000000 0.711806 -0.308288 0.631103
1120.00000000 5770.00000000 -140.00000000 72 71 184 97.000000 1.000000 4.000000 1.000000 -60.708740 114.000000 149.000000 0.783133 -0.293873 0.548034
1120.00000000 5710.00000000 -150.00000000 72 71 184 97.000000 1.000000 4.000000 1.000000 -60.708740 114.000000 149.000000 0.389376 -0.560241 0.731106
1120.00000000 5710.00000000 -160.00000000 72 71 184 97.000000 1.000000 4.000000 1.000000 -60.708740 114.000000 149.000000 0.678459 -0.474083 0.561194
1120.00000000 5700.00000000 -160.00000000 72 71 184 97.000000 1.000000 4.000000 1.000000 -60.708740 114.000000 149.000000 0.385884 -0.449931 0.805392
1120.00000000 5710.00000000 -150.00000000 72 71 184 97.000000 1.000000 4.000000 1.000000 -60.708740 114.000000 149.000000 0.389376 -0.560241 0.731106
1110.00000000 5700.00000000 -160.00000000 72 71 184 97.000000 1.000000 4.000000 1.000000 -60.708740 114.000000 149.000000 0.738107 -0.513538 0.437580
1070.00000000 5830.00000000 -60.00000000 72 71 184 97.000000 1.000000 4.000000 1.000000 -60.708740 114.000000 149.000000 0.858831 -0.413284 0.302665
1070.00000000 5830.00000000 -70.00000000 72 71 184 97.000000 1.000000 4.000000 1.000000 -60.708740 114.000000 149.000000 0.944593 -0.325146 0.044981
1070.00000000 5790.00000000 -100.00000000 72 71 184 97.000000 1.000000 4.000000 1.000000 -60.708740 114.000000 149.000000 0.769646 -0.587815 0.249234
1070.00000000 5760.00000000 -40.00000000 72 71 184 97.000000 1.000000 4.000000 1.000000 -60.708740 114.000000 149.000000 0.844608 -0.427748 0.321978
1080.00000000 5720.00000000 -60.00000000 72 71 184 97.000000 1.000000 4.000000 1.000000 -60.708740 114.000000 149.000000 0.974073 -0.226229 0.001172
1070.00000000 5700.00000000 -50.00000000 72 71 184 97.000000 1.000000 4.000000 1.000000 -60.708740 114.000000 149.000000 0.921522 -0.274588 0.274588
1070.00000000 5710.00000000 -80.00000000 72 71 184 97.000000 1.000000 4.000000 1.000000 -60.708740 114.000000 149.000000 0.988699 -0.148361 0.021518
1070.00000000 5720.00000000 -70.00000000 72 71 184 97.000000 1.000000 4.000000 1.000000 -60.708740 114.000000 149.000000 0.958552 -0.278044 0.062211
1050.00000000 5750.00000000 -130.00000000 72 71 184 97.000000 1.000000 4.000000 1.000000 -60.708740 114.000000 149.000000 0.712244 -0.665283 0.223848
1080.00000000 5710.00000000 -140.00000000 72 71 184 97.000000 1.000000 4.000000 1.000000 -60.708740 114.000000 149.000000 0.888878 -0.355251 0.289297
1120.00000000 5840.00000000 -190.00000000 72 71 184 97.000000 1.000000 4.000000 1.000000 -60.708740 114.000000 149.000000 0.885499 -0.082016 0.457346
1150.00000000 5740.00000000 -210.00000000 72 71 184 97.000000 1.000000 4.000000 1.000000 -60.708740 114.000000 149.000000 0.479147 -0.277564 0.832692
1170.00000000 5750.00000000 -220.00000000 72 71 184 97.000000 1.000000 4.000000 1.000000 -60.708740 114.000000 149.000000 0.365535 -0.598297 0.713039
1160.00000000 5750.00000000 -210.00000000 72 71 184 97.000000 1.000000 4.000000 1.000000 -60.708740 114.000000 149.000000 0.520185 -0.392993 0.758264
1140.00000000 5770.00000000 -210.00000000 72 71 184 97.000000 1.000000 4.000000 1.000000 -60.708740 114.000000 149.000000 0.236677 -0.612853 0.753919
1150.00000000 5740.00000000 -210.00000000 72 71 184 97.000000 1.000000 4.000000 1.000000 -60.708740 114.000000 149.000000 0.479147 -0.277564 0.832692
1140.00000000 5750.00000000 -240.00000000 72 71 184 97.000000 1.000000 4.000000 1.000000 -60.708740 114.000000 149.000000 0.608134 -0.467409 0.641640
1150.00000000 5730.00000000 -210.00000000 72 71 184 97.000000 1.000000 4.000000 1.000000 -60.708740 114.000000 149.000000 0.067289 -0.347000 0.935448
1180.00000000 5620.00000000 -40.00000000 72 71 184 97.000000 1.000000 4.000000 1.000000 -60.708740 114.000000 149.000000 0.803925 -0.495091 0.329530
1290.00000000 5600.00000000 -250.00000000 72 71 184 97.000000 1.000000 4.000000 1.000000 -60.708740 114.000000 149.000000 -0.390436 -0.167330 0.905296
1180.00000000 5550.00000000 -200.00000000 72 71 184 97.000000 1.000000 4.000000 1.000000 -60.708740 114.000000 149.000000 0.005950 -0.243931 0.969774
1280.00000000 5360.00000000 -90.00000000 72 71 184 97.000000 1.000000 4.000000 1.000000 -60.708740 114.000000 149.000000 0.834583 -0.537454 0.120891
1280.00000000 5370.00000000 -170.00000000 72 71 184 97.000000 1.000000 4.000000 1.000000 -60.708740 114.000000 149.000000 0.735652 0.012516 -0.677244
1260.00000000 5380.00000000 -110.00000000 72 71 184 97.000000 1.000000 4.000000 1.000000 -60.708740 114.000000 149.000000 0.887066 0.011969 -0.461487
1300.00000000 5360.00000000 -200.00000000 72 71 184 97.000000 1.000000 4.000000 1.000000 -60.708740 114.000000 149.000000 0.765443 -0.322545 -0.556832
1260.00000000 5400.00000000 -210.00000000 72 71 184 97.000000 1.000000 4.000000 1.000000 -60.708740 114.000000 149.000000 -0.676841 -0.143207 0.722065
1260.00000000 5410.00000000 -220.00000000 72 71 184 97.000000 1.000000 4.000000 1.000000 -60.708740 114.000000 149.000000 0.708260 -0.026753 -0.705444
1240.00000000 5440.00000000 -250.00000000 72 71 184 97.000000 1.000000 4.000000 1.000000 -60.708740 114.000000 149.000000 -0.503471 0.444045 0.741175
1240.00000000 5450.00000000 -270.00000000 72 71 184 97.000000 1.000000 4.000000 1.000000 -60.708740 114.000000 149.000000 -0.278753 0.381213 0.881461
1180.00000000 5480.00000000 -210.00000000 72 71 184 97.000000 1.000000 4.000000 1.000000 -60.708740 114.000000 149.000000 -0.016024 -0.287198 0.957737
1250.00000000 5430.00000000 -240.00000000 72 71 184 97.000000 1.000000 4.000000 1.000000 -60.708740 114.000000 149.000000 -0.654929 0.018154 0.755472
1220.00000000 5390.00000000 -260.00000000 72 71 184 97.000000 1.000000 4.000000 1.000000 -60.708740 114.000000 149.000000 -0.177368 -0.134599 0.974897
1130.00000000 5620.00000000 -40.00000000 72 71 184 97.000000 1.000000 4.000000 1.000000 -60.708740 114.000000 149.000000 0.829481 -0.358652 -0.428170
1140.00000000 5670.00000000 -150.00000000 72 71 184 97.000000 1.000000 4.000000 1.000000 -60.708740 114.000000 149.000000 0.509168 -0.392043 0.766192
1160.00000000 5670.00000000 -160.00000000 72 71 184 97.000000 1.000000 4.000000 1.000000 -60.708740 114.000000 149.000000 0.703898 -0.186371 0.685415
1130.00000000 5660.00000000 -130.00000000 72 71 184 97.000000 1.000000 4.000000 1.000000 -60.708740 114.000000 149.000000 0.658459 -0.537208 0.527104
1100.00000000 5670.00000000 -130.00000000 72 71 184 97.000000 1.000000 4.000000 1.000000 -60.708740 114.000000 149.000000 0.792480 -0.203868 0.574816
1130.00000000 5680.00000000 -180.00000000 72 71 184 97.000000 1.000000 4.000000 1.000000 -60.708740 114.000000 149.000000 0.727235 -0.349789 0.590573
1110.00000000 5680.00000000 -170.00000000 72 71 184 97.000000 1.000000 4.000000 1.000000 -60.708740 114.000000 149.000000 0.822984 -0.232282 0.518403
1130.00000000 5690.00000000 -180.00000000 72 71 184 97.000000 1.000000 4.000000 1.000000 -60.708740 114.000000 149.000000 0.256989 -0.401263 0.879173
1100.00000000 5610.00000000 -110.00000000 72 71 184 97.000000 1.000000 4.000000 1.000000 -60.708740 114.000000 149.000000 -0.615627 0.652331 -0.442117
1100.00000000 5610.00000000 -110.00000000 72 71 184 97.000000 1.000000 4.000000 1.000000 -60.708740 114.000000 149.000000 -0.615627 0.652331 -0.442117
1090.00000000 5640.00000000 -120.00000000 72 71 184 97.000000 1.000000 4.000000 1.000000 -60.708740 114.000000 149.000000 -0.593587 0.660470 -0.459821
1110.00000000 5650.00000000 -120.00000000 72 71 184 97.000000 1.000000 4.000000 1.000000 -60.708740 114.000000 149.000000 -0.690835 0.567650 -0.447794
1090.00000000 5620.00000000 -140.00000000 72 71 184 97.000000 1.000000 4.000000 1.000000 -60.708740 114.000000 149.000000 0.493626 -0.340266 0.800345
1110.00000000 5610.00000000 -160.00000000 72 71 184 97.000000 1.000000 4.000000 1.000000 -60.708740 114.000000 149.000000 0.591731 -0.158096 0.790481
1100.00000000 5620.00000000 -150.00000000 72 71 184 97.000000 1.000000 4.000000 1.000000 -60.708740 114.000000 149.000000 0.689567 -0.230903 0.686426
1120.00000000 5650.00000000 -170.00000000 72 71 184 97.000000 1.000000 4.000000 1.000000 -60.708740 114.000000 149.000000 0.246401 -0.260481 0.933508
1090.00000000 5650.00000000 -150.00000000 72 71 184 97.000000 1.000000 4.000000 1.000000 -60.708740 114.000000 149.000000 0.656299 -0.219806 0.721773
1110.00000000 5610.00000000 -150.00000000 72 71 184 97.000000 1.000000 4.000000 1.000000 -60.708740 114.000000 149.000000 0.275998 -0.547265 0.790143
1110.00000000 5610.00000000 -160.00000000 72 71 184 97.000000 1.000000 4.000000 1.000000 -60.708740 114.000000 149.000000 0.591731 -0.158096 0.790481
1150.00000000 5590.00000000 -50.00000000 72 71 184 97.000000 1.000000 4.000000 1.000000 -60.708740 114.000000 149.000000 0.997054 -0.076696 -0.001051
1160.00000000 5590.00000000 -50.00000000 72 71 184 97.000000 1.000000 4.000000 1.000000 -60.708740 114.000000 149.000000 0.850585 -0.512662 0.116974
1150.00000000 5590.00000000 -50.00000000 72 71 184 97.000000 1.000000 4.000000 1.000000 -60.708740 114.000000 149.000000 0.997054 -0.076696 -0.001051
1150.00000000 5540.00000000 -30.00000000 72 71 184 97.000000 1.000000 4.000000 1.000000 -60.708740 114.000000 149.000000 0.816108 0.097121 -0.569681
1140.00000000 5540.00000000 -100.00000000 72 71 184 97.000000 1.000000 4.000000 1.000000 -60.708740 114.000000 149.000000 0.724070 -0.367756 0.583506
1100.00000000 5600.00000000 -40.00000000 72 71 184 97.000000 1.000000 4.000000 1.000000 -60.708740 114.000000 149.000000 0.979523 -0.181754 -0.086608
1110.00000000 5600.00000000 -40.00000000 72 71 184 97.000000 1.000000 4.000000 1.000000 -60.708740 114.000000 149.000000 0.939001 -0.183388 -0.290939
1090.00000000 5580.00000000 -60.00000000 72 71 184 97.000000 1.000000 4.000000 1.000000 -60.708740 114.000000 149.000000 0.764113 -0.638944 -0.088783
1090.00000000 5540.00000000 -50.00000000 72 71 184 97.000000 1.000000 4.000000 1.000000 -60.708740 114.000000 149.000000 0.893788 -0.349485 0.281075
1130.00000000 5540.00000000 -80.00000000 72 71 184 97.000000 1.000000 4.000000 1.000000 -60.708740 114.000000 149.000000 0.474302 -0.228817 0.850106
1170.00000000 5590.00000000 -140.00000000 72 71 184 97.000000 1.000000 4.000000 1.000000 -60.708740 114.000000 149.000000 -0.011695 -0.406713 0.913481
1170.00000000 5590.00000000 -140.00000000 72 71 184 97.000000 1.000000 4.000000 1.000000 -60.708740 114.000000 149.000000 -0.011695 -0.406713 0.913481
1170.00000000 5590.00000000 -140.00000000 72 71 184 97.000000 1.000000 4.000000 1.000000 -60.708740 114.000000 149.000000 -0.011695 -0.406713 0.913481
1090.00000000 5590.00000000 -120.00000000 72 71 184 97.000000 1.000000 4.000000 1.000000 -60.708740 114.000000 149.000000 0.766337 -0.459148 0.449345
1120.00000000 5570.00000000 -180.00000000 72 71 184 97.000000 1.000000 4.000000 1.000000 -60.708740 114.000000 149.000000 0.378007 -0.384281 0.842282
1110.00000000 5590.00000000 -170.00000000 72 71 184 97.000000 1.000000 4.000000 1.000000 -60.708740 114.000000 149.000000 0.529321 -0.404775 0.745638
1100.00000000 5600.00000000 -150.00000000 72 71 184 97.000000 1.000000 4.000000 1.000000 -60.708740 114.000000 149.000000 -0.658250 0.550506 -0.513469
1120.00000000 5570.00000000 -180.00000000 72 71 184 97.000000 1.000000 4.000000 1.000000 -60.708740 114.000000 149.000000 0.378007 -0.384281 0.842282
1110.00000000 5590.00000000 -170.00000000 72 71 184 97.000000 1.000000 4.000000 1.000000 -60.708740 114.000000 149.000000 0.529321 -0.404775 0.745638
1080.00000000 5670.00000000 -40.00000000 72 71 184 97.000000 1.000000 4.000000 1.000000 -60.708740 114.000000 149.000000 0.904633 -0.394619 0.160982
1080.00000000 5670.00000000 -50.00000000 72 71 184 97.000000 1.000000 4.000000 1.000000 -60.708740 114.000000 149.000000 0.786712 -0.602303 0.135332
1080.00000000 5670.00000000 -50.00000000 72 71 184 97.000000 1.000000 4.000000 1.000000 -60.708740 114.000000 149.000000 0.786712 -0.602303 0.135332
1070.00000000 5660.00000000 -40.00000000 72 71 184 97.000000 1.000000 4.000000 1.000000 -60.708740 114.000000 149.000000 0.931140 -0.353376 0.090024
1080.00000000 5660.00000000 -30.00000000 72 71 184 97.000000 1.000000 4.000000 1.000000 -60.708740 114.000000 149.000000 0.821910 -0.563719 -0.081761
1080.00000000 5660.00000000 -30.00000000 72 71 184 97.000000 1.000000 4.000000 1.000000 -60.708740 114.000000 149.000000 0.821910 -0.563719 -0.081761
1080.00000000 5670.00000000 -50.00000000 72 71 184 97.000000 1.000000 4.000000 1.000000 -60.708740 114.000000 149.000000 0.786712 -0.602303 0.135332
1070.00000000 5690.00000000 -70.00000000 72 71 184 97.000000 1.000000 4.000000 1.000000 -60.708740 114.000000 149.000000 0.972055 -0.234388 -0.013088
1050.00000000 5670.00000000 -90.00000000 72 71 184 97.000000 1.000000 4.000000 1.000000 -60.708740 114.000000 149.000000 -0.579360 0.711408 -0.397794
1070.00000000 5640.00000000 -40.00000000 72 71 184 97.000000 1.000000 4.000000 1.000000 -60.708740 114.000000 149.000000 0.913885 -0.208027 -0.348625
1060.00000000 5620.00000000 -100.00000000 72 71 184 97.000000 1.000000 4.000000 1.000000 -60.708740 114.000000 149.000000 0.807852 -0.588914 0.023557
1060.00000000 5620.00000000 -90.00000000 72 71 184 97.000000 1.000000 4.000000 1.000000 -60.708740 114.000000 149.000000 0.710479 -0.682976 0.169598
1030.00000000 5690.00000000 -60.00000000 72 71 184 97.000000 1.000000 4.000000 1.000000 -60.708740 114.000000 149.000000 0.939425 -0.314048 -0.137311
1030.00000000 5640.00000000 -40.00000000 72 71 184 97.000000 1.000000 4.000000 1.000000 -60.708740 114.000000 149.000000 -0.726945 0.669515 0.152643
1030.00000000 5650.00000000 -90.00000000 72 71 184 97.000000 1.000000 4.000000 1.000000 -60.708740 114.000000 149.000000 0.932203 -0.346709 0.103878
1070.00000000 5690.00000000 -120.00000000 72 71 184 97.000000 1.000000 4.000000 1.000000 -60.708740 114.000000 149.000000 0.827388 -0.390755 0.403411
1070.00000000 5630.00000000 -110.00000000 72 71 184 97.000000 1.000000 4.000000 1.000000 -60.708740 114.000000 149.000000 0.844175 -0.439966 0.306266
1080.00000000 5630.00000000 -130.00000000 72 71 184 97.000000 1.000000 4.000000 1.000000 -60.708740 114.000000 149.000000 0.503621 -0.402571 0.764396
1060.00000000 5620.00000000 -120.00000000 72 71 184 97.000000 1.000000 4.000000 1.000000 -60.708740 114.000000 149.000000 0.825926 -0.450074 0.339530
1080.00000000 5620.00000000 -130.00000000 72 71 184 97.000000 1.000000 4.000000 1.000000 -60.708740 114.000000 149.000000 0.639648 -0.229898 0.733483
1080.00000000 5620.00000000 -130.00000000 72 71 184 97.000000 1.000000 4.000000 1.000000 -60.708740 114.000000 149.000000 0.639648 -0.229898 0.733483
1060.00000000 5620.00000000 -120.00000000 72 71 184 97.000000 1.000000 4.000000 1.000000 -60.708740 114.000000 149.000000 0.825926 -0.450074 0.339530
1070.00000000 5630.00000000 -110.00000000 72 71 184 97.000000 1.000000 4.000000 1.000000 -60.708740 114.000000 149.000000 0.844175 -0.439966 0.306266
1020.00000000 5630.00000000 -110.00000000 72 71 184 97.000000 1.000000 4.000000 1.000000 -60.708740 114.000000 149.000000 0.977904 -0.179262 0.107557
1080.00000000 5580.00000000 -60.00000000 72 71 184 97.000000 1.000000 4.000000 1.000000 -60.708740 114.000000 149.000000 0.900500 -0.433574 -0.033352
1050.00000000 5600.00000000 -70.00000000 72 71 184 97.000000 1.000000 4.000000 1.000000 -60.708740 114.000000 149.000000 0.624960 -0.735713 0.261059
1080.00000000 5540.00000000 -30.00000000 72 71 184 97.000000 1.000000 4.000000 1.000000 -60.708740 114.000000 149.000000 0.907926 -0.381758 -0.173006
1080.00000000 5540.00000000 -30.00000000 72 71 184 97.000000 1.000000 4.000000 1.000000 -60.708740 114.000000 149.000000 0.907926 -0.381758 -0.173006
1080.00000000 5550.00000000 -100.00000000 72 71 184 97.000000 1.000000 4.000000 1.000000 -60.708740 114.000000 149.000000 -0.607312 0.714772 -0.346803
1070.00000000 5560.00000000 -130.00000000 72 71 184 97.000000 1.000000 4.000000 1.000000 -60.708740 114.000000 149.000000 0.783547 -0.537791 0.311184
1030.00000000 5570.00000000 -170.00000000 72 71 184 97.000000 1.000000 4.000000 1.000000 -60.708740 114.000000 149.000000 0.892399 -0.297466 0.339321
1170.00000000 5690.00000000 -210.00000000 72 71 184 97.000000 1.000000 4.000000 1.000000 -60.708740 114.000000 149.000000 0.041367 -0.045609 0.998102
1150.00000000 5660.00000000 -240.00000000 72 71 184 97.000000 1.000000 4.000000 1.000000 -60.708740 114.000000 149.000000 0.623563 -0.251004 0.740382
1160.00000000 5650.00000000 -210.00000000 72 71 184 97.000000 1.000000 4.000000 1.000000 -60.708740 114.000000 149.000000 0.030510 -0.047343 0.998413
1160.00000000 5630.00000000 -220.00000000 72 71 184 97.000000 1.000000 4.000000 1.000000 -60.708740 114.000000 149.000000 0.066834 0.060261 0.995943
1090.00000000 5620.00000000 -260.00000000 72 71 184 97.000000 1.000000 4.000000 1.000000 -60.708740 114.000000 149.000000 0.344325 -0.435516 0.831725
1170.00000000 5570.00000000 -200.00000000 72 71 184 97.000000 1.000000 4.000000 1.000000 -60.708740 114.000000 149.000000 0.241992 -0.209180 0.947462
1120.00000000 5560.00000000 -190.00000000 72 71 184 97.000000 1.000000 4.000000 1.000000 -60.708740 114.000000 149.000000 0.327941 -0.389526 0.860653
1120.00000000 5540.00000000 -220.00000000 72 71 184 97.000000 1.000000 4.000000 1.000000 -60.708740 114.000000 149.000000 0.541164 -0.368902 0.755680
1130.00000000 5530.00000000 -190.00000000 72 71 184 97.000000 1.000000 4.000000 1.000000 -60.708740 114.000000 149.000000 0.106573 -0.338605 0.934874
1080.00000000 5610.00000000 -260.00000000 72 71 184 97.000000 1.000000 4.000000 1.000000 -60.708740 114.000000 149.000000 0.154598 -0.437787 0.885687
1080.00000000 5590.00000000 -230.00000000 72 71 184 97.000000 1.000000 4.000000 1.000000 -60.708740 114.000000 149.000000 0.146457 -0.358471 0.921981
1070.00000000 5530.00000000 -240.00000000 72 71 184 97.000000 1.000000 4.000000 1.000000 -60.708740 114.000000 149.000000 0.608602 -0.406287 0.681568
1020.00000000 5570.00000000 -190.00000000 72 71 184 97.000000 1.000000 4.000000 1.000000 -60.708740 114.000000 149.000000 0.456549 -0.519636 0.722178
1070.00000000 5510.00000000 -40.00000000 72 71 184 97.000000 1.000000 4.000000 1.000000 -60.708740 114.000000 149.000000 0.892387 -0.449569 0.039152
1060.00000000 5470.00000000 -60.00000000 72 71 184 97.000000 1.000000 4.000000 1.000000 -60.708740 114.000000 149.000000 0.913547 -0.291928 0.283214
1050.00000000 5360.00000000 -30.00000000 72 71 184 97.000000 1.000000 4.000000 1.000000 -60.708740 114.000000 149.000000 0.791487 -0.428924 -0.435399
1050.00000000 5370.00000000 -20.00000000 72 71 184 97.000000 1.000000 4.000000 1.000000 -60.708740 114.000000 149.000000 0.865379 -0.259159 -0.428901
1050.00000000 5390.00000000 -40.00000000 72 71 184 97.000000 1.000000 4.000000 1.000000 -60.708740 114.000000 149.000000 0.839070 -0.421888 -0.343470
1050.00000000 5370.00000000 -20.00000000 72 71 184 97.000000 1.000000 4.000000 1.000000 -60.708740 114.000000 149.000000 0.865379 -0.259159 -0.428901
1020.00000000 5410.00000000 -30.00000000 72 71 184 97.000000 1.000000 4.000000 1.000000 -60.708740 114.000000 149.000000 0.716165 -0.686263 -0.127086
1170.00000000 5470.00000000 -230.00000000 72 71 184 97.000000 1.000000 4.000000 1.000000 -60.708740 114.000000 149.000000 -0.164094 -0.077855 0.983368
1140.00000000 5460.00000000 -220.00000000 72 71 184 97.000000 1.000000 4.000000 1.000000 -60.708740 114.000000 149.000000 -0.009222 0.042012 0.999075
1100.00000000 5510.00000000 -200.00000000 72 71 184 97.000000 1.000000 4.000000 1.000000 -60.708740 114.000000 149.000000 0.428526 -0.182818 0.884841
1110.00000000 5450.00000000 -260.00000000 72 71 184 97.000000 1.000000 4.000000 1.000000 -60.708740 114.000000 149.000000 -0.034779 -0.219465 0.975000
1130.00000000 5450.00000000 -270.00000000 72 71 184 97.000000 1.000000 4.000000 1.000000 -60.708740 114.000000 149.000000 -0.057491 -0.013589 0.998254
1150.00000000 5430.00000000 -220.00000000 72 71 184 97.000000 1.000000 4.000000 1.000000 -60.708740 114.000000 149.000000 0.193352 -0.024608 0.980821
1140.00000000 5430.00000000 -270.00000000 72 71 184 97.000000 1.000000 4.000000 1.000000 -60.708740 114.000000 149.000000 -0.109691 -0.342615 0.933050
1140.00000000 5410.00000000 -260.00000000 72 71 184 97.000000 1.000000 4.000000 1.000000 -60.708740 114.000000 149.000000 -0.447723 -0.009245 0.894125
1150.00000000 5420.00000000 -260.00000000 72 71 184 97.000000 1.000000 4.000000 1.000000 -60.708740 114.000000 149.000000 -0.355764 -0.255383 0.899006
1160.00000000 5400.00000000 -260.00000000 72 71 184 97.000000 1.000000 4.000000 1.000000 -60.708740 114.000000 149.000000 -0.117680 -0.286928 0.950696
1160.00000000 5380.00000000 -260.00000000 72 71 184 97.000000 1.000000 4.000000 1.000000 -60.708740 114.000000 149.000000 -0.461550 0.091188 0.882415
1110.00000000 5410.00000000 -210.00000000 72 71 184 97.000000 1.000000 4.000000 1.000000 -60.708740 114.000000 149.000000 0.120902 -0.338254 0.933256
1130.00000000 5420.00000000 -270.00000000 72 71 184 97.000000 1.000000 4.000000 1.000000 -60.708740 114.000000 149.000000 -0.209031 -0.358957 0.909646
1090.00000000 5360.00000000 -220.00000000 72 71 184 97.000000 1.000000 4.000000 1.000000 -60.708740 114.000000 149.000000 -0.232258 -0.254510 0.938766
1110.00000000 5430.00000000 -300.00000000 72 71 184 97.000000 1.000000 4.000000 1.000000 -60.708740 114.000000 149.000000 -0.213149 -0.202425 0.955820
1090.00000000 5380.00000000 -290.00000000 72 71 184 97.000000 1.000000 4.000000 1.000000 -60.708740 114.000000 149.000000 -0.002985 -0.016913 0.999852
1060.00000000 5500.00000000 -210.00000000 72 71 184 97.000000 1.000000 4.000000 1.000000 -60.708740 114.000000 149.000000 0.146103 -0.274781 0.950342
1060.00000000 5520.00000000 -240.00000000 72 71 184 97.000000 1.000000 4.000000 1.000000 -60.708740 114.000000 149.000000 0.162067 -0.457000 0.874577
1060.00000000 5460.00000000 -260.00000000 72 71 184 97.000000 1.000000 4.000000 1.000000 -60.708740 114.000000 149.000000 0.049196 0.075433 0.995937
1030.00000000 5460.00000000 -240.00000000 72 71 184 97.000000 1.000000 4.000000 1.000000 -60.708740 114.000000 149.000000 0.493994 -0.206964 0.844473
1050.00000000 5450.00000000 -280.00000000 72 71 184 97.000000 1.000000 4.000000 1.000000 -60.708740 114.000000 149.000000 0.072635 -0.428958 0.900400
1020.00000000 5440.00000000 -280.00000000 72 71 184 97.000000 1.000000 4.000000 1.000000 -60.708740 114.000000 149.000000 -0.001331 -0.493986 0.869469
1070.00000000 5400.00000000 -270.00000000 72 71 184 97.000000 1.000000 4.000000 1.000000 -60.708740 114.000000 149.000000 0.166318 0.271788 0.947876
1050.00000000 5400.00000000 -270.00000000 72 71 184 97.000000 1.000000 4.000000 1.000000 -60.708740 114.000000 149.000000 0.080402 0.084932 0.993137
1070.00000000 5400.00000000 -270.00000000 72 71 184 97.000000 1.000000 4.000000 1.000000 -60.708740 114.000000 149.000000 0.166318 0.271788 0.947876
1070.00000000 5360.00000000 -230.00000000 72 71 184 97.000000 1.000000 4.000000 1.000000 -60.708740 114.000000 149.000000 0.203499 -0.117549 0.971993
1050.00000000 5370.00000000 -230.00000000 72 71 184 97.000000 1.000000 4.000000 1.000000 -60.708740 114.000000 149.000000 -0.102179 -0.029665 0.994324
1080.00000000 5420.00000000 -280.00000000 72 71 184 97.000000 1.000000 4.000000 1.000000 -60.708740 114.000000 149.000000 -0.132310 0.103702 0.985769
1080.00000000 5420.00000000 -280.00000000 72 71 184 97.000000 1.000000 4.000000 1.000000 -60.708740 114.000000 149.000000 -0.132310 0.103702 0.985769
1070.00000000 5420.00000000 -280.00000000 72 71 184 97.000000 1.000000 4.000000 1.000000 -60.708740 114.000000 149.000000 0.068951 0.246970 0.966567
1260.00000000 5290.00000000 -60.00000000 72 71 184 97.000000 1.000000 4.000000 1.000000 -60.708740 114.000000 149.000000 0.967223 -0.200160 -0.156254
1260.00000000 5310.00000000 -70.00000000 72 71 184 97.000000 1.000000 4.000000 1.000000 -60.708740 114.000000 149.000000 0.957684 -0.235104 0.166034
1310.00000000 5320.00000000 -140.00000000 72 71 184 97.000000 1.000000 4.000000 1.000000 -60.708740 114.000000 149.000000 0.993920 -0.092796 -0.059255
1310.00000000 5350.00000000 -170.00000000 72 71 184 97.000000 1.000000 4.000000 1.000000 -60.708740 114.000000 149.000000 0.836224 0.078351 -0.542762
1310.00000000 5310.00000000 -140.00000000 72 71 184 97.000000 1.000000 4.000000 1.000000 -60.708740 114.000000 149.000000 0.826751 -0.368323 -0.425231
1300.00000000 5310.00000000 -160.00000000 72 71 184 97.000000 1.000000 4.000000 1.000000 -60.708740 114.000000 149.000000 0.856408 -0.499933 -0.128968
1270.00000000 5310.00000000 -170.00000000 72 71 184 97.000000 1.000000 4.000000 1.000000 -60.708740 114.000000 149.000000 0.749078 0.026703 -0.661943
1250.00000000 5350.00000000 -70.00000000 72 71 184 97.000000 1.000000 4.000000 1.000000 -60.708740 114.000000 149.000000 0.714841 -0.627704 -0.308204
1250.00000000 5310.00000000 -50.00000000 72 71 184 97.000000 1.000000 4.000000 1.000000 -60.708740 114.000000 149.000000 0.781594 -0.608899 0.135476
1180.00000000 5210.00000000 -20.00000000 72 71 184 97.000000 1.000000 4.000000 1.000000 -60.708740 114.000000 149.000000 0.928658 -0.262293 0.262293
1190.00000000 5200.00000000 -40.00000000 72 71 184 97.000000 1.000000 4.000000 1.000000 -60.708740 114.000000 149.000000 0.833085 -0.429929 0.348038
1180.00000000 5200.00000000 -40.00000000 72 71 184 97.000000 1.000000 4.000000 1.000000 -60.708740 114.000000 149.000000 0.882410 -0.223939 0.413769
1180.00000000 5190.00000000 -70.00000000 72 71 184 97.000000 1.000000 4.000000 1.000000 -60.708740 114.000000 149.000000 0.766903 -0.583479 -0.267230
1210.00000000 5270.00000000 -160.00000000 72 71 184 97.000000 1.000000 4.000000 1.000000 -60.708740 114.000000 149.000000 0.891443 -0.356876 -0.279229
1200.00000000 5250.00000000 -180.00000000 72 71 184 97.000000 1.000000 4.000000 1.000000 -60.708740 114.000000 149.000000 0.936322 -0.264521 -0.230931
1250.00000000 5170.00000000 -20.00000000 72 71 184 97.000000 1.000000 4.000000 1.000000 -60.708740 114.000000 149.000000 0.724890 -0.684215 0.079898
1220.00000000 5140.00000000 -20.00000000 72 71 184 97.000000 1.000000 4.000000 1.000000 -60.708740 114.000000 149.000000 0.813433 -0.571877 0.106226
1230.00000000 5110.00000000 -80.00000000 72 71 184 97.000000 1.000000 4.000000 1.000000 -60.708740 114.000000 149.000000 -0.691755 0.722131 -0.001381
1230.00000000 5120.00000000 -100.00000000 72 71 184 97.000000 1.000000 4.000000 1.000000 -60.708740 114.000000 149.000000 0.829385 -0.554341 -0.069470
1230.00000000 5130.00000000 -100.00000000 72 71 184 97.000000 1.000000 4.000000 1.000000 -60.708740 114.000000 149.000000 0.830587 -0.556887 0.001355
1210.00000000 5140.00000000 -70.00000000 72 71 184 97.000000 1.000000 4.000000 1.000000 -60.708740 114.000000 149.000000 0.882055 -0.428511 0.195849
1240.00000000 5140.00000000 -130.00000000 72 71 184 97.000000 1.000000 4.000000 1.000000 -60.708740 114.000000 149.000000 0.992626 -0.120085 0.016525
1210.00000000 5140.00000000 -150.00000000 72 71 184 97.000000 1.000000 4.000000 1.000000 -60.708740 114.000000 149.000000 0.577291 -0.587448 -0.567133
1240.00000000 5140.00000000 -120.00000000 72 71 184 97.000000 1.000000 4.000000 1.000000 -60.708740 114.000000 149.000000 0.860641 -0.475500 0.182201
1210.00000000 5080.00000000 -60.00000000 72 71 184 97.000000 1.000000 4.000000 1.000000 -60.708740 114.000000 149.000000 0.950175 -0.229728 0.210697
1200.00000000 5080.00000000 -50.00000000 72 71 184 97.000000 1.000000 4.000000 1.000000 -60.708740 114.000000 149.000000 0.992406 -0.103210 -0.066917
1180.00000000 5080.00000000 -170.00000000 72 71 184 97.000000 1.000000 4.000000 1.000000 -60.708740 114.000000 149.000000 0.982375 -0.095458 -0.160708
1180.00000000 5020.00000000 -130.00000000 72 71 184 97.000000 1.000000 4.000000 1.000000 -60.708740 114.000000 149.000000 0.863398 -0.480639 -0.153396
1110.00000000 5280.00000000 -90.00000000 72 71 184 97.000000 1.000000 4.000000 1.000000 -60.708740 114.000000 149.000000 0.600184 -0.383131 -0.702133
1170.00000000 5300.00000000 -100.00000000 72 71 184 97.000000 1.000000 4.000000 1.000000 -60.708740 114.000000 149.000000 0.896536 -0.433718 -0.090069
1170.00000000 5310.00000000 -90.00000000 72 71 184 97.000000 1.000000 4.000000 1.000000 -60.708740 114.000000 149.000000 0.725356 -0.546909 -0.418030
1160.00000000 5290.00000000 -100.00000000 72 71 184 97.000000 1.000000 4.000000 1.000000 -60.708740 114.000000 149.000000 0.850895 -0.525194 0.012214
1150.00000000 5290.00000000 -140.00000000 72 71 184 97.000000 1.000000 4.000000 1.000000 -60.708740 114.000000 149.000000 0.834630 -0.184972 -0.518824
1160.00000000 5290.00000000 -130.00000000 72 71 184 97.000000 1.000000 4.000000 1.000000 -60.708740 114.000000 149.000000 0.801483 -0.363147 -0.475131
1160.00000000 5300.00000000 -140.00000000 72 71 184 97.000000 1.000000 4.000000 1.000000 -60.708740 114.000000 149.000000 0.783221 -0.426475 -0.452420
1150.00000000 5280.00000000 -120.00000000 72 71 184 97.000000 1.000000 4.000000 1.000000 -60.708740 114.000000 149.000000 0.822519 -0.509621 -0.252487
1170.00000000 5310.00000000 -130.00000000 72 71 184 97.000000 1.000000 4.000000 1.000000 -60.708740 114.000000 149.000000 0.846220 -0.465344 -0.259549
1170.00000000 5240.00000000 -20.00000000 72 71 184 97.000000 1.000000 4.000000 1.000000 -60.708740 114.000000 149.000000 0.685816 -0.268916 0.676269
1150.00000000 5270.00000000 -130.00000000 72 71 184 97.000000 1.000000 4.000000 1.000000 -60.708740 114.000000 149.000000 0.666766 -0.562636 -0.488738
1140.00000000 5230.00000000 -120.00000000 72 71 184 97.000000 1.000000 4.000000 1.000000 -60.708740 114.000000 149.000000 0.843816 -0.442887 -0.303028
1140.00000000 5230.00000000 -110.00000000 72 71 184 97.000000 1.000000 4.000000 1.000000 -60.708740 114.000000 149.000000 0.749286 -0.571270 -0.334994
1030.00000000 5290.00000000 -80.00000000 72 71 184 97.000000 1.000000 4.000000 1.000000 -60.708740 114.000000 149.000000 0.663361 -0.456165 0.593182
1040.00000000 5250.00000000 -20.00000000 72 71 184 97.000000 1.000000 4.000000 1.000000 -60.708740 114.000000 149.000000 -0.304383 -0.098826 0.947409
1020.00000000 5210.00000000 -20.00000000 72 71 184 97.000000 1.000000 4.000000 1.000000 -60.708740 114.000000 149.000000 -0.292968 -0.362078 0.884912
1060.00000000 5270.00000000 -160.00000000 72 71 184 97.000000 1.000000 4.000000 1.000000 -60.708740 114.000000 149.000000 -0.296578 -0.130172 0.946096
1070.00000000 5210.00000000 -150.00000000 72 71 184 97.000000 1.000000 4.000000 1.000000 -60.708740 114.000000 149.000000 0.638119 -0.300575 -0.708843
1120.00000000 5280.00000000 -220.00000000 72 71 184 97.000000 1.000000 4.000000 1.000000 -60.708740 114.000000 149.000000 -0.455650 -0.181375 0.871485
1150.00000000 5300.00000000 -300.00000000 72 71 184 97.000000 1.000000 4.000000 1.000000 -60.708740 114.000000 149.000000 -0.164774 -0.085394 0.982628
1140.00000000 5290.00000000 -300.00000000 72 71 184 97.000000 1.000000 4.000000 1.000000 -60.708740 114.000000 149.000000 0.100119 -0.057372 0.993320
1170.00000000 5280.00000000 -290.00000000 72 71 184 97.000000 1.000000 4.000000 1.000000 -60.708740 114.000000 149.000000 -0.158991 -0.082484 0.983828
1090.00000000 5340.00000000 -290.00000000 72 71 184 97.000000 1.000000 4.000000 1.000000 -60.708740 114.000000 149.000000 -0.378670 0.114290 0.918448
1090.00000000 5310.00000000 -300.00000000 72 71 184 97.000000 1.000000 4.000000 1.000000 -60.708740 114.000000 149.000000 0.059741 -0.283451 0.957124
1120.00000000 5290.00000000 -300.00000000 72 71 184 97.000000 1.000000 4.000000 1.000000 -60.708740 114.000000 149.000000 -0.022397 -0.071457 0.997192
1120.00000000 5280.00000000 -300.00000000 72 71 184 97.000000 1.000000 4.000000 1.000000 -60.708740 114.000000 149.000000 0.099909 -0.055006 0.993475
1170.00000000 5250.00000000 -210.00000000 72 71 184 97.000000 1.000000 4.000000 1.000000 -60.708740 114.000000 149.000000 -0.394938 0.545703 0.739075
1140.00000000 5230.00000000 -220.00000000 72 71 184 97.000000 1.000000 4.000000 1.000000 -60.708740 114.000000 149.000000 -0.500585 0.399490 0.767999
1140.00000000 5270.00000000 -250.00000000 72 71 184 97.000000 1.000000 4.000000 1.000000 -60.708740 114.000000 149.000000 -0.358961 0.090076 0.928996
1150.00000000 5250.00000000 -260.00000000 72 71 184 97.000000 1.000000 4.000000 1.000000 -60.708740 114.000000 149.000000 -0.277419 -0.131409 0.951720
1110.00000000 5260.00000000 -280.00000000 72 71 184 97.000000 1.000000 4.000000 1.000000 -60.708740 114.000000 149.000000 -0.215590 -0.268444 0.938860
1120.00000000 5240.00000000 -290.00000000 72 71 184 97.000000 1.000000 4.000000 1.000000 -60.708740 114.000000 149.000000 -0.185228 0.380507 0.906038
1120.00000000 5260.00000000 -280.00000000 72 71 184 97.000000 1.000000 4.000000 1.000000 -60.708740 114.000000 149.000000 -0.070184 -0.276908 0.958330
1090.00000000 5270.00000000 -290.00000000 72 71 184 97.000000 1.000000 4.000000 1.000000 -60.708740 114.000000 149.000000 0.174374 0.112539 0.978227
1100.00000000 5260.00000000 -290.00000000 72 71 184 97.000000 1.000000 4.000000 1.000000 -60.708740 114.000000 149.000000 -0.117738 -0.062870 0.991053
1100.00000000 5250.00000000 -290.00000000 72 71 184 97.000000 1.000000 4.000000 1.000000 -60.708740 114.000000 149.000000 -0.171507 -0.367109 0.914230
1100.00000000 5270.00000000 -300.00000000 72 71 184 97.000000 1.000000 4.000000 1.000000 -60.708740 114.000000 149.000000 -0.051457 0.274854 0.960108
1110.00000000 5260.00000000 -290.00000000 72 71 184 97.000000 1.000000 4.000000 1.000000 -60.708740 114.000000 149.000000 -0.316745 -0.039434 0.947691
1080.00000000 5350.00000000 -240.00000000 72 71 184 97.000000 1.000000 4.000000 1.000000 -60.708740 114.000000 149.000000 -0.011318 0.335757 0.941881
1080.00000000 5310.00000000 -300.00000000 72 71 184 97.000000 1.000000 4.000000 1.000000 -60.708740 114.000000 149.000000 0.020268 -0.225336 0.974070
1070.00000000 5220.00000000 -210.00000000 72 71 184 97.000000 1.000000 4.000000 1.000000 -60.708740 114.000000 149.000000 -0.253188 0.149792 0.955750
1070.00000000 5200.00000000 -260.00000000 72 71 184 97.000000 1.000000 4.000000 1.000000 -60.708740 114.000000 149.000000 -0.296054 -0.267171 0.917045
1070.00000000 5210.00000000 -240.00000000 72 71 184 97.000000 1.000000 4.000000 1.000000 -60.708740 114.000000 149.000000 -0.454996 0.114812 0.883061
1040.00000000 5270.00000000 -240.00000000 72 71 184 97.000000 1.000000 4.000000 1.000000 -60.708740 114.000000 149.000000 0.219229 -0.110248 0.969424
1040.00000000 5230.00000000 -300.00000000 72 71 184 97.000000 1.000000 4.000000 1.000000 -60.708740 114.000000 149.000000 0.014630 -0.456187 0.889764
1020.00000000 5190.00000000 -290.00000000 72 71 184 97.000000 1.000000 4.000000 1.000000 -60.708740 114.000000 149.000000 0.092796 0.059255 0.993920
1140.00000000 5110.00000000 -30.00000000 72 71 184 97.000000 1.000000 4.000000 1.000000 -60.708740 114.000000 149.000000 0.689711 -0.479291 0.542751
1110.00000000 5110.00000000 -90.00000000 72 71 184 97.000000 1.000000 4.000000 1.000000 -60.708740 114.000000 149.000000 0.983188 -0.168444 0.070484
1110.00000000 5130.00000000 -80.00000000 72 71 184 97.000000 1.000000 4.000000 1.000000 -60.708740 114.000000 149.000000 0.816432 -0.576387 0.034890
1120.00000000 5130.00000000 -70.00000000 72 71 184 97.000000 1.000000 4.000000 1.000000 -60.708740 114.000000 149.000000 -0.632640 0.769348 -0.088715
1140.00000000 5100.00000000 -30.00000000 72 71 184 97.000000 1.000000 4.000000 1.000000 -60.708740 114.000000 149.000000 0.732627 -0.403356 0.548235
1140.00000000 5080.00000000 -70.00000000 72 71 184 97.000000 1.000000 4.000000 1.000000 -60.708740 114.000000 149.000000 0.933672 -0.341851 -0.106744
1160.00000000 5070.00000000 -120.00000000 72 71 184 97.000000 1.000000 4.000000 1.000000 -60.708740 114.000000 149.000000 0.942347 -0.236625 -0.236625
1140.00000000 5020.00000000 -110.00000000 72 71 184 97.000000 1.000000 4.000000 1.000000 -60.708740 114.000000 149.000000 0.903292 -0.428569 0.019780
1150.00000000 5030.00000000 -120.00000000 72 71 184 97.000000 1.000000 4.000000 1.000000 -60.708740 114.000000 149.000000 0.712814 -0.649312 -0.265122
1120.00000000 5070.00000000 -120.00000000 72 71 184 97.000000 1.000000 4.000000 1.000000 -60.708740 114.000000 149.000000 0.792463 -0.605493 -0.073350
1060.00000000 5150.00000000 -30.00000000 72 71 184 97.000000 1.000000 4.000000 1.000000 -60.708740 114.000000 149.000000 0.658966 -0.182790 0.729624
1020.00000000 5180.00000000 -30.00000000 72 71 184 97.000000 1.000000 4.000000 1.000000 -60.708740 114.000000 149.000000 -0.137621 -0.362818 0.921642
1060.00000000 5130.00000000 -240.00000000 72 71 184 97.000000 1.000000 4.000000 1.000000 -60.708740 114.000000 149.000000 -0.480867 0.222989 0.847964
1060.00000000 5120.00000000 -240.00000000 72 71 184 97.000000 1.000000 4.000000 1.000000 -60.708740 114.000000 149.000000 -0.486486 0.496448 0.718937
1040.00000000 5180.00000000 -260.00000000 72 71 184 97.000000 1.000000 4.000000 1.000000 -60.708740 114.000000 149.000000 -0.135226 0.215074 0.967190
1050.00000000 5160.00000000 -310.00000000 72 71 184 97.000000 1.000000 4.000000 1.000000 -60.708740 114.000000 149.000000 -0.487022 -0.100812 0.867552
1110.00000000 4860.00000000 -180.00000000 72 71 184 97.000000 1.000000 4.000000 1.000000 -60.708740 114.000000 149.000000 0.902314 -0.430740 0.017124
1110.00000000 4860.00000000 -180.00000000 72 71 184 97.000000 1.000000 4.000000 1.000000 -60.708740 114.000000 149.000000 0.902314 -0.430740 0.017124
1110.00000000 4880.00000000 -200.00000000 72 71 184 97.000000 1.000000 4.000000 1.000000 -60.708740 114.000000 149.000000 0.670777 -0.667529 -0.323207
1030.00000000 4910.00000000 -240.00000000 72 71 184 97.000000 1.000000 4.000000 1.000000 -60.708740 114.000000 149.000000 0.748687 -0.380052 -0.543165
1080.00000000 4790.00000000 -140.00000000 72 71 184 97.000000 1.000000 4.000000 1.000000 -60.708740 114.000000 149.000000 0.958321 -0.163034 -0.234610
1010.00000000 4720.00000000 -100.00000000 72 71 184 97.000000 1.000000 4.000000 1.000000 -60.708740 114.000000 149.000000 0.923633 -0.317365 0.214898
1010.00000000 4730.00000000 -110.00000000 72 71 184 97.000000 1.000000 4.000000 1.000000 -60.708740 114.000000 149.000000 0.924833 -0.364742 0.107920
1030.00000000 4750.00000000 -120.00000000 72 71 184 97.000000 1.000000 4.000000 1.000000 -60.708740 114.000000 149.000000 -0.667567 0.742220 -0.058861
1010.00000000 4730.00000000 -110.00000000 72 71 184 97.000000 1.000000 4.000000 1.000000 -60.708740 114.000000 149.000000 0.924833 -0.364742 0.107920
1010.00000000 4710.00000000 -120.00000000 72 71 184 97.000000 1.000000 4.000000 1.000000 -60.708740 114.000000 149.000000 0.743514 -0.665855 0.061840
1090.00000000 4850.00000000 -190.00000000 72 71 184 97.000000 1.000000 4.000000 1.000000 -60.708740 114.000000 149.000000 -0.638417 0.530611 0.557562
1040.00000000 4850.00000000 -250.00000000 72 71 184 97.000000 1.000000 4.000000 1.000000 -60.708740 114.000000 149.000000 0.691766 -0.196542 -0.694861
1070.00000000 4790.00000000 -200.00000000 72 71 184 97.000000 1.000000 4.000000 1.000000 -60.708740 114.000000 149.000000 0.645240 -0.333185 -0.687498
1050.00000000 4820.00000000 -230.00000000 72 71 184 97.000000 1.000000 4.000000 1.000000 -60.708740 114.000000 149.000000 -0.673903 0.095433 0.732631
980.00000000 5650.00000000 -100.00000000 72 71 184 97.000000 1.000000 4.000000 1.000000 -60.708740 114.000000 149.000000 0.904657 -0.417216 0.086748
1000.00000000 5400.00000000 -20.00000000 72 71 184 97.000000 1.000000 4.000000 1.000000 -60.708740 114.000000 149.000000 0.894975 -0.096039 -0.435656
1000.00000000 5370.00000000 -20.00000000 72 71 184 97.000000 1.000000 4.000000 1.000000 -60.708740 114.000000 149.000000 0.774521 -0.467974 -0.425579
980.00000000 5360.00000000 -30.00000000 72 71 184 97.000000 1.000000 4.000000 1.000000 -60.708740 114.000000 149.000000 0.896264 -0.050169 -0.440674
1000.00000000 5350.00000000 -60.00000000 72 71 184 97.000000 1.000000 4.000000 1.000000 -60.708740 114.000000 149.000000 -0.714622 0.658081 0.237160
970.00000000 5350.00000000 -20.00000000 72 71 184 97.000000 1.000000 4.000000 1.000000 -60.708740 114.000000 149.000000 0.687346 -0.500040 -0.526798
