//X Y Z R G B PointSourceId ScanDirectionFlag NumberOfReturns ReturnNumber GpsTime Intensity Classification Nx Ny Nz
17440.00000000 -3720.00000000 -80.00000000 191 50 135 97.000000 1.000000 4.000000 1.000000 -60.708740 114.000000 118.000000 0.709482 -0.655517 0.258715
17460.00000000 -3660.00000000 -80.00000000 191 50 135 97.000000 1.000000 4.000000 1.000000 -60.708740 114.000000 118.000000 0.602149 -0.239295 0.761679
17430.00000000 -3670.00000000 -60.00000000 191 50 135 97.000000 1.000000 4.000000 1.000000 -60.708740 114.000000 118.000000 0.698628 -0.319326 0.640274
17450.00000000 -3660.00000000 -140.00000000 191 50 135 97.000000 1.000000 4.000000 1.000000 -60.708740 114.000000 118.000000 -0.447412 0.884818 -0.130078
17450.00000000 -3710.00000000 -150.00000000 191 50 135 97.000000 1.000000 4.000000 1.000000 -60.708740 114.000000 118.000000 0.723666 -0.610340 0.322169
17390.00000000 -3660.00000000 -30.00000000 191 50 135 97.000000 1.000000 4.000000 1.000000 -60.708740 114.000000 118.000000 0.360994 -0.596212 0.717088
17370.00000000 -3680.00000000 -20.00000000 191 50 135 97.000000 1.000000 4.000000 1.000000 -60.708740 114.000000 118.000000 0.268444 -0.215590 0.938860
17370.00000000 -3680.00000000 -20.00000000 191 50 135 97.000000 1.000000 4.000000 1.000000 -60.708740 114.000000 118.000000 0.268444 -0.215590 0.938860
17350.00000000 -3730.00000000 -50.00000000 191 50 135 97.000000 1.000000 4.000000 1.000000 -60.708740 114.000000 118.000000 -0.551018 0.652123 -0.520687
17370.00000000 -3730.00000000 -70.00000000 191 50 135 97.000000 1.000000 4.000000 1.000000 -60.708740 114.000000 118.000000 -0.618193 0.641647 -0.454011
17420.00000000 -3730.00000000 -180.00000000 191 50 135 97.000000 1.000000 4.000000 1.000000 -60.708740 114.000000 118.000000 0.829742 -0.462710 -0.312134
17350.00000000 -3690.00000000 -110.00000000 191 50 135 97.000000 1.000000 4.000000 1.000000 -60.708740 114.000000 118.000000 0.687780 -0.447973 0.571208
17380.00000000 -3690.00000000 -130.00000000 191 50 135 97.000000 1.000000 4.000000 1.000000 -60.708740 114.000000 118.000000 -0.538081 0.807898 -0.240353
17350.00000000 -3670.00000000 -170.00000000 191 50 135 97.000000 1.000000 4.000000 1.000000 -60.708740 114.000000 118.000000 -0.695997 0.623941 -0.355368
17380.00000000 -3700.00000000 -120.00000000 191 50 135 97.000000 1.000000 4.000000 1.000000 -60.708740 114.000000 118.000000 0.639046 -0.662164 0.391354
17360.00000000 -3730.00000000 -160.00000000 191 50 135 97.000000 1.000000 4.000000 1.000000 -60.708740 114.000000 118.000000 -0.474392 0.879856 -0.028382
17430.00000000 -3630.00000000 -190.00000000 191 50 135 97.000000 1.000000 4.000000 1.000000 -60.708740 114.000000 118.000000 -0.640719 0.689629 -0.337478
17480.00000000 -3590.00000000 -210.00000000 191 50 135 97.000000 1.000000 4.000000 1.000000 -60.708740 114.000000 118.000000 -0.526981 0.694276 0.490176
17430.00000000 -3580.00000000 -250.00000000 191 50 135 97.000000 1.000000 4.000000 1.000000 -60.708740 114.000000 118.000000 -0.661414 0.618097 0.424838
17440.00000000 -3650.00000000 -290.00000000 191 50 135 97.000000 1.000000 4.000000 1.000000 -60.708740 114.000000 118.000000 -0.482858 0.743238 0.463082
17450.00000000 -3640.00000000 -320.00000000 191 50 135 97.000000 1.000000 4.000000 1.000000 -60.708740 114.000000 118.000000 -0.359551 0.435579 0.825224
17430.00000000 -3710.00000000 -200.00000000 191 50 135 97.000000 1.000000 4.000000 1.000000 -60.708740 114.000000 118.000000 0.703381 -0.645437 -0.297770
17440.00000000 -3680.00000000 -210.00000000 191 50 135 97.000000 1.000000 4.000000 1.000000 -60.708740 114.000000 118.000000 -0.657626 0.604079 0.450131
17430.00000000 -3710.00000000 -260.00000000 191 50 135 97.000000 1.000000 4.000000 1.000000 -60.708740 114.000000 118.000000 -0.410445 0.636438 0.653056
17450.00000000 -3700.00000000 -270.00000000 191 50 135 97.000000 1.000000 4.000000 1.000000 -60.708740 114.000000 118.000000 -0.727481 0.642635 0.240399
17430.00000000 -3710.00000000 -200.00000000 191 50 135 97.000000 1.000000 4.000000 1.000000 -60.708740 114.000000 118.000000 0.703381 -0.645437 -0.297770
17430.00000000 -3660.00000000 -290.00000000 191 50 135 97.000000 1.000000 4.000000 1.000000 -60.708740 114.000000 118.000000 0.694857 -0.397768 -0.599128
17440.00000000 -3660.00000000 -320.00000000 191 50 135 97.000000 1.000000 4.000000 1.000000 -60.708740 114.000000 118.000000 0.590381 -0.543015 -0.597147
17390.00000000 -3580.00000000 -230.00000000 191 50 135 97.000000 1.000000 4.000000 1.000000 -60.708740 114.000000 118.000000 0.565715 -0.606243 -0.558960
17410.00000000 -3610.00000000 -230.00000000 191 50 135 97.000000 1.000000 4.000000 1.000000 -60.708740 114.000000 118.000000 -0.516140 0.849690 0.107829
17390.00000000 -3630.00000000 -230.00000000 191 50 135 97.000000 1.000000 4.000000 1.000000 -60.708740 114.000000 118.000000 -0.551057 0.827312 0.109048
17400.00000000 -3640.00000000 -190.00000000 191 50 135 97.000000 1.000000 4.000000 1.000000 -60.708740 114.000000 118.000000 0.832947 -0.530057 -0.158869
17380.00000000 -3640.00000000 -210.00000000 191 50 135 97.000000 1.000000 4.000000 1.000000 -60.708740 114.000000 118.000000 -0.615595 0.784920 -0.070313
17360.00000000 -3650.00000000 -250.00000000 191 50 135 97.000000 1.000000 4.000000 1.000000 -60.708740 114.000000 118.000000 -0.547027 0.395896 0.737583
17370.00000000 -3640.00000000 -260.00000000 191 50 135 97.000000 1.000000 4.000000 1.000000 -60.708740 114.000000 118.000000 0.506907 -0.564166 -0.651738
17360.00000000 -3610.00000000 -340.00000000 191 50 135 97.000000 1.000000 4.000000 1.000000 -60.708740 114.000000 118.000000 -0.210061 0.401026 0.891657
17410.00000000 -3690.00000000 -260.00000000 191 50 135 97.000000 1.000000 4.000000 1.000000 -60.708740 114.000000 118.000000 0.690646 -0.333135 -0.641895
17420.00000000 -3680.00000000 -240.00000000 191 50 135 97.000000 1.000000 4.000000 1.000000 -60.708740 114.000000 118.000000 0.721048 -0.689258 -0.070804
17420.00000000 -3710.00000000 -220.00000000 191 50 135 97.000000 1.000000 4.000000 1.000000 -60.708740 114.000000 118.000000 0.887078 -0.455302 0.076114
17410.00000000 -3730.00000000 -200.00000000 191 50 135 97.000000 1.000000 4.000000 1.000000 -60.708740 114.000000 118.000000 0.819299 -0.461153 -0.340714
17420.00000000 -3710.00000000 -220.00000000 191 50 135 97.000000 1.000000 4.000000 1.000000 -60.708740 114.000000 118.000000 0.887078 -0.455302 0.076114
17390.00000000 -3720.00000000 -220.00000000 191 50 135 97.000000 1.000000 4.000000 1.000000 -60.708740 114.000000 118.000000 0.639283 -0.635945 -0.432309
17420.00000000 -3710.00000000 -210.00000000 191 50 135 97.000000 1.000000 4.000000 1.000000 -60.708740 114.000000 118.000000 -0.639055 0.753874 -0.152588
17410.00000000 -3730.00000000 -210.00000000 191 50 135 97.000000 1.000000 4.000000 1.000000 -60.708740 114.000000 118.000000 -0.478415 0.869193 0.124991
17410.00000000 -3730.00000000 -250.00000000 191 50 135 97.000000 1.000000 4.000000 1.000000 -60.708740 114.000000 118.000000 -0.457653 0.818708 0.346803
17420.00000000 -3720.00000000 -250.00000000 191 50 135 97.000000 1.000000 4.000000 1.000000 -60.708740 114.000000 118.000000 -0.478935 0.780907 0.401006
17410.00000000 -3720.00000000 -250.00000000 191 50 135 97.000000 1.000000 4.000000 1.000000 -60.708740 114.000000 118.000000 -0.452793 0.656634 0.603167
17420.00000000 -3720.00000000 -260.00000000 191 50 135 97.000000 1.000000 4.000000 1.000000 -60.708740 114.000000 118.000000 0.755217 -0.355683 -0.550578
17360.00000000 -3680.00000000 -210.00000000 191 50 135 97.000000 1.000000 4.000000 1.000000 -60.708740 114.000000 118.000000 0.840570 -0.533080 0.096270
17370.00000000 -3660.00000000 -190.00000000 191 50 135 97.000000 1.000000 4.000000 1.000000 -60.708740 114.000000 118.000000 0.923739 -0.358693 0.134337
17360.00000000 -3680.00000000 -210.00000000 191 50 135 97.000000 1.000000 4.000000 1.000000 -60.708740 114.000000 118.000000 0.840570 -0.533080 0.096270
17360.00000000 -3660.00000000 -230.00000000 191 50 135 97.000000 1.000000 4.000000 1.000000 -60.708740 114.000000 118.000000 -0.558908 0.720480 0.410525
17370.00000000 -3690.00000000 -260.00000000 191 50 135 97.000000 1.000000 4.000000 1.000000 -60.708740 114.000000 118.000000 0.797009 -0.536056 -0.278246
17350.00000000 -3730.00000000 -240.00000000 191 50 135 97.000000 1.000000 4.000000 1.000000 -60.708740 114.000000 118.000000 -0.786423 0.458882 0.413480
17400.00000000 -3680.00000000 -300.00000000 191 50 135 97.000000 1.000000 4.000000 1.000000 -60.708740 114.000000 118.000000 -0.796499 0.534680 0.282323
17410.00000000 -3690.00000000 -320.00000000 191 50 135 97.000000 1.000000 4.000000 1.000000 -60.708740 114.000000 118.000000 -0.354729 0.714362 0.603203
17390.00000000 -3700.00000000 -300.00000000 191 50 135 97.000000 1.000000 4.000000 1.000000 -60.708740 114.000000 118.000000 -0.645384 0.661890 0.381288
17390.00000000 -3710.00000000 -300.00000000 191 50 135 97.000000 1.000000 4.000000 1.000000 -60.708740 114.000000 118.000000 0.760890 -0.482715 -0.433626
17420.00000000 -3700.00000000 -280.00000000 191 50 135 97.000000 1.000000 4.000000 1.000000 -60.708740 114.000000 118.000000 0.716204 -0.683033 -0.143241
17410.00000000 -3710.00000000 -330.00000000 191 50 135 97.000000 1.000000 4.000000 1.000000 -60.708740 114.000000 118.000000 -0.244382 0.377681 0.893104
17390.00000000 -3710.00000000 -350.00000000 191 50 135 97.000000 1.000000 4.000000 1.000000 -60.708740 114.000000 118.000000 0.581197 -0.305809 -0.754116
17380.00000000 -3720.00000000 -300.00000000 191 50 135 97.000000 1.000000 4.000000 1.000000 -60.708740 114.000000 118.000000 -0.515181 0.723904 0.458859
17350.00000000 -3730.00000000 -280.00000000 191 50 135 97.000000 1.000000 4.000000 1.000000 -60.708740 114.000000 118.000000 -0.617671 0.347134 0.705677
17380.00000000 -3720.00000000 -300.00000000 191 50 135 97.000000 1.000000 4.000000 1.000000 -60.708740 114.000000 118.000000 -0.515181 0.723904 0.458859
17370.00000000 -3700.00000000 -320.00000000 191 50 135 97.000000 1.000000 4.000000 1.000000 -60.708740 114.000000 118.000000 -0.423345 0.378949 0.822907
17290.00000000 -3490.00000000 -160.00000000 191 50 135 97.000000 1.000000 4.000000 1.000000 -60.708740 114.000000 118.000000 -0.403613 0.799185 0.445421
17290.00000000 -3540.00000000 -270.00000000 191 50 135 97.000000 1.000000 4.000000 1.000000 -60.708740 114.000000 118.000000 0.641143 -0.329499 0.693084
17260.00000000 -3560.00000000 -280.00000000 191 50 135 97.000000 1.000000 4.000000 1.000000 -60.708740 114.000000 118.000000 0.157820 -0.444502 0.881765
17220.00000000 -3480.00000000 -280.00000000 191 50 135 97.000000 1.000000 4.000000 1.000000 -60.708740 114.000000 118.000000 -0.276465 0.701551 -0.656805
17230.00000000 -3520.00000000 -230.00000000 191 50 135 97.000000 1.000000 4.000000 1.000000 -60.708740 114.000000 118.000000 0.566713 -0.459723 0.683733
17250.00000000 -3520.00000000 -260.00000000 191 50 135 97.000000 1.000000 4.000000 1.000000 -60.708740 114.000000 118.000000 0.419540 -0.572100 0.704761
17220.00000000 -3540.00000000 -230.00000000 191 50 135 97.000000 1.000000 4.000000 1.000000 -60.708740 114.000000 118.000000 0.730465 -0.653249 0.199218
17240.00000000 -3530.00000000 -240.00000000 191 50 135 97.000000 1.000000 4.000000 1.000000 -60.708740 114.000000 118.000000 0.523754 -0.460571 0.716628
17190.00000000 -3560.00000000 -230.00000000 191 50 135 97.000000 1.000000 4.000000 1.000000 -60.708740 114.000000 118.000000 0.631305 -0.450454 0.631305
17320.00000000 -3620.00000000 -270.00000000 191 50 135 97.000000 1.000000 4.000000 1.000000 -60.708740 114.000000 118.000000 -0.153215 0.288803 0.945049
17300.00000000 -3670.00000000 -250.00000000 191 50 135 97.000000 1.000000 4.000000 1.000000 -60.708740 114.000000 118.000000 0.503717 -0.694494 -0.513758
17320.00000000 -3720.00000000 -290.00000000 191 50 135 97.000000 1.000000 4.000000 1.000000 -60.708740 114.000000 118.000000 -0.576173 0.197152 0.793193
17290.00000000 -3670.00000000 -310.00000000 191 50 135 97.000000 1.000000 4.000000 1.000000 -60.708740 114.000000 118.000000 -0.319582 -0.177236 0.930835
17300.00000000 -3690.00000000 -300.00000000 191 50 135 97.000000 1.000000 4.000000 1.000000 -60.708740 114.000000 118.000000 -0.095228 0.285683 0.953581
17240.00000000 -3580.00000000 -240.00000000 191 50 135 97.000000 1.000000 4.000000 1.000000 -60.708740 114.000000 118.000000 -0.227414 0.697925 -0.679105
17230.00000000 -3610.00000000 -270.00000000 191 50 135 97.000000 1.000000 4.000000 1.000000 -60.708740 114.000000 118.000000 0.590954 -0.288309 0.753426
17240.00000000 -3600.00000000 -250.00000000 191 50 135 97.000000 1.000000 4.000000 1.000000 -60.708740 114.000000 118.000000 -0.001215 -0.285453 0.958392
17190.00000000 -3600.00000000 -240.00000000 191 50 135 97.000000 1.000000 4.000000 1.000000 -60.708740 114.000000 118.000000 0.545096 -0.568722 0.615975
17200.00000000 -3580.00000000 -240.00000000 191 50 135 97.000000 1.000000 4.000000 1.000000 -60.708740 114.000000 118.000000 0.461261 -0.322725 0.826491
17180.00000000 -3630.00000000 -230.00000000 191 50 135 97.000000 1.000000 4.000000 1.000000 -60.708740 114.000000 118.000000 0.564566 -0.760797 0.320082
17220.00000000 -3620.00000000 -280.00000000 191 50 135 97.000000 1.000000 4.000000 1.000000 -60.708740 114.000000 118.000000 0.224108 -0.342668 0.912335
17500.00000000 -3480.00000000 -370.00000000 191 50 135 97.000000 1.000000 4.000000 1.000000 -60.708740 114.000000 118.000000 -0.369023 0.497940 0.784779
17490.00000000 -3460.00000000 -380.00000000 191 50 135 97.000000 1.000000 4.000000 1.000000 -60.708740 114.000000 118.000000 0.087951 -0.029317 0.995693
17510.00000000 -3470.00000000 -440.00000000 191 50 135 97.000000 1.000000 4.000000 1.000000 -60.708740 114.000000 118.000000 -0.471607 -0.091506 0.877048
17440.00000000 -3470.00000000 -370.00000000 191 50 135 97.000000 1.000000 4.000000 1.000000 -60.708740 114.000000 118.000000 -0.027088 0.087767 0.995773
17470.00000000 -3570.00000000 -380.00000000 191 50 135 97.000000 1.000000 4.000000 1.000000 -60.708740 114.000000 118.000000 -0.462777 0.162045 0.871538
17460.00000000 -3500.00000000 -440.00000000 191 50 135 97.000000 1.000000 4.000000 1.000000 -60.708740 114.000000 118.000000 -0.355989 0.362153 0.861462
17460.00000000 -3520.00000000 -440.00000000 191 50 135 97.000000 1.000000 4.000000 1.000000 -60.708740 114.000000 118.000000 0.044555 -0.070636 0.996507
17440.00000000 -3520.00000000 -400.00000000 191 50 135 97.000000 1.000000 4.000000 1.000000 -60.708740 114.000000 118.000000 -0.449239 0.360343 0.817519
17460.00000000 -3570.00000000 -390.00000000 191 50 135 97.000000 1.000000 4.000000 1.000000 -60.708740 114.000000 118.000000 -0.481145 0.302478 0.822804
17430.00000000 -3520.00000000 -500.00000000 191 50 135 97.000000 1.000000 4.000000 1.000000 -60.708740 114.000000 118.000000 -0.294963 0.098321 0.950437
17440.00000000 -3560.00000000 -450.00000000 191 50 135 97.000000 1.000000 4.000000 1.000000 -60.708740 114.000000 118.000000 -0.239392 0.399978 0.884709
17420.00000000 -3490.00000000 -370.00000000 191 50 135 97.000000 1.000000 4.000000 1.000000 -60.708740 114.000000 118.000000 -0.256972 0.010858 0.966358
17400.00000000 -3560.00000000 -380.00000000 191 50 135 97.000000 1.000000 4.000000 1.000000 -60.708740 114.000000 118.000000 -0.090453 0.125695 0.987937
17370.00000000 -3570.00000000 -370.00000000 191 50 135 97.000000 1.000000 4.000000 1.000000 -60.708740 114.000000 118.000000 -0.347196 0.461343 0.816466
17370.00000000 -3550.00000000 -400.00000000 191 50 135 97.000000 1.000000 4.000000 1.000000 -60.708740 114.000000 118.000000 -0.393162 0.235897 0.888694
17400.00000000 -3500.00000000 -480.00000000 191 50 135 97.000000 1.000000 4.000000 1.000000 -60.708740 114.000000 118.000000 0.105012 -0.116811 0.987587
17360.00000000 -3540.00000000 -480.00000000 191 50 135 97.000000 1.000000 4.000000 1.000000 -60.708740 114.000000 118.000000 -0.290544 0.270307 0.917888
17380.00000000 -3530.00000000 -490.00000000 191 50 135 97.000000 1.000000 4.000000 1.000000 -60.708740 114.000000 118.000000 -0.048098 0.170103 0.984252
17480.00000000 -3470.00000000 -550.00000000 191 50 135 97.000000 1.000000 4.000000 1.000000 -60.708740 114.000000 118.000000 -0.326635 0.407133 0.852967
17450.00000000 -3410.00000000 -570.00000000 191 50 135 97.000000 1.000000 4.000000 1.000000 -60.708740 114.000000 118.000000 -0.053040 -0.057370 0.996943
17480.00000000 -3440.00000000 -660.00000000 191 50 135 97.000000 1.000000 4.000000 1.000000 -60.708740 114.000000 118.000000 -0.074567 0.254034 0.964317
17470.00000000 -3410.00000000 -680.00000000 191 50 135 97.000000 1.000000 4.000000 1.000000 -60.708740 114.000000 118.000000 -0.368598 0.206704 0.906316
17450.00000000 -3440.00000000 -630.00000000 191 50 135 97.000000 1.000000 4.000000 1.000000 -60.708740 114.000000 118.000000 0.283284 0.315575 0.905628
17460.00000000 -3460.00000000 -630.00000000 191 50 135 97.000000 1.000000 4.000000 1.000000 -60.708740 114.000000 118.000000 0.057677 -0.161261 0.985225
17450.00000000 -3450.00000000 -630.00000000 191 50 135 97.000000 1.000000 4.000000 1.000000 -60.708740 114.000000 118.000000 0.086424 0.224201 0.970703
17430.00000000 -3490.00000000 -580.00000000 191 50 135 97.000000 1.000000 4.000000 1.000000 -60.708740 114.000000 118.000000 0.079074 0.067937 0.994551
17460.00000000 -3520.00000000 -560.00000000 191 50 135 97.000000 1.000000 4.000000 1.000000 -60.708740 114.000000 118.000000 -0.437335 0.298254 0.848400
17360.00000000 -3470.00000000 -560.00000000 191 50 135 97.000000 1.000000 4.000000 1.000000 -60.708740 114.000000 118.000000 -0.240524 0.199757 0.949866
17360.00000000 -3470.00000000 -560.00000000 191 50 135 97.000000 1.000000 4.000000 1.000000 -60.708740 114.000000 118.000000 -0.240524 0.199757 0.949866
17410.00000000 -3410.00000000 -680.00000000 191 50 135 97.000000 1.000000 4.000000 1.000000 -60.708740 114.000000 118.000000 -0.341164 -0.094991 0.935192
17410.00000000 -3460.00000000 -630.00000000 191 50 135 97.000000 1.000000 4.000000 1.000000 -60.708740 114.000000 118.000000 0.115782 0.302098 0.946219
17380.00000000 -3520.00000000 -650.00000000 191 50 135 97.000000 1.000000 4.000000 1.000000 -60.708740 114.000000 118.000000 -0.113310 -0.018702 0.993384
17370.00000000 -3500.00000000 -690.00000000 191 50 135 97.000000 1.000000 4.000000 1.000000 -60.708740 114.000000 118.000000 -0.206468 -0.067194 0.976143
17480.00000000 -3620.00000000 -360.00000000 191 50 135 97.000000 1.000000 4.000000 1.000000 -60.708740 114.000000 118.000000 0.671514 -0.234322 -0.702967
17470.00000000 -3600.00000000 -370.00000000 191 50 135 97.000000 1.000000 4.000000 1.000000 -60.708740 114.000000 118.000000 -0.317120 0.387591 0.865568
17480.00000000 -3650.00000000 -370.00000000 191 50 135 97.000000 1.000000 4.000000 1.000000 -60.708740 114.000000 118.000000 0.773153 -0.304479 -0.556351
17470.00000000 -3600.00000000 -370.00000000 191 50 135 97.000000 1.000000 4.000000 1.000000 -60.708740 114.000000 118.000000 -0.317120 0.387591 0.865568
17480.00000000 -3730.00000000 -360.00000000 191 50 135 97.000000 1.000000 4.000000 1.000000 -60.708740 114.000000 118.000000 -0.501868 0.294199 0.813373
17410.00000000 -3590.00000000 -430.00000000 191 50 135 97.000000 1.000000 4.000000 1.000000 -60.708740 114.000000 118.000000 -0.446765 0.382713 0.808661
17380.00000000 -3580.00000000 -370.00000000 191 50 135 97.000000 1.000000 4.000000 1.000000 -60.708740 114.000000 118.000000 -0.266067 0.224276 0.937501
17370.00000000 -3580.00000000 -440.00000000 191 50 135 97.000000 1.000000 4.000000 1.000000 -60.708740 114.000000 118.000000 -0.231321 0.353528 0.906371
17390.00000000 -3580.00000000 -510.00000000 191 50 135 97.000000 1.000000 4.000000 1.000000 -60.708740 114.000000 118.000000 -0.112902 0.484478 0.867487
17350.00000000 -3580.00000000 -480.00000000 191 50 135 97.000000 1.000000 4.000000 1.000000 -60.708740 114.000000 118.000000 0.157843 -0.135471 0.978127
17370.00000000 -3600.00000000 -500.00000000 191 50 135 97.000000 1.000000 4.000000 1.000000 -60.708740 114.000000 118.000000 0.122602 0.082902 0.988987
17350.00000000 -3620.00000000 -460.00000000 191 50 135 97.000000 1.000000 4.000000 1.000000 -60.708740 114.000000 118.000000 0.139743 0.035220 0.989561
17410.00000000 -3720.00000000 -410.00000000 191 50 135 97.000000 1.000000 4.000000 1.000000 -60.708740 114.000000 118.000000 -0.442471 -0.006565 0.896759
17380.00000000 -3670.00000000 -360.00000000 191 50 135 97.000000 1.000000 4.000000 1.000000 -60.708740 114.000000 118.000000 -0.348548 0.656187 0.669278
17380.00000000 -3670.00000000 -360.00000000 191 50 135 97.000000 1.000000 4.000000 1.000000 -60.708740 114.000000 118.000000 -0.348548 0.656187 0.669278
17370.00000000 -3700.00000000 -360.00000000 191 50 135 97.000000 1.000000 4.000000 1.000000 -60.708740 114.000000 118.000000 -0.072519 0.268448 0.960561
17380.00000000 -3590.00000000 -630.00000000 191 50 135 97.000000 1.000000 4.000000 1.000000 -60.708740 114.000000 118.000000 0.052540 0.424365 0.903965
17290.00000000 -3430.00000000 -690.00000000 191 50 135 97.000000 1.000000 4.000000 1.000000 -60.708740 114.000000 118.000000 0.090351 -0.365450 0.926436
17330.00000000 -3620.00000000 -370.00000000 191 50 135 97.000000 1.000000 4.000000 1.000000 -60.708740 114.000000 118.000000 -0.300151 0.288438 0.909238
17310.00000000 -3660.00000000 -390.00000000 191 50 135 97.000000 1.000000 4.000000 1.000000 -60.708740 114.000000 118.000000 -0.552997 0.199566 0.808930
17610.00000000 -3170.00000000 -700.00000000 191 50 135 97.000000 1.000000 4.000000 1.000000 -60.708740 114.000000 118.000000 0.213710 -0.232766 0.948761
17600.00000000 -3160.00000000 -770.00000000 191 50 135 97.000000 1.000000 4.000000 1.000000 -60.708740 114.000000 118.000000 -0.087265 0.293055 0.952105
17540.00000000 -3080.00000000 -720.00000000 191 50 135 97.000000 1.000000 4.000000 1.000000 -60.708740 114.000000 118.000000 0.064607 0.206010 0.976415
17580.00000000 -3190.00000000 -790.00000000 191 50 135 97.000000 1.000000 4.000000 1.000000 -60.708740 114.000000 118.000000 0.126389 -0.150930 0.980432
17560.00000000 -3210.00000000 -780.00000000 191 50 135 97.000000 1.000000 4.000000 1.000000 -60.708740 114.000000 118.000000 -0.042557 0.148375 0.988015
17480.00000000 -3220.00000000 -730.00000000 191 50 135 97.000000 1.000000 4.000000 1.000000 -60.708740 114.000000 118.000000 0.136205 -0.451627 0.881749
17500.00000000 -3210.00000000 -760.00000000 191 50 135 97.000000 1.000000 4.000000 1.000000 -60.708740 114.000000 118.000000 0.327785 -0.252031 0.910515
17460.00000000 -3270.00000000 -740.00000000 191 50 135 97.000000 1.000000 4.000000 1.000000 -60.708740 114.000000 118.000000 0.129330 0.012159 0.991527
17440.00000000 -3400.00000000 -710.00000000 191 50 135 97.000000 1.000000 4.000000 1.000000 -60.708740 114.000000 118.000000 0.122593 0.200952 0.971900
17440.00000000 -3370.00000000 -730.00000000 191 50 135 97.000000 1.000000 4.000000 1.000000 -60.708740 114.000000 118.000000 0.106381 0.045912 0.993265
17410.00000000 -3320.00000000 -770.00000000 191 50 135 97.000000 1.000000 4.000000 1.000000 -60.708740 114.000000 118.000000 0.207568 -0.373041 0.904299
17410.00000000 -3390.00000000 -760.00000000 191 50 135 97.000000 1.000000 4.000000 1.000000 -60.708740 114.000000 118.000000 -0.239784 0.037733 0.970093
17330.00000000 -3370.00000000 -730.00000000 191 50 135 97.000000 1.000000 4.000000 1.000000 -60.708740 114.000000 118.000000 -0.063742 -0.009405 0.997922
17450.00000000 -3420.00000000 -700.00000000 191 50 135 97.000000 1.000000 4.000000 1.000000 -60.708740 114.000000 118.000000 -0.074154 0.308323 0.948387
17450.00000000 -3430.00000000 -700.00000000 191 50 135 97.000000 1.000000 4.000000 1.000000 -60.708740 114.000000 118.000000 0.333691 0.309749 0.890341
17460.00000000 -3430.00000000 -700.00000000 191 50 135 97.000000 1.000000 4.000000 1.000000 -60.708740 114.000000 118.000000 -0.184786 0.129476 0.974213
17440.00000000 -3430.00000000 -700.00000000 191 50 135 97.000000 1.000000 4.000000 1.000000 -60.708740 114.000000 118.000000 -0.055643 0.438359 0.897076
17390.00000000 -3420.00000000 -700.00000000 191 50 135 97.000000 1.000000 4.000000 1.000000 -60.708740 114.000000 118.000000 0.376714 -0.260573 0.888925
17420.00000000 -3420.00000000 -770.00000000 191 50 135 97.000000 1.000000 4.000000 1.000000 -60.708740 114.000000 118.000000 -0.160318 0.132977 0.978067
17390.00000000 -3480.00000000 -720.00000000 191 50 135 97.000000 1.000000 4.000000 1.000000 -60.708740 114.000000 118.000000 -0.156920 0.108262 0.981660
17350.00000000 -3430.00000000 -760.00000000 191 50 135 97.000000 1.000000 4.000000 1.000000 -60.708740 114.000000 118.000000 0.283192 -0.265942 0.921454
17330.00000000 -3420.00000000 -740.00000000 191 50 135 97.000000 1.000000 4.000000 1.000000 -60.708740 114.000000 118.000000 -0.119753 0.058166 0.991098
17340.00000000 -3450.00000000 -750.00000000 191 50 135 97.000000 1.000000 4.000000 1.000000 -60.708740 114.000000 118.000000 -0.029840 0.109412 0.993549
17320.00000000 -3530.00000000 -700.00000000 191 50 135 97.000000 1.000000 4.000000 1.000000 -60.708740 114.000000 118.000000 -0.254164 0.050833 0.965824
17030.00000000 -3010.00000000 -240.00000000 191 50 135 97.000000 1.000000 4.000000 1.000000 -60.708740 114.000000 118.000000 0.956069 -0.291195 0.033744
17000.00000000 -3050.00000000 -210.00000000 191 50 135 97.000000 1.000000 4.000000 1.000000 -60.708740 114.000000 118.000000 0.908490 -0.323311 0.264793
17170.00000000 -2880.00000000 -380.00000000 191 50 135 97.000000 1.000000 4.000000 1.000000 -60.708740 114.000000 118.000000 -0.533841 0.764253 -0.361844
17170.00000000 -2880.00000000 -380.00000000 191 50 135 97.000000 1.000000 4.000000 1.000000 -60.708740 114.000000 118.000000 -0.533841 0.764253 -0.361844
17140.00000000 -3020.00000000 -420.00000000 191 50 135 97.000000 1.000000 4.000000 1.000000 -60.708740 114.000000 118.000000 0.807049 -0.399513 0.434812
17170.00000000 -3000.00000000 -440.00000000 191 50 135 97.000000 1.000000 4.000000 1.000000 -60.708740 114.000000 118.000000 -0.533353 0.807027 -0.253459
17090.00000000 -2990.00000000 -360.00000000 191 50 135 97.000000 1.000000 4.000000 1.000000 -60.708740 114.000000 118.000000 0.884896 -0.458474 0.082219
17120.00000000 -3040.00000000 -410.00000000 191 50 135 97.000000 1.000000 4.000000 1.000000 -60.708740 114.000000 118.000000 0.750247 -0.431761 0.500712
17020.00000000 -3110.00000000 -180.00000000 191 50 135 97.000000 1.000000 4.000000 1.000000 -60.708740 114.000000 118.000000 0.749110 -0.660979 0.044065
17110.00000000 -3070.00000000 -300.00000000 191 50 135 97.000000 1.000000 4.000000 1.000000 -60.708740 114.000000 118.000000 -0.434282 0.829084 -0.352163
17170.00000000 -3200.00000000 -250.00000000 191 50 135 97.000000 1.000000 4.000000 1.000000 -60.708740 114.000000 118.000000 0.748647 -0.609364 -0.261156
17110.00000000 -3190.00000000 -310.00000000 191 50 135 97.000000 1.000000 4.000000 1.000000 -60.708740 114.000000 118.000000 0.912526 -0.404522 -0.060477
17060.00000000 -3090.00000000 -350.00000000 191 50 135 97.000000 1.000000 4.000000 1.000000 -60.708740 114.000000 118.000000 0.747384 -0.359851 0.558502
17080.00000000 -3180.00000000 -260.00000000 191 50 135 97.000000 1.000000 4.000000 1.000000 -60.708740 114.000000 118.000000 0.842467 -0.538357 -0.020548
17040.00000000 -3160.00000000 -280.00000000 191 50 135 97.000000 1.000000 4.000000 1.000000 -60.708740 114.000000 118.000000 -0.674612 0.711661 0.196054
17010.00000000 -3170.00000000 -300.00000000 191 50 135 97.000000 1.000000 4.000000 1.000000 -60.708740 114.000000 118.000000 -0.656431 0.724712 -0.209499
17020.00000000 -3390.00000000 -160.00000000 191 50 135 97.000000 1.000000 4.000000 1.000000 -60.708740 114.000000 118.000000 0.674455 -0.690324 -0.261847
17170.00000000 -3290.00000000 -220.00000000 191 50 135 97.000000 1.000000 4.000000 1.000000 -60.708740 114.000000 118.000000 0.958627 -0.284535 0.008548
17130.00000000 -3290.00000000 -280.00000000 191 50 135 97.000000 1.000000 4.000000 1.000000 -60.708740 114.000000 118.000000 0.707585 -0.623000 0.333459
17140.00000000 -3350.00000000 -230.00000000 191 50 135 97.000000 1.000000 4.000000 1.000000 -60.708740 114.000000 118.000000 -0.487228 0.826575 -0.281751
17150.00000000 -3340.00000000 -230.00000000 191 50 135 97.000000 1.000000 4.000000 1.000000 -60.708740 114.000000 118.000000 -0.614590 0.604488 -0.506827
17160.00000000 -3380.00000000 -240.00000000 191 50 135 97.000000 1.000000 4.000000 1.000000 -60.708740 114.000000 118.000000 0.818708 -0.457653 0.346803
17100.00000000 -3370.00000000 -230.00000000 191 50 135 97.000000 1.000000 4.000000 1.000000 -60.708740 114.000000 118.000000 -0.535433 0.842992 -0.051726
17080.00000000 -3290.00000000 -240.00000000 191 50 135 97.000000 1.000000 4.000000 1.000000 -60.708740 114.000000 118.000000 -0.605132 0.684711 -0.406185
17080.00000000 -3340.00000000 -230.00000000 191 50 135 97.000000 1.000000 4.000000 1.000000 -60.708740 114.000000 118.000000 0.754572 -0.509049 0.414114
17070.00000000 -3350.00000000 -240.00000000 191 50 135 97.000000 1.000000 4.000000 1.000000 -60.708740 114.000000 118.000000 -0.424028 0.864775 -0.269007
17050.00000000 -3380.00000000 -230.00000000 191 50 135 97.000000 1.000000 4.000000 1.000000 -60.708740 114.000000 118.000000 0.928221 -0.366786 -0.062235
17030.00000000 -3330.00000000 -210.00000000 191 50 135 97.000000 1.000000 4.000000 1.000000 -60.708740 114.000000 118.000000 0.747194 -0.660142 -0.076896
16930.00000000 -3230.00000000 -150.00000000 191 50 135 97.000000 1.000000 4.000000 1.000000 -60.708740 114.000000 118.000000 0.883227 -0.466790 -0.044910
16930.00000000 -3230.00000000 -150.00000000 191 50 135 97.000000 1.000000 4.000000 1.000000 -60.708740 114.000000 118.000000 0.883227 -0.466790 -0.044910
16980.00000000 -3080.00000000 -200.00000000 191 50 135 97.000000 1.000000 4.000000 1.000000 -60.708740 114.000000 118.000000 0.745133 -0.652178 -0.139431
16960.00000000 -3220.00000000 -190.00000000 191 50 135 97.000000 1.000000 4.000000 1.000000 -60.708740 114.000000 118.000000 -0.607157 0.738521 0.293166
16960.00000000 -3290.00000000 -160.00000000 191 50 135 97.000000 1.000000 4.000000 1.000000 -60.708740 114.000000 118.000000 0.883991 -0.455389 -0.105741
17000.00000000 -3370.00000000 -160.00000000 191 50 135 97.000000 1.000000 4.000000 1.000000 -60.708740 114.000000 118.000000 0.756473 -0.555611 0.345029
16970.00000000 -3370.00000000 -160.00000000 191 50 135 97.000000 1.000000 4.000000 1.000000 -60.708740 114.000000 118.000000 0.797791 -0.592854 -0.109788
17060.00000000 -3460.00000000 -160.00000000 191 50 135 97.000000 1.000000 4.000000 1.000000 -60.708740 114.000000 118.000000 0.887070 -0.369488 -0.276742
17020.00000000 -3470.00000000 -110.00000000 191 50 135 97.000000 1.000000 4.000000 1.000000 -60.708740 114.000000 118.000000 0.838164 -0.421432 -0.346232
17080.00000000 -3520.00000000 -180.00000000 191 50 135 97.000000 1.000000 4.000000 1.000000 -60.708740 114.000000 118.000000 -0.548455 0.830599 -0.096447
17050.00000000 -3550.00000000 -170.00000000 191 50 135 97.000000 1.000000 4.000000 1.000000 -60.708740 114.000000 118.000000 0.798878 -0.584654 0.141329
17070.00000000 -3540.00000000 -170.00000000 191 50 135 97.000000 1.000000 4.000000 1.000000 -60.708740 114.000000 118.000000 -0.611725 0.786089 -0.088635
17140.00000000 -3410.00000000 -210.00000000 191 50 135 97.000000 1.000000 4.000000 1.000000 -60.708740 114.000000 118.000000 0.773599 -0.630074 -0.067457
17140.00000000 -3410.00000000 -240.00000000 191 50 135 97.000000 1.000000 4.000000 1.000000 -60.708740 114.000000 118.000000 0.792510 -0.388992 0.469695
17140.00000000 -3410.00000000 -240.00000000 191 50 135 97.000000 1.000000 4.000000 1.000000 -60.708740 114.000000 118.000000 0.792510 -0.388992 0.469695
17170.00000000 -3480.00000000 -200.00000000 191 50 135 97.000000 1.000000 4.000000 1.000000 -60.708740 114.000000 118.000000 0.924420 -0.361252 0.122249
17110.00000000 -3440.00000000 -210.00000000 191 50 135 97.000000 1.000000 4.000000 1.000000 -60.708740 114.000000 118.000000 0.766853 -0.625788 0.142566
17130.00000000 -3570.00000000 -190.00000000 191 50 135 97.000000 1.000000 4.000000 1.000000 -60.708740 114.000000 118.000000 0.710286 -0.692342 0.127104
17070.00000000 -3440.00000000 -220.00000000 191 50 135 97.000000 1.000000 4.000000 1.000000 -60.708740 114.000000 118.000000 0.901102 -0.361906 0.238829
17050.00000000 -3540.00000000 -200.00000000 191 50 135 97.000000 1.000000 4.000000 1.000000 -60.708740 114.000000 118.000000 -0.660829 0.750244 -0.020957
17010.00000000 -3520.00000000 -220.00000000 191 50 135 97.000000 1.000000 4.000000 1.000000 -60.708740 114.000000 118.000000 0.880536 -0.451077 -0.145555
17160.00000000 -3600.00000000 -210.00000000 191 50 135 97.000000 1.000000 4.000000 1.000000 -60.708740 114.000000 118.000000 0.637203 -0.630513 0.443199
17150.00000000 -3620.00000000 -220.00000000 191 50 135 97.000000 1.000000 4.000000 1.000000 -60.708740 114.000000 118.000000 -0.650911 0.519720 -0.553359
17140.00000000 -3640.00000000 -260.00000000 191 50 135 97.000000 1.000000 4.000000 1.000000 -60.708740 114.000000 118.000000 0.272285 -0.493225 0.826190
17170.00000000 -3620.00000000 -270.00000000 191 50 135 97.000000 1.000000 4.000000 1.000000 -60.708740 114.000000 118.000000 0.747416 -0.534803 0.394151
17160.00000000 -3630.00000000 -270.00000000 191 50 135 97.000000 1.000000 4.000000 1.000000 -60.708740 114.000000 118.000000 0.627971 -0.365633 0.686997
17140.00000000 -3670.00000000 -280.00000000 191 50 135 97.000000 1.000000 4.000000 1.000000 -60.708740 114.000000 118.000000 0.424300 -0.134811 0.895430
17050.00000000 -3600.00000000 -200.00000000 191 50 135 97.000000 1.000000 4.000000 1.000000 -60.708740 114.000000 118.000000 -0.561808 0.695175 -0.448446
17060.00000000 -3650.00000000 -260.00000000 191 50 135 97.000000 1.000000 4.000000 1.000000 -60.708740 114.000000 118.000000 0.474239 -0.484153 0.735318
17020.00000000 -3600.00000000 -210.00000000 191 50 135 97.000000 1.000000 4.000000 1.000000 -60.708740 114.000000 118.000000 0.883954 -0.435424 0.170383
17020.00000000 -3600.00000000 -210.00000000 191 50 135 97.000000 1.000000 4.000000 1.000000 -60.708740 114.000000 118.000000 0.883954 -0.435424 0.170383
17080.00000000 -3680.00000000 -250.00000000 191 50 135 97.000000 1.000000 4.000000 1.000000 -60.708740 114.000000 118.000000 0.429295 -0.311510 0.847742
17070.00000000 -3690.00000000 -240.00000000 191 50 135 97.000000 1.000000 4.000000 1.000000 -60.708740 114.000000 118.000000 0.544191 -0.308002 0.780379
17080.00000000 -3690.00000000 -260.00000000 191 50 135 97.000000 1.000000 4.000000 1.000000 -60.708740 114.000000 118.000000 0.463893 -0.211680 0.860229
17040.00000000 -3700.00000000 -250.00000000 191 50 135 97.000000 1.000000 4.000000 1.000000 -60.708740 114.000000 118.000000 -0.423902 0.663282 -0.616736
17020.00000000 -3730.00000000 -350.00000000 191 50 135 97.000000 1.000000 4.000000 1.000000 -60.708740 114.000000 118.000000 0.237615 -0.027742 0.970963
17000.00000000 -3430.00000000 -130.00000000 191 50 135 97.000000 1.000000 4.000000 1.000000 -60.708740 114.000000 118.000000 0.928464 -0.370611 0.024535
16970.00000000 -3420.00000000 -160.00000000 191 50 135 97.000000 1.000000 4.000000 1.000000 -60.708740 114.000000 118.000000 -0.562254 0.819284 -0.112451
16990.00000000 -3450.00000000 -170.00000000 191 50 135 97.000000 1.000000 4.000000 1.000000 -60.708740 114.000000 118.000000 0.604648 -0.730414 -0.317642
16960.00000000 -3430.00000000 -170.00000000 191 50 135 97.000000 1.000000 4.000000 1.000000 -60.708740 114.000000 118.000000 -0.463540 0.884940 -0.044859
16990.00000000 -3530.00000000 -200.00000000 191 50 135 97.000000 1.000000 4.000000 1.000000 -60.708740 114.000000 118.000000 0.832864 -0.549094 -0.069524
17540.00000000 -3750.00000000 -340.00000000 191 50 135 97.000000 1.000000 4.000000 1.000000 -60.708740 114.000000 118.000000 0.734756 -0.318125 -0.599108
17600.00000000 -3930.00000000 -350.00000000 191 50 135 97.000000 1.000000 4.000000 1.000000 -60.708740 114.000000 118.000000 -0.683195 0.721727 0.111149
17700.00000000 -3950.00000000 -410.00000000 191 50 135 97.000000 1.000000 4.000000 1.000000 -60.708740 114.000000 118.000000 0.779354 -0.421405 -0.463708
17700.00000000 -3910.00000000 -440.00000000 191 50 135 97.000000 1.000000 4.000000 1.000000 -60.708740 114.000000 118.000000 -0.710460 0.686223 0.156029
17650.00000000 -3910.00000000 -390.00000000 191 50 135 97.000000 1.000000 4.000000 1.000000 -60.708740 114.000000 118.000000 -0.508190 0.853702 0.113731
17610.00000000 -3910.00000000 -410.00000000 191 50 135 97.000000 1.000000 4.000000 1.000000 -60.708740 114.000000 118.000000 -0.365092 0.826594 0.428311
17580.00000000 -3940.00000000 -360.00000000 191 50 135 97.000000 1.000000 4.000000 1.000000 -60.708740 114.000000 118.000000 0.665939 -0.632890 -0.394937
17520.00000000 -3930.00000000 -370.00000000 191 50 135 97.000000 1.000000 4.000000 1.000000 -60.708740 114.000000 118.000000 0.576400 -0.433546 -0.692677
17520.00000000 -3950.00000000 -420.00000000 191 50 135 97.000000 1.000000 4.000000 1.000000 -60.708740 114.000000 118.000000 0.681541 -0.514086 -0.520785
17440.00000000 -3750.00000000 -90.00000000 191 50 135 97.000000 1.000000 4.000000 1.000000 -60.708740 114.000000 118.000000 0.653389 -0.498860 0.569405
17440.00000000 -3760.00000000 -130.00000000 191 50 135 97.000000 1.000000 4.000000 1.000000 -60.708740 114.000000 118.000000 0.816586 -0.542870 0.196163
17430.00000000 -3750.00000000 -170.00000000 191 50 135 97.000000 1.000000 4.000000 1.000000 -60.708740 114.000000 118.000000 -0.488485 0.806717 -0.332552
17390.00000000 -3790.00000000 -50.00000000 191 50 135 97.000000 1.000000 4.000000 1.000000 -60.708740 114.000000 118.000000 -0.477337 0.664923 -0.574480
17410.00000000 -3790.00000000 -100.00000000 191 50 135 97.000000 1.000000 4.000000 1.000000 -60.708740 114.000000 118.000000 -0.691598 0.662715 -0.287230
17350.00000000 -3750.00000000 -90.00000000 191 50 135 97.000000 1.000000 4.000000 1.000000 -60.708740 114.000000 118.000000 0.629426 -0.514678 0.582177
17350.00000000 -3750.00000000 -90.00000000 191 50 135 97.000000 1.000000 4.000000 1.000000 -60.708740 114.000000 118.000000 0.629426 -0.514678 0.582177
17370.00000000 -3820.00000000 -20.00000000 191 50 135 97.000000 1.000000 4.000000 1.000000 -60.708740 114.000000 118.000000 0.417251 -0.535995 0.733901
17380.00000000 -3820.00000000 -80.00000000 191 50 135 97.000000 1.000000 4.000000 1.000000 -60.708740 114.000000 118.000000 -0.722656 0.470142 -0.506690
17410.00000000 -3750.00000000 -150.00000000 191 50 135 97.000000 1.000000 4.000000 1.000000 -60.708740 114.000000 118.000000 0.819805 -0.472296 0.323815
17380.00000000 -3790.00000000 -140.00000000 191 50 135 97.000000 1.000000 4.000000 1.000000 -60.708740 114.000000 118.000000 0.805815 -0.572592 -0.150997
17420.00000000 -3850.00000000 -40.00000000 191 50 135 97.000000 1.000000 4.000000 1.000000 -60.708740 114.000000 118.000000 0.525225 -0.669536 0.525225
17390.00000000 -3870.00000000 -100.00000000 191 50 135 97.000000 1.000000 4.000000 1.000000 -60.708740 114.000000 118.000000 -0.513823 0.836281 -0.191365
17360.00000000 -3830.00000000 -60.00000000 191 50 135 97.000000 1.000000 4.000000 1.000000 -60.708740 114.000000 118.000000 0.681358 -0.500555 0.534037
17370.00000000 -3850.00000000 -70.00000000 191 50 135 97.000000 1.000000 4.000000 1.000000 -60.708740 114.000000 118.000000 -0.638903 0.578216 -0.507414
17450.00000000 -3770.00000000 -350.00000000 191 50 135 97.000000 1.000000 4.000000 1.000000 -60.708740 114.000000 118.000000 0.691103 -0.451299 -0.564540
17430.00000000 -3810.00000000 -350.00000000 191 50 135 97.000000 1.000000 4.000000 1.000000 -60.708740 114.000000 118.000000 0.584958 -0.356841 -0.728346
17380.00000000 -3740.00000000 -340.00000000 191 50 135 97.000000 1.000000 4.000000 1.000000 -60.708740 114.000000 118.000000 -0.431157 0.584310 0.687521
17380.00000000 -3780.00000000 -320.00000000 191 50 135 97.000000 1.000000 4.000000 1.000000 -60.708740 114.000000 118.000000 0.812586 -0.426248 -0.397513
17380.00000000 -3740.00000000 -340.00000000 191 50 135 97.000000 1.000000 4.000000 1.000000 -60.708740 114.000000 118.000000 -0.431157 0.584310 0.687521
17440.00000000 -3980.00000000 -260.00000000 191 50 135 97.000000 1.000000 4.000000 1.000000 -60.708740 114.000000 118.000000 -0.543804 0.774800 0.322432
17440.00000000 -3980.00000000 -260.00000000 191 50 135 97.000000 1.000000 4.000000 1.000000 -60.708740 114.000000 118.000000 -0.543804 0.774800 0.322432
17450.00000000 -3920.00000000 -280.00000000 191 50 135 97.000000 1.000000 4.000000 1.000000 -60.708740 114.000000 118.000000 -0.446699 0.746697 0.492853
17460.00000000 -3930.00000000 -340.00000000 191 50 135 97.000000 1.000000 4.000000 1.000000 -60.708740 114.000000 118.000000 0.759524 -0.648790 -0.046849
17360.00000000 -3960.00000000 -280.00000000 191 50 135 97.000000 1.000000 4.000000 1.000000 -60.708740 114.000000 118.000000 -0.637276 0.670211 0.380390
17360.00000000 -4050.00000000 -270.00000000 191 50 135 97.000000 1.000000 4.000000 1.000000 -60.708740 114.000000 118.000000 -0.522139 0.807513 0.274397
17380.00000000 -4040.00000000 -320.00000000 191 50 135 97.000000 1.000000 4.000000 1.000000 -60.708740 114.000000 118.000000 0.801771 -0.419363 -0.425790
17350.00000000 -4050.00000000 -340.00000000 191 50 135 97.000000 1.000000 4.000000 1.000000 -60.708740 114.000000 118.000000 -0.597312 0.549933 0.583775
17340.00000000 -3770.00000000 -100.00000000 191 50 135 97.000000 1.000000 4.000000 1.000000 -60.708740 114.000000 118.000000 0.404351 -0.475803 0.781096
17330.00000000 -3740.00000000 -70.00000000 191 50 135 97.000000 1.000000 4.000000 1.000000 -60.708740 114.000000 118.000000 -0.677938 0.614951 -0.402785
17280.00000000 -3800.00000000 -40.00000000 191 50 135 97.000000 1.000000 4.000000 1.000000 -60.708740 114.000000 118.000000 0.294123 -0.196547 0.935340
17300.00000000 -3810.00000000 -30.00000000 191 50 135 97.000000 1.000000 4.000000 1.000000 -60.708740 114.000000 118.000000 0.491229 -0.372045 0.787576
17300.00000000 -3810.00000000 -30.00000000 191 50 135 97.000000 1.000000 4.000000 1.000000 -60.708740 114.000000 118.000000 0.491229 -0.372045 0.787576
17280.00000000 -3810.00000000 -50.00000000 191 50 135 97.000000 1.000000 4.000000 1.000000 -60.708740 114.000000 118.000000 0.494559 -0.504550 0.707702
17280.00000000 -3820.00000000 -30.00000000 191 50 135 97.000000 1.000000 4.000000 1.000000 -60.708740 114.000000 118.000000 0.530089 -0.687277 0.496645
17290.00000000 -3800.00000000 -30.00000000 191 50 135 97.000000 1.000000 4.000000 1.000000 -60.708740 114.000000 118.000000 0.263006 -0.183968 0.947092
17340.00000000 -3830.00000000 -50.00000000 191 50 135 97.000000 1.000000 4.000000 1.000000 -60.708740 114.000000 118.000000 0.584411 -0.460496 0.668137
17310.00000000 -3830.00000000 -40.00000000 191 50 135 97.000000 1.000000 4.000000 1.000000 -60.708740 114.000000 118.000000 0.232803 -0.482343 0.844481
17340.00000000 -3830.00000000 -80.00000000 191 50 135 97.000000 1.000000 4.000000 1.000000 -60.708740 114.000000 118.000000 -0.477477 0.577998 -0.661766
17270.00000000 -3830.00000000 -20.00000000 191 50 135 97.000000 1.000000 4.000000 1.000000 -60.708740 114.000000 118.000000 0.190180 -0.446701 0.874237
17270.00000000 -3850.00000000 -50.00000000 191 50 135 97.000000 1.000000 4.000000 1.000000 -60.708740 114.000000 118.000000 0.486643 -0.264178 0.832700
17300.00000000 -3830.00000000 -40.00000000 191 50 135 97.000000 1.000000 4.000000 1.000000 -60.708740 114.000000 118.000000 -0.427496 0.613798 -0.663701
17300.00000000 -3830.00000000 -40.00000000 191 50 135 97.000000 1.000000 4.000000 1.000000 -60.708740 114.000000 118.000000 -0.427496 0.613798 -0.663701
17270.00000000 -3850.00000000 -50.00000000 191 50 135 97.000000 1.000000 4.000000 1.000000 -60.708740 114.000000 118.000000 0.486643 -0.264178 0.832700
17290.00000000 -3880.00000000 -50.00000000 191 50 135 97.000000 1.000000 4.000000 1.000000 -60.708740 114.000000 118.000000 0.506102 -0.395443 0.766476
17290.00000000 -3880.00000000 -40.00000000 191 50 135 97.000000 1.000000 4.000000 1.000000 -60.708740 114.000000 118.000000 0.540898 -0.250964 0.802774
17300.00000000 -3890.00000000 -90.00000000 191 50 135 97.000000 1.000000 4.000000 1.000000 -60.708740 114.000000 118.000000 -0.382832 0.833408 -0.398586
17270.00000000 -3890.00000000 -120.00000000 191 50 135 97.000000 1.000000 4.000000 1.000000 -60.708740 114.000000 118.000000 -0.489687 0.862368 -0.128561
17310.00000000 -3850.00000000 -140.00000000 191 50 135 97.000000 1.000000 4.000000 1.000000 -60.708740 114.000000 118.000000 -0.637493 0.769776 -0.032367
17220.00000000 -3990.00000000 -30.00000000 191 50 135 97.000000 1.000000 4.000000 1.000000 -60.708740 114.000000 118.000000 -0.533571 0.755485 -0.380190
17220.00000000 -4060.00000000 -40.00000000 191 50 135 97.000000 1.000000 4.000000 1.000000 -60.708740 114.000000 118.000000 0.881108 -0.452772 0.136550
17220.00000000 -4050.00000000 -30.00000000 191 50 135 97.000000 1.000000 4.000000 1.000000 -60.708740 114.000000 118.000000 0.761404 -0.624077 0.175474
17220.00000000 -4060.00000000 -40.00000000 191 50 135 97.000000 1.000000 4.000000 1.000000 -60.708740 114.000000 118.000000 0.881108 -0.452772 0.136550
17190.00000000 -4050.00000000 -50.00000000 191 50 135 97.000000 1.000000 4.000000 1.000000 -60.708740 114.000000 118.000000 -0.407707 0.813815 -0.414102
17210.00000000 -4070.00000000 -180.00000000 191 50 135 97.000000 1.000000 4.000000 1.000000 -60.708740 114.000000 118.000000 0.771866 -0.557725 -0.305231
17320.00000000 -3990.00000000 -310.00000000 191 50 135 97.000000 1.000000 4.000000 1.000000 -60.708740 114.000000 118.000000 -0.470136 0.850504 0.235829
17320.00000000 -4000.00000000 -260.00000000 191 50 135 97.000000 1.000000 4.000000 1.000000 -60.708740 114.000000 118.000000 0.795887 -0.411666 -0.443953
17320.00000000 -4000.00000000 -270.00000000 191 50 135 97.000000 1.000000 4.000000 1.000000 -60.708740 114.000000 118.000000 -0.598119 0.614967 0.513877
17310.00000000 -4010.00000000 -280.00000000 191 50 135 97.000000 1.000000 4.000000 1.000000 -60.708740 114.000000 118.000000 0.758805 -0.316035 -0.569505
17340.00000000 -4070.00000000 -340.00000000 191 50 135 97.000000 1.000000 4.000000 1.000000 -60.708740 114.000000 118.000000 0.481600 -0.511596 -0.711569
17290.00000000 -4070.00000000 -300.00000000 191 50 135 97.000000 1.000000 4.000000 1.000000 -60.708740 114.000000 118.000000 -0.355855 0.827164 0.434933
17220.00000000 -4060.00000000 -210.00000000 191 50 135 97.000000 1.000000 4.000000 1.000000 -60.708740 114.000000 118.000000 0.903031 -0.316724 -0.290207
17220.00000000 -4060.00000000 -200.00000000 191 50 135 97.000000 1.000000 4.000000 1.000000 -60.708740 114.000000 118.000000 -0.490316 0.842494 0.223147
17210.00000000 -4070.00000000 -210.00000000 191 50 135 97.000000 1.000000 4.000000 1.000000 -60.708740 114.000000 118.000000 0.783764 -0.616330 0.076500
17470.00000000 -3800.00000000 -380.00000000 191 50 135 97.000000 1.000000 4.000000 1.000000 -60.708740 114.000000 118.000000 -0.480838 0.665132 0.571310
17460.00000000 -3970.00000000 -370.00000000 191 50 135 97.000000 1.000000 4.000000 1.000000 -60.708740 114.000000 118.000000 0.676971 -0.566650 -0.469701
17450.00000000 -4000.00000000 -400.00000000 191 50 135 97.000000 1.000000 4.000000 1.000000 -60.708740 114.000000 118.000000 -0.674752 0.326808 0.661745
17430.00000000 -4040.00000000 -400.00000000 191 50 135 97.000000 1.000000 4.000000 1.000000 -60.708740 114.000000 118.000000 0.633524 -0.704815 -0.319192
17430.00000000 -4040.00000000 -410.00000000 191 50 135 97.000000 1.000000 4.000000 1.000000 -60.708740 114.000000 118.000000 0.304306 -0.700387 -0.645644
17450.00000000 -4060.00000000 -420.00000000 191 50 135 97.000000 1.000000 4.000000 1.000000 -60.708740 114.000000 118.000000 0.700141 -0.553793 -0.450684
17460.00000000 -4060.00000000 -410.00000000 191 50 135 97.000000 1.000000 4.000000 1.000000 -60.708740 114.000000 118.000000 -0.706773 0.567735 0.422077
