//X Y Z R G B PointSourceId ScanDirectionFlag NumberOfReturns ReturnNumber GpsTime Intensity Classification Nx Ny Nz
4810.00000000 -11320.00000000 250.00000000 208 243 30 0.000000 0.000000 0.000000 0.000000 -60.708740 0.000000 74.000000 0.397185 -0.180539 0.899805
4810.00000000 -11320.00000000 250.00000000 208 243 30 0.000000 0.000000 0.000000 0.000000 -60.708740 0.000000 74.000000 0.397185 -0.180539 0.899805
4800.00000000 -11360.00000000 260.00000000 208 243 30 0.000000 0.000000 0.000000 0.000000 -60.708740 0.000000 74.000000 0.335845 -0.121013 0.934111
4800.00000000 -11320.00000000 260.00000000 208 243 30 0.000000 0.000000 0.000000 0.000000 -60.708740 0.000000 74.000000 0.754109 -0.064638 0.653561
4800.00000000 -11330.00000000 250.00000000 208 243 30 0.000000 0.000000 0.000000 0.000000 -60.708740 0.000000 74.000000 0.722279 -0.286669 0.629392
4850.00000000 -11360.00000000 230.00000000 208 243 30 0.000000 0.000000 0.000000 0.000000 -60.708740 0.000000 74.000000 0.361217 -0.536156 0.762928
4850.00000000 -11320.00000000 160.00000000 208 243 30 0.000000 0.000000 0.000000 0.000000 -60.708740 0.000000 74.000000 0.757242 -0.595992 0.267169
4850.00000000 -11350.00000000 190.00000000 208 243 30 0.000000 0.000000 0.000000 0.000000 -60.708740 0.000000 74.000000 0.584915 -0.350297 0.731551
4840.00000000 -11360.00000000 150.00000000 208 243 30 0.000000 0.000000 0.000000 0.000000 -60.708740 0.000000 74.000000 0.686002 -0.596307 0.416916
4840.00000000 -11360.00000000 150.00000000 208 243 30 0.000000 0.000000 0.000000 0.000000 -60.708740 0.000000 74.000000 0.686002 -0.596307 0.416916
4850.00000000 -11320.00000000 160.00000000 208 243 30 0.000000 0.000000 0.000000 0.000000 -60.708740 0.000000 74.000000 0.757242 -0.595992 0.267169
4870.00000000 -11330.00000000 150.00000000 208 243 30 0.000000 0.000000 0.000000 0.000000 -60.708740 0.000000 74.000000 0.666027 -0.348559 0.659481
4830.00000000 -11340.00000000 200.00000000 208 243 30 0.000000 0.000000 0.000000 0.000000 -60.708740 0.000000 74.000000 0.730118 -0.407086 0.548825
4830.00000000 -11360.00000000 150.00000000 208 243 30 0.000000 0.000000 0.000000 0.000000 -60.708740 0.000000 74.000000 -0.606046 0.782623 0.142159
4820.00000000 -11350.00000000 190.00000000 208 243 30 0.000000 0.000000 0.000000 0.000000 -60.708740 0.000000 74.000000 0.584919 -0.635488 0.504008
4830.00000000 -11350.00000000 170.00000000 208 243 30 0.000000 0.000000 0.000000 0.000000 -60.708740 0.000000 74.000000 -0.653934 0.748407 -0.110711
4820.00000000 -11360.00000000 190.00000000 208 243 30 0.000000 0.000000 0.000000 0.000000 -60.708740 0.000000 74.000000 -0.734256 0.626417 -0.261668
4800.00000000 -11380.00000000 180.00000000 208 243 30 0.000000 0.000000 0.000000 0.000000 -60.708740 0.000000 74.000000 -0.527358 0.842328 -0.111251
4810.00000000 -11400.00000000 170.00000000 208 243 30 0.000000 0.000000 0.000000 0.000000 -60.708740 0.000000 74.000000 -0.554038 0.743620 -0.374261
4810.00000000 -11370.00000000 160.00000000 208 243 30 0.000000 0.000000 0.000000 0.000000 -60.708740 0.000000 74.000000 -0.417871 0.901426 0.113202
4810.00000000 -11370.00000000 160.00000000 208 243 30 0.000000 0.000000 0.000000 0.000000 -60.708740 0.000000 74.000000 -0.417871 0.901426 0.113202
4800.00000000 -11370.00000000 160.00000000 208 243 30 0.000000 0.000000 0.000000 0.000000 -60.708740 0.000000 74.000000 -0.384483 0.911211 0.147878
4760.00000000 -11340.00000000 280.00000000 208 243 30 0.000000 0.000000 0.000000 0.000000 -60.708740 0.000000 74.000000 0.780749 0.262344 0.567104
4790.00000000 -11350.00000000 270.00000000 208 243 30 0.000000 0.000000 0.000000 0.000000 -60.708740 0.000000 74.000000 0.386006 -0.091387 0.917958
4790.00000000 -11330.00000000 260.00000000 208 243 30 0.000000 0.000000 0.000000 0.000000 -60.708740 0.000000 74.000000 0.584633 -0.263164 0.767430
4770.00000000 -11340.00000000 260.00000000 208 243 30 0.000000 0.000000 0.000000 0.000000 -60.708740 0.000000 74.000000 0.260877 0.298351 0.918112
4770.00000000 -11390.00000000 250.00000000 208 243 30 0.000000 0.000000 0.000000 0.000000 -60.708740 0.000000 74.000000 0.798453 -0.151302 0.582736
4790.00000000 -11370.00000000 270.00000000 208 243 30 0.000000 0.000000 0.000000 0.000000 -60.708740 0.000000 74.000000 0.365258 -0.310696 0.877528
4770.00000000 -11380.00000000 270.00000000 208 243 30 0.000000 0.000000 0.000000 0.000000 -60.708740 0.000000 74.000000 0.627623 -0.222705 0.745984
4770.00000000 -11380.00000000 240.00000000 208 243 30 0.000000 0.000000 0.000000 0.000000 -60.708740 0.000000 74.000000 0.638354 -0.611546 0.467456
4710.00000000 -11360.00000000 290.00000000 208 243 30 0.000000 0.000000 0.000000 0.000000 -60.708740 0.000000 74.000000 0.441835 0.081719 0.893366
4730.00000000 -11330.00000000 290.00000000 208 243 30 0.000000 0.000000 0.000000 0.000000 -60.708740 0.000000 74.000000 0.184147 0.240601 0.952996
4720.00000000 -11380.00000000 300.00000000 208 243 30 0.000000 0.000000 0.000000 0.000000 -60.708740 0.000000 74.000000 0.201980 -0.090457 0.975203
4710.00000000 -11400.00000000 290.00000000 208 243 30 0.000000 0.000000 0.000000 0.000000 -60.708740 0.000000 74.000000 0.659480 -0.366743 0.656191
4720.00000000 -11380.00000000 300.00000000 208 243 30 0.000000 0.000000 0.000000 0.000000 -60.708740 0.000000 74.000000 0.201980 -0.090457 0.975203
4720.00000000 -11390.00000000 270.00000000 208 243 30 0.000000 0.000000 0.000000 0.000000 -60.708740 0.000000 74.000000 0.612684 -0.511414 0.602557
4740.00000000 -11380.00000000 260.00000000 208 243 30 0.000000 0.000000 0.000000 0.000000 -60.708740 0.000000 74.000000 0.568580 -0.541585 0.619195
4720.00000000 -11390.00000000 270.00000000 208 243 30 0.000000 0.000000 0.000000 0.000000 -60.708740 0.000000 74.000000 0.612684 -0.511414 0.602557
4730.00000000 -11400.00000000 250.00000000 208 243 30 0.000000 0.000000 0.000000 0.000000 -60.708740 0.000000 74.000000 0.715583 -0.566848 0.408196
4740.00000000 -11370.00000000 260.00000000 208 243 30 0.000000 0.000000 0.000000 0.000000 -60.708740 0.000000 74.000000 0.280300 -0.294823 0.913516
4740.00000000 -11390.00000000 240.00000000 208 243 30 0.000000 0.000000 0.000000 0.000000 -60.708740 0.000000 74.000000 0.827096 -0.484420 0.285044
4720.00000000 -11400.00000000 270.00000000 208 243 30 0.000000 0.000000 0.000000 0.000000 -60.708740 0.000000 74.000000 0.597312 -0.549933 0.583775
4740.00000000 -11390.00000000 260.00000000 208 243 30 0.000000 0.000000 0.000000 0.000000 -60.708740 0.000000 74.000000 0.670412 -0.449728 0.590163
4730.00000000 -11400.00000000 240.00000000 208 243 30 0.000000 0.000000 0.000000 0.000000 -60.708740 0.000000 74.000000 0.862003 -0.295500 0.411863
4740.00000000 -11390.00000000 270.00000000 208 243 30 0.000000 0.000000 0.000000 0.000000 -60.708740 0.000000 74.000000 0.806657 -0.209700 0.552567
4780.00000000 -11360.00000000 230.00000000 208 243 30 0.000000 0.000000 0.000000 0.000000 -60.708740 0.000000 74.000000 0.845468 -0.123691 0.519504
4790.00000000 -11380.00000000 230.00000000 208 243 30 0.000000 0.000000 0.000000 0.000000 -60.708740 0.000000 74.000000 0.368859 -0.311177 0.875849
4770.00000000 -11370.00000000 230.00000000 208 243 30 0.000000 0.000000 0.000000 0.000000 -60.708740 0.000000 74.000000 0.559835 -0.556453 0.613958
4780.00000000 -11380.00000000 220.00000000 208 243 30 0.000000 0.000000 0.000000 0.000000 -60.708740 0.000000 74.000000 0.597644 -0.634681 0.489900
4790.00000000 -11370.00000000 230.00000000 208 243 30 0.000000 0.000000 0.000000 0.000000 -60.708740 0.000000 74.000000 0.360365 -0.475681 0.802412
4780.00000000 -11390.00000000 150.00000000 208 243 30 0.000000 0.000000 0.000000 0.000000 -60.708740 0.000000 74.000000 0.755350 -0.615182 -0.225826
4790.00000000 -11390.00000000 180.00000000 208 243 30 0.000000 0.000000 0.000000 0.000000 -60.708740 0.000000 74.000000 0.786865 -0.589007 0.184160
4780.00000000 -11390.00000000 190.00000000 208 243 30 0.000000 0.000000 0.000000 0.000000 -60.708740 0.000000 74.000000 -0.382149 0.733135 -0.562562
4750.00000000 -11400.00000000 220.00000000 208 243 30 0.000000 0.000000 0.000000 0.000000 -60.708740 0.000000 74.000000 0.739265 -0.303083 0.601355
4750.00000000 -11400.00000000 220.00000000 208 243 30 0.000000 0.000000 0.000000 0.000000 -60.708740 0.000000 74.000000 0.739265 -0.303083 0.601355
4750.00000000 -11390.00000000 220.00000000 208 243 30 0.000000 0.000000 0.000000 0.000000 -60.708740 0.000000 74.000000 0.537512 -0.487277 0.688216
4750.00000000 -11400.00000000 170.00000000 208 243 30 0.000000 0.000000 0.000000 0.000000 -60.708740 0.000000 74.000000 -0.535196 0.838138 -0.105308
4750.00000000 -11400.00000000 150.00000000 208 243 30 0.000000 0.000000 0.000000 0.000000 -60.708740 0.000000 74.000000 -0.236180 0.899246 0.368207
4730.00000000 -11380.00000000 150.00000000 208 243 30 0.000000 0.000000 0.000000 0.000000 -60.708740 0.000000 74.000000 -0.181815 0.867687 0.462668
4740.00000000 -11400.00000000 150.00000000 208 243 30 0.000000 0.000000 0.000000 0.000000 -60.708740 0.000000 74.000000 -0.159944 0.820648 0.548593
4760.00000000 -11440.00000000 250.00000000 208 243 30 0.000000 0.000000 0.000000 0.000000 -60.708740 0.000000 74.000000 -0.348380 0.685311 -0.639515
4730.00000000 -11420.00000000 240.00000000 208 243 30 0.000000 0.000000 0.000000 0.000000 -60.708740 0.000000 74.000000 0.727977 -0.574202 0.374622
4720.00000000 -11410.00000000 240.00000000 208 243 30 0.000000 0.000000 0.000000 0.000000 -60.708740 0.000000 74.000000 0.696104 -0.462400 0.549204
4720.00000000 -11430.00000000 240.00000000 208 243 30 0.000000 0.000000 0.000000 0.000000 -60.708740 0.000000 74.000000 -0.670256 0.742118 -0.004146
4720.00000000 -11420.00000000 250.00000000 208 243 30 0.000000 0.000000 0.000000 0.000000 -60.708740 0.000000 74.000000 0.729841 -0.494836 0.471666
4730.00000000 -11410.00000000 240.00000000 208 243 30 0.000000 0.000000 0.000000 0.000000 -60.708740 0.000000 74.000000 0.648273 -0.434960 0.624942
4740.00000000 -11450.00000000 240.00000000 208 243 30 0.000000 0.000000 0.000000 0.000000 -60.708740 0.000000 74.000000 -0.378448 0.809591 -0.448708
4740.00000000 -11450.00000000 240.00000000 208 243 30 0.000000 0.000000 0.000000 0.000000 -60.708740 0.000000 74.000000 -0.378448 0.809591 -0.448708
4760.00000000 -11410.00000000 210.00000000 208 243 30 0.000000 0.000000 0.000000 0.000000 -60.708740 0.000000 74.000000 0.647190 -0.707914 0.282846
4760.00000000 -11410.00000000 200.00000000 208 243 30 0.000000 0.000000 0.000000 0.000000 -60.708740 0.000000 74.000000 0.734844 -0.648210 0.199568
4780.00000000 -11410.00000000 180.00000000 208 243 30 0.000000 0.000000 0.000000 0.000000 -60.708740 0.000000 74.000000 -0.696072 0.713510 -0.079925
4760.00000000 -11420.00000000 150.00000000 208 243 30 0.000000 0.000000 0.000000 0.000000 -60.708740 0.000000 74.000000 -0.210980 0.914246 0.345892
4760.00000000 -11410.00000000 150.00000000 208 243 30 0.000000 0.000000 0.000000 0.000000 -60.708740 0.000000 74.000000 -0.485938 0.650720 0.583462
4780.00000000 -11410.00000000 180.00000000 208 243 30 0.000000 0.000000 0.000000 0.000000 -60.708740 0.000000 74.000000 -0.696072 0.713510 -0.079925
4760.00000000 -11410.00000000 180.00000000 208 243 30 0.000000 0.000000 0.000000 0.000000 -60.708740 0.000000 74.000000 -0.511813 0.855841 0.074727
4770.00000000 -11410.00000000 190.00000000 208 243 30 0.000000 0.000000 0.000000 0.000000 -60.708740 0.000000 74.000000 -0.492541 0.772135 -0.401510
4760.00000000 -11410.00000000 160.00000000 208 243 30 0.000000 0.000000 0.000000 0.000000 -60.708740 0.000000 74.000000 -0.482047 0.874314 0.056630
4750.00000000 -11420.00000000 200.00000000 208 243 30 0.000000 0.000000 0.000000 0.000000 -60.708740 0.000000 74.000000 -0.524778 0.815806 -0.243039
4720.00000000 -11440.00000000 200.00000000 208 243 30 0.000000 0.000000 0.000000 0.000000 -60.708740 0.000000 74.000000 -0.662857 0.735004 -0.142792
4730.00000000 -11430.00000000 220.00000000 208 243 30 0.000000 0.000000 0.000000 0.000000 -60.708740 0.000000 74.000000 -0.330873 0.939466 -0.089030
4710.00000000 -11430.00000000 220.00000000 208 243 30 0.000000 0.000000 0.000000 0.000000 -60.708740 0.000000 74.000000 -0.664827 0.696713 -0.269438
4720.00000000 -11430.00000000 210.00000000 208 243 30 0.000000 0.000000 0.000000 0.000000 -60.708740 0.000000 74.000000 -0.442892 0.827468 -0.345172
4750.00000000 -11410.00000000 200.00000000 208 243 30 0.000000 0.000000 0.000000 0.000000 -60.708740 0.000000 74.000000 0.686591 -0.634154 0.355585
4720.00000000 -11430.00000000 200.00000000 208 243 30 0.000000 0.000000 0.000000 0.000000 -60.708740 0.000000 74.000000 0.819284 -0.562254 0.112451
4720.00000000 -11430.00000000 230.00000000 208 243 30 0.000000 0.000000 0.000000 0.000000 -60.708740 0.000000 74.000000 -0.595795 0.796822 -0.100513
4720.00000000 -11430.00000000 220.00000000 208 243 30 0.000000 0.000000 0.000000 0.000000 -60.708740 0.000000 74.000000 -0.480822 0.859562 -0.173096
4740.00000000 -11420.00000000 200.00000000 208 243 30 0.000000 0.000000 0.000000 0.000000 -60.708740 0.000000 74.000000 -0.308962 0.937873 0.157914
4750.00000000 -11420.00000000 200.00000000 208 243 30 0.000000 0.000000 0.000000 0.000000 -60.708740 0.000000 74.000000 -0.524778 0.815806 -0.243039
4720.00000000 -11440.00000000 210.00000000 208 243 30 0.000000 0.000000 0.000000 0.000000 -60.708740 0.000000 74.000000 0.792631 -0.567048 0.224038
4720.00000000 -11440.00000000 180.00000000 208 243 30 0.000000 0.000000 0.000000 0.000000 -60.708740 0.000000 74.000000 -0.115465 0.991172 0.065164
4750.00000000 -11420.00000000 160.00000000 208 243 30 0.000000 0.000000 0.000000 0.000000 -60.708740 0.000000 74.000000 -0.288860 0.955657 0.057263
4730.00000000 -11420.00000000 190.00000000 208 243 30 0.000000 0.000000 0.000000 0.000000 -60.708740 0.000000 74.000000 0.688495 -0.678999 -0.254822
4710.00000000 -11440.00000000 170.00000000 208 243 30 0.000000 0.000000 0.000000 0.000000 -60.708740 0.000000 74.000000 -0.573183 0.816178 0.072899
4720.00000000 -11440.00000000 180.00000000 208 243 30 0.000000 0.000000 0.000000 0.000000 -60.708740 0.000000 74.000000 -0.115465 0.991172 0.065164
4870.00000000 -11330.00000000 140.00000000 208 243 30 0.000000 0.000000 0.000000 0.000000 -60.708740 0.000000 74.000000 0.652287 -0.304401 0.694162
4840.00000000 -11340.00000000 120.00000000 208 243 30 0.000000 0.000000 0.000000 0.000000 -60.708740 0.000000 74.000000 0.696786 -0.677912 -0.234359
4840.00000000 -11340.00000000 120.00000000 208 243 30 0.000000 0.000000 0.000000 0.000000 -60.708740 0.000000 74.000000 0.696786 -0.677912 -0.234359
4870.00000000 -11340.00000000 140.00000000 208 243 30 0.000000 0.000000 0.000000 0.000000 -60.708740 0.000000 74.000000 0.867536 -0.294261 0.400988
4850.00000000 -11330.00000000 120.00000000 208 243 30 0.000000 0.000000 0.000000 0.000000 -60.708740 0.000000 74.000000 -0.675904 0.735668 0.044112
4870.00000000 -11320.00000000 90.00000000 208 243 30 0.000000 0.000000 0.000000 0.000000 -60.708740 0.000000 74.000000 -0.702612 0.621102 0.347230
4850.00000000 -11330.00000000 70.00000000 208 243 30 0.000000 0.000000 0.000000 0.000000 -60.708740 0.000000 74.000000 -0.370577 0.854344 0.364375
4860.00000000 -11350.00000000 70.00000000 208 243 30 0.000000 0.000000 0.000000 0.000000 -60.708740 0.000000 74.000000 -0.521969 0.613187 0.592916
4810.00000000 -11360.00000000 110.00000000 208 243 30 0.000000 0.000000 0.000000 0.000000 -60.708740 0.000000 74.000000 -0.269353 0.865887 0.421530
4810.00000000 -11360.00000000 140.00000000 208 243 30 0.000000 0.000000 0.000000 0.000000 -60.708740 0.000000 74.000000 -0.528644 0.841486 0.111522
4830.00000000 -11340.00000000 120.00000000 208 243 30 0.000000 0.000000 0.000000 0.000000 -60.708740 0.000000 74.000000 0.743772 -0.666978 -0.044086
4830.00000000 -11350.00000000 120.00000000 208 243 30 0.000000 0.000000 0.000000 0.000000 -60.708740 0.000000 74.000000 -0.677287 0.689977 0.255371
4800.00000000 -11360.00000000 110.00000000 208 243 30 0.000000 0.000000 0.000000 0.000000 -60.708740 0.000000 74.000000 -0.090688 0.947626 0.306237
4830.00000000 -11350.00000000 130.00000000 208 243 30 0.000000 0.000000 0.000000 0.000000 -60.708740 0.000000 74.000000 0.629477 -0.707150 -0.322020
4830.00000000 -11360.00000000 80.00000000 208 243 30 0.000000 0.000000 0.000000 0.000000 -60.708740 0.000000 74.000000 -0.246577 0.752294 0.610945
4830.00000000 -11340.00000000 70.00000000 208 243 30 0.000000 0.000000 0.000000 0.000000 -60.708740 0.000000 74.000000 -0.428144 0.835901 0.343456
4830.00000000 -11330.00000000 80.00000000 208 243 30 0.000000 0.000000 0.000000 0.000000 -60.708740 0.000000 74.000000 -0.142257 0.961866 0.233615
4800.00000000 -11350.00000000 100.00000000 208 243 30 0.000000 0.000000 0.000000 0.000000 -60.708740 0.000000 74.000000 -0.194463 0.583388 0.788570
4820.00000000 -11350.00000000 100.00000000 208 243 30 0.000000 0.000000 0.000000 0.000000 -60.708740 0.000000 74.000000 -0.273035 0.688176 0.672209
4830.00000000 -11340.00000000 90.00000000 208 243 30 0.000000 0.000000 0.000000 0.000000 -60.708740 0.000000 74.000000 0.038661 0.959044 0.280605
4810.00000000 -11380.00000000 120.00000000 208 243 30 0.000000 0.000000 0.000000 0.000000 -60.708740 0.000000 74.000000 -0.583589 0.809034 0.069917
4810.00000000 -11370.00000000 140.00000000 208 243 30 0.000000 0.000000 0.000000 0.000000 -60.708740 0.000000 74.000000 -0.644508 0.763494 0.041079
4810.00000000 -11370.00000000 130.00000000 208 243 30 0.000000 0.000000 0.000000 0.000000 -60.708740 0.000000 74.000000 -0.701011 0.697996 0.146233
4800.00000000 -11370.00000000 110.00000000 208 243 30 0.000000 0.000000 0.000000 0.000000 -60.708740 0.000000 74.000000 0.055779 0.896544 0.439429
4830.00000000 -11390.00000000 80.00000000 208 243 30 0.000000 0.000000 0.000000 0.000000 -60.708740 0.000000 74.000000 0.113202 0.901426 0.417871
4850.00000000 -11340.00000000 50.00000000 208 243 30 0.000000 0.000000 0.000000 0.000000 -60.708740 0.000000 74.000000 -0.422695 0.862175 0.279253
4860.00000000 -11330.00000000 60.00000000 208 243 30 0.000000 0.000000 0.000000 0.000000 -60.708740 0.000000 74.000000 -0.017460 0.981229 0.192055
4860.00000000 -11330.00000000 60.00000000 208 243 30 0.000000 0.000000 0.000000 0.000000 -60.708740 0.000000 74.000000 -0.017460 0.981229 0.192055
4870.00000000 -11350.00000000 60.00000000 208 243 30 0.000000 0.000000 0.000000 0.000000 -60.708740 0.000000 74.000000 -0.075464 0.832949 0.548180
4870.00000000 -11330.00000000 50.00000000 208 243 30 0.000000 0.000000 0.000000 0.000000 -60.708740 0.000000 74.000000 -0.326331 0.895549 0.302490
4850.00000000 -11340.00000000 60.00000000 208 243 30 0.000000 0.000000 0.000000 0.000000 -60.708740 0.000000 74.000000 -0.050593 0.940507 0.335988
4850.00000000 -11320.00000000 20.00000000 208 243 30 0.000000 0.000000 0.000000 0.000000 -60.708740 0.000000 74.000000 0.094732 0.788463 0.607743
4850.00000000 -11320.00000000 20.00000000 208 243 30 0.000000 0.000000 0.000000 0.000000 -60.708740 0.000000 74.000000 0.094732 0.788463 0.607743
4810.00000000 -11350.00000000 10.00000000 208 243 30 0.000000 0.000000 0.000000 0.000000 -60.708740 0.000000 74.000000 -0.055132 0.410132 0.910358
4810.00000000 -11360.00000000 10.00000000 208 243 30 0.000000 0.000000 0.000000 0.000000 -60.708740 0.000000 74.000000 -0.043389 0.818789 0.572453
4810.00000000 -11330.00000000 10.00000000 208 243 30 0.000000 0.000000 0.000000 0.000000 -60.708740 0.000000 74.000000 0.209501 0.746445 0.631608
4810.00000000 -11370.00000000 50.00000000 208 243 30 0.000000 0.000000 0.000000 0.000000 -60.708740 0.000000 74.000000 0.224890 0.575408 0.786340
4760.00000000 -11390.00000000 140.00000000 208 243 30 0.000000 0.000000 0.000000 0.000000 -60.708740 0.000000 74.000000 -0.539178 0.673552 0.505584
4780.00000000 -11400.00000000 110.00000000 208 243 30 0.000000 0.000000 0.000000 0.000000 -60.708740 0.000000 74.000000 -0.181725 0.762022 0.621529
4790.00000000 -11370.00000000 130.00000000 208 243 30 0.000000 0.000000 0.000000 0.000000 -60.708740 0.000000 74.000000 -0.216392 0.936768 0.275027
4770.00000000 -11370.00000000 140.00000000 208 243 30 0.000000 0.000000 0.000000 0.000000 -60.708740 0.000000 74.000000 -0.276415 0.928471 0.248065
4790.00000000 -11390.00000000 90.00000000 208 243 30 0.000000 0.000000 0.000000 0.000000 -60.708740 0.000000 74.000000 0.184602 0.785701 0.590420
4760.00000000 -11400.00000000 100.00000000 208 243 30 0.000000 0.000000 0.000000 0.000000 -60.708740 0.000000 74.000000 -0.087030 0.535023 0.840343
4760.00000000 -11380.00000000 70.00000000 208 243 30 0.000000 0.000000 0.000000 0.000000 -60.708740 0.000000 74.000000 -0.283231 0.718479 0.635270
4770.00000000 -11370.00000000 70.00000000 208 243 30 0.000000 0.000000 0.000000 0.000000 -60.708740 0.000000 74.000000 -0.149796 0.688457 0.709640
4760.00000000 -11370.00000000 70.00000000 208 243 30 0.000000 0.000000 0.000000 0.000000 -60.708740 0.000000 74.000000 -0.247683 0.490751 0.835354
4760.00000000 -11370.00000000 70.00000000 208 243 30 0.000000 0.000000 0.000000 0.000000 -60.708740 0.000000 74.000000 -0.247683 0.490751 0.835354
4760.00000000 -11370.00000000 70.00000000 208 243 30 0.000000 0.000000 0.000000 0.000000 -60.708740 0.000000 74.000000 -0.247683 0.490751 0.835354
4790.00000000 -11380.00000000 90.00000000 208 243 30 0.000000 0.000000 0.000000 0.000000 -60.708740 0.000000 74.000000 0.113458 0.608547 0.785365
4750.00000000 -11400.00000000 130.00000000 208 243 30 0.000000 0.000000 0.000000 0.000000 -60.708740 0.000000 74.000000 -0.299888 0.884595 0.357153
4730.00000000 -11400.00000000 140.00000000 208 243 30 0.000000 0.000000 0.000000 0.000000 -60.708740 0.000000 74.000000 -0.351276 0.812226 0.465719
4750.00000000 -11400.00000000 120.00000000 208 243 30 0.000000 0.000000 0.000000 0.000000 -60.708740 0.000000 74.000000 -0.196132 0.950901 0.239416
4740.00000000 -11400.00000000 120.00000000 208 243 30 0.000000 0.000000 0.000000 0.000000 -60.708740 0.000000 74.000000 -0.113542 0.944402 0.308567
4710.00000000 -11370.00000000 80.00000000 208 243 30 0.000000 0.000000 0.000000 0.000000 -60.708740 0.000000 74.000000 -0.053846 0.264219 0.962959
4790.00000000 -11360.00000000 60.00000000 208 243 30 0.000000 0.000000 0.000000 0.000000 -60.708740 0.000000 74.000000 0.108534 0.449639 0.886592
4760.00000000 -11360.00000000 40.00000000 208 243 30 0.000000 0.000000 0.000000 0.000000 -60.708740 0.000000 74.000000 0.471424 0.701305 0.534725
4790.00000000 -11360.00000000 50.00000000 208 243 30 0.000000 0.000000 0.000000 0.000000 -60.708740 0.000000 74.000000 -0.223773 0.718266 0.658802
4770.00000000 -11370.00000000 60.00000000 208 243 30 0.000000 0.000000 0.000000 0.000000 -60.708740 0.000000 74.000000 0.340921 0.500978 0.795483
4760.00000000 -11400.00000000 50.00000000 208 243 30 0.000000 0.000000 0.000000 0.000000 -60.708740 0.000000 74.000000 0.326171 0.803494 0.498007
4750.00000000 -11350.00000000 40.00000000 208 243 30 0.000000 0.000000 0.000000 0.000000 -60.708740 0.000000 74.000000 0.029031 0.551592 0.833609
4720.00000000 -11360.00000000 10.00000000 208 243 30 0.000000 0.000000 0.000000 0.000000 -60.708740 0.000000 74.000000 0.098042 0.345160 0.933409
4760.00000000 -11420.00000000 110.00000000 208 243 30 0.000000 0.000000 0.000000 0.000000 -60.708740 0.000000 74.000000 -0.094327 0.957480 0.272643
4780.00000000 -11410.00000000 130.00000000 208 243 30 0.000000 0.000000 0.000000 0.000000 -60.708740 0.000000 74.000000 -0.285960 0.863996 0.414412
4770.00000000 -11430.00000000 120.00000000 208 243 30 0.000000 0.000000 0.000000 0.000000 -60.708740 0.000000 74.000000 -0.234454 0.933603 0.270955
4710.00000000 -11430.00000000 140.00000000 208 243 30 0.000000 0.000000 0.000000 0.000000 -60.708740 0.000000 74.000000 -0.213127 0.676718 0.704720
4720.00000000 -11420.00000000 130.00000000 208 243 30 0.000000 0.000000 0.000000 0.000000 -60.708740 0.000000 74.000000 -0.070537 0.623315 0.778783
4720.00000000 -11430.00000000 140.00000000 208 243 30 0.000000 0.000000 0.000000 0.000000 -60.708740 0.000000 74.000000 -0.129902 0.978598 0.159594
4750.00000000 -11420.00000000 140.00000000 208 243 30 0.000000 0.000000 0.000000 0.000000 -60.708740 0.000000 74.000000 -0.511251 0.625987 0.588866
4740.00000000 -11420.00000000 100.00000000 208 243 30 0.000000 0.000000 0.000000 0.000000 -60.708740 0.000000 74.000000 -0.081023 0.527362 0.845769
4730.00000000 -11410.00000000 100.00000000 208 243 30 0.000000 0.000000 0.000000 0.000000 -60.708740 0.000000 74.000000 -0.357771 0.539084 0.762488
4720.00000000 -11410.00000000 100.00000000 208 243 30 0.000000 0.000000 0.000000 0.000000 -60.708740 0.000000 74.000000 0.070122 0.805692 0.588169
4710.00000000 -11410.00000000 100.00000000 208 243 30 0.000000 0.000000 0.000000 0.000000 -60.708740 0.000000 74.000000 0.334595 0.754858 0.564123
4720.00000000 -11410.00000000 90.00000000 208 243 30 0.000000 0.000000 0.000000 0.000000 -60.708740 0.000000 74.000000 -0.085636 0.770726 0.631386
4720.00000000 -11420.00000000 100.00000000 208 243 30 0.000000 0.000000 0.000000 0.000000 -60.708740 0.000000 74.000000 -0.112659 0.806174 0.580855
4710.00000000 -11450.00000000 100.00000000 208 243 30 0.000000 0.000000 0.000000 0.000000 -60.708740 0.000000 74.000000 -0.276381 0.458576 0.844583
4710.00000000 -11520.00000000 240.00000000 208 243 30 0.000000 0.000000 0.000000 0.000000 -60.708740 0.000000 74.000000 -0.379561 0.919441 -0.102769
4640.00000000 -11330.00000000 320.00000000 208 243 30 0.000000 0.000000 0.000000 0.000000 -60.708740 0.000000 74.000000 0.208204 0.380008 0.901246
4630.00000000 -11350.00000000 320.00000000 208 243 30 0.000000 0.000000 0.000000 0.000000 -60.708740 0.000000 74.000000 -0.281847 0.527479 0.801454
4630.00000000 -11400.00000000 330.00000000 208 243 30 0.000000 0.000000 0.000000 0.000000 -60.708740 0.000000 74.000000 0.330509 0.351832 0.875773
4640.00000000 -11400.00000000 330.00000000 208 243 30 0.000000 0.000000 0.000000 0.000000 -60.708740 0.000000 74.000000 0.326379 0.372348 0.868812
4640.00000000 -11410.00000000 320.00000000 208 243 30 0.000000 0.000000 0.000000 0.000000 -60.708740 0.000000 74.000000 0.333454 0.246086 0.910082
4660.00000000 -11410.00000000 320.00000000 208 243 30 0.000000 0.000000 0.000000 0.000000 -60.708740 0.000000 74.000000 0.568170 -0.012322 0.822819
4640.00000000 -11410.00000000 330.00000000 208 243 30 0.000000 0.000000 0.000000 0.000000 -60.708740 0.000000 74.000000 0.260334 0.186732 0.947289
4680.00000000 -11410.00000000 320.00000000 208 243 30 0.000000 0.000000 0.000000 0.000000 -60.708740 0.000000 74.000000 0.339893 -0.266323 0.901967
4650.00000000 -11410.00000000 320.00000000 208 243 30 0.000000 0.000000 0.000000 0.000000 -60.708740 0.000000 74.000000 0.484294 0.209710 0.849400
4660.00000000 -11410.00000000 320.00000000 208 243 30 0.000000 0.000000 0.000000 0.000000 -60.708740 0.000000 74.000000 0.568170 -0.012322 0.822819
4630.00000000 -11410.00000000 330.00000000 208 243 30 0.000000 0.000000 0.000000 0.000000 -60.708740 0.000000 74.000000 0.210288 0.339036 0.916970
4620.00000000 -11360.00000000 320.00000000 208 243 30 0.000000 0.000000 0.000000 0.000000 -60.708740 0.000000 74.000000 0.143641 0.411011 0.900243
4620.00000000 -11360.00000000 320.00000000 208 243 30 0.000000 0.000000 0.000000 0.000000 -60.708740 0.000000 74.000000 0.143641 0.411011 0.900243
4600.00000000 -11390.00000000 330.00000000 208 243 30 0.000000 0.000000 0.000000 0.000000 -60.708740 0.000000 74.000000 0.247621 0.543519 0.802042
4620.00000000 -11400.00000000 330.00000000 208 243 30 0.000000 0.000000 0.000000 0.000000 -60.708740 0.000000 74.000000 0.401507 0.246278 0.882122
4600.00000000 -11390.00000000 330.00000000 208 243 30 0.000000 0.000000 0.000000 0.000000 -60.708740 0.000000 74.000000 0.247621 0.543519 0.802042
4620.00000000 -11400.00000000 330.00000000 208 243 30 0.000000 0.000000 0.000000 0.000000 -60.708740 0.000000 74.000000 0.401507 0.246278 0.882122
4600.00000000 -11380.00000000 330.00000000 208 243 30 0.000000 0.000000 0.000000 0.000000 -60.708740 0.000000 74.000000 0.310255 0.412130 0.856674
4620.00000000 -11380.00000000 340.00000000 208 243 30 0.000000 0.000000 0.000000 0.000000 -60.708740 0.000000 74.000000 0.213013 0.251493 0.944128
4580.00000000 -11360.00000000 320.00000000 208 243 30 0.000000 0.000000 0.000000 0.000000 -60.708740 0.000000 74.000000 0.064759 0.651911 0.755526
4580.00000000 -11360.00000000 330.00000000 208 243 30 0.000000 0.000000 0.000000 0.000000 -60.708740 0.000000 74.000000 -0.076687 0.652561 0.753846
4560.00000000 -11370.00000000 320.00000000 208 243 30 0.000000 0.000000 0.000000 0.000000 -60.708740 0.000000 74.000000 -0.287023 0.707135 0.646203
4570.00000000 -11380.00000000 340.00000000 208 243 30 0.000000 0.000000 0.000000 0.000000 -60.708740 0.000000 74.000000 0.169256 0.705994 0.687696
4570.00000000 -11370.00000000 340.00000000 208 243 30 0.000000 0.000000 0.000000 0.000000 -60.708740 0.000000 74.000000 0.162447 0.538011 0.827137
4560.00000000 -11380.00000000 330.00000000 208 243 30 0.000000 0.000000 0.000000 0.000000 -60.708740 0.000000 74.000000 0.032272 0.630000 0.775924
4600.00000000 -11420.00000000 360.00000000 208 243 30 0.000000 0.000000 0.000000 0.000000 -60.708740 0.000000 74.000000 0.545446 0.140426 0.826299
4590.00000000 -11440.00000000 370.00000000 208 243 30 0.000000 0.000000 0.000000 0.000000 -60.708740 0.000000 74.000000 0.510720 0.098711 0.854062
4590.00000000 -11440.00000000 350.00000000 208 243 30 0.000000 0.000000 0.000000 0.000000 -60.708740 0.000000 74.000000 0.592636 -0.073183 0.802139
4590.00000000 -11410.00000000 350.00000000 208 243 30 0.000000 0.000000 0.000000 0.000000 -60.708740 0.000000 74.000000 0.434831 0.249990 0.865117
4600.00000000 -11410.00000000 340.00000000 208 243 30 0.000000 0.000000 0.000000 0.000000 -60.708740 0.000000 74.000000 0.551989 0.363108 0.750640
4610.00000000 -11450.00000000 330.00000000 208 243 30 0.000000 0.000000 0.000000 0.000000 -60.708740 0.000000 74.000000 0.715247 -0.152727 0.681980
4590.00000000 -11470.00000000 330.00000000 208 243 30 0.000000 0.000000 0.000000 0.000000 -60.708740 0.000000 74.000000 0.464597 -0.409557 0.785120
4620.00000000 -11460.00000000 320.00000000 208 243 30 0.000000 0.000000 0.000000 0.000000 -60.708740 0.000000 74.000000 0.765843 -0.294555 0.571596
4590.00000000 -11470.00000000 330.00000000 208 243 30 0.000000 0.000000 0.000000 0.000000 -60.708740 0.000000 74.000000 0.464597 -0.409557 0.785120
4580.00000000 -11440.00000000 360.00000000 208 243 30 0.000000 0.000000 0.000000 0.000000 -60.708740 0.000000 74.000000 0.692593 0.420206 0.586295
4560.00000000 -11440.00000000 390.00000000 208 243 30 0.000000 0.000000 0.000000 0.000000 -60.708740 0.000000 74.000000 0.273419 0.400310 0.874639
4550.00000000 -11430.00000000 380.00000000 208 243 30 0.000000 0.000000 0.000000 0.000000 -60.708740 0.000000 74.000000 0.405313 0.298249 0.864158
4580.00000000 -11440.00000000 360.00000000 208 243 30 0.000000 0.000000 0.000000 0.000000 -60.708740 0.000000 74.000000 0.692593 0.420206 0.586295
4570.00000000 -11430.00000000 370.00000000 208 243 30 0.000000 0.000000 0.000000 0.000000 -60.708740 0.000000 74.000000 0.664094 0.395807 0.634284
4550.00000000 -11470.00000000 360.00000000 208 243 30 0.000000 0.000000 0.000000 0.000000 -60.708740 0.000000 74.000000 0.430891 -0.101796 0.896644
4580.00000000 -11460.00000000 400.00000000 208 243 30 0.000000 0.000000 0.000000 0.000000 -60.708740 0.000000 74.000000 0.476384 0.070833 0.876380
4570.00000000 -11480.00000000 370.00000000 208 243 30 0.000000 0.000000 0.000000 0.000000 -60.708740 0.000000 74.000000 0.341605 -0.332496 0.879064
4550.00000000 -11470.00000000 340.00000000 208 243 30 0.000000 0.000000 0.000000 0.000000 -60.708740 0.000000 74.000000 0.798904 0.203943 0.565826
4580.00000000 -11480.00000000 340.00000000 208 243 30 0.000000 0.000000 0.000000 0.000000 -60.708740 0.000000 74.000000 0.748835 -0.267554 0.606351
4390.00000000 -11480.00000000 490.00000000 208 243 30 0.000000 0.000000 0.000000 0.000000 -60.708740 0.000000 74.000000 0.130872 0.464524 0.875837
4510.00000000 -11360.00000000 340.00000000 208 243 30 0.000000 0.000000 0.000000 0.000000 -60.708740 0.000000 74.000000 -0.271104 0.853136 0.445714
4500.00000000 -11360.00000000 330.00000000 208 243 30 0.000000 0.000000 0.000000 0.000000 -60.708740 0.000000 74.000000 -0.189692 0.880819 0.433792
4500.00000000 -11380.00000000 390.00000000 208 243 30 0.000000 0.000000 0.000000 0.000000 -60.708740 0.000000 74.000000 -0.145991 0.738986 0.657713
4530.00000000 -11390.00000000 360.00000000 208 243 30 0.000000 0.000000 0.000000 0.000000 -60.708740 0.000000 74.000000 -0.329039 0.908148 0.258844
4520.00000000 -11400.00000000 370.00000000 208 243 30 0.000000 0.000000 0.000000 0.000000 -60.708740 0.000000 74.000000 0.054998 0.910817 0.409130
4530.00000000 -11380.00000000 350.00000000 208 243 30 0.000000 0.000000 0.000000 0.000000 -60.708740 0.000000 74.000000 -0.418547 0.753384 0.507180
4510.00000000 -11390.00000000 350.00000000 208 243 30 0.000000 0.000000 0.000000 0.000000 -60.708740 0.000000 74.000000 0.152176 0.837707 0.524490
4500.00000000 -11370.00000000 320.00000000 208 243 30 0.000000 0.000000 0.000000 0.000000 -60.708740 0.000000 74.000000 -0.431660 0.793801 0.428426
4530.00000000 -11380.00000000 340.00000000 208 243 30 0.000000 0.000000 0.000000 0.000000 -60.708740 0.000000 74.000000 -0.217597 0.832347 0.509755
4490.00000000 -11360.00000000 320.00000000 208 243 30 0.000000 0.000000 0.000000 0.000000 -60.708740 0.000000 74.000000 -0.423447 0.904698 0.047050
4490.00000000 -11360.00000000 320.00000000 208 243 30 0.000000 0.000000 0.000000 0.000000 -60.708740 0.000000 74.000000 -0.423447 0.904698 0.047050
4480.00000000 -11400.00000000 390.00000000 208 243 30 0.000000 0.000000 0.000000 0.000000 -60.708740 0.000000 74.000000 -0.080643 0.855946 0.510738
4460.00000000 -11400.00000000 390.00000000 208 243 30 0.000000 0.000000 0.000000 0.000000 -60.708740 0.000000 74.000000 -0.117213 0.752240 0.648380
4480.00000000 -11390.00000000 390.00000000 208 243 30 0.000000 0.000000 0.000000 0.000000 -60.708740 0.000000 74.000000 -0.408693 0.789924 0.457154
4460.00000000 -11370.00000000 330.00000000 208 243 30 0.000000 0.000000 0.000000 0.000000 -60.708740 0.000000 74.000000 0.652763 -0.747927 -0.120441
4470.00000000 -11400.00000000 340.00000000 208 243 30 0.000000 0.000000 0.000000 0.000000 -60.708740 0.000000 74.000000 -0.364654 0.925870 -0.098958
4490.00000000 -11400.00000000 350.00000000 208 243 30 0.000000 0.000000 0.000000 0.000000 -60.708740 0.000000 74.000000 -0.301281 0.953438 -0.013638
4500.00000000 -11420.00000000 420.00000000 208 243 30 0.000000 0.000000 0.000000 0.000000 -60.708740 0.000000 74.000000 0.001333 0.491969 0.870612
4500.00000000 -11480.00000000 410.00000000 208 243 30 0.000000 0.000000 0.000000 0.000000 -60.708740 0.000000 74.000000 0.555441 0.196307 0.808053
4490.00000000 -11480.00000000 410.00000000 208 243 30 0.000000 0.000000 0.000000 0.000000 -60.708740 0.000000 74.000000 0.204303 0.256407 0.944730
4540.00000000 -11410.00000000 350.00000000 208 243 30 0.000000 0.000000 0.000000 0.000000 -60.708740 0.000000 74.000000 0.290698 0.853637 0.432202
4510.00000000 -11460.00000000 390.00000000 208 243 30 0.000000 0.000000 0.000000 0.000000 -60.708740 0.000000 74.000000 0.511942 0.291413 0.808080
4540.00000000 -11480.00000000 370.00000000 208 243 30 0.000000 0.000000 0.000000 0.000000 -60.708740 0.000000 74.000000 0.670576 -0.058873 0.739501
4460.00000000 -11410.00000000 360.00000000 208 243 30 0.000000 0.000000 0.000000 0.000000 -60.708740 0.000000 74.000000 -0.600702 0.730233 0.325448
4490.00000000 -11470.00000000 400.00000000 208 243 30 0.000000 0.000000 0.000000 0.000000 -60.708740 0.000000 74.000000 0.077946 0.214043 0.973709
4440.00000000 -11380.00000000 410.00000000 208 243 30 0.000000 0.000000 0.000000 0.000000 -60.708740 0.000000 74.000000 -0.234528 0.950312 0.204703
4420.00000000 -11390.00000000 420.00000000 208 243 30 0.000000 0.000000 0.000000 0.000000 -60.708740 0.000000 74.000000 -0.113725 0.985220 0.128091
4440.00000000 -11380.00000000 390.00000000 208 243 30 0.000000 0.000000 0.000000 0.000000 -60.708740 0.000000 74.000000 -0.216133 0.968120 0.126610
4450.00000000 -11370.00000000 360.00000000 208 243 30 0.000000 0.000000 0.000000 0.000000 -60.708740 0.000000 74.000000 -0.132368 0.991095 -0.014460
4440.00000000 -11380.00000000 360.00000000 208 243 30 0.000000 0.000000 0.000000 0.000000 -60.708740 0.000000 74.000000 -0.630438 0.723009 0.282500
4450.00000000 -11370.00000000 360.00000000 208 243 30 0.000000 0.000000 0.000000 0.000000 -60.708740 0.000000 74.000000 -0.132368 0.991095 -0.014460
4420.00000000 -11390.00000000 360.00000000 208 243 30 0.000000 0.000000 0.000000 0.000000 -60.708740 0.000000 74.000000 -0.339615 0.890181 0.303709
4420.00000000 -11400.00000000 370.00000000 208 243 30 0.000000 0.000000 0.000000 0.000000 -60.708740 0.000000 74.000000 -0.250480 0.945803 0.206680
4440.00000000 -11390.00000000 370.00000000 208 243 30 0.000000 0.000000 0.000000 0.000000 -60.708740 0.000000 74.000000 -0.398586 0.833408 0.382832
4440.00000000 -11370.00000000 370.00000000 208 243 30 0.000000 0.000000 0.000000 0.000000 -60.708740 0.000000 74.000000 -0.541437 0.646014 0.538064
4440.00000000 -11390.00000000 380.00000000 208 243 30 0.000000 0.000000 0.000000 0.000000 -60.708740 0.000000 74.000000 -0.409690 0.885937 0.217417
4450.00000000 -11380.00000000 320.00000000 208 243 30 0.000000 0.000000 0.000000 0.000000 -60.708740 0.000000 74.000000 -0.256580 0.921681 0.290982
4430.00000000 -11390.00000000 350.00000000 208 243 30 0.000000 0.000000 0.000000 0.000000 -60.708740 0.000000 74.000000 -0.216511 0.976073 0.020113
4430.00000000 -11390.00000000 350.00000000 208 243 30 0.000000 0.000000 0.000000 0.000000 -60.708740 0.000000 74.000000 -0.216511 0.976073 0.020113
4430.00000000 -11390.00000000 330.00000000 208 243 30 0.000000 0.000000 0.000000 0.000000 -60.708740 0.000000 74.000000 -0.266642 0.944869 0.190068
4450.00000000 -11390.00000000 330.00000000 208 243 30 0.000000 0.000000 0.000000 0.000000 -60.708740 0.000000 74.000000 -0.409938 0.906833 0.097999
4400.00000000 -11390.00000000 380.00000000 208 243 30 0.000000 0.000000 0.000000 0.000000 -60.708740 0.000000 74.000000 -0.705125 0.657374 0.265815
4390.00000000 -11400.00000000 380.00000000 208 243 30 0.000000 0.000000 0.000000 0.000000 -60.708740 0.000000 74.000000 -0.198511 0.937027 0.287355
4390.00000000 -11400.00000000 390.00000000 208 243 30 0.000000 0.000000 0.000000 0.000000 -60.708740 0.000000 74.000000 -0.398296 0.912932 0.088966
4380.00000000 -11400.00000000 350.00000000 208 243 30 0.000000 0.000000 0.000000 0.000000 -60.708740 0.000000 74.000000 0.852462 -0.522389 0.020459
4380.00000000 -11400.00000000 340.00000000 208 243 30 0.000000 0.000000 0.000000 0.000000 -60.708740 0.000000 74.000000 -0.394999 0.914376 0.088841
4380.00000000 -11400.00000000 340.00000000 208 243 30 0.000000 0.000000 0.000000 0.000000 -60.708740 0.000000 74.000000 -0.394999 0.914376 0.088841
4380.00000000 -11400.00000000 340.00000000 208 243 30 0.000000 0.000000 0.000000 0.000000 -60.708740 0.000000 74.000000 -0.394999 0.914376 0.088841
4390.00000000 -11380.00000000 350.00000000 208 243 30 0.000000 0.000000 0.000000 0.000000 -60.708740 0.000000 74.000000 -0.441842 0.895845 0.047292
4380.00000000 -11400.00000000 320.00000000 208 243 30 0.000000 0.000000 0.000000 0.000000 -60.708740 0.000000 74.000000 -0.387774 0.897002 -0.212178
4430.00000000 -11440.00000000 420.00000000 208 243 30 0.000000 0.000000 0.000000 0.000000 -60.708740 0.000000 74.000000 0.047013 0.665308 0.745088
4430.00000000 -11430.00000000 420.00000000 208 243 30 0.000000 0.000000 0.000000 0.000000 -60.708740 0.000000 74.000000 -0.152616 0.666371 0.729835
4420.00000000 -11460.00000000 470.00000000 208 243 30 0.000000 0.000000 0.000000 0.000000 -60.708740 0.000000 74.000000 -0.032509 0.710961 0.702480
4420.00000000 -11460.00000000 460.00000000 208 243 30 0.000000 0.000000 0.000000 0.000000 -60.708740 0.000000 74.000000 0.082066 -0.591738 -0.801942
4420.00000000 -11450.00000000 460.00000000 208 243 30 0.000000 0.000000 0.000000 0.000000 -60.708740 0.000000 74.000000 -0.178756 0.527256 0.830691
4420.00000000 -11450.00000000 430.00000000 208 243 30 0.000000 0.000000 0.000000 0.000000 -60.708740 0.000000 74.000000 -0.242935 0.933824 0.262594
4380.00000000 -11440.00000000 470.00000000 208 243 30 0.000000 0.000000 0.000000 0.000000 -60.708740 0.000000 74.000000 0.197759 0.789503 0.581013
4400.00000000 -11420.00000000 460.00000000 208 243 30 0.000000 0.000000 0.000000 0.000000 -60.708740 0.000000 74.000000 -0.397878 0.744998 0.535416
4390.00000000 -11430.00000000 420.00000000 208 243 30 0.000000 0.000000 0.000000 0.000000 -60.708740 0.000000 74.000000 -0.562148 0.809312 0.170302
4410.00000000 -11450.00000000 450.00000000 208 243 30 0.000000 0.000000 0.000000 0.000000 -60.708740 0.000000 74.000000 0.261616 0.869534 0.418889
4440.00000000 -11410.00000000 400.00000000 208 243 30 0.000000 0.000000 0.000000 0.000000 -60.708740 0.000000 74.000000 -0.276617 0.916745 0.288203
4430.00000000 -11410.00000000 340.00000000 208 243 30 0.000000 0.000000 0.000000 0.000000 -60.708740 0.000000 74.000000 -0.363144 0.907136 0.212678
4380.00000000 -11410.00000000 380.00000000 208 243 30 0.000000 0.000000 0.000000 0.000000 -60.708740 0.000000 74.000000 -0.092613 0.994200 0.054675
4380.00000000 -11410.00000000 360.00000000 208 243 30 0.000000 0.000000 0.000000 0.000000 -60.708740 0.000000 74.000000 -0.292330 0.952347 0.087049
4410.00000000 -11430.00000000 400.00000000 208 243 30 0.000000 0.000000 0.000000 0.000000 -60.708740 0.000000 74.000000 0.044366 0.951971 0.302957
4380.00000000 -11410.00000000 340.00000000 208 243 30 0.000000 0.000000 0.000000 0.000000 -60.708740 0.000000 74.000000 -0.438838 0.857799 0.267584
4700.00000000 -11200.00000000 160.00000000 208 243 30 0.000000 0.000000 0.000000 0.000000 -60.708740 0.000000 74.000000 -0.571137 0.817341 0.075865
4670.00000000 -11230.00000000 160.00000000 208 243 30 0.000000 0.000000 0.000000 0.000000 -60.708740 0.000000 74.000000 0.800268 -0.582690 0.141574
4700.00000000 -11230.00000000 200.00000000 208 243 30 0.000000 0.000000 0.000000 0.000000 -60.708740 0.000000 74.000000 -0.135722 0.783011 0.607020
4670.00000000 -11230.00000000 150.00000000 208 243 30 0.000000 0.000000 0.000000 0.000000 -60.708740 0.000000 74.000000 -0.691144 0.722112 0.029560
4700.00000000 -11230.00000000 150.00000000 208 243 30 0.000000 0.000000 0.000000 0.000000 -60.708740 0.000000 74.000000 -0.266706 0.954038 0.136670
4690.00000000 -11270.00000000 240.00000000 208 243 30 0.000000 0.000000 0.000000 0.000000 -60.708740 0.000000 74.000000 -0.202989 0.554022 0.807376
4670.00000000 -11260.00000000 240.00000000 208 243 30 0.000000 0.000000 0.000000 0.000000 -60.708740 0.000000 74.000000 -0.171480 0.836525 0.520405
4690.00000000 -11270.00000000 240.00000000 208 243 30 0.000000 0.000000 0.000000 0.000000 -60.708740 0.000000 74.000000 -0.202989 0.554022 0.807376
4670.00000000 -11270.00000000 250.00000000 208 243 30 0.000000 0.000000 0.000000 0.000000 -60.708740 0.000000 74.000000 -0.210134 0.673985 0.708229
4670.00000000 -11310.00000000 300.00000000 208 243 30 0.000000 0.000000 0.000000 0.000000 -60.708740 0.000000 74.000000 -0.155584 0.357424 0.920892
4670.00000000 -11300.00000000 290.00000000 208 243 30 0.000000 0.000000 0.000000 0.000000 -60.708740 0.000000 74.000000 0.133360 0.928022 0.347836
4700.00000000 -11300.00000000 280.00000000 208 243 30 0.000000 0.000000 0.000000 0.000000 -60.708740 0.000000 74.000000 0.235402 -0.771681 -0.590842
4690.00000000 -11290.00000000 250.00000000 208 243 30 0.000000 0.000000 0.000000 0.000000 -60.708740 0.000000 74.000000 0.126672 0.663164 0.737677
4690.00000000 -11290.00000000 260.00000000 208 243 30 0.000000 0.000000 0.000000 0.000000 -60.708740 0.000000 74.000000 -0.149755 0.679191 0.718521
4680.00000000 -11280.00000000 260.00000000 208 243 30 0.000000 0.000000 0.000000 0.000000 -60.708740 0.000000 74.000000 0.004106 0.595386 0.803429
4670.00000000 -11280.00000000 250.00000000 208 243 30 0.000000 0.000000 0.000000 0.000000 -60.708740 0.000000 74.000000 0.001376 0.766300 0.642481
4660.00000000 -11260.00000000 240.00000000 208 243 30 0.000000 0.000000 0.000000 0.000000 -60.708740 0.000000 74.000000 -0.610964 0.651137 0.450272
4660.00000000 -11290.00000000 280.00000000 208 243 30 0.000000 0.000000 0.000000 0.000000 -60.708740 0.000000 74.000000 0.111045 0.846540 0.520615
4630.00000000 -11300.00000000 290.00000000 208 243 30 0.000000 0.000000 0.000000 0.000000 -60.708740 0.000000 74.000000 -0.544494 0.747248 0.380982
4640.00000000 -11300.00000000 290.00000000 208 243 30 0.000000 0.000000 0.000000 0.000000 -60.708740 0.000000 74.000000 0.035191 0.767168 0.640480
4630.00000000 -11310.00000000 310.00000000 208 243 30 0.000000 0.000000 0.000000 0.000000 -60.708740 0.000000 74.000000 -0.326834 0.568336 0.755098
4630.00000000 -11300.00000000 300.00000000 208 243 30 0.000000 0.000000 0.000000 0.000000 -60.708740 0.000000 74.000000 0.500045 -0.697388 -0.513425
4630.00000000 -11310.00000000 300.00000000 208 243 30 0.000000 0.000000 0.000000 0.000000 -60.708740 0.000000 74.000000 0.416690 -0.528685 -0.739501
4660.00000000 -11290.00000000 260.00000000 208 243 30 0.000000 0.000000 0.000000 0.000000 -60.708740 0.000000 74.000000 -0.281898 0.740578 0.609982
4640.00000000 -11290.00000000 260.00000000 208 243 30 0.000000 0.000000 0.000000 0.000000 -60.708740 0.000000 74.000000 -0.129695 0.966935 0.219583
4630.00000000 -11290.00000000 240.00000000 208 243 30 0.000000 0.000000 0.000000 0.000000 -60.708740 0.000000 74.000000 -0.563259 0.718527 0.407991
4650.00000000 -11290.00000000 250.00000000 208 243 30 0.000000 0.000000 0.000000 0.000000 -60.708740 0.000000 74.000000 -0.370211 0.821456 0.433767
4660.00000000 -11280.00000000 250.00000000 208 243 30 0.000000 0.000000 0.000000 0.000000 -60.708740 0.000000 74.000000 -0.326111 0.772706 0.544589
4640.00000000 -11280.00000000 240.00000000 208 243 30 0.000000 0.000000 0.000000 0.000000 -60.708740 0.000000 74.000000 -0.267927 0.884609 0.381684
4630.00000000 -11310.00000000 250.00000000 208 243 30 0.000000 0.000000 0.000000 0.000000 -60.708740 0.000000 74.000000 -0.198558 0.902930 0.381173
4660.00000000 -11300.00000000 270.00000000 208 243 30 0.000000 0.000000 0.000000 0.000000 -60.708740 0.000000 74.000000 0.207182 0.842337 0.497538
4700.00000000 -11260.00000000 220.00000000 208 243 30 0.000000 0.000000 0.000000 0.000000 -60.708740 0.000000 74.000000 -0.342572 0.908180 0.240529
4700.00000000 -11250.00000000 230.00000000 208 243 30 0.000000 0.000000 0.000000 0.000000 -60.708740 0.000000 74.000000 -0.196733 0.933438 0.299984
4690.00000000 -11260.00000000 230.00000000 208 243 30 0.000000 0.000000 0.000000 0.000000 -60.708740 0.000000 74.000000 -0.262489 0.944135 0.199272
4700.00000000 -11250.00000000 220.00000000 208 243 30 0.000000 0.000000 0.000000 0.000000 -60.708740 0.000000 74.000000 -0.407086 0.881274 0.240076
4700.00000000 -11240.00000000 210.00000000 208 243 30 0.000000 0.000000 0.000000 0.000000 -60.708740 0.000000 74.000000 -0.015050 0.830480 0.556846
4700.00000000 -11250.00000000 210.00000000 208 243 30 0.000000 0.000000 0.000000 0.000000 -60.708740 0.000000 74.000000 0.678049 -0.678049 -0.283723
4700.00000000 -11250.00000000 230.00000000 208 243 30 0.000000 0.000000 0.000000 0.000000 -60.708740 0.000000 74.000000 -0.196733 0.933438 0.299984
4670.00000000 -11240.00000000 230.00000000 208 243 30 0.000000 0.000000 0.000000 0.000000 -60.708740 0.000000 74.000000 -0.588424 0.719549 0.368790
4670.00000000 -11240.00000000 210.00000000 208 243 30 0.000000 0.000000 0.000000 0.000000 -60.708740 0.000000 74.000000 -0.319954 0.947413 0.006225
4670.00000000 -11240.00000000 150.00000000 208 243 30 0.000000 0.000000 0.000000 0.000000 -60.708740 0.000000 74.000000 -0.584804 0.780256 0.221822
4700.00000000 -11240.00000000 180.00000000 208 243 30 0.000000 0.000000 0.000000 0.000000 -60.708740 0.000000 74.000000 0.736895 -0.594998 -0.320880
