//X Y Z R G B PointSourceId ScanDirectionFlag NumberOfReturns ReturnNumber GpsTime Intensity Classification Nx Ny Nz
1380.00000000 4320.00000000 -180.00000000 61 40 205 97.000000 1.000000 4.000000 1.000000 -60.708740 114.000000 149.000000 0.122904 0.854543 0.504629
1370.00000000 4310.00000000 -170.00000000 61 40 205 97.000000 1.000000 4.000000 1.000000 -60.708740 114.000000 149.000000 -0.152412 0.522343 0.839004
1410.00000000 4220.00000000 -160.00000000 61 40 205 97.000000 1.000000 4.000000 1.000000 -60.708740 114.000000 149.000000 -0.367489 0.232792 0.900422
1410.00000000 4210.00000000 -170.00000000 61 40 205 97.000000 1.000000 4.000000 1.000000 -60.708740 114.000000 149.000000 -0.347360 0.601764 0.719181
1450.00000000 4290.00000000 -200.00000000 61 40 205 97.000000 1.000000 4.000000 1.000000 -60.708740 114.000000 149.000000 -0.215070 0.323318 0.921526
1450.00000000 4280.00000000 -190.00000000 61 40 205 97.000000 1.000000 4.000000 1.000000 -60.708740 114.000000 149.000000 -0.414102 0.407707 0.813815
1450.00000000 4280.00000000 -190.00000000 61 40 205 97.000000 1.000000 4.000000 1.000000 -60.708740 114.000000 149.000000 -0.414102 0.407707 0.813815
1480.00000000 4250.00000000 -190.00000000 61 40 205 97.000000 1.000000 4.000000 1.000000 -60.708740 114.000000 149.000000 -0.143372 0.277365 0.950007
1460.00000000 4220.00000000 -190.00000000 61 40 205 97.000000 1.000000 4.000000 1.000000 -60.708740 114.000000 149.000000 -0.045019 0.229960 0.972158
1430.00000000 4220.00000000 -210.00000000 61 40 205 97.000000 1.000000 4.000000 1.000000 -60.708740 114.000000 149.000000 -0.319795 0.467878 0.823906
1430.00000000 4210.00000000 -210.00000000 61 40 205 97.000000 1.000000 4.000000 1.000000 -60.708740 114.000000 149.000000 -0.319298 0.377352 0.869284
1350.00000000 4280.00000000 -230.00000000 61 40 205 97.000000 1.000000 4.000000 1.000000 -60.708740 114.000000 149.000000 -0.438546 0.585284 0.681997
1380.00000000 4300.00000000 -220.00000000 61 40 205 97.000000 1.000000 4.000000 1.000000 -60.708740 114.000000 149.000000 -0.240741 0.634110 0.734812
1400.00000000 4240.00000000 -210.00000000 61 40 205 97.000000 1.000000 4.000000 1.000000 -60.708740 114.000000 149.000000 -0.351606 0.701577 0.619808
1350.00000000 4250.00000000 -210.00000000 61 40 205 97.000000 1.000000 4.000000 1.000000 -60.708740 114.000000 149.000000 -0.117811 0.530876 0.839221
1360.00000000 4230.00000000 -190.00000000 61 40 205 97.000000 1.000000 4.000000 1.000000 -60.708740 114.000000 149.000000 -0.355438 0.377168 0.855224
1360.00000000 4260.00000000 -220.00000000 61 40 205 97.000000 1.000000 4.000000 1.000000 -60.708740 114.000000 149.000000 -0.129807 0.514854 0.847394
1380.00000000 4220.00000000 -210.00000000 61 40 205 97.000000 1.000000 4.000000 1.000000 -60.708740 114.000000 149.000000 -0.054400 0.852260 0.520283
1470.00000000 4110.00000000 -80.00000000 61 40 205 97.000000 1.000000 4.000000 1.000000 -60.708740 114.000000 149.000000 0.179424 0.131745 0.974910
1470.00000000 4130.00000000 -100.00000000 61 40 205 97.000000 1.000000 4.000000 1.000000 -60.708740 114.000000 149.000000 0.099492 0.108856 0.989066
1430.00000000 4140.00000000 -130.00000000 61 40 205 97.000000 1.000000 4.000000 1.000000 -60.708740 114.000000 149.000000 -0.054870 0.297317 0.953201
1460.00000000 4110.00000000 -170.00000000 61 40 205 97.000000 1.000000 4.000000 1.000000 -60.708740 114.000000 149.000000 0.135726 -0.023556 0.990466
1480.00000000 4070.00000000 -80.00000000 61 40 205 97.000000 1.000000 4.000000 1.000000 -60.708740 114.000000 149.000000 -0.274681 -0.038530 0.960763
1480.00000000 4090.00000000 -80.00000000 61 40 205 97.000000 1.000000 4.000000 1.000000 -60.708740 114.000000 149.000000 -0.107920 0.364742 0.924833
1500.00000000 4070.00000000 -80.00000000 61 40 205 97.000000 1.000000 4.000000 1.000000 -60.708740 114.000000 149.000000 0.005723 0.182004 0.983281
1500.00000000 4090.00000000 -80.00000000 61 40 205 97.000000 1.000000 4.000000 1.000000 -60.708740 114.000000 149.000000 0.342512 0.112366 0.932770
1500.00000000 4090.00000000 -80.00000000 61 40 205 97.000000 1.000000 4.000000 1.000000 -60.708740 114.000000 149.000000 0.342512 0.112366 0.932770
1490.00000000 4070.00000000 -80.00000000 61 40 205 97.000000 1.000000 4.000000 1.000000 -60.708740 114.000000 149.000000 0.018413 0.094231 0.995380
1500.00000000 4070.00000000 -80.00000000 61 40 205 97.000000 1.000000 4.000000 1.000000 -60.708740 114.000000 149.000000 0.005723 0.182004 0.983281
1450.00000000 4070.00000000 -90.00000000 61 40 205 97.000000 1.000000 4.000000 1.000000 -60.708740 114.000000 149.000000 0.001108 -0.142973 0.989726
1450.00000000 4070.00000000 -90.00000000 61 40 205 97.000000 1.000000 4.000000 1.000000 -60.708740 114.000000 149.000000 0.001108 -0.142973 0.989726
1460.00000000 4060.00000000 -90.00000000 61 40 205 97.000000 1.000000 4.000000 1.000000 -60.708740 114.000000 149.000000 0.083406 -0.130395 0.987948
1440.00000000 4060.00000000 -90.00000000 61 40 205 97.000000 1.000000 4.000000 1.000000 -60.708740 114.000000 149.000000 -0.233400 0.236162 0.943267
1440.00000000 4010.00000000 -100.00000000 61 40 205 97.000000 1.000000 4.000000 1.000000 -60.708740 114.000000 149.000000 -0.071453 0.024529 0.997142
1440.00000000 4040.00000000 -80.00000000 61 40 205 97.000000 1.000000 4.000000 1.000000 -60.708740 114.000000 149.000000 -0.005545 -0.138624 0.990330
1430.00000000 4050.00000000 -90.00000000 61 40 205 97.000000 1.000000 4.000000 1.000000 -60.708740 114.000000 149.000000 -0.359059 0.331557 0.872437
1460.00000000 4050.00000000 -90.00000000 61 40 205 97.000000 1.000000 4.000000 1.000000 -60.708740 114.000000 149.000000 0.322061 0.044909 0.945653
1490.00000000 4060.00000000 -110.00000000 61 40 205 97.000000 1.000000 4.000000 1.000000 -60.708740 114.000000 149.000000 -0.001102 -0.137718 0.990471
1480.00000000 4050.00000000 -120.00000000 61 40 205 97.000000 1.000000 4.000000 1.000000 -60.708740 114.000000 149.000000 -0.098319 0.161437 0.981973
1370.00000000 4060.00000000 -100.00000000 61 40 205 97.000000 1.000000 4.000000 1.000000 -60.708740 114.000000 149.000000 -0.190654 0.453728 0.870507
1410.00000000 4040.00000000 -110.00000000 61 40 205 97.000000 1.000000 4.000000 1.000000 -60.708740 114.000000 149.000000 -0.239278 0.211932 0.947540
1400.00000000 4010.00000000 -110.00000000 61 40 205 97.000000 1.000000 4.000000 1.000000 -60.708740 114.000000 149.000000 -0.097821 0.031874 0.994694
1410.00000000 4050.00000000 -110.00000000 61 40 205 97.000000 1.000000 4.000000 1.000000 -60.708740 114.000000 149.000000 -0.118199 -0.090112 0.988893
1370.00000000 4020.00000000 -150.00000000 61 40 205 97.000000 1.000000 4.000000 1.000000 -60.708740 114.000000 149.000000 0.263330 0.171502 0.949339
1430.00000000 4100.00000000 -320.00000000 61 40 205 97.000000 1.000000 4.000000 1.000000 -60.708740 114.000000 149.000000 -0.165817 0.158222 0.973381
1460.00000000 4110.00000000 -320.00000000 61 40 205 97.000000 1.000000 4.000000 1.000000 -60.708740 114.000000 149.000000 -0.217569 0.212163 0.952707
1480.00000000 4140.00000000 -340.00000000 61 40 205 97.000000 1.000000 4.000000 1.000000 -60.708740 114.000000 149.000000 -0.498938 0.549336 0.670291
1450.00000000 4120.00000000 -340.00000000 61 40 205 97.000000 1.000000 4.000000 1.000000 -60.708740 114.000000 149.000000 -0.286282 0.615746 0.734097
1470.00000000 4120.00000000 -320.00000000 61 40 205 97.000000 1.000000 4.000000 1.000000 -60.708740 114.000000 149.000000 0.260788 -0.599022 -0.757075
1460.00000000 4140.00000000 -340.00000000 61 40 205 97.000000 1.000000 4.000000 1.000000 -60.708740 114.000000 149.000000 -0.213162 0.735954 0.642599
1440.00000000 4080.00000000 -220.00000000 61 40 205 97.000000 1.000000 4.000000 1.000000 -60.708740 114.000000 149.000000 -0.178802 0.148368 0.972634
1440.00000000 4040.00000000 -220.00000000 61 40 205 97.000000 1.000000 4.000000 1.000000 -60.708740 114.000000 149.000000 -0.164334 0.580444 0.797545
1450.00000000 4030.00000000 -250.00000000 61 40 205 97.000000 1.000000 4.000000 1.000000 -60.708740 114.000000 149.000000 -0.044459 -0.070483 0.996522
1440.00000000 4010.00000000 -250.00000000 61 40 205 97.000000 1.000000 4.000000 1.000000 -60.708740 114.000000 149.000000 -0.180592 -0.012653 0.983477
1460.00000000 4040.00000000 -250.00000000 61 40 205 97.000000 1.000000 4.000000 1.000000 -60.708740 114.000000 149.000000 0.085761 0.003176 0.996311
1480.00000000 4040.00000000 -280.00000000 61 40 205 97.000000 1.000000 4.000000 1.000000 -60.708740 114.000000 149.000000 -0.312541 0.090993 0.945536
1490.00000000 4050.00000000 -330.00000000 61 40 205 97.000000 1.000000 4.000000 1.000000 -60.708740 114.000000 149.000000 -0.299191 0.331938 0.894596
1420.00000000 4020.00000000 -260.00000000 61 40 205 97.000000 1.000000 4.000000 1.000000 -60.708740 114.000000 149.000000 -0.190307 0.241595 0.951533
1420.00000000 4020.00000000 -260.00000000 61 40 205 97.000000 1.000000 4.000000 1.000000 -60.708740 114.000000 149.000000 -0.190307 0.241595 0.951533
1370.00000000 4070.00000000 -350.00000000 61 40 205 97.000000 1.000000 4.000000 1.000000 -60.708740 114.000000 149.000000 0.236893 0.484484 0.842115
1400.00000000 4020.00000000 -350.00000000 61 40 205 97.000000 1.000000 4.000000 1.000000 -60.708740 114.000000 149.000000 0.006421 0.383969 0.923324
1400.00000000 4010.00000000 -340.00000000 61 40 205 97.000000 1.000000 4.000000 1.000000 -60.708740 114.000000 149.000000 -0.299009 0.073782 0.951394
1390.00000000 4010.00000000 -350.00000000 61 40 205 97.000000 1.000000 4.000000 1.000000 -60.708740 114.000000 149.000000 -0.349485 0.281075 0.893788
1390.00000000 4010.00000000 -350.00000000 61 40 205 97.000000 1.000000 4.000000 1.000000 -60.708740 114.000000 149.000000 -0.349485 0.281075 0.893788
1670.00000000 4200.00000000 -470.00000000 61 40 205 97.000000 1.000000 4.000000 1.000000 -60.708740 114.000000 149.000000 -0.135332 0.502038 0.854192
1570.00000000 4220.00000000 -470.00000000 61 40 205 97.000000 1.000000 4.000000 1.000000 -60.708740 114.000000 149.000000 0.040515 0.929239 0.367252
1510.00000000 4230.00000000 -520.00000000 61 40 205 97.000000 1.000000 4.000000 1.000000 -60.708740 114.000000 149.000000 -0.323185 0.794430 0.514230
1510.00000000 4230.00000000 -510.00000000 61 40 205 97.000000 1.000000 4.000000 1.000000 -60.708740 114.000000 149.000000 -0.381723 0.809765 0.445610
1510.00000000 4210.00000000 -480.00000000 61 40 205 97.000000 1.000000 4.000000 1.000000 -60.708740 114.000000 149.000000 0.147361 0.808255 0.570095
1640.00000000 4150.00000000 -480.00000000 61 40 205 97.000000 1.000000 4.000000 1.000000 -60.708740 114.000000 149.000000 -0.454509 0.707568 0.541082
1640.00000000 4150.00000000 -480.00000000 61 40 205 97.000000 1.000000 4.000000 1.000000 -60.708740 114.000000 149.000000 -0.454509 0.707568 0.541082
1640.00000000 4150.00000000 -490.00000000 61 40 205 97.000000 1.000000 4.000000 1.000000 -60.708740 114.000000 149.000000 -0.233547 0.744530 0.625405
1630.00000000 4140.00000000 -450.00000000 61 40 205 97.000000 1.000000 4.000000 1.000000 -60.708740 114.000000 149.000000 0.226411 0.638636 0.735447
1610.00000000 4140.00000000 -450.00000000 61 40 205 97.000000 1.000000 4.000000 1.000000 -60.708740 114.000000 149.000000 0.034607 0.549567 0.834733
1630.00000000 4140.00000000 -480.00000000 61 40 205 97.000000 1.000000 4.000000 1.000000 -60.708740 114.000000 149.000000 -0.412110 0.570996 0.710021
1600.00000000 4150.00000000 -490.00000000 61 40 205 97.000000 1.000000 4.000000 1.000000 -60.708740 114.000000 149.000000 0.011369 0.938584 0.344863
1650.00000000 4020.00000000 -490.00000000 61 40 205 97.000000 1.000000 4.000000 1.000000 -60.708740 114.000000 149.000000 0.171507 -0.367109 0.914230
1670.00000000 4020.00000000 -500.00000000 61 40 205 97.000000 1.000000 4.000000 1.000000 -60.708740 114.000000 149.000000 0.055638 0.327359 0.943260
1610.00000000 4080.00000000 -500.00000000 61 40 205 97.000000 1.000000 4.000000 1.000000 -60.708740 114.000000 149.000000 0.102572 0.445417 0.889428
1600.00000000 4070.00000000 -490.00000000 61 40 205 97.000000 1.000000 4.000000 1.000000 -60.708740 114.000000 149.000000 -0.232151 0.596736 0.768122
1600.00000000 4080.00000000 -500.00000000 61 40 205 97.000000 1.000000 4.000000 1.000000 -60.708740 114.000000 149.000000 -0.006742 0.516466 0.856281
1610.00000000 4040.00000000 -480.00000000 61 40 205 97.000000 1.000000 4.000000 1.000000 -60.708740 114.000000 149.000000 0.217180 -0.034797 0.975511
1600.00000000 4030.00000000 -480.00000000 61 40 205 97.000000 1.000000 4.000000 1.000000 -60.708740 114.000000 149.000000 0.159930 -0.132655 0.978174
1600.00000000 4050.00000000 -480.00000000 61 40 205 97.000000 1.000000 4.000000 1.000000 -60.708740 114.000000 149.000000 0.085911 0.132985 0.987388
1630.00000000 4030.00000000 -490.00000000 61 40 205 97.000000 1.000000 4.000000 1.000000 -60.708740 114.000000 149.000000 -0.003339 0.145782 0.989311
1620.00000000 4020.00000000 -490.00000000 61 40 205 97.000000 1.000000 4.000000 1.000000 -60.708740 114.000000 149.000000 -0.077117 -0.109345 0.991008
1600.00000000 4040.00000000 -520.00000000 61 40 205 97.000000 1.000000 4.000000 1.000000 -60.708740 114.000000 149.000000 -0.236686 0.444728 0.863827
1560.00000000 4170.00000000 -440.00000000 61 40 205 97.000000 1.000000 4.000000 1.000000 -60.708740 114.000000 149.000000 0.257472 0.753462 0.604981
1520.00000000 4110.00000000 -370.00000000 61 40 205 97.000000 1.000000 4.000000 1.000000 -60.708740 114.000000 149.000000 -0.404847 0.257357 0.877420
1520.00000000 4100.00000000 -420.00000000 61 40 205 97.000000 1.000000 4.000000 1.000000 -60.708740 114.000000 149.000000 0.164805 0.322685 0.932048
1530.00000000 4110.00000000 -410.00000000 61 40 205 97.000000 1.000000 4.000000 1.000000 -60.708740 114.000000 149.000000 0.025560 0.472179 0.881132
1570.00000000 4170.00000000 -470.00000000 61 40 205 97.000000 1.000000 4.000000 1.000000 -60.708740 114.000000 149.000000 0.006191 0.949651 0.313249
1580.00000000 4150.00000000 -460.00000000 61 40 205 97.000000 1.000000 4.000000 1.000000 -60.708740 114.000000 149.000000 -0.136208 0.845076 0.517005
1590.00000000 4140.00000000 -490.00000000 61 40 205 97.000000 1.000000 4.000000 1.000000 -60.708740 114.000000 149.000000 -0.139739 0.940186 0.310682
1560.00000000 4140.00000000 -500.00000000 61 40 205 97.000000 1.000000 4.000000 1.000000 -60.708740 114.000000 149.000000 -0.320573 0.742634 0.587986
1570.00000000 4140.00000000 -490.00000000 61 40 205 97.000000 1.000000 4.000000 1.000000 -60.708740 114.000000 149.000000 -0.295678 0.827586 0.477153
1590.00000000 4150.00000000 -510.00000000 61 40 205 97.000000 1.000000 4.000000 1.000000 -60.708740 114.000000 149.000000 0.107421 0.928714 0.354896
1560.00000000 4150.00000000 -510.00000000 61 40 205 97.000000 1.000000 4.000000 1.000000 -60.708740 114.000000 149.000000 -0.119399 0.974046 0.192296
1580.00000000 4130.00000000 -480.00000000 61 40 205 97.000000 1.000000 4.000000 1.000000 -60.708740 114.000000 149.000000 -0.234042 0.500206 0.833677
1580.00000000 4120.00000000 -520.00000000 61 40 205 97.000000 1.000000 4.000000 1.000000 -60.708740 114.000000 149.000000 0.053067 0.893982 0.444950
1590.00000000 4120.00000000 -510.00000000 61 40 205 97.000000 1.000000 4.000000 1.000000 -60.708740 114.000000 149.000000 0.097813 0.620453 0.778120
1530.00000000 4150.00000000 -480.00000000 61 40 205 97.000000 1.000000 4.000000 1.000000 -60.708740 114.000000 149.000000 -0.164543 0.587223 0.792524
1550.00000000 4140.00000000 -500.00000000 61 40 205 97.000000 1.000000 4.000000 1.000000 -60.708740 114.000000 149.000000 -0.555084 0.698439 0.451735
1530.00000000 4090.00000000 -410.00000000 61 40 205 97.000000 1.000000 4.000000 1.000000 -60.708740 114.000000 149.000000 0.248674 0.459207 0.852813
1520.00000000 4070.00000000 -420.00000000 61 40 205 97.000000 1.000000 4.000000 1.000000 -60.708740 114.000000 149.000000 -0.226650 0.723718 0.651815
1520.00000000 4090.00000000 -430.00000000 61 40 205 97.000000 1.000000 4.000000 1.000000 -60.708740 114.000000 149.000000 -0.142142 0.299175 0.943552
1590.00000000 4090.00000000 -520.00000000 61 40 205 97.000000 1.000000 4.000000 1.000000 -60.708740 114.000000 149.000000 0.012406 0.798115 0.602377
1580.00000000 4020.00000000 -470.00000000 61 40 205 97.000000 1.000000 4.000000 1.000000 -60.708740 114.000000 149.000000 -0.238437 0.189942 0.952402
1580.00000000 4050.00000000 -480.00000000 61 40 205 97.000000 1.000000 4.000000 1.000000 -60.708740 114.000000 149.000000 -0.339428 0.138795 0.930336
1590.00000000 4030.00000000 -470.00000000 61 40 205 97.000000 1.000000 4.000000 1.000000 -60.708740 114.000000 149.000000 0.369625 0.125977 0.920601
1580.00000000 4040.00000000 -490.00000000 61 40 205 97.000000 1.000000 4.000000 1.000000 -60.708740 114.000000 149.000000 -0.282990 0.070427 0.956533
1510.00000000 4090.00000000 -480.00000000 61 40 205 97.000000 1.000000 4.000000 1.000000 -60.708740 114.000000 149.000000 0.227076 0.548381 0.804807
1620.00000000 4060.00000000 -690.00000000 61 40 205 97.000000 1.000000 4.000000 1.000000 -60.708740 114.000000 149.000000 0.205409 -0.534062 0.820113
1590.00000000 4120.00000000 -530.00000000 61 40 205 97.000000 1.000000 4.000000 1.000000 -60.708740 114.000000 149.000000 -0.203928 0.961753 0.182878
1540.00000000 4100.00000000 -630.00000000 61 40 205 97.000000 1.000000 4.000000 1.000000 -60.708740 114.000000 149.000000 -0.170921 0.976869 -0.128503
1550.00000000 4090.00000000 -630.00000000 61 40 205 97.000000 1.000000 4.000000 1.000000 -60.708740 114.000000 149.000000 0.008660 0.951334 -0.308039
1520.00000000 4090.00000000 -630.00000000 61 40 205 97.000000 1.000000 4.000000 1.000000 -60.708740 114.000000 149.000000 -0.001314 0.889912 -0.456129
1530.00000000 4090.00000000 -670.00000000 61 40 205 97.000000 1.000000 4.000000 1.000000 -60.708740 114.000000 149.000000 -0.540063 0.816941 -0.202334
1460.00000000 4310.00000000 -520.00000000 61 40 205 97.000000 1.000000 4.000000 1.000000 -60.708740 114.000000 149.000000 0.662804 -0.685381 -0.301568
1440.00000000 4330.00000000 -500.00000000 61 40 205 97.000000 1.000000 4.000000 1.000000 -60.708740 114.000000 149.000000 -0.435250 0.886406 -0.157615
1490.00000000 4280.00000000 -520.00000000 61 40 205 97.000000 1.000000 4.000000 1.000000 -60.708740 114.000000 149.000000 -0.362869 0.753401 0.548372
1470.00000000 4230.00000000 -500.00000000 61 40 205 97.000000 1.000000 4.000000 1.000000 -60.708740 114.000000 149.000000 0.129416 0.891688 0.433756
1470.00000000 4230.00000000 -500.00000000 61 40 205 97.000000 1.000000 4.000000 1.000000 -60.708740 114.000000 149.000000 0.129416 0.891688 0.433756
1500.00000000 4210.00000000 -470.00000000 61 40 205 97.000000 1.000000 4.000000 1.000000 -60.708740 114.000000 149.000000 -0.287519 0.812280 0.507478
1430.00000000 4190.00000000 -470.00000000 61 40 205 97.000000 1.000000 4.000000 1.000000 -60.708740 114.000000 149.000000 -0.471295 0.732574 0.491139
1460.00000000 4180.00000000 -470.00000000 61 40 205 97.000000 1.000000 4.000000 1.000000 -60.708740 114.000000 149.000000 0.098273 0.761247 0.640973
1460.00000000 4190.00000000 -480.00000000 61 40 205 97.000000 1.000000 4.000000 1.000000 -60.708740 114.000000 149.000000 -0.212129 0.602324 0.769550
1460.00000000 4190.00000000 -490.00000000 61 40 205 97.000000 1.000000 4.000000 1.000000 -60.708740 114.000000 149.000000 -0.321496 0.738309 0.592909
1410.00000000 4190.00000000 -500.00000000 61 40 205 97.000000 1.000000 4.000000 1.000000 -60.708740 114.000000 149.000000 -0.439564 0.640126 0.630097
1490.00000000 4280.00000000 -540.00000000 61 40 205 97.000000 1.000000 4.000000 1.000000 -60.708740 114.000000 149.000000 -0.407666 0.897442 -0.168540
1490.00000000 4280.00000000 -530.00000000 61 40 205 97.000000 1.000000 4.000000 1.000000 -60.708740 114.000000 149.000000 -0.456452 0.860179 0.227473
1470.00000000 4270.00000000 -540.00000000 61 40 205 97.000000 1.000000 4.000000 1.000000 -60.708740 114.000000 149.000000 -0.487967 0.805860 0.335378
1470.00000000 4270.00000000 -530.00000000 61 40 205 97.000000 1.000000 4.000000 1.000000 -60.708740 114.000000 149.000000 0.556347 -0.683321 -0.472811
1470.00000000 4270.00000000 -540.00000000 61 40 205 97.000000 1.000000 4.000000 1.000000 -60.708740 114.000000 149.000000 -0.487967 0.805860 0.335378
1430.00000000 4280.00000000 -540.00000000 61 40 205 97.000000 1.000000 4.000000 1.000000 -60.708740 114.000000 149.000000 -0.344535 0.929283 0.133147
1440.00000000 4280.00000000 -590.00000000 61 40 205 97.000000 1.000000 4.000000 1.000000 -60.708740 114.000000 149.000000 -0.588365 0.807423 0.043531
1440.00000000 4280.00000000 -610.00000000 61 40 205 97.000000 1.000000 4.000000 1.000000 -60.708740 114.000000 149.000000 -0.482531 0.869694 0.103908
1440.00000000 4280.00000000 -610.00000000 61 40 205 97.000000 1.000000 4.000000 1.000000 -60.708740 114.000000 149.000000 -0.482531 0.869694 0.103908
1450.00000000 4240.00000000 -540.00000000 61 40 205 97.000000 1.000000 4.000000 1.000000 -60.708740 114.000000 149.000000 -0.028010 0.999021 0.034234
1450.00000000 4240.00000000 -530.00000000 61 40 205 97.000000 1.000000 4.000000 1.000000 -60.708740 114.000000 149.000000 -0.278596 0.851181 0.444831
1450.00000000 4240.00000000 -530.00000000 61 40 205 97.000000 1.000000 4.000000 1.000000 -60.708740 114.000000 149.000000 -0.278596 0.851181 0.444831
1420.00000000 4280.00000000 -540.00000000 61 40 205 97.000000 1.000000 4.000000 1.000000 -60.708740 114.000000 149.000000 -0.521690 0.824607 0.218773
1420.00000000 4280.00000000 -580.00000000 61 40 205 97.000000 1.000000 4.000000 1.000000 -60.708740 114.000000 149.000000 -0.358507 0.886517 0.292506
1400.00000000 4270.00000000 -600.00000000 61 40 205 97.000000 1.000000 4.000000 1.000000 -60.708740 114.000000 149.000000 -0.405412 0.831331 0.380172
1410.00000000 4210.00000000 -540.00000000 61 40 205 97.000000 1.000000 4.000000 1.000000 -60.708740 114.000000 149.000000 0.001205 0.962562 0.271059
1400.00000000 4180.00000000 -560.00000000 61 40 205 97.000000 1.000000 4.000000 1.000000 -60.708740 114.000000 149.000000 0.616885 -0.711290 -0.336927
1500.00000000 4160.00000000 -430.00000000 61 40 205 97.000000 1.000000 4.000000 1.000000 -60.708740 114.000000 149.000000 0.340594 -0.617632 -0.708891
1490.00000000 4100.00000000 -390.00000000 61 40 205 97.000000 1.000000 4.000000 1.000000 -60.708740 114.000000 149.000000 0.169216 0.543587 0.822119
1490.00000000 4100.00000000 -400.00000000 61 40 205 97.000000 1.000000 4.000000 1.000000 -60.708740 114.000000 149.000000 0.178691 0.765162 0.618544
1450.00000000 4170.00000000 -390.00000000 61 40 205 97.000000 1.000000 4.000000 1.000000 -60.708740 114.000000 149.000000 0.132819 0.756623 0.640219
1450.00000000 4110.00000000 -430.00000000 61 40 205 97.000000 1.000000 4.000000 1.000000 -60.708740 114.000000 149.000000 -0.506090 0.499409 0.703181
1460.00000000 4130.00000000 -430.00000000 61 40 205 97.000000 1.000000 4.000000 1.000000 -60.708740 114.000000 149.000000 -0.463892 0.671554 0.577771
1440.00000000 4170.00000000 -450.00000000 61 40 205 97.000000 1.000000 4.000000 1.000000 -60.708740 114.000000 149.000000 -0.505928 0.754798 0.417513
1460.00000000 4160.00000000 -510.00000000 61 40 205 97.000000 1.000000 4.000000 1.000000 -60.708740 114.000000 149.000000 -0.337580 0.907519 0.249897
1450.00000000 4070.00000000 -380.00000000 61 40 205 97.000000 1.000000 4.000000 1.000000 -60.708740 114.000000 149.000000 -0.271654 0.605263 0.748239
1460.00000000 4090.00000000 -360.00000000 61 40 205 97.000000 1.000000 4.000000 1.000000 -60.708740 114.000000 149.000000 0.086717 0.521726 0.848694
1450.00000000 4070.00000000 -380.00000000 61 40 205 97.000000 1.000000 4.000000 1.000000 -60.708740 114.000000 149.000000 -0.271654 0.605263 0.748239
1430.00000000 4080.00000000 -390.00000000 61 40 205 97.000000 1.000000 4.000000 1.000000 -60.708740 114.000000 149.000000 -0.104888 0.698761 0.707624
1440.00000000 4050.00000000 -380.00000000 61 40 205 97.000000 1.000000 4.000000 1.000000 -60.708740 114.000000 149.000000 -0.361931 0.500270 0.786598
1440.00000000 4010.00000000 -370.00000000 61 40 205 97.000000 1.000000 4.000000 1.000000 -60.708740 114.000000 149.000000 0.075078 0.528376 0.845685
1440.00000000 4050.00000000 -370.00000000 61 40 205 97.000000 1.000000 4.000000 1.000000 -60.708740 114.000000 149.000000 -0.198754 0.611668 0.765741
1470.00000000 4020.00000000 -470.00000000 61 40 205 97.000000 1.000000 4.000000 1.000000 -60.708740 114.000000 149.000000 -0.038097 0.155849 0.987046
1440.00000000 4080.00000000 -460.00000000 61 40 205 97.000000 1.000000 4.000000 1.000000 -60.708740 114.000000 149.000000 0.028220 0.463621 0.885584
1430.00000000 4020.00000000 -490.00000000 61 40 205 97.000000 1.000000 4.000000 1.000000 -60.708740 114.000000 149.000000 -0.182201 0.860641 0.475500
1400.00000000 4130.00000000 -370.00000000 61 40 205 97.000000 1.000000 4.000000 1.000000 -60.708740 114.000000 149.000000 0.006580 0.896243 0.443515
1350.00000000 4130.00000000 -470.00000000 61 40 205 97.000000 1.000000 4.000000 1.000000 -60.708740 114.000000 149.000000 0.132887 0.884485 0.447244
1400.00000000 4110.00000000 -460.00000000 61 40 205 97.000000 1.000000 4.000000 1.000000 -60.708740 114.000000 149.000000 -0.198188 0.606855 0.769707
1410.00000000 4070.00000000 -370.00000000 61 40 205 97.000000 1.000000 4.000000 1.000000 -60.708740 114.000000 149.000000 0.217453 0.341301 0.914455
1390.00000000 4060.00000000 -420.00000000 61 40 205 97.000000 1.000000 4.000000 1.000000 -60.708740 114.000000 149.000000 -0.136776 0.399048 0.906671
1410.00000000 4020.00000000 -360.00000000 61 40 205 97.000000 1.000000 4.000000 1.000000 -60.708740 114.000000 149.000000 -0.285597 0.416941 0.862899
1420.00000000 4050.00000000 -370.00000000 61 40 205 97.000000 1.000000 4.000000 1.000000 -60.708740 114.000000 149.000000 0.180375 0.565378 0.804868
1390.00000000 4040.00000000 -360.00000000 61 40 205 97.000000 1.000000 4.000000 1.000000 -60.708740 114.000000 149.000000 -0.334994 0.571270 0.749286
1400.00000000 4040.00000000 -440.00000000 61 40 205 97.000000 1.000000 4.000000 1.000000 -60.708740 114.000000 149.000000 -0.035137 0.628244 0.777223
1390.00000000 4020.00000000 -430.00000000 61 40 205 97.000000 1.000000 4.000000 1.000000 -60.708740 114.000000 149.000000 -0.155759 0.323923 0.933174
1390.00000000 4040.00000000 -440.00000000 61 40 205 97.000000 1.000000 4.000000 1.000000 -60.708740 114.000000 149.000000 0.076499 0.630753 0.772204
1390.00000000 4030.00000000 -440.00000000 61 40 205 97.000000 1.000000 4.000000 1.000000 -60.708740 114.000000 149.000000 -0.083922 0.530556 0.843485
1400.00000000 4030.00000000 -430.00000000 61 40 205 97.000000 1.000000 4.000000 1.000000 -60.708740 114.000000 149.000000 -0.269889 0.227938 0.935523
1380.00000000 4090.00000000 -400.00000000 61 40 205 97.000000 1.000000 4.000000 1.000000 -60.708740 114.000000 149.000000 0.219848 -0.659545 -0.718795
1350.00000000 4060.00000000 -430.00000000 61 40 205 97.000000 1.000000 4.000000 1.000000 -60.708740 114.000000 149.000000 0.057369 0.524717 0.849342
1360.00000000 4070.00000000 -440.00000000 61 40 205 97.000000 1.000000 4.000000 1.000000 -60.708740 114.000000 149.000000 -0.162903 0.674450 0.720124
1380.00000000 4020.00000000 -370.00000000 61 40 205 97.000000 1.000000 4.000000 1.000000 -60.708740 114.000000 149.000000 -0.282250 0.155305 0.946686
1360.00000000 4040.00000000 -400.00000000 61 40 205 97.000000 1.000000 4.000000 1.000000 -60.708740 114.000000 149.000000 -0.033598 0.279985 0.959416
1380.00000000 4030.00000000 -400.00000000 61 40 205 97.000000 1.000000 4.000000 1.000000 -60.708740 114.000000 149.000000 0.161447 0.401473 0.901529
1380.00000000 4030.00000000 -400.00000000 61 40 205 97.000000 1.000000 4.000000 1.000000 -60.708740 114.000000 149.000000 0.161447 0.401473 0.901529
1400.00000000 4080.00000000 -470.00000000 61 40 205 97.000000 1.000000 4.000000 1.000000 -60.708740 114.000000 149.000000 0.064402 0.937111 0.343038
1370.00000000 4080.00000000 -450.00000000 61 40 205 97.000000 1.000000 4.000000 1.000000 -60.708740 114.000000 149.000000 0.021037 0.719460 0.694216
1360.00000000 4090.00000000 -460.00000000 61 40 205 97.000000 1.000000 4.000000 1.000000 -60.708740 114.000000 149.000000 -0.201061 0.515502 0.832966
1430.00000000 4150.00000000 -690.00000000 61 40 205 97.000000 1.000000 4.000000 1.000000 -60.708740 114.000000 149.000000 -0.511050 0.729362 -0.454818
1440.00000000 4110.00000000 -650.00000000 61 40 205 97.000000 1.000000 4.000000 1.000000 -60.708740 114.000000 149.000000 -0.431829 0.833823 -0.343893
1440.00000000 4150.00000000 -690.00000000 61 40 205 97.000000 1.000000 4.000000 1.000000 -60.708740 114.000000 149.000000 -0.290708 0.901636 -0.320221
1480.00000000 4100.00000000 -690.00000000 61 40 205 97.000000 1.000000 4.000000 1.000000 -60.708740 114.000000 149.000000 0.158824 -0.521002 0.838649
1470.00000000 4090.00000000 -690.00000000 61 40 205 97.000000 1.000000 4.000000 1.000000 -60.708740 114.000000 149.000000 0.365443 -0.544104 0.755249
1490.00000000 4090.00000000 -660.00000000 61 40 205 97.000000 1.000000 4.000000 1.000000 -60.708740 114.000000 149.000000 -0.387510 0.839343 -0.381234
1490.00000000 4010.00000000 -640.00000000 61 40 205 97.000000 1.000000 4.000000 1.000000 -60.708740 114.000000 149.000000 0.159365 -0.417795 0.894455
1350.00000000 4100.00000000 -680.00000000 61 40 205 97.000000 1.000000 4.000000 1.000000 -60.708740 114.000000 149.000000 0.325489 -0.623448 0.710893
1390.00000000 4080.00000000 -640.00000000 61 40 205 97.000000 1.000000 4.000000 1.000000 -60.708740 114.000000 149.000000 -0.505009 0.711679 -0.488342
1410.00000000 4070.00000000 -670.00000000 61 40 205 97.000000 1.000000 4.000000 1.000000 -60.708740 114.000000 149.000000 0.255047 -0.459695 0.850665
1400.00000000 4060.00000000 -680.00000000 61 40 205 97.000000 1.000000 4.000000 1.000000 -60.708740 114.000000 149.000000 -0.408759 0.706641 -0.577559
1390.00000000 4080.00000000 -660.00000000 61 40 205 97.000000 1.000000 4.000000 1.000000 -60.708740 114.000000 149.000000 0.649143 -0.534489 0.541234
1410.00000000 4020.00000000 -680.00000000 61 40 205 97.000000 1.000000 4.000000 1.000000 -60.708740 114.000000 149.000000 0.172106 -0.534276 0.827604
1350.00000000 4040.00000000 -690.00000000 61 40 205 97.000000 1.000000 4.000000 1.000000 -60.708740 114.000000 149.000000 0.258564 -0.497000 0.828333
1380.00000000 4010.00000000 -680.00000000 61 40 205 97.000000 1.000000 4.000000 1.000000 -60.708740 114.000000 149.000000 0.407052 -0.384878 0.828359
1360.00000000 4050.00000000 -690.00000000 61 40 205 97.000000 1.000000 4.000000 1.000000 -60.708740 114.000000 149.000000 -0.679524 0.582688 -0.445781
1350.00000000 4040.00000000 -690.00000000 61 40 205 97.000000 1.000000 4.000000 1.000000 -60.708740 114.000000 149.000000 0.258564 -0.497000 0.828333
1370.00000000 3960.00000000 -110.00000000 61 40 205 97.000000 1.000000 4.000000 1.000000 -60.708740 114.000000 149.000000 0.269851 0.136919 0.953118
1490.00000000 3990.00000000 -280.00000000 61 40 205 97.000000 1.000000 4.000000 1.000000 -60.708740 114.000000 149.000000 0.080387 0.087180 0.992944
1390.00000000 3960.00000000 -250.00000000 61 40 205 97.000000 1.000000 4.000000 1.000000 -60.708740 114.000000 149.000000 0.360650 0.081783 0.929109
1640.00000000 3970.00000000 -480.00000000 61 40 205 97.000000 1.000000 4.000000 1.000000 -60.708740 114.000000 149.000000 0.003364 -0.155847 0.987776
1660.00000000 3990.00000000 -500.00000000 61 40 205 97.000000 1.000000 4.000000 1.000000 -60.708740 114.000000 149.000000 0.152817 0.191342 0.969554
1670.00000000 3980.00000000 -500.00000000 61 40 205 97.000000 1.000000 4.000000 1.000000 -60.708740 114.000000 149.000000 0.579411 -0.100199 0.808853
1600.00000000 3980.00000000 -500.00000000 61 40 205 97.000000 1.000000 4.000000 1.000000 -60.708740 114.000000 149.000000 0.150499 -0.372731 0.915653
1610.00000000 3970.00000000 -510.00000000 61 40 205 97.000000 1.000000 4.000000 1.000000 -60.708740 114.000000 149.000000 -0.013095 -0.232137 0.972595
1600.00000000 4000.00000000 -500.00000000 61 40 205 97.000000 1.000000 4.000000 1.000000 -60.708740 114.000000 149.000000 -0.055847 -0.249451 0.966776
1600.00000000 4000.00000000 -500.00000000 61 40 205 97.000000 1.000000 4.000000 1.000000 -60.708740 114.000000 149.000000 -0.055847 -0.249451 0.966776
1620.00000000 3960.00000000 -500.00000000 61 40 205 97.000000 1.000000 4.000000 1.000000 -60.708740 114.000000 149.000000 -0.080378 -0.325464 0.942132
1610.00000000 3930.00000000 -520.00000000 61 40 205 97.000000 1.000000 4.000000 1.000000 -60.708740 114.000000 149.000000 0.404090 -0.253871 0.878784
1620.00000000 3960.00000000 -500.00000000 61 40 205 97.000000 1.000000 4.000000 1.000000 -60.708740 114.000000 149.000000 -0.080378 -0.325464 0.942132
1620.00000000 3950.00000000 -510.00000000 61 40 205 97.000000 1.000000 4.000000 1.000000 -60.708740 114.000000 149.000000 0.034811 -0.575076 0.817359
1600.00000000 3920.00000000 -520.00000000 61 40 205 97.000000 1.000000 4.000000 1.000000 -60.708740 114.000000 149.000000 0.066595 -0.551178 0.831726
1600.00000000 3920.00000000 -520.00000000 61 40 205 97.000000 1.000000 4.000000 1.000000 -60.708740 114.000000 149.000000 0.066595 -0.551178 0.831726
1590.00000000 3990.00000000 -500.00000000 61 40 205 97.000000 1.000000 4.000000 1.000000 -60.708740 114.000000 149.000000 -0.040128 -0.015434 0.999075
1590.00000000 3970.00000000 -500.00000000 61 40 205 97.000000 1.000000 4.000000 1.000000 -60.708740 114.000000 149.000000 0.108515 -0.539683 0.834845
1590.00000000 3940.00000000 -510.00000000 61 40 205 97.000000 1.000000 4.000000 1.000000 -60.708740 114.000000 149.000000 -0.104525 -0.508304 0.854811
1560.00000000 3940.00000000 -520.00000000 61 40 205 97.000000 1.000000 4.000000 1.000000 -60.708740 114.000000 149.000000 -0.564383 0.527319 -0.635142
1520.00000000 3980.00000000 -510.00000000 61 40 205 97.000000 1.000000 4.000000 1.000000 -60.708740 114.000000 149.000000 -0.043666 -0.108606 0.993125
1550.00000000 3970.00000000 -490.00000000 61 40 205 97.000000 1.000000 4.000000 1.000000 -60.708740 114.000000 149.000000 0.339256 -0.262887 0.903214
1540.00000000 3990.00000000 -490.00000000 61 40 205 97.000000 1.000000 4.000000 1.000000 -60.708740 114.000000 149.000000 0.132032 -0.101105 0.986076
1540.00000000 4000.00000000 -490.00000000 61 40 205 97.000000 1.000000 4.000000 1.000000 -60.708740 114.000000 149.000000 -0.013192 -0.027398 0.999538
1550.00000000 3980.00000000 -490.00000000 61 40 205 97.000000 1.000000 4.000000 1.000000 -60.708740 114.000000 149.000000 0.240111 -0.111709 0.964296
1510.00000000 3970.00000000 -510.00000000 61 40 205 97.000000 1.000000 4.000000 1.000000 -60.708740 114.000000 149.000000 0.209512 -0.201506 0.956818
1520.00000000 3980.00000000 -510.00000000 61 40 205 97.000000 1.000000 4.000000 1.000000 -60.708740 114.000000 149.000000 -0.043666 -0.108606 0.993125
1540.00000000 3960.00000000 -470.00000000 61 40 205 97.000000 1.000000 4.000000 1.000000 -60.708740 114.000000 149.000000 0.382624 0.093954 0.919115
1520.00000000 3960.00000000 -470.00000000 61 40 205 97.000000 1.000000 4.000000 1.000000 -60.708740 114.000000 149.000000 0.191199 0.302847 0.933663
1540.00000000 3930.00000000 -510.00000000 61 40 205 97.000000 1.000000 4.000000 1.000000 -60.708740 114.000000 149.000000 -0.239525 0.756148 -0.608989
1520.00000000 3930.00000000 -500.00000000 61 40 205 97.000000 1.000000 4.000000 1.000000 -60.708740 114.000000 149.000000 0.413758 -0.254273 0.874157
1510.00000000 3930.00000000 -500.00000000 61 40 205 97.000000 1.000000 4.000000 1.000000 -60.708740 114.000000 149.000000 0.501852 -0.083406 0.860923
1550.00000000 3960.00000000 -490.00000000 61 40 205 97.000000 1.000000 4.000000 1.000000 -60.708740 114.000000 149.000000 0.427748 -0.321978 0.844608
1520.00000000 3950.00000000 -500.00000000 61 40 205 97.000000 1.000000 4.000000 1.000000 -60.708740 114.000000 149.000000 0.117266 -0.280648 0.952620
1530.00000000 3920.00000000 -520.00000000 61 40 205 97.000000 1.000000 4.000000 1.000000 -60.708740 114.000000 149.000000 -0.429490 0.701444 -0.568783
1520.00000000 3920.00000000 -510.00000000 61 40 205 97.000000 1.000000 4.000000 1.000000 -60.708740 114.000000 149.000000 0.245462 -0.461957 0.852258
1510.00000000 3920.00000000 -520.00000000 61 40 205 97.000000 1.000000 4.000000 1.000000 -60.708740 114.000000 149.000000 0.389585 -0.142051 0.909970
1520.00000000 3920.00000000 -510.00000000 61 40 205 97.000000 1.000000 4.000000 1.000000 -60.708740 114.000000 149.000000 0.245462 -0.461957 0.852258
1660.00000000 3980.00000000 -530.00000000 61 40 205 97.000000 1.000000 4.000000 1.000000 -60.708740 114.000000 149.000000 0.087587 -0.117950 0.989149
1660.00000000 4000.00000000 -530.00000000 61 40 205 97.000000 1.000000 4.000000 1.000000 -60.708740 114.000000 149.000000 0.148368 -0.178802 0.972634
1650.00000000 3930.00000000 -600.00000000 61 40 205 97.000000 1.000000 4.000000 1.000000 -60.708740 114.000000 149.000000 -0.311472 0.895668 0.317433
1670.00000000 3940.00000000 -600.00000000 61 40 205 97.000000 1.000000 4.000000 1.000000 -60.708740 114.000000 149.000000 -0.338212 0.940612 0.029354
1620.00000000 3960.00000000 -530.00000000 61 40 205 97.000000 1.000000 4.000000 1.000000 -60.708740 114.000000 149.000000 0.107588 -0.358173 0.927436
1600.00000000 3950.00000000 -540.00000000 61 40 205 97.000000 1.000000 4.000000 1.000000 -60.708740 114.000000 149.000000 0.004147 0.758957 -0.651127
1660.00000000 4000.00000000 -650.00000000 61 40 205 97.000000 1.000000 4.000000 1.000000 -60.708740 114.000000 149.000000 0.048220 0.491848 0.869345
1650.00000000 3990.00000000 -650.00000000 61 40 205 97.000000 1.000000 4.000000 1.000000 -60.708740 114.000000 149.000000 0.172433 0.304862 0.936657
1650.00000000 3960.00000000 -640.00000000 61 40 205 97.000000 1.000000 4.000000 1.000000 -60.708740 114.000000 149.000000 -0.253241 0.809441 0.529787
1670.00000000 3950.00000000 -640.00000000 61 40 205 97.000000 1.000000 4.000000 1.000000 -60.708740 114.000000 149.000000 -0.026353 0.811384 0.583919
1650.00000000 3960.00000000 -630.00000000 61 40 205 97.000000 1.000000 4.000000 1.000000 -60.708740 114.000000 149.000000 -0.279233 0.865163 0.416560
1660.00000000 3930.00000000 -610.00000000 61 40 205 97.000000 1.000000 4.000000 1.000000 -60.708740 114.000000 149.000000 -0.524411 0.849908 -0.051467
1670.00000000 3940.00000000 -620.00000000 61 40 205 97.000000 1.000000 4.000000 1.000000 -60.708740 114.000000 149.000000 -0.327237 0.898792 0.291700
1620.00000000 3950.00000000 -620.00000000 61 40 205 97.000000 1.000000 4.000000 1.000000 -60.708740 114.000000 149.000000 -0.345772 0.875854 0.336633
1610.00000000 3940.00000000 -630.00000000 61 40 205 97.000000 1.000000 4.000000 1.000000 -60.708740 114.000000 149.000000 -0.341962 0.891491 0.297164
1600.00000000 3940.00000000 -620.00000000 61 40 205 97.000000 1.000000 4.000000 1.000000 -60.708740 114.000000 149.000000 -0.619642 0.765798 0.172038
1650.00000000 3900.00000000 -530.00000000 61 40 205 97.000000 1.000000 4.000000 1.000000 -60.708740 114.000000 149.000000 -0.579063 0.720138 -0.382214
1660.00000000 3900.00000000 -540.00000000 61 40 205 97.000000 1.000000 4.000000 1.000000 -60.708740 114.000000 149.000000 0.362338 -0.703363 0.611549
1660.00000000 3890.00000000 -540.00000000 61 40 205 97.000000 1.000000 4.000000 1.000000 -60.708740 114.000000 149.000000 -0.037488 0.831679 -0.553990
1620.00000000 3920.00000000 -540.00000000 61 40 205 97.000000 1.000000 4.000000 1.000000 -60.708740 114.000000 149.000000 0.447125 -0.434118 0.782062
1620.00000000 3920.00000000 -540.00000000 61 40 205 97.000000 1.000000 4.000000 1.000000 -60.708740 114.000000 149.000000 0.447125 -0.434118 0.782062
1640.00000000 3920.00000000 -630.00000000 61 40 205 97.000000 1.000000 4.000000 1.000000 -60.708740 114.000000 149.000000 -0.402863 0.728442 0.554142
1630.00000000 3920.00000000 -620.00000000 61 40 205 97.000000 1.000000 4.000000 1.000000 -60.708740 114.000000 149.000000 -0.111609 0.993427 0.025416
1590.00000000 3970.00000000 -530.00000000 61 40 205 97.000000 1.000000 4.000000 1.000000 -60.708740 114.000000 149.000000 -0.062161 -0.471040 0.879919
1570.00000000 3950.00000000 -540.00000000 61 40 205 97.000000 1.000000 4.000000 1.000000 -60.708740 114.000000 149.000000 -0.247462 0.742386 -0.622596
1570.00000000 3940.00000000 -540.00000000 61 40 205 97.000000 1.000000 4.000000 1.000000 -60.708740 114.000000 149.000000 0.237899 -0.498821 0.833415
1570.00000000 3940.00000000 -540.00000000 61 40 205 97.000000 1.000000 4.000000 1.000000 -60.708740 114.000000 149.000000 0.237899 -0.498821 0.833415
1590.00000000 3930.00000000 -560.00000000 61 40 205 97.000000 1.000000 4.000000 1.000000 -60.708740 114.000000 149.000000 0.178274 -0.766424 0.617101
1570.00000000 3940.00000000 -540.00000000 61 40 205 97.000000 1.000000 4.000000 1.000000 -60.708740 114.000000 149.000000 0.237899 -0.498821 0.833415
1590.00000000 3930.00000000 -560.00000000 61 40 205 97.000000 1.000000 4.000000 1.000000 -60.708740 114.000000 149.000000 0.178274 -0.766424 0.617101
1550.00000000 3960.00000000 -530.00000000 61 40 205 97.000000 1.000000 4.000000 1.000000 -60.708740 114.000000 149.000000 -0.009043 0.019091 0.999777
1540.00000000 3940.00000000 -530.00000000 61 40 205 97.000000 1.000000 4.000000 1.000000 -60.708740 114.000000 149.000000 -0.018982 -0.332826 0.942797
1540.00000000 3950.00000000 -530.00000000 61 40 205 97.000000 1.000000 4.000000 1.000000 -60.708740 114.000000 149.000000 0.388047 -0.133085 0.911980
1540.00000000 3950.00000000 -530.00000000 61 40 205 97.000000 1.000000 4.000000 1.000000 -60.708740 114.000000 149.000000 0.388047 -0.133085 0.911980
1580.00000000 3970.00000000 -650.00000000 61 40 205 97.000000 1.000000 4.000000 1.000000 -60.708740 114.000000 149.000000 0.057728 0.017843 0.998173
1590.00000000 3930.00000000 -610.00000000 61 40 205 97.000000 1.000000 4.000000 1.000000 -60.708740 114.000000 149.000000 -0.101963 0.984838 0.140348
1590.00000000 3930.00000000 -610.00000000 61 40 205 97.000000 1.000000 4.000000 1.000000 -60.708740 114.000000 149.000000 -0.101963 0.984838 0.140348
1590.00000000 3930.00000000 -640.00000000 61 40 205 97.000000 1.000000 4.000000 1.000000 -60.708740 114.000000 149.000000 -0.367756 0.583506 0.724070
1520.00000000 3980.00000000 -630.00000000 61 40 205 97.000000 1.000000 4.000000 1.000000 -60.708740 114.000000 149.000000 0.503370 -0.340374 0.794206
1540.00000000 3970.00000000 -660.00000000 61 40 205 97.000000 1.000000 4.000000 1.000000 -60.708740 114.000000 149.000000 0.053632 0.187117 0.980873
1540.00000000 3980.00000000 -660.00000000 61 40 205 97.000000 1.000000 4.000000 1.000000 -60.708740 114.000000 149.000000 0.462088 0.133876 0.876671
1550.00000000 3960.00000000 -650.00000000 61 40 205 97.000000 1.000000 4.000000 1.000000 -60.708740 114.000000 149.000000 -0.053936 0.195370 0.979245
1540.00000000 3930.00000000 -670.00000000 61 40 205 97.000000 1.000000 4.000000 1.000000 -60.708740 114.000000 149.000000 0.318932 0.506166 0.801298
1590.00000000 3880.00000000 -540.00000000 61 40 205 97.000000 1.000000 4.000000 1.000000 -60.708740 114.000000 149.000000 0.328006 -0.576838 0.748111
1530.00000000 3900.00000000 -540.00000000 61 40 205 97.000000 1.000000 4.000000 1.000000 -60.708740 114.000000 149.000000 -0.304814 0.810206 -0.500654
1550.00000000 3920.00000000 -560.00000000 61 40 205 97.000000 1.000000 4.000000 1.000000 -60.708740 114.000000 149.000000 0.710893 -0.623448 0.325489
1530.00000000 3900.00000000 -550.00000000 61 40 205 97.000000 1.000000 4.000000 1.000000 -60.708740 114.000000 149.000000 0.509801 -0.641037 0.573737
1530.00000000 3910.00000000 -540.00000000 61 40 205 97.000000 1.000000 4.000000 1.000000 -60.708740 114.000000 149.000000 -0.325489 0.710893 -0.623448
1520.00000000 3880.00000000 -540.00000000 61 40 205 97.000000 1.000000 4.000000 1.000000 -60.708740 114.000000 149.000000 -0.360857 0.818683 -0.446699
1540.00000000 3880.00000000 -550.00000000 61 40 205 97.000000 1.000000 4.000000 1.000000 -60.708740 114.000000 149.000000 -0.263026 0.943312 -0.202433
1570.00000000 3920.00000000 -650.00000000 61 40 205 97.000000 1.000000 4.000000 1.000000 -60.708740 114.000000 149.000000 -0.497603 0.544515 0.675199
1430.00000000 4000.00000000 -360.00000000 61 40 205 97.000000 1.000000 4.000000 1.000000 -60.708740 114.000000 149.000000 0.264622 0.256132 0.929716
1500.00000000 3980.00000000 -450.00000000 61 40 205 97.000000 1.000000 4.000000 1.000000 -60.708740 114.000000 149.000000 0.280439 -0.146258 0.948663
1480.00000000 3990.00000000 -450.00000000 61 40 205 97.000000 1.000000 4.000000 1.000000 -60.708740 114.000000 149.000000 -0.306009 0.326907 0.894142
1500.00000000 3980.00000000 -490.00000000 61 40 205 97.000000 1.000000 4.000000 1.000000 -60.708740 114.000000 149.000000 0.186476 -0.121397 0.974931
1490.00000000 3990.00000000 -500.00000000 61 40 205 97.000000 1.000000 4.000000 1.000000 -60.708740 114.000000 149.000000 0.103100 0.122061 0.987153
1490.00000000 3930.00000000 -490.00000000 61 40 205 97.000000 1.000000 4.000000 1.000000 -60.708740 114.000000 149.000000 -0.212163 -0.217569 0.952707
1360.00000000 4000.00000000 -370.00000000 61 40 205 97.000000 1.000000 4.000000 1.000000 -60.708740 114.000000 149.000000 0.095146 0.660168 0.745068
1360.00000000 3980.00000000 -480.00000000 61 40 205 97.000000 1.000000 4.000000 1.000000 -60.708740 114.000000 149.000000 0.113954 0.759199 0.640805
1400.00000000 4000.00000000 -510.00000000 61 40 205 97.000000 1.000000 4.000000 1.000000 -60.708740 114.000000 149.000000 0.001342 0.519223 0.854638
1370.00000000 3990.00000000 -490.00000000 61 40 205 97.000000 1.000000 4.000000 1.000000 -60.708740 114.000000 149.000000 -0.183594 0.500032 0.846322
1400.00000000 3980.00000000 -480.00000000 61 40 205 97.000000 1.000000 4.000000 1.000000 -60.708740 114.000000 149.000000 -0.140189 0.538621 0.830804
1500.00000000 3940.00000000 -530.00000000 61 40 205 97.000000 1.000000 4.000000 1.000000 -60.708740 114.000000 149.000000 0.329499 -0.641143 0.693084
1470.00000000 3940.00000000 -670.00000000 61 40 205 97.000000 1.000000 4.000000 1.000000 -60.708740 114.000000 149.000000 -0.086455 0.336509 0.937703
1430.00000000 4000.00000000 -640.00000000 61 40 205 97.000000 1.000000 4.000000 1.000000 -60.708740 114.000000 149.000000 0.096031 -0.430052 0.897682
1460.00000000 3950.00000000 -670.00000000 61 40 205 97.000000 1.000000 4.000000 1.000000 -60.708740 114.000000 149.000000 -0.173214 0.196657 0.965051
1340.00000000 4270.00000000 -230.00000000 61 40 205 97.000000 1.000000 4.000000 1.000000 -60.708740 114.000000 149.000000 -0.428667 0.471045 0.770948
1340.00000000 4280.00000000 -240.00000000 61 40 205 97.000000 1.000000 4.000000 1.000000 -60.708740 114.000000 149.000000 -0.192018 0.474835 0.858872
1340.00000000 4290.00000000 -250.00000000 61 40 205 97.000000 1.000000 4.000000 1.000000 -60.708740 114.000000 149.000000 -0.247797 0.636065 0.730765
1340.00000000 4260.00000000 -230.00000000 61 40 205 97.000000 1.000000 4.000000 1.000000 -60.708740 114.000000 149.000000 0.464292 -0.537513 -0.703926
1340.00000000 4020.00000000 -120.00000000 61 40 205 97.000000 1.000000 4.000000 1.000000 -60.708740 114.000000 149.000000 -0.014240 -0.112825 0.993513
1320.00000000 4070.00000000 -320.00000000 61 40 205 97.000000 1.000000 4.000000 1.000000 -60.708740 114.000000 149.000000 0.210055 0.550435 0.808021
1110.00000000 4260.00000000 -280.00000000 61 40 205 97.000000 1.000000 4.000000 1.000000 -60.708740 114.000000 149.000000 -0.133145 0.955747 0.262336
1010.00000000 4300.00000000 -280.00000000 61 40 205 97.000000 1.000000 4.000000 1.000000 -60.708740 114.000000 149.000000 -0.011503 0.929206 0.369382
1060.00000000 4280.00000000 -290.00000000 61 40 205 97.000000 1.000000 4.000000 1.000000 -60.708740 114.000000 149.000000 0.069654 0.900036 0.430214
1260.00000000 4180.00000000 -660.00000000 61 40 205 97.000000 1.000000 4.000000 1.000000 -60.708740 114.000000 149.000000 -0.634072 0.676893 -0.373856
1220.00000000 4200.00000000 -650.00000000 61 40 205 97.000000 1.000000 4.000000 1.000000 -60.708740 114.000000 149.000000 -0.245091 0.782107 -0.572921
