//X Y Z R G B PointSourceId ScanDirectionFlag NumberOfReturns ReturnNumber GpsTime Intensity Classification Nx Ny Nz
8880.00000000 -9300.00000000 120.00000000 42 152 158 0.000000 0.000000 0.000000 0.000000 -60.708740 0.000000 125.000000 -0.265633 0.551699 0.790612
8900.00000000 -9380.00000000 40.00000000 42 152 158 0.000000 0.000000 0.000000 0.000000 -60.708740 0.000000 125.000000 -0.486566 0.740570 0.463475
8920.00000000 -9380.00000000 -10.00000000 42 152 158 0.000000 0.000000 0.000000 0.000000 -60.708740 0.000000 125.000000 -0.032320 0.932123 0.360697
8890.00000000 -9450.00000000 120.00000000 42 152 158 0.000000 0.000000 0.000000 0.000000 -60.708740 0.000000 125.000000 0.165492 0.624010 0.763691
8880.00000000 -9440.00000000 70.00000000 42 152 158 0.000000 0.000000 0.000000 0.000000 -60.708740 0.000000 125.000000 -0.035039 0.609675 0.791877
8920.00000000 -9430.00000000 100.00000000 42 152 158 0.000000 0.000000 0.000000 0.000000 -60.708740 0.000000 125.000000 0.185146 0.832406 0.522323
8920.00000000 -9430.00000000 100.00000000 42 152 158 0.000000 0.000000 0.000000 0.000000 -60.708740 0.000000 125.000000 0.185146 0.832406 0.522323
8840.00000000 -9460.00000000 120.00000000 42 152 158 0.000000 0.000000 0.000000 0.000000 -60.708740 0.000000 125.000000 -0.496178 0.617279 0.610552
8860.00000000 -9460.00000000 80.00000000 42 152 158 0.000000 0.000000 0.000000 0.000000 -60.708740 0.000000 125.000000 0.017707 0.851291 0.524395
8870.00000000 -9450.00000000 80.00000000 42 152 158 0.000000 0.000000 0.000000 0.000000 -60.708740 0.000000 125.000000 -0.366509 0.915565 0.165566
8890.00000000 -9420.00000000 60.00000000 42 152 158 0.000000 0.000000 0.000000 0.000000 -60.708740 0.000000 125.000000 -0.555196 0.777910 0.294301
8890.00000000 -9390.00000000 40.00000000 42 152 158 0.000000 0.000000 0.000000 0.000000 -60.708740 0.000000 125.000000 -0.279953 0.705483 0.651092
8920.00000000 -9420.00000000 10.00000000 42 152 158 0.000000 0.000000 0.000000 0.000000 -60.708740 0.000000 125.000000 -0.310685 0.788662 0.530554
8890.00000000 -9430.00000000 0.00000000 42 152 158 0.000000 0.000000 0.000000 0.000000 -60.708740 0.000000 125.000000 -0.633860 0.771220 -0.058664
8870.00000000 -9420.00000000 60.00000000 42 152 158 0.000000 0.000000 0.000000 0.000000 -60.708740 0.000000 125.000000 -0.102630 0.834049 0.542060
8860.00000000 -9450.00000000 60.00000000 42 152 158 0.000000 0.000000 0.000000 0.000000 -60.708740 0.000000 125.000000 -0.641648 0.550706 0.533864
8870.00000000 -9430.00000000 60.00000000 42 152 158 0.000000 0.000000 0.000000 0.000000 -60.708740 0.000000 125.000000 -0.075970 0.812735 0.577659
8760.00000000 -9310.00000000 90.00000000 42 152 158 0.000000 0.000000 0.000000 0.000000 -60.708740 0.000000 125.000000 -0.286323 0.953102 0.098056
8830.00000000 -9420.00000000 70.00000000 42 152 158 0.000000 0.000000 0.000000 0.000000 -60.708740 0.000000 125.000000 -0.359475 0.912294 0.196208
8820.00000000 -9460.00000000 100.00000000 42 152 158 0.000000 0.000000 0.000000 0.000000 -60.708740 0.000000 125.000000 -0.138665 0.791734 0.594919
8790.00000000 -9450.00000000 140.00000000 42 152 158 0.000000 0.000000 0.000000 0.000000 -60.708740 0.000000 125.000000 -0.103198 0.880714 0.462269
8790.00000000 -9450.00000000 140.00000000 42 152 158 0.000000 0.000000 0.000000 0.000000 -60.708740 0.000000 125.000000 -0.103198 0.880714 0.462269
8810.00000000 -9400.00000000 30.00000000 42 152 158 0.000000 0.000000 0.000000 0.000000 -60.708740 0.000000 125.000000 -0.586471 0.805496 -0.085017
8780.00000000 -9460.00000000 50.00000000 42 152 158 0.000000 0.000000 0.000000 0.000000 -60.708740 0.000000 125.000000 -0.556056 0.804214 0.209861
9070.00000000 -9510.00000000 410.00000000 42 152 158 0.000000 0.000000 0.000000 0.000000 -60.708740 0.000000 125.000000 0.278891 -0.220030 0.934776
8760.00000000 -9530.00000000 510.00000000 42 152 158 0.000000 0.000000 0.000000 0.000000 -60.708740 0.000000 125.000000 0.239622 0.765849 0.596705
8780.00000000 -9480.00000000 440.00000000 42 152 158 0.000000 0.000000 0.000000 0.000000 -60.708740 0.000000 125.000000 0.445610 0.381723 0.809765
8770.00000000 -9490.00000000 440.00000000 42 152 158 0.000000 0.000000 0.000000 0.000000 -60.708740 0.000000 125.000000 0.180327 0.493293 0.850967
8770.00000000 -9510.00000000 400.00000000 42 152 158 0.000000 0.000000 0.000000 0.000000 -60.708740 0.000000 125.000000 0.174367 0.792990 0.583750
8770.00000000 -9510.00000000 400.00000000 42 152 158 0.000000 0.000000 0.000000 0.000000 -60.708740 0.000000 125.000000 0.174367 0.792990 0.583750
9010.00000000 -9530.00000000 280.00000000 42 152 158 0.000000 0.000000 0.000000 0.000000 -60.708740 0.000000 125.000000 0.169728 -0.098906 0.980515
9080.00000000 -9500.00000000 200.00000000 42 152 158 0.000000 0.000000 0.000000 0.000000 -60.708740 0.000000 125.000000 0.211283 0.421088 0.882068
9010.00000000 -9530.00000000 190.00000000 42 152 158 0.000000 0.000000 0.000000 0.000000 -60.708740 0.000000 125.000000 0.017320 -0.027508 0.999471
9060.00000000 -9560.00000000 180.00000000 42 152 158 0.000000 0.000000 0.000000 0.000000 -60.708740 0.000000 125.000000 0.304862 -0.172433 0.936657
9000.00000000 -9520.00000000 250.00000000 42 152 158 0.000000 0.000000 0.000000 0.000000 -60.708740 0.000000 125.000000 0.309332 -0.133729 0.941504
9000.00000000 -9540.00000000 190.00000000 42 152 158 0.000000 0.000000 0.000000 0.000000 -60.708740 0.000000 125.000000 0.009155 0.422438 0.906345
9000.00000000 -9520.00000000 160.00000000 42 152 158 0.000000 0.000000 0.000000 0.000000 -60.708740 0.000000 125.000000 0.024268 0.343590 0.938806
9000.00000000 -9520.00000000 160.00000000 42 152 158 0.000000 0.000000 0.000000 0.000000 -60.708740 0.000000 125.000000 0.024268 0.343590 0.938806
9000.00000000 -9570.00000000 200.00000000 42 152 158 0.000000 0.000000 0.000000 0.000000 -60.708740 0.000000 125.000000 0.166563 0.243848 0.955403
9000.00000000 -9590.00000000 190.00000000 42 152 158 0.000000 0.000000 0.000000 0.000000 -60.708740 0.000000 125.000000 0.596698 0.004115 0.802456
9060.00000000 -9540.00000000 100.00000000 42 152 158 0.000000 0.000000 0.000000 0.000000 -60.708740 0.000000 125.000000 0.391289 -0.276471 0.877757
9060.00000000 -9480.00000000 40.00000000 42 152 158 0.000000 0.000000 0.000000 0.000000 -60.708740 0.000000 125.000000 0.008985 0.378668 0.925489
9060.00000000 -9490.00000000 40.00000000 42 152 158 0.000000 0.000000 0.000000 0.000000 -60.708740 0.000000 125.000000 0.079338 0.466285 0.881070
9070.00000000 -9580.00000000 90.00000000 42 152 158 0.000000 0.000000 0.000000 0.000000 -60.708740 0.000000 125.000000 0.476472 -0.540002 0.693810
9080.00000000 -9790.00000000 100.00000000 42 152 158 0.000000 0.000000 0.000000 0.000000 -60.708740 0.000000 125.000000 -0.709407 0.567195 -0.418368
9050.00000000 -9790.00000000 50.00000000 42 152 158 0.000000 0.000000 0.000000 0.000000 -60.708740 0.000000 125.000000 -0.541270 0.723348 -0.428712
9050.00000000 -9800.00000000 40.00000000 42 152 158 0.000000 0.000000 0.000000 0.000000 -60.708740 0.000000 125.000000 0.854304 -0.518635 -0.034392
9060.00000000 -9800.00000000 10.00000000 42 152 158 0.000000 0.000000 0.000000 0.000000 -60.708740 0.000000 125.000000 -0.278793 0.955675 0.094660
9050.00000000 -9800.00000000 20.00000000 42 152 158 0.000000 0.000000 0.000000 0.000000 -60.708740 0.000000 125.000000 -0.475914 0.788887 -0.388797
9080.00000000 -9790.00000000 20.00000000 42 152 158 0.000000 0.000000 0.000000 0.000000 -60.708740 0.000000 125.000000 0.841029 -0.525095 0.130177
9060.00000000 -9800.00000000 10.00000000 42 152 158 0.000000 0.000000 0.000000 0.000000 -60.708740 0.000000 125.000000 -0.278793 0.955675 0.094660
8980.00000000 -9800.00000000 90.00000000 42 152 158 0.000000 0.000000 0.000000 0.000000 -60.708740 0.000000 125.000000 -0.429979 0.879167 -0.205385
8900.00000000 -9480.00000000 150.00000000 42 152 158 0.000000 0.000000 0.000000 0.000000 -60.708740 0.000000 125.000000 0.086214 0.223657 0.970847
8840.00000000 -9530.00000000 190.00000000 42 152 158 0.000000 0.000000 0.000000 0.000000 -60.708740 0.000000 125.000000 0.149430 0.677717 0.719980
8840.00000000 -9480.00000000 200.00000000 42 152 158 0.000000 0.000000 0.000000 0.000000 -60.708740 0.000000 125.000000 0.169541 0.673582 0.719404
8840.00000000 -9560.00000000 260.00000000 42 152 158 0.000000 0.000000 0.000000 0.000000 -60.708740 0.000000 125.000000 0.158535 0.608473 0.777578
8820.00000000 -9520.00000000 280.00000000 42 152 158 0.000000 0.000000 0.000000 0.000000 -60.708740 0.000000 125.000000 0.192487 0.749928 0.632896
8800.00000000 -9520.00000000 210.00000000 42 152 158 0.000000 0.000000 0.000000 0.000000 -60.708740 0.000000 125.000000 -0.273046 0.675430 0.685011
8760.00000000 -9480.00000000 220.00000000 42 152 158 0.000000 0.000000 0.000000 0.000000 -60.708740 0.000000 125.000000 -0.205788 0.639026 0.741146
8770.00000000 -9500.00000000 210.00000000 42 152 158 0.000000 0.000000 0.000000 0.000000 -60.708740 0.000000 125.000000 0.095792 0.898220 0.428980
8770.00000000 -9500.00000000 210.00000000 42 152 158 0.000000 0.000000 0.000000 0.000000 -60.708740 0.000000 125.000000 0.095792 0.898220 0.428980
8760.00000000 -9490.00000000 230.00000000 42 152 158 0.000000 0.000000 0.000000 0.000000 -60.708740 0.000000 125.000000 -0.031150 0.480801 0.876276
8790.00000000 -9480.00000000 170.00000000 42 152 158 0.000000 0.000000 0.000000 0.000000 -60.708740 0.000000 125.000000 -0.132101 0.601134 0.788154
8760.00000000 -9490.00000000 160.00000000 42 152 158 0.000000 0.000000 0.000000 0.000000 -60.708740 0.000000 125.000000 -0.246121 0.818855 0.518557
8760.00000000 -9530.00000000 200.00000000 42 152 158 0.000000 0.000000 0.000000 0.000000 -60.708740 0.000000 125.000000 0.379567 -0.701624 -0.603036
8770.00000000 -9530.00000000 150.00000000 42 152 158 0.000000 0.000000 0.000000 0.000000 -60.708740 0.000000 125.000000 -0.425767 0.834251 0.350354
8830.00000000 -9470.00000000 120.00000000 42 152 158 0.000000 0.000000 0.000000 0.000000 -60.708740 0.000000 125.000000 -0.297885 0.932814 0.202786
8800.00000000 -9470.00000000 90.00000000 42 152 158 0.000000 0.000000 0.000000 0.000000 -60.708740 0.000000 125.000000 -0.679406 0.653338 0.334001
8800.00000000 -9500.00000000 100.00000000 42 152 158 0.000000 0.000000 0.000000 0.000000 -60.708740 0.000000 125.000000 -0.262695 0.894943 0.360649
8830.00000000 -9520.00000000 80.00000000 42 152 158 0.000000 0.000000 0.000000 0.000000 -60.708740 0.000000 125.000000 -0.476388 0.851449 0.219290
8770.00000000 -9480.00000000 120.00000000 42 152 158 0.000000 0.000000 0.000000 0.000000 -60.708740 0.000000 125.000000 -0.260910 0.954905 0.141713
8760.00000000 -9480.00000000 80.00000000 42 152 158 0.000000 0.000000 0.000000 0.000000 -60.708740 0.000000 125.000000 -0.545477 0.793850 0.268808
8760.00000000 -9480.00000000 70.00000000 42 152 158 0.000000 0.000000 0.000000 0.000000 -60.708740 0.000000 125.000000 -0.252341 0.931830 0.260800
8760.00000000 -9480.00000000 90.00000000 42 152 158 0.000000 0.000000 0.000000 0.000000 -60.708740 0.000000 125.000000 -0.425635 0.867932 0.255987
8770.00000000 -9510.00000000 140.00000000 42 152 158 0.000000 0.000000 0.000000 0.000000 -60.708740 0.000000 125.000000 -0.340216 0.818100 0.463643
8760.00000000 -9510.00000000 110.00000000 42 152 158 0.000000 0.000000 0.000000 0.000000 -60.708740 0.000000 125.000000 -0.248233 0.706752 0.662481
8820.00000000 -9480.00000000 30.00000000 42 152 158 0.000000 0.000000 0.000000 0.000000 -60.708740 0.000000 125.000000 -0.516192 0.808021 0.283984
8770.00000000 -9470.00000000 50.00000000 42 152 158 0.000000 0.000000 0.000000 0.000000 -60.708740 0.000000 125.000000 -0.607272 0.673823 0.420931
8770.00000000 -9490.00000000 60.00000000 42 152 158 0.000000 0.000000 0.000000 0.000000 -60.708740 0.000000 125.000000 0.662331 -0.585199 -0.467824
8790.00000000 -9470.00000000 0.00000000 42 152 158 0.000000 0.000000 0.000000 0.000000 -60.708740 0.000000 125.000000 0.727776 -0.667001 -0.159533
8790.00000000 -9490.00000000 -10.00000000 42 152 158 0.000000 0.000000 0.000000 0.000000 -60.708740 0.000000 125.000000 -0.494867 0.868403 -0.031355
8770.00000000 -9510.00000000 40.00000000 42 152 158 0.000000 0.000000 0.000000 0.000000 -60.708740 0.000000 125.000000 -0.472525 0.860084 0.192289
8780.00000000 -9510.00000000 50.00000000 42 152 158 0.000000 0.000000 0.000000 0.000000 -60.708740 0.000000 125.000000 -0.670073 0.732475 0.120346
8920.00000000 -9670.00000000 70.00000000 42 152 158 0.000000 0.000000 0.000000 0.000000 -60.708740 0.000000 125.000000 0.708592 -0.627517 0.322677
8890.00000000 -9670.00000000 30.00000000 42 152 158 0.000000 0.000000 0.000000 0.000000 -60.708740 0.000000 125.000000 0.778481 -0.534504 0.329049
8900.00000000 -9660.00000000 -10.00000000 42 152 158 0.000000 0.000000 0.000000 0.000000 -60.708740 0.000000 125.000000 -0.337712 0.872551 0.352994
8870.00000000 -9670.00000000 10.00000000 42 152 158 0.000000 0.000000 0.000000 0.000000 -60.708740 0.000000 125.000000 -0.581376 0.625190 0.520711
8780.00000000 -9790.00000000 30.00000000 42 152 158 0.000000 0.000000 0.000000 0.000000 -60.708740 0.000000 125.000000 -0.464599 0.732446 0.497666
8770.00000000 -9800.00000000 30.00000000 42 152 158 0.000000 0.000000 0.000000 0.000000 -60.708740 0.000000 125.000000 -0.625226 0.668345 0.402997
8770.00000000 -9800.00000000 30.00000000 42 152 158 0.000000 0.000000 0.000000 0.000000 -60.708740 0.000000 125.000000 -0.625226 0.668345 0.402997
8780.00000000 -9800.00000000 30.00000000 42 152 158 0.000000 0.000000 0.000000 0.000000 -60.708740 0.000000 125.000000 -0.107352 0.777932 0.619110
8760.00000000 -9780.00000000 -10.00000000 42 152 158 0.000000 0.000000 0.000000 0.000000 -60.708740 0.000000 125.000000 -0.169946 0.434305 0.884589
8730.00000000 -9190.00000000 170.00000000 42 152 158 0.000000 0.000000 0.000000 0.000000 -60.708740 0.000000 125.000000 -0.127095 0.881095 0.455542
8740.00000000 -9240.00000000 190.00000000 42 152 158 0.000000 0.000000 0.000000 0.000000 -60.708740 0.000000 125.000000 -0.068783 0.857683 0.509557
8750.00000000 -9440.00000000 210.00000000 42 152 158 0.000000 0.000000 0.000000 0.000000 -60.708740 0.000000 125.000000 0.452793 -0.603167 -0.656634
8750.00000000 -9440.00000000 220.00000000 42 152 158 0.000000 0.000000 0.000000 0.000000 -60.708740 0.000000 125.000000 -0.378210 0.738409 0.558309
8750.00000000 -9430.00000000 10.00000000 42 152 158 0.000000 0.000000 0.000000 0.000000 -60.708740 0.000000 125.000000 0.519914 -0.772582 -0.364426
8720.00000000 -9530.00000000 520.00000000 42 152 158 0.000000 0.000000 0.000000 0.000000 -60.708740 0.000000 125.000000 0.289997 0.620050 0.728999
8670.00000000 -9500.00000000 510.00000000 42 152 158 0.000000 0.000000 0.000000 0.000000 -60.708740 0.000000 125.000000 -0.118834 0.808364 0.576564
8720.00000000 -9520.00000000 450.00000000 42 152 158 0.000000 0.000000 0.000000 0.000000 -60.708740 0.000000 125.000000 -0.240638 0.315568 0.917884
8720.00000000 -9520.00000000 450.00000000 42 152 158 0.000000 0.000000 0.000000 0.000000 -60.708740 0.000000 125.000000 -0.240638 0.315568 0.917884
8740.00000000 -9520.00000000 430.00000000 42 152 158 0.000000 0.000000 0.000000 0.000000 -60.708740 0.000000 125.000000 0.196618 0.444977 0.873692
8750.00000000 -9500.00000000 360.00000000 42 152 158 0.000000 0.000000 0.000000 0.000000 -60.708740 0.000000 125.000000 0.363212 0.514954 0.776466
8750.00000000 -9500.00000000 350.00000000 42 152 158 0.000000 0.000000 0.000000 0.000000 -60.708740 0.000000 125.000000 0.283696 0.668370 0.687603
8720.00000000 -9550.00000000 360.00000000 42 152 158 0.000000 0.000000 0.000000 0.000000 -60.708740 0.000000 125.000000 -0.026673 0.759482 0.649982
8680.00000000 -9510.00000000 360.00000000 42 152 158 0.000000 0.000000 0.000000 0.000000 -60.708740 0.000000 125.000000 -0.050984 0.872239 0.486415
8730.00000000 -9500.00000000 300.00000000 42 152 158 0.000000 0.000000 0.000000 0.000000 -60.708740 0.000000 125.000000 0.422666 -0.711073 -0.561897
8710.00000000 -9500.00000000 290.00000000 42 152 158 0.000000 0.000000 0.000000 0.000000 -60.708740 0.000000 125.000000 0.006439 0.920717 0.390178
8730.00000000 -9500.00000000 300.00000000 42 152 158 0.000000 0.000000 0.000000 0.000000 -60.708740 0.000000 125.000000 0.422666 -0.711073 -0.561897
8750.00000000 -9520.00000000 310.00000000 42 152 158 0.000000 0.000000 0.000000 0.000000 -60.708740 0.000000 125.000000 0.340558 0.669709 0.659932
8690.00000000 -9470.00000000 240.00000000 42 152 158 0.000000 0.000000 0.000000 0.000000 -60.708740 0.000000 125.000000 0.043575 0.583342 0.811057
8700.00000000 -9540.00000000 260.00000000 42 152 158 0.000000 0.000000 0.000000 0.000000 -60.708740 0.000000 125.000000 -0.080448 0.856700 0.509503
8730.00000000 -9500.00000000 220.00000000 42 152 158 0.000000 0.000000 0.000000 0.000000 -60.708740 0.000000 125.000000 -0.224104 0.799048 0.557943
8740.00000000 -9480.00000000 190.00000000 42 152 158 0.000000 0.000000 0.000000 0.000000 -60.708740 0.000000 125.000000 -0.271012 0.831621 0.484725
8750.00000000 -9500.00000000 170.00000000 42 152 158 0.000000 0.000000 0.000000 0.000000 -60.708740 0.000000 125.000000 0.006826 0.825890 0.563790
8730.00000000 -9480.00000000 100.00000000 42 152 158 0.000000 0.000000 0.000000 0.000000 -60.708740 0.000000 125.000000 0.460289 -0.617624 -0.637710
8750.00000000 -9510.00000000 110.00000000 42 152 158 0.000000 0.000000 0.000000 0.000000 -60.708740 0.000000 125.000000 -0.509184 0.769470 0.385548
8730.00000000 -9530.00000000 100.00000000 42 152 158 0.000000 0.000000 0.000000 0.000000 -60.708740 0.000000 125.000000 -0.084549 0.950854 0.297873
8740.00000000 -9510.00000000 90.00000000 42 152 158 0.000000 0.000000 0.000000 0.000000 -60.708740 0.000000 125.000000 -0.280017 0.783099 0.555289
8700.00000000 -9510.00000000 70.00000000 42 152 158 0.000000 0.000000 0.000000 0.000000 -60.708740 0.000000 125.000000 -0.455107 0.890428 0.003957
8710.00000000 -9480.00000000 30.00000000 42 152 158 0.000000 0.000000 0.000000 0.000000 -60.708740 0.000000 125.000000 -0.705781 0.641473 0.300640
8740.00000000 -9500.00000000 10.00000000 42 152 158 0.000000 0.000000 0.000000 0.000000 -60.708740 0.000000 125.000000 0.858918 -0.510967 0.034247
8730.00000000 -9770.00000000 20.00000000 42 152 158 0.000000 0.000000 0.000000 0.000000 -60.708740 0.000000 125.000000 0.221036 0.382055 0.897317
8510.00000000 -10000.00000000 690.00000000 42 152 158 0.000000 0.000000 0.000000 0.000000 -60.708740 0.000000 125.000000 0.320965 -0.312007 0.894222
8500.00000000 -9990.00000000 680.00000000 42 152 158 0.000000 0.000000 0.000000 0.000000 -60.708740 0.000000 125.000000 0.614860 0.282676 0.736235
8510.00000000 -10010.00000000 690.00000000 42 152 158 0.000000 0.000000 0.000000 0.000000 -60.708740 0.000000 125.000000 0.483303 -0.383087 0.787186
8530.00000000 -10030.00000000 680.00000000 42 152 158 0.000000 0.000000 0.000000 0.000000 -60.708740 0.000000 125.000000 0.332088 0.039748 0.942411
8580.00000000 -10080.00000000 680.00000000 42 152 158 0.000000 0.000000 0.000000 0.000000 -60.708740 0.000000 125.000000 0.350547 -0.157816 0.923153
8530.00000000 -10060.00000000 670.00000000 42 152 158 0.000000 0.000000 0.000000 0.000000 -60.708740 0.000000 125.000000 0.246739 -0.003576 0.969075
8540.00000000 -10110.00000000 680.00000000 42 152 158 0.000000 0.000000 0.000000 0.000000 -60.708740 0.000000 125.000000 0.732745 -0.299832 0.610888
8530.00000000 -10140.00000000 690.00000000 42 152 158 0.000000 0.000000 0.000000 0.000000 -60.708740 0.000000 125.000000 0.501332 -0.220952 0.836569
8460.00000000 -9980.00000000 760.00000000 42 152 158 0.000000 0.000000 0.000000 0.000000 -60.708740 0.000000 125.000000 0.257176 -0.245933 0.934547
8480.00000000 -9990.00000000 740.00000000 42 152 158 0.000000 0.000000 0.000000 0.000000 -60.708740 0.000000 125.000000 0.398974 0.043741 0.915918
8470.00000000 -10170.00000000 680.00000000 42 152 158 0.000000 0.000000 0.000000 0.000000 -60.708740 0.000000 125.000000 0.530996 -0.048779 0.845969
8480.00000000 -10240.00000000 660.00000000 42 152 158 0.000000 0.000000 0.000000 0.000000 -60.708740 0.000000 125.000000 0.293513 -0.425671 0.855952
8480.00000000 -10230.00000000 660.00000000 42 152 158 0.000000 0.000000 0.000000 0.000000 -60.708740 0.000000 125.000000 0.501579 -0.051125 0.863600
8460.00000000 -10330.00000000 670.00000000 42 152 158 0.000000 0.000000 0.000000 0.000000 -60.708740 0.000000 125.000000 -0.494375 0.672014 -0.551353
9080.00000000 -9830.00000000 140.00000000 42 152 158 0.000000 0.000000 0.000000 0.000000 -60.708740 0.000000 125.000000 -0.305020 0.888013 -0.344086
9080.00000000 -9810.00000000 100.00000000 42 152 158 0.000000 0.000000 0.000000 0.000000 -60.708740 0.000000 125.000000 -0.296167 0.928180 -0.225314
8800.00000000 -9840.00000000 70.00000000 42 152 158 0.000000 0.000000 0.000000 0.000000 -60.708740 0.000000 125.000000 -0.320021 0.818182 0.477667
8810.00000000 -9820.00000000 100.00000000 42 152 158 0.000000 0.000000 0.000000 0.000000 -60.708740 0.000000 125.000000 0.838930 -0.530692 -0.120678
8760.00000000 -9880.00000000 100.00000000 42 152 158 0.000000 0.000000 0.000000 0.000000 -60.708740 0.000000 125.000000 0.565722 -0.701761 -0.433001
8780.00000000 -9870.00000000 70.00000000 42 152 158 0.000000 0.000000 0.000000 0.000000 -60.708740 0.000000 125.000000 0.739881 -0.655151 -0.152818
8760.00000000 -9880.00000000 30.00000000 42 152 158 0.000000 0.000000 0.000000 0.000000 -60.708740 0.000000 125.000000 -0.501230 0.707717 0.497900
8770.00000000 -9850.00000000 0.00000000 42 152 158 0.000000 0.000000 0.000000 0.000000 -60.708740 0.000000 125.000000 -0.287836 0.580443 0.761732
8760.00000000 -9860.00000000 20.00000000 42 152 158 0.000000 0.000000 0.000000 0.000000 -60.708740 0.000000 125.000000 -0.530485 0.740708 0.412234
8780.00000000 -9900.00000000 90.00000000 42 152 158 0.000000 0.000000 0.000000 0.000000 -60.708740 0.000000 125.000000 -0.432106 0.754132 0.494540
8700.00000000 -10140.00000000 330.00000000 42 152 158 0.000000 0.000000 0.000000 0.000000 -60.708740 0.000000 125.000000 0.586210 -0.676396 0.445921
8700.00000000 -10140.00000000 320.00000000 42 152 158 0.000000 0.000000 0.000000 0.000000 -60.708740 0.000000 125.000000 -0.600325 0.680147 -0.420726
8550.00000000 -10120.00000000 570.00000000 42 152 158 0.000000 0.000000 0.000000 0.000000 -60.708740 0.000000 125.000000 0.335192 -0.341259 0.878173
8530.00000000 -10140.00000000 630.00000000 42 152 158 0.000000 0.000000 0.000000 0.000000 -60.708740 0.000000 125.000000 0.701415 0.061932 0.710057
8530.00000000 -10140.00000000 630.00000000 42 152 158 0.000000 0.000000 0.000000 0.000000 -60.708740 0.000000 125.000000 0.701415 0.061932 0.710057
8580.00000000 -10080.00000000 340.00000000 42 152 158 0.000000 0.000000 0.000000 0.000000 -60.708740 0.000000 125.000000 -0.570140 0.553222 -0.607360
8560.00000000 -10140.00000000 340.00000000 42 152 158 0.000000 0.000000 0.000000 0.000000 -60.708740 0.000000 125.000000 0.803048 -0.595721 0.015204
8500.00000000 -10110.00000000 370.00000000 42 152 158 0.000000 0.000000 0.000000 0.000000 -60.708740 0.000000 125.000000 -0.463741 0.674684 -0.574235
8500.00000000 -10120.00000000 350.00000000 42 152 158 0.000000 0.000000 0.000000 0.000000 -60.708740 0.000000 125.000000 0.844128 -0.535932 -0.015001
8480.00000000 -10090.00000000 340.00000000 42 152 158 0.000000 0.000000 0.000000 0.000000 -60.708740 0.000000 125.000000 0.655945 -0.445642 0.609211
8430.00000000 -10140.00000000 340.00000000 42 152 158 0.000000 0.000000 0.000000 0.000000 -60.708740 0.000000 125.000000 -0.648221 0.737525 0.189385
8740.00000000 -9960.00000000 250.00000000 42 152 158 0.000000 0.000000 0.000000 0.000000 -60.708740 0.000000 125.000000 0.548509 -0.616017 0.565386
8710.00000000 -9920.00000000 200.00000000 42 152 158 0.000000 0.000000 0.000000 0.000000 -60.708740 0.000000 125.000000 -0.521967 0.826321 -0.211526
8740.00000000 -9970.00000000 200.00000000 42 152 158 0.000000 0.000000 0.000000 0.000000 -60.708740 0.000000 125.000000 0.794884 -0.593573 -0.125820
8670.00000000 -9900.00000000 170.00000000 42 152 158 0.000000 0.000000 0.000000 0.000000 -60.708740 0.000000 125.000000 -0.402922 0.784807 -0.470884
8710.00000000 -9820.00000000 110.00000000 42 152 158 0.000000 0.000000 0.000000 0.000000 -60.708740 0.000000 125.000000 0.826904 -0.561853 0.023468
8750.00000000 -9860.00000000 70.00000000 42 152 158 0.000000 0.000000 0.000000 0.000000 -60.708740 0.000000 125.000000 0.594565 -0.706561 -0.383750
8740.00000000 -9870.00000000 70.00000000 42 152 158 0.000000 0.000000 0.000000 0.000000 -60.708740 0.000000 125.000000 -0.536112 0.745967 0.395116
8750.00000000 -9820.00000000 10.00000000 42 152 158 0.000000 0.000000 0.000000 0.000000 -60.708740 0.000000 125.000000 -0.390185 0.574577 0.719456
8720.00000000 -9810.00000000 20.00000000 42 152 158 0.000000 0.000000 0.000000 0.000000 -60.708740 0.000000 125.000000 -0.479387 0.699872 0.529497
8730.00000000 -9870.00000000 60.00000000 42 152 158 0.000000 0.000000 0.000000 0.000000 -60.708740 0.000000 125.000000 -0.428590 0.901797 -0.055433
8750.00000000 -9880.00000000 20.00000000 42 152 158 0.000000 0.000000 0.000000 0.000000 -60.708740 0.000000 125.000000 0.484154 -0.510774 -0.710425
8750.00000000 -9860.00000000 0.00000000 42 152 158 0.000000 0.000000 0.000000 0.000000 -60.708740 0.000000 125.000000 -0.522460 0.740015 0.423572
8690.00000000 -9820.00000000 10.00000000 42 152 158 0.000000 0.000000 0.000000 0.000000 -60.708740 0.000000 125.000000 0.405896 -0.490661 -0.771039
8740.00000000 -9930.00000000 100.00000000 42 152 158 0.000000 0.000000 0.000000 0.000000 -60.708740 0.000000 125.000000 -0.113058 0.986578 0.117818
8740.00000000 -9930.00000000 90.00000000 42 152 158 0.000000 0.000000 0.000000 0.000000 -60.708740 0.000000 125.000000 -0.723658 0.631004 0.279559
8720.00000000 -9950.00000000 120.00000000 42 152 158 0.000000 0.000000 0.000000 0.000000 -60.708740 0.000000 125.000000 0.791216 -0.608737 -0.058450
8680.00000000 -9950.00000000 110.00000000 42 152 158 0.000000 0.000000 0.000000 0.000000 -60.708740 0.000000 125.000000 0.736147 -0.566393 -0.370522
8670.00000000 -9940.00000000 50.00000000 42 152 158 0.000000 0.000000 0.000000 0.000000 -60.708740 0.000000 125.000000 0.006045 0.963621 0.267202
8660.00000000 -9860.00000000 130.00000000 42 152 158 0.000000 0.000000 0.000000 0.000000 -60.708740 0.000000 125.000000 0.697790 -0.691628 -0.186385
8620.00000000 -9880.00000000 80.00000000 42 152 158 0.000000 0.000000 0.000000 0.000000 -60.708740 0.000000 125.000000 0.057336 0.846053 0.530007
8640.00000000 -9870.00000000 -10.00000000 42 152 158 0.000000 0.000000 0.000000 0.000000 -60.708740 0.000000 125.000000 -0.362198 0.399828 0.841992
8620.00000000 -9840.00000000 40.00000000 42 152 158 0.000000 0.000000 0.000000 0.000000 -60.708740 0.000000 125.000000 0.173387 0.556347 0.812659
8600.00000000 -9850.00000000 0.00000000 42 152 158 0.000000 0.000000 0.000000 0.000000 -60.708740 0.000000 125.000000 0.481214 0.441797 0.757132
8660.00000000 -9960.00000000 140.00000000 42 152 158 0.000000 0.000000 0.000000 0.000000 -60.708740 0.000000 125.000000 -0.700616 0.678771 0.220015
8640.00000000 -9970.00000000 80.00000000 42 152 158 0.000000 0.000000 0.000000 0.000000 -60.708740 0.000000 125.000000 -0.129839 0.759635 0.637257
8640.00000000 -9970.00000000 80.00000000 42 152 158 0.000000 0.000000 0.000000 0.000000 -60.708740 0.000000 125.000000 -0.129839 0.759635 0.637257
8630.00000000 -9970.00000000 80.00000000 42 152 158 0.000000 0.000000 0.000000 0.000000 -60.708740 0.000000 125.000000 -0.213164 0.686171 0.695507
8600.00000000 -9940.00000000 110.00000000 42 152 158 0.000000 0.000000 0.000000 0.000000 -60.708740 0.000000 125.000000 0.001242 0.945148 0.326641
8640.00000000 -9910.00000000 30.00000000 42 152 158 0.000000 0.000000 0.000000 0.000000 -60.708740 0.000000 125.000000 -0.290397 0.811543 0.507018
8640.00000000 -9910.00000000 -10.00000000 42 152 158 0.000000 0.000000 0.000000 0.000000 -60.708740 0.000000 125.000000 0.259769 0.474963 0.840792
8640.00000000 -9910.00000000 -10.00000000 42 152 158 0.000000 0.000000 0.000000 0.000000 -60.708740 0.000000 125.000000 0.259769 0.474963 0.840792
8640.00000000 -9890.00000000 10.00000000 42 152 158 0.000000 0.000000 0.000000 0.000000 -60.708740 0.000000 125.000000 -0.141833 0.439825 0.886813
8630.00000000 -9960.00000000 50.00000000 42 152 158 0.000000 0.000000 0.000000 0.000000 -60.708740 0.000000 125.000000 -0.373023 0.632660 0.678672
8630.00000000 -9940.00000000 30.00000000 42 152 158 0.000000 0.000000 0.000000 0.000000 -60.708740 0.000000 125.000000 -0.147394 0.814389 0.561289
8640.00000000 -9940.00000000 30.00000000 42 152 158 0.000000 0.000000 0.000000 0.000000 -60.708740 0.000000 125.000000 -0.272483 0.848240 0.454139
8630.00000000 -9950.00000000 40.00000000 42 152 158 0.000000 0.000000 0.000000 0.000000 -60.708740 0.000000 125.000000 -0.253931 0.481699 0.838741
8610.00000000 -9910.00000000 30.00000000 42 152 158 0.000000 0.000000 0.000000 0.000000 -60.708740 0.000000 125.000000 -0.118291 0.393839 0.911536
8610.00000000 -9910.00000000 0.00000000 42 152 158 0.000000 0.000000 0.000000 0.000000 -60.708740 0.000000 125.000000 -0.236098 0.595718 0.767710
8620.00000000 -9960.00000000 50.00000000 42 152 158 0.000000 0.000000 0.000000 0.000000 -60.708740 0.000000 125.000000 -0.355605 0.907156 0.224975
8620.00000000 -9960.00000000 40.00000000 42 152 158 0.000000 0.000000 0.000000 0.000000 -60.708740 0.000000 125.000000 0.513804 -0.684514 -0.517151
8710.00000000 -10040.00000000 240.00000000 42 152 158 0.000000 0.000000 0.000000 0.000000 -60.708740 0.000000 125.000000 -0.248578 0.949487 -0.191527
8680.00000000 -10000.00000000 240.00000000 42 152 158 0.000000 0.000000 0.000000 0.000000 -60.708740 0.000000 125.000000 -0.777413 0.523104 -0.349273
8680.00000000 -10040.00000000 290.00000000 42 152 158 0.000000 0.000000 0.000000 0.000000 -60.708740 0.000000 125.000000 0.818899 -0.364132 0.443636
8740.00000000 -10010.00000000 200.00000000 42 152 158 0.000000 0.000000 0.000000 0.000000 -60.708740 0.000000 125.000000 -0.665625 0.746223 0.009727
8740.00000000 -10010.00000000 200.00000000 42 152 158 0.000000 0.000000 0.000000 0.000000 -60.708740 0.000000 125.000000 -0.665625 0.746223 0.009727
8750.00000000 -9980.00000000 150.00000000 42 152 158 0.000000 0.000000 0.000000 0.000000 -60.708740 0.000000 125.000000 -0.401890 0.910121 0.100818
8720.00000000 -9980.00000000 170.00000000 42 152 158 0.000000 0.000000 0.000000 0.000000 -60.708740 0.000000 125.000000 -0.299705 0.942511 -0.147818
8720.00000000 -9980.00000000 170.00000000 42 152 158 0.000000 0.000000 0.000000 0.000000 -60.708740 0.000000 125.000000 -0.299705 0.942511 -0.147818
8740.00000000 -10010.00000000 190.00000000 42 152 158 0.000000 0.000000 0.000000 0.000000 -60.708740 0.000000 125.000000 -0.618761 0.782424 0.070346
8730.00000000 -10020.00000000 200.00000000 42 152 158 0.000000 0.000000 0.000000 0.000000 -60.708740 0.000000 125.000000 0.606638 -0.596499 0.525528
8710.00000000 -10050.00000000 190.00000000 42 152 158 0.000000 0.000000 0.000000 0.000000 -60.708740 0.000000 125.000000 -0.722374 0.622625 -0.300855
8700.00000000 -10010.00000000 150.00000000 42 152 158 0.000000 0.000000 0.000000 0.000000 -60.708740 0.000000 125.000000 -0.613551 0.775564 0.148512
8730.00000000 -10090.00000000 310.00000000 42 152 158 0.000000 0.000000 0.000000 0.000000 -60.708740 0.000000 125.000000 0.666539 -0.589695 0.456053
8730.00000000 -10080.00000000 240.00000000 42 152 158 0.000000 0.000000 0.000000 0.000000 -60.708740 0.000000 125.000000 -0.611151 0.791309 0.018016
8720.00000000 -10120.00000000 300.00000000 42 152 158 0.000000 0.000000 0.000000 0.000000 -60.708740 0.000000 125.000000 -0.607000 0.772129 -0.188063
8730.00000000 -10120.00000000 260.00000000 42 152 158 0.000000 0.000000 0.000000 0.000000 -60.708740 0.000000 125.000000 -0.484848 0.827827 -0.282178
8710.00000000 -10110.00000000 260.00000000 42 152 158 0.000000 0.000000 0.000000 0.000000 -60.708740 0.000000 125.000000 0.681060 -0.543844 0.490296
8700.00000000 -10080.00000000 240.00000000 42 152 158 0.000000 0.000000 0.000000 0.000000 -60.708740 0.000000 125.000000 -0.583479 0.766903 0.267230
8700.00000000 -10080.00000000 220.00000000 42 152 158 0.000000 0.000000 0.000000 0.000000 -60.708740 0.000000 125.000000 -0.531161 0.803792 -0.267931
8700.00000000 -10080.00000000 220.00000000 42 152 158 0.000000 0.000000 0.000000 0.000000 -60.708740 0.000000 125.000000 -0.531161 0.803792 -0.267931
8630.00000000 -10050.00000000 260.00000000 42 152 158 0.000000 0.000000 0.000000 0.000000 -60.708740 0.000000 125.000000 -0.639249 0.767384 0.049830
8590.00000000 -10040.00000000 260.00000000 42 152 158 0.000000 0.000000 0.000000 0.000000 -60.708740 0.000000 125.000000 -0.516828 0.796710 -0.313277
8600.00000000 -10040.00000000 190.00000000 42 152 158 0.000000 0.000000 0.000000 0.000000 -60.708740 0.000000 125.000000 -0.679322 0.732990 0.035308
8640.00000000 -10060.00000000 240.00000000 42 152 158 0.000000 0.000000 0.000000 0.000000 -60.708740 0.000000 125.000000 -0.274849 0.927080 -0.254912
8630.00000000 -10070.00000000 240.00000000 42 152 158 0.000000 0.000000 0.000000 0.000000 -60.708740 0.000000 125.000000 -0.677710 0.624944 -0.387498
8660.00000000 -10140.00000000 310.00000000 42 152 158 0.000000 0.000000 0.000000 0.000000 -60.708740 0.000000 125.000000 0.570215 -0.709050 0.414852
8640.00000000 -10130.00000000 270.00000000 42 152 158 0.000000 0.000000 0.000000 0.000000 -60.708740 0.000000 125.000000 0.833565 -0.539708 -0.117834
8590.00000000 -10080.00000000 200.00000000 42 152 158 0.000000 0.000000 0.000000 0.000000 -60.708740 0.000000 125.000000 -0.464428 0.861656 0.204587
8700.00000000 -10010.00000000 130.00000000 42 152 158 0.000000 0.000000 0.000000 0.000000 -60.708740 0.000000 125.000000 -0.375527 0.924886 -0.059713
8670.00000000 -10000.00000000 0.00000000 42 152 158 0.000000 0.000000 0.000000 0.000000 -60.708740 0.000000 125.000000 -0.236758 0.910719 0.338433
8640.00000000 -9990.00000000 130.00000000 42 152 158 0.000000 0.000000 0.000000 0.000000 -60.708740 0.000000 125.000000 -0.252045 0.933552 0.254861
8610.00000000 -10000.00000000 70.00000000 42 152 158 0.000000 0.000000 0.000000 0.000000 -60.708740 0.000000 125.000000 -0.631103 0.711806 0.308288
8610.00000000 -10000.00000000 70.00000000 42 152 158 0.000000 0.000000 0.000000 0.000000 -60.708740 0.000000 125.000000 -0.631103 0.711806 0.308288
8590.00000000 -10050.00000000 110.00000000 42 152 158 0.000000 0.000000 0.000000 0.000000 -60.708740 0.000000 125.000000 -0.293517 0.936194 0.193360
8600.00000000 -10050.00000000 140.00000000 42 152 158 0.000000 0.000000 0.000000 0.000000 -60.708740 0.000000 125.000000 0.248199 -0.794550 -0.554155
8600.00000000 -10050.00000000 110.00000000 42 152 158 0.000000 0.000000 0.000000 0.000000 -60.708740 0.000000 125.000000 -0.008708 0.949144 0.314723
8610.00000000 -10020.00000000 100.00000000 42 152 158 0.000000 0.000000 0.000000 0.000000 -60.708740 0.000000 125.000000 -0.342804 0.826206 0.447067
8600.00000000 -10020.00000000 70.00000000 42 152 158 0.000000 0.000000 0.000000 0.000000 -60.708740 0.000000 125.000000 -0.559121 0.685966 0.465656
8650.00000000 -9990.00000000 0.00000000 42 152 158 0.000000 0.000000 0.000000 0.000000 -60.708740 0.000000 125.000000 -0.277351 0.905425 0.321375
8650.00000000 -9980.00000000 0.00000000 42 152 158 0.000000 0.000000 0.000000 0.000000 -60.708740 0.000000 125.000000 -0.262386 0.824420 0.501483
8660.00000000 -10030.00000000 0.00000000 42 152 158 0.000000 0.000000 0.000000 0.000000 -60.708740 0.000000 125.000000 -0.427024 0.679583 0.596504
8620.00000000 -10010.00000000 30.00000000 42 152 158 0.000000 0.000000 0.000000 0.000000 -60.708740 0.000000 125.000000 0.009711 0.670082 0.742223
8610.00000000 -10010.00000000 0.00000000 42 152 158 0.000000 0.000000 0.000000 0.000000 -60.708740 0.000000 125.000000 0.229675 0.742149 0.629654
8610.00000000 -10020.00000000 40.00000000 42 152 158 0.000000 0.000000 0.000000 0.000000 -60.708740 0.000000 125.000000 -0.394626 0.794085 0.462276
8590.00000000 -10020.00000000 60.00000000 42 152 158 0.000000 0.000000 0.000000 0.000000 -60.708740 0.000000 125.000000 -0.441986 0.864362 0.239849
8600.00000000 -10050.00000000 30.00000000 42 152 158 0.000000 0.000000 0.000000 0.000000 -60.708740 0.000000 125.000000 0.093113 0.843750 0.528597
8620.00000000 -10040.00000000 20.00000000 42 152 158 0.000000 0.000000 0.000000 0.000000 -60.708740 0.000000 125.000000 0.253880 -0.808365 -0.531122
8620.00000000 -10040.00000000 10.00000000 42 152 158 0.000000 0.000000 0.000000 0.000000 -60.708740 0.000000 125.000000 -0.288501 0.914794 0.282702
8550.00000000 -9970.00000000 150.00000000 42 152 158 0.000000 0.000000 0.000000 0.000000 -60.708740 0.000000 125.000000 -0.157820 0.884661 0.438711
8570.00000000 -9930.00000000 110.00000000 42 152 158 0.000000 0.000000 0.000000 0.000000 -60.708740 0.000000 125.000000 -0.274187 0.803760 0.528006
8580.00000000 -9920.00000000 100.00000000 42 152 158 0.000000 0.000000 0.000000 0.000000 -60.708740 0.000000 125.000000 -0.165672 0.737165 0.655089
8570.00000000 -9900.00000000 70.00000000 42 152 158 0.000000 0.000000 0.000000 0.000000 -60.708740 0.000000 125.000000 -0.062149 0.476474 0.876989
8550.00000000 -9970.00000000 130.00000000 42 152 158 0.000000 0.000000 0.000000 0.000000 -60.708740 0.000000 125.000000 -0.360005 0.834771 0.416599
8540.00000000 -9930.00000000 100.00000000 42 152 158 0.000000 0.000000 0.000000 0.000000 -60.708740 0.000000 125.000000 0.223349 0.713781 0.663801
8580.00000000 -9960.00000000 20.00000000 42 152 158 0.000000 0.000000 0.000000 0.000000 -60.708740 0.000000 125.000000 0.333364 0.619569 0.710635
8540.00000000 -9980.00000000 260.00000000 42 152 158 0.000000 0.000000 0.000000 0.000000 -60.708740 0.000000 125.000000 0.718585 -0.621697 0.311656
8500.00000000 -10030.00000000 240.00000000 42 152 158 0.000000 0.000000 0.000000 0.000000 -60.708740 0.000000 125.000000 -0.551689 0.738314 -0.387983
8510.00000000 -10050.00000000 280.00000000 42 152 158 0.000000 0.000000 0.000000 0.000000 -60.708740 0.000000 125.000000 -0.598297 0.713039 -0.365535
8580.00000000 -10020.00000000 250.00000000 42 152 158 0.000000 0.000000 0.000000 0.000000 -60.708740 0.000000 125.000000 -0.482045 0.727209 -0.488671
8560.00000000 -10010.00000000 220.00000000 42 152 158 0.000000 0.000000 0.000000 0.000000 -60.708740 0.000000 125.000000 -0.339615 0.890181 0.303709
8570.00000000 -10010.00000000 160.00000000 42 152 158 0.000000 0.000000 0.000000 0.000000 -60.708740 0.000000 125.000000 -0.242698 0.866779 0.435651
8550.00000000 -9980.00000000 160.00000000 42 152 158 0.000000 0.000000 0.000000 0.000000 -60.708740 0.000000 125.000000 -0.518752 0.824800 0.224946
8580.00000000 -10040.00000000 170.00000000 42 152 158 0.000000 0.000000 0.000000 0.000000 -60.708740 0.000000 125.000000 -0.465921 0.826735 0.315320
8540.00000000 -10010.00000000 160.00000000 42 152 158 0.000000 0.000000 0.000000 0.000000 -60.708740 0.000000 125.000000 -0.220514 0.692821 0.686566
8500.00000000 -10040.00000000 170.00000000 42 152 158 0.000000 0.000000 0.000000 0.000000 -60.708740 0.000000 125.000000 -0.460908 0.773609 0.434849
8530.00000000 -10020.00000000 170.00000000 42 152 158 0.000000 0.000000 0.000000 0.000000 -60.708740 0.000000 125.000000 -0.403459 0.818080 0.409837
8530.00000000 -10020.00000000 170.00000000 42 152 158 0.000000 0.000000 0.000000 0.000000 -60.708740 0.000000 125.000000 -0.403459 0.818080 0.409837
8510.00000000 -10030.00000000 170.00000000 42 152 158 0.000000 0.000000 0.000000 0.000000 -60.708740 0.000000 125.000000 -0.589165 0.785044 0.191287
8520.00000000 -10050.00000000 150.00000000 42 152 158 0.000000 0.000000 0.000000 0.000000 -60.708740 0.000000 125.000000 -0.237116 0.717629 0.654817
8560.00000000 -10090.00000000 240.00000000 42 152 158 0.000000 0.000000 0.000000 0.000000 -60.708740 0.000000 125.000000 0.826958 -0.559289 0.057760
8550.00000000 -10120.00000000 280.00000000 42 152 158 0.000000 0.000000 0.000000 0.000000 -60.708740 0.000000 125.000000 -0.649637 0.759554 -0.032411
8530.00000000 -10080.00000000 270.00000000 42 152 158 0.000000 0.000000 0.000000 0.000000 -60.708740 0.000000 125.000000 -0.485306 0.836574 -0.254208
8510.00000000 -10100.00000000 300.00000000 42 152 158 0.000000 0.000000 0.000000 0.000000 -60.708740 0.000000 125.000000 -0.562254 0.609530 -0.558877
8540.00000000 -10130.00000000 270.00000000 42 152 158 0.000000 0.000000 0.000000 0.000000 -60.708740 0.000000 125.000000 -0.666584 0.741773 0.073744
8520.00000000 -10130.00000000 250.00000000 42 152 158 0.000000 0.000000 0.000000 0.000000 -60.708740 0.000000 125.000000 -0.374628 0.926848 -0.024630
8540.00000000 -10100.00000000 240.00000000 42 152 158 0.000000 0.000000 0.000000 0.000000 -60.708740 0.000000 125.000000 0.813504 -0.579463 -0.049346
8540.00000000 -10100.00000000 240.00000000 42 152 158 0.000000 0.000000 0.000000 0.000000 -60.708740 0.000000 125.000000 0.813504 -0.579463 -0.049346
8540.00000000 -10130.00000000 260.00000000 42 152 158 0.000000 0.000000 0.000000 0.000000 -60.708740 0.000000 125.000000 0.717046 -0.680816 -0.149447
8580.00000000 -10080.00000000 200.00000000 42 152 158 0.000000 0.000000 0.000000 0.000000 -60.708740 0.000000 125.000000 -0.441125 0.779701 0.444381
8570.00000000 -10080.00000000 200.00000000 42 152 158 0.000000 0.000000 0.000000 0.000000 -60.708740 0.000000 125.000000 0.705527 -0.630919 -0.322758
8580.00000000 -10070.00000000 190.00000000 42 152 158 0.000000 0.000000 0.000000 0.000000 -60.708740 0.000000 125.000000 -0.474576 0.704371 0.527862
8580.00000000 -10060.00000000 160.00000000 42 152 158 0.000000 0.000000 0.000000 0.000000 -60.708740 0.000000 125.000000 0.712386 -0.688390 -0.136478
8570.00000000 -10100.00000000 200.00000000 42 152 158 0.000000 0.000000 0.000000 0.000000 -60.708740 0.000000 125.000000 -0.583864 0.796996 -0.154596
8560.00000000 -10120.00000000 180.00000000 42 152 158 0.000000 0.000000 0.000000 0.000000 -60.708740 0.000000 125.000000 -0.195617 0.980428 -0.022256
8550.00000000 -10140.00000000 170.00000000 42 152 158 0.000000 0.000000 0.000000 0.000000 -60.708740 0.000000 125.000000 0.732745 -0.610888 -0.299832
8580.00000000 -10120.00000000 190.00000000 42 152 158 0.000000 0.000000 0.000000 0.000000 -60.708740 0.000000 125.000000 -0.422079 0.836312 0.349902
8560.00000000 -10120.00000000 190.00000000 42 152 158 0.000000 0.000000 0.000000 0.000000 -60.708740 0.000000 125.000000 -0.128799 0.952049 0.277515
8520.00000000 -10090.00000000 160.00000000 42 152 158 0.000000 0.000000 0.000000 0.000000 -60.708740 0.000000 125.000000 -0.080151 0.867605 0.490752
8540.00000000 -10080.00000000 160.00000000 42 152 158 0.000000 0.000000 0.000000 0.000000 -60.708740 0.000000 125.000000 -0.302170 0.756225 0.580359
8540.00000000 -10110.00000000 210.00000000 42 152 158 0.000000 0.000000 0.000000 0.000000 -60.708740 0.000000 125.000000 -0.613013 0.781407 -0.116694
8500.00000000 -10140.00000000 220.00000000 42 152 158 0.000000 0.000000 0.000000 0.000000 -60.708740 0.000000 125.000000 -0.409698 0.888413 0.207052
8480.00000000 -10100.00000000 250.00000000 42 152 158 0.000000 0.000000 0.000000 0.000000 -60.708740 0.000000 125.000000 -0.303476 0.913331 -0.271531
8450.00000000 -10130.00000000 250.00000000 42 152 158 0.000000 0.000000 0.000000 0.000000 -60.708740 0.000000 125.000000 -0.267053 0.909146 0.319587
8450.00000000 -10110.00000000 250.00000000 42 152 158 0.000000 0.000000 0.000000 0.000000 -60.708740 0.000000 125.000000 -0.652824 0.721707 -0.230132
8470.00000000 -10060.00000000 180.00000000 42 152 158 0.000000 0.000000 0.000000 0.000000 -60.708740 0.000000 125.000000 -0.398289 0.679241 0.616440
8470.00000000 -10120.00000000 230.00000000 42 152 158 0.000000 0.000000 0.000000 0.000000 -60.708740 0.000000 125.000000 -0.647807 0.734388 0.202536
8440.00000000 -10130.00000000 230.00000000 42 152 158 0.000000 0.000000 0.000000 0.000000 -60.708740 0.000000 125.000000 -0.379846 0.922099 -0.073822
8550.00000000 -10000.00000000 120.00000000 42 152 158 0.000000 0.000000 0.000000 0.000000 -60.708740 0.000000 125.000000 0.070346 0.886908 0.456558
8580.00000000 -10050.00000000 110.00000000 42 152 158 0.000000 0.000000 0.000000 0.000000 -60.708740 0.000000 125.000000 -0.387039 0.910597 0.144964
8580.00000000 -10050.00000000 110.00000000 42 152 158 0.000000 0.000000 0.000000 0.000000 -60.708740 0.000000 125.000000 -0.387039 0.910597 0.144964
8580.00000000 -10050.00000000 100.00000000 42 152 158 0.000000 0.000000 0.000000 0.000000 -60.708740 0.000000 125.000000 -0.288696 0.930869 0.223915
8570.00000000 -10050.00000000 70.00000000 42 152 158 0.000000 0.000000 0.000000 0.000000 -60.708740 0.000000 125.000000 -0.248314 0.507424 0.825143
8570.00000000 -10050.00000000 100.00000000 42 152 158 0.000000 0.000000 0.000000 0.000000 -60.708740 0.000000 125.000000 0.044040 0.728785 0.683325
8570.00000000 -10040.00000000 70.00000000 42 152 158 0.000000 0.000000 0.000000 0.000000 -60.708740 0.000000 125.000000 -0.316958 0.527202 0.788413
8520.00000000 -10010.00000000 120.00000000 42 152 158 0.000000 0.000000 0.000000 0.000000 -60.708740 0.000000 125.000000 -0.074949 0.908923 0.410174
8510.00000000 -10050.00000000 140.00000000 42 152 158 0.000000 0.000000 0.000000 0.000000 -60.708740 0.000000 125.000000 0.463035 -0.559988 -0.687031
8520.00000000 -10030.00000000 100.00000000 42 152 158 0.000000 0.000000 0.000000 0.000000 -60.708740 0.000000 125.000000 0.191251 0.832768 0.519539
8570.00000000 -10020.00000000 50.00000000 42 152 158 0.000000 0.000000 0.000000 0.000000 -60.708740 0.000000 125.000000 0.092677 0.854054 0.511862
8580.00000000 -10020.00000000 40.00000000 42 152 158 0.000000 0.000000 0.000000 0.000000 -60.708740 0.000000 125.000000 -0.280360 0.856401 0.433562
8550.00000000 -10060.00000000 110.00000000 42 152 158 0.000000 0.000000 0.000000 0.000000 -60.708740 0.000000 125.000000 -0.374667 0.767175 0.520641
8550.00000000 -10100.00000000 130.00000000 42 152 158 0.000000 0.000000 0.000000 0.000000 -60.708740 0.000000 125.000000 -0.404273 0.707891 0.579183
8540.00000000 -10070.00000000 110.00000000 42 152 158 0.000000 0.000000 0.000000 0.000000 -60.708740 0.000000 125.000000 -0.202668 0.812195 0.547051
8540.00000000 -10060.00000000 100.00000000 42 152 158 0.000000 0.000000 0.000000 0.000000 -60.708740 0.000000 125.000000 -0.174785 0.597309 0.782734
8530.00000000 -10060.00000000 100.00000000 42 152 158 0.000000 0.000000 0.000000 0.000000 -60.708740 0.000000 125.000000 -0.199788 0.664412 0.720167
8620.00000000 -10150.00000000 650.00000000 42 152 158 0.000000 0.000000 0.000000 0.000000 -60.708740 0.000000 125.000000 0.699631 0.032508 0.713765
8690.00000000 -10290.00000000 470.00000000 42 152 158 0.000000 0.000000 0.000000 0.000000 -60.708740 0.000000 125.000000 -0.681175 0.493726 -0.540588
8660.00000000 -10200.00000000 420.00000000 42 152 158 0.000000 0.000000 0.000000 0.000000 -60.708740 0.000000 125.000000 0.586989 -0.434006 0.683435
8630.00000000 -10280.00000000 400.00000000 42 152 158 0.000000 0.000000 0.000000 0.000000 -60.708740 0.000000 125.000000 -0.507945 0.805433 -0.305400
8640.00000000 -10280.00000000 390.00000000 42 152 158 0.000000 0.000000 0.000000 0.000000 -60.708740 0.000000 125.000000 0.747822 -0.562894 0.352012
8640.00000000 -10320.00000000 490.00000000 42 152 158 0.000000 0.000000 0.000000 0.000000 -60.708740 0.000000 125.000000 0.863209 -0.358516 0.355439
8610.00000000 -10350.00000000 510.00000000 42 152 158 0.000000 0.000000 0.000000 0.000000 -60.708740 0.000000 125.000000 0.644607 -0.607773 0.463782
8670.00000000 -10310.00000000 440.00000000 42 152 158 0.000000 0.000000 0.000000 0.000000 -60.708740 0.000000 125.000000 -0.377282 0.901690 -0.211220
8650.00000000 -10320.00000000 410.00000000 42 152 158 0.000000 0.000000 0.000000 0.000000 -60.708740 0.000000 125.000000 -0.586049 0.741037 -0.327735
8600.00000000 -10350.00000000 480.00000000 42 152 158 0.000000 0.000000 0.000000 0.000000 -60.708740 0.000000 125.000000 0.816191 -0.514589 0.262736
8620.00000000 -10320.00000000 430.00000000 42 152 158 0.000000 0.000000 0.000000 0.000000 -60.708740 0.000000 125.000000 -0.432802 0.839043 -0.329680
