//X Y Z R G B PointSourceId ScanDirectionFlag NumberOfReturns ReturnNumber GpsTime Intensity Classification Nx Ny Nz
3520.00000000 -16170.00000000 780.00000000 34 106 185 0.000000 0.000000 0.000000 0.000000 -60.708740 0.000000 156.000000 0.801028 -0.254518 -0.541826
3680.00000000 -16270.00000000 710.00000000 34 106 185 0.000000 0.000000 0.000000 0.000000 -60.708740 0.000000 156.000000 0.839221 -0.117811 -0.530876
3590.00000000 -16360.00000000 700.00000000 34 106 185 0.000000 0.000000 0.000000 0.000000 -60.708740 0.000000 156.000000 0.610576 0.546305 -0.573366
3600.00000000 -16370.00000000 700.00000000 34 106 185 0.000000 0.000000 0.000000 0.000000 -60.708740 0.000000 156.000000 0.888748 0.402368 -0.219608
3620.00000000 -16440.00000000 680.00000000 34 106 185 0.000000 0.000000 0.000000 0.000000 -60.708740 0.000000 156.000000 0.919608 0.311318 -0.239586
3650.00000000 -16490.00000000 740.00000000 34 106 185 0.000000 0.000000 0.000000 0.000000 -60.708740 0.000000 156.000000 0.929702 -0.024500 -0.367497
3530.00000000 -16250.00000000 660.00000000 34 106 185 0.000000 0.000000 0.000000 0.000000 -60.708740 0.000000 156.000000 0.632013 0.403095 -0.661872
3540.00000000 -15920.00000000 640.00000000 34 106 185 0.000000 0.000000 0.000000 0.000000 -60.708740 0.000000 156.000000 -0.387747 -0.097279 0.916618
3560.00000000 -16200.00000000 570.00000000 34 106 185 0.000000 0.000000 0.000000 0.000000 -60.708740 0.000000 156.000000 0.731323 0.338906 -0.591869
3600.00000000 -16170.00000000 640.00000000 34 106 185 0.000000 0.000000 0.000000 0.000000 -60.708740 0.000000 156.000000 0.929301 0.268149 -0.253962
3660.00000000 -16140.00000000 360.00000000 34 106 185 0.000000 0.000000 0.000000 0.000000 -60.708740 0.000000 156.000000 0.692772 0.637350 0.337421
3610.00000000 -16100.00000000 350.00000000 34 106 185 0.000000 0.000000 0.000000 0.000000 -60.708740 0.000000 156.000000 0.872437 0.331557 0.359059
3560.00000000 -16170.00000000 340.00000000 34 106 185 0.000000 0.000000 0.000000 0.000000 -60.708740 0.000000 156.000000 0.650506 0.704848 0.282898
3580.00000000 -16130.00000000 330.00000000 34 106 185 0.000000 0.000000 0.000000 0.000000 -60.708740 0.000000 156.000000 0.554068 0.655113 0.513649
3470.00000000 -15880.00000000 630.00000000 34 106 185 0.000000 0.000000 0.000000 0.000000 -60.708740 0.000000 156.000000 -0.616242 -0.192095 0.763771
3460.00000000 -16000.00000000 590.00000000 34 106 185 0.000000 0.000000 0.000000 0.000000 -60.708740 0.000000 156.000000 0.883332 -0.042193 -0.466846
3460.00000000 -16020.00000000 570.00000000 34 106 185 0.000000 0.000000 0.000000 0.000000 -60.708740 0.000000 156.000000 0.926946 0.062327 -0.369983
3510.00000000 -15980.00000000 550.00000000 34 106 185 0.000000 0.000000 0.000000 0.000000 -60.708740 0.000000 156.000000 0.691244 0.419388 -0.588469
3510.00000000 -15980.00000000 560.00000000 34 106 185 0.000000 0.000000 0.000000 0.000000 -60.708740 0.000000 156.000000 0.922687 0.122749 -0.365489
3460.00000000 -15960.00000000 490.00000000 34 106 185 0.000000 0.000000 0.000000 0.000000 -60.708740 0.000000 156.000000 0.660074 0.414001 -0.626821
3400.00000000 -15930.00000000 520.00000000 34 106 185 0.000000 0.000000 0.000000 0.000000 -60.708740 0.000000 156.000000 -0.511588 -0.384909 0.768194
3420.00000000 -16000.00000000 630.00000000 34 106 185 0.000000 0.000000 0.000000 0.000000 -60.708740 0.000000 156.000000 0.762334 0.129791 -0.634035
3530.00000000 -16060.00000000 600.00000000 34 106 185 0.000000 0.000000 0.000000 0.000000 -60.708740 0.000000 156.000000 0.784732 0.040857 -0.618487
3490.00000000 -16080.00000000 640.00000000 34 106 185 0.000000 0.000000 0.000000 0.000000 -60.708740 0.000000 156.000000 0.861894 -0.236983 -0.448306
3520.00000000 -16090.00000000 570.00000000 34 106 185 0.000000 0.000000 0.000000 0.000000 -60.708740 0.000000 156.000000 0.932410 0.158855 -0.324617
3530.00000000 -16080.00000000 590.00000000 34 106 185 0.000000 0.000000 0.000000 0.000000 -60.708740 0.000000 156.000000 0.963764 -0.023267 -0.265739
3450.00000000 -16050.00000000 580.00000000 34 106 185 0.000000 0.000000 0.000000 0.000000 -60.708740 0.000000 156.000000 0.796539 -0.161115 -0.582724
3460.00000000 -16080.00000000 560.00000000 34 106 185 0.000000 0.000000 0.000000 0.000000 -60.708740 0.000000 156.000000 0.966654 0.035530 -0.253609
3470.00000000 -16070.00000000 530.00000000 34 106 185 0.000000 0.000000 0.000000 0.000000 -60.708740 0.000000 156.000000 0.777104 -0.029404 -0.628684
3460.00000000 -16110.00000000 510.00000000 34 106 185 0.000000 0.000000 0.000000 0.000000 -60.708740 0.000000 156.000000 0.673127 0.552266 -0.491836
3480.00000000 -16160.00000000 590.00000000 34 106 185 0.000000 0.000000 0.000000 0.000000 -60.708740 0.000000 156.000000 0.822526 0.112096 -0.557571
3500.00000000 -16140.00000000 520.00000000 34 106 185 0.000000 0.000000 0.000000 0.000000 -60.708740 0.000000 156.000000 0.985492 0.160538 -0.055075
3510.00000000 -16180.00000000 510.00000000 34 106 185 0.000000 0.000000 0.000000 0.000000 -60.708740 0.000000 156.000000 0.927899 0.242987 -0.282775
3390.00000000 -16060.00000000 590.00000000 34 106 185 0.000000 0.000000 0.000000 0.000000 -60.708740 0.000000 156.000000 -0.676566 -0.058894 0.734023
3400.00000000 -16120.00000000 560.00000000 34 106 185 0.000000 0.000000 0.000000 0.000000 -60.708740 0.000000 156.000000 0.778549 0.297727 -0.552467
3410.00000000 -16050.00000000 510.00000000 34 106 185 0.000000 0.000000 0.000000 0.000000 -60.708740 0.000000 156.000000 0.944193 -0.110533 -0.310292
3410.00000000 -16040.00000000 500.00000000 34 106 185 0.000000 0.000000 0.000000 0.000000 -60.708740 0.000000 156.000000 0.853526 0.209242 -0.477192
3410.00000000 -16090.00000000 460.00000000 34 106 185 0.000000 0.000000 0.000000 0.000000 -60.708740 0.000000 156.000000 0.686436 0.395321 -0.610349
3390.00000000 -16160.00000000 450.00000000 34 106 185 0.000000 0.000000 0.000000 0.000000 -60.708740 0.000000 156.000000 0.853360 0.307086 -0.421279
3410.00000000 -16130.00000000 450.00000000 34 106 185 0.000000 0.000000 0.000000 0.000000 -60.708740 0.000000 156.000000 0.696920 0.479655 -0.533136
3690.00000000 -15950.00000000 50.00000000 34 106 185 0.000000 0.000000 0.000000 0.000000 -60.708740 0.000000 156.000000 0.026364 0.310086 0.950343
3680.00000000 -15900.00000000 10.00000000 34 106 185 0.000000 0.000000 0.000000 0.000000 -60.708740 0.000000 156.000000 0.032832 0.395291 0.917969
3690.00000000 -15870.00000000 40.00000000 34 106 185 0.000000 0.000000 0.000000 0.000000 -60.708740 0.000000 156.000000 -0.490619 0.490619 0.720129
3670.00000000 -15990.00000000 30.00000000 34 106 185 0.000000 0.000000 0.000000 0.000000 -60.708740 0.000000 156.000000 -0.148189 0.435934 0.887694
3560.00000000 -15870.00000000 60.00000000 34 106 185 0.000000 0.000000 0.000000 0.000000 -60.708740 0.000000 156.000000 0.283049 0.663645 0.692430
3540.00000000 -15970.00000000 20.00000000 34 106 185 0.000000 0.000000 0.000000 0.000000 -60.708740 0.000000 156.000000 -0.176188 0.669513 0.721603
3560.00000000 -15970.00000000 20.00000000 34 106 185 0.000000 0.000000 0.000000 0.000000 -60.708740 0.000000 156.000000 0.409113 0.380680 0.829283
3570.00000000 -15990.00000000 60.00000000 34 106 185 0.000000 0.000000 0.000000 0.000000 -60.708740 0.000000 156.000000 0.141086 -0.812361 -0.565831
3560.00000000 -15960.00000000 10.00000000 34 106 185 0.000000 0.000000 0.000000 0.000000 -60.708740 0.000000 156.000000 0.130529 0.834506 0.535316
3600.00000000 -16180.00000000 170.00000000 34 106 185 0.000000 0.000000 0.000000 0.000000 -60.708740 0.000000 156.000000 0.593249 0.478969 0.647028
3610.00000000 -16180.00000000 150.00000000 34 106 185 0.000000 0.000000 0.000000 0.000000 -60.708740 0.000000 156.000000 0.438716 0.378093 0.815214
3580.00000000 -16140.00000000 140.00000000 34 106 185 0.000000 0.000000 0.000000 0.000000 -60.708740 0.000000 156.000000 0.660809 0.563285 0.496027
3570.00000000 -16140.00000000 140.00000000 34 106 185 0.000000 0.000000 0.000000 0.000000 -60.708740 0.000000 156.000000 0.395867 0.641007 0.657570
3480.00000000 -15930.00000000 10.00000000 34 106 185 0.000000 0.000000 0.000000 0.000000 -60.708740 0.000000 156.000000 0.600043 0.600043 0.529052
3490.00000000 -16000.00000000 50.00000000 34 106 185 0.000000 0.000000 0.000000 0.000000 -60.708740 0.000000 156.000000 0.456025 0.745773 0.485658
3520.00000000 -16130.00000000 170.00000000 34 106 185 0.000000 0.000000 0.000000 0.000000 -60.708740 0.000000 156.000000 0.355438 0.855224 0.377168
3500.00000000 -16040.00000000 70.00000000 34 106 185 0.000000 0.000000 0.000000 0.000000 -60.708740 0.000000 156.000000 0.314265 0.365883 0.875995
3490.00000000 -16040.00000000 80.00000000 34 106 185 0.000000 0.000000 0.000000 0.000000 -60.708740 0.000000 156.000000 0.382113 0.521950 0.762600
3560.00000000 -16250.00000000 650.00000000 34 106 185 0.000000 0.000000 0.000000 0.000000 -60.708740 0.000000 156.000000 0.819368 -0.096821 -0.565032
3540.00000000 -16230.00000000 620.00000000 34 106 185 0.000000 0.000000 0.000000 0.000000 -60.708740 0.000000 156.000000 0.686975 0.286640 -0.667759
3580.00000000 -16250.00000000 640.00000000 34 106 185 0.000000 0.000000 0.000000 0.000000 -60.708740 0.000000 156.000000 0.666202 0.572229 -0.478256
3550.00000000 -16270.00000000 600.00000000 34 106 185 0.000000 0.000000 0.000000 0.000000 -60.708740 0.000000 156.000000 0.772297 0.032355 -0.634437
3560.00000000 -16270.00000000 610.00000000 34 106 185 0.000000 0.000000 0.000000 0.000000 -60.708740 0.000000 156.000000 0.858899 0.205356 -0.469172
3550.00000000 -16290.00000000 560.00000000 34 106 185 0.000000 0.000000 0.000000 0.000000 -60.708740 0.000000 156.000000 0.900882 0.430857 0.052675
3650.00000000 -16220.00000000 340.00000000 34 106 185 0.000000 0.000000 0.000000 0.000000 -60.708740 0.000000 156.000000 0.595217 0.800760 0.067087
3640.00000000 -16290.00000000 370.00000000 34 106 185 0.000000 0.000000 0.000000 0.000000 -60.708740 0.000000 156.000000 0.433222 0.888033 0.154002
3690.00000000 -16300.00000000 390.00000000 34 106 185 0.000000 0.000000 0.000000 0.000000 -60.708740 0.000000 156.000000 0.706226 0.628297 0.326325
3530.00000000 -16210.00000000 620.00000000 34 106 185 0.000000 0.000000 0.000000 0.000000 -60.708740 0.000000 156.000000 0.924559 0.099108 -0.367923
3470.00000000 -16210.00000000 610.00000000 34 106 185 0.000000 0.000000 0.000000 0.000000 -60.708740 0.000000 156.000000 0.755844 0.619264 -0.212630
3510.00000000 -16260.00000000 630.00000000 34 106 185 0.000000 0.000000 0.000000 0.000000 -60.708740 0.000000 156.000000 -0.619909 -0.275692 0.734648
3380.00000000 -16230.00000000 590.00000000 34 106 185 0.000000 0.000000 0.000000 0.000000 -60.708740 0.000000 156.000000 0.904062 0.107262 -0.413723
3380.00000000 -16270.00000000 550.00000000 34 106 185 0.000000 0.000000 0.000000 0.000000 -60.708740 0.000000 156.000000 0.853028 0.514095 0.089717
3690.00000000 -16270.00000000 230.00000000 34 106 185 0.000000 0.000000 0.000000 0.000000 -60.708740 0.000000 156.000000 0.420463 0.813748 0.401279
3680.00000000 -16290.00000000 260.00000000 34 106 185 0.000000 0.000000 0.000000 0.000000 -60.708740 0.000000 156.000000 0.358762 0.614319 0.702781
3640.00000000 -16290.00000000 260.00000000 34 106 185 0.000000 0.000000 0.000000 0.000000 -60.708740 0.000000 156.000000 0.511199 0.477896 0.714347
3570.00000000 -16240.00000000 250.00000000 34 106 185 0.000000 0.000000 0.000000 0.000000 -60.708740 0.000000 156.000000 0.415543 0.696986 0.584409
3560.00000000 -16260.00000000 260.00000000 34 106 185 0.000000 0.000000 0.000000 0.000000 -60.708740 0.000000 156.000000 0.321118 0.851660 0.414195
3460.00000000 -16220.00000000 150.00000000 34 106 185 0.000000 0.000000 0.000000 0.000000 -60.708740 0.000000 156.000000 0.645655 0.740739 0.185568
3470.00000000 -16250.00000000 120.00000000 34 106 185 0.000000 0.000000 0.000000 0.000000 -60.708740 0.000000 156.000000 0.581344 0.799535 0.150940
3490.00000000 -16270.00000000 130.00000000 34 106 185 0.000000 0.000000 0.000000 0.000000 -60.708740 0.000000 156.000000 0.137024 0.872629 0.468768
3460.00000000 -16210.00000000 140.00000000 34 106 185 0.000000 0.000000 0.000000 0.000000 -60.708740 0.000000 156.000000 0.357572 0.525841 0.771773
3450.00000000 -16220.00000000 100.00000000 34 106 185 0.000000 0.000000 0.000000 0.000000 -60.708740 0.000000 156.000000 0.792474 0.483843 0.371322
3340.00000000 -15980.00000000 520.00000000 34 106 185 0.000000 0.000000 0.000000 0.000000 -60.708740 0.000000 156.000000 0.618963 0.578486 -0.531262
3640.00000000 -15840.00000000 -40.00000000 34 106 185 0.000000 0.000000 0.000000 0.000000 -60.708740 0.000000 156.000000 -0.119618 0.420773 0.899245
3630.00000000 -15790.00000000 -20.00000000 34 106 185 0.000000 0.000000 0.000000 0.000000 -60.708740 0.000000 156.000000 -0.112099 0.548850 0.828370
3690.00000000 -15820.00000000 -170.00000000 34 106 185 0.000000 0.000000 0.000000 0.000000 -60.708740 0.000000 156.000000 -0.174870 0.137128 0.974995
3670.00000000 -15850.00000000 -200.00000000 34 106 185 0.000000 0.000000 0.000000 0.000000 -60.708740 0.000000 156.000000 -0.027678 0.114034 0.993091
3660.00000000 -15830.00000000 -200.00000000 34 106 185 0.000000 0.000000 0.000000 0.000000 -60.708740 0.000000 156.000000 0.044202 0.201894 0.978409
3660.00000000 -15830.00000000 -230.00000000 34 106 185 0.000000 0.000000 0.000000 0.000000 -60.708740 0.000000 156.000000 -0.218196 0.294212 0.930500
3240.00000000 -15750.00000000 -270.00000000 34 106 185 0.000000 0.000000 0.000000 0.000000 -60.708740 0.000000 156.000000 0.461013 0.652124 0.601832
3360.00000000 -15850.00000000 -250.00000000 34 106 185 0.000000 0.000000 0.000000 0.000000 -60.708740 0.000000 156.000000 0.219742 0.628056 0.746498
3120.00000000 -15820.00000000 -330.00000000 34 106 185 0.000000 0.000000 0.000000 0.000000 -60.708740 0.000000 156.000000 0.413089 0.691799 0.592260
3130.00000000 -15830.00000000 -310.00000000 34 106 185 0.000000 0.000000 0.000000 0.000000 -60.708740 0.000000 156.000000 0.435085 0.853258 0.287494
3670.00000000 -15950.00000000 -100.00000000 34 106 185 0.000000 0.000000 0.000000 0.000000 -60.708740 0.000000 156.000000 -0.348757 0.291879 0.890604
3640.00000000 -15990.00000000 -100.00000000 34 106 185 0.000000 0.000000 0.000000 0.000000 -60.708740 0.000000 156.000000 -0.207519 0.279942 0.937320
3670.00000000 -15980.00000000 -110.00000000 34 106 185 0.000000 0.000000 0.000000 0.000000 -60.708740 0.000000 156.000000 0.094564 0.225693 0.969598
3650.00000000 -15970.00000000 -150.00000000 34 106 185 0.000000 0.000000 0.000000 0.000000 -60.708740 0.000000 156.000000 0.254293 -0.728131 -0.636522
3620.00000000 -15990.00000000 -130.00000000 34 106 185 0.000000 0.000000 0.000000 0.000000 -60.708740 0.000000 156.000000 0.107730 0.754108 0.647854
3610.00000000 -15990.00000000 -120.00000000 34 106 185 0.000000 0.000000 0.000000 0.000000 -60.708740 0.000000 156.000000 0.155164 0.769792 0.619148
3550.00000000 -16000.00000000 -110.00000000 34 106 185 0.000000 0.000000 0.000000 0.000000 -60.708740 0.000000 156.000000 -0.107981 0.430520 0.896099
3610.00000000 -16000.00000000 -140.00000000 34 106 185 0.000000 0.000000 0.000000 0.000000 -60.708740 0.000000 156.000000 -0.286765 0.195333 0.937876
3680.00000000 -15870.00000000 -270.00000000 34 106 185 0.000000 0.000000 0.000000 0.000000 -60.708740 0.000000 156.000000 -0.570924 0.221252 0.790629
3680.00000000 -15900.00000000 -220.00000000 34 106 185 0.000000 0.000000 0.000000 0.000000 -60.708740 0.000000 156.000000 -0.150614 0.123675 0.980826
3600.00000000 -15920.00000000 -210.00000000 34 106 185 0.000000 0.000000 0.000000 0.000000 -60.708740 0.000000 156.000000 -0.323363 0.149985 0.934313
3600.00000000 -15890.00000000 -220.00000000 34 106 185 0.000000 0.000000 0.000000 0.000000 -60.708740 0.000000 156.000000 0.049909 -0.683041 -0.728673
3610.00000000 -15890.00000000 -200.00000000 34 106 185 0.000000 0.000000 0.000000 0.000000 -60.708740 0.000000 156.000000 -0.211128 0.514908 0.830840
3630.00000000 -16050.00000000 -80.00000000 34 106 185 0.000000 0.000000 0.000000 0.000000 -60.708740 0.000000 156.000000 -0.086532 0.416179 0.905156
3640.00000000 -16080.00000000 -130.00000000 34 106 185 0.000000 0.000000 0.000000 0.000000 -60.708740 0.000000 156.000000 -0.127700 0.469191 0.873815
3480.00000000 -15890.00000000 -240.00000000 34 106 185 0.000000 0.000000 0.000000 0.000000 -60.708740 0.000000 156.000000 0.064167 0.588908 0.805649
3480.00000000 -15930.00000000 -270.00000000 34 106 185 0.000000 0.000000 0.000000 0.000000 -60.708740 0.000000 156.000000 0.224007 0.312469 0.923138
3530.00000000 -15890.00000000 -210.00000000 34 106 185 0.000000 0.000000 0.000000 0.000000 -60.708740 0.000000 156.000000 -0.341768 0.562055 0.753186
3480.00000000 -15910.00000000 -240.00000000 34 106 185 0.000000 0.000000 0.000000 0.000000 -60.708740 0.000000 156.000000 0.172287 0.241736 0.954924
3450.00000000 -15960.00000000 -230.00000000 34 106 185 0.000000 0.000000 0.000000 0.000000 -60.708740 0.000000 156.000000 0.350182 0.390648 0.851332
3450.00000000 -16000.00000000 -230.00000000 34 106 185 0.000000 0.000000 0.000000 0.000000 -60.708740 0.000000 156.000000 -0.026690 0.726248 0.686915
3380.00000000 -16010.00000000 -210.00000000 34 106 185 0.000000 0.000000 0.000000 0.000000 -60.708740 0.000000 156.000000 -0.068482 0.501732 0.862308
3490.00000000 -16080.00000000 -150.00000000 34 106 185 0.000000 0.000000 0.000000 0.000000 -60.708740 0.000000 156.000000 0.044050 0.689163 0.723266
3460.00000000 -16080.00000000 -170.00000000 34 106 185 0.000000 0.000000 0.000000 0.000000 -60.708740 0.000000 156.000000 -0.199936 0.699001 0.686602
3470.00000000 -16050.00000000 -160.00000000 34 106 185 0.000000 0.000000 0.000000 0.000000 -60.708740 0.000000 156.000000 0.082856 0.869290 0.487308
3510.00000000 -16100.00000000 -130.00000000 34 106 185 0.000000 0.000000 0.000000 0.000000 -60.708740 0.000000 156.000000 -0.029925 0.378615 0.925070
3500.00000000 -16090.00000000 -140.00000000 34 106 185 0.000000 0.000000 0.000000 0.000000 -60.708740 0.000000 156.000000 0.366446 0.439417 0.820140
3460.00000000 -16050.00000000 -140.00000000 34 106 185 0.000000 0.000000 0.000000 0.000000 -60.708740 0.000000 156.000000 0.245854 0.432884 0.867276
3400.00000000 -16070.00000000 -140.00000000 34 106 185 0.000000 0.000000 0.000000 0.000000 -60.708740 0.000000 156.000000 0.096273 0.364751 0.926115
3430.00000000 -16100.00000000 -130.00000000 34 106 185 0.000000 0.000000 0.000000 0.000000 -60.708740 0.000000 156.000000 -0.023359 0.542761 0.839562
3300.00000000 -15910.00000000 -250.00000000 34 106 185 0.000000 0.000000 0.000000 0.000000 -60.708740 0.000000 156.000000 0.205409 0.820113 0.534062
3350.00000000 -16020.00000000 -230.00000000 34 106 185 0.000000 0.000000 0.000000 0.000000 -60.708740 0.000000 156.000000 0.530906 0.541018 0.652256
3310.00000000 -15990.00000000 -230.00000000 34 106 185 0.000000 0.000000 0.000000 0.000000 -60.708740 0.000000 156.000000 0.447131 0.795796 0.408390
3360.00000000 -15990.00000000 -240.00000000 34 106 185 0.000000 0.000000 0.000000 0.000000 -60.708740 0.000000 156.000000 -0.016881 0.396056 0.918071
3110.00000000 -15910.00000000 -300.00000000 34 106 185 0.000000 0.000000 0.000000 0.000000 -60.708740 0.000000 156.000000 0.293999 0.458888 0.838443
3170.00000000 -15870.00000000 -300.00000000 34 106 185 0.000000 0.000000 0.000000 0.000000 -60.708740 0.000000 156.000000 0.654902 0.359458 0.664750
3180.00000000 -15880.00000000 -290.00000000 34 106 185 0.000000 0.000000 0.000000 0.000000 -60.708740 0.000000 156.000000 0.117524 0.709605 0.694729
3910.00000000 -15740.00000000 700.00000000 34 106 185 0.000000 0.000000 0.000000 0.000000 -60.708740 0.000000 156.000000 0.401687 0.686009 0.606663
3850.00000000 -15800.00000000 680.00000000 34 106 185 0.000000 0.000000 0.000000 0.000000 -60.708740 0.000000 156.000000 0.130210 0.835393 0.534008
3860.00000000 -15760.00000000 710.00000000 34 106 185 0.000000 0.000000 0.000000 0.000000 -60.708740 0.000000 156.000000 0.408299 0.699233 0.586827
3870.00000000 -15780.00000000 720.00000000 34 106 185 0.000000 0.000000 0.000000 0.000000 -60.708740 0.000000 156.000000 -0.027816 0.425186 0.904679
3760.00000000 -15840.00000000 720.00000000 34 106 185 0.000000 0.000000 0.000000 0.000000 -60.708740 0.000000 156.000000 -0.158520 0.514077 0.842969
3840.00000000 -15660.00000000 80.00000000 34 106 185 0.000000 0.000000 0.000000 0.000000 -60.708740 0.000000 156.000000 -0.616874 -0.379994 0.689254
3750.00000000 -15640.00000000 100.00000000 34 106 185 0.000000 0.000000 0.000000 0.000000 -60.708740 0.000000 156.000000 -0.585476 -0.422936 0.691624
3820.00000000 -15670.00000000 120.00000000 34 106 185 0.000000 0.000000 0.000000 0.000000 -60.708740 0.000000 156.000000 0.972751 0.231607 0.010690
3820.00000000 -15790.00000000 120.00000000 34 106 185 0.000000 0.000000 0.000000 0.000000 -60.708740 0.000000 156.000000 -0.574936 0.049200 0.816718
3740.00000000 -15740.00000000 80.00000000 34 106 185 0.000000 0.000000 0.000000 0.000000 -60.708740 0.000000 156.000000 0.918290 0.085454 -0.386577
3760.00000000 -15740.00000000 70.00000000 34 106 185 0.000000 0.000000 0.000000 0.000000 -60.708740 0.000000 156.000000 0.917923 0.038302 -0.394905
3740.00000000 -15700.00000000 50.00000000 34 106 185 0.000000 0.000000 0.000000 0.000000 -60.708740 0.000000 156.000000 0.796064 0.058388 -0.602389
3780.00000000 -15800.00000000 80.00000000 34 106 185 0.000000 0.000000 0.000000 0.000000 -60.708740 0.000000 156.000000 -0.415064 0.200932 0.887327
3710.00000000 -15800.00000000 60.00000000 34 106 185 0.000000 0.000000 0.000000 0.000000 -60.708740 0.000000 156.000000 -0.377049 -0.214001 0.901132
3410.00000000 -15830.00000000 680.00000000 34 106 185 0.000000 0.000000 0.000000 0.000000 -60.708740 0.000000 156.000000 0.816968 -0.176032 -0.549159
3450.00000000 -15810.00000000 680.00000000 34 106 185 0.000000 0.000000 0.000000 0.000000 -60.708740 0.000000 156.000000 -0.314861 -0.155368 0.936335
3490.00000000 -15800.00000000 660.00000000 34 106 185 0.000000 0.000000 0.000000 0.000000 -60.708740 0.000000 156.000000 -0.181805 0.019686 0.983137
3530.00000000 -15840.00000000 660.00000000 34 106 185 0.000000 0.000000 0.000000 0.000000 -60.708740 0.000000 156.000000 -0.072350 0.419085 0.905060
3540.00000000 -15690.00000000 670.00000000 34 106 185 0.000000 0.000000 0.000000 0.000000 -60.708740 0.000000 156.000000 0.322453 -0.682174 -0.656249
3550.00000000 -15860.00000000 640.00000000 34 106 185 0.000000 0.000000 0.000000 0.000000 -60.708740 0.000000 156.000000 -0.426112 0.086877 0.900489
3590.00000000 -15750.00000000 630.00000000 34 106 185 0.000000 0.000000 0.000000 0.000000 -60.708740 0.000000 156.000000 -0.290217 0.362395 0.885688
3500.00000000 -15650.00000000 650.00000000 34 106 185 0.000000 0.000000 0.000000 0.000000 -60.708740 0.000000 156.000000 -0.147254 0.142305 0.978808
3490.00000000 -15730.00000000 620.00000000 34 106 185 0.000000 0.000000 0.000000 0.000000 -60.708740 0.000000 156.000000 -0.518815 -0.014901 0.854757
3640.00000000 -15800.00000000 40.00000000 34 106 185 0.000000 0.000000 0.000000 0.000000 -60.708740 0.000000 156.000000 -0.506170 -0.089324 0.857795
3840.00000000 -15930.00000000 750.00000000 34 106 185 0.000000 0.000000 0.000000 0.000000 -60.708740 0.000000 156.000000 0.122897 0.236738 0.963769
3860.00000000 -15990.00000000 760.00000000 34 106 185 0.000000 0.000000 0.000000 0.000000 -60.708740 0.000000 156.000000 -0.141632 0.382828 0.912898
3840.00000000 -16000.00000000 770.00000000 34 106 185 0.000000 0.000000 0.000000 0.000000 -60.708740 0.000000 156.000000 -0.312125 0.642039 0.700260
3850.00000000 -16020.00000000 790.00000000 34 106 185 0.000000 0.000000 0.000000 0.000000 -60.708740 0.000000 156.000000 -0.281514 0.198308 0.938842
3860.00000000 -16020.00000000 750.00000000 34 106 185 0.000000 0.000000 0.000000 0.000000 -60.708740 0.000000 156.000000 -0.310312 0.292664 0.904464
3710.00000000 -15900.00000000 730.00000000 34 106 185 0.000000 0.000000 0.000000 0.000000 -60.708740 0.000000 156.000000 -0.332353 0.734420 0.591751
3700.00000000 -15960.00000000 720.00000000 34 106 185 0.000000 0.000000 0.000000 0.000000 -60.708740 0.000000 156.000000 0.083235 0.495177 0.864796
3780.00000000 -16050.00000000 770.00000000 34 106 185 0.000000 0.000000 0.000000 0.000000 -60.708740 0.000000 156.000000 -0.463859 0.490271 0.737882
3760.00000000 -16110.00000000 740.00000000 34 106 185 0.000000 0.000000 0.000000 0.000000 -60.708740 0.000000 156.000000 -0.252188 0.460052 0.851325
3720.00000000 -16080.00000000 750.00000000 34 106 185 0.000000 0.000000 0.000000 0.000000 -60.708740 0.000000 156.000000 -0.177549 0.502806 0.845968
3720.00000000 -16350.00000000 660.00000000 34 106 185 0.000000 0.000000 0.000000 0.000000 -60.708740 0.000000 156.000000 0.720669 0.080074 -0.688639
3810.00000000 -16320.00000000 780.00000000 34 106 185 0.000000 0.000000 0.000000 0.000000 -60.708740 0.000000 156.000000 -0.313133 0.249641 0.916312
3820.00000000 -16390.00000000 730.00000000 34 106 185 0.000000 0.000000 0.000000 0.000000 -60.708740 0.000000 156.000000 0.729306 0.431630 -0.530856
3810.00000000 -16200.00000000 460.00000000 34 106 185 0.000000 0.000000 0.000000 0.000000 -60.708740 0.000000 156.000000 0.446083 0.882062 0.151582
3870.00000000 -15960.00000000 160.00000000 34 106 185 0.000000 0.000000 0.000000 0.000000 -60.708740 0.000000 156.000000 0.728652 -0.212847 -0.650970
3860.00000000 -15980.00000000 160.00000000 34 106 185 0.000000 0.000000 0.000000 0.000000 -60.708740 0.000000 156.000000 0.827137 0.162447 -0.538011
3820.00000000 -15910.00000000 130.00000000 34 106 185 0.000000 0.000000 0.000000 0.000000 -60.708740 0.000000 156.000000 0.715628 0.064795 -0.695470
3810.00000000 -15960.00000000 90.00000000 34 106 185 0.000000 0.000000 0.000000 0.000000 -60.708740 0.000000 156.000000 0.767168 0.035191 -0.640480
3760.00000000 -15870.00000000 70.00000000 34 106 185 0.000000 0.000000 0.000000 0.000000 -60.708740 0.000000 156.000000 -0.225439 0.185421 0.956450
3710.00000000 -15930.00000000 70.00000000 34 106 185 0.000000 0.000000 0.000000 0.000000 -60.708740 0.000000 156.000000 -0.139375 0.169510 0.975623
3770.00000000 -15940.00000000 130.00000000 34 106 185 0.000000 0.000000 0.000000 0.000000 -60.708740 0.000000 156.000000 -0.556510 0.063723 0.828393
3770.00000000 -16090.00000000 100.00000000 34 106 185 0.000000 0.000000 0.000000 0.000000 -60.708740 0.000000 156.000000 -0.294665 0.135896 0.945888
3830.00000000 -16190.00000000 140.00000000 34 106 185 0.000000 0.000000 0.000000 0.000000 -60.708740 0.000000 156.000000 -0.394626 0.462276 0.794085
3930.00000000 -16210.00000000 370.00000000 34 106 185 0.000000 0.000000 0.000000 0.000000 -60.708740 0.000000 156.000000 -0.293574 0.553824 0.779162
3910.00000000 -16260.00000000 410.00000000 34 106 185 0.000000 0.000000 0.000000 0.000000 -60.708740 0.000000 156.000000 -0.349950 0.340781 0.872584
3890.00000000 -16220.00000000 340.00000000 34 106 185 0.000000 0.000000 0.000000 0.000000 -60.708740 0.000000 156.000000 -0.298458 0.519539 0.800626
3860.00000000 -16250.00000000 380.00000000 34 106 185 0.000000 0.000000 0.000000 0.000000 -60.708740 0.000000 156.000000 0.001336 0.498295 0.867007
3760.00000000 -16340.00000000 470.00000000 34 106 185 0.000000 0.000000 0.000000 0.000000 -60.708740 0.000000 156.000000 0.784987 0.619436 0.009657
3820.00000000 -16420.00000000 600.00000000 34 106 185 0.000000 0.000000 0.000000 0.000000 -60.708740 0.000000 156.000000 0.780158 0.625507 0.009666
3760.00000000 -16290.00000000 260.00000000 34 106 185 0.000000 0.000000 0.000000 0.000000 -60.708740 0.000000 156.000000 0.415981 0.771605 0.481233
3660.00000000 -15920.00000000 750.00000000 34 106 185 0.000000 0.000000 0.000000 0.000000 -60.708740 0.000000 156.000000 -0.056907 0.503831 0.861926
3630.00000000 -15880.00000000 720.00000000 34 106 185 0.000000 0.000000 0.000000 0.000000 -60.708740 0.000000 156.000000 -0.449769 0.324398 0.832150
3660.00000000 -15920.00000000 720.00000000 34 106 185 0.000000 0.000000 0.000000 0.000000 -60.708740 0.000000 156.000000 -0.509765 0.001338 0.860313
3630.00000000 -16000.00000000 750.00000000 34 106 185 0.000000 0.000000 0.000000 0.000000 -60.708740 0.000000 156.000000 -0.407086 0.240076 0.881274
3620.00000000 -16000.00000000 700.00000000 34 106 185 0.000000 0.000000 0.000000 0.000000 -60.708740 0.000000 156.000000 0.339015 -0.531820 -0.776039
3610.00000000 -15900.00000000 710.00000000 34 106 185 0.000000 0.000000 0.000000 0.000000 -60.708740 0.000000 156.000000 -0.454137 0.261473 0.851699
3650.00000000 -16060.00000000 670.00000000 34 106 185 0.000000 0.000000 0.000000 0.000000 -60.708740 0.000000 156.000000 -0.635687 -0.165370 0.754025
3560.00000000 -16150.00000000 740.00000000 34 106 185 0.000000 0.000000 0.000000 0.000000 -60.708740 0.000000 156.000000 0.806656 -0.088025 -0.584429
3460.00000000 -16190.00000000 690.00000000 34 106 185 0.000000 0.000000 0.000000 0.000000 -60.708740 0.000000 156.000000 0.960739 0.093888 -0.261084
3570.00000000 -16240.00000000 660.00000000 34 106 185 0.000000 0.000000 0.000000 0.000000 -60.708740 0.000000 156.000000 0.820807 -0.037626 -0.569966
3640.00000000 -16430.00000000 670.00000000 34 106 185 0.000000 0.000000 0.000000 0.000000 -60.708740 0.000000 156.000000 0.784370 0.324291 -0.528771
3650.00000000 -16390.00000000 730.00000000 34 106 185 0.000000 0.000000 0.000000 0.000000 -60.708740 0.000000 156.000000 0.711085 0.603197 -0.361264
3590.00000000 -16430.00000000 690.00000000 34 106 185 0.000000 0.000000 0.000000 0.000000 -60.708740 0.000000 156.000000 0.953133 0.237947 -0.186863
3570.00000000 -16390.00000000 660.00000000 34 106 185 0.000000 0.000000 0.000000 0.000000 -60.708740 0.000000 156.000000 0.870564 0.399578 -0.287149
3600.00000000 -16480.00000000 740.00000000 34 106 185 0.000000 0.000000 0.000000 0.000000 -60.708740 0.000000 156.000000 0.751689 0.651660 -0.101500
3530.00000000 -16260.00000000 660.00000000 34 106 185 0.000000 0.000000 0.000000 0.000000 -60.708740 0.000000 156.000000 0.620587 0.620587 -0.479315
3580.00000000 -16030.00000000 640.00000000 34 106 185 0.000000 0.000000 0.000000 0.000000 -60.708740 0.000000 156.000000 0.784732 -0.040857 -0.618487
3580.00000000 -15970.00000000 650.00000000 34 106 185 0.000000 0.000000 0.000000 0.000000 -60.708740 0.000000 156.000000 -0.482386 -0.106723 0.869433
3560.00000000 -16160.00000000 580.00000000 34 106 185 0.000000 0.000000 0.000000 0.000000 -60.708740 0.000000 156.000000 0.699302 0.398420 -0.593497
3550.00000000 -16070.00000000 640.00000000 34 106 185 0.000000 0.000000 0.000000 0.000000 -60.708740 0.000000 156.000000 -0.540551 0.346921 0.766453
3670.00000000 -16150.00000000 650.00000000 34 106 185 0.000000 0.000000 0.000000 0.000000 -60.708740 0.000000 156.000000 0.615006 0.362444 -0.700287
3540.00000000 -16180.00000000 550.00000000 34 106 185 0.000000 0.000000 0.000000 0.000000 -60.708740 0.000000 156.000000 -0.595217 -0.409523 0.691381
3690.00000000 -16200.00000000 400.00000000 34 106 185 0.000000 0.000000 0.000000 0.000000 -60.708740 0.000000 156.000000 0.541082 0.707568 0.454509
3510.00000000 -15970.00000000 550.00000000 34 106 185 0.000000 0.000000 0.000000 0.000000 -60.708740 0.000000 156.000000 -0.527346 -0.171798 0.832101
3520.00000000 -15960.00000000 560.00000000 34 106 185 0.000000 0.000000 0.000000 0.000000 -60.708740 0.000000 156.000000 -0.487167 -0.233657 0.841470
3430.00000000 -15920.00000000 630.00000000 34 106 185 0.000000 0.000000 0.000000 0.000000 -60.708740 0.000000 156.000000 0.819387 0.009575 -0.573161
3440.00000000 -15950.00000000 610.00000000 34 106 185 0.000000 0.000000 0.000000 0.000000 -60.708740 0.000000 156.000000 0.808153 0.026428 -0.588380
3390.00000000 -15940.00000000 510.00000000 34 106 185 0.000000 0.000000 0.000000 0.000000 -60.708740 0.000000 156.000000 -0.625387 -0.428598 0.652070
3430.00000000 -15990.00000000 640.00000000 34 106 185 0.000000 0.000000 0.000000 0.000000 -60.708740 0.000000 156.000000 -0.461433 0.165530 0.871596
3520.00000000 -16060.00000000 600.00000000 34 106 185 0.000000 0.000000 0.000000 0.000000 -60.708740 0.000000 156.000000 -0.717166 -0.175851 0.674351
3530.00000000 -16110.00000000 650.00000000 34 106 185 0.000000 0.000000 0.000000 0.000000 -60.708740 0.000000 156.000000 0.746831 -0.182491 -0.639484
3460.00000000 -16110.00000000 510.00000000 34 106 185 0.000000 0.000000 0.000000 0.000000 -60.708740 0.000000 156.000000 0.673127 0.552266 -0.491836
3510.00000000 -16120.00000000 540.00000000 34 106 185 0.000000 0.000000 0.000000 0.000000 -60.708740 0.000000 156.000000 -0.691610 -0.080081 0.717818
3510.00000000 -16200.00000000 640.00000000 34 106 185 0.000000 0.000000 0.000000 0.000000 -60.708740 0.000000 156.000000 0.896771 -0.003939 -0.442477
3510.00000000 -16180.00000000 530.00000000 34 106 185 0.000000 0.000000 0.000000 0.000000 -60.708740 0.000000 156.000000 0.679544 0.251859 -0.689048
3500.00000000 -16140.00000000 530.00000000 34 106 185 0.000000 0.000000 0.000000 0.000000 -60.708740 0.000000 156.000000 0.742018 0.282445 -0.607976
3430.00000000 -16070.00000000 570.00000000 34 106 185 0.000000 0.000000 0.000000 0.000000 -60.708740 0.000000 156.000000 0.968623 0.191666 -0.158221
3430.00000000 -16040.00000000 580.00000000 34 106 185 0.000000 0.000000 0.000000 0.000000 -60.708740 0.000000 156.000000 0.795068 0.337544 -0.503916
3440.00000000 -16100.00000000 590.00000000 34 106 185 0.000000 0.000000 0.000000 0.000000 -60.708740 0.000000 156.000000 0.973693 0.170934 -0.150676
3620.00000000 -15900.00000000 0.00000000 34 106 185 0.000000 0.000000 0.000000 0.000000 -60.708740 0.000000 156.000000 0.120040 0.275695 0.953721
3620.00000000 -15940.00000000 30.00000000 34 106 185 0.000000 0.000000 0.000000 0.000000 -60.708740 0.000000 156.000000 -0.202637 0.728566 0.654317
3630.00000000 -15960.00000000 40.00000000 34 106 185 0.000000 0.000000 0.000000 0.000000 -60.708740 0.000000 156.000000 -0.231759 0.586398 0.776160
3540.00000000 -15950.00000000 70.00000000 34 106 185 0.000000 0.000000 0.000000 0.000000 -60.708740 0.000000 156.000000 -0.199913 0.680324 0.705120
3590.00000000 -15960.00000000 30.00000000 34 106 185 0.000000 0.000000 0.000000 0.000000 -60.708740 0.000000 156.000000 0.213572 0.367576 0.905138
3550.00000000 -15970.00000000 20.00000000 34 106 185 0.000000 0.000000 0.000000 0.000000 -60.708740 0.000000 156.000000 0.247300 -0.637939 -0.729298
3560.00000000 -16120.00000000 190.00000000 34 106 185 0.000000 0.000000 0.000000 0.000000 -60.708740 0.000000 156.000000 0.461025 0.801573 0.380707
3560.00000000 -16150.00000000 150.00000000 34 106 185 0.000000 0.000000 0.000000 0.000000 -60.708740 0.000000 156.000000 0.446379 0.600188 0.663717
3600.00000000 -16150.00000000 150.00000000 34 106 185 0.000000 0.000000 0.000000 0.000000 -60.708740 0.000000 156.000000 0.152851 0.826585 0.541658
3670.00000000 -16150.00000000 160.00000000 34 106 185 0.000000 0.000000 0.000000 0.000000 -60.708740 0.000000 156.000000 -0.139111 0.614783 0.776331
3660.00000000 -16080.00000000 110.00000000 34 106 185 0.000000 0.000000 0.000000 0.000000 -60.708740 0.000000 156.000000 0.041946 0.455997 0.888992
3680.00000000 -16120.00000000 140.00000000 34 106 185 0.000000 0.000000 0.000000 0.000000 -60.708740 0.000000 156.000000 0.273427 0.576883 0.769704
3620.00000000 -16040.00000000 30.00000000 34 106 185 0.000000 0.000000 0.000000 0.000000 -60.708740 0.000000 156.000000 0.090981 0.579101 0.810163
3600.00000000 -16120.00000000 130.00000000 34 106 185 0.000000 0.000000 0.000000 0.000000 -60.708740 0.000000 156.000000 -0.001346 0.851981 0.523571
3590.00000000 -16140.00000000 40.00000000 34 106 185 0.000000 0.000000 0.000000 0.000000 -60.708740 0.000000 156.000000 0.417251 0.535995 0.733901
3530.00000000 -15940.00000000 -10.00000000 34 106 185 0.000000 0.000000 0.000000 0.000000 -60.708740 0.000000 156.000000 0.253160 0.432039 0.865594
3490.00000000 -15930.00000000 -10.00000000 34 106 185 0.000000 0.000000 0.000000 0.000000 -60.708740 0.000000 156.000000 0.342178 0.747602 0.569215
3460.00000000 -15990.00000000 80.00000000 34 106 185 0.000000 0.000000 0.000000 0.000000 -60.708740 0.000000 156.000000 0.451825 0.681906 0.575202
3420.00000000 -16160.00000000 140.00000000 34 106 185 0.000000 0.000000 0.000000 0.000000 -60.708740 0.000000 156.000000 0.465656 0.559121 0.685966
3640.00000000 -16350.00000000 580.00000000 34 106 185 0.000000 0.000000 0.000000 0.000000 -60.708740 0.000000 156.000000 0.805717 0.277996 -0.523009
3590.00000000 -16270.00000000 640.00000000 34 106 185 0.000000 0.000000 0.000000 0.000000 -60.708740 0.000000 156.000000 0.544750 0.464786 -0.698013
3540.00000000 -16280.00000000 510.00000000 34 106 185 0.000000 0.000000 0.000000 0.000000 -60.708740 0.000000 156.000000 0.752118 0.617644 0.229857
3580.00000000 -16300.00000000 620.00000000 34 106 185 0.000000 0.000000 0.000000 0.000000 -60.708740 0.000000 156.000000 0.685691 0.518040 -0.511334
3550.00000000 -16300.00000000 560.00000000 34 106 185 0.000000 0.000000 0.000000 0.000000 -60.708740 0.000000 156.000000 0.801994 0.577973 0.150841
3620.00000000 -16210.00000000 450.00000000 34 106 185 0.000000 0.000000 0.000000 0.000000 -60.708740 0.000000 156.000000 0.856562 0.501226 -0.122779
3470.00000000 -16370.00000000 560.00000000 34 106 185 0.000000 0.000000 0.000000 0.000000 -60.708740 0.000000 156.000000 0.937484 0.336431 -0.089094
3420.00000000 -16210.00000000 610.00000000 34 106 185 0.000000 0.000000 0.000000 0.000000 -60.708740 0.000000 156.000000 0.662182 0.484483 -0.571656
3490.00000000 -16250.00000000 470.00000000 34 106 185 0.000000 0.000000 0.000000 0.000000 -60.708740 0.000000 156.000000 0.917218 0.391939 -0.071384
3650.00000000 -16250.00000000 200.00000000 34 106 185 0.000000 0.000000 0.000000 0.000000 -60.708740 0.000000 156.000000 0.571656 0.484483 0.662182
3630.00000000 -16240.00000000 180.00000000 34 106 185 0.000000 0.000000 0.000000 0.000000 -60.708740 0.000000 156.000000 0.141189 0.569213 0.809977
3690.00000000 -16220.00000000 190.00000000 34 106 185 0.000000 0.000000 0.000000 0.000000 -60.708740 0.000000 156.000000 0.060613 0.545521 0.835902
3680.00000000 -16280.00000000 230.00000000 34 106 185 0.000000 0.000000 0.000000 0.000000 -60.708740 0.000000 156.000000 0.523043 0.785365 0.331101
3470.00000000 -16250.00000000 140.00000000 34 106 185 0.000000 0.000000 0.000000 0.000000 -60.708740 0.000000 156.000000 0.304114 0.784965 0.539763
3440.00000000 -16220.00000000 100.00000000 34 106 185 0.000000 0.000000 0.000000 0.000000 -60.708740 0.000000 156.000000 0.797948 0.480053 0.364455
3340.00000000 -16120.00000000 440.00000000 34 106 185 0.000000 0.000000 0.000000 0.000000 -60.708740 0.000000 156.000000 0.957337 0.282763 -0.059596
3720.00000000 -15810.00000000 -250.00000000 34 106 185 0.000000 0.000000 0.000000 0.000000 -60.708740 0.000000 156.000000 -0.393458 0.063114 0.917174
3600.00000000 -15850.00000000 -220.00000000 34 106 185 0.000000 0.000000 0.000000 0.000000 -60.708740 0.000000 156.000000 -0.548381 0.227076 0.804807
3580.00000000 -15860.00000000 -250.00000000 34 106 185 0.000000 0.000000 0.000000 0.000000 -60.708740 0.000000 156.000000 -0.336885 0.184652 0.923262
3220.00000000 -15830.00000000 -290.00000000 34 106 185 0.000000 0.000000 0.000000 0.000000 -60.708740 0.000000 156.000000 0.290859 0.673314 0.679742
3240.00000000 -15850.00000000 -280.00000000 34 106 185 0.000000 0.000000 0.000000 0.000000 -60.708740 0.000000 156.000000 0.669883 0.559075 0.488561
3190.00000000 -15850.00000000 -270.00000000 34 106 185 0.000000 0.000000 0.000000 0.000000 -60.708740 0.000000 156.000000 0.348244 0.382295 0.855907
3160.00000000 -15810.00000000 -320.00000000 34 106 185 0.000000 0.000000 0.000000 0.000000 -60.708740 0.000000 156.000000 0.386972 0.749453 0.537190
3190.00000000 -15810.00000000 -280.00000000 34 106 185 0.000000 0.000000 0.000000 0.000000 -60.708740 0.000000 156.000000 0.149709 0.543994 0.825626
3600.00000000 -15890.00000000 -220.00000000 34 106 185 0.000000 0.000000 0.000000 0.000000 -60.708740 0.000000 156.000000 0.049909 -0.683041 -0.728673
3380.00000000 -16000.00000000 -230.00000000 34 106 185 0.000000 0.000000 0.000000 0.000000 -60.708740 0.000000 156.000000 0.269814 0.470248 0.840278
3370.00000000 -16030.00000000 -230.00000000 34 106 185 0.000000 0.000000 0.000000 0.000000 -60.708740 0.000000 156.000000 0.206380 0.733967 0.647070
3290.00000000 -15930.00000000 -240.00000000 34 106 185 0.000000 0.000000 0.000000 0.000000 -60.708740 0.000000 156.000000 0.577876 0.734147 0.356493
3130.00000000 -15990.00000000 -210.00000000 34 106 185 0.000000 0.000000 0.000000 0.000000 -60.708740 0.000000 156.000000 0.446321 0.749358 0.489142
3090.00000000 -15880.00000000 -290.00000000 34 106 185 0.000000 0.000000 0.000000 0.000000 -60.708740 0.000000 156.000000 0.171120 0.792000 0.586050
3880.00000000 -15830.00000000 730.00000000 34 106 185 0.000000 0.000000 0.000000 0.000000 -60.708740 0.000000 156.000000 0.411343 0.748940 0.519505
3860.00000000 -15800.00000000 700.00000000 34 106 185 0.000000 0.000000 0.000000 0.000000 -60.708740 0.000000 156.000000 0.198793 0.750483 0.630283
3820.00000000 -15790.00000000 690.00000000 34 106 185 0.000000 0.000000 0.000000 0.000000 -60.708740 0.000000 156.000000 -0.041995 0.459239 0.887320
3700.00000000 -15830.00000000 680.00000000 34 106 185 0.000000 0.000000 0.000000 0.000000 -60.708740 0.000000 156.000000 -0.026886 0.344393 0.938440
3780.00000000 -15730.00000000 90.00000000 34 106 185 0.000000 0.000000 0.000000 0.000000 -60.708740 0.000000 156.000000 0.916008 0.279288 -0.287971
3750.00000000 -15850.00000000 50.00000000 34 106 185 0.000000 0.000000 0.000000 0.000000 -60.708740 0.000000 156.000000 -0.475377 0.495254 0.727145
3730.00000000 -15780.00000000 40.00000000 34 106 185 0.000000 0.000000 0.000000 0.000000 -60.708740 0.000000 156.000000 -0.593929 0.174685 0.785323
3820.00000000 -15830.00000000 120.00000000 34 106 185 0.000000 0.000000 0.000000 0.000000 -60.708740 0.000000 156.000000 0.907656 0.060871 -0.415276
3750.00000000 -15750.00000000 50.00000000 34 106 185 0.000000 0.000000 0.000000 0.000000 -60.708740 0.000000 156.000000 0.756872 0.393966 -0.521474
3570.00000000 -15830.00000000 670.00000000 34 106 185 0.000000 0.000000 0.000000 0.000000 -60.708740 0.000000 156.000000 -0.202754 0.243577 0.948452
3670.00000000 -15780.00000000 650.00000000 34 106 185 0.000000 0.000000 0.000000 0.000000 -60.708740 0.000000 156.000000 0.074880 0.204999 0.975894
3660.00000000 -15840.00000000 40.00000000 34 106 185 0.000000 0.000000 0.000000 0.000000 -60.708740 0.000000 156.000000 -0.148361 0.021518 0.988699
3620.00000000 -15820.00000000 20.00000000 34 106 185 0.000000 0.000000 0.000000 0.000000 -60.708740 0.000000 156.000000 -0.076364 0.618115 0.782370
3760.00000000 -15920.00000000 700.00000000 34 106 185 0.000000 0.000000 0.000000 0.000000 -60.708740 0.000000 156.000000 -0.234631 0.268351 0.934310
3910.00000000 -15950.00000000 760.00000000 34 106 185 0.000000 0.000000 0.000000 0.000000 -60.708740 0.000000 156.000000 0.165345 0.769084 0.617391
3710.00000000 -16380.00000000 740.00000000 34 106 185 0.000000 0.000000 0.000000 0.000000 -60.708740 0.000000 156.000000 0.978125 0.094499 -0.185316
3750.00000000 -16300.00000000 710.00000000 34 106 185 0.000000 0.000000 0.000000 0.000000 -60.708740 0.000000 156.000000 0.941714 0.088741 -0.324500
3800.00000000 -16400.00000000 740.00000000 34 106 185 0.000000 0.000000 0.000000 0.000000 -60.708740 0.000000 156.000000 0.966881 0.175207 -0.185589
3900.00000000 -16180.00000000 300.00000000 34 106 185 0.000000 0.000000 0.000000 0.000000 -60.708740 0.000000 156.000000 -0.605040 0.148633 0.782199
3910.00000000 -16070.00000000 260.00000000 34 106 185 0.000000 0.000000 0.000000 0.000000 -60.708740 0.000000 156.000000 0.886981 -0.036451 -0.460366
3770.00000000 -15960.00000000 280.00000000 34 106 185 0.000000 0.000000 0.000000 0.000000 -60.708740 0.000000 156.000000 -0.469793 -0.211632 0.857034
3850.00000000 -16000.00000000 160.00000000 34 106 185 0.000000 0.000000 0.000000 0.000000 -60.708740 0.000000 156.000000 -0.611198 0.079470 0.787478
3780.00000000 -16020.00000000 140.00000000 34 106 185 0.000000 0.000000 0.000000 0.000000 -60.708740 0.000000 156.000000 -0.169274 0.374110 0.911805
3780.00000000 -16030.00000000 140.00000000 34 106 185 0.000000 0.000000 0.000000 0.000000 -60.708740 0.000000 156.000000 -0.142415 0.390585 0.909484
3730.00000000 -15870.00000000 60.00000000 34 106 185 0.000000 0.000000 0.000000 0.000000 -60.708740 0.000000 156.000000 -0.414300 -0.098379 0.904808
3720.00000000 -16200.00000000 300.00000000 34 106 185 0.000000 0.000000 0.000000 0.000000 -60.708740 0.000000 156.000000 0.341272 0.674380 0.654786
3840.00000000 -16170.00000000 70.00000000 34 106 185 0.000000 0.000000 0.000000 0.000000 -60.708740 0.000000 156.000000 0.028707 0.161910 0.986388
3800.00000000 -16330.00000000 440.00000000 34 106 185 0.000000 0.000000 0.000000 0.000000 -60.708740 0.000000 156.000000 0.559511 0.795095 0.234034
3800.00000000 -16390.00000000 510.00000000 34 106 185 0.000000 0.000000 0.000000 0.000000 -60.708740 0.000000 156.000000 0.436814 0.767288 0.469534
3720.00000000 -16290.00000000 210.00000000 34 106 185 0.000000 0.000000 0.000000 0.000000 -60.708740 0.000000 156.000000 0.124855 0.565520 0.815229
3660.00000000 -15920.00000000 760.00000000 34 106 185 0.000000 0.000000 0.000000 0.000000 -60.708740 0.000000 156.000000 -0.587388 0.273903 0.761546
3430.00000000 -16080.00000000 740.00000000 34 106 185 0.000000 0.000000 0.000000 0.000000 -60.708740 0.000000 156.000000 -0.654072 0.006914 0.756401
3550.00000000 -16130.00000000 520.00000000 34 106 185 0.000000 0.000000 0.000000 0.000000 -60.708740 0.000000 156.000000 0.944470 0.074460 -0.320049
3680.00000000 -16200.00000000 390.00000000 34 106 185 0.000000 0.000000 0.000000 0.000000 -60.708740 0.000000 156.000000 0.448121 0.777286 0.441603
3450.00000000 -16010.00000000 520.00000000 34 106 185 0.000000 0.000000 0.000000 0.000000 -60.708740 0.000000 156.000000 0.876246 -0.146282 -0.459124
3410.00000000 -16030.00000000 500.00000000 34 106 185 0.000000 0.000000 0.000000 0.000000 -60.708740 0.000000 156.000000 0.727094 0.233989 -0.645433
3450.00000000 -16080.00000000 510.00000000 34 106 185 0.000000 0.000000 0.000000 0.000000 -60.708740 0.000000 156.000000 0.694669 0.366220 -0.619126
3400.00000000 -16120.00000000 480.00000000 34 106 185 0.000000 0.000000 0.000000 0.000000 -60.708740 0.000000 156.000000 0.974073 -0.001172 -0.226229
3640.00000000 -15950.00000000 -10.00000000 34 106 185 0.000000 0.000000 0.000000 0.000000 -60.708740 0.000000 156.000000 -0.391354 0.662164 0.639046
3600.00000000 -15880.00000000 -10.00000000 34 106 185 0.000000 0.000000 0.000000 0.000000 -60.708740 0.000000 156.000000 -0.281933 0.204158 0.937461
3640.00000000 -15970.00000000 100.00000000 34 106 185 0.000000 0.000000 0.000000 0.000000 -60.708740 0.000000 156.000000 0.321281 0.360870 0.875529
3650.00000000 -16070.00000000 100.00000000 34 106 185 0.000000 0.000000 0.000000 0.000000 -60.708740 0.000000 156.000000 -0.021037 0.719460 0.694216
3660.00000000 -16060.00000000 90.00000000 34 106 185 0.000000 0.000000 0.000000 0.000000 -60.708740 0.000000 156.000000 0.055774 0.328160 0.942974
3510.00000000 -15930.00000000 -10.00000000 34 106 185 0.000000 0.000000 0.000000 0.000000 -60.708740 0.000000 156.000000 0.290158 0.556533 0.778511
3560.00000000 -16270.00000000 620.00000000 34 106 185 0.000000 0.000000 0.000000 0.000000 -60.708740 0.000000 156.000000 0.837535 0.247419 -0.487154
3460.00000000 -16280.00000000 110.00000000 34 106 185 0.000000 0.000000 0.000000 0.000000 -60.708740 0.000000 156.000000 0.333243 0.465908 0.819682
3620.00000000 -15850.00000000 -240.00000000 34 106 185 0.000000 0.000000 0.000000 0.000000 -60.708740 0.000000 156.000000 -0.246570 0.525707 0.814147
3640.00000000 -15900.00000000 -170.00000000 34 106 185 0.000000 0.000000 0.000000 0.000000 -60.708740 0.000000 156.000000 0.068468 0.306169 0.949512
3630.00000000 -16040.00000000 -90.00000000 34 106 185 0.000000 0.000000 0.000000 0.000000 -60.708740 0.000000 156.000000 -0.120948 0.248398 0.961078
