//X Y Z R G B PointSourceId ScanDirectionFlag NumberOfReturns ReturnNumber GpsTime Intensity Classification Nx Ny Nz
2830.00000000 13130.00000000 -60.00000000 70 193 124 97.000000 1.000000 4.000000 1.000000 -60.708740 114.000000 201.000000 0.594358 0.654631 0.467115
2840.00000000 13130.00000000 -30.00000000 70 193 124 97.000000 1.000000 4.000000 1.000000 -60.708740 114.000000 201.000000 0.698191 0.468238 0.541556
2850.00000000 13110.00000000 -30.00000000 70 193 124 97.000000 1.000000 4.000000 1.000000 -60.708740 114.000000 201.000000 0.767121 0.309091 0.562128
2850.00000000 13110.00000000 -60.00000000 70 193 124 97.000000 1.000000 4.000000 1.000000 -60.708740 114.000000 201.000000 0.791509 -0.113073 0.600607
2760.00000000 13190.00000000 -90.00000000 70 193 124 97.000000 1.000000 4.000000 1.000000 -60.708740 114.000000 201.000000 0.188118 0.371929 0.909000
2750.00000000 13120.00000000 -20.00000000 70 193 124 97.000000 1.000000 4.000000 1.000000 -60.708740 114.000000 201.000000 0.354270 0.199367 0.913644
2760.00000000 13150.00000000 -30.00000000 70 193 124 97.000000 1.000000 4.000000 1.000000 -60.708740 114.000000 201.000000 0.104244 0.412805 0.904835
2750.00000000 13120.00000000 -20.00000000 70 193 124 97.000000 1.000000 4.000000 1.000000 -60.708740 114.000000 201.000000 0.354270 0.199367 0.913644
2690.00000000 13130.00000000 -140.00000000 70 193 124 97.000000 1.000000 4.000000 1.000000 -60.708740 114.000000 201.000000 0.337332 0.252634 0.906853
2640.00000000 13230.00000000 -40.00000000 70 193 124 97.000000 1.000000 4.000000 1.000000 -60.708740 114.000000 201.000000 -0.272325 0.657721 0.702312
2610.00000000 13160.00000000 -30.00000000 70 193 124 97.000000 1.000000 4.000000 1.000000 -60.708740 114.000000 201.000000 -0.308707 0.429708 0.848558
2680.00000000 13140.00000000 -100.00000000 70 193 124 97.000000 1.000000 4.000000 1.000000 -60.708740 114.000000 201.000000 0.413103 0.320271 0.852509
2670.00000000 13170.00000000 -60.00000000 70 193 124 97.000000 1.000000 4.000000 1.000000 -60.708740 114.000000 201.000000 0.219601 0.230513 0.947966
2570.00000000 13110.00000000 -30.00000000 70 193 124 97.000000 1.000000 4.000000 1.000000 -60.708740 114.000000 201.000000 -0.049138 0.826919 0.560171
2590.00000000 13110.00000000 -20.00000000 70 193 124 97.000000 1.000000 4.000000 1.000000 -60.708740 114.000000 201.000000 -0.154971 0.786892 0.597315
2580.00000000 13160.00000000 -30.00000000 70 193 124 97.000000 1.000000 4.000000 1.000000 -60.708740 114.000000 201.000000 0.229952 -0.621026 -0.749299
2590.00000000 13140.00000000 -40.00000000 70 193 124 97.000000 1.000000 4.000000 1.000000 -60.708740 114.000000 201.000000 -0.323728 0.578200 0.748922
2420.00000000 13200.00000000 -60.00000000 70 193 124 97.000000 1.000000 4.000000 1.000000 -60.708740 114.000000 201.000000 0.774477 -0.145308 -0.615687
2400.00000000 13180.00000000 -50.00000000 70 193 124 97.000000 1.000000 4.000000 1.000000 -60.708740 114.000000 201.000000 -0.497489 0.776213 0.387296
2410.00000000 13170.00000000 -20.00000000 70 193 124 97.000000 1.000000 4.000000 1.000000 -60.708740 114.000000 201.000000 0.765618 -0.484837 -0.422804
2410.00000000 13170.00000000 -20.00000000 70 193 124 97.000000 1.000000 4.000000 1.000000 -60.708740 114.000000 201.000000 0.765618 -0.484837 -0.422804
2420.00000000 13170.00000000 -70.00000000 70 193 124 97.000000 1.000000 4.000000 1.000000 -60.708740 114.000000 201.000000 0.633451 -0.398594 -0.663221
2390.00000000 13150.00000000 -50.00000000 70 193 124 97.000000 1.000000 4.000000 1.000000 -60.708740 114.000000 201.000000 -0.490055 0.621410 0.611306
2390.00000000 13150.00000000 -90.00000000 70 193 124 97.000000 1.000000 4.000000 1.000000 -60.708740 114.000000 201.000000 0.749904 -0.073690 -0.657430
2390.00000000 13150.00000000 -90.00000000 70 193 124 97.000000 1.000000 4.000000 1.000000 -60.708740 114.000000 201.000000 0.749904 -0.073690 -0.657430
2400.00000000 13130.00000000 -150.00000000 70 193 124 97.000000 1.000000 4.000000 1.000000 -60.708740 114.000000 201.000000 0.622329 -0.534629 -0.571733
2390.00000000 13160.00000000 -170.00000000 70 193 124 97.000000 1.000000 4.000000 1.000000 -60.708740 114.000000 201.000000 0.808179 -0.574738 -0.128540
2370.00000000 13200.00000000 -330.00000000 70 193 124 97.000000 1.000000 4.000000 1.000000 -60.708740 114.000000 201.000000 0.966676 -0.226625 -0.119074
2380.00000000 13200.00000000 -330.00000000 70 193 124 97.000000 1.000000 4.000000 1.000000 -60.708740 114.000000 201.000000 0.823366 -0.567510 -0.001361
2410.00000000 13150.00000000 -200.00000000 70 193 124 97.000000 1.000000 4.000000 1.000000 -60.708740 114.000000 201.000000 0.710063 -0.588150 -0.387157
2420.00000000 13130.00000000 -270.00000000 70 193 124 97.000000 1.000000 4.000000 1.000000 -60.708740 114.000000 201.000000 0.942064 0.094074 -0.321971
2420.00000000 13120.00000000 -280.00000000 70 193 124 97.000000 1.000000 4.000000 1.000000 -60.708740 114.000000 201.000000 0.980999 0.038957 -0.190061
2420.00000000 13130.00000000 -290.00000000 70 193 124 97.000000 1.000000 4.000000 1.000000 -60.708740 114.000000 201.000000 0.973356 0.168344 0.155686
2420.00000000 13140.00000000 -300.00000000 70 193 124 97.000000 1.000000 4.000000 1.000000 -60.708740 114.000000 201.000000 0.855560 -0.473640 0.209003
2530.00000000 13190.00000000 -460.00000000 70 193 124 97.000000 1.000000 4.000000 1.000000 -60.708740 114.000000 201.000000 0.706618 -0.073999 0.703716
2560.00000000 13110.00000000 -480.00000000 70 193 124 97.000000 1.000000 4.000000 1.000000 -60.708740 114.000000 201.000000 0.435839 0.291073 0.851658
2530.00000000 13110.00000000 -580.00000000 70 193 124 97.000000 1.000000 4.000000 1.000000 -60.708740 114.000000 201.000000 0.649088 0.110892 0.752587
2560.00000000 13140.00000000 -560.00000000 70 193 124 97.000000 1.000000 4.000000 1.000000 -60.708740 114.000000 201.000000 0.102712 0.324143 0.940416
2550.00000000 13150.00000000 -630.00000000 70 193 124 97.000000 1.000000 4.000000 1.000000 -60.708740 114.000000 201.000000 0.551897 0.639660 0.535019
2470.00000000 13170.00000000 -520.00000000 70 193 124 97.000000 1.000000 4.000000 1.000000 -60.708740 114.000000 201.000000 0.522716 0.126675 0.843043
2460.00000000 13130.00000000 -480.00000000 70 193 124 97.000000 1.000000 4.000000 1.000000 -60.708740 114.000000 201.000000 0.881269 0.324996 0.343136
2460.00000000 13110.00000000 -470.00000000 70 193 124 97.000000 1.000000 4.000000 1.000000 -60.708740 114.000000 201.000000 0.833656 0.357731 0.420768
2440.00000000 13130.00000000 -480.00000000 70 193 124 97.000000 1.000000 4.000000 1.000000 -60.708740 114.000000 201.000000 0.876414 0.263980 0.402758
2460.00000000 13120.00000000 -460.00000000 70 193 124 97.000000 1.000000 4.000000 1.000000 -60.708740 114.000000 201.000000 0.905318 0.295884 0.304717
2460.00000000 13140.00000000 -500.00000000 70 193 124 97.000000 1.000000 4.000000 1.000000 -60.708740 114.000000 201.000000 0.742225 0.398147 0.539055
2460.00000000 13140.00000000 -500.00000000 70 193 124 97.000000 1.000000 4.000000 1.000000 -60.708740 114.000000 201.000000 0.742225 0.398147 0.539055
2400.00000000 13220.00000000 -420.00000000 70 193 124 97.000000 1.000000 4.000000 1.000000 -60.708740 114.000000 201.000000 0.976404 0.189822 0.102975
2380.00000000 13190.00000000 -360.00000000 70 193 124 97.000000 1.000000 4.000000 1.000000 -60.708740 114.000000 201.000000 0.930338 -0.363475 -0.048551
2420.00000000 13190.00000000 -500.00000000 70 193 124 97.000000 1.000000 4.000000 1.000000 -60.708740 114.000000 201.000000 0.717270 0.425724 0.551619
2410.00000000 13190.00000000 -500.00000000 70 193 124 97.000000 1.000000 4.000000 1.000000 -60.708740 114.000000 201.000000 0.682852 -0.018154 0.730331
2400.00000000 13140.00000000 -370.00000000 70 193 124 97.000000 1.000000 4.000000 1.000000 -60.708740 114.000000 201.000000 0.942218 0.291281 0.165469
2380.00000000 13120.00000000 -360.00000000 70 193 124 97.000000 1.000000 4.000000 1.000000 -60.708740 114.000000 201.000000 0.949740 -0.307156 0.060403
2430.00000000 13180.00000000 -510.00000000 70 193 124 97.000000 1.000000 4.000000 1.000000 -60.708740 114.000000 201.000000 0.792758 0.320612 0.518403
2420.00000000 13160.00000000 -510.00000000 70 193 124 97.000000 1.000000 4.000000 1.000000 -60.708740 114.000000 201.000000 0.716782 0.098613 0.690289
2430.00000000 13130.00000000 -510.00000000 70 193 124 97.000000 1.000000 4.000000 1.000000 -60.708740 114.000000 201.000000 0.846381 0.451712 0.282127
2410.00000000 13180.00000000 -500.00000000 70 193 124 97.000000 1.000000 4.000000 1.000000 -60.708740 114.000000 201.000000 0.804439 0.061223 0.590871
2480.00000000 13110.00000000 -550.00000000 70 193 124 97.000000 1.000000 4.000000 1.000000 -60.708740 114.000000 201.000000 0.697613 -0.049931 0.714733
2430.00000000 13140.00000000 -530.00000000 70 193 124 97.000000 1.000000 4.000000 1.000000 -60.708740 114.000000 201.000000 0.746307 -0.199324 0.635056
2430.00000000 13180.00000000 -530.00000000 70 193 124 97.000000 1.000000 4.000000 1.000000 -60.708740 114.000000 201.000000 0.811815 0.121846 0.571060
2520.00000000 13150.00000000 -920.00000000 70 193 124 97.000000 1.000000 4.000000 1.000000 -60.708740 114.000000 201.000000 0.265564 0.237462 0.934392
2520.00000000 13150.00000000 -920.00000000 70 193 124 97.000000 1.000000 4.000000 1.000000 -60.708740 114.000000 201.000000 0.265564 0.237462 0.934392
2510.00000000 13140.00000000 -780.00000000 70 193 124 97.000000 1.000000 4.000000 1.000000 -60.708740 114.000000 201.000000 0.426963 0.699421 0.573160
2510.00000000 13150.00000000 -910.00000000 70 193 124 97.000000 1.000000 4.000000 1.000000 -60.708740 114.000000 201.000000 0.457965 0.537901 0.707764
2510.00000000 13140.00000000 -880.00000000 70 193 124 97.000000 1.000000 4.000000 1.000000 -60.708740 114.000000 201.000000 0.333078 0.285707 0.898571
2970.00000000 13060.00000000 -100.00000000 70 193 124 97.000000 1.000000 4.000000 1.000000 -60.708740 114.000000 201.000000 0.981586 0.163800 0.098280
2990.00000000 13040.00000000 -110.00000000 70 193 124 97.000000 1.000000 4.000000 1.000000 -60.708740 114.000000 201.000000 0.733447 0.296910 0.611474
2970.00000000 13080.00000000 -110.00000000 70 193 124 97.000000 1.000000 4.000000 1.000000 -60.708740 114.000000 201.000000 0.846664 -0.072087 0.527222
2980.00000000 13050.00000000 -130.00000000 70 193 124 97.000000 1.000000 4.000000 1.000000 -60.708740 114.000000 201.000000 0.810990 -0.273455 0.517221
2900.00000000 13090.00000000 -60.00000000 70 193 124 97.000000 1.000000 4.000000 1.000000 -60.708740 114.000000 201.000000 0.630283 0.198793 0.750483
2940.00000000 13070.00000000 -90.00000000 70 193 124 97.000000 1.000000 4.000000 1.000000 -60.708740 114.000000 201.000000 0.751271 -0.192043 0.631436
2900.00000000 13090.00000000 -70.00000000 70 193 124 97.000000 1.000000 4.000000 1.000000 -60.708740 114.000000 201.000000 0.701430 0.551481 0.451514
2900.00000000 13040.00000000 -70.00000000 70 193 124 97.000000 1.000000 4.000000 1.000000 -60.708740 114.000000 201.000000 -0.842494 0.223147 -0.490316
2860.00000000 13090.00000000 -60.00000000 70 193 124 97.000000 1.000000 4.000000 1.000000 -60.708740 114.000000 201.000000 0.647924 0.294219 0.702588
2870.00000000 13080.00000000 -100.00000000 70 193 124 97.000000 1.000000 4.000000 1.000000 -60.708740 114.000000 201.000000 0.818468 -0.238912 0.522524
2870.00000000 13020.00000000 -70.00000000 70 193 124 97.000000 1.000000 4.000000 1.000000 -60.708740 114.000000 201.000000 0.727459 0.041123 0.684918
2880.00000000 13020.00000000 -90.00000000 70 193 124 97.000000 1.000000 4.000000 1.000000 -60.708740 114.000000 201.000000 0.766547 -0.098200 0.634636
2860.00000000 13100.00000000 -130.00000000 70 193 124 97.000000 1.000000 4.000000 1.000000 -60.708740 114.000000 201.000000 0.908982 0.178934 0.376476
2870.00000000 13000.00000000 -60.00000000 70 193 124 97.000000 1.000000 4.000000 1.000000 -60.708740 114.000000 201.000000 0.722475 -0.243973 0.646922
2850.00000000 13090.00000000 -50.00000000 70 193 124 97.000000 1.000000 4.000000 1.000000 -60.708740 114.000000 201.000000 0.449492 0.084889 0.889242
2840.00000000 13040.00000000 -20.00000000 70 193 124 97.000000 1.000000 4.000000 1.000000 -60.708740 114.000000 201.000000 0.554866 0.341331 0.758694
2820.00000000 13050.00000000 -20.00000000 70 193 124 97.000000 1.000000 4.000000 1.000000 -60.708740 114.000000 201.000000 0.381648 0.568377 0.728898
2850.00000000 13030.00000000 -50.00000000 70 193 124 97.000000 1.000000 4.000000 1.000000 -60.708740 114.000000 201.000000 0.598993 0.350909 0.719771
2830.00000000 13020.00000000 -40.00000000 70 193 124 97.000000 1.000000 4.000000 1.000000 -60.708740 114.000000 201.000000 0.592805 0.242440 0.767988
2780.00000000 13080.00000000 -50.00000000 70 193 124 97.000000 1.000000 4.000000 1.000000 -60.708740 114.000000 201.000000 0.529734 0.096185 0.842693
2800.00000000 13090.00000000 -60.00000000 70 193 124 97.000000 1.000000 4.000000 1.000000 -60.708740 114.000000 201.000000 0.481813 0.632904 0.606043
2850.00000000 12990.00000000 -50.00000000 70 193 124 97.000000 1.000000 4.000000 1.000000 -60.708740 114.000000 201.000000 0.742769 0.114158 0.659745
2820.00000000 13010.00000000 -100.00000000 70 193 124 97.000000 1.000000 4.000000 1.000000 -60.708740 114.000000 201.000000 0.789180 -0.020878 0.613807
2800.00000000 12990.00000000 -20.00000000 70 193 124 97.000000 1.000000 4.000000 1.000000 -60.708740 114.000000 201.000000 0.512336 -0.045572 0.857575
2780.00000000 13010.00000000 -30.00000000 70 193 124 97.000000 1.000000 4.000000 1.000000 -60.708740 114.000000 201.000000 0.618307 0.113627 0.777680
2780.00000000 12960.00000000 -30.00000000 70 193 124 97.000000 1.000000 4.000000 1.000000 -60.708740 114.000000 201.000000 0.765461 0.119927 0.632208
2790.00000000 12950.00000000 -30.00000000 70 193 124 97.000000 1.000000 4.000000 1.000000 -60.708740 114.000000 201.000000 0.544118 0.268139 0.795008
2770.00000000 13090.00000000 -30.00000000 70 193 124 97.000000 1.000000 4.000000 1.000000 -60.708740 114.000000 201.000000 0.442001 0.335040 0.832095
2770.00000000 13090.00000000 -30.00000000 70 193 124 97.000000 1.000000 4.000000 1.000000 -60.708740 114.000000 201.000000 0.442001 0.335040 0.832095
2760.00000000 13050.00000000 -40.00000000 70 193 124 97.000000 1.000000 4.000000 1.000000 -60.708740 114.000000 201.000000 0.341087 0.103809 0.934282
2690.00000000 13080.00000000 -90.00000000 70 193 124 97.000000 1.000000 4.000000 1.000000 -60.708740 114.000000 201.000000 0.142688 0.653360 0.743479
2720.00000000 13030.00000000 -40.00000000 70 193 124 97.000000 1.000000 4.000000 1.000000 -60.708740 114.000000 201.000000 0.409893 0.194006 0.891263
2750.00000000 12960.00000000 -60.00000000 70 193 124 97.000000 1.000000 4.000000 1.000000 -60.708740 114.000000 201.000000 0.885976 0.011955 0.463577
2760.00000000 12960.00000000 -50.00000000 70 193 124 97.000000 1.000000 4.000000 1.000000 -60.708740 114.000000 201.000000 0.748723 0.394841 0.532461
2790.00000000 12790.00000000 -80.00000000 70 193 124 97.000000 1.000000 4.000000 1.000000 -60.708740 114.000000 201.000000 0.824491 -0.306239 0.475849
2840.00000000 12850.00000000 -160.00000000 70 193 124 97.000000 1.000000 4.000000 1.000000 -60.708740 114.000000 201.000000 0.981256 -0.189655 -0.034161
2690.00000000 12800.00000000 -90.00000000 70 193 124 97.000000 1.000000 4.000000 1.000000 -60.708740 114.000000 201.000000 0.915228 -0.360113 0.180768
2750.00000000 12830.00000000 -130.00000000 70 193 124 97.000000 1.000000 4.000000 1.000000 -60.708740 114.000000 201.000000 0.966673 -0.195930 -0.164789
2770.00000000 12830.00000000 -170.00000000 70 193 124 97.000000 1.000000 4.000000 1.000000 -60.708740 114.000000 201.000000 0.873135 -0.474313 -0.112525
2800.00000000 12780.00000000 -200.00000000 70 193 124 97.000000 1.000000 4.000000 1.000000 -60.708740 114.000000 201.000000 0.934980 0.027008 -0.353672
2820.00000000 12810.00000000 -320.00000000 70 193 124 97.000000 1.000000 4.000000 1.000000 -60.708740 114.000000 201.000000 -0.601130 0.761222 0.243277
2730.00000000 12900.00000000 -280.00000000 70 193 124 97.000000 1.000000 4.000000 1.000000 -60.708740 114.000000 201.000000 0.934855 -0.095229 -0.342020
2710.00000000 12870.00000000 -290.00000000 70 193 124 97.000000 1.000000 4.000000 1.000000 -60.708740 114.000000 201.000000 0.570359 -0.496330 -0.654483
2690.00000000 12810.00000000 -320.00000000 70 193 124 97.000000 1.000000 4.000000 1.000000 -60.708740 114.000000 201.000000 -0.435635 0.135689 0.889837
2720.00000000 12770.00000000 -300.00000000 70 193 124 97.000000 1.000000 4.000000 1.000000 -60.708740 114.000000 201.000000 -0.241160 0.657278 0.714022
2690.00000000 12890.00000000 -510.00000000 70 193 124 97.000000 1.000000 4.000000 1.000000 -60.708740 114.000000 201.000000 -0.094315 0.182506 0.978671
2750.00000000 12790.00000000 -420.00000000 70 193 124 97.000000 1.000000 4.000000 1.000000 -60.708740 114.000000 201.000000 -0.712592 0.383450 0.587518
2700.00000000 12840.00000000 -420.00000000 70 193 124 97.000000 1.000000 4.000000 1.000000 -60.708740 114.000000 201.000000 -0.442258 0.432538 0.785696
2690.00000000 12780.00000000 -370.00000000 70 193 124 97.000000 1.000000 4.000000 1.000000 -60.708740 114.000000 201.000000 -0.135077 0.250482 0.958652
2710.00000000 12830.00000000 -500.00000000 70 193 124 97.000000 1.000000 4.000000 1.000000 -60.708740 114.000000 201.000000 -0.376684 0.676057 0.633290
2690.00000000 12770.00000000 -500.00000000 70 193 124 97.000000 1.000000 4.000000 1.000000 -60.708740 114.000000 201.000000 -0.407086 0.730118 0.548825
2690.00000000 12890.00000000 -560.00000000 70 193 124 97.000000 1.000000 4.000000 1.000000 -60.708740 114.000000 201.000000 -0.359626 0.554899 0.750171
2690.00000000 12860.00000000 -590.00000000 70 193 124 97.000000 1.000000 4.000000 1.000000 -60.708740 114.000000 201.000000 -0.219455 0.278162 0.935129
2690.00000000 12890.00000000 -600.00000000 70 193 124 97.000000 1.000000 4.000000 1.000000 -60.708740 114.000000 201.000000 0.123844 0.531799 0.837766
2700.00000000 12920.00000000 -670.00000000 70 193 124 97.000000 1.000000 4.000000 1.000000 -60.708740 114.000000 201.000000 -0.389284 0.509816 0.767167
2740.00000000 12820.00000000 -580.00000000 70 193 124 97.000000 1.000000 4.000000 1.000000 -60.708740 114.000000 201.000000 0.504186 -0.490874 -0.710520
2700.00000000 12810.00000000 -600.00000000 70 193 124 97.000000 1.000000 4.000000 1.000000 -60.708740 114.000000 201.000000 -0.347502 0.214846 0.912734
2720.00000000 12780.00000000 -550.00000000 70 193 124 97.000000 1.000000 4.000000 1.000000 -60.708740 114.000000 201.000000 0.036054 0.425970 0.904019
2740.00000000 12830.00000000 -670.00000000 70 193 124 97.000000 1.000000 4.000000 1.000000 -60.708740 114.000000 201.000000 0.449983 -0.542968 -0.709014
2830.00000000 12720.00000000 -40.00000000 70 193 124 97.000000 1.000000 4.000000 1.000000 -60.708740 114.000000 201.000000 0.935177 0.318153 0.155633
2830.00000000 12690.00000000 -20.00000000 70 193 124 97.000000 1.000000 4.000000 1.000000 -60.708740 114.000000 201.000000 0.975774 0.190183 -0.108143
2830.00000000 12720.00000000 -80.00000000 70 193 124 97.000000 1.000000 4.000000 1.000000 -60.708740 114.000000 201.000000 0.970607 0.115157 -0.211332
2830.00000000 12700.00000000 -80.00000000 70 193 124 97.000000 1.000000 4.000000 1.000000 -60.708740 114.000000 201.000000 0.921478 -0.111237 -0.372162
2820.00000000 12700.00000000 -130.00000000 70 193 124 97.000000 1.000000 4.000000 1.000000 -60.708740 114.000000 201.000000 0.773061 -0.507271 -0.380858
2810.00000000 12750.00000000 -160.00000000 70 193 124 97.000000 1.000000 4.000000 1.000000 -60.708740 114.000000 201.000000 0.833859 -0.527665 -0.162015
2810.00000000 12660.00000000 -100.00000000 70 193 124 97.000000 1.000000 4.000000 1.000000 -60.708740 114.000000 201.000000 0.867509 -0.342397 -0.360822
2800.00000000 12640.00000000 -110.00000000 70 193 124 97.000000 1.000000 4.000000 1.000000 -60.708740 114.000000 201.000000 -0.733346 0.635986 0.240261
2730.00000000 12650.00000000 -80.00000000 70 193 124 97.000000 1.000000 4.000000 1.000000 -60.708740 114.000000 201.000000 0.825224 -0.435579 -0.359551
2720.00000000 12620.00000000 -100.00000000 70 193 124 97.000000 1.000000 4.000000 1.000000 -60.708740 114.000000 201.000000 0.986291 -0.069524 -0.149652
2730.00000000 12640.00000000 -90.00000000 70 193 124 97.000000 1.000000 4.000000 1.000000 -60.708740 114.000000 201.000000 0.922994 -0.082194 -0.375935
2810.00000000 12730.00000000 -260.00000000 70 193 124 97.000000 1.000000 4.000000 1.000000 -60.708740 114.000000 201.000000 0.775451 -0.168444 -0.608524
2780.00000000 12690.00000000 -240.00000000 70 193 124 97.000000 1.000000 4.000000 1.000000 -60.708740 114.000000 201.000000 0.653291 -0.722224 -0.227164
2790.00000000 12720.00000000 -240.00000000 70 193 124 97.000000 1.000000 4.000000 1.000000 -60.708740 114.000000 201.000000 0.719234 -0.415006 -0.557200
2780.00000000 12710.00000000 -270.00000000 70 193 124 97.000000 1.000000 4.000000 1.000000 -60.708740 114.000000 201.000000 0.926914 -0.204570 -0.314615
2780.00000000 12740.00000000 -320.00000000 70 193 124 97.000000 1.000000 4.000000 1.000000 -60.708740 114.000000 201.000000 -0.532432 0.249917 0.808738
2790.00000000 12740.00000000 -320.00000000 70 193 124 97.000000 1.000000 4.000000 1.000000 -60.708740 114.000000 201.000000 -0.438249 0.604883 0.664872
2780.00000000 12700.00000000 -310.00000000 70 193 124 97.000000 1.000000 4.000000 1.000000 -60.708740 114.000000 201.000000 -0.296910 0.611474 0.733447
2800.00000000 12720.00000000 -290.00000000 70 193 124 97.000000 1.000000 4.000000 1.000000 -60.708740 114.000000 201.000000 -0.642879 0.445841 0.622842
2750.00000000 12740.00000000 -200.00000000 70 193 124 97.000000 1.000000 4.000000 1.000000 -60.708740 114.000000 201.000000 0.873818 -0.232319 -0.427166
2740.00000000 12760.00000000 -280.00000000 70 193 124 97.000000 1.000000 4.000000 1.000000 -60.708740 114.000000 201.000000 -0.311914 0.508246 0.802743
2760.00000000 12720.00000000 -300.00000000 70 193 124 97.000000 1.000000 4.000000 1.000000 -60.708740 114.000000 201.000000 0.791869 -0.489899 -0.364613
2770.00000000 12700.00000000 -280.00000000 70 193 124 97.000000 1.000000 4.000000 1.000000 -60.708740 114.000000 201.000000 -0.544897 0.761563 0.350869
2700.00000000 12710.00000000 -340.00000000 70 193 124 97.000000 1.000000 4.000000 1.000000 -60.708740 114.000000 201.000000 -0.076884 0.706463 0.703562
2700.00000000 12680.00000000 -210.00000000 70 193 124 97.000000 1.000000 4.000000 1.000000 -60.708740 114.000000 201.000000 -0.331609 0.418792 0.845369
2750.00000000 12650.00000000 -240.00000000 70 193 124 97.000000 1.000000 4.000000 1.000000 -60.708740 114.000000 201.000000 -0.650824 0.660710 0.374018
2760.00000000 12670.00000000 -350.00000000 70 193 124 97.000000 1.000000 4.000000 1.000000 -60.708740 114.000000 201.000000 -0.189364 0.478628 0.857355
2730.00000000 12680.00000000 -310.00000000 70 193 124 97.000000 1.000000 4.000000 1.000000 -60.708740 114.000000 201.000000 -0.470298 0.520152 0.712925
2780.00000000 12760.00000000 -370.00000000 70 193 124 97.000000 1.000000 4.000000 1.000000 -60.708740 114.000000 201.000000 0.720141 -0.310933 -0.620256
2780.00000000 12740.00000000 -370.00000000 70 193 124 97.000000 1.000000 4.000000 1.000000 -60.708740 114.000000 201.000000 0.795787 -0.285223 -0.534202
2750.00000000 12700.00000000 -380.00000000 70 193 124 97.000000 1.000000 4.000000 1.000000 -60.708740 114.000000 201.000000 -0.407166 0.812735 0.416746
2760.00000000 12720.00000000 -370.00000000 70 193 124 97.000000 1.000000 4.000000 1.000000 -60.708740 114.000000 201.000000 -0.630564 0.596934 0.496044
2730.00000000 12700.00000000 -390.00000000 70 193 124 97.000000 1.000000 4.000000 1.000000 -60.708740 114.000000 201.000000 -0.405868 0.631166 0.660985
2730.00000000 12700.00000000 -390.00000000 70 193 124 97.000000 1.000000 4.000000 1.000000 -60.708740 114.000000 201.000000 -0.405868 0.631166 0.660985
2700.00000000 12740.00000000 -470.00000000 70 193 124 97.000000 1.000000 4.000000 1.000000 -60.708740 114.000000 201.000000 -0.580704 0.510009 0.634566
2700.00000000 12760.00000000 -540.00000000 70 193 124 97.000000 1.000000 4.000000 1.000000 -60.708740 114.000000 201.000000 0.094404 0.474837 0.874996
2700.00000000 12740.00000000 -540.00000000 70 193 124 97.000000 1.000000 4.000000 1.000000 -60.708740 114.000000 201.000000 0.297909 -0.694047 -0.655400
2710.00000000 12700.00000000 -610.00000000 70 193 124 97.000000 1.000000 4.000000 1.000000 -60.708740 114.000000 201.000000 0.001215 0.285453 0.958392
2650.00000000 13080.00000000 -50.00000000 70 193 124 97.000000 1.000000 4.000000 1.000000 -60.708740 114.000000 201.000000 0.360483 0.569269 0.738908
2680.00000000 13050.00000000 -30.00000000 70 193 124 97.000000 1.000000 4.000000 1.000000 -60.708740 114.000000 201.000000 -0.067519 0.453344 0.888775
2680.00000000 13040.00000000 -20.00000000 70 193 124 97.000000 1.000000 4.000000 1.000000 -60.708740 114.000000 201.000000 0.001320 0.468736 0.883337
2630.00000000 13100.00000000 -20.00000000 70 193 124 97.000000 1.000000 4.000000 1.000000 -60.708740 114.000000 201.000000 0.418506 0.554148 0.719565
2640.00000000 13030.00000000 -40.00000000 70 193 124 97.000000 1.000000 4.000000 1.000000 -60.708740 114.000000 201.000000 0.049388 0.594062 0.802901
2670.00000000 13080.00000000 -180.00000000 70 193 124 97.000000 1.000000 4.000000 1.000000 -60.708740 114.000000 201.000000 0.578001 0.396861 0.713033
2680.00000000 13070.00000000 -130.00000000 70 193 124 97.000000 1.000000 4.000000 1.000000 -60.708740 114.000000 201.000000 0.510532 0.184151 0.839908
2610.00000000 12990.00000000 -20.00000000 70 193 124 97.000000 1.000000 4.000000 1.000000 -60.708740 114.000000 201.000000 0.094222 0.578378 0.810309
2620.00000000 12990.00000000 -60.00000000 70 193 124 97.000000 1.000000 4.000000 1.000000 -60.708740 114.000000 201.000000 -0.013210 0.246186 0.969133
2630.00000000 12990.00000000 -20.00000000 70 193 124 97.000000 1.000000 4.000000 1.000000 -60.708740 114.000000 201.000000 0.162641 0.700725 0.694645
2620.00000000 12980.00000000 -50.00000000 70 193 124 97.000000 1.000000 4.000000 1.000000 -60.708740 114.000000 201.000000 0.394216 0.372228 0.840262
2640.00000000 12970.00000000 -30.00000000 70 193 124 97.000000 1.000000 4.000000 1.000000 -60.708740 114.000000 201.000000 0.397797 0.196713 0.896137
2600.00000000 12990.00000000 -20.00000000 70 193 124 97.000000 1.000000 4.000000 1.000000 -60.708740 114.000000 201.000000 -0.237764 0.666054 0.706994
2590.00000000 12940.00000000 -70.00000000 70 193 124 97.000000 1.000000 4.000000 1.000000 -60.708740 114.000000 201.000000 -0.270515 0.471468 0.839368
2660.00000000 12910.00000000 -60.00000000 70 193 124 97.000000 1.000000 4.000000 1.000000 -60.708740 114.000000 201.000000 0.505555 0.333316 0.795811
2640.00000000 12920.00000000 -50.00000000 70 193 124 97.000000 1.000000 4.000000 1.000000 -60.708740 114.000000 201.000000 0.170549 0.391259 0.904339
2620.00000000 12910.00000000 -80.00000000 70 193 124 97.000000 1.000000 4.000000 1.000000 -60.708740 114.000000 201.000000 0.191171 0.585748 0.787625
2620.00000000 12870.00000000 -90.00000000 70 193 124 97.000000 1.000000 4.000000 1.000000 -60.708740 114.000000 201.000000 0.509540 0.312708 0.801613
2630.00000000 12890.00000000 -70.00000000 70 193 124 97.000000 1.000000 4.000000 1.000000 -60.708740 114.000000 201.000000 0.390312 0.490724 0.779004
2630.00000000 12870.00000000 -140.00000000 70 193 124 97.000000 1.000000 4.000000 1.000000 -60.708740 114.000000 201.000000 0.828318 0.319068 0.460526
2650.00000000 12830.00000000 -40.00000000 70 193 124 97.000000 1.000000 4.000000 1.000000 -60.708740 114.000000 201.000000 0.434228 0.222337 0.872933
2640.00000000 12810.00000000 -70.00000000 70 193 124 97.000000 1.000000 4.000000 1.000000 -60.708740 114.000000 201.000000 0.477807 0.215541 0.851612
2620.00000000 12850.00000000 -30.00000000 70 193 124 97.000000 1.000000 4.000000 1.000000 -60.708740 114.000000 201.000000 0.484709 0.350335 0.801450
2570.00000000 12930.00000000 -20.00000000 70 193 124 97.000000 1.000000 4.000000 1.000000 -60.708740 114.000000 201.000000 -0.357826 0.609449 0.707483
2580.00000000 12900.00000000 -90.00000000 70 193 124 97.000000 1.000000 4.000000 1.000000 -60.708740 114.000000 201.000000 -0.411640 0.373788 0.831165
2590.00000000 12870.00000000 -30.00000000 70 193 124 97.000000 1.000000 4.000000 1.000000 -60.708740 114.000000 201.000000 -0.144398 0.802379 0.579083
2600.00000000 12880.00000000 -30.00000000 70 193 124 97.000000 1.000000 4.000000 1.000000 -60.708740 114.000000 201.000000 0.212513 0.329467 0.919940
2580.00000000 12890.00000000 -40.00000000 70 193 124 97.000000 1.000000 4.000000 1.000000 -60.708740 114.000000 201.000000 0.137183 0.472199 0.870752
2600.00000000 12890.00000000 -90.00000000 70 193 124 97.000000 1.000000 4.000000 1.000000 -60.708740 114.000000 201.000000 0.152293 0.752419 0.640838
2580.00000000 12890.00000000 -80.00000000 70 193 124 97.000000 1.000000 4.000000 1.000000 -60.708740 114.000000 201.000000 -0.315852 0.691635 0.649522
2570.00000000 12910.00000000 -110.00000000 70 193 124 97.000000 1.000000 4.000000 1.000000 -60.708740 114.000000 201.000000 -0.354945 0.678813 0.642827
2590.00000000 12860.00000000 -130.00000000 70 193 124 97.000000 1.000000 4.000000 1.000000 -60.708740 114.000000 201.000000 -0.335797 0.721882 0.605084
2590.00000000 12890.00000000 -120.00000000 70 193 124 97.000000 1.000000 4.000000 1.000000 -60.708740 114.000000 201.000000 -0.363515 0.773883 0.518615
2540.00000000 12930.00000000 -120.00000000 70 193 124 97.000000 1.000000 4.000000 1.000000 -60.708740 114.000000 201.000000 -0.597580 0.282058 0.750561
2560.00000000 12820.00000000 -90.00000000 70 193 124 97.000000 1.000000 4.000000 1.000000 -60.708740 114.000000 201.000000 0.674427 -0.577363 -0.460217
2660.00000000 12860.00000000 -290.00000000 70 193 124 97.000000 1.000000 4.000000 1.000000 -60.708740 114.000000 201.000000 -0.412730 0.608321 0.677938
2660.00000000 12810.00000000 -250.00000000 70 193 124 97.000000 1.000000 4.000000 1.000000 -60.708740 114.000000 201.000000 -0.416825 0.632710 0.652638
2660.00000000 12820.00000000 -250.00000000 70 193 124 97.000000 1.000000 4.000000 1.000000 -60.708740 114.000000 201.000000 0.697790 -0.186385 -0.691628
2670.00000000 12850.00000000 -280.00000000 70 193 124 97.000000 1.000000 4.000000 1.000000 -60.708740 114.000000 201.000000 -0.420426 0.529243 0.736983
2650.00000000 12850.00000000 -350.00000000 70 193 124 97.000000 1.000000 4.000000 1.000000 -60.708740 114.000000 201.000000 -0.511334 0.518040 0.685691
2640.00000000 12840.00000000 -350.00000000 70 193 124 97.000000 1.000000 4.000000 1.000000 -60.708740 114.000000 201.000000 -0.199324 0.746307 0.635056
2630.00000000 12810.00000000 -330.00000000 70 193 124 97.000000 1.000000 4.000000 1.000000 -60.708740 114.000000 201.000000 -0.359776 0.276176 0.891228
2630.00000000 12770.00000000 -350.00000000 70 193 124 97.000000 1.000000 4.000000 1.000000 -60.708740 114.000000 201.000000 -0.424641 0.503339 0.752549
2450.00000000 13060.00000000 -180.00000000 70 193 124 97.000000 1.000000 4.000000 1.000000 -60.708740 114.000000 201.000000 0.963788 0.040828 -0.263526
2480.00000000 13030.00000000 -120.00000000 70 193 124 97.000000 1.000000 4.000000 1.000000 -60.708740 114.000000 201.000000 0.568125 -0.665326 -0.484330
2440.00000000 13090.00000000 -340.00000000 70 193 124 97.000000 1.000000 4.000000 1.000000 -60.708740 114.000000 201.000000 0.910427 0.374714 0.175247
2510.00000000 12840.00000000 -30.00000000 70 193 124 97.000000 1.000000 4.000000 1.000000 -60.708740 114.000000 201.000000 -0.519801 0.284242 0.805614
2510.00000000 12830.00000000 -120.00000000 70 193 124 97.000000 1.000000 4.000000 1.000000 -60.708740 114.000000 201.000000 0.989154 0.140654 0.042311
2430.00000000 12930.00000000 -110.00000000 70 193 124 97.000000 1.000000 4.000000 1.000000 -60.708740 114.000000 201.000000 0.854009 -0.435468 -0.284670
2430.00000000 12910.00000000 -150.00000000 70 193 124 97.000000 1.000000 4.000000 1.000000 -60.708740 114.000000 201.000000 0.966334 0.140628 0.215458
2410.00000000 12810.00000000 -80.00000000 70 193 124 97.000000 1.000000 4.000000 1.000000 -60.708740 114.000000 201.000000 0.952732 0.111700 -0.282534
2520.00000000 13070.00000000 -660.00000000 70 193 124 97.000000 1.000000 4.000000 1.000000 -60.708740 114.000000 201.000000 0.179225 0.712304 0.678603
2680.00000000 12860.00000000 -360.00000000 70 193 124 97.000000 1.000000 4.000000 1.000000 -60.708740 114.000000 201.000000 -0.379040 0.572662 0.726903
2650.00000000 12860.00000000 -410.00000000 70 193 124 97.000000 1.000000 4.000000 1.000000 -60.708740 114.000000 201.000000 -0.355855 0.434933 0.827164
2660.00000000 12890.00000000 -520.00000000 70 193 124 97.000000 1.000000 4.000000 1.000000 -60.708740 114.000000 201.000000 -0.272996 0.665727 0.694464
2650.00000000 12880.00000000 -510.00000000 70 193 124 97.000000 1.000000 4.000000 1.000000 -60.708740 114.000000 201.000000 -0.067805 0.711226 0.699685
2630.00000000 12860.00000000 -460.00000000 70 193 124 97.000000 1.000000 4.000000 1.000000 -60.708740 114.000000 201.000000 0.055962 0.710290 0.701681
2650.00000000 12770.00000000 -470.00000000 70 193 124 97.000000 1.000000 4.000000 1.000000 -60.708740 114.000000 201.000000 -0.003313 0.135852 0.990724
2630.00000000 12850.00000000 -460.00000000 70 193 124 97.000000 1.000000 4.000000 1.000000 -60.708740 114.000000 201.000000 -0.169497 0.427364 0.888049
2620.00000000 12830.00000000 -500.00000000 70 193 124 97.000000 1.000000 4.000000 1.000000 -60.708740 114.000000 201.000000 -0.067547 0.281660 0.957134
2640.00000000 12800.00000000 -490.00000000 70 193 124 97.000000 1.000000 4.000000 1.000000 -60.708740 114.000000 201.000000 -0.054993 0.562616 0.824888
2590.00000000 12780.00000000 -460.00000000 70 193 124 97.000000 1.000000 4.000000 1.000000 -60.708740 114.000000 201.000000 -0.201299 0.597750 0.775999
2560.00000000 12840.00000000 -480.00000000 70 193 124 97.000000 1.000000 4.000000 1.000000 -60.708740 114.000000 201.000000 0.435468 0.284670 0.854009
2680.00000000 12900.00000000 -540.00000000 70 193 124 97.000000 1.000000 4.000000 1.000000 -60.708740 114.000000 201.000000 0.040984 0.626064 0.778694
2650.00000000 12860.00000000 -530.00000000 70 193 124 97.000000 1.000000 4.000000 1.000000 -60.708740 114.000000 201.000000 -0.200632 0.368066 0.907896
2670.00000000 12860.00000000 -590.00000000 70 193 124 97.000000 1.000000 4.000000 1.000000 -60.708740 114.000000 201.000000 0.151190 0.433412 0.888423
2650.00000000 12890.00000000 -590.00000000 70 193 124 97.000000 1.000000 4.000000 1.000000 -60.708740 114.000000 201.000000 0.213788 0.447011 0.868606
2630.00000000 12860.00000000 -530.00000000 70 193 124 97.000000 1.000000 4.000000 1.000000 -60.708740 114.000000 201.000000 0.171243 0.507772 0.844301
2640.00000000 12860.00000000 -530.00000000 70 193 124 97.000000 1.000000 4.000000 1.000000 -60.708740 114.000000 201.000000 -0.037545 0.560391 0.827377
2650.00000000 12870.00000000 -610.00000000 70 193 124 97.000000 1.000000 4.000000 1.000000 -60.708740 114.000000 201.000000 -0.292928 0.728319 0.619471
2670.00000000 12890.00000000 -660.00000000 70 193 124 97.000000 1.000000 4.000000 1.000000 -60.708740 114.000000 201.000000 0.029076 0.557975 0.829348
2670.00000000 12890.00000000 -660.00000000 70 193 124 97.000000 1.000000 4.000000 1.000000 -60.708740 114.000000 201.000000 0.029076 0.557975 0.829348
2640.00000000 12900.00000000 -630.00000000 70 193 124 97.000000 1.000000 4.000000 1.000000 -60.708740 114.000000 201.000000 0.202792 0.667203 0.716740
2640.00000000 12920.00000000 -680.00000000 70 193 124 97.000000 1.000000 4.000000 1.000000 -60.708740 114.000000 201.000000 0.199513 -0.737734 -0.644937
2640.00000000 12870.00000000 -610.00000000 70 193 124 97.000000 1.000000 4.000000 1.000000 -60.708740 114.000000 201.000000 -0.147797 0.490217 0.858978
2640.00000000 12870.00000000 -690.00000000 70 193 124 97.000000 1.000000 4.000000 1.000000 -60.708740 114.000000 201.000000 -0.037575 0.555272 0.830820
2640.00000000 12870.00000000 -690.00000000 70 193 124 97.000000 1.000000 4.000000 1.000000 -60.708740 114.000000 201.000000 -0.037575 0.555272 0.830820
2660.00000000 12850.00000000 -570.00000000 70 193 124 97.000000 1.000000 4.000000 1.000000 -60.708740 114.000000 201.000000 -0.055593 0.782573 0.620072
2670.00000000 12770.00000000 -630.00000000 70 193 124 97.000000 1.000000 4.000000 1.000000 -60.708740 114.000000 201.000000 -0.046395 0.575013 0.816828
2660.00000000 12790.00000000 -640.00000000 70 193 124 97.000000 1.000000 4.000000 1.000000 -60.708740 114.000000 201.000000 0.101515 0.301909 0.947916
2630.00000000 12800.00000000 -670.00000000 70 193 124 97.000000 1.000000 4.000000 1.000000 -60.708740 114.000000 201.000000 0.236541 -0.486818 -0.840867
2590.00000000 12870.00000000 -650.00000000 70 193 124 97.000000 1.000000 4.000000 1.000000 -60.708740 114.000000 201.000000 0.226850 -0.668034 -0.708710
2580.00000000 12780.00000000 -630.00000000 70 193 124 97.000000 1.000000 4.000000 1.000000 -60.708740 114.000000 201.000000 0.159304 0.744936 0.647837
2460.00000000 13090.00000000 -460.00000000 70 193 124 97.000000 1.000000 4.000000 1.000000 -60.708740 114.000000 201.000000 0.947427 0.172136 0.269725
2480.00000000 13100.00000000 -660.00000000 70 193 124 97.000000 1.000000 4.000000 1.000000 -60.708740 114.000000 201.000000 0.614056 0.383579 0.689784
2490.00000000 13100.00000000 -660.00000000 70 193 124 97.000000 1.000000 4.000000 1.000000 -60.708740 114.000000 201.000000 0.307485 0.418735 0.854467
2490.00000000 13070.00000000 -590.00000000 70 193 124 97.000000 1.000000 4.000000 1.000000 -60.708740 114.000000 201.000000 0.463349 0.188004 0.866004
2460.00000000 13080.00000000 -540.00000000 70 193 124 97.000000 1.000000 4.000000 1.000000 -60.708740 114.000000 201.000000 0.882592 0.189442 0.430282
2480.00000000 12800.00000000 -560.00000000 70 193 124 97.000000 1.000000 4.000000 1.000000 -60.708740 114.000000 201.000000 0.383480 0.610605 0.692896
2500.00000000 12780.00000000 -570.00000000 70 193 124 97.000000 1.000000 4.000000 1.000000 -60.708740 114.000000 201.000000 0.327432 0.756480 0.566150
2440.00000000 12790.00000000 -570.00000000 70 193 124 97.000000 1.000000 4.000000 1.000000 -60.708740 114.000000 201.000000 0.733790 0.398906 0.549932
2430.00000000 12840.00000000 -680.00000000 70 193 124 97.000000 1.000000 4.000000 1.000000 -60.708740 114.000000 201.000000 0.684429 0.114319 0.720061
2640.00000000 12730.00000000 -140.00000000 70 193 124 97.000000 1.000000 4.000000 1.000000 -60.708740 114.000000 201.000000 0.515181 -0.723904 -0.458859
2630.00000000 12740.00000000 -160.00000000 70 193 124 97.000000 1.000000 4.000000 1.000000 -60.708740 114.000000 201.000000 0.717009 -0.514051 -0.470797
2610.00000000 12690.00000000 -110.00000000 70 193 124 97.000000 1.000000 4.000000 1.000000 -60.708740 114.000000 201.000000 -0.236955 0.726556 0.644956
2550.00000000 12730.00000000 -90.00000000 70 193 124 97.000000 1.000000 4.000000 1.000000 -60.708740 114.000000 201.000000 0.684397 0.012545 0.729001
2580.00000000 12710.00000000 -90.00000000 70 193 124 97.000000 1.000000 4.000000 1.000000 -60.708740 114.000000 201.000000 -0.199743 0.395111 0.896655
2570.00000000 12730.00000000 -70.00000000 70 193 124 97.000000 1.000000 4.000000 1.000000 -60.708740 114.000000 201.000000 0.839243 -0.102206 0.534064
2530.00000000 12710.00000000 -140.00000000 70 193 124 97.000000 1.000000 4.000000 1.000000 -60.708740 114.000000 201.000000 0.540835 0.409325 0.734813
2520.00000000 12600.00000000 -150.00000000 70 193 124 97.000000 1.000000 4.000000 1.000000 -60.708740 114.000000 201.000000 0.586656 0.449602 0.673568
2660.00000000 12750.00000000 -350.00000000 70 193 124 97.000000 1.000000 4.000000 1.000000 -60.708740 114.000000 201.000000 0.265738 -0.564497 -0.781490
2640.00000000 12730.00000000 -300.00000000 70 193 124 97.000000 1.000000 4.000000 1.000000 -60.708740 114.000000 201.000000 0.230807 -0.667300 -0.708123
2550.00000000 12610.00000000 -190.00000000 70 193 124 97.000000 1.000000 4.000000 1.000000 -60.708740 114.000000 201.000000 0.092065 0.185358 0.978349
2530.00000000 12440.00000000 -130.00000000 70 193 124 97.000000 1.000000 4.000000 1.000000 -60.708740 114.000000 201.000000 -0.171624 0.260814 0.950011
2520.00000000 12570.00000000 -230.00000000 70 193 124 97.000000 1.000000 4.000000 1.000000 -60.708740 114.000000 201.000000 0.073773 0.672638 0.736285
2510.00000000 12750.00000000 -20.00000000 70 193 124 97.000000 1.000000 4.000000 1.000000 -60.708740 114.000000 201.000000 -0.485742 0.479111 0.731100
2490.00000000 12730.00000000 -20.00000000 70 193 124 97.000000 1.000000 4.000000 1.000000 -60.708740 114.000000 201.000000 0.773964 -0.353858 -0.525132
2450.00000000 12690.00000000 -120.00000000 70 193 124 97.000000 1.000000 4.000000 1.000000 -60.708740 114.000000 201.000000 0.913260 -0.150568 0.378531
2490.00000000 12680.00000000 -60.00000000 70 193 124 97.000000 1.000000 4.000000 1.000000 -60.708740 114.000000 201.000000 0.901388 -0.233042 0.364952
2500.00000000 12670.00000000 -150.00000000 70 193 124 97.000000 1.000000 4.000000 1.000000 -60.708740 114.000000 201.000000 0.626857 -0.009687 0.779074
2480.00000000 12680.00000000 -140.00000000 70 193 124 97.000000 1.000000 4.000000 1.000000 -60.708740 114.000000 201.000000 0.535905 0.040158 0.843323
2510.00000000 12680.00000000 -110.00000000 70 193 124 97.000000 1.000000 4.000000 1.000000 -60.708740 114.000000 201.000000 0.722688 0.095283 0.684575
2490.00000000 12660.00000000 -140.00000000 70 193 124 97.000000 1.000000 4.000000 1.000000 -60.708740 114.000000 201.000000 0.546550 0.143673 0.825010
2360.00000000 12680.00000000 -90.00000000 70 193 124 97.000000 1.000000 4.000000 1.000000 -60.708740 114.000000 201.000000 0.964441 -0.258266 0.056145
2380.00000000 12620.00000000 -110.00000000 70 193 124 97.000000 1.000000 4.000000 1.000000 -60.708740 114.000000 201.000000 0.648874 0.044015 0.759622
2490.00000000 12620.00000000 -220.00000000 70 193 124 97.000000 1.000000 4.000000 1.000000 -60.708740 114.000000 201.000000 0.550532 0.402628 0.731304
2460.00000000 12620.00000000 -190.00000000 70 193 124 97.000000 1.000000 4.000000 1.000000 -60.708740 114.000000 201.000000 0.857097 0.244235 0.453579
2490.00000000 12640.00000000 -290.00000000 70 193 124 97.000000 1.000000 4.000000 1.000000 -60.708740 114.000000 201.000000 0.341969 0.021611 0.939463
2430.00000000 12610.00000000 -230.00000000 70 193 124 97.000000 1.000000 4.000000 1.000000 -60.708740 114.000000 201.000000 0.577876 0.356493 0.734147
2480.00000000 12560.00000000 -140.00000000 70 193 124 97.000000 1.000000 4.000000 1.000000 -60.708740 114.000000 201.000000 0.557909 0.290875 0.777258
2510.00000000 12450.00000000 -150.00000000 70 193 124 97.000000 1.000000 4.000000 1.000000 -60.708740 114.000000 201.000000 0.455466 0.237568 0.857970
2360.00000000 12570.00000000 -110.00000000 70 193 124 97.000000 1.000000 4.000000 1.000000 -60.708740 114.000000 201.000000 0.953858 0.232747 0.189695
2360.00000000 12590.00000000 -120.00000000 70 193 124 97.000000 1.000000 4.000000 1.000000 -60.708740 114.000000 201.000000 0.736478 -0.186041 0.650376
2400.00000000 12570.00000000 -110.00000000 70 193 124 97.000000 1.000000 4.000000 1.000000 -60.708740 114.000000 201.000000 0.731423 0.165749 0.661474
2490.00000000 12570.00000000 -240.00000000 70 193 124 97.000000 1.000000 4.000000 1.000000 -60.708740 114.000000 201.000000 0.090004 0.296099 0.950907
2510.00000000 12580.00000000 -240.00000000 70 193 124 97.000000 1.000000 4.000000 1.000000 -60.708740 114.000000 201.000000 0.088174 0.582524 0.808017
2450.00000000 12700.00000000 -400.00000000 70 193 124 97.000000 1.000000 4.000000 1.000000 -60.708740 114.000000 201.000000 0.484154 0.710425 0.510774
2470.00000000 12700.00000000 -400.00000000 70 193 124 97.000000 1.000000 4.000000 1.000000 -60.708740 114.000000 201.000000 0.061840 0.665855 0.743514
2480.00000000 12750.00000000 -490.00000000 70 193 124 97.000000 1.000000 4.000000 1.000000 -60.708740 114.000000 201.000000 0.202323 0.351555 0.914043
2470.00000000 12750.00000000 -490.00000000 70 193 124 97.000000 1.000000 4.000000 1.000000 -60.708740 114.000000 201.000000 0.296054 0.267171 0.917045
2470.00000000 12710.00000000 -450.00000000 70 193 124 97.000000 1.000000 4.000000 1.000000 -60.708740 114.000000 201.000000 0.397034 0.723227 0.565073
2450.00000000 12660.00000000 -370.00000000 70 193 124 97.000000 1.000000 4.000000 1.000000 -60.708740 114.000000 201.000000 0.487636 0.435096 0.756903
2400.00000000 12690.00000000 -390.00000000 70 193 124 97.000000 1.000000 4.000000 1.000000 -60.708740 114.000000 201.000000 0.632726 0.464894 0.619299
2410.00000000 12750.00000000 -510.00000000 70 193 124 97.000000 1.000000 4.000000 1.000000 -60.708740 114.000000 201.000000 0.194178 0.504260 0.841437
2440.00000000 12760.00000000 -540.00000000 70 193 124 97.000000 1.000000 4.000000 1.000000 -60.708740 114.000000 201.000000 0.359249 0.634837 0.684049
2760.00000000 12810.00000000 -710.00000000 70 193 124 97.000000 1.000000 4.000000 1.000000 -60.708740 114.000000 201.000000 0.559189 -0.586220 -0.586220
2730.00000000 12830.00000000 -710.00000000 70 193 124 97.000000 1.000000 4.000000 1.000000 -60.708740 114.000000 201.000000 -0.129256 0.436061 0.890586
2690.00000000 12790.00000000 -720.00000000 70 193 124 97.000000 1.000000 4.000000 1.000000 -60.708740 114.000000 201.000000 0.115782 0.302098 0.946219
2630.00000000 12940.00000000 -820.00000000 70 193 124 97.000000 1.000000 4.000000 1.000000 -60.708740 114.000000 201.000000 0.231084 0.418933 0.878120
2650.00000000 12910.00000000 -700.00000000 70 193 124 97.000000 1.000000 4.000000 1.000000 -60.708740 114.000000 201.000000 -0.184863 0.371158 0.909982
2620.00000000 12900.00000000 -730.00000000 70 193 124 97.000000 1.000000 4.000000 1.000000 -60.708740 114.000000 201.000000 -0.116960 0.629214 0.768381
2630.00000000 12900.00000000 -730.00000000 70 193 124 97.000000 1.000000 4.000000 1.000000 -60.708740 114.000000 201.000000 -0.097980 0.633212 0.767751
2630.00000000 12910.00000000 -740.00000000 70 193 124 97.000000 1.000000 4.000000 1.000000 -60.708740 114.000000 201.000000 -0.325182 0.613154 0.719930
2610.00000000 12900.00000000 -810.00000000 70 193 124 97.000000 1.000000 4.000000 1.000000 -60.708740 114.000000 201.000000 0.270309 0.514056 0.814052
2630.00000000 12910.00000000 -780.00000000 70 193 124 97.000000 1.000000 4.000000 1.000000 -60.708740 114.000000 201.000000 0.329371 0.722019 0.608443
2590.00000000 12890.00000000 -730.00000000 70 193 124 97.000000 1.000000 4.000000 1.000000 -60.708740 114.000000 201.000000 0.235491 0.472501 0.849286
2550.00000000 12880.00000000 -710.00000000 70 193 124 97.000000 1.000000 4.000000 1.000000 -60.708740 114.000000 201.000000 0.088720 0.173793 0.980778
2530.00000000 12860.00000000 -760.00000000 70 193 124 97.000000 1.000000 4.000000 1.000000 -60.708740 114.000000 201.000000 0.344358 0.703405 0.621803
2580.00000000 12910.00000000 -810.00000000 70 193 124 97.000000 1.000000 4.000000 1.000000 -60.708740 114.000000 201.000000 0.529908 0.408505 0.743183
2460.00000000 12850.00000000 -730.00000000 70 193 124 97.000000 1.000000 4.000000 1.000000 -60.708740 114.000000 201.000000 0.308726 0.686955 0.657861
2660.00000000 12720.00000000 -710.00000000 70 193 124 97.000000 1.000000 4.000000 1.000000 -60.708740 114.000000 201.000000 0.097864 0.406617 0.908342
2270.00000000 13530.00000000 -170.00000000 70 193 124 97.000000 1.000000 4.000000 1.000000 -60.708740 114.000000 201.000000 -0.668420 0.598411 0.441724
2260.00000000 13530.00000000 -170.00000000 70 193 124 97.000000 1.000000 4.000000 1.000000 -60.708740 114.000000 201.000000 -0.533109 0.667648 0.519655
2270.00000000 13530.00000000 -190.00000000 70 193 124 97.000000 1.000000 4.000000 1.000000 -60.708740 114.000000 201.000000 0.918973 -0.230818 -0.319705
2280.00000000 13550.00000000 -210.00000000 70 193 124 97.000000 1.000000 4.000000 1.000000 -60.708740 114.000000 201.000000 -0.585344 0.652432 0.481357
