//X Y Z R G B PointSourceId ScanDirectionFlag NumberOfReturns ReturnNumber GpsTime Intensity Classification Nx Ny Nz
1360.00000000 1360.00000000 330.00000000 219 108 92 97.000000 1.000000 4.000000 1.000000 -60.708740 114.000000 50.000000 -0.410842 0.146425 0.899872
1370.00000000 1360.00000000 330.00000000 219 108 92 97.000000 1.000000 4.000000 1.000000 -60.708740 114.000000 50.000000 -0.003182 0.088048 0.996111
1380.00000000 1390.00000000 330.00000000 219 108 92 97.000000 1.000000 4.000000 1.000000 -60.708740 114.000000 50.000000 -0.320884 0.531613 0.783850
1350.00000000 1330.00000000 360.00000000 219 108 92 97.000000 1.000000 4.000000 1.000000 -60.708740 114.000000 50.000000 -0.214379 0.258638 0.941885
1350.00000000 1330.00000000 360.00000000 219 108 92 97.000000 1.000000 4.000000 1.000000 -60.708740 114.000000 50.000000 -0.214379 0.258638 0.941885
1360.00000000 1350.00000000 330.00000000 219 108 92 97.000000 1.000000 4.000000 1.000000 -60.708740 114.000000 50.000000 -0.064129 0.143415 0.987583
1530.00000000 1490.00000000 230.00000000 219 108 92 97.000000 1.000000 4.000000 1.000000 -60.708740 114.000000 50.000000 0.770877 -0.525231 -0.360389
1610.00000000 1320.00000000 270.00000000 219 108 92 97.000000 1.000000 4.000000 1.000000 -60.708740 114.000000 50.000000 -0.355082 0.705256 -0.613621
1590.00000000 1350.00000000 230.00000000 219 108 92 97.000000 1.000000 4.000000 1.000000 -60.708740 114.000000 50.000000 -0.337498 0.896525 -0.286947
1520.00000000 1380.00000000 200.00000000 219 108 92 97.000000 1.000000 4.000000 1.000000 -60.708740 114.000000 50.000000 -0.682177 0.487748 0.544736
1540.00000000 1330.00000000 230.00000000 219 108 92 97.000000 1.000000 4.000000 1.000000 -60.708740 114.000000 50.000000 -0.221282 0.898318 -0.379550
1530.00000000 1320.00000000 150.00000000 219 108 92 97.000000 1.000000 4.000000 1.000000 -60.708740 114.000000 50.000000 0.719846 -0.276127 -0.636848
1610.00000000 1330.00000000 140.00000000 219 108 92 97.000000 1.000000 4.000000 1.000000 -60.708740 114.000000 50.000000 0.819334 -0.273111 -0.504085
1630.00000000 1330.00000000 130.00000000 219 108 92 97.000000 1.000000 4.000000 1.000000 -60.708740 114.000000 50.000000 -0.605741 0.332914 0.722666
1620.00000000 1380.00000000 0.00000000 219 108 92 97.000000 1.000000 4.000000 1.000000 -60.708740 114.000000 50.000000 -0.406699 0.038418 0.912754
1560.00000000 1440.00000000 30.00000000 219 108 92 97.000000 1.000000 4.000000 1.000000 -60.708740 114.000000 50.000000 -0.142691 0.125617 0.981764
1510.00000000 1460.00000000 10.00000000 219 108 92 97.000000 1.000000 4.000000 1.000000 -60.708740 114.000000 50.000000 -0.150494 -0.486549 0.860593
1510.00000000 1480.00000000 20.00000000 219 108 92 97.000000 1.000000 4.000000 1.000000 -60.708740 114.000000 50.000000 -0.026532 -0.322174 0.946308
1510.00000000 1480.00000000 20.00000000 219 108 92 97.000000 1.000000 4.000000 1.000000 -60.708740 114.000000 50.000000 -0.026532 -0.322174 0.946308
1580.00000000 1360.00000000 130.00000000 219 108 92 97.000000 1.000000 4.000000 1.000000 -60.708740 114.000000 50.000000 0.758603 -0.233055 -0.608446
1570.00000000 1360.00000000 120.00000000 219 108 92 97.000000 1.000000 4.000000 1.000000 -60.708740 114.000000 50.000000 -0.470437 0.661291 0.584280
1570.00000000 1330.00000000 90.00000000 219 108 92 97.000000 1.000000 4.000000 1.000000 -60.708740 114.000000 50.000000 -0.636524 0.548727 0.541974
1560.00000000 1380.00000000 60.00000000 219 108 92 97.000000 1.000000 4.000000 1.000000 -60.708740 114.000000 50.000000 -0.140300 0.125660 0.982103
1560.00000000 1370.00000000 60.00000000 219 108 92 97.000000 1.000000 4.000000 1.000000 -60.708740 114.000000 50.000000 0.065509 0.383694 0.921134
1560.00000000 1370.00000000 60.00000000 219 108 92 97.000000 1.000000 4.000000 1.000000 -60.708740 114.000000 50.000000 0.065509 0.383694 0.921134
1520.00000000 1390.00000000 60.00000000 219 108 92 97.000000 1.000000 4.000000 1.000000 -60.708740 114.000000 50.000000 0.053263 -0.339067 0.939253
1510.00000000 1330.00000000 40.00000000 219 108 92 97.000000 1.000000 4.000000 1.000000 -60.708740 114.000000 50.000000 0.038901 -0.185074 0.981954
1440.00000000 1560.00000000 260.00000000 219 108 92 97.000000 1.000000 4.000000 1.000000 -60.708740 114.000000 50.000000 -0.792376 0.525604 0.309646
1500.00000000 1490.00000000 230.00000000 219 108 92 97.000000 1.000000 4.000000 1.000000 -60.708740 114.000000 50.000000 0.837883 -0.542159 -0.063369
1450.00000000 1510.00000000 120.00000000 219 108 92 97.000000 1.000000 4.000000 1.000000 -60.708740 114.000000 50.000000 0.055958 -0.695884 0.715971
1400.00000000 1510.00000000 110.00000000 219 108 92 97.000000 1.000000 4.000000 1.000000 -60.708740 114.000000 50.000000 0.298537 -0.758315 0.579512
1440.00000000 1450.00000000 200.00000000 219 108 92 97.000000 1.000000 4.000000 1.000000 -60.708740 114.000000 50.000000 -0.485018 0.806243 -0.338718
1440.00000000 1450.00000000 150.00000000 219 108 92 97.000000 1.000000 4.000000 1.000000 -60.708740 114.000000 50.000000 -0.230286 0.737854 -0.634460
1440.00000000 1400.00000000 170.00000000 219 108 92 97.000000 1.000000 4.000000 1.000000 -60.708740 114.000000 50.000000 -0.575145 0.688506 -0.441778
1500.00000000 1370.00000000 170.00000000 219 108 92 97.000000 1.000000 4.000000 1.000000 -60.708740 114.000000 50.000000 -0.319755 -0.350063 0.880462
1490.00000000 1390.00000000 170.00000000 219 108 92 97.000000 1.000000 4.000000 1.000000 -60.708740 114.000000 50.000000 -0.011034 -0.288118 0.957531
1420.00000000 1470.00000000 310.00000000 219 108 92 97.000000 1.000000 4.000000 1.000000 -60.708740 114.000000 50.000000 0.697138 -0.486492 -0.526615
1410.00000000 1480.00000000 260.00000000 219 108 92 97.000000 1.000000 4.000000 1.000000 -60.708740 114.000000 50.000000 0.826843 -0.458308 -0.326013
1420.00000000 1420.00000000 310.00000000 219 108 92 97.000000 1.000000 4.000000 1.000000 -60.708740 114.000000 50.000000 0.694575 -0.354642 -0.625935
1420.00000000 1410.00000000 310.00000000 219 108 92 97.000000 1.000000 4.000000 1.000000 -60.708740 114.000000 50.000000 0.758817 -0.159033 -0.631590
1370.00000000 1410.00000000 260.00000000 219 108 92 97.000000 1.000000 4.000000 1.000000 -60.708740 114.000000 50.000000 -0.207306 0.790835 0.575851
1420.00000000 1480.00000000 220.00000000 219 108 92 97.000000 1.000000 4.000000 1.000000 -60.708740 114.000000 50.000000 0.875279 -0.483602 -0.003997
1400.00000000 1440.00000000 160.00000000 219 108 92 97.000000 1.000000 4.000000 1.000000 -60.708740 114.000000 50.000000 -0.576891 0.689941 -0.437240
1390.00000000 1480.00000000 190.00000000 219 108 92 97.000000 1.000000 4.000000 1.000000 -60.708740 114.000000 50.000000 0.832803 -0.498455 0.240792
1400.00000000 1440.00000000 160.00000000 219 108 92 97.000000 1.000000 4.000000 1.000000 -60.708740 114.000000 50.000000 -0.576891 0.689941 -0.437240
1420.00000000 1410.00000000 160.00000000 219 108 92 97.000000 1.000000 4.000000 1.000000 -60.708740 114.000000 50.000000 -0.611766 0.658440 -0.438405
1420.00000000 1420.00000000 160.00000000 219 108 92 97.000000 1.000000 4.000000 1.000000 -60.708740 114.000000 50.000000 0.513004 -0.647562 0.563463
1420.00000000 1430.00000000 170.00000000 219 108 92 97.000000 1.000000 4.000000 1.000000 -60.708740 114.000000 50.000000 -0.416792 0.629340 -0.655908
1360.00000000 1400.00000000 180.00000000 219 108 92 97.000000 1.000000 4.000000 1.000000 -60.708740 114.000000 50.000000 -0.514723 0.799801 -0.308834
1380.00000000 1390.00000000 170.00000000 219 108 92 97.000000 1.000000 4.000000 1.000000 -60.708740 114.000000 50.000000 -0.507857 0.707670 -0.491206
1380.00000000 1390.00000000 180.00000000 219 108 92 97.000000 1.000000 4.000000 1.000000 -60.708740 114.000000 50.000000 -0.536274 0.689973 -0.486155
1380.00000000 1390.00000000 170.00000000 219 108 92 97.000000 1.000000 4.000000 1.000000 -60.708740 114.000000 50.000000 -0.507857 0.707670 -0.491206
1370.00000000 1320.00000000 160.00000000 219 108 92 97.000000 1.000000 4.000000 1.000000 -60.708740 114.000000 50.000000 0.657732 -0.624429 0.421281
1450.00000000 1440.00000000 70.00000000 219 108 92 97.000000 1.000000 4.000000 1.000000 -60.708740 114.000000 50.000000 0.277424 -0.342700 0.897548
1440.00000000 1450.00000000 70.00000000 219 108 92 97.000000 1.000000 4.000000 1.000000 -60.708740 114.000000 50.000000 0.415380 -0.523740 0.743744
1440.00000000 1420.00000000 120.00000000 219 108 92 97.000000 1.000000 4.000000 1.000000 -60.708740 114.000000 50.000000 -0.213020 0.716804 -0.663938
1440.00000000 1420.00000000 120.00000000 219 108 92 97.000000 1.000000 4.000000 1.000000 -60.708740 114.000000 50.000000 -0.213020 0.716804 -0.663938
1440.00000000 1420.00000000 120.00000000 219 108 92 97.000000 1.000000 4.000000 1.000000 -60.708740 114.000000 50.000000 -0.213020 0.716804 -0.663938
1440.00000000 1440.00000000 60.00000000 219 108 92 97.000000 1.000000 4.000000 1.000000 -60.708740 114.000000 50.000000 0.202218 -0.631351 0.748668
1430.00000000 1440.00000000 40.00000000 219 108 92 97.000000 1.000000 4.000000 1.000000 -60.708740 114.000000 50.000000 0.146225 -0.691928 0.707003
1450.00000000 1460.00000000 40.00000000 219 108 92 97.000000 1.000000 4.000000 1.000000 -60.708740 114.000000 50.000000 0.040478 -0.559709 0.827700
1430.00000000 1400.00000000 60.00000000 219 108 92 97.000000 1.000000 4.000000 1.000000 -60.708740 114.000000 50.000000 -0.036849 -0.115012 0.992680
1440.00000000 1420.00000000 40.00000000 219 108 92 97.000000 1.000000 4.000000 1.000000 -60.708740 114.000000 50.000000 -0.104099 -0.494825 0.862735
1440.00000000 1360.00000000 40.00000000 219 108 92 97.000000 1.000000 4.000000 1.000000 -60.708740 114.000000 50.000000 0.322265 -0.189981 0.927390
1400.00000000 1440.00000000 130.00000000 219 108 92 97.000000 1.000000 4.000000 1.000000 -60.708740 114.000000 50.000000 -0.665553 0.706461 -0.240732
1410.00000000 1460.00000000 80.00000000 219 108 92 97.000000 1.000000 4.000000 1.000000 -60.708740 114.000000 50.000000 -0.557225 0.684399 -0.470211
1410.00000000 1430.00000000 120.00000000 219 108 92 97.000000 1.000000 4.000000 1.000000 -60.708740 114.000000 50.000000 -0.389695 0.831455 -0.396006
1410.00000000 1430.00000000 120.00000000 219 108 92 97.000000 1.000000 4.000000 1.000000 -60.708740 114.000000 50.000000 -0.389695 0.831455 -0.396006
1410.00000000 1410.00000000 100.00000000 219 108 92 97.000000 1.000000 4.000000 1.000000 -60.708740 114.000000 50.000000 0.365443 -0.755249 0.544104
1410.00000000 1410.00000000 100.00000000 219 108 92 97.000000 1.000000 4.000000 1.000000 -60.708740 114.000000 50.000000 0.365443 -0.755249 0.544104
1370.00000000 1410.00000000 90.00000000 219 108 92 97.000000 1.000000 4.000000 1.000000 -60.708740 114.000000 50.000000 -0.537559 0.775047 -0.332163
1420.00000000 1440.00000000 50.00000000 219 108 92 97.000000 1.000000 4.000000 1.000000 -60.708740 114.000000 50.000000 0.615013 -0.317999 0.721551
1410.00000000 1440.00000000 0.00000000 219 108 92 97.000000 1.000000 4.000000 1.000000 -60.708740 114.000000 50.000000 -0.205992 -0.485660 0.849530
1420.00000000 1460.00000000 0.00000000 219 108 92 97.000000 1.000000 4.000000 1.000000 -60.708740 114.000000 50.000000 0.455418 -0.391048 0.799798
1420.00000000 1470.00000000 10.00000000 219 108 92 97.000000 1.000000 4.000000 1.000000 -60.708740 114.000000 50.000000 0.497040 -0.594763 0.631830
1390.00000000 1400.00000000 60.00000000 219 108 92 97.000000 1.000000 4.000000 1.000000 -60.708740 114.000000 50.000000 0.039104 -0.451719 0.891303
1420.00000000 1430.00000000 -10.00000000 219 108 92 97.000000 1.000000 4.000000 1.000000 -60.708740 114.000000 50.000000 0.185182 -0.625945 0.757562
1380.00000000 1430.00000000 10.00000000 219 108 92 97.000000 1.000000 4.000000 1.000000 -60.708740 114.000000 50.000000 -0.132674 -0.514657 0.847069
1350.00000000 1370.00000000 110.00000000 219 108 92 97.000000 1.000000 4.000000 1.000000 -60.708740 114.000000 50.000000 -0.618453 0.697195 -0.362541
1370.00000000 1360.00000000 70.00000000 219 108 92 97.000000 1.000000 4.000000 1.000000 -60.708740 114.000000 50.000000 0.494277 -0.183674 0.849679
1350.00000000 1370.00000000 80.00000000 219 108 92 97.000000 1.000000 4.000000 1.000000 -60.708740 114.000000 50.000000 0.098273 -0.502760 0.858822
1380.00000000 1370.00000000 80.00000000 219 108 92 97.000000 1.000000 4.000000 1.000000 -60.708740 114.000000 50.000000 0.544750 -0.464786 0.698013
1360.00000000 1370.00000000 90.00000000 219 108 92 97.000000 1.000000 4.000000 1.000000 -60.708740 114.000000 50.000000 -0.275293 0.828989 -0.486817
1400.00000000 1340.00000000 40.00000000 219 108 92 97.000000 1.000000 4.000000 1.000000 -60.708740 114.000000 50.000000 -0.245507 -0.357234 0.901171
1370.00000000 1370.00000000 40.00000000 219 108 92 97.000000 1.000000 4.000000 1.000000 -60.708740 114.000000 50.000000 0.131430 -0.240738 0.961650
1670.00000000 1260.00000000 590.00000000 219 108 92 97.000000 1.000000 4.000000 1.000000 -60.708740 114.000000 50.000000 0.363518 -0.226287 0.903686
1600.00000000 1240.00000000 640.00000000 219 108 92 97.000000 1.000000 4.000000 1.000000 -60.708740 114.000000 50.000000 -0.244927 -0.500636 0.830286
1610.00000000 1250.00000000 570.00000000 219 108 92 97.000000 1.000000 4.000000 1.000000 -60.708740 114.000000 50.000000 -0.348380 0.685311 -0.639515
1630.00000000 1250.00000000 590.00000000 219 108 92 97.000000 1.000000 4.000000 1.000000 -60.708740 114.000000 50.000000 -0.081616 -0.438514 0.895011
1600.00000000 1260.00000000 530.00000000 219 108 92 97.000000 1.000000 4.000000 1.000000 -60.708740 114.000000 50.000000 0.240003 -0.314735 0.918336
1620.00000000 1250.00000000 490.00000000 219 108 92 97.000000 1.000000 4.000000 1.000000 -60.708740 114.000000 50.000000 0.404469 -0.391780 0.826386
1620.00000000 1260.00000000 500.00000000 219 108 92 97.000000 1.000000 4.000000 1.000000 -60.708740 114.000000 50.000000 -0.003568 -0.246170 0.969220
1620.00000000 1250.00000000 490.00000000 219 108 92 97.000000 1.000000 4.000000 1.000000 -60.708740 114.000000 50.000000 0.404469 -0.391780 0.826386
1600.00000000 1270.00000000 510.00000000 219 108 92 97.000000 1.000000 4.000000 1.000000 -60.708740 114.000000 50.000000 0.256756 -0.521292 0.813838
1570.00000000 1230.00000000 610.00000000 219 108 92 97.000000 1.000000 4.000000 1.000000 -60.708740 114.000000 50.000000 0.364269 -0.246287 0.898137
1540.00000000 1240.00000000 630.00000000 219 108 92 97.000000 1.000000 4.000000 1.000000 -60.708740 114.000000 50.000000 0.238028 0.040282 0.970423
1590.00000000 1280.00000000 490.00000000 219 108 92 97.000000 1.000000 4.000000 1.000000 -60.708740 114.000000 50.000000 0.073690 -0.749904 0.657430
1560.00000000 1270.00000000 520.00000000 219 108 92 97.000000 1.000000 4.000000 1.000000 -60.708740 114.000000 50.000000 0.118304 -0.344034 0.931475
1570.00000000 1190.00000000 620.00000000 219 108 92 97.000000 1.000000 4.000000 1.000000 -60.708740 114.000000 50.000000 0.133898 -0.232697 0.963288
1590.00000000 1160.00000000 650.00000000 219 108 92 97.000000 1.000000 4.000000 1.000000 -60.708740 114.000000 50.000000 0.127096 -0.689308 0.713232
1590.00000000 1160.00000000 650.00000000 219 108 92 97.000000 1.000000 4.000000 1.000000 -60.708740 114.000000 50.000000 0.127096 -0.689308 0.713232
1530.00000000 1170.00000000 640.00000000 219 108 92 97.000000 1.000000 4.000000 1.000000 -60.708740 114.000000 50.000000 0.162067 -0.457000 0.874577
1620.00000000 1280.00000000 390.00000000 219 108 92 97.000000 1.000000 4.000000 1.000000 -60.708740 114.000000 50.000000 -0.328788 0.781072 -0.530872
1620.00000000 1290.00000000 400.00000000 219 108 92 97.000000 1.000000 4.000000 1.000000 -60.708740 114.000000 50.000000 0.136049 0.623434 -0.769948
1620.00000000 1290.00000000 400.00000000 219 108 92 97.000000 1.000000 4.000000 1.000000 -60.708740 114.000000 50.000000 0.136049 0.623434 -0.769948
1620.00000000 1260.00000000 380.00000000 219 108 92 97.000000 1.000000 4.000000 1.000000 -60.708740 114.000000 50.000000 0.152710 -0.718192 0.678881
1590.00000000 1140.00000000 630.00000000 219 108 92 97.000000 1.000000 4.000000 1.000000 -60.708740 114.000000 50.000000 -0.139391 0.747916 -0.648993
1430.00000000 1260.00000000 320.00000000 219 108 92 97.000000 1.000000 4.000000 1.000000 -60.708740 114.000000 50.000000 -0.152122 -0.515441 0.843315
1380.00000000 1310.00000000 340.00000000 219 108 92 97.000000 1.000000 4.000000 1.000000 -60.708740 114.000000 50.000000 0.141877 0.051906 0.988523
1360.00000000 1060.00000000 450.00000000 219 108 92 97.000000 1.000000 4.000000 1.000000 -60.708740 114.000000 50.000000 -0.060513 -0.169675 0.983640
1350.00000000 1050.00000000 450.00000000 219 108 92 97.000000 1.000000 4.000000 1.000000 -60.708740 114.000000 50.000000 -0.003738 -0.325182 0.945644
1620.00000000 1290.00000000 300.00000000 219 108 92 97.000000 1.000000 4.000000 1.000000 -60.708740 114.000000 50.000000 -0.500886 0.819206 -0.279310
1620.00000000 1300.00000000 300.00000000 219 108 92 97.000000 1.000000 4.000000 1.000000 -60.708740 114.000000 50.000000 0.358305 -0.626625 0.692069
1620.00000000 1300.00000000 300.00000000 219 108 92 97.000000 1.000000 4.000000 1.000000 -60.708740 114.000000 50.000000 0.358305 -0.626625 0.692069
1380.00000000 1170.00000000 200.00000000 219 108 92 97.000000 1.000000 4.000000 1.000000 -60.708740 114.000000 50.000000 -0.503269 0.847690 -0.167756
1400.00000000 1100.00000000 270.00000000 219 108 92 97.000000 1.000000 4.000000 1.000000 -60.708740 114.000000 50.000000 -0.183998 0.872887 -0.451899
1400.00000000 1100.00000000 270.00000000 219 108 92 97.000000 1.000000 4.000000 1.000000 -60.708740 114.000000 50.000000 -0.183998 0.872887 -0.451899
1350.00000000 1120.00000000 260.00000000 219 108 92 97.000000 1.000000 4.000000 1.000000 -60.708740 114.000000 50.000000 0.438586 -0.461412 0.771194
1370.00000000 1130.00000000 250.00000000 219 108 92 97.000000 1.000000 4.000000 1.000000 -60.708740 114.000000 50.000000 0.633688 -0.627000 0.453112
1380.00000000 1100.00000000 280.00000000 219 108 92 97.000000 1.000000 4.000000 1.000000 -60.708740 114.000000 50.000000 0.642636 -0.384921 0.662461
1340.00000000 1500.00000000 520.00000000 219 108 92 97.000000 1.000000 4.000000 1.000000 -60.708740 114.000000 50.000000 -0.306866 0.071214 0.949085
1340.00000000 1550.00000000 410.00000000 219 108 92 97.000000 1.000000 4.000000 1.000000 -60.708740 114.000000 50.000000 0.215313 -0.520721 -0.826129
1330.00000000 1500.00000000 460.00000000 219 108 92 97.000000 1.000000 4.000000 1.000000 -60.708740 114.000000 50.000000 -0.243755 0.184500 0.952126
1340.00000000 1490.00000000 420.00000000 219 108 92 97.000000 1.000000 4.000000 1.000000 -60.708740 114.000000 50.000000 -0.490388 0.141150 0.859998
1280.00000000 1530.00000000 440.00000000 219 108 92 97.000000 1.000000 4.000000 1.000000 -60.708740 114.000000 50.000000 -0.456786 0.211170 0.864149
1340.00000000 1470.00000000 530.00000000 219 108 92 97.000000 1.000000 4.000000 1.000000 -60.708740 114.000000 50.000000 -0.128730 0.420141 0.898282
1340.00000000 1440.00000000 530.00000000 219 108 92 97.000000 1.000000 4.000000 1.000000 -60.708740 114.000000 50.000000 -0.314876 0.116571 0.941947
1270.00000000 1440.00000000 530.00000000 219 108 92 97.000000 1.000000 4.000000 1.000000 -60.708740 114.000000 50.000000 -0.466194 0.294685 0.834160
1290.00000000 1440.00000000 490.00000000 219 108 92 97.000000 1.000000 4.000000 1.000000 -60.708740 114.000000 50.000000 -0.543015 0.590381 0.597147
1260.00000000 1410.00000000 530.00000000 219 108 92 97.000000 1.000000 4.000000 1.000000 -60.708740 114.000000 50.000000 -0.006273 0.334978 0.942205
1260.00000000 1400.00000000 510.00000000 219 108 92 97.000000 1.000000 4.000000 1.000000 -60.708740 114.000000 50.000000 -0.597482 0.211512 0.773484
1300.00000000 1320.00000000 550.00000000 219 108 92 97.000000 1.000000 4.000000 1.000000 -60.708740 114.000000 50.000000 0.113381 0.154832 0.981413
1330.00000000 1330.00000000 540.00000000 219 108 92 97.000000 1.000000 4.000000 1.000000 -60.708740 114.000000 50.000000 0.053903 0.269517 0.961486
1260.00000000 1360.00000000 500.00000000 219 108 92 97.000000 1.000000 4.000000 1.000000 -60.708740 114.000000 50.000000 -0.581311 0.085105 0.809219
1270.00000000 1350.00000000 530.00000000 219 108 92 97.000000 1.000000 4.000000 1.000000 -60.708740 114.000000 50.000000 -0.063025 0.390221 0.918562
1250.00000000 1450.00000000 500.00000000 219 108 92 97.000000 1.000000 4.000000 1.000000 -60.708740 114.000000 50.000000 -0.202739 0.061914 0.977274
1250.00000000 1400.00000000 500.00000000 219 108 92 97.000000 1.000000 4.000000 1.000000 -60.708740 114.000000 50.000000 -0.574273 -0.078766 0.814866
1240.00000000 1410.00000000 490.00000000 219 108 92 97.000000 1.000000 4.000000 1.000000 -60.708740 114.000000 50.000000 -0.546363 0.034580 0.836834
1220.00000000 1420.00000000 490.00000000 219 108 92 97.000000 1.000000 4.000000 1.000000 -60.708740 114.000000 50.000000 -0.196241 0.326127 0.924733
1220.00000000 1400.00000000 500.00000000 219 108 92 97.000000 1.000000 4.000000 1.000000 -60.708740 114.000000 50.000000 -0.066654 0.328043 0.942308
1200.00000000 1450.00000000 490.00000000 219 108 92 97.000000 1.000000 4.000000 1.000000 -60.708740 114.000000 50.000000 -0.352897 0.365225 0.861438
1190.00000000 1400.00000000 520.00000000 219 108 92 97.000000 1.000000 4.000000 1.000000 -60.708740 114.000000 50.000000 -0.084759 0.298612 0.950603
1230.00000000 1360.00000000 560.00000000 219 108 92 97.000000 1.000000 4.000000 1.000000 -60.708740 114.000000 50.000000 -0.628160 -0.052703 0.776297
1230.00000000 1370.00000000 520.00000000 219 108 92 97.000000 1.000000 4.000000 1.000000 -60.708740 114.000000 50.000000 -0.284528 0.471104 0.834928
1230.00000000 1380.00000000 510.00000000 219 108 92 97.000000 1.000000 4.000000 1.000000 -60.708740 114.000000 50.000000 -0.662302 0.047002 0.747761
1230.00000000 1370.00000000 520.00000000 219 108 92 97.000000 1.000000 4.000000 1.000000 -60.708740 114.000000 50.000000 -0.284528 0.471104 0.834928
1250.00000000 1330.00000000 560.00000000 219 108 92 97.000000 1.000000 4.000000 1.000000 -60.708740 114.000000 50.000000 -0.107948 -0.222247 0.968996
1250.00000000 1350.00000000 500.00000000 219 108 92 97.000000 1.000000 4.000000 1.000000 -60.708740 114.000000 50.000000 -0.007839 0.148938 0.988815
1250.00000000 1320.00000000 510.00000000 219 108 92 97.000000 1.000000 4.000000 1.000000 -60.708740 114.000000 50.000000 -0.178483 -0.168211 0.969458
1330.00000000 1460.00000000 420.00000000 219 108 92 97.000000 1.000000 4.000000 1.000000 -60.708740 114.000000 50.000000 -0.181780 0.468491 0.864565
1260.00000000 1480.00000000 460.00000000 219 108 92 97.000000 1.000000 4.000000 1.000000 -60.708740 114.000000 50.000000 -0.460271 0.520089 0.719485
1290.00000000 1480.00000000 480.00000000 219 108 92 97.000000 1.000000 4.000000 1.000000 -60.708740 114.000000 50.000000 -0.102359 0.375315 0.921228
1260.00000000 1430.00000000 480.00000000 219 108 92 97.000000 1.000000 4.000000 1.000000 -60.708740 114.000000 50.000000 -0.234034 0.559511 0.795095
1280.00000000 1400.00000000 450.00000000 219 108 92 97.000000 1.000000 4.000000 1.000000 -60.708740 114.000000 50.000000 -0.562668 0.090660 0.821697
1290.00000000 1420.00000000 440.00000000 219 108 92 97.000000 1.000000 4.000000 1.000000 -60.708740 114.000000 50.000000 0.520179 -0.563948 -0.641386
1320.00000000 1320.00000000 480.00000000 219 108 92 97.000000 1.000000 4.000000 1.000000 -60.708740 114.000000 50.000000 0.054884 -0.099686 0.993504
1280.00000000 1380.00000000 450.00000000 219 108 92 97.000000 1.000000 4.000000 1.000000 -60.708740 114.000000 50.000000 0.666464 -0.340565 -0.663205
1290.00000000 1320.00000000 450.00000000 219 108 92 97.000000 1.000000 4.000000 1.000000 -60.708740 114.000000 50.000000 -0.006239 0.328175 0.944596
1270.00000000 1340.00000000 480.00000000 219 108 92 97.000000 1.000000 4.000000 1.000000 -60.708740 114.000000 50.000000 0.027847 0.423012 0.905696
1270.00000000 1340.00000000 460.00000000 219 108 92 97.000000 1.000000 4.000000 1.000000 -60.708740 114.000000 50.000000 -0.131579 -0.073358 0.988588
1330.00000000 1380.00000000 370.00000000 219 108 92 97.000000 1.000000 4.000000 1.000000 -60.708740 114.000000 50.000000 -0.028377 0.479700 0.876973
1340.00000000 1360.00000000 350.00000000 219 108 92 97.000000 1.000000 4.000000 1.000000 -60.708740 114.000000 50.000000 -0.334278 -0.069477 0.939910
1340.00000000 1390.00000000 320.00000000 219 108 92 97.000000 1.000000 4.000000 1.000000 -60.708740 114.000000 50.000000 0.622109 -0.500722 -0.601878
1340.00000000 1360.00000000 350.00000000 219 108 92 97.000000 1.000000 4.000000 1.000000 -60.708740 114.000000 50.000000 -0.334278 -0.069477 0.939910
1330.00000000 1350.00000000 390.00000000 219 108 92 97.000000 1.000000 4.000000 1.000000 -60.708740 114.000000 50.000000 -0.452159 0.452159 0.768833
1330.00000000 1330.00000000 340.00000000 219 108 92 97.000000 1.000000 4.000000 1.000000 -60.708740 114.000000 50.000000 -0.163764 0.141262 0.976333
1340.00000000 1350.00000000 330.00000000 219 108 92 97.000000 1.000000 4.000000 1.000000 -60.708740 114.000000 50.000000 -0.060871 0.415276 0.907656
1320.00000000 1320.00000000 340.00000000 219 108 92 97.000000 1.000000 4.000000 1.000000 -60.708740 114.000000 50.000000 -0.101684 0.356573 0.928717
1200.00000000 1450.00000000 430.00000000 219 108 92 97.000000 1.000000 4.000000 1.000000 -60.708740 114.000000 50.000000 -0.463556 0.447176 0.764950
1200.00000000 1450.00000000 430.00000000 219 108 92 97.000000 1.000000 4.000000 1.000000 -60.708740 114.000000 50.000000 -0.463556 0.447176 0.764950
1200.00000000 1480.00000000 410.00000000 219 108 92 97.000000 1.000000 4.000000 1.000000 -60.708740 114.000000 50.000000 -0.254430 0.722202 0.643187
1190.00000000 1430.00000000 480.00000000 219 108 92 97.000000 1.000000 4.000000 1.000000 -60.708740 114.000000 50.000000 -0.135689 0.435635 0.889837
1190.00000000 1400.00000000 420.00000000 219 108 92 97.000000 1.000000 4.000000 1.000000 -60.708740 114.000000 50.000000 -0.512849 0.089500 0.853801
1210.00000000 1420.00000000 420.00000000 219 108 92 97.000000 1.000000 4.000000 1.000000 -60.708740 114.000000 50.000000 -0.358107 0.489787 0.794901
1190.00000000 1480.00000000 400.00000000 219 108 92 97.000000 1.000000 4.000000 1.000000 -60.708740 114.000000 50.000000 -0.282676 0.614860 0.736235
1250.00000000 1350.00000000 420.00000000 219 108 92 97.000000 1.000000 4.000000 1.000000 -60.708740 114.000000 50.000000 -0.091915 0.485027 0.869655
1270.00000000 1280.00000000 490.00000000 219 108 92 97.000000 1.000000 4.000000 1.000000 -60.708740 114.000000 50.000000 -0.239174 0.076386 0.967967
1290.00000000 1280.00000000 500.00000000 219 108 92 97.000000 1.000000 4.000000 1.000000 -60.708740 114.000000 50.000000 -0.223613 0.133134 0.965543
1270.00000000 1270.00000000 490.00000000 219 108 92 97.000000 1.000000 4.000000 1.000000 -60.708740 114.000000 50.000000 -0.520988 -0.208092 0.827810
1250.00000000 1300.00000000 550.00000000 219 108 92 97.000000 1.000000 4.000000 1.000000 -60.708740 114.000000 50.000000 -0.081711 -0.107030 0.990892
1230.00000000 1310.00000000 550.00000000 219 108 92 97.000000 1.000000 4.000000 1.000000 -60.708740 114.000000 50.000000 -0.148284 -0.005575 0.988929
1240.00000000 1290.00000000 550.00000000 219 108 92 97.000000 1.000000 4.000000 1.000000 -60.708740 114.000000 50.000000 -0.129583 0.437166 0.889997
1240.00000000 1310.00000000 550.00000000 219 108 92 97.000000 1.000000 4.000000 1.000000 -60.708740 114.000000 50.000000 -0.170436 -0.001129 0.985368
1240.00000000 1280.00000000 490.00000000 219 108 92 97.000000 1.000000 4.000000 1.000000 -60.708740 114.000000 50.000000 -0.134968 0.037428 0.990143
1240.00000000 1270.00000000 490.00000000 219 108 92 97.000000 1.000000 4.000000 1.000000 -60.708740 114.000000 50.000000 -0.225963 0.067912 0.971766
1180.00000000 1250.00000000 490.00000000 219 108 92 97.000000 1.000000 4.000000 1.000000 -60.708740 114.000000 50.000000 -0.106744 0.341851 0.933672
1190.00000000 1240.00000000 500.00000000 219 108 92 97.000000 1.000000 4.000000 1.000000 -60.708740 114.000000 50.000000 0.011518 -0.063873 0.997892
1270.00000000 1290.00000000 440.00000000 219 108 92 97.000000 1.000000 4.000000 1.000000 -60.708740 114.000000 50.000000 -0.365264 -0.067740 0.928436
1260.00000000 1280.00000000 440.00000000 219 108 92 97.000000 1.000000 4.000000 1.000000 -60.708740 114.000000 50.000000 0.517443 0.098902 -0.849983
1290.00000000 1250.00000000 460.00000000 219 108 92 97.000000 1.000000 4.000000 1.000000 -60.708740 114.000000 50.000000 0.040538 -0.023907 0.998892
1280.00000000 1250.00000000 460.00000000 219 108 92 97.000000 1.000000 4.000000 1.000000 -60.708740 114.000000 50.000000 0.135556 0.001102 0.990769
1270.00000000 1250.00000000 480.00000000 219 108 92 97.000000 1.000000 4.000000 1.000000 -60.708740 114.000000 50.000000 -0.035654 0.009168 0.999322
1260.00000000 1260.00000000 430.00000000 219 108 92 97.000000 1.000000 4.000000 1.000000 -60.708740 114.000000 50.000000 -0.428139 0.160012 0.889434
1260.00000000 1260.00000000 430.00000000 219 108 92 97.000000 1.000000 4.000000 1.000000 -60.708740 114.000000 50.000000 -0.428139 0.160012 0.889434
1270.00000000 1270.00000000 430.00000000 219 108 92 97.000000 1.000000 4.000000 1.000000 -60.708740 114.000000 50.000000 -0.236761 -0.139964 0.961433
1320.00000000 1290.00000000 380.00000000 219 108 92 97.000000 1.000000 4.000000 1.000000 -60.708740 114.000000 50.000000 0.063532 0.320253 0.945199
1300.00000000 1290.00000000 360.00000000 219 108 92 97.000000 1.000000 4.000000 1.000000 -60.708740 114.000000 50.000000 -0.593356 0.346260 0.726658
1320.00000000 1310.00000000 340.00000000 219 108 92 97.000000 1.000000 4.000000 1.000000 -60.708740 114.000000 50.000000 -0.154298 0.238700 0.958757
1330.00000000 1230.00000000 350.00000000 219 108 92 97.000000 1.000000 4.000000 1.000000 -60.708740 114.000000 50.000000 0.225076 0.078342 0.971186
1280.00000000 1260.00000000 390.00000000 219 108 92 97.000000 1.000000 4.000000 1.000000 -60.708740 114.000000 50.000000 -0.345772 0.336633 0.875854
1280.00000000 1200.00000000 480.00000000 219 108 92 97.000000 1.000000 4.000000 1.000000 -60.708740 114.000000 50.000000 -0.313825 -0.028988 0.949038
1310.00000000 1220.00000000 350.00000000 219 108 92 97.000000 1.000000 4.000000 1.000000 -60.708740 114.000000 50.000000 0.063897 -0.135926 0.988656
1260.00000000 1210.00000000 390.00000000 219 108 92 97.000000 1.000000 4.000000 1.000000 -60.708740 114.000000 50.000000 -0.371922 -0.137903 0.917964
1260.00000000 1220.00000000 350.00000000 219 108 92 97.000000 1.000000 4.000000 1.000000 -60.708740 114.000000 50.000000 -0.269538 -0.203190 0.941309
1290.00000000 1210.00000000 350.00000000 219 108 92 97.000000 1.000000 4.000000 1.000000 -60.708740 114.000000 50.000000 -0.241231 -0.169261 0.955593
1180.00000000 1270.00000000 480.00000000 219 108 92 97.000000 1.000000 4.000000 1.000000 -60.708740 114.000000 50.000000 -0.243440 0.160963 0.956466
1230.00000000 1200.00000000 380.00000000 219 108 92 97.000000 1.000000 4.000000 1.000000 -60.708740 114.000000 50.000000 -0.082154 -0.042720 0.995704
1250.00000000 1190.00000000 380.00000000 219 108 92 97.000000 1.000000 4.000000 1.000000 -60.708740 114.000000 50.000000 -0.035696 -0.157755 0.986833
1240.00000000 1160.00000000 380.00000000 219 108 92 97.000000 1.000000 4.000000 1.000000 -60.708740 114.000000 50.000000 -0.241282 0.151625 0.958537
1230.00000000 1170.00000000 380.00000000 219 108 92 97.000000 1.000000 4.000000 1.000000 -60.708740 114.000000 50.000000 -0.015042 0.013037 0.999802
1190.00000000 1190.00000000 340.00000000 219 108 92 97.000000 1.000000 4.000000 1.000000 -60.708740 114.000000 50.000000 -0.350971 -0.008869 0.936344
1300.00000000 1090.00000000 460.00000000 219 108 92 97.000000 1.000000 4.000000 1.000000 -60.708740 114.000000 50.000000 -0.063969 -0.194322 0.978850
1260.00000000 1130.00000000 380.00000000 219 108 92 97.000000 1.000000 4.000000 1.000000 -60.708740 114.000000 50.000000 -0.183806 -0.001142 0.982962
1290.00000000 1110.00000000 400.00000000 219 108 92 97.000000 1.000000 4.000000 1.000000 -60.708740 114.000000 50.000000 0.150162 -0.097305 0.983861
1270.00000000 1080.00000000 360.00000000 219 108 92 97.000000 1.000000 4.000000 1.000000 -60.708740 114.000000 50.000000 0.470124 -0.480021 0.740651
1270.00000000 1050.00000000 440.00000000 219 108 92 97.000000 1.000000 4.000000 1.000000 -60.708740 114.000000 50.000000 0.061865 -0.671885 0.738067
1300.00000000 1060.00000000 370.00000000 219 108 92 97.000000 1.000000 4.000000 1.000000 -60.708740 114.000000 50.000000 0.444993 -0.331779 0.831807
1330.00000000 1050.00000000 390.00000000 219 108 92 97.000000 1.000000 4.000000 1.000000 -60.708740 114.000000 50.000000 0.417443 -0.324333 0.848852
1320.00000000 1000.00000000 350.00000000 219 108 92 97.000000 1.000000 4.000000 1.000000 -60.708740 114.000000 50.000000 0.563484 -0.304888 0.767807
1280.00000000 1050.00000000 370.00000000 219 108 92 97.000000 1.000000 4.000000 1.000000 -60.708740 114.000000 50.000000 0.066727 -0.260613 0.963135
1260.00000000 1060.00000000 350.00000000 219 108 92 97.000000 1.000000 4.000000 1.000000 -60.708740 114.000000 50.000000 0.207560 -0.229265 0.950976
1270.00000000 1060.00000000 340.00000000 219 108 92 97.000000 1.000000 4.000000 1.000000 -60.708740 114.000000 50.000000 0.317226 -0.594195 0.739121
1290.00000000 990.00000000 390.00000000 219 108 92 97.000000 1.000000 4.000000 1.000000 -60.708740 114.000000 50.000000 0.280910 -0.216622 0.934968
1240.00000000 1070.00000000 450.00000000 219 108 92 97.000000 1.000000 4.000000 1.000000 -60.708740 114.000000 50.000000 -0.280206 -0.194626 0.940003
1220.00000000 1140.00000000 360.00000000 219 108 92 97.000000 1.000000 4.000000 1.000000 -60.708740 114.000000 50.000000 -0.259786 0.135827 0.956066
1240.00000000 1110.00000000 370.00000000 219 108 92 97.000000 1.000000 4.000000 1.000000 -60.708740 114.000000 50.000000 0.270432 -0.193558 0.943081
1250.00000000 1140.00000000 370.00000000 219 108 92 97.000000 1.000000 4.000000 1.000000 -60.708740 114.000000 50.000000 0.099295 -0.259197 0.960707
1230.00000000 1070.00000000 340.00000000 219 108 92 97.000000 1.000000 4.000000 1.000000 -60.708740 114.000000 50.000000 0.389861 -0.269441 0.880574
1250.00000000 1060.00000000 420.00000000 219 108 92 97.000000 1.000000 4.000000 1.000000 -60.708740 114.000000 50.000000 0.283902 -0.230229 0.930803
1220.00000000 1050.00000000 440.00000000 219 108 92 97.000000 1.000000 4.000000 1.000000 -60.708740 114.000000 50.000000 0.272653 -0.206220 0.939752
1240.00000000 1020.00000000 370.00000000 219 108 92 97.000000 1.000000 4.000000 1.000000 -60.708740 114.000000 50.000000 0.316208 -0.560185 0.765640
1250.00000000 1020.00000000 360.00000000 219 108 92 97.000000 1.000000 4.000000 1.000000 -60.708740 114.000000 50.000000 0.295395 -0.589193 0.752059
1230.00000000 1050.00000000 320.00000000 219 108 92 97.000000 1.000000 4.000000 1.000000 -60.708740 114.000000 50.000000 0.255217 -0.657856 0.708583
1210.00000000 990.00000000 390.00000000 219 108 92 97.000000 1.000000 4.000000 1.000000 -60.708740 114.000000 50.000000 0.214282 -0.346590 0.913214
1160.00000000 1300.00000000 480.00000000 219 108 92 97.000000 1.000000 4.000000 1.000000 -60.708740 114.000000 50.000000 -0.482854 -0.157038 0.861505
1160.00000000 1290.00000000 470.00000000 219 108 92 97.000000 1.000000 4.000000 1.000000 -60.708740 114.000000 50.000000 -0.413217 -0.001295 0.910632
1320.00000000 1250.00000000 240.00000000 219 108 92 97.000000 1.000000 4.000000 1.000000 -60.708740 114.000000 50.000000 -0.408222 -0.187404 0.893440
1290.00000000 1240.00000000 280.00000000 219 108 92 97.000000 1.000000 4.000000 1.000000 -60.708740 114.000000 50.000000 -0.423279 -0.176002 0.888740
1320.00000000 1150.00000000 290.00000000 219 108 92 97.000000 1.000000 4.000000 1.000000 -60.708740 114.000000 50.000000 0.255649 -0.284213 0.924049
1270.00000000 1160.00000000 260.00000000 219 108 92 97.000000 1.000000 4.000000 1.000000 -60.708740 114.000000 50.000000 0.239542 -0.193528 0.951402
1300.00000000 1200.00000000 180.00000000 219 108 92 97.000000 1.000000 4.000000 1.000000 -60.708740 114.000000 50.000000 0.524410 -0.514358 0.678550
1300.00000000 1240.00000000 140.00000000 219 108 92 97.000000 1.000000 4.000000 1.000000 -60.708740 114.000000 50.000000 0.170383 -0.435424 0.883954
1290.00000000 1270.00000000 50.00000000 219 108 92 97.000000 1.000000 4.000000 1.000000 -60.708740 114.000000 50.000000 0.272321 -0.003631 0.962200
1280.00000000 1270.00000000 40.00000000 219 108 92 97.000000 1.000000 4.000000 1.000000 -60.708740 114.000000 50.000000 0.370831 -0.065128 0.926414
1290.00000000 1200.00000000 110.00000000 219 108 92 97.000000 1.000000 4.000000 1.000000 -60.708740 114.000000 50.000000 -0.433929 -0.014508 0.900830
1290.00000000 1200.00000000 110.00000000 219 108 92 97.000000 1.000000 4.000000 1.000000 -60.708740 114.000000 50.000000 -0.433929 -0.014508 0.900830
1290.00000000 1210.00000000 110.00000000 219 108 92 97.000000 1.000000 4.000000 1.000000 -60.708740 114.000000 50.000000 -0.147516 -0.335014 0.930594
1290.00000000 1190.00000000 30.00000000 219 108 92 97.000000 1.000000 4.000000 1.000000 -60.708740 114.000000 50.000000 -0.080782 -0.275686 0.957847
1320.00000000 1120.00000000 280.00000000 219 108 92 97.000000 1.000000 4.000000 1.000000 -60.708740 114.000000 50.000000 -0.298117 0.809173 -0.506325
1340.00000000 1090.00000000 250.00000000 219 108 92 97.000000 1.000000 4.000000 1.000000 -60.708740 114.000000 50.000000 0.575195 -0.393901 0.716933
1290.00000000 1090.00000000 280.00000000 219 108 92 97.000000 1.000000 4.000000 1.000000 -60.708740 114.000000 50.000000 0.370585 -0.414740 0.831058
1200.00000000 1020.00000000 270.00000000 219 108 92 97.000000 1.000000 4.000000 1.000000 -60.708740 114.000000 50.000000 0.605560 -0.527967 0.595439
1200.00000000 980.00000000 260.00000000 219 108 92 97.000000 1.000000 4.000000 1.000000 -60.708740 114.000000 50.000000 0.222913 -0.441338 0.869212
1190.00000000 990.00000000 270.00000000 219 108 92 97.000000 1.000000 4.000000 1.000000 -60.708740 114.000000 50.000000 0.626931 -0.392039 0.673248
1050.00000000 1230.00000000 180.00000000 219 108 92 97.000000 1.000000 4.000000 1.000000 -60.708740 114.000000 50.000000 0.856616 -0.419849 -0.299892
1060.00000000 1240.00000000 160.00000000 219 108 92 97.000000 1.000000 4.000000 1.000000 -60.708740 114.000000 50.000000 -0.377862 0.920782 0.096853
1060.00000000 1240.00000000 160.00000000 219 108 92 97.000000 1.000000 4.000000 1.000000 -60.708740 114.000000 50.000000 -0.377862 0.920782 0.096853
1010.00000000 1220.00000000 250.00000000 219 108 92 97.000000 1.000000 4.000000 1.000000 -60.708740 114.000000 50.000000 -0.220508 0.695929 0.683418
1030.00000000 1180.00000000 300.00000000 219 108 92 97.000000 1.000000 4.000000 1.000000 -60.708740 114.000000 50.000000 -0.291810 0.443119 0.847639
1010.00000000 1180.00000000 220.00000000 219 108 92 97.000000 1.000000 4.000000 1.000000 -60.708740 114.000000 50.000000 0.562206 -0.814383 -0.143889
1110.00000000 1270.00000000 70.00000000 219 108 92 97.000000 1.000000 4.000000 1.000000 -60.708740 114.000000 50.000000 0.728337 -0.492747 0.476157
1120.00000000 1280.00000000 60.00000000 219 108 92 97.000000 1.000000 4.000000 1.000000 -60.708740 114.000000 50.000000 0.193133 -0.703002 0.684462
1100.00000000 1290.00000000 50.00000000 219 108 92 97.000000 1.000000 4.000000 1.000000 -60.708740 114.000000 50.000000 0.630329 -0.392095 0.670035
1040.00000000 1120.00000000 310.00000000 219 108 92 97.000000 1.000000 4.000000 1.000000 -60.708740 114.000000 50.000000 -0.012717 0.190761 0.981554
1020.00000000 1020.00000000 200.00000000 219 108 92 97.000000 1.000000 4.000000 1.000000 -60.708740 114.000000 50.000000 -0.097879 -0.059627 0.993411
1040.00000000 1000.00000000 140.00000000 219 108 92 97.000000 1.000000 4.000000 1.000000 -60.708740 114.000000 50.000000 0.488226 -0.186631 0.852529
1030.00000000 980.00000000 130.00000000 219 108 92 97.000000 1.000000 4.000000 1.000000 -60.708740 114.000000 50.000000 0.583980 -0.383288 0.715581
1550.00000000 830.00000000 390.00000000 219 108 92 97.000000 1.000000 4.000000 1.000000 -60.708740 114.000000 50.000000 0.220452 -0.803184 0.553441
1520.00000000 760.00000000 410.00000000 219 108 92 97.000000 1.000000 4.000000 1.000000 -60.708740 114.000000 50.000000 0.375808 -0.535241 0.756496
1550.00000000 770.00000000 390.00000000 219 108 92 97.000000 1.000000 4.000000 1.000000 -60.708740 114.000000 50.000000 0.274052 -0.758791 0.590874
1450.00000000 910.00000000 430.00000000 219 108 92 97.000000 1.000000 4.000000 1.000000 -60.708740 114.000000 50.000000 0.415434 -0.564394 0.713354
1470.00000000 880.00000000 440.00000000 219 108 92 97.000000 1.000000 4.000000 1.000000 -60.708740 114.000000 50.000000 -0.304717 0.905318 -0.295884
1380.00000000 830.00000000 410.00000000 219 108 92 97.000000 1.000000 4.000000 1.000000 -60.708740 114.000000 50.000000 0.061776 -0.653680 0.754246
1380.00000000 830.00000000 410.00000000 219 108 92 97.000000 1.000000 4.000000 1.000000 -60.708740 114.000000 50.000000 0.061776 -0.653680 0.754246
1430.00000000 750.00000000 430.00000000 219 108 92 97.000000 1.000000 4.000000 1.000000 -60.708740 114.000000 50.000000 0.109582 -0.805064 0.582978
1430.00000000 750.00000000 430.00000000 219 108 92 97.000000 1.000000 4.000000 1.000000 -60.708740 114.000000 50.000000 0.109582 -0.805064 0.582978
1470.00000000 730.00000000 390.00000000 219 108 92 97.000000 1.000000 4.000000 1.000000 -60.708740 114.000000 50.000000 0.307024 -0.593150 0.744251
1470.00000000 730.00000000 390.00000000 219 108 92 97.000000 1.000000 4.000000 1.000000 -60.708740 114.000000 50.000000 0.307024 -0.593150 0.744251
1420.00000000 770.00000000 430.00000000 219 108 92 97.000000 1.000000 4.000000 1.000000 -60.708740 114.000000 50.000000 0.562646 -0.436507 0.702062
1400.00000000 810.00000000 210.00000000 219 108 92 97.000000 1.000000 4.000000 1.000000 -60.708740 114.000000 50.000000 -0.433888 0.894456 0.108121
1370.00000000 790.00000000 190.00000000 219 108 92 97.000000 1.000000 4.000000 1.000000 -60.708740 114.000000 50.000000 0.716804 -0.663938 -0.213020
1480.00000000 710.00000000 -10.00000000 219 108 92 97.000000 1.000000 4.000000 1.000000 -60.708740 114.000000 50.000000 -0.387452 0.704008 0.595192
1480.00000000 710.00000000 -10.00000000 219 108 92 97.000000 1.000000 4.000000 1.000000 -60.708740 114.000000 50.000000 -0.387452 0.704008 0.595192
1390.00000000 790.00000000 110.00000000 219 108 92 97.000000 1.000000 4.000000 1.000000 -60.708740 114.000000 50.000000 0.882997 -0.467948 0.036622
1410.00000000 800.00000000 10.00000000 219 108 92 97.000000 1.000000 4.000000 1.000000 -60.708740 114.000000 50.000000 0.619945 -0.650023 -0.439476
1280.00000000 950.00000000 510.00000000 219 108 92 97.000000 1.000000 4.000000 1.000000 -60.708740 114.000000 50.000000 0.195947 -0.041564 0.979733
1280.00000000 930.00000000 510.00000000 219 108 92 97.000000 1.000000 4.000000 1.000000 -60.708740 114.000000 50.000000 0.308955 -0.173181 0.935177
1310.00000000 940.00000000 510.00000000 219 108 92 97.000000 1.000000 4.000000 1.000000 -60.708740 114.000000 50.000000 -0.052545 -0.308862 0.949654
1280.00000000 930.00000000 510.00000000 219 108 92 97.000000 1.000000 4.000000 1.000000 -60.708740 114.000000 50.000000 0.308955 -0.173181 0.935177
1340.00000000 950.00000000 370.00000000 219 108 92 97.000000 1.000000 4.000000 1.000000 -60.708740 114.000000 50.000000 -0.020957 0.750244 -0.660829
1280.00000000 970.00000000 400.00000000 219 108 92 97.000000 1.000000 4.000000 1.000000 -60.708740 114.000000 50.000000 -0.064484 0.783836 -0.617611
1260.00000000 940.00000000 340.00000000 219 108 92 97.000000 1.000000 4.000000 1.000000 -60.708740 114.000000 50.000000 0.179128 -0.472248 0.863073
1240.00000000 960.00000000 390.00000000 219 108 92 97.000000 1.000000 4.000000 1.000000 -60.708740 114.000000 50.000000 -0.020786 -0.588951 0.807902
1250.00000000 950.00000000 380.00000000 219 108 92 97.000000 1.000000 4.000000 1.000000 -60.708740 114.000000 50.000000 0.009461 -0.517649 0.855541
1240.00000000 970.00000000 400.00000000 219 108 92 97.000000 1.000000 4.000000 1.000000 -60.708740 114.000000 50.000000 -0.104525 -0.508304 0.854811
1140.00000000 830.00000000 320.00000000 219 108 92 97.000000 1.000000 4.000000 1.000000 -60.708740 114.000000 50.000000 -0.603214 0.663369 -0.442803
1100.00000000 850.00000000 370.00000000 219 108 92 97.000000 1.000000 4.000000 1.000000 -60.708740 114.000000 50.000000 0.157480 -0.571429 0.805400
1010.00000000 900.00000000 420.00000000 219 108 92 97.000000 1.000000 4.000000 1.000000 -60.708740 114.000000 50.000000 0.102769 -0.379561 0.919441
1030.00000000 910.00000000 380.00000000 219 108 92 97.000000 1.000000 4.000000 1.000000 -60.708740 114.000000 50.000000 -0.121486 -0.557665 0.821128
1030.00000000 910.00000000 320.00000000 219 108 92 97.000000 1.000000 4.000000 1.000000 -60.708740 114.000000 50.000000 0.155830 -0.360795 0.919535
1060.00000000 880.00000000 320.00000000 219 108 92 97.000000 1.000000 4.000000 1.000000 -60.708740 114.000000 50.000000 -0.303931 0.734902 -0.606254
1010.00000000 870.00000000 390.00000000 219 108 92 97.000000 1.000000 4.000000 1.000000 -60.708740 114.000000 50.000000 0.104961 -0.009739 0.994429
1010.00000000 870.00000000 320.00000000 219 108 92 97.000000 1.000000 4.000000 1.000000 -60.708740 114.000000 50.000000 0.244927 -0.500636 0.830286
1230.00000000 900.00000000 0.00000000 219 108 92 97.000000 1.000000 4.000000 1.000000 -60.708740 114.000000 50.000000 0.735877 -0.552317 -0.391703
1220.00000000 910.00000000 -10.00000000 219 108 92 97.000000 1.000000 4.000000 1.000000 -60.708740 114.000000 50.000000 0.810559 -0.420468 -0.407678
1230.00000000 830.00000000 -10.00000000 219 108 92 97.000000 1.000000 4.000000 1.000000 -60.708740 114.000000 50.000000 0.804909 -0.510777 -0.302039
1340.00000000 790.00000000 270.00000000 219 108 92 97.000000 1.000000 4.000000 1.000000 -60.708740 114.000000 50.000000 -0.665132 0.480838 -0.571310
1260.00000000 800.00000000 20.00000000 219 108 92 97.000000 1.000000 4.000000 1.000000 -60.708740 114.000000 50.000000 0.793649 -0.492223 -0.357543
1220.00000000 790.00000000 -10.00000000 219 108 92 97.000000 1.000000 4.000000 1.000000 -60.708740 114.000000 50.000000 0.800877 -0.481165 -0.356478
1170.00000000 870.00000000 150.00000000 219 108 92 97.000000 1.000000 4.000000 1.000000 -60.708740 114.000000 50.000000 0.663570 -0.689277 0.290814
1090.00000000 840.00000000 200.00000000 219 108 92 97.000000 1.000000 4.000000 1.000000 -60.708740 114.000000 50.000000 -0.402520 0.770817 -0.493779
1100.00000000 840.00000000 200.00000000 219 108 92 97.000000 1.000000 4.000000 1.000000 -60.708740 114.000000 50.000000 -0.577478 0.784936 -0.224489
1090.00000000 840.00000000 200.00000000 219 108 92 97.000000 1.000000 4.000000 1.000000 -60.708740 114.000000 50.000000 -0.402520 0.770817 -0.493779
1100.00000000 840.00000000 190.00000000 219 108 92 97.000000 1.000000 4.000000 1.000000 -60.708740 114.000000 50.000000 -0.564885 0.752641 -0.338284
1070.00000000 820.00000000 240.00000000 219 108 92 97.000000 1.000000 4.000000 1.000000 -60.708740 114.000000 50.000000 -0.296497 0.883472 -0.362720
1030.00000000 860.00000000 300.00000000 219 108 92 97.000000 1.000000 4.000000 1.000000 -60.708740 114.000000 50.000000 0.246255 -0.339512 0.907794
1030.00000000 830.00000000 310.00000000 219 108 92 97.000000 1.000000 4.000000 1.000000 -60.708740 114.000000 50.000000 0.426943 -0.129076 0.895019
1020.00000000 810.00000000 270.00000000 219 108 92 97.000000 1.000000 4.000000 1.000000 -60.708740 114.000000 50.000000 -0.289902 0.709540 -0.642270
1040.00000000 840.00000000 260.00000000 219 108 92 97.000000 1.000000 4.000000 1.000000 -60.708740 114.000000 50.000000 0.456852 -0.719334 0.523303
1070.00000000 870.00000000 220.00000000 219 108 92 97.000000 1.000000 4.000000 1.000000 -60.708740 114.000000 50.000000 -0.469869 0.673869 -0.570197
1060.00000000 870.00000000 160.00000000 219 108 92 97.000000 1.000000 4.000000 1.000000 -60.708740 114.000000 50.000000 -0.337672 0.660662 -0.670450
