//X Y Z R G B PointSourceId ScanDirectionFlag NumberOfReturns ReturnNumber GpsTime Intensity Classification Nx Ny Nz
520.00000000 4550.00000000 120.00000000 148 217 73 97.000000 1.000000 4.000000 1.000000 -60.708740 114.000000 149.000000 0.940723 0.294404 -0.168426
530.00000000 4540.00000000 120.00000000 148 217 73 97.000000 1.000000 4.000000 1.000000 -60.708740 114.000000 149.000000 0.992579 0.111538 -0.048446
570.00000000 4510.00000000 240.00000000 148 217 73 97.000000 1.000000 4.000000 1.000000 -60.708740 114.000000 149.000000 0.818447 0.198918 0.539051
570.00000000 4500.00000000 240.00000000 148 217 73 97.000000 1.000000 4.000000 1.000000 -60.708740 114.000000 149.000000 0.777627 0.266570 0.569418
570.00000000 4500.00000000 240.00000000 148 217 73 97.000000 1.000000 4.000000 1.000000 -60.708740 114.000000 149.000000 0.777627 0.266570 0.569418
570.00000000 4500.00000000 240.00000000 148 217 73 97.000000 1.000000 4.000000 1.000000 -60.708740 114.000000 149.000000 0.777627 0.266570 0.569418
570.00000000 4500.00000000 220.00000000 148 217 73 97.000000 1.000000 4.000000 1.000000 -60.708740 114.000000 149.000000 0.888610 0.379557 0.257503
580.00000000 4510.00000000 150.00000000 148 217 73 97.000000 1.000000 4.000000 1.000000 -60.708740 114.000000 149.000000 0.973898 0.022704 0.225849
580.00000000 4510.00000000 150.00000000 148 217 73 97.000000 1.000000 4.000000 1.000000 -60.708740 114.000000 149.000000 0.973898 0.022704 0.225849
530.00000000 4480.00000000 130.00000000 148 217 73 97.000000 1.000000 4.000000 1.000000 -60.708740 114.000000 149.000000 0.881164 0.367278 0.297752
510.00000000 4490.00000000 70.00000000 148 217 73 97.000000 1.000000 4.000000 1.000000 -60.708740 114.000000 149.000000 0.917739 0.394455 -0.046485
540.00000000 4500.00000000 80.00000000 148 217 73 97.000000 1.000000 4.000000 1.000000 -60.708740 114.000000 149.000000 0.992100 0.105930 -0.067203
540.00000000 4500.00000000 80.00000000 148 217 73 97.000000 1.000000 4.000000 1.000000 -60.708740 114.000000 149.000000 0.992100 0.105930 -0.067203
510.00000000 4490.00000000 80.00000000 148 217 73 97.000000 1.000000 4.000000 1.000000 -60.708740 114.000000 149.000000 0.963408 0.267815 0.010907
510.00000000 4490.00000000 80.00000000 148 217 73 97.000000 1.000000 4.000000 1.000000 -60.708740 114.000000 149.000000 0.963408 0.267815 0.010907
520.00000000 4470.00000000 90.00000000 148 217 73 97.000000 1.000000 4.000000 1.000000 -60.708740 114.000000 149.000000 0.897744 0.014544 0.440278
500.00000000 4440.00000000 70.00000000 148 217 73 97.000000 1.000000 4.000000 1.000000 -60.708740 114.000000 149.000000 0.990787 0.093427 0.098041
540.00000000 4500.00000000 60.00000000 148 217 73 97.000000 1.000000 4.000000 1.000000 -60.708740 114.000000 149.000000 0.974406 -0.152527 0.165132
490.00000000 4650.00000000 310.00000000 148 217 73 97.000000 1.000000 4.000000 1.000000 -60.708740 114.000000 149.000000 0.577022 0.094001 0.811301
490.00000000 4650.00000000 310.00000000 148 217 73 97.000000 1.000000 4.000000 1.000000 -60.708740 114.000000 149.000000 0.577022 0.094001 0.811301
490.00000000 4620.00000000 290.00000000 148 217 73 97.000000 1.000000 4.000000 1.000000 -60.708740 114.000000 149.000000 0.712128 -0.234232 0.661823
490.00000000 4610.00000000 280.00000000 148 217 73 97.000000 1.000000 4.000000 1.000000 -60.708740 114.000000 149.000000 0.748649 -0.107794 0.654145
390.00000000 4660.00000000 250.00000000 148 217 73 97.000000 1.000000 4.000000 1.000000 -60.708740 114.000000 149.000000 0.553013 -0.156513 0.818340
480.00000000 4520.00000000 110.00000000 148 217 73 97.000000 1.000000 4.000000 1.000000 -60.708740 114.000000 149.000000 0.983372 0.179956 0.024381
490.00000000 4540.00000000 90.00000000 148 217 73 97.000000 1.000000 4.000000 1.000000 -60.708740 114.000000 149.000000 0.989078 -0.021477 0.145818
480.00000000 4430.00000000 60.00000000 148 217 73 97.000000 1.000000 4.000000 1.000000 -60.708740 114.000000 149.000000 0.920802 0.200669 0.334449
490.00000000 4410.00000000 70.00000000 148 217 73 97.000000 1.000000 4.000000 1.000000 -60.708740 114.000000 149.000000 0.971423 0.096516 0.216847
480.00000000 4420.00000000 70.00000000 148 217 73 97.000000 1.000000 4.000000 1.000000 -60.708740 114.000000 149.000000 0.949715 0.312390 -0.021328
470.00000000 4370.00000000 40.00000000 148 217 73 97.000000 1.000000 4.000000 1.000000 -60.708740 114.000000 149.000000 0.962572 -0.244196 0.117576
460.00000000 4350.00000000 10.00000000 148 217 73 97.000000 1.000000 4.000000 1.000000 -60.708740 114.000000 149.000000 0.805645 -0.088230 -0.585792
430.00000000 4280.00000000 0.00000000 148 217 73 97.000000 1.000000 4.000000 1.000000 -60.708740 114.000000 149.000000 0.822791 -0.109220 -0.557751
430.00000000 4280.00000000 0.00000000 148 217 73 97.000000 1.000000 4.000000 1.000000 -60.708740 114.000000 149.000000 0.822791 -0.109220 -0.557751
430.00000000 4280.00000000 0.00000000 148 217 73 97.000000 1.000000 4.000000 1.000000 -60.708740 114.000000 149.000000 0.822791 -0.109220 -0.557751
410.00000000 4340.00000000 10.00000000 148 217 73 97.000000 1.000000 4.000000 1.000000 -60.708740 114.000000 149.000000 0.956831 0.204177 -0.206846
390.00000000 4280.00000000 10.00000000 148 217 73 97.000000 1.000000 4.000000 1.000000 -60.708740 114.000000 149.000000 0.981003 -0.138394 -0.135944
390.00000000 4290.00000000 -10.00000000 148 217 73 97.000000 1.000000 4.000000 1.000000 -60.708740 114.000000 149.000000 0.920231 -0.173336 -0.350900
410.00000000 4250.00000000 -10.00000000 148 217 73 97.000000 1.000000 4.000000 1.000000 -60.708740 114.000000 149.000000 0.704179 -0.064802 -0.707059
410.00000000 4250.00000000 -10.00000000 148 217 73 97.000000 1.000000 4.000000 1.000000 -60.708740 114.000000 149.000000 0.704179 -0.064802 -0.707059
370.00000000 4040.00000000 0.00000000 148 217 73 97.000000 1.000000 4.000000 1.000000 -60.708740 114.000000 149.000000 0.950967 0.168134 -0.259599
460.00000000 3940.00000000 130.00000000 148 217 73 97.000000 1.000000 4.000000 1.000000 -60.708740 114.000000 149.000000 0.979528 0.179316 0.091488
460.00000000 3950.00000000 140.00000000 148 217 73 97.000000 1.000000 4.000000 1.000000 -60.708740 114.000000 149.000000 0.954271 0.156153 0.254917
420.00000000 3970.00000000 80.00000000 148 217 73 97.000000 1.000000 4.000000 1.000000 -60.708740 114.000000 149.000000 0.968220 -0.235445 0.084357
410.00000000 3970.00000000 100.00000000 148 217 73 97.000000 1.000000 4.000000 1.000000 -60.708740 114.000000 149.000000 0.990261 -0.082232 0.112345
380.00000000 3940.00000000 90.00000000 148 217 73 97.000000 1.000000 4.000000 1.000000 -60.708740 114.000000 149.000000 0.886593 0.399487 0.233158
340.00000000 3950.00000000 120.00000000 148 217 73 97.000000 1.000000 4.000000 1.000000 -60.708740 114.000000 149.000000 0.805352 -0.046544 0.590967
350.00000000 3960.00000000 80.00000000 148 217 73 97.000000 1.000000 4.000000 1.000000 -60.708740 114.000000 149.000000 0.943312 0.263026 -0.202433
350.00000000 3950.00000000 100.00000000 148 217 73 97.000000 1.000000 4.000000 1.000000 -60.708740 114.000000 149.000000 0.992831 -0.057474 -0.104805
410.00000000 3980.00000000 30.00000000 148 217 73 97.000000 1.000000 4.000000 1.000000 -60.708740 114.000000 149.000000 0.879023 -0.047847 -0.474372
400.00000000 4000.00000000 40.00000000 148 217 73 97.000000 1.000000 4.000000 1.000000 -60.708740 114.000000 149.000000 0.911608 0.410810 -0.014346
400.00000000 3970.00000000 30.00000000 148 217 73 97.000000 1.000000 4.000000 1.000000 -60.708740 114.000000 149.000000 0.906464 0.283546 -0.312929
400.00000000 3980.00000000 30.00000000 148 217 73 97.000000 1.000000 4.000000 1.000000 -60.708740 114.000000 149.000000 0.903157 0.069474 -0.423653
400.00000000 4000.00000000 -10.00000000 148 217 73 97.000000 1.000000 4.000000 1.000000 -60.708740 114.000000 149.000000 0.851402 -0.040017 -0.522985
410.00000000 3960.00000000 40.00000000 148 217 73 97.000000 1.000000 4.000000 1.000000 -60.708740 114.000000 149.000000 0.967437 -0.095095 -0.234569
410.00000000 3960.00000000 60.00000000 148 217 73 97.000000 1.000000 4.000000 1.000000 -60.708740 114.000000 149.000000 0.954558 -0.236966 0.180737
400.00000000 3960.00000000 30.00000000 148 217 73 97.000000 1.000000 4.000000 1.000000 -60.708740 114.000000 149.000000 0.959707 0.013482 -0.280680
380.00000000 3870.00000000 70.00000000 148 217 73 97.000000 1.000000 4.000000 1.000000 -60.708740 114.000000 149.000000 0.957803 0.253575 0.135327
390.00000000 3840.00000000 50.00000000 148 217 73 97.000000 1.000000 4.000000 1.000000 -60.708740 114.000000 149.000000 0.867479 -0.074275 -0.491898
420.00000000 3740.00000000 30.00000000 148 217 73 97.000000 1.000000 4.000000 1.000000 -60.708740 114.000000 149.000000 0.950884 0.276063 -0.140032
440.00000000 3720.00000000 30.00000000 148 217 73 97.000000 1.000000 4.000000 1.000000 -60.708740 114.000000 149.000000 0.985622 -0.120664 -0.118275
440.00000000 3740.00000000 20.00000000 148 217 73 97.000000 1.000000 4.000000 1.000000 -60.708740 114.000000 149.000000 0.898819 -0.009212 -0.438224
440.00000000 3740.00000000 20.00000000 148 217 73 97.000000 1.000000 4.000000 1.000000 -60.708740 114.000000 149.000000 0.898819 -0.009212 -0.438224
430.00000000 3720.00000000 20.00000000 148 217 73 97.000000 1.000000 4.000000 1.000000 -60.708740 114.000000 149.000000 0.866458 -0.071388 -0.494119
430.00000000 3710.00000000 20.00000000 148 217 73 97.000000 1.000000 4.000000 1.000000 -60.708740 114.000000 149.000000 0.855252 -0.332512 -0.397468
400.00000000 3760.00000000 50.00000000 148 217 73 97.000000 1.000000 4.000000 1.000000 -60.708740 114.000000 149.000000 0.973036 -0.055077 0.223982
410.00000000 3760.00000000 60.00000000 148 217 73 97.000000 1.000000 4.000000 1.000000 -60.708740 114.000000 149.000000 0.897606 0.174334 -0.404859
410.00000000 3760.00000000 60.00000000 148 217 73 97.000000 1.000000 4.000000 1.000000 -60.708740 114.000000 149.000000 0.897606 0.174334 -0.404859
400.00000000 3740.00000000 50.00000000 148 217 73 97.000000 1.000000 4.000000 1.000000 -60.708740 114.000000 149.000000 0.853249 0.017691 -0.521203
410.00000000 3720.00000000 40.00000000 148 217 73 97.000000 1.000000 4.000000 1.000000 -60.708740 114.000000 149.000000 0.853568 -0.025948 -0.520335
390.00000000 3740.00000000 40.00000000 148 217 73 97.000000 1.000000 4.000000 1.000000 -60.708740 114.000000 149.000000 0.994003 -0.103057 -0.036569
410.00000000 3750.00000000 20.00000000 148 217 73 97.000000 1.000000 4.000000 1.000000 -60.708740 114.000000 149.000000 0.999442 0.025574 0.021482
500.00000000 3130.00000000 430.00000000 148 217 73 97.000000 1.000000 4.000000 1.000000 -60.708740 114.000000 149.000000 0.375981 -0.326874 0.867059
500.00000000 3070.00000000 420.00000000 148 217 73 97.000000 1.000000 4.000000 1.000000 -60.708740 114.000000 149.000000 0.463597 -0.214545 0.859679
510.00000000 3010.00000000 430.00000000 148 217 73 97.000000 1.000000 4.000000 1.000000 -60.708740 114.000000 149.000000 0.149075 -0.107867 0.982925
550.00000000 3020.00000000 380.00000000 148 217 73 97.000000 1.000000 4.000000 1.000000 -60.708740 114.000000 149.000000 0.855812 -0.151198 0.494697
530.00000000 3010.00000000 380.00000000 148 217 73 97.000000 1.000000 4.000000 1.000000 -60.708740 114.000000 149.000000 0.852461 -0.060190 0.519315
510.00000000 3000.00000000 320.00000000 148 217 73 97.000000 1.000000 4.000000 1.000000 -60.708740 114.000000 149.000000 0.657173 0.055838 0.751669
510.00000000 3030.00000000 340.00000000 148 217 73 97.000000 1.000000 4.000000 1.000000 -60.708740 114.000000 149.000000 0.888310 -0.108399 0.446267
470.00000000 3100.00000000 450.00000000 148 217 73 97.000000 1.000000 4.000000 1.000000 -60.708740 114.000000 149.000000 0.084637 -0.192581 0.977624
450.00000000 3100.00000000 450.00000000 148 217 73 97.000000 1.000000 4.000000 1.000000 -60.708740 114.000000 149.000000 0.104979 0.218811 0.970104
440.00000000 3090.00000000 460.00000000 148 217 73 97.000000 1.000000 4.000000 1.000000 -60.708740 114.000000 149.000000 0.001059 -0.087863 0.996132
450.00000000 3090.00000000 460.00000000 148 217 73 97.000000 1.000000 4.000000 1.000000 -60.708740 114.000000 149.000000 0.316826 -0.334844 0.887412
450.00000000 3120.00000000 430.00000000 148 217 73 97.000000 1.000000 4.000000 1.000000 -60.708740 114.000000 149.000000 0.416738 0.400771 0.815912
450.00000000 3120.00000000 430.00000000 148 217 73 97.000000 1.000000 4.000000 1.000000 -60.708740 114.000000 149.000000 0.416738 0.400771 0.815912
480.00000000 3040.00000000 430.00000000 148 217 73 97.000000 1.000000 4.000000 1.000000 -60.708740 114.000000 149.000000 0.482580 0.339240 0.807486
490.00000000 3060.00000000 440.00000000 148 217 73 97.000000 1.000000 4.000000 1.000000 -60.708740 114.000000 149.000000 0.521316 0.205183 0.828330
470.00000000 3050.00000000 440.00000000 148 217 73 97.000000 1.000000 4.000000 1.000000 -60.708740 114.000000 149.000000 0.142696 -0.178055 0.973619
470.00000000 3050.00000000 440.00000000 148 217 73 97.000000 1.000000 4.000000 1.000000 -60.708740 114.000000 149.000000 0.142696 -0.178055 0.973619
490.00000000 3030.00000000 440.00000000 148 217 73 97.000000 1.000000 4.000000 1.000000 -60.708740 114.000000 149.000000 0.382164 0.449323 0.807502
460.00000000 3010.00000000 420.00000000 148 217 73 97.000000 1.000000 4.000000 1.000000 -60.708740 114.000000 149.000000 0.573210 0.176954 0.800074
460.00000000 3000.00000000 430.00000000 148 217 73 97.000000 1.000000 4.000000 1.000000 -60.708740 114.000000 149.000000 0.616661 -0.101068 0.780714
490.00000000 3030.00000000 440.00000000 148 217 73 97.000000 1.000000 4.000000 1.000000 -60.708740 114.000000 149.000000 0.382164 0.449323 0.807502
460.00000000 3030.00000000 440.00000000 148 217 73 97.000000 1.000000 4.000000 1.000000 -60.708740 114.000000 149.000000 0.064911 -0.156967 0.985468
450.00000000 3050.00000000 450.00000000 148 217 73 97.000000 1.000000 4.000000 1.000000 -60.708740 114.000000 149.000000 0.068353 -0.086282 0.993923
430.00000000 3060.00000000 450.00000000 148 217 73 97.000000 1.000000 4.000000 1.000000 -60.708740 114.000000 149.000000 0.110699 -0.065050 0.991723
450.00000000 3050.00000000 450.00000000 148 217 73 97.000000 1.000000 4.000000 1.000000 -60.708740 114.000000 149.000000 0.068353 -0.086282 0.993923
420.00000000 3040.00000000 430.00000000 148 217 73 97.000000 1.000000 4.000000 1.000000 -60.708740 114.000000 149.000000 0.203111 -0.136685 0.969568
450.00000000 3040.00000000 440.00000000 148 217 73 97.000000 1.000000 4.000000 1.000000 -60.708740 114.000000 149.000000 0.014429 -0.132077 0.991134
420.00000000 3040.00000000 440.00000000 148 217 73 97.000000 1.000000 4.000000 1.000000 -60.708740 114.000000 149.000000 0.279795 -0.291393 0.914770
420.00000000 3040.00000000 440.00000000 148 217 73 97.000000 1.000000 4.000000 1.000000 -60.708740 114.000000 149.000000 0.279795 -0.291393 0.914770
440.00000000 3050.00000000 440.00000000 148 217 73 97.000000 1.000000 4.000000 1.000000 -60.708740 114.000000 149.000000 0.133218 -0.138107 0.981417
450.00000000 3070.00000000 440.00000000 148 217 73 97.000000 1.000000 4.000000 1.000000 -60.708740 114.000000 149.000000 0.407229 -0.197046 0.891817
440.00000000 3060.00000000 440.00000000 148 217 73 97.000000 1.000000 4.000000 1.000000 -60.708740 114.000000 149.000000 0.161239 0.060023 0.985088
440.00000000 3020.00000000 440.00000000 148 217 73 97.000000 1.000000 4.000000 1.000000 -60.708740 114.000000 149.000000 0.242546 -0.048017 0.968951
450.00000000 3010.00000000 430.00000000 148 217 73 97.000000 1.000000 4.000000 1.000000 -60.708740 114.000000 149.000000 0.648210 0.199568 0.734844
410.00000000 3040.00000000 450.00000000 148 217 73 97.000000 1.000000 4.000000 1.000000 -60.708740 114.000000 149.000000 0.125782 0.023375 0.991782
410.00000000 3050.00000000 450.00000000 148 217 73 97.000000 1.000000 4.000000 1.000000 -60.708740 114.000000 149.000000 -0.015679 0.057489 0.998223
410.00000000 3020.00000000 450.00000000 148 217 73 97.000000 1.000000 4.000000 1.000000 -60.708740 114.000000 149.000000 0.248404 0.001189 0.968656
400.00000000 3000.00000000 430.00000000 148 217 73 97.000000 1.000000 4.000000 1.000000 -60.708740 114.000000 149.000000 0.185889 -0.204346 0.961087
410.00000000 3000.00000000 450.00000000 148 217 73 97.000000 1.000000 4.000000 1.000000 -60.708740 114.000000 149.000000 0.179044 -0.128962 0.975352
530.00000000 3000.00000000 300.00000000 148 217 73 97.000000 1.000000 4.000000 1.000000 -60.708740 114.000000 149.000000 0.646502 -0.254491 0.719214
520.00000000 3010.00000000 310.00000000 148 217 73 97.000000 1.000000 4.000000 1.000000 -60.708740 114.000000 149.000000 0.898901 0.086990 0.429429
510.00000000 3010.00000000 310.00000000 148 217 73 97.000000 1.000000 4.000000 1.000000 -60.708740 114.000000 149.000000 0.539026 0.243882 0.806209
450.00000000 3000.00000000 270.00000000 148 217 73 97.000000 1.000000 4.000000 1.000000 -60.708740 114.000000 149.000000 0.392945 -0.154625 0.906469
360.00000000 3010.00000000 250.00000000 148 217 73 97.000000 1.000000 4.000000 1.000000 -60.708740 114.000000 149.000000 0.368816 -0.203934 0.906855
360.00000000 3010.00000000 250.00000000 148 217 73 97.000000 1.000000 4.000000 1.000000 -60.708740 114.000000 149.000000 0.368816 -0.203934 0.906855
360.00000000 3000.00000000 230.00000000 148 217 73 97.000000 1.000000 4.000000 1.000000 -60.708740 114.000000 149.000000 0.473868 0.270120 0.838144
530.00000000 2970.00000000 420.00000000 148 217 73 97.000000 1.000000 4.000000 1.000000 -60.708740 114.000000 149.000000 0.208375 -0.062147 0.976073
500.00000000 2980.00000000 330.00000000 148 217 73 97.000000 1.000000 4.000000 1.000000 -60.708740 114.000000 149.000000 0.488455 -0.042415 0.871557
520.00000000 2990.00000000 320.00000000 148 217 73 97.000000 1.000000 4.000000 1.000000 -60.708740 114.000000 149.000000 0.833454 0.012277 0.552453
500.00000000 2990.00000000 330.00000000 148 217 73 97.000000 1.000000 4.000000 1.000000 -60.708740 114.000000 149.000000 0.544766 -0.243670 0.802405
510.00000000 2990.00000000 320.00000000 148 217 73 97.000000 1.000000 4.000000 1.000000 -60.708740 114.000000 149.000000 0.716786 -0.223312 0.660567
500.00000000 2990.00000000 330.00000000 148 217 73 97.000000 1.000000 4.000000 1.000000 -60.708740 114.000000 149.000000 0.544766 -0.243670 0.802405
520.00000000 2940.00000000 340.00000000 148 217 73 97.000000 1.000000 4.000000 1.000000 -60.708740 114.000000 149.000000 0.854220 -0.037140 0.518584
500.00000000 2920.00000000 340.00000000 148 217 73 97.000000 1.000000 4.000000 1.000000 -60.708740 114.000000 149.000000 0.726149 -0.230548 0.647731
500.00000000 2920.00000000 350.00000000 148 217 73 97.000000 1.000000 4.000000 1.000000 -60.708740 114.000000 149.000000 0.497409 0.290286 0.817508
510.00000000 2920.00000000 330.00000000 148 217 73 97.000000 1.000000 4.000000 1.000000 -60.708740 114.000000 149.000000 0.748935 -0.015341 0.662466
530.00000000 2920.00000000 340.00000000 148 217 73 97.000000 1.000000 4.000000 1.000000 -60.708740 114.000000 149.000000 0.883935 0.154797 0.441244
530.00000000 2950.00000000 320.00000000 148 217 73 97.000000 1.000000 4.000000 1.000000 -60.708740 114.000000 149.000000 0.681557 0.240827 0.691001
520.00000000 2880.00000000 370.00000000 148 217 73 97.000000 1.000000 4.000000 1.000000 -60.708740 114.000000 149.000000 0.583242 0.386090 0.714677
510.00000000 2900.00000000 350.00000000 148 217 73 97.000000 1.000000 4.000000 1.000000 -60.708740 114.000000 149.000000 0.637049 -0.091840 0.765333
500.00000000 2880.00000000 350.00000000 148 217 73 97.000000 1.000000 4.000000 1.000000 -60.708740 114.000000 149.000000 0.594768 0.151314 0.789528
520.00000000 2900.00000000 340.00000000 148 217 73 97.000000 1.000000 4.000000 1.000000 -60.708740 114.000000 149.000000 0.823416 -0.049096 0.565310
510.00000000 2900.00000000 350.00000000 148 217 73 97.000000 1.000000 4.000000 1.000000 -60.708740 114.000000 149.000000 0.637049 -0.091840 0.765333
530.00000000 2900.00000000 340.00000000 148 217 73 97.000000 1.000000 4.000000 1.000000 -60.708740 114.000000 149.000000 0.828370 0.112099 0.548850
510.00000000 2890.00000000 330.00000000 148 217 73 97.000000 1.000000 4.000000 1.000000 -60.708740 114.000000 149.000000 0.334053 0.126804 0.933986
510.00000000 2840.00000000 390.00000000 148 217 73 97.000000 1.000000 4.000000 1.000000 -60.708740 114.000000 149.000000 0.717668 -0.142932 0.681559
520.00000000 2870.00000000 370.00000000 148 217 73 97.000000 1.000000 4.000000 1.000000 -60.708740 114.000000 149.000000 0.599108 0.318125 0.734756
520.00000000 2840.00000000 360.00000000 148 217 73 97.000000 1.000000 4.000000 1.000000 -60.708740 114.000000 149.000000 0.754281 0.369809 0.542496
520.00000000 2840.00000000 360.00000000 148 217 73 97.000000 1.000000 4.000000 1.000000 -60.708740 114.000000 149.000000 0.754281 0.369809 0.542496
520.00000000 2860.00000000 340.00000000 148 217 73 97.000000 1.000000 4.000000 1.000000 -60.708740 114.000000 149.000000 0.844294 -0.034546 0.534766
500.00000000 2830.00000000 340.00000000 148 217 73 97.000000 1.000000 4.000000 1.000000 -60.708740 114.000000 149.000000 0.351144 0.133572 0.926745
520.00000000 2870.00000000 340.00000000 148 217 73 97.000000 1.000000 4.000000 1.000000 -60.708740 114.000000 149.000000 0.502490 0.116624 0.856681
520.00000000 2860.00000000 340.00000000 148 217 73 97.000000 1.000000 4.000000 1.000000 -60.708740 114.000000 149.000000 0.844294 -0.034546 0.534766
550.00000000 2810.00000000 360.00000000 148 217 73 97.000000 1.000000 4.000000 1.000000 -60.708740 114.000000 149.000000 0.672851 -0.046943 0.738287
550.00000000 2790.00000000 370.00000000 148 217 73 97.000000 1.000000 4.000000 1.000000 -60.708740 114.000000 149.000000 0.759601 -0.038192 0.649267
550.00000000 2790.00000000 370.00000000 148 217 73 97.000000 1.000000 4.000000 1.000000 -60.708740 114.000000 149.000000 0.759601 -0.038192 0.649267
550.00000000 2810.00000000 360.00000000 148 217 73 97.000000 1.000000 4.000000 1.000000 -60.708740 114.000000 149.000000 0.672851 -0.046943 0.738287
560.00000000 2800.00000000 350.00000000 148 217 73 97.000000 1.000000 4.000000 1.000000 -60.708740 114.000000 149.000000 0.598153 0.171117 0.782899
560.00000000 2800.00000000 350.00000000 148 217 73 97.000000 1.000000 4.000000 1.000000 -60.708740 114.000000 149.000000 0.598153 0.171117 0.782899
560.00000000 2800.00000000 350.00000000 148 217 73 97.000000 1.000000 4.000000 1.000000 -60.708740 114.000000 149.000000 0.598153 0.171117 0.782899
540.00000000 2820.00000000 370.00000000 148 217 73 97.000000 1.000000 4.000000 1.000000 -60.708740 114.000000 149.000000 0.462726 0.088072 0.882116
510.00000000 2810.00000000 400.00000000 148 217 73 97.000000 1.000000 4.000000 1.000000 -60.708740 114.000000 149.000000 0.418853 0.422063 0.804006
500.00000000 2790.00000000 360.00000000 148 217 73 97.000000 1.000000 4.000000 1.000000 -60.708740 114.000000 149.000000 0.381255 0.144905 0.913043
500.00000000 2790.00000000 360.00000000 148 217 73 97.000000 1.000000 4.000000 1.000000 -60.708740 114.000000 149.000000 0.381255 0.144905 0.913043
530.00000000 2790.00000000 380.00000000 148 217 73 97.000000 1.000000 4.000000 1.000000 -60.708740 114.000000 149.000000 0.376876 0.022017 0.926002
540.00000000 2800.00000000 370.00000000 148 217 73 97.000000 1.000000 4.000000 1.000000 -60.708740 114.000000 149.000000 0.671870 0.083073 0.735996
540.00000000 2820.00000000 370.00000000 148 217 73 97.000000 1.000000 4.000000 1.000000 -60.708740 114.000000 149.000000 0.462726 0.088072 0.882116
530.00000000 2820.00000000 350.00000000 148 217 73 97.000000 1.000000 4.000000 1.000000 -60.708740 114.000000 149.000000 0.865145 -0.141040 0.481282
530.00000000 2820.00000000 340.00000000 148 217 73 97.000000 1.000000 4.000000 1.000000 -60.708740 114.000000 149.000000 0.660168 -0.095146 0.745068
540.00000000 2780.00000000 380.00000000 148 217 73 97.000000 1.000000 4.000000 1.000000 -60.708740 114.000000 149.000000 0.582690 0.141574 0.800268
500.00000000 2780.00000000 360.00000000 148 217 73 97.000000 1.000000 4.000000 1.000000 -60.708740 114.000000 149.000000 0.449398 -0.213502 0.867443
500.00000000 2770.00000000 350.00000000 148 217 73 97.000000 1.000000 4.000000 1.000000 -60.708740 114.000000 149.000000 0.428905 0.116718 0.895778
520.00000000 2720.00000000 430.00000000 148 217 73 97.000000 1.000000 4.000000 1.000000 -60.708740 114.000000 149.000000 0.612844 0.032255 0.789545
530.00000000 2720.00000000 420.00000000 148 217 73 97.000000 1.000000 4.000000 1.000000 -60.708740 114.000000 149.000000 0.557722 0.043332 0.828896
540.00000000 2710.00000000 420.00000000 148 217 73 97.000000 1.000000 4.000000 1.000000 -60.708740 114.000000 149.000000 0.579441 0.430015 0.692341
540.00000000 2700.00000000 420.00000000 148 217 73 97.000000 1.000000 4.000000 1.000000 -60.708740 114.000000 149.000000 0.413375 -0.055206 0.908886
460.00000000 2990.00000000 430.00000000 148 217 73 97.000000 1.000000 4.000000 1.000000 -60.708740 114.000000 149.000000 0.734321 0.038202 0.677726
460.00000000 2990.00000000 420.00000000 148 217 73 97.000000 1.000000 4.000000 1.000000 -60.708740 114.000000 149.000000 0.764697 -0.046818 0.642686
460.00000000 2980.00000000 440.00000000 148 217 73 97.000000 1.000000 4.000000 1.000000 -60.708740 114.000000 149.000000 0.074315 -0.067660 0.994937
440.00000000 2980.00000000 440.00000000 148 217 73 97.000000 1.000000 4.000000 1.000000 -60.708740 114.000000 149.000000 0.145271 -0.204408 0.968046
420.00000000 2950.00000000 430.00000000 148 217 73 97.000000 1.000000 4.000000 1.000000 -60.708740 114.000000 149.000000 0.271488 -0.086207 0.958573
490.00000000 2970.00000000 360.00000000 148 217 73 97.000000 1.000000 4.000000 1.000000 -60.708740 114.000000 149.000000 0.592530 0.100453 0.799260
470.00000000 2960.00000000 380.00000000 148 217 73 97.000000 1.000000 4.000000 1.000000 -60.708740 114.000000 149.000000 0.414934 0.440766 0.795962
470.00000000 2960.00000000 380.00000000 148 217 73 97.000000 1.000000 4.000000 1.000000 -60.708740 114.000000 149.000000 0.414934 0.440766 0.795962
490.00000000 2990.00000000 340.00000000 148 217 73 97.000000 1.000000 4.000000 1.000000 -60.708740 114.000000 149.000000 0.418681 -0.188188 0.888421
470.00000000 2950.00000000 380.00000000 148 217 73 97.000000 1.000000 4.000000 1.000000 -60.708740 114.000000 149.000000 0.708330 -0.247679 0.661003
490.00000000 2950.00000000 370.00000000 148 217 73 97.000000 1.000000 4.000000 1.000000 -60.708740 114.000000 149.000000 0.688421 -0.058925 0.722914
460.00000000 2920.00000000 360.00000000 148 217 73 97.000000 1.000000 4.000000 1.000000 -60.708740 114.000000 149.000000 0.770741 0.142176 0.621083
490.00000000 2940.00000000 330.00000000 148 217 73 97.000000 1.000000 4.000000 1.000000 -60.708740 114.000000 149.000000 0.648677 0.438565 0.621996
490.00000000 2920.00000000 340.00000000 148 217 73 97.000000 1.000000 4.000000 1.000000 -60.708740 114.000000 149.000000 0.569522 -0.063911 0.819487
450.00000000 2920.00000000 370.00000000 148 217 73 97.000000 1.000000 4.000000 1.000000 -60.708740 114.000000 149.000000 0.584175 0.256659 0.769978
460.00000000 2890.00000000 410.00000000 148 217 73 97.000000 1.000000 4.000000 1.000000 -60.708740 114.000000 149.000000 0.177806 -0.182997 0.966901
460.00000000 2880.00000000 410.00000000 148 217 73 97.000000 1.000000 4.000000 1.000000 -60.708740 114.000000 149.000000 0.414528 -0.257761 0.872769
470.00000000 2890.00000000 410.00000000 148 217 73 97.000000 1.000000 4.000000 1.000000 -60.708740 114.000000 149.000000 0.333318 -0.123804 0.934651
460.00000000 2900.00000000 410.00000000 148 217 73 97.000000 1.000000 4.000000 1.000000 -60.708740 114.000000 149.000000 0.405482 0.112866 0.907108
470.00000000 2890.00000000 410.00000000 148 217 73 97.000000 1.000000 4.000000 1.000000 -60.708740 114.000000 149.000000 0.333318 -0.123804 0.934651
460.00000000 2900.00000000 370.00000000 148 217 73 97.000000 1.000000 4.000000 1.000000 -60.708740 114.000000 149.000000 0.602621 0.174563 0.778701
460.00000000 2900.00000000 380.00000000 148 217 73 97.000000 1.000000 4.000000 1.000000 -60.708740 114.000000 149.000000 0.294208 0.366628 0.882624
480.00000000 2880.00000000 380.00000000 148 217 73 97.000000 1.000000 4.000000 1.000000 -60.708740 114.000000 149.000000 0.709862 0.336250 0.618896
490.00000000 2890.00000000 400.00000000 148 217 73 97.000000 1.000000 4.000000 1.000000 -60.708740 114.000000 149.000000 0.141501 -0.114894 0.983248
460.00000000 2900.00000000 380.00000000 148 217 73 97.000000 1.000000 4.000000 1.000000 -60.708740 114.000000 149.000000 0.294208 0.366628 0.882624
480.00000000 2890.00000000 370.00000000 148 217 73 97.000000 1.000000 4.000000 1.000000 -60.708740 114.000000 149.000000 0.626693 0.136108 0.767288
490.00000000 2900.00000000 400.00000000 148 217 73 97.000000 1.000000 4.000000 1.000000 -60.708740 114.000000 149.000000 0.333863 0.402188 0.852514
480.00000000 2900.00000000 380.00000000 148 217 73 97.000000 1.000000 4.000000 1.000000 -60.708740 114.000000 149.000000 0.243369 -0.178829 0.953306
480.00000000 2880.00000000 380.00000000 148 217 73 97.000000 1.000000 4.000000 1.000000 -60.708740 114.000000 149.000000 0.709862 0.336250 0.618896
480.00000000 2870.00000000 380.00000000 148 217 73 97.000000 1.000000 4.000000 1.000000 -60.708740 114.000000 149.000000 0.507131 -0.117030 0.853887
490.00000000 2870.00000000 360.00000000 148 217 73 97.000000 1.000000 4.000000 1.000000 -60.708740 114.000000 149.000000 0.607798 0.219180 0.763245
480.00000000 2840.00000000 400.00000000 148 217 73 97.000000 1.000000 4.000000 1.000000 -60.708740 114.000000 149.000000 0.377850 -0.123182 0.917636
470.00000000 2860.00000000 360.00000000 148 217 73 97.000000 1.000000 4.000000 1.000000 -60.708740 114.000000 149.000000 0.768678 0.110654 0.629992
460.00000000 2870.00000000 370.00000000 148 217 73 97.000000 1.000000 4.000000 1.000000 -60.708740 114.000000 149.000000 0.592698 0.218200 0.775305
450.00000000 2900.00000000 380.00000000 148 217 73 97.000000 1.000000 4.000000 1.000000 -60.708740 114.000000 149.000000 0.332329 0.222992 0.916423
450.00000000 2900.00000000 330.00000000 148 217 73 97.000000 1.000000 4.000000 1.000000 -60.708740 114.000000 149.000000 0.494368 0.406263 0.768473
430.00000000 2870.00000000 400.00000000 148 217 73 97.000000 1.000000 4.000000 1.000000 -60.708740 114.000000 149.000000 0.151179 0.268912 0.951226
450.00000000 2850.00000000 400.00000000 148 217 73 97.000000 1.000000 4.000000 1.000000 -60.708740 114.000000 149.000000 0.402442 -0.136971 0.905141
450.00000000 2850.00000000 400.00000000 148 217 73 97.000000 1.000000 4.000000 1.000000 -60.708740 114.000000 149.000000 0.402442 -0.136971 0.905141
450.00000000 2850.00000000 400.00000000 148 217 73 97.000000 1.000000 4.000000 1.000000 -60.708740 114.000000 149.000000 0.402442 -0.136971 0.905141
360.00000000 2940.00000000 330.00000000 148 217 73 97.000000 1.000000 4.000000 1.000000 -60.708740 114.000000 149.000000 0.195606 -0.024597 0.980374
410.00000000 2930.00000000 320.00000000 148 217 73 97.000000 1.000000 4.000000 1.000000 -60.708740 114.000000 149.000000 0.130739 0.353684 0.926183
410.00000000 2990.00000000 320.00000000 148 217 73 97.000000 1.000000 4.000000 1.000000 -60.708740 114.000000 149.000000 0.512694 0.123453 0.849649
490.00000000 2810.00000000 360.00000000 148 217 73 97.000000 1.000000 4.000000 1.000000 -60.708740 114.000000 149.000000 0.644818 0.365889 0.671070
460.00000000 2810.00000000 350.00000000 148 217 73 97.000000 1.000000 4.000000 1.000000 -60.708740 114.000000 149.000000 0.665205 0.149332 0.731575
470.00000000 2810.00000000 330.00000000 148 217 73 97.000000 1.000000 4.000000 1.000000 -60.708740 114.000000 149.000000 0.247939 -0.191035 0.949754
470.00000000 2760.00000000 330.00000000 148 217 73 97.000000 1.000000 4.000000 1.000000 -60.708740 114.000000 149.000000 0.246662 0.342992 0.906374
460.00000000 2760.00000000 330.00000000 148 217 73 97.000000 1.000000 4.000000 1.000000 -60.708740 114.000000 149.000000 0.453432 0.408250 0.792295
440.00000000 2800.00000000 370.00000000 148 217 73 97.000000 1.000000 4.000000 1.000000 -60.708740 114.000000 149.000000 0.424423 -0.014454 0.905349
450.00000000 2790.00000000 380.00000000 148 217 73 97.000000 1.000000 4.000000 1.000000 -60.708740 114.000000 149.000000 0.166913 0.164365 0.972175
440.00000000 2790.00000000 350.00000000 148 217 73 97.000000 1.000000 4.000000 1.000000 -60.708740 114.000000 149.000000 0.120048 -0.236223 0.964255
430.00000000 2790.00000000 350.00000000 148 217 73 97.000000 1.000000 4.000000 1.000000 -60.708740 114.000000 149.000000 0.068047 0.005234 0.997668
440.00000000 2790.00000000 350.00000000 148 217 73 97.000000 1.000000 4.000000 1.000000 -60.708740 114.000000 149.000000 0.120048 -0.236223 0.964255
420.00000000 2780.00000000 380.00000000 148 217 73 97.000000 1.000000 4.000000 1.000000 -60.708740 114.000000 149.000000 0.152215 -0.162279 0.974934
430.00000000 2780.00000000 360.00000000 148 217 73 97.000000 1.000000 4.000000 1.000000 -60.708740 114.000000 149.000000 0.017363 0.184051 0.982763
440.00000000 2750.00000000 340.00000000 148 217 73 97.000000 1.000000 4.000000 1.000000 -60.708740 114.000000 149.000000 0.381758 0.173006 0.907926
420.00000000 2760.00000000 350.00000000 148 217 73 97.000000 1.000000 4.000000 1.000000 -60.708740 114.000000 149.000000 0.510712 -0.151595 0.846281
420.00000000 2760.00000000 350.00000000 148 217 73 97.000000 1.000000 4.000000 1.000000 -60.708740 114.000000 149.000000 0.510712 -0.151595 0.846281
460.00000000 2740.00000000 330.00000000 148 217 73 97.000000 1.000000 4.000000 1.000000 -60.708740 114.000000 149.000000 0.168738 0.205363 0.964030
450.00000000 2720.00000000 380.00000000 148 217 73 97.000000 1.000000 4.000000 1.000000 -60.708740 114.000000 149.000000 0.250121 0.167193 0.953670
400.00000000 2760.00000000 350.00000000 148 217 73 97.000000 1.000000 4.000000 1.000000 -60.708740 114.000000 149.000000 0.431873 0.123190 0.893482
410.00000000 2760.00000000 350.00000000 148 217 73 97.000000 1.000000 4.000000 1.000000 -60.708740 114.000000 149.000000 0.526188 -0.089837 0.845609
530.00000000 2990.00000000 310.00000000 148 217 73 97.000000 1.000000 4.000000 1.000000 -60.708740 114.000000 149.000000 0.765786 -0.073550 0.638876
530.00000000 2950.00000000 310.00000000 148 217 73 97.000000 1.000000 4.000000 1.000000 -60.708740 114.000000 149.000000 0.428111 0.255656 0.866811
520.00000000 2990.00000000 310.00000000 148 217 73 97.000000 1.000000 4.000000 1.000000 -60.708740 114.000000 149.000000 0.730040 -0.233927 0.642121
540.00000000 2940.00000000 310.00000000 148 217 73 97.000000 1.000000 4.000000 1.000000 -60.708740 114.000000 149.000000 0.535203 0.140067 0.833030
550.00000000 2920.00000000 310.00000000 148 217 73 97.000000 1.000000 4.000000 1.000000 -60.708740 114.000000 149.000000 0.565697 0.309291 0.764412
490.00000000 2960.00000000 310.00000000 148 217 73 97.000000 1.000000 4.000000 1.000000 -60.708740 114.000000 149.000000 0.529585 -0.099028 0.842457
490.00000000 2920.00000000 310.00000000 148 217 73 97.000000 1.000000 4.000000 1.000000 -60.708740 114.000000 149.000000 0.317365 0.214898 0.923633
420.00000000 2930.00000000 310.00000000 148 217 73 97.000000 1.000000 4.000000 1.000000 -60.708740 114.000000 149.000000 0.178116 0.165302 0.970026
420.00000000 2950.00000000 290.00000000 148 217 73 97.000000 1.000000 4.000000 1.000000 -60.708740 114.000000 149.000000 0.526946 -0.066044 0.847329
450.00000000 2940.00000000 280.00000000 148 217 73 97.000000 1.000000 4.000000 1.000000 -60.708740 114.000000 149.000000 0.393127 0.085699 0.915482
430.00000000 2940.00000000 260.00000000 148 217 73 97.000000 1.000000 4.000000 1.000000 -60.708740 114.000000 149.000000 0.633222 0.333703 0.698335
440.00000000 2920.00000000 270.00000000 148 217 73 97.000000 1.000000 4.000000 1.000000 -60.708740 114.000000 149.000000 0.606686 -0.354854 0.711344
440.00000000 2920.00000000 270.00000000 148 217 73 97.000000 1.000000 4.000000 1.000000 -60.708740 114.000000 149.000000 0.606686 -0.354854 0.711344
420.00000000 2910.00000000 290.00000000 148 217 73 97.000000 1.000000 4.000000 1.000000 -60.708740 114.000000 149.000000 0.394891 0.382305 0.835407
410.00000000 2960.00000000 240.00000000 148 217 73 97.000000 1.000000 4.000000 1.000000 -60.708740 114.000000 149.000000 0.361681 0.370995 0.855307
380.00000000 2920.00000000 290.00000000 148 217 73 97.000000 1.000000 4.000000 1.000000 -60.708740 114.000000 149.000000 0.293607 -0.180575 0.938716
340.00000000 2960.00000000 300.00000000 148 217 73 97.000000 1.000000 4.000000 1.000000 -60.708740 114.000000 149.000000 -0.185147 0.198278 0.962500
370.00000000 2970.00000000 290.00000000 148 217 73 97.000000 1.000000 4.000000 1.000000 -60.708740 114.000000 149.000000 0.468912 -0.056379 0.881444
370.00000000 2970.00000000 290.00000000 148 217 73 97.000000 1.000000 4.000000 1.000000 -60.708740 114.000000 149.000000 0.468912 -0.056379 0.881444
350.00000000 2960.00000000 300.00000000 148 217 73 97.000000 1.000000 4.000000 1.000000 -60.708740 114.000000 149.000000 0.194960 -0.049039 0.979584
370.00000000 2960.00000000 290.00000000 148 217 73 97.000000 1.000000 4.000000 1.000000 -60.708740 114.000000 149.000000 0.153630 0.079792 0.984901
340.00000000 2960.00000000 250.00000000 148 217 73 97.000000 1.000000 4.000000 1.000000 -60.708740 114.000000 149.000000 0.534248 -0.048822 0.843917
340.00000000 2940.00000000 250.00000000 148 217 73 97.000000 1.000000 4.000000 1.000000 -60.708740 114.000000 149.000000 0.174077 0.318910 0.931662
350.00000000 2940.00000000 260.00000000 148 217 73 97.000000 1.000000 4.000000 1.000000 -60.708740 114.000000 149.000000 0.518584 0.037140 0.854220
370.00000000 2950.00000000 250.00000000 148 217 73 97.000000 1.000000 4.000000 1.000000 -60.708740 114.000000 149.000000 0.283967 -0.292705 0.913064
380.00000000 2890.00000000 290.00000000 148 217 73 97.000000 1.000000 4.000000 1.000000 -60.708740 114.000000 149.000000 0.317579 0.183272 0.930352
410.00000000 2900.00000000 310.00000000 148 217 73 97.000000 1.000000 4.000000 1.000000 -60.708740 114.000000 149.000000 0.483050 0.034018 0.874932
400.00000000 2900.00000000 280.00000000 148 217 73 97.000000 1.000000 4.000000 1.000000 -60.708740 114.000000 149.000000 0.067937 -0.079074 0.994551
400.00000000 2910.00000000 280.00000000 148 217 73 97.000000 1.000000 4.000000 1.000000 -60.708740 114.000000 149.000000 0.675770 0.152691 0.721124
390.00000000 2900.00000000 280.00000000 148 217 73 97.000000 1.000000 4.000000 1.000000 -60.708740 114.000000 149.000000 -0.004984 -0.014953 0.999876
390.00000000 2890.00000000 280.00000000 148 217 73 97.000000 1.000000 4.000000 1.000000 -60.708740 114.000000 149.000000 0.139090 0.117319 0.983306
410.00000000 2880.00000000 270.00000000 148 217 73 97.000000 1.000000 4.000000 1.000000 -60.708740 114.000000 149.000000 0.782470 0.079549 0.617587
410.00000000 2870.00000000 300.00000000 148 217 73 97.000000 1.000000 4.000000 1.000000 -60.708740 114.000000 149.000000 0.612149 -0.271890 0.742529
380.00000000 2870.00000000 300.00000000 148 217 73 97.000000 1.000000 4.000000 1.000000 -60.708740 114.000000 149.000000 0.071754 -0.103644 0.992023
410.00000000 2840.00000000 280.00000000 148 217 73 97.000000 1.000000 4.000000 1.000000 -60.708740 114.000000 149.000000 0.487521 -0.062503 0.870871
400.00000000 2870.00000000 280.00000000 148 217 73 97.000000 1.000000 4.000000 1.000000 -60.708740 114.000000 149.000000 0.189690 0.292150 0.937372
370.00000000 2900.00000000 290.00000000 148 217 73 97.000000 1.000000 4.000000 1.000000 -60.708740 114.000000 149.000000 0.462531 0.124583 0.877806
360.00000000 2910.00000000 290.00000000 148 217 73 97.000000 1.000000 4.000000 1.000000 -60.708740 114.000000 149.000000 0.092693 0.155291 0.983510
360.00000000 2900.00000000 300.00000000 148 217 73 97.000000 1.000000 4.000000 1.000000 -60.708740 114.000000 149.000000 0.184463 -0.019722 0.982642
350.00000000 2890.00000000 280.00000000 148 217 73 97.000000 1.000000 4.000000 1.000000 -60.708740 114.000000 149.000000 0.212678 -0.363144 0.907136
370.00000000 2900.00000000 300.00000000 148 217 73 97.000000 1.000000 4.000000 1.000000 -60.708740 114.000000 149.000000 0.170938 0.202255 0.964299
360.00000000 2880.00000000 270.00000000 148 217 73 97.000000 1.000000 4.000000 1.000000 -60.708740 114.000000 149.000000 -0.022042 -0.055631 0.998208
370.00000000 2860.00000000 300.00000000 148 217 73 97.000000 1.000000 4.000000 1.000000 -60.708740 114.000000 149.000000 0.465764 -0.297528 0.833391
360.00000000 2830.00000000 290.00000000 148 217 73 97.000000 1.000000 4.000000 1.000000 -60.708740 114.000000 149.000000 0.167344 -0.062902 0.983890
360.00000000 2870.00000000 270.00000000 148 217 73 97.000000 1.000000 4.000000 1.000000 -60.708740 114.000000 149.000000 0.249535 -0.146552 0.957212
360.00000000 2850.00000000 270.00000000 148 217 73 97.000000 1.000000 4.000000 1.000000 -60.708740 114.000000 149.000000 0.144648 0.169805 0.974804
350.00000000 2820.00000000 290.00000000 148 217 73 97.000000 1.000000 4.000000 1.000000 -60.708740 114.000000 149.000000 0.000989 0.010880 0.999940
350.00000000 2820.00000000 290.00000000 148 217 73 97.000000 1.000000 4.000000 1.000000 -60.708740 114.000000 149.000000 0.000989 0.010880 0.999940
360.00000000 2800.00000000 300.00000000 148 217 73 97.000000 1.000000 4.000000 1.000000 -60.708740 114.000000 149.000000 0.262084 0.239660 0.934813
350.00000000 2810.00000000 290.00000000 148 217 73 97.000000 1.000000 4.000000 1.000000 -60.708740 114.000000 149.000000 0.060102 -0.297954 0.952686
370.00000000 2810.00000000 280.00000000 148 217 73 97.000000 1.000000 4.000000 1.000000 -60.708740 114.000000 149.000000 0.289028 -0.286124 0.913562
350.00000000 2820.00000000 300.00000000 148 217 73 97.000000 1.000000 4.000000 1.000000 -60.708740 114.000000 149.000000 0.095193 -0.118697 0.988357
360.00000000 2800.00000000 300.00000000 148 217 73 97.000000 1.000000 4.000000 1.000000 -60.708740 114.000000 149.000000 0.262084 0.239660 0.934813
350.00000000 2800.00000000 260.00000000 148 217 73 97.000000 1.000000 4.000000 1.000000 -60.708740 114.000000 149.000000 0.463469 0.100019 0.880450
340.00000000 2820.00000000 270.00000000 148 217 73 97.000000 1.000000 4.000000 1.000000 -60.708740 114.000000 149.000000 0.302812 -0.288183 0.908436
350.00000000 2820.00000000 270.00000000 148 217 73 97.000000 1.000000 4.000000 1.000000 -60.708740 114.000000 149.000000 0.072605 -0.160683 0.984332
340.00000000 2820.00000000 260.00000000 148 217 73 97.000000 1.000000 4.000000 1.000000 -60.708740 114.000000 149.000000 -0.096640 0.047765 0.994173
370.00000000 2780.00000000 290.00000000 148 217 73 97.000000 1.000000 4.000000 1.000000 -60.708740 114.000000 149.000000 0.103748 -0.287604 0.952114
350.00000000 2770.00000000 310.00000000 148 217 73 97.000000 1.000000 4.000000 1.000000 -60.708740 114.000000 149.000000 0.280022 -0.013451 0.959899
720.00000000 750.00000000 330.00000000 148 217 73 97.000000 1.000000 4.000000 1.000000 -60.708740 114.000000 50.000000 0.867691 0.178252 0.464045
730.00000000 780.00000000 330.00000000 148 217 73 97.000000 1.000000 4.000000 1.000000 -60.708740 114.000000 50.000000 0.727474 -0.343394 0.594022
690.00000000 730.00000000 330.00000000 148 217 73 97.000000 1.000000 4.000000 1.000000 -60.708740 114.000000 50.000000 0.869887 0.210384 0.446134
690.00000000 710.00000000 320.00000000 148 217 73 97.000000 1.000000 4.000000 1.000000 -60.708740 114.000000 50.000000 0.840209 -0.217269 0.496833
790.00000000 910.00000000 210.00000000 148 217 73 97.000000 1.000000 4.000000 1.000000 -60.708740 114.000000 50.000000 0.910089 0.338199 0.239497
790.00000000 820.00000000 270.00000000 148 217 73 97.000000 1.000000 4.000000 1.000000 -60.708740 114.000000 50.000000 0.923640 0.043481 0.380787
810.00000000 810.00000000 250.00000000 148 217 73 97.000000 1.000000 4.000000 1.000000 -60.708740 114.000000 50.000000 -0.825289 0.084682 -0.558326
800.00000000 830.00000000 260.00000000 148 217 73 97.000000 1.000000 4.000000 1.000000 -60.708740 114.000000 50.000000 0.855076 0.349169 0.383310
820.00000000 890.00000000 200.00000000 148 217 73 97.000000 1.000000 4.000000 1.000000 -60.708740 114.000000 50.000000 0.970602 -0.190540 -0.147061
820.00000000 890.00000000 180.00000000 148 217 73 97.000000 1.000000 4.000000 1.000000 -60.708740 114.000000 50.000000 0.927334 0.151090 0.342379
820.00000000 890.00000000 180.00000000 148 217 73 97.000000 1.000000 4.000000 1.000000 -60.708740 114.000000 50.000000 0.927334 0.151090 0.342379
800.00000000 820.00000000 190.00000000 148 217 73 97.000000 1.000000 4.000000 1.000000 -60.708740 114.000000 50.000000 0.884998 0.461080 0.064689
770.00000000 850.00000000 220.00000000 148 217 73 97.000000 1.000000 4.000000 1.000000 -60.708740 114.000000 50.000000 0.804239 0.230003 0.547994
790.00000000 870.00000000 180.00000000 148 217 73 97.000000 1.000000 4.000000 1.000000 -60.708740 114.000000 50.000000 0.993471 -0.068632 0.091134
730.00000000 820.00000000 240.00000000 148 217 73 97.000000 1.000000 4.000000 1.000000 -60.708740 114.000000 50.000000 0.980579 0.138680 0.138680
730.00000000 840.00000000 240.00000000 148 217 73 97.000000 1.000000 4.000000 1.000000 -60.708740 114.000000 50.000000 0.989384 0.037658 0.140362
740.00000000 850.00000000 190.00000000 148 217 73 97.000000 1.000000 4.000000 1.000000 -60.708740 114.000000 50.000000 0.940731 0.122470 0.316269
740.00000000 860.00000000 190.00000000 148 217 73 97.000000 1.000000 4.000000 1.000000 -60.708740 114.000000 50.000000 0.937612 -0.140574 0.317997
730.00000000 830.00000000 230.00000000 148 217 73 97.000000 1.000000 4.000000 1.000000 -60.708740 114.000000 50.000000 0.854977 0.386369 0.346025
790.00000000 790.00000000 270.00000000 148 217 73 97.000000 1.000000 4.000000 1.000000 -60.708740 114.000000 50.000000 0.967848 0.102747 0.229594
790.00000000 800.00000000 270.00000000 148 217 73 97.000000 1.000000 4.000000 1.000000 -60.708740 114.000000 50.000000 0.980856 0.157966 0.113882
790.00000000 780.00000000 270.00000000 148 217 73 97.000000 1.000000 4.000000 1.000000 -60.708740 114.000000 50.000000 0.938582 -0.160313 0.305553
760.00000000 730.00000000 260.00000000 148 217 73 97.000000 1.000000 4.000000 1.000000 -60.708740 114.000000 50.000000 0.956117 -0.046732 0.289235
760.00000000 730.00000000 270.00000000 148 217 73 97.000000 1.000000 4.000000 1.000000 -60.708740 114.000000 50.000000 0.833844 0.178146 0.522463
760.00000000 730.00000000 260.00000000 148 217 73 97.000000 1.000000 4.000000 1.000000 -60.708740 114.000000 50.000000 0.956117 -0.046732 0.289235
790.00000000 760.00000000 240.00000000 148 217 73 97.000000 1.000000 4.000000 1.000000 -60.708740 114.000000 50.000000 0.883725 0.429405 0.186124
800.00000000 800.00000000 210.00000000 148 217 73 97.000000 1.000000 4.000000 1.000000 -60.708740 114.000000 50.000000 0.966661 0.200579 -0.159169
820.00000000 770.00000000 200.00000000 148 217 73 97.000000 1.000000 4.000000 1.000000 -60.708740 114.000000 50.000000 0.868119 -0.281264 0.408974
800.00000000 800.00000000 210.00000000 148 217 73 97.000000 1.000000 4.000000 1.000000 -60.708740 114.000000 50.000000 0.966661 0.200579 -0.159169
830.00000000 790.00000000 180.00000000 148 217 73 97.000000 1.000000 4.000000 1.000000 -60.708740 114.000000 50.000000 0.950762 -0.280574 0.131644
830.00000000 800.00000000 190.00000000 148 217 73 97.000000 1.000000 4.000000 1.000000 -60.708740 114.000000 50.000000 0.934027 -0.008895 0.357091
830.00000000 800.00000000 180.00000000 148 217 73 97.000000 1.000000 4.000000 1.000000 -60.708740 114.000000 50.000000 0.993577 0.084392 -0.075390
770.00000000 790.00000000 210.00000000 148 217 73 97.000000 1.000000 4.000000 1.000000 -60.708740 114.000000 50.000000 0.939870 -0.140096 0.311476
760.00000000 770.00000000 210.00000000 148 217 73 97.000000 1.000000 4.000000 1.000000 -60.708740 114.000000 50.000000 0.772376 0.058535 0.632463
770.00000000 790.00000000 210.00000000 148 217 73 97.000000 1.000000 4.000000 1.000000 -60.708740 114.000000 50.000000 0.939870 -0.140096 0.311476
