//X Y Z R G B PointSourceId ScanDirectionFlag NumberOfReturns ReturnNumber GpsTime Intensity Classification Nx Ny Nz
5010.00000000 970.00000000 -620.00000000 214 218 39 97.000000 1.000000 4.000000 1.000000 -60.708740 114.000000 163.000000 -0.024008 0.161199 0.986630
4980.00000000 880.00000000 -580.00000000 214 218 39 97.000000 1.000000 4.000000 1.000000 -60.708740 114.000000 163.000000 -0.119413 0.309937 0.943228
4940.00000000 970.00000000 -600.00000000 214 218 39 97.000000 1.000000 4.000000 1.000000 -60.708740 114.000000 163.000000 -0.139342 -0.395505 0.907832
4920.00000000 950.00000000 -560.00000000 214 218 39 97.000000 1.000000 4.000000 1.000000 -60.708740 114.000000 163.000000 -0.380538 0.214326 0.899586
4960.00000000 910.00000000 -600.00000000 214 218 39 97.000000 1.000000 4.000000 1.000000 -60.708740 114.000000 163.000000 -0.600565 -0.221914 0.768164
4880.00000000 950.00000000 -610.00000000 214 218 39 97.000000 1.000000 4.000000 1.000000 -60.708740 114.000000 163.000000 -0.390221 0.063025 0.918562
4820.00000000 970.00000000 -570.00000000 214 218 39 97.000000 1.000000 4.000000 1.000000 -60.708740 114.000000 163.000000 0.353904 0.158068 0.921828
4840.00000000 970.00000000 -600.00000000 214 218 39 97.000000 1.000000 4.000000 1.000000 -60.708740 114.000000 163.000000 -0.196409 -0.356977 0.913231
4820.00000000 930.00000000 -790.00000000 214 218 39 97.000000 1.000000 4.000000 1.000000 -60.708740 114.000000 163.000000 -0.244199 -0.055782 0.968119
4820.00000000 960.00000000 -780.00000000 214 218 39 97.000000 1.000000 4.000000 1.000000 -60.708740 114.000000 163.000000 0.293952 -0.338716 0.893792
4810.00000000 890.00000000 -760.00000000 214 218 39 97.000000 1.000000 4.000000 1.000000 -60.708740 114.000000 163.000000 0.295978 -0.328699 0.896858
4760.00000000 930.00000000 -740.00000000 214 218 39 97.000000 1.000000 4.000000 1.000000 -60.708740 114.000000 163.000000 -0.052718 -0.162840 0.985243
5110.00000000 3330.00000000 230.00000000 214 218 39 97.000000 1.000000 4.000000 1.000000 -60.708740 114.000000 145.000000 -0.530710 0.226128 0.816831
4980.00000000 3300.00000000 330.00000000 214 218 39 97.000000 1.000000 4.000000 1.000000 -60.708740 114.000000 145.000000 -0.503557 -0.039791 0.863045
4990.00000000 3320.00000000 330.00000000 214 218 39 97.000000 1.000000 4.000000 1.000000 -60.708740 114.000000 145.000000 0.791128 -0.194339 -0.579956
4760.00000000 3260.00000000 270.00000000 214 218 39 97.000000 1.000000 4.000000 1.000000 -60.708740 114.000000 145.000000 0.951098 -0.008680 -0.308766
4740.00000000 3260.00000000 260.00000000 214 218 39 97.000000 1.000000 4.000000 1.000000 -60.708740 114.000000 145.000000 0.739701 -0.237144 -0.629766
4770.00000000 3190.00000000 150.00000000 214 218 39 97.000000 1.000000 4.000000 1.000000 -60.708740 114.000000 145.000000 0.776972 -0.397407 -0.488243
4840.00000000 3280.00000000 240.00000000 214 218 39 97.000000 1.000000 4.000000 1.000000 -60.708740 114.000000 145.000000 0.791522 0.023648 -0.610682
4770.00000000 3090.00000000 160.00000000 214 218 39 97.000000 1.000000 4.000000 1.000000 -60.708740 114.000000 145.000000 0.741741 0.076932 -0.666260
4740.00000000 3130.00000000 160.00000000 214 218 39 97.000000 1.000000 4.000000 1.000000 -60.708740 114.000000 145.000000 0.863059 0.237303 -0.445889
4800.00000000 3040.00000000 90.00000000 214 218 39 97.000000 1.000000 4.000000 1.000000 -60.708740 114.000000 145.000000 0.937623 -0.069697 -0.340595
4800.00000000 3030.00000000 60.00000000 214 218 39 97.000000 1.000000 4.000000 1.000000 -60.708740 114.000000 145.000000 0.966149 -0.193750 0.170344
4730.00000000 3100.00000000 130.00000000 214 218 39 97.000000 1.000000 4.000000 1.000000 -60.708740 114.000000 145.000000 0.857627 -0.500163 -0.119635
4740.00000000 3110.00000000 100.00000000 214 218 39 97.000000 1.000000 4.000000 1.000000 -60.708740 114.000000 145.000000 0.912839 -0.361422 -0.189996
4740.00000000 3120.00000000 90.00000000 214 218 39 97.000000 1.000000 4.000000 1.000000 -60.708740 114.000000 145.000000 0.881346 -0.102941 -0.461120
4720.00000000 3070.00000000 140.00000000 214 218 39 97.000000 1.000000 4.000000 1.000000 -60.708740 114.000000 145.000000 0.764620 -0.035203 -0.643520
4660.00000000 3120.00000000 190.00000000 214 218 39 97.000000 1.000000 4.000000 1.000000 -60.708740 114.000000 145.000000 0.730582 -0.209403 -0.649923
4640.00000000 3040.00000000 300.00000000 214 218 39 97.000000 1.000000 4.000000 1.000000 -60.708740 114.000000 145.000000 0.671736 -0.182921 -0.717851
4660.00000000 3080.00000000 230.00000000 214 218 39 97.000000 1.000000 4.000000 1.000000 -60.708740 114.000000 145.000000 0.732631 -0.095433 -0.673903
4610.00000000 3150.00000000 210.00000000 214 218 39 97.000000 1.000000 4.000000 1.000000 -60.708740 114.000000 145.000000 0.933340 0.200101 -0.298053
4680.00000000 3050.00000000 40.00000000 214 218 39 97.000000 1.000000 4.000000 1.000000 -60.708740 114.000000 145.000000 0.910879 -0.374900 0.172482
4700.00000000 3060.00000000 20.00000000 214 218 39 97.000000 1.000000 4.000000 1.000000 -60.708740 114.000000 145.000000 0.969932 0.239111 -0.045370
4560.00000000 3070.00000000 100.00000000 214 218 39 97.000000 1.000000 4.000000 1.000000 -60.708740 114.000000 145.000000 0.972263 0.233200 -0.017938
4540.00000000 3120.00000000 90.00000000 214 218 39 97.000000 1.000000 4.000000 1.000000 -60.708740 114.000000 145.000000 0.979568 0.019896 -0.200127
5070.00000000 1970.00000000 170.00000000 214 218 39 97.000000 1.000000 4.000000 1.000000 -60.708740 114.000000 145.000000 0.606269 -0.119484 0.786232
5140.00000000 1950.00000000 110.00000000 214 218 39 97.000000 1.000000 4.000000 1.000000 -60.708740 114.000000 145.000000 0.176776 -0.252345 0.951353
5060.00000000 1980.00000000 0.00000000 214 218 39 97.000000 1.000000 4.000000 1.000000 -60.708740 114.000000 145.000000 0.492337 -0.213598 0.843789
5120.00000000 1910.00000000 40.00000000 214 218 39 97.000000 1.000000 4.000000 1.000000 -60.708740 114.000000 145.000000 0.753777 -0.376074 0.538877
4720.00000000 2970.00000000 160.00000000 214 218 39 97.000000 1.000000 4.000000 1.000000 -60.708740 114.000000 145.000000 0.810268 -0.153697 -0.565546
4860.00000000 2980.00000000 20.00000000 214 218 39 97.000000 1.000000 4.000000 1.000000 -60.708740 114.000000 145.000000 0.997202 0.063331 0.039716
4910.00000000 2320.00000000 40.00000000 214 218 39 97.000000 1.000000 4.000000 1.000000 -60.708740 114.000000 145.000000 0.836471 0.201177 -0.509748
5000.00000000 2060.00000000 0.00000000 214 218 39 97.000000 1.000000 4.000000 1.000000 -60.708740 114.000000 145.000000 0.025268 -0.011118 0.999619
4830.00000000 1990.00000000 90.00000000 214 218 39 97.000000 1.000000 4.000000 1.000000 -60.708740 114.000000 145.000000 0.661959 0.251197 -0.706195
4780.00000000 1970.00000000 270.00000000 214 218 39 97.000000 1.000000 4.000000 1.000000 -60.708740 114.000000 145.000000 -0.227376 0.032482 0.973265
4790.00000000 1920.00000000 160.00000000 214 218 39 97.000000 1.000000 4.000000 1.000000 -60.708740 114.000000 145.000000 -0.394253 0.100280 0.913514
4750.00000000 1980.00000000 190.00000000 214 218 39 97.000000 1.000000 4.000000 1.000000 -60.708740 114.000000 145.000000 0.695809 0.230889 -0.680103
4740.00000000 1930.00000000 180.00000000 214 218 39 97.000000 1.000000 4.000000 1.000000 -60.708740 114.000000 145.000000 -0.388069 0.282369 0.877308
4590.00000000 2020.00000000 310.00000000 214 218 39 97.000000 1.000000 4.000000 1.000000 -60.708740 114.000000 145.000000 0.840865 0.280288 -0.463018
4600.00000000 2050.00000000 120.00000000 214 218 39 97.000000 1.000000 4.000000 1.000000 -60.708740 114.000000 145.000000 0.862319 -0.401186 -0.308959
4450.00000000 2060.00000000 210.00000000 214 218 39 97.000000 1.000000 4.000000 1.000000 -60.708740 114.000000 145.000000 0.935427 -0.193201 -0.296056
4590.00000000 1890.00000000 330.00000000 214 218 39 97.000000 1.000000 4.000000 1.000000 -60.708740 114.000000 145.000000 0.735570 -0.152551 -0.660049
4670.00000000 1950.00000000 240.00000000 214 218 39 97.000000 1.000000 4.000000 1.000000 -60.708740 114.000000 145.000000 0.790679 -0.299476 -0.533986
4640.00000000 3060.00000000 -30.00000000 214 218 39 97.000000 1.000000 4.000000 1.000000 -60.708740 114.000000 145.000000 0.936607 -0.277772 0.213563
4500.00000000 3010.00000000 -100.00000000 214 218 39 97.000000 1.000000 4.000000 1.000000 -60.708740 114.000000 145.000000 0.982880 0.024427 -0.182618
5560.00000000 2360.00000000 -340.00000000 214 218 39 97.000000 1.000000 4.000000 1.000000 -60.708740 114.000000 145.000000 0.899872 0.146425 -0.410842
5450.00000000 2530.00000000 -330.00000000 214 218 39 97.000000 1.000000 4.000000 1.000000 -60.708740 114.000000 145.000000 0.775802 -0.252332 -0.578325
5570.00000000 2580.00000000 -430.00000000 214 218 39 97.000000 1.000000 4.000000 1.000000 -60.708740 114.000000 145.000000 0.697586 -0.272968 -0.662467
5580.00000000 2520.00000000 -420.00000000 214 218 39 97.000000 1.000000 4.000000 1.000000 -60.708740 114.000000 145.000000 0.903758 0.131122 -0.407466
5670.00000000 2420.00000000 -410.00000000 214 218 39 97.000000 1.000000 4.000000 1.000000 -60.708740 114.000000 145.000000 0.651693 -0.244582 -0.717967
5650.00000000 2430.00000000 -430.00000000 214 218 39 97.000000 1.000000 4.000000 1.000000 -60.708740 114.000000 145.000000 -0.668824 -0.083057 0.738766
5580.00000000 2420.00000000 -440.00000000 214 218 39 97.000000 1.000000 4.000000 1.000000 -60.708740 114.000000 145.000000 0.794828 0.055453 -0.604296
5450.00000000 2630.00000000 -360.00000000 214 218 39 97.000000 1.000000 4.000000 1.000000 -60.708740 114.000000 145.000000 0.725713 -0.212896 -0.654229
5530.00000000 2520.00000000 -420.00000000 214 218 39 97.000000 1.000000 4.000000 1.000000 -60.708740 114.000000 145.000000 -0.562852 0.043296 0.825423
5250.00000000 2870.00000000 -180.00000000 214 218 39 97.000000 1.000000 4.000000 1.000000 -60.708740 114.000000 145.000000 -0.587434 -0.004108 0.809262
5220.00000000 2860.00000000 -200.00000000 214 218 39 97.000000 1.000000 4.000000 1.000000 -60.708740 114.000000 145.000000 -0.387629 -0.173074 0.905422
5230.00000000 2840.00000000 -210.00000000 214 218 39 97.000000 1.000000 4.000000 1.000000 -60.708740 114.000000 145.000000 -0.375689 0.175702 0.909938
5370.00000000 2680.00000000 -300.00000000 214 218 39 97.000000 1.000000 4.000000 1.000000 -60.708740 114.000000 145.000000 -0.359246 -0.037611 0.932485
5140.00000000 2890.00000000 -180.00000000 214 218 39 97.000000 1.000000 4.000000 1.000000 -60.708740 114.000000 145.000000 0.314292 -0.050030 0.948007
5130.00000000 2900.00000000 -170.00000000 214 218 39 97.000000 1.000000 4.000000 1.000000 -60.708740 114.000000 145.000000 -0.316754 -0.182796 0.930727
5380.00000000 2640.00000000 -310.00000000 214 218 39 97.000000 1.000000 4.000000 1.000000 -60.708740 114.000000 145.000000 -0.436397 0.141650 0.888534
5330.00000000 2640.00000000 -300.00000000 214 218 39 97.000000 1.000000 4.000000 1.000000 -60.708740 114.000000 145.000000 -0.542789 0.162986 0.823903
5150.00000000 2380.00000000 -480.00000000 214 218 39 97.000000 1.000000 4.000000 1.000000 -60.708740 114.000000 145.000000 -0.558412 -0.096676 0.823911
5580.00000000 2020.00000000 -420.00000000 214 218 39 97.000000 1.000000 4.000000 1.000000 -60.708740 114.000000 145.000000 0.713849 0.165905 -0.680364
5500.00000000 1990.00000000 -410.00000000 214 218 39 97.000000 1.000000 4.000000 1.000000 -60.708740 114.000000 145.000000 0.928617 -0.189657 -0.318905
5410.00000000 2080.00000000 -410.00000000 214 218 39 97.000000 1.000000 4.000000 1.000000 -60.708740 114.000000 145.000000 -0.493562 -0.173414 0.852247
5410.00000000 2010.00000000 -500.00000000 214 218 39 97.000000 1.000000 4.000000 1.000000 -60.708740 114.000000 145.000000 -0.677930 0.083101 0.730415
5500.00000000 1900.00000000 -320.00000000 214 218 39 97.000000 1.000000 4.000000 1.000000 -60.708740 114.000000 145.000000 0.879299 -0.295118 -0.373816
5550.00000000 1870.00000000 -300.00000000 214 218 39 97.000000 1.000000 4.000000 1.000000 -60.708740 114.000000 145.000000 0.893686 0.218652 -0.391813
5390.00000000 1810.00000000 -150.00000000 214 218 39 97.000000 1.000000 4.000000 1.000000 -60.708740 114.000000 145.000000 0.953915 0.011106 0.299872
5400.00000000 1720.00000000 -350.00000000 214 218 39 97.000000 1.000000 4.000000 1.000000 -60.708740 114.000000 145.000000 0.953220 0.161767 -0.255351
5420.00000000 1770.00000000 -310.00000000 214 218 39 97.000000 1.000000 4.000000 1.000000 -60.708740 114.000000 145.000000 0.998892 0.023907 -0.040538
5540.00000000 1930.00000000 -420.00000000 214 218 39 97.000000 1.000000 4.000000 1.000000 -60.708740 114.000000 145.000000 0.881573 -0.112149 -0.458532
5490.00000000 1980.00000000 -420.00000000 214 218 39 97.000000 1.000000 4.000000 1.000000 -60.708740 114.000000 145.000000 0.682091 -0.366521 -0.632783
5330.00000000 2060.00000000 -320.00000000 214 218 39 97.000000 1.000000 4.000000 1.000000 -60.708740 114.000000 145.000000 0.665727 0.272996 -0.694464
5150.00000000 2190.00000000 -180.00000000 214 218 39 97.000000 1.000000 4.000000 1.000000 -60.708740 114.000000 145.000000 0.794969 0.261854 -0.547227
5080.00000000 2210.00000000 -330.00000000 214 218 39 97.000000 1.000000 4.000000 1.000000 -60.708740 114.000000 145.000000 -0.250601 -0.378126 0.891190
5200.00000000 2040.00000000 -180.00000000 214 218 39 97.000000 1.000000 4.000000 1.000000 -60.708740 114.000000 145.000000 -0.651350 0.145914 0.744615
5120.00000000 2020.00000000 -170.00000000 214 218 39 97.000000 1.000000 4.000000 1.000000 -60.708740 114.000000 145.000000 0.768138 0.339784 -0.542689
5140.00000000 2010.00000000 -230.00000000 214 218 39 97.000000 1.000000 4.000000 1.000000 -60.708740 114.000000 145.000000 0.875202 -0.177386 -0.450062
5320.00000000 2200.00000000 -400.00000000 214 218 39 97.000000 1.000000 4.000000 1.000000 -60.708740 114.000000 145.000000 -0.567913 -0.167211 0.805925
5320.00000000 2160.00000000 -500.00000000 214 218 39 97.000000 1.000000 4.000000 1.000000 -60.708740 114.000000 145.000000 0.810823 0.163364 -0.562031
5260.00000000 2170.00000000 -590.00000000 214 218 39 97.000000 1.000000 4.000000 1.000000 -60.708740 114.000000 145.000000 -0.202126 -0.111734 0.972965
5170.00000000 2250.00000000 -370.00000000 214 218 39 97.000000 1.000000 4.000000 1.000000 -60.708740 114.000000 145.000000 -0.327467 -0.202717 0.922860
5150.00000000 2230.00000000 -390.00000000 214 218 39 97.000000 1.000000 4.000000 1.000000 -60.708740 114.000000 145.000000 -0.543366 -0.304349 0.782384
5080.00000000 2250.00000000 -440.00000000 214 218 39 97.000000 1.000000 4.000000 1.000000 -60.708740 114.000000 145.000000 0.075723 -0.349387 0.933914
5100.00000000 2320.00000000 -420.00000000 214 218 39 97.000000 1.000000 4.000000 1.000000 -60.708740 114.000000 145.000000 -0.503017 -0.170640 0.847264
5090.00000000 2190.00000000 -420.00000000 214 218 39 97.000000 1.000000 4.000000 1.000000 -60.708740 114.000000 145.000000 -0.262427 -0.130554 0.956079
5080.00000000 2160.00000000 -450.00000000 214 218 39 97.000000 1.000000 4.000000 1.000000 -60.708740 114.000000 145.000000 -0.357223 0.285480 0.889322
5060.00000000 2150.00000000 -480.00000000 214 218 39 97.000000 1.000000 4.000000 1.000000 -60.708740 114.000000 145.000000 0.244837 -0.323069 0.914156
5090.00000000 2120.00000000 -390.00000000 214 218 39 97.000000 1.000000 4.000000 1.000000 -60.708740 114.000000 145.000000 -0.215823 -0.199736 0.955786
5300.00000000 1910.00000000 -140.00000000 214 218 39 97.000000 1.000000 4.000000 1.000000 -60.708740 114.000000 145.000000 0.961961 0.069524 0.264192
5260.00000000 1830.00000000 -110.00000000 214 218 39 97.000000 1.000000 4.000000 1.000000 -60.708740 114.000000 145.000000 0.977383 0.143183 0.155634
5290.00000000 1920.00000000 -250.00000000 214 218 39 97.000000 1.000000 4.000000 1.000000 -60.708740 114.000000 145.000000 0.828989 0.275293 -0.486817
5280.00000000 1980.00000000 -310.00000000 214 218 39 97.000000 1.000000 4.000000 1.000000 -60.708740 114.000000 145.000000 0.938193 -0.186533 -0.291545
5320.00000000 1810.00000000 -60.00000000 214 218 39 97.000000 1.000000 4.000000 1.000000 -60.708740 114.000000 145.000000 0.806504 -0.352946 0.474320
5180.00000000 1910.00000000 -130.00000000 214 218 39 97.000000 1.000000 4.000000 1.000000 -60.708740 114.000000 145.000000 0.984525 0.173875 0.021878
5180.00000000 1900.00000000 -130.00000000 214 218 39 97.000000 1.000000 4.000000 1.000000 -60.708740 114.000000 145.000000 0.963140 0.059019 0.262446
5120.00000000 1950.00000000 -80.00000000 214 218 39 97.000000 1.000000 4.000000 1.000000 -60.708740 114.000000 145.000000 0.995898 -0.022708 0.087587
5120.00000000 1960.00000000 -110.00000000 214 218 39 97.000000 1.000000 4.000000 1.000000 -60.708740 114.000000 145.000000 0.882767 -0.401801 -0.243471
5130.00000000 1960.00000000 -110.00000000 214 218 39 97.000000 1.000000 4.000000 1.000000 -60.708740 114.000000 145.000000 0.842564 -0.508521 -0.177460
5030.00000000 2930.00000000 -50.00000000 214 218 39 97.000000 1.000000 4.000000 1.000000 -60.708740 114.000000 145.000000 0.903089 0.161215 0.398044
4900.00000000 2940.00000000 -40.00000000 214 218 39 97.000000 1.000000 4.000000 1.000000 -60.708740 114.000000 145.000000 0.965657 -0.050955 0.254774
4800.00000000 2790.00000000 -350.00000000 214 218 39 97.000000 1.000000 4.000000 1.000000 -60.708740 114.000000 145.000000 0.732798 -0.261148 0.628338
4790.00000000 2810.00000000 -320.00000000 214 218 39 97.000000 1.000000 4.000000 1.000000 -60.708740 114.000000 145.000000 0.585783 -0.023542 0.810126
4860.00000000 2790.00000000 -260.00000000 214 218 39 97.000000 1.000000 4.000000 1.000000 -60.708740 114.000000 145.000000 0.597349 -0.424301 0.680546
4900.00000000 2660.00000000 -100.00000000 214 218 39 97.000000 1.000000 4.000000 1.000000 -60.708740 114.000000 145.000000 0.792773 -0.555098 0.251749
4910.00000000 2640.00000000 -130.00000000 214 218 39 97.000000 1.000000 4.000000 1.000000 -60.708740 114.000000 145.000000 0.795913 -0.316141 0.516311
4930.00000000 2540.00000000 -100.00000000 214 218 39 97.000000 1.000000 4.000000 1.000000 -60.708740 114.000000 145.000000 0.783413 -0.345860 0.516377
4950.00000000 2450.00000000 -20.00000000 214 218 39 97.000000 1.000000 4.000000 1.000000 -60.708740 114.000000 145.000000 0.977662 -0.079534 -0.194554
4900.00000000 2450.00000000 -30.00000000 214 218 39 97.000000 1.000000 4.000000 1.000000 -60.708740 114.000000 145.000000 0.994888 0.063220 0.078748
4960.00000000 2360.00000000 -30.00000000 214 218 39 97.000000 1.000000 4.000000 1.000000 -60.708740 114.000000 145.000000 0.961168 -0.275834 -0.008506
4840.00000000 2600.00000000 -80.00000000 214 218 39 97.000000 1.000000 4.000000 1.000000 -60.708740 114.000000 145.000000 0.903977 -0.195259 0.380394
4590.00000000 2980.00000000 -50.00000000 214 218 39 97.000000 1.000000 4.000000 1.000000 -60.708740 114.000000 145.000000 0.878137 -0.393128 0.272629
4550.00000000 2980.00000000 -110.00000000 214 218 39 97.000000 1.000000 4.000000 1.000000 -60.708740 114.000000 145.000000 0.895870 -0.030800 0.443248
4510.00000000 2970.00000000 -120.00000000 214 218 39 97.000000 1.000000 4.000000 1.000000 -60.708740 114.000000 145.000000 0.792493 -0.447089 0.414808
4600.00000000 2630.00000000 -120.00000000 214 218 39 97.000000 1.000000 4.000000 1.000000 -60.708740 114.000000 145.000000 0.933979 -0.276682 0.226121
4590.00000000 2540.00000000 -100.00000000 214 218 39 97.000000 1.000000 4.000000 1.000000 -60.708740 114.000000 145.000000 0.962931 0.048583 0.265336
5040.00000000 2250.00000000 -350.00000000 214 218 39 97.000000 1.000000 4.000000 1.000000 -60.708740 114.000000 145.000000 -0.307202 -0.057841 0.949885
4910.00000000 2220.00000000 -340.00000000 214 218 39 97.000000 1.000000 4.000000 1.000000 -60.708740 114.000000 145.000000 0.464966 -0.458394 0.757418
4830.00000000 2020.00000000 -350.00000000 214 218 39 97.000000 1.000000 4.000000 1.000000 -60.708740 114.000000 145.000000 0.519858 -0.503143 0.690358
5020.00000000 2140.00000000 -480.00000000 214 218 39 97.000000 1.000000 4.000000 1.000000 -60.708740 114.000000 145.000000 -0.299890 -0.092979 0.949432
4980.00000000 2010.00000000 -410.00000000 214 218 39 97.000000 1.000000 4.000000 1.000000 -60.708740 114.000000 145.000000 -0.299682 0.052285 0.952605
4930.00000000 2090.00000000 -390.00000000 214 218 39 97.000000 1.000000 4.000000 1.000000 -60.708740 114.000000 145.000000 -0.001178 -0.234487 0.972119
4890.00000000 2010.00000000 -410.00000000 214 218 39 97.000000 1.000000 4.000000 1.000000 -60.708740 114.000000 145.000000 0.386548 -0.192550 0.901945
4960.00000000 2060.00000000 -600.00000000 214 218 39 97.000000 1.000000 4.000000 1.000000 -60.708740 114.000000 145.000000 -0.072342 0.267793 0.960757
4930.00000000 1930.00000000 -420.00000000 214 218 39 97.000000 1.000000 4.000000 1.000000 -60.708740 114.000000 145.000000 -0.200916 0.054139 0.978111
4970.00000000 1680.00000000 -380.00000000 214 218 39 97.000000 1.000000 4.000000 1.000000 -60.708740 114.000000 145.000000 -0.010234 -0.167156 0.985877
4900.00000000 1750.00000000 -370.00000000 214 218 39 97.000000 1.000000 4.000000 1.000000 -60.708740 114.000000 145.000000 0.452288 -0.394344 0.799955
4900.00000000 1710.00000000 -390.00000000 214 218 39 97.000000 1.000000 4.000000 1.000000 -60.708740 114.000000 145.000000 0.511411 -0.259591 0.819190
4930.00000000 1660.00000000 -400.00000000 214 218 39 97.000000 1.000000 4.000000 1.000000 -60.708740 114.000000 145.000000 -0.142343 -0.016812 0.989675
4900.00000000 1670.00000000 -510.00000000 214 218 39 97.000000 1.000000 4.000000 1.000000 -60.708740 114.000000 145.000000 -0.171602 -0.057990 0.983458
4930.00000000 1680.00000000 -510.00000000 214 218 39 97.000000 1.000000 4.000000 1.000000 -60.708740 114.000000 145.000000 0.203070 -0.395913 0.895553
4820.00000000 1970.00000000 -370.00000000 214 218 39 97.000000 1.000000 4.000000 1.000000 -60.708740 114.000000 145.000000 0.730849 -0.430591 0.529577
4770.00000000 1850.00000000 -480.00000000 214 218 39 97.000000 1.000000 4.000000 1.000000 -60.708740 114.000000 145.000000 0.703628 -0.372316 0.605218
4830.00000000 1750.00000000 -470.00000000 214 218 39 97.000000 1.000000 4.000000 1.000000 -60.708740 114.000000 145.000000 -0.023109 -0.005024 0.999720
4830.00000000 1730.00000000 -360.00000000 214 218 39 97.000000 1.000000 4.000000 1.000000 -60.708740 114.000000 145.000000 0.110485 -0.182486 0.976981
4870.00000000 1720.00000000 -360.00000000 214 218 39 97.000000 1.000000 4.000000 1.000000 -60.708740 114.000000 145.000000 0.245235 -0.234151 0.940762
4800.00000000 1710.00000000 -390.00000000 214 218 39 97.000000 1.000000 4.000000 1.000000 -60.708740 114.000000 145.000000 0.158590 -0.121708 0.979814
4810.00000000 1680.00000000 -400.00000000 214 218 39 97.000000 1.000000 4.000000 1.000000 -60.708740 114.000000 145.000000 0.466398 -0.354972 0.810227
4710.00000000 1760.00000000 -380.00000000 214 218 39 97.000000 1.000000 4.000000 1.000000 -60.708740 114.000000 145.000000 0.379647 -0.348655 0.856917
4710.00000000 1750.00000000 -440.00000000 214 218 39 97.000000 1.000000 4.000000 1.000000 -60.708740 114.000000 145.000000 0.715356 -0.326047 0.618029
4780.00000000 1700.00000000 -380.00000000 214 218 39 97.000000 1.000000 4.000000 1.000000 -60.708740 114.000000 145.000000 0.566934 -0.020691 0.823503
4750.00000000 1680.00000000 -490.00000000 214 218 39 97.000000 1.000000 4.000000 1.000000 -60.708740 114.000000 145.000000 0.764486 -0.185376 0.617411
4690.00000000 1760.00000000 -500.00000000 214 218 39 97.000000 1.000000 4.000000 1.000000 -60.708740 114.000000 145.000000 0.652811 -0.146242 0.743270
4690.00000000 1720.00000000 -420.00000000 214 218 39 97.000000 1.000000 4.000000 1.000000 -60.708740 114.000000 145.000000 0.449983 -0.542968 0.709014
5420.00000000 1490.00000000 -470.00000000 214 218 39 97.000000 1.000000 4.000000 1.000000 -60.708740 114.000000 145.000000 0.865099 0.288366 -0.410426
5430.00000000 1520.00000000 -550.00000000 214 218 39 97.000000 1.000000 4.000000 1.000000 -60.708740 114.000000 145.000000 0.926293 -0.163463 -0.339501
5470.00000000 1450.00000000 -570.00000000 214 218 39 97.000000 1.000000 4.000000 1.000000 -60.708740 114.000000 145.000000 0.947409 0.098826 -0.304383
5430.00000000 1440.00000000 -590.00000000 214 218 39 97.000000 1.000000 4.000000 1.000000 -60.708740 114.000000 145.000000 0.876610 0.238258 -0.418076
5420.00000000 1440.00000000 -600.00000000 214 218 39 97.000000 1.000000 4.000000 1.000000 -60.708740 114.000000 145.000000 0.859633 0.260172 -0.439706
5060.00000000 1250.00000000 -660.00000000 214 218 39 97.000000 1.000000 4.000000 1.000000 -60.708740 114.000000 163.000000 -0.029369 0.007089 0.999544
5210.00000000 1140.00000000 -540.00000000 214 218 39 97.000000 1.000000 4.000000 1.000000 -60.708740 114.000000 163.000000 0.902039 0.033310 -0.430367
5070.00000000 990.00000000 -600.00000000 214 218 39 97.000000 1.000000 4.000000 1.000000 -60.708740 114.000000 163.000000 -0.325986 0.016362 0.945233
5050.00000000 1000.00000000 -610.00000000 214 218 39 97.000000 1.000000 4.000000 1.000000 -60.708740 114.000000 163.000000 -0.475005 -0.124850 0.871081
5050.00000000 1030.00000000 -600.00000000 214 218 39 97.000000 1.000000 4.000000 1.000000 -60.708740 114.000000 163.000000 -0.247307 0.020508 0.968720
5070.00000000 980.00000000 -590.00000000 214 218 39 97.000000 1.000000 4.000000 1.000000 -60.708740 114.000000 163.000000 -0.607982 -0.106946 0.786715
5120.00000000 990.00000000 -590.00000000 214 218 39 97.000000 1.000000 4.000000 1.000000 -60.708740 114.000000 163.000000 0.835934 -0.015050 -0.548624
5110.00000000 980.00000000 -600.00000000 214 218 39 97.000000 1.000000 4.000000 1.000000 -60.708740 114.000000 163.000000 -0.545014 0.271722 0.793176
5210.00000000 1120.00000000 -530.00000000 214 218 39 97.000000 1.000000 4.000000 1.000000 -60.708740 114.000000 163.000000 0.716443 -0.169563 -0.676726
5110.00000000 1390.00000000 -820.00000000 214 218 39 97.000000 1.000000 4.000000 1.000000 -60.708740 114.000000 163.000000 -0.090497 -0.029439 0.995462
5270.00000000 1190.00000000 -720.00000000 214 218 39 97.000000 1.000000 4.000000 1.000000 -60.708740 114.000000 163.000000 -0.279052 -0.188326 0.941628
5290.00000000 1120.00000000 -710.00000000 214 218 39 97.000000 1.000000 4.000000 1.000000 -60.708740 114.000000 163.000000 -0.373818 -0.117249 0.920061
5250.00000000 1140.00000000 -720.00000000 214 218 39 97.000000 1.000000 4.000000 1.000000 -60.708740 114.000000 163.000000 -0.527856 0.192085 0.827328
5260.00000000 1040.00000000 -730.00000000 214 218 39 97.000000 1.000000 4.000000 1.000000 -60.708740 114.000000 163.000000 0.765640 -0.316208 -0.560185
5210.00000000 990.00000000 -730.00000000 214 218 39 97.000000 1.000000 4.000000 1.000000 -60.708740 114.000000 163.000000 -0.600304 0.034983 0.799006
5180.00000000 1000.00000000 -750.00000000 214 218 39 97.000000 1.000000 4.000000 1.000000 -60.708740 114.000000 163.000000 -0.231366 0.204306 0.951172
5190.00000000 1040.00000000 -780.00000000 214 218 39 97.000000 1.000000 4.000000 1.000000 -60.708740 114.000000 163.000000 -0.163698 -0.040634 0.985673
5050.00000000 1120.00000000 -760.00000000 214 218 39 97.000000 1.000000 4.000000 1.000000 -60.708740 114.000000 163.000000 -0.277047 -0.213006 0.936949
5130.00000000 980.00000000 -740.00000000 214 218 39 97.000000 1.000000 4.000000 1.000000 -60.708740 114.000000 163.000000 -0.234115 0.145177 0.961308
5250.00000000 940.00000000 -520.00000000 214 218 39 97.000000 1.000000 4.000000 1.000000 -60.708740 114.000000 163.000000 0.793061 -0.029373 -0.608433
5340.00000000 930.00000000 -600.00000000 214 218 39 97.000000 1.000000 4.000000 1.000000 -60.708740 114.000000 163.000000 0.713431 -0.156016 -0.683137
5370.00000000 950.00000000 -570.00000000 214 218 39 97.000000 1.000000 4.000000 1.000000 -60.708740 114.000000 163.000000 0.892454 0.132374 -0.431281
5380.00000000 970.00000000 -610.00000000 214 218 39 97.000000 1.000000 4.000000 1.000000 -60.708740 114.000000 163.000000 0.620377 -0.343568 -0.705048
5290.00000000 930.00000000 -550.00000000 214 218 39 97.000000 1.000000 4.000000 1.000000 -60.708740 114.000000 163.000000 0.852345 -0.129231 -0.506761
5250.00000000 950.00000000 -670.00000000 214 218 39 97.000000 1.000000 4.000000 1.000000 -60.708740 114.000000 163.000000 0.804089 0.100329 -0.585982
5250.00000000 890.00000000 -560.00000000 214 218 39 97.000000 1.000000 4.000000 1.000000 -60.708740 114.000000 163.000000 -0.761674 0.424244 0.489765
5210.00000000 880.00000000 -590.00000000 214 218 39 97.000000 1.000000 4.000000 1.000000 -60.708740 114.000000 163.000000 -0.445654 -0.067191 0.892680
5160.00000000 820.00000000 -600.00000000 214 218 39 97.000000 1.000000 4.000000 1.000000 -60.708740 114.000000 163.000000 -0.516492 0.155392 0.842074
5210.00000000 870.00000000 -590.00000000 214 218 39 97.000000 1.000000 4.000000 1.000000 -60.708740 114.000000 163.000000 0.814347 -0.017913 -0.580102
5140.00000000 810.00000000 -610.00000000 214 218 39 97.000000 1.000000 4.000000 1.000000 -60.708740 114.000000 163.000000 -0.452885 -0.227195 0.862136
5090.00000000 900.00000000 -570.00000000 214 218 39 97.000000 1.000000 4.000000 1.000000 -60.708740 114.000000 163.000000 -0.537302 0.139846 0.831715
5130.00000000 940.00000000 -590.00000000 214 218 39 97.000000 1.000000 4.000000 1.000000 -60.708740 114.000000 163.000000 -0.479626 0.017465 0.877299
5100.00000000 920.00000000 -550.00000000 214 218 39 97.000000 1.000000 4.000000 1.000000 -60.708740 114.000000 163.000000 -0.248083 0.074299 0.965885
5130.00000000 940.00000000 -580.00000000 214 218 39 97.000000 1.000000 4.000000 1.000000 -60.708740 114.000000 163.000000 -0.233086 0.060430 0.970577
5170.00000000 790.00000000 -570.00000000 214 218 39 97.000000 1.000000 4.000000 1.000000 -60.708740 114.000000 163.000000 -0.417678 -0.146829 0.896653
5290.00000000 970.00000000 -710.00000000 214 218 39 97.000000 1.000000 4.000000 1.000000 -60.708740 114.000000 163.000000 0.752758 0.298866 -0.586544
5210.00000000 920.00000000 -730.00000000 214 218 39 97.000000 1.000000 4.000000 1.000000 -60.708740 114.000000 163.000000 0.774919 -0.232320 -0.587816
4730.00000000 1620.00000000 -350.00000000 214 218 39 97.000000 1.000000 4.000000 1.000000 -60.708740 114.000000 145.000000 0.399430 -0.071762 0.913951
4930.00000000 1590.00000000 -560.00000000 214 218 39 97.000000 1.000000 4.000000 1.000000 -60.708740 114.000000 145.000000 0.138099 0.042229 0.989518
4900.00000000 1320.00000000 -580.00000000 214 218 39 97.000000 1.000000 4.000000 1.000000 -60.708740 114.000000 163.000000 0.227090 0.015456 0.973751
4880.00000000 1340.00000000 -590.00000000 214 218 39 97.000000 1.000000 4.000000 1.000000 -60.708740 114.000000 163.000000 0.112088 -0.082044 0.990305
4810.00000000 1610.00000000 -390.00000000 214 218 39 97.000000 1.000000 4.000000 1.000000 -60.708740 114.000000 145.000000 0.347949 0.186046 0.918868
4860.00000000 1650.00000000 -380.00000000 214 218 39 97.000000 1.000000 4.000000 1.000000 -60.708740 114.000000 145.000000 0.086850 0.016083 0.996092
4860.00000000 1610.00000000 -480.00000000 214 218 39 97.000000 1.000000 4.000000 1.000000 -60.708740 114.000000 145.000000 0.040825 -0.388499 0.920544
4840.00000000 1640.00000000 -470.00000000 214 218 39 97.000000 1.000000 4.000000 1.000000 -60.708740 114.000000 145.000000 0.545547 -0.336340 0.767628
4870.00000000 1600.00000000 -520.00000000 214 218 39 97.000000 1.000000 4.000000 1.000000 -60.708740 114.000000 145.000000 -0.134557 -0.012232 0.990830
4720.00000000 1620.00000000 -360.00000000 214 218 39 97.000000 1.000000 4.000000 1.000000 -60.708740 114.000000 145.000000 0.539069 -0.172682 0.824370
4750.00000000 1580.00000000 -380.00000000 214 218 39 97.000000 1.000000 4.000000 1.000000 -60.708740 114.000000 145.000000 0.265985 -0.064290 0.961831
4860.00000000 1640.00000000 -530.00000000 214 218 39 97.000000 1.000000 4.000000 1.000000 -60.708740 114.000000 145.000000 0.446403 -0.243630 0.861028
4820.00000000 1600.00000000 -530.00000000 214 218 39 97.000000 1.000000 4.000000 1.000000 -60.708740 114.000000 145.000000 0.162382 -0.326151 0.931267
4840.00000000 1580.00000000 -540.00000000 214 218 39 97.000000 1.000000 4.000000 1.000000 -60.708740 114.000000 145.000000 -0.099786 0.029607 0.994568
4830.00000000 1520.00000000 -540.00000000 214 218 39 97.000000 1.000000 4.000000 1.000000 -60.708740 114.000000 145.000000 0.012949 -0.217785 0.975911
4870.00000000 1530.00000000 -580.00000000 214 218 39 97.000000 1.000000 4.000000 1.000000 -60.708740 114.000000 145.000000 0.402937 0.027562 0.914812
4870.00000000 1340.00000000 -590.00000000 214 218 39 97.000000 1.000000 4.000000 1.000000 -60.708740 114.000000 163.000000 -0.095380 -0.345250 0.933652
4800.00000000 1390.00000000 -570.00000000 214 218 39 97.000000 1.000000 4.000000 1.000000 -60.708740 114.000000 163.000000 0.280111 -0.097713 0.954982
4800.00000000 1360.00000000 -590.00000000 214 218 39 97.000000 1.000000 4.000000 1.000000 -60.708740 114.000000 163.000000 0.465977 -0.388583 0.794902
4820.00000000 1380.00000000 -580.00000000 214 218 39 97.000000 1.000000 4.000000 1.000000 -60.708740 114.000000 163.000000 0.059187 -0.472119 0.879546
5030.00000000 1250.00000000 -600.00000000 214 218 39 97.000000 1.000000 4.000000 1.000000 -60.708740 114.000000 163.000000 -0.173057 0.347521 0.921564
5000.00000000 1270.00000000 -680.00000000 214 218 39 97.000000 1.000000 4.000000 1.000000 -60.708740 114.000000 163.000000 0.001249 -0.333408 0.942782
5010.00000000 1260.00000000 -680.00000000 214 218 39 97.000000 1.000000 4.000000 1.000000 -60.708740 114.000000 163.000000 -0.076525 0.242120 0.967224
5010.00000000 1160.00000000 -570.00000000 214 218 39 97.000000 1.000000 4.000000 1.000000 -60.708740 114.000000 163.000000 0.057433 -0.158233 0.985730
5020.00000000 1150.00000000 -570.00000000 214 218 39 97.000000 1.000000 4.000000 1.000000 -60.708740 114.000000 163.000000 -0.412065 -0.115937 0.903749
4890.00000000 1280.00000000 -590.00000000 214 218 39 97.000000 1.000000 4.000000 1.000000 -60.708740 114.000000 163.000000 -0.115800 -0.258924 0.958931
4890.00000000 1300.00000000 -600.00000000 214 218 39 97.000000 1.000000 4.000000 1.000000 -60.708740 114.000000 163.000000 0.223451 0.150274 0.963061
4890.00000000 1270.00000000 -600.00000000 214 218 39 97.000000 1.000000 4.000000 1.000000 -60.708740 114.000000 163.000000 0.016156 -0.301984 0.953176
4910.00000000 1290.00000000 -600.00000000 214 218 39 97.000000 1.000000 4.000000 1.000000 -60.708740 114.000000 163.000000 -0.258264 -0.066771 0.963764
4890.00000000 1260.00000000 -600.00000000 214 218 39 97.000000 1.000000 4.000000 1.000000 -60.708740 114.000000 163.000000 -0.224515 0.003526 0.974464
4920.00000000 1250.00000000 -620.00000000 214 218 39 97.000000 1.000000 4.000000 1.000000 -60.708740 114.000000 163.000000 0.067434 -0.355680 0.932172
4960.00000000 1210.00000000 -580.00000000 214 218 39 97.000000 1.000000 4.000000 1.000000 -60.708740 114.000000 163.000000 -0.086500 0.104953 0.990708
4880.00000000 1210.00000000 -550.00000000 214 218 39 97.000000 1.000000 4.000000 1.000000 -60.708740 114.000000 163.000000 -0.204058 0.250621 0.946335
4900.00000000 1210.00000000 -540.00000000 214 218 39 97.000000 1.000000 4.000000 1.000000 -60.708740 114.000000 163.000000 -0.120089 -0.014323 0.992660
5020.00000000 1060.00000000 -570.00000000 214 218 39 97.000000 1.000000 4.000000 1.000000 -60.708740 114.000000 163.000000 -0.472101 -0.112677 0.874314
5000.00000000 1000.00000000 -610.00000000 214 218 39 97.000000 1.000000 4.000000 1.000000 -60.708740 114.000000 163.000000 0.053496 -0.119513 0.991390
4900.00000000 1130.00000000 -540.00000000 214 218 39 97.000000 1.000000 4.000000 1.000000 -60.708740 114.000000 163.000000 -0.229728 -0.210697 0.950175
4950.00000000 1070.00000000 -640.00000000 214 218 39 97.000000 1.000000 4.000000 1.000000 -60.708740 114.000000 163.000000 -0.027344 0.009115 0.999584
4950.00000000 1140.00000000 -620.00000000 214 218 39 97.000000 1.000000 4.000000 1.000000 -60.708740 114.000000 163.000000 0.154776 -0.182917 0.970868
4840.00000000 1270.00000000 -570.00000000 214 218 39 97.000000 1.000000 4.000000 1.000000 -60.708740 114.000000 163.000000 0.148969 0.310238 0.938915
4740.00000000 1290.00000000 -580.00000000 214 218 39 97.000000 1.000000 4.000000 1.000000 -60.708740 114.000000 163.000000 0.018316 -0.267410 0.963409
4710.00000000 1280.00000000 -590.00000000 214 218 39 97.000000 1.000000 4.000000 1.000000 -60.708740 114.000000 163.000000 0.138275 -0.083910 0.986833
4730.00000000 1280.00000000 -590.00000000 214 218 39 97.000000 1.000000 4.000000 1.000000 -60.708740 114.000000 163.000000 0.003551 -0.235565 0.971852
4750.00000000 1290.00000000 -580.00000000 214 218 39 97.000000 1.000000 4.000000 1.000000 -60.708740 114.000000 163.000000 -0.043576 -0.045702 0.998004
4740.00000000 1280.00000000 -600.00000000 214 218 39 97.000000 1.000000 4.000000 1.000000 -60.708740 114.000000 163.000000 0.009145 -0.424583 0.905343
4810.00000000 1070.00000000 -570.00000000 214 218 39 97.000000 1.000000 4.000000 1.000000 -60.708740 114.000000 163.000000 -0.017770 0.221535 0.974990
4870.00000000 1140.00000000 -530.00000000 214 218 39 97.000000 1.000000 4.000000 1.000000 -60.708740 114.000000 163.000000 0.112403 -0.246770 0.962533
4800.00000000 1070.00000000 -570.00000000 214 218 39 97.000000 1.000000 4.000000 1.000000 -60.708740 114.000000 163.000000 0.259253 -0.198898 0.945107
4860.00000000 1040.00000000 -590.00000000 214 218 39 97.000000 1.000000 4.000000 1.000000 -60.708740 114.000000 163.000000 0.082242 0.013885 0.996516
4730.00000000 1080.00000000 -580.00000000 214 218 39 97.000000 1.000000 4.000000 1.000000 -60.708740 114.000000 163.000000 0.525391 0.042974 0.849775
4770.00000000 1090.00000000 -560.00000000 214 218 39 97.000000 1.000000 4.000000 1.000000 -60.708740 114.000000 163.000000 0.319948 0.008715 0.947395
4790.00000000 1020.00000000 -560.00000000 214 218 39 97.000000 1.000000 4.000000 1.000000 -60.708740 114.000000 163.000000 0.512744 -0.060076 0.856437
4590.00000000 1640.00000000 -460.00000000 214 218 39 97.000000 1.000000 4.000000 1.000000 -60.708740 114.000000 145.000000 0.841590 0.203976 0.500119
5020.00000000 1080.00000000 -750.00000000 214 218 39 97.000000 1.000000 4.000000 1.000000 -60.708740 114.000000 163.000000 -0.010192 -0.164207 0.986373
5030.00000000 1130.00000000 -760.00000000 214 218 39 97.000000 1.000000 4.000000 1.000000 -60.708740 114.000000 163.000000 -0.036233 0.025881 0.999008
5000.00000000 1120.00000000 -740.00000000 214 218 39 97.000000 1.000000 4.000000 1.000000 -60.708740 114.000000 163.000000 0.083822 0.178577 0.980349
5010.00000000 1110.00000000 -720.00000000 214 218 39 97.000000 1.000000 4.000000 1.000000 -60.708740 114.000000 163.000000 -0.463825 -0.272747 0.842897
5040.00000000 1010.00000000 -740.00000000 214 218 39 97.000000 1.000000 4.000000 1.000000 -60.708740 114.000000 163.000000 -0.003183 0.085942 0.996295
5000.00000000 1020.00000000 -720.00000000 214 218 39 97.000000 1.000000 4.000000 1.000000 -60.708740 114.000000 163.000000 -0.341642 0.001251 0.939829
4880.00000000 1080.00000000 -730.00000000 214 218 39 97.000000 1.000000 4.000000 1.000000 -60.708740 114.000000 163.000000 -0.026943 -0.352823 0.935302
4890.00000000 1080.00000000 -770.00000000 214 218 39 97.000000 1.000000 4.000000 1.000000 -60.708740 114.000000 163.000000 -0.317582 -0.391224 0.863762
4840.00000000 1050.00000000 -730.00000000 214 218 39 97.000000 1.000000 4.000000 1.000000 -60.708740 114.000000 163.000000 0.071609 -0.101161 0.992290
4870.00000000 990.00000000 -720.00000000 214 218 39 97.000000 1.000000 4.000000 1.000000 -60.708740 114.000000 163.000000 0.232187 -0.114169 0.965948
4840.00000000 1000.00000000 -750.00000000 214 218 39 97.000000 1.000000 4.000000 1.000000 -60.708740 114.000000 163.000000 -0.192841 -0.263960 0.945059
4810.00000000 1000.00000000 -770.00000000 214 218 39 97.000000 1.000000 4.000000 1.000000 -60.708740 114.000000 163.000000 0.193211 -0.041487 0.980280
4820.00000000 990.00000000 -770.00000000 214 218 39 97.000000 1.000000 4.000000 1.000000 -60.708740 114.000000 163.000000 -0.048671 -0.183998 0.981721
4950.00000000 970.00000000 -600.00000000 214 218 39 97.000000 1.000000 4.000000 1.000000 -60.708740 114.000000 163.000000 0.020485 -0.242201 0.970010
4990.00000000 920.00000000 -580.00000000 214 218 39 97.000000 1.000000 4.000000 1.000000 -60.708740 114.000000 163.000000 -0.267635 0.250642 0.930350
4790.00000000 970.00000000 -570.00000000 214 218 39 97.000000 1.000000 4.000000 1.000000 -60.708740 114.000000 163.000000 0.404790 0.197280 0.892875
4920.00000000 950.00000000 -620.00000000 214 218 39 97.000000 1.000000 4.000000 1.000000 -60.708740 114.000000 163.000000 -0.084505 0.044996 0.995407
4840.00000000 930.00000000 -590.00000000 214 218 39 97.000000 1.000000 4.000000 1.000000 -60.708740 114.000000 163.000000 -0.253027 0.132413 0.958355
4790.00000000 960.00000000 -640.00000000 214 218 39 97.000000 1.000000 4.000000 1.000000 -60.708740 114.000000 163.000000 -0.215214 -0.385042 0.897455
4810.00000000 950.00000000 -770.00000000 214 218 39 97.000000 1.000000 4.000000 1.000000 -60.708740 114.000000 163.000000 -0.193409 -0.149860 0.969606
4760.00000000 930.00000000 -750.00000000 214 218 39 97.000000 1.000000 4.000000 1.000000 -60.708740 114.000000 163.000000 -0.125014 -0.310519 0.942311
4720.00000000 3080.00000000 170.00000000 214 218 39 97.000000 1.000000 4.000000 1.000000 -60.708740 114.000000 145.000000 0.988281 -0.152643 -0.001114
4600.00000000 3030.00000000 160.00000000 214 218 39 97.000000 1.000000 4.000000 1.000000 -60.708740 114.000000 145.000000 0.908361 -0.066333 -0.412892
4650.00000000 3120.00000000 170.00000000 214 218 39 97.000000 1.000000 4.000000 1.000000 -60.708740 114.000000 145.000000 0.891196 0.184636 -0.414341
4690.00000000 3030.00000000 50.00000000 214 218 39 97.000000 1.000000 4.000000 1.000000 -60.708740 114.000000 145.000000 0.988111 -0.152801 0.016978
4680.00000000 3080.00000000 80.00000000 214 218 39 97.000000 1.000000 4.000000 1.000000 -60.708740 114.000000 145.000000 0.929314 -0.281482 0.239047
4910.00000000 2330.00000000 40.00000000 214 218 39 97.000000 1.000000 4.000000 1.000000 -60.708740 114.000000 145.000000 0.840345 -0.378548 -0.387972
4720.00000000 2030.00000000 260.00000000 214 218 39 97.000000 1.000000 4.000000 1.000000 -60.708740 114.000000 145.000000 0.767450 0.168687 -0.618519
4730.00000000 2000.00000000 260.00000000 214 218 39 97.000000 1.000000 4.000000 1.000000 -60.708740 114.000000 145.000000 0.831619 0.178311 -0.525943
5000.00000000 1970.00000000 90.00000000 214 218 39 97.000000 1.000000 4.000000 1.000000 -60.708740 114.000000 145.000000 -0.167022 -0.120008 0.978622
4920.00000000 1970.00000000 10.00000000 214 218 39 97.000000 1.000000 4.000000 1.000000 -60.708740 114.000000 145.000000 -0.371934 0.350327 0.859614
4810.00000000 1910.00000000 140.00000000 214 218 39 97.000000 1.000000 4.000000 1.000000 -60.708740 114.000000 145.000000 -0.366560 0.194061 0.909931
4610.00000000 2070.00000000 310.00000000 214 218 39 97.000000 1.000000 4.000000 1.000000 -60.708740 114.000000 145.000000 0.838381 -0.142923 -0.526014
4650.00000000 2050.00000000 100.00000000 214 218 39 97.000000 1.000000 4.000000 1.000000 -60.708740 114.000000 145.000000 0.710394 -0.182585 -0.679708
4520.00000000 2040.00000000 230.00000000 214 218 39 97.000000 1.000000 4.000000 1.000000 -60.708740 114.000000 145.000000 -0.533509 0.009503 0.845741
4670.00000000 1950.00000000 240.00000000 214 218 39 97.000000 1.000000 4.000000 1.000000 -60.708740 114.000000 145.000000 0.790679 -0.299476 -0.533986
4660.00000000 1950.00000000 230.00000000 214 218 39 97.000000 1.000000 4.000000 1.000000 -60.708740 114.000000 145.000000 -0.536493 -0.105563 0.837276
4600.00000000 1920.00000000 300.00000000 214 218 39 97.000000 1.000000 4.000000 1.000000 -60.708740 114.000000 145.000000 0.905228 -0.163939 -0.392028
4610.00000000 1890.00000000 310.00000000 214 218 39 97.000000 1.000000 4.000000 1.000000 -60.708740 114.000000 145.000000 -0.435888 -0.308690 0.845406
4740.00000000 3060.00000000 -30.00000000 214 218 39 97.000000 1.000000 4.000000 1.000000 -60.708740 114.000000 145.000000 0.921478 -0.372162 -0.111237
4490.00000000 3110.00000000 -30.00000000 214 218 39 97.000000 1.000000 4.000000 1.000000 -60.708740 114.000000 145.000000 0.883239 -0.382387 -0.271420
5490.00000000 2580.00000000 -330.00000000 214 218 39 97.000000 1.000000 4.000000 1.000000 -60.708740 114.000000 145.000000 0.834513 0.026208 -0.550365
5480.00000000 2370.00000000 -240.00000000 214 218 39 97.000000 1.000000 4.000000 1.000000 -60.708740 114.000000 145.000000 0.700903 0.038231 -0.712231
5390.00000000 2590.00000000 -360.00000000 214 218 39 97.000000 1.000000 4.000000 1.000000 -60.708740 114.000000 145.000000 0.688993 -0.369984 -0.623218
5090.00000000 2840.00000000 -110.00000000 214 218 39 97.000000 1.000000 4.000000 1.000000 -60.708740 114.000000 145.000000 0.319074 0.227501 0.920019
5380.00000000 2640.00000000 -350.00000000 214 218 39 97.000000 1.000000 4.000000 1.000000 -60.708740 114.000000 145.000000 0.786264 0.076462 -0.613142
5340.00000000 2510.00000000 -320.00000000 214 218 39 97.000000 1.000000 4.000000 1.000000 -60.708740 114.000000 145.000000 0.722778 -0.421758 -0.547459
5150.00000000 2430.00000000 -170.00000000 214 218 39 97.000000 1.000000 4.000000 1.000000 -60.708740 114.000000 145.000000 0.720022 -0.282581 -0.633811
5350.00000000 2540.00000000 -430.00000000 214 218 39 97.000000 1.000000 4.000000 1.000000 -60.708740 114.000000 145.000000 -0.379486 0.240686 0.893342
5500.00000000 1900.00000000 -310.00000000 214 218 39 97.000000 1.000000 4.000000 1.000000 -60.708740 114.000000 145.000000 0.934127 -0.355919 -0.026983
5390.00000000 1860.00000000 -300.00000000 214 218 39 97.000000 1.000000 4.000000 1.000000 -60.708740 114.000000 145.000000 0.944449 0.226833 -0.237831
5440.00000000 1720.00000000 -310.00000000 214 218 39 97.000000 1.000000 4.000000 1.000000 -60.708740 114.000000 145.000000 0.971167 0.174836 -0.162074
5550.00000000 1940.00000000 -440.00000000 214 218 39 97.000000 1.000000 4.000000 1.000000 -60.708740 114.000000 145.000000 0.931471 -0.075957 -0.355798
5170.00000000 2230.00000000 -340.00000000 214 218 39 97.000000 1.000000 4.000000 1.000000 -60.708740 114.000000 145.000000 0.681244 0.251317 -0.687566
5350.00000000 2080.00000000 -400.00000000 214 218 39 97.000000 1.000000 4.000000 1.000000 -60.708740 114.000000 145.000000 -0.688240 -0.330290 0.645937
5310.00000000 2050.00000000 -380.00000000 214 218 39 97.000000 1.000000 4.000000 1.000000 -60.708740 114.000000 145.000000 -0.524877 -0.256987 0.811457
5180.00000000 2190.00000000 -380.00000000 214 218 39 97.000000 1.000000 4.000000 1.000000 -60.708740 114.000000 145.000000 -0.509436 -0.204077 0.835959
5100.00000000 2240.00000000 -460.00000000 214 218 39 97.000000 1.000000 4.000000 1.000000 -60.708740 114.000000 145.000000 -0.084615 -0.295500 0.951588
5220.00000000 1910.00000000 -200.00000000 214 218 39 97.000000 1.000000 4.000000 1.000000 -60.708740 114.000000 145.000000 0.977227 0.097353 -0.188545
5220.00000000 1910.00000000 -190.00000000 214 218 39 97.000000 1.000000 4.000000 1.000000 -60.708740 114.000000 145.000000 0.971336 -0.196807 -0.133321
5380.00000000 1790.00000000 -140.00000000 214 218 39 97.000000 1.000000 4.000000 1.000000 -60.708740 114.000000 145.000000 0.921038 -0.242077 0.305103
5370.00000000 1810.00000000 -170.00000000 214 218 39 97.000000 1.000000 4.000000 1.000000 -60.708740 114.000000 145.000000 0.978895 0.201012 0.036872
5340.00000000 1660.00000000 -120.00000000 214 218 39 97.000000 1.000000 4.000000 1.000000 -60.708740 114.000000 145.000000 0.972622 0.174182 0.153840
5160.00000000 1920.00000000 -140.00000000 214 218 39 97.000000 1.000000 4.000000 1.000000 -60.708740 114.000000 145.000000 0.965420 -0.221000 0.138286
5110.00000000 1920.00000000 -50.00000000 214 218 39 97.000000 1.000000 4.000000 1.000000 -60.708740 114.000000 145.000000 0.943523 -0.119111 0.309154
5080.00000000 1980.00000000 -160.00000000 214 218 39 97.000000 1.000000 4.000000 1.000000 -60.708740 114.000000 145.000000 0.835989 -0.001355 -0.548745
