//X Y Z R G B PointSourceId ScanDirectionFlag NumberOfReturns ReturnNumber GpsTime Intensity Classification Nx Ny Nz
1360.00000000 5280.00000000 -680.00000000 3 178 165 97.000000 1.000000 4.000000 1.000000 -60.708740 114.000000 149.000000 -0.264350 -0.233579 0.935714
1350.00000000 5230.00000000 -670.00000000 3 178 165 97.000000 1.000000 4.000000 1.000000 -60.708740 114.000000 149.000000 -0.378670 -0.114290 0.918448
1380.00000000 5280.00000000 -680.00000000 3 178 165 97.000000 1.000000 4.000000 1.000000 -60.708740 114.000000 149.000000 -0.320148 -0.378356 0.868534
1350.00000000 5040.00000000 -610.00000000 3 178 165 97.000000 1.000000 4.000000 1.000000 -60.708740 114.000000 149.000000 -0.141452 -0.257786 0.955792
1200.00000000 5610.00000000 -180.00000000 3 178 165 97.000000 1.000000 4.000000 1.000000 -60.708740 114.000000 149.000000 0.746288 -0.052797 0.663526
1190.00000000 5600.00000000 -140.00000000 3 178 165 97.000000 1.000000 4.000000 1.000000 -60.708740 114.000000 149.000000 0.324616 0.221654 0.919507
1290.00000000 5630.00000000 -280.00000000 3 178 165 97.000000 1.000000 4.000000 1.000000 -60.708740 114.000000 149.000000 0.961978 0.236252 -0.137052
1320.00000000 5610.00000000 -310.00000000 3 178 165 97.000000 1.000000 4.000000 1.000000 -60.708740 114.000000 149.000000 0.825042 0.560002 0.075522
1270.00000000 5580.00000000 -290.00000000 3 178 165 97.000000 1.000000 4.000000 1.000000 -60.708740 114.000000 149.000000 0.918438 0.350625 -0.183120
1260.00000000 5600.00000000 -320.00000000 3 178 165 97.000000 1.000000 4.000000 1.000000 -60.708740 114.000000 149.000000 0.764129 0.620759 -0.175399
1200.00000000 5650.00000000 -350.00000000 3 178 165 97.000000 1.000000 4.000000 1.000000 -60.708740 114.000000 149.000000 0.715583 0.408196 -0.566848
1300.00000000 5390.00000000 -210.00000000 3 178 165 97.000000 1.000000 4.000000 1.000000 -60.708740 114.000000 149.000000 0.517983 0.020393 0.855148
1300.00000000 5410.00000000 -210.00000000 3 178 165 97.000000 1.000000 4.000000 1.000000 -60.708740 114.000000 149.000000 0.596414 0.321643 0.735416
1260.00000000 5400.00000000 -270.00000000 3 178 165 97.000000 1.000000 4.000000 1.000000 -60.708740 114.000000 149.000000 0.873582 0.271007 0.404240
1200.00000000 5450.00000000 -280.00000000 3 178 165 97.000000 1.000000 4.000000 1.000000 -60.708740 114.000000 149.000000 0.774790 0.360706 0.519222
1100.00000000 5670.00000000 -70.00000000 3 178 165 97.000000 1.000000 4.000000 1.000000 -60.708740 114.000000 149.000000 0.019475 -0.029725 0.999368
1090.00000000 5620.00000000 -80.00000000 3 178 165 97.000000 1.000000 4.000000 1.000000 -60.708740 114.000000 149.000000 0.100299 -0.574175 0.812566
1150.00000000 5670.00000000 -160.00000000 3 178 165 97.000000 1.000000 4.000000 1.000000 -60.708740 114.000000 149.000000 0.686910 -0.162970 0.708234
1120.00000000 5660.00000000 -120.00000000 3 178 165 97.000000 1.000000 4.000000 1.000000 -60.708740 114.000000 149.000000 0.618681 -0.257916 0.742101
1110.00000000 5640.00000000 -120.00000000 3 178 165 97.000000 1.000000 4.000000 1.000000 -60.708740 114.000000 149.000000 -0.010690 -0.231607 0.972751
1110.00000000 5650.00000000 -140.00000000 3 178 165 97.000000 1.000000 4.000000 1.000000 -60.708740 114.000000 149.000000 0.642689 -0.082694 0.761651
1110.00000000 5610.00000000 -160.00000000 3 178 165 97.000000 1.000000 4.000000 1.000000 -60.708740 114.000000 149.000000 0.591731 -0.158096 0.790481
1120.00000000 5580.00000000 -40.00000000 3 178 165 97.000000 1.000000 4.000000 1.000000 -60.708740 114.000000 149.000000 -0.148611 0.005587 0.988880
1100.00000000 5570.00000000 -40.00000000 3 178 165 97.000000 1.000000 4.000000 1.000000 -60.708740 114.000000 149.000000 0.195224 -0.005776 0.980742
1100.00000000 5580.00000000 -90.00000000 3 178 165 97.000000 1.000000 4.000000 1.000000 -60.708740 114.000000 149.000000 0.027629 -0.403907 0.914383
1140.00000000 5600.00000000 -130.00000000 3 178 165 97.000000 1.000000 4.000000 1.000000 -60.708740 114.000000 149.000000 0.698460 -0.192732 0.689209
1100.00000000 5590.00000000 -170.00000000 3 178 165 97.000000 1.000000 4.000000 1.000000 -60.708740 114.000000 149.000000 0.229145 -0.471948 0.851327
1110.00000000 5590.00000000 -170.00000000 3 178 165 97.000000 1.000000 4.000000 1.000000 -60.708740 114.000000 149.000000 0.529321 -0.404775 0.745638
1110.00000000 5580.00000000 -170.00000000 3 178 165 97.000000 1.000000 4.000000 1.000000 -60.708740 114.000000 149.000000 0.460235 0.097114 0.882469
1130.00000000 5600.00000000 -160.00000000 3 178 165 97.000000 1.000000 4.000000 1.000000 -60.708740 114.000000 149.000000 0.046854 -0.297587 0.953544
1120.00000000 5570.00000000 -180.00000000 3 178 165 97.000000 1.000000 4.000000 1.000000 -60.708740 114.000000 149.000000 0.378007 -0.384281 0.842282
1110.00000000 5550.00000000 -180.00000000 3 178 165 97.000000 1.000000 4.000000 1.000000 -60.708740 114.000000 149.000000 0.392940 -0.014265 0.919454
1070.00000000 5640.00000000 -60.00000000 3 178 165 97.000000 1.000000 4.000000 1.000000 -60.708740 114.000000 149.000000 0.048664 -0.529746 0.846759
1080.00000000 5650.00000000 -40.00000000 3 178 165 97.000000 1.000000 4.000000 1.000000 -60.708740 114.000000 149.000000 0.129175 -0.324977 0.936858
1050.00000000 5650.00000000 -20.00000000 3 178 165 97.000000 1.000000 4.000000 1.000000 -60.708740 114.000000 149.000000 0.334582 -0.310576 0.889718
1050.00000000 5650.00000000 -20.00000000 3 178 165 97.000000 1.000000 4.000000 1.000000 -60.708740 114.000000 149.000000 0.334582 -0.310576 0.889718
1060.00000000 5650.00000000 -20.00000000 3 178 165 97.000000 1.000000 4.000000 1.000000 -60.708740 114.000000 149.000000 0.114426 0.136107 0.984064
1060.00000000 5650.00000000 -90.00000000 3 178 165 97.000000 1.000000 4.000000 1.000000 -60.708740 114.000000 149.000000 -0.369203 -0.253549 0.894093
1020.00000000 5650.00000000 -70.00000000 3 178 165 97.000000 1.000000 4.000000 1.000000 -60.708740 114.000000 149.000000 -0.199266 -0.477938 0.855493
1070.00000000 5680.00000000 -140.00000000 3 178 165 97.000000 1.000000 4.000000 1.000000 -60.708740 114.000000 149.000000 0.503147 0.023055 0.863893
1080.00000000 5670.00000000 -140.00000000 3 178 165 97.000000 1.000000 4.000000 1.000000 -60.708740 114.000000 149.000000 0.277635 -0.100366 0.955429
1080.00000000 5680.00000000 -130.00000000 3 178 165 97.000000 1.000000 4.000000 1.000000 -60.708740 114.000000 149.000000 0.175877 -0.536652 0.825271
1060.00000000 5690.00000000 -120.00000000 3 178 165 97.000000 1.000000 4.000000 1.000000 -60.708740 114.000000 149.000000 0.206930 -0.556412 0.804727
1060.00000000 5660.00000000 -150.00000000 3 178 165 97.000000 1.000000 4.000000 1.000000 -60.708740 114.000000 149.000000 -0.099952 -0.382009 0.918738
1030.00000000 5690.00000000 -120.00000000 3 178 165 97.000000 1.000000 4.000000 1.000000 -60.708740 114.000000 149.000000 0.221986 -0.179450 0.958395
1010.00000000 5610.00000000 -110.00000000 3 178 165 97.000000 1.000000 4.000000 1.000000 -60.708740 114.000000 149.000000 0.549008 0.508714 -0.663175
1060.00000000 5600.00000000 -100.00000000 3 178 165 97.000000 1.000000 4.000000 1.000000 -60.708740 114.000000 149.000000 -0.065975 -0.086103 0.994099
1060.00000000 5560.00000000 -70.00000000 3 178 165 97.000000 1.000000 4.000000 1.000000 -60.708740 114.000000 149.000000 0.054419 -0.528837 0.846977
1070.00000000 5600.00000000 -130.00000000 3 178 165 97.000000 1.000000 4.000000 1.000000 -60.708740 114.000000 149.000000 0.328413 -0.255433 0.909340
1060.00000000 5590.00000000 -130.00000000 3 178 165 97.000000 1.000000 4.000000 1.000000 -60.708740 114.000000 149.000000 0.265347 0.668929 -0.694352
1080.00000000 5540.00000000 -120.00000000 3 178 165 97.000000 1.000000 4.000000 1.000000 -60.708740 114.000000 149.000000 0.231178 -0.572516 0.786627
1070.00000000 5560.00000000 -180.00000000 3 178 165 97.000000 1.000000 4.000000 1.000000 -60.708740 114.000000 149.000000 -0.047670 -0.094230 0.994408
1160.00000000 5690.00000000 -240.00000000 3 178 165 97.000000 1.000000 4.000000 1.000000 -60.708740 114.000000 149.000000 0.901146 0.131153 0.413201
1140.00000000 5650.00000000 -230.00000000 3 178 165 97.000000 1.000000 4.000000 1.000000 -60.708740 114.000000 149.000000 0.965449 0.103578 0.239124
1140.00000000 5650.00000000 -230.00000000 3 178 165 97.000000 1.000000 4.000000 1.000000 -60.708740 114.000000 149.000000 0.965449 0.103578 0.239124
1130.00000000 5670.00000000 -190.00000000 3 178 165 97.000000 1.000000 4.000000 1.000000 -60.708740 114.000000 149.000000 0.917753 0.143879 0.370174
1130.00000000 5620.00000000 -190.00000000 3 178 165 97.000000 1.000000 4.000000 1.000000 -60.708740 114.000000 149.000000 0.433738 0.176708 0.883541
1160.00000000 5680.00000000 -290.00000000 3 178 165 97.000000 1.000000 4.000000 1.000000 -60.708740 114.000000 149.000000 0.592238 0.765040 -0.252919
1170.00000000 5620.00000000 -280.00000000 3 178 165 97.000000 1.000000 4.000000 1.000000 -60.708740 114.000000 149.000000 0.944695 0.291405 -0.150446
1160.00000000 5650.00000000 -320.00000000 3 178 165 97.000000 1.000000 4.000000 1.000000 -60.708740 114.000000 149.000000 0.829280 0.520006 -0.204667
1110.00000000 5680.00000000 -330.00000000 3 178 165 97.000000 1.000000 4.000000 1.000000 -60.708740 114.000000 149.000000 -0.042516 -0.489623 0.870897
1110.00000000 5650.00000000 -330.00000000 3 178 165 97.000000 1.000000 4.000000 1.000000 -60.708740 114.000000 149.000000 -0.558262 -0.384726 0.735072
1150.00000000 5580.00000000 -230.00000000 3 178 165 97.000000 1.000000 4.000000 1.000000 -60.708740 114.000000 149.000000 0.692141 0.448641 0.565387
1090.00000000 5600.00000000 -190.00000000 3 178 165 97.000000 1.000000 4.000000 1.000000 -60.708740 114.000000 149.000000 0.062318 -0.281067 0.957663
1100.00000000 5530.00000000 -220.00000000 3 178 165 97.000000 1.000000 4.000000 1.000000 -60.708740 114.000000 149.000000 -0.421888 -0.343470 0.839070
1090.00000000 5550.00000000 -220.00000000 3 178 165 97.000000 1.000000 4.000000 1.000000 -60.708740 114.000000 149.000000 -0.082838 -0.085108 0.992922
1120.00000000 5540.00000000 -220.00000000 3 178 165 97.000000 1.000000 4.000000 1.000000 -60.708740 114.000000 149.000000 0.541164 -0.368902 0.755680
1120.00000000 5560.00000000 -190.00000000 3 178 165 97.000000 1.000000 4.000000 1.000000 -60.708740 114.000000 149.000000 0.327941 -0.389526 0.860653
1090.00000000 5560.00000000 -250.00000000 3 178 165 97.000000 1.000000 4.000000 1.000000 -60.708740 114.000000 149.000000 0.660343 0.233708 -0.713672
1090.00000000 5590.00000000 -320.00000000 3 178 165 97.000000 1.000000 4.000000 1.000000 -60.708740 114.000000 149.000000 -0.114484 -0.531844 0.839068
1080.00000000 5610.00000000 -190.00000000 3 178 165 97.000000 1.000000 4.000000 1.000000 -60.708740 114.000000 149.000000 -0.082670 0.049602 0.995342
1080.00000000 5650.00000000 -260.00000000 3 178 165 97.000000 1.000000 4.000000 1.000000 -60.708740 114.000000 149.000000 -0.355739 -0.152061 0.922132
1030.00000000 5650.00000000 -270.00000000 3 178 165 97.000000 1.000000 4.000000 1.000000 -60.708740 114.000000 149.000000 0.551941 0.300625 0.777808
1020.00000000 5630.00000000 -260.00000000 3 178 165 97.000000 1.000000 4.000000 1.000000 -60.708740 114.000000 149.000000 0.824554 0.444721 0.349763
1070.00000000 5640.00000000 -300.00000000 3 178 165 97.000000 1.000000 4.000000 1.000000 -60.708740 114.000000 149.000000 0.074762 0.007371 0.997174
1070.00000000 5580.00000000 -220.00000000 3 178 165 97.000000 1.000000 4.000000 1.000000 -60.708740 114.000000 149.000000 0.653979 0.123645 -0.746340
1080.00000000 5590.00000000 -230.00000000 3 178 165 97.000000 1.000000 4.000000 1.000000 -60.708740 114.000000 149.000000 0.146457 -0.358471 0.921981
1020.00000000 5530.00000000 -250.00000000 3 178 165 97.000000 1.000000 4.000000 1.000000 -60.708740 114.000000 149.000000 0.933409 0.345160 -0.098042
1080.00000000 5600.00000000 -300.00000000 3 178 165 97.000000 1.000000 4.000000 1.000000 -60.708740 114.000000 149.000000 0.398044 0.161215 0.903089
1070.00000000 5570.00000000 -320.00000000 3 178 165 97.000000 1.000000 4.000000 1.000000 -60.708740 114.000000 149.000000 0.475390 0.025588 0.879403
1050.00000000 5540.00000000 -310.00000000 3 178 165 97.000000 1.000000 4.000000 1.000000 -60.708740 114.000000 149.000000 0.940860 -0.179931 0.287065
1040.00000000 5560.00000000 -310.00000000 3 178 165 97.000000 1.000000 4.000000 1.000000 -60.708740 114.000000 149.000000 0.588854 0.228394 0.775298
1020.00000000 5400.00000000 -30.00000000 3 178 165 97.000000 1.000000 4.000000 1.000000 -60.708740 114.000000 149.000000 0.626529 0.525204 -0.575866
1040.00000000 5430.00000000 -50.00000000 3 178 165 97.000000 1.000000 4.000000 1.000000 -60.708740 114.000000 149.000000 -0.237313 -0.699365 0.674219
1110.00000000 5460.00000000 -300.00000000 3 178 165 97.000000 1.000000 4.000000 1.000000 -60.708740 114.000000 149.000000 0.984064 0.170477 0.050555
1120.00000000 5480.00000000 -320.00000000 3 178 165 97.000000 1.000000 4.000000 1.000000 -60.708740 114.000000 149.000000 0.591716 -0.167981 0.788451
1110.00000000 5430.00000000 -270.00000000 3 178 165 97.000000 1.000000 4.000000 1.000000 -60.708740 114.000000 149.000000 -0.415975 -0.356325 0.836658
1150.00000000 5370.00000000 -350.00000000 3 178 165 97.000000 1.000000 4.000000 1.000000 -60.708740 114.000000 149.000000 0.861339 0.371347 0.346693
1080.00000000 5520.00000000 -220.00000000 3 178 165 97.000000 1.000000 4.000000 1.000000 -60.708740 114.000000 149.000000 -0.118992 -0.412971 0.902937
1040.00000000 5510.00000000 -200.00000000 3 178 165 97.000000 1.000000 4.000000 1.000000 -60.708740 114.000000 149.000000 -0.269814 -0.470248 0.840278
1060.00000000 5520.00000000 -290.00000000 3 178 165 97.000000 1.000000 4.000000 1.000000 -60.708740 114.000000 149.000000 0.937514 0.324263 0.126178
1060.00000000 5510.00000000 -340.00000000 3 178 165 97.000000 1.000000 4.000000 1.000000 -60.708740 114.000000 149.000000 0.726441 0.385358 0.569018
1020.00000000 5490.00000000 -290.00000000 3 178 165 97.000000 1.000000 4.000000 1.000000 -60.708740 114.000000 149.000000 0.824406 0.513135 -0.238847
1030.00000000 5470.00000000 -280.00000000 3 178 165 97.000000 1.000000 4.000000 1.000000 -60.708740 114.000000 149.000000 0.763353 0.533213 -0.364659
1030.00000000 5470.00000000 -280.00000000 3 178 165 97.000000 1.000000 4.000000 1.000000 -60.708740 114.000000 149.000000 0.763353 0.533213 -0.364659
1030.00000000 5370.00000000 -240.00000000 3 178 165 97.000000 1.000000 4.000000 1.000000 -60.708740 114.000000 149.000000 0.686800 0.459538 -0.563143
1070.00000000 5430.00000000 -350.00000000 3 178 165 97.000000 1.000000 4.000000 1.000000 -60.708740 114.000000 149.000000 0.910306 0.330623 0.249060
1080.00000000 5370.00000000 -300.00000000 3 178 165 97.000000 1.000000 4.000000 1.000000 -60.708740 114.000000 149.000000 0.751634 0.435849 -0.495058
1180.00000000 5480.00000000 -510.00000000 3 178 165 97.000000 1.000000 4.000000 1.000000 -60.708740 114.000000 149.000000 0.199720 -0.556473 0.806505
1180.00000000 5480.00000000 -520.00000000 3 178 165 97.000000 1.000000 4.000000 1.000000 -60.708740 114.000000 149.000000 -0.243277 -0.601130 0.761222
1190.00000000 5390.00000000 -500.00000000 3 178 165 97.000000 1.000000 4.000000 1.000000 -60.708740 114.000000 149.000000 0.024835 -0.206960 0.978034
1300.00000000 5400.00000000 -670.00000000 3 178 165 97.000000 1.000000 4.000000 1.000000 -60.708740 114.000000 149.000000 -0.547265 -0.275998 0.790143
1280.00000000 5360.00000000 -630.00000000 3 178 165 97.000000 1.000000 4.000000 1.000000 -60.708740 114.000000 149.000000 -0.355665 -0.337347 0.871607
1220.00000000 5520.00000000 -630.00000000 3 178 165 97.000000 1.000000 4.000000 1.000000 -60.708740 114.000000 149.000000 -0.002938 -0.000979 0.999995
1230.00000000 5500.00000000 -630.00000000 3 178 165 97.000000 1.000000 4.000000 1.000000 -60.708740 114.000000 149.000000 -0.488752 -0.268426 0.830102
1240.00000000 5450.00000000 -610.00000000 3 178 165 97.000000 1.000000 4.000000 1.000000 -60.708740 114.000000 149.000000 0.130566 -0.397314 0.908347
1230.00000000 5450.00000000 -650.00000000 3 178 165 97.000000 1.000000 4.000000 1.000000 -60.708740 114.000000 149.000000 -0.355127 -0.218874 0.908834
1220.00000000 5450.00000000 -660.00000000 3 178 165 97.000000 1.000000 4.000000 1.000000 -60.708740 114.000000 149.000000 -0.362128 -0.064997 0.929860
1180.00000000 5500.00000000 -610.00000000 3 178 165 97.000000 1.000000 4.000000 1.000000 -60.708740 114.000000 149.000000 0.194345 -0.003450 0.980927
1180.00000000 5480.00000000 -670.00000000 3 178 165 97.000000 1.000000 4.000000 1.000000 -60.708740 114.000000 149.000000 0.158000 -0.588363 0.793010
1230.00000000 5420.00000000 -610.00000000 3 178 165 97.000000 1.000000 4.000000 1.000000 -60.708740 114.000000 149.000000 -0.501537 -0.248454 0.828693
1250.00000000 5410.00000000 -690.00000000 3 178 165 97.000000 1.000000 4.000000 1.000000 -60.708740 114.000000 149.000000 -0.467405 -0.322619 0.823073
1250.00000000 5360.00000000 -650.00000000 3 178 165 97.000000 1.000000 4.000000 1.000000 -60.708740 114.000000 149.000000 -0.259477 -0.058915 0.963951
1220.00000000 5370.00000000 -660.00000000 3 178 165 97.000000 1.000000 4.000000 1.000000 -60.708740 114.000000 149.000000 -0.249055 -0.179050 0.951794
1250.00000000 5390.00000000 -670.00000000 3 178 165 97.000000 1.000000 4.000000 1.000000 -60.708740 114.000000 149.000000 0.163453 -0.432499 0.886695
1230.00000000 5360.00000000 -660.00000000 3 178 165 97.000000 1.000000 4.000000 1.000000 -60.708740 114.000000 149.000000 -0.231802 -0.462090 0.856003
1200.00000000 5410.00000000 -680.00000000 3 178 165 97.000000 1.000000 4.000000 1.000000 -60.708740 114.000000 149.000000 0.157508 -0.308169 0.938202
1110.00000000 5610.00000000 -510.00000000 3 178 165 97.000000 1.000000 4.000000 1.000000 -60.708740 114.000000 149.000000 -0.221535 -0.017770 0.974990
1120.00000000 5650.00000000 -460.00000000 3 178 165 97.000000 1.000000 4.000000 1.000000 -60.708740 114.000000 149.000000 -0.213778 -0.567510 0.795130
1110.00000000 5640.00000000 -510.00000000 3 178 165 97.000000 1.000000 4.000000 1.000000 -60.708740 114.000000 149.000000 -0.131784 -0.096167 0.986603
1130.00000000 5530.00000000 -360.00000000 3 178 165 97.000000 1.000000 4.000000 1.000000 -60.708740 114.000000 149.000000 0.127151 -0.014374 0.991779
1090.00000000 5580.00000000 -360.00000000 3 178 165 97.000000 1.000000 4.000000 1.000000 -60.708740 114.000000 149.000000 0.445380 -0.302610 0.842653
1050.00000000 5610.00000000 -390.00000000 3 178 165 97.000000 1.000000 4.000000 1.000000 -60.708740 114.000000 149.000000 0.332733 -0.011300 0.942953
1010.00000000 5610.00000000 -380.00000000 3 178 165 97.000000 1.000000 4.000000 1.000000 -60.708740 114.000000 149.000000 0.175725 -0.017228 0.984289
1040.00000000 5630.00000000 -420.00000000 3 178 165 97.000000 1.000000 4.000000 1.000000 -60.708740 114.000000 149.000000 0.629885 -0.009691 0.776628
1080.00000000 5620.00000000 -520.00000000 3 178 165 97.000000 1.000000 4.000000 1.000000 -60.708740 114.000000 149.000000 0.120438 -0.175070 0.977162
1040.00000000 5610.00000000 -490.00000000 3 178 165 97.000000 1.000000 4.000000 1.000000 -60.708740 114.000000 149.000000 0.115434 -0.556711 0.822647
1030.00000000 5630.00000000 -490.00000000 3 178 165 97.000000 1.000000 4.000000 1.000000 -60.708740 114.000000 149.000000 0.510685 -0.071749 0.856769
1010.00000000 5580.00000000 -380.00000000 3 178 165 97.000000 1.000000 4.000000 1.000000 -60.708740 114.000000 149.000000 0.497852 0.362513 0.787863
1010.00000000 5560.00000000 -390.00000000 3 178 165 97.000000 1.000000 4.000000 1.000000 -60.708740 114.000000 149.000000 0.771065 0.043859 0.635244
1030.00000000 5560.00000000 -440.00000000 3 178 165 97.000000 1.000000 4.000000 1.000000 -60.708740 114.000000 149.000000 0.447601 -0.193517 0.873043
1060.00000000 5600.00000000 -520.00000000 3 178 165 97.000000 1.000000 4.000000 1.000000 -60.708740 114.000000 149.000000 0.199579 -0.543892 0.815076
1070.00000000 5580.00000000 -500.00000000 3 178 165 97.000000 1.000000 4.000000 1.000000 -60.708740 114.000000 149.000000 0.151960 -0.452985 0.878472
1080.00000000 5560.00000000 -470.00000000 3 178 165 97.000000 1.000000 4.000000 1.000000 -60.708740 114.000000 149.000000 0.489078 0.113305 0.864850
1070.00000000 5550.00000000 -510.00000000 3 178 165 97.000000 1.000000 4.000000 1.000000 -60.708740 114.000000 149.000000 0.228675 0.207026 0.951235
1030.00000000 5600.00000000 -470.00000000 3 178 165 97.000000 1.000000 4.000000 1.000000 -60.708740 114.000000 149.000000 0.670274 -0.038261 0.741127
1030.00000000 5550.00000000 -450.00000000 3 178 165 97.000000 1.000000 4.000000 1.000000 -60.708740 114.000000 149.000000 0.619047 -0.432165 0.655755
1030.00000000 5540.00000000 -480.00000000 3 178 165 97.000000 1.000000 4.000000 1.000000 -60.708740 114.000000 149.000000 0.626866 -0.158605 0.762813
1020.00000000 5530.00000000 -470.00000000 3 178 165 97.000000 1.000000 4.000000 1.000000 -60.708740 114.000000 149.000000 0.278217 -0.117352 0.953322
1030.00000000 5540.00000000 -480.00000000 3 178 165 97.000000 1.000000 4.000000 1.000000 -60.708740 114.000000 149.000000 0.626866 -0.158605 0.762813
1040.00000000 5530.00000000 -480.00000000 3 178 165 97.000000 1.000000 4.000000 1.000000 -60.708740 114.000000 149.000000 0.369134 -0.059538 0.927467
1150.00000000 5550.00000000 -640.00000000 3 178 165 97.000000 1.000000 4.000000 1.000000 -60.708740 114.000000 149.000000 0.384361 -0.403342 0.830410
1150.00000000 5460.00000000 -420.00000000 3 178 165 97.000000 1.000000 4.000000 1.000000 -60.708740 114.000000 149.000000 -0.176831 -0.569789 0.802541
1110.00000000 5450.00000000 -380.00000000 3 178 165 97.000000 1.000000 4.000000 1.000000 -60.708740 114.000000 149.000000 0.477577 -0.031117 0.878039
1140.00000000 5480.00000000 -500.00000000 3 178 165 97.000000 1.000000 4.000000 1.000000 -60.708740 114.000000 149.000000 0.209242 -0.477192 0.853526
1120.00000000 5470.00000000 -490.00000000 3 178 165 97.000000 1.000000 4.000000 1.000000 -60.708740 114.000000 149.000000 0.039015 -0.293243 0.955242
1110.00000000 5460.00000000 -500.00000000 3 178 165 97.000000 1.000000 4.000000 1.000000 -60.708740 114.000000 149.000000 0.125977 -0.369625 0.920601
1160.00000000 5370.00000000 -400.00000000 3 178 165 97.000000 1.000000 4.000000 1.000000 -60.708740 114.000000 149.000000 0.701615 -0.223454 0.676613
1100.00000000 5400.00000000 -420.00000000 3 178 165 97.000000 1.000000 4.000000 1.000000 -60.708740 114.000000 149.000000 0.658324 0.098236 0.746297
1100.00000000 5360.00000000 -360.00000000 3 178 165 97.000000 1.000000 4.000000 1.000000 -60.708740 114.000000 149.000000 0.696975 0.275919 0.661887
1090.00000000 5380.00000000 -420.00000000 3 178 165 97.000000 1.000000 4.000000 1.000000 -60.708740 114.000000 149.000000 0.499933 0.128968 0.856408
1140.00000000 5410.00000000 -520.00000000 3 178 165 97.000000 1.000000 4.000000 1.000000 -60.708740 114.000000 149.000000 0.080564 -0.507409 0.857931
1150.00000000 5380.00000000 -450.00000000 3 178 165 97.000000 1.000000 4.000000 1.000000 -60.708740 114.000000 149.000000 0.493687 0.193574 0.847822
1100.00000000 5410.00000000 -470.00000000 3 178 165 97.000000 1.000000 4.000000 1.000000 -60.708740 114.000000 149.000000 0.093209 -0.248983 0.964012
1110.00000000 5400.00000000 -510.00000000 3 178 165 97.000000 1.000000 4.000000 1.000000 -60.708740 114.000000 149.000000 0.074853 0.155647 0.984973
1130.00000000 5410.00000000 -510.00000000 3 178 165 97.000000 1.000000 4.000000 1.000000 -60.708740 114.000000 149.000000 0.299069 -0.172275 0.938552
1120.00000000 5360.00000000 -500.00000000 3 178 165 97.000000 1.000000 4.000000 1.000000 -60.708740 114.000000 149.000000 0.369948 -0.462835 0.805557
1070.00000000 5520.00000000 -400.00000000 3 178 165 97.000000 1.000000 4.000000 1.000000 -60.708740 114.000000 149.000000 0.536308 -0.045969 0.842770
1080.00000000 5460.00000000 -440.00000000 3 178 165 97.000000 1.000000 4.000000 1.000000 -60.708740 114.000000 149.000000 0.661751 0.216431 0.717805
1020.00000000 5450.00000000 -410.00000000 3 178 165 97.000000 1.000000 4.000000 1.000000 -60.708740 114.000000 149.000000 0.883239 0.188952 0.429169
1010.00000000 5480.00000000 -430.00000000 3 178 165 97.000000 1.000000 4.000000 1.000000 -60.708740 114.000000 149.000000 0.678789 0.419886 0.602446
1010.00000000 5510.00000000 -470.00000000 3 178 165 97.000000 1.000000 4.000000 1.000000 -60.708740 114.000000 149.000000 0.706420 0.044062 0.706420
1080.00000000 5360.00000000 -390.00000000 3 178 165 97.000000 1.000000 4.000000 1.000000 -60.708740 114.000000 149.000000 0.829817 0.477962 0.288023
1040.00000000 5430.00000000 -420.00000000 3 178 165 97.000000 1.000000 4.000000 1.000000 -60.708740 114.000000 149.000000 0.768309 0.425751 0.477950
1030.00000000 5430.00000000 -410.00000000 3 178 165 97.000000 1.000000 4.000000 1.000000 -60.708740 114.000000 149.000000 0.590272 0.091369 0.802016
1030.00000000 5410.00000000 -410.00000000 3 178 165 97.000000 1.000000 4.000000 1.000000 -60.708740 114.000000 149.000000 0.513034 0.280835 0.811127
1030.00000000 5370.00000000 -400.00000000 3 178 165 97.000000 1.000000 4.000000 1.000000 -60.708740 114.000000 149.000000 0.683917 0.300924 0.664607
1080.00000000 5410.00000000 -520.00000000 3 178 165 97.000000 1.000000 4.000000 1.000000 -60.708740 114.000000 149.000000 0.316372 -0.119817 0.941038
1070.00000000 5380.00000000 -450.00000000 3 178 165 97.000000 1.000000 4.000000 1.000000 -60.708740 114.000000 149.000000 0.339470 0.100633 0.935218
1070.00000000 5390.00000000 -480.00000000 3 178 165 97.000000 1.000000 4.000000 1.000000 -60.708740 114.000000 149.000000 0.694908 -0.293691 0.656391
1050.00000000 5370.00000000 -470.00000000 3 178 165 97.000000 1.000000 4.000000 1.000000 -60.708740 114.000000 149.000000 0.803685 0.034943 0.594028
1050.00000000 5360.00000000 -520.00000000 3 178 165 97.000000 1.000000 4.000000 1.000000 -60.708740 114.000000 149.000000 0.494590 -0.119682 0.860847
1150.00000000 5490.00000000 -600.00000000 3 178 165 97.000000 1.000000 4.000000 1.000000 -60.708740 114.000000 149.000000 0.036786 -0.200545 0.978994
1160.00000000 5470.00000000 -560.00000000 3 178 165 97.000000 1.000000 4.000000 1.000000 -60.708740 114.000000 149.000000 -0.253658 -0.527547 0.810772
1150.00000000 5460.00000000 -600.00000000 3 178 165 97.000000 1.000000 4.000000 1.000000 -60.708740 114.000000 149.000000 0.266338 0.119393 0.956457
1110.00000000 5460.00000000 -530.00000000 3 178 165 97.000000 1.000000 4.000000 1.000000 -60.708740 114.000000 149.000000 0.239228 0.139877 0.960835
1110.00000000 5470.00000000 -530.00000000 3 178 165 97.000000 1.000000 4.000000 1.000000 -60.708740 114.000000 149.000000 -0.130076 -0.256209 0.957829
1140.00000000 5500.00000000 -620.00000000 3 178 165 97.000000 1.000000 4.000000 1.000000 -60.708740 114.000000 149.000000 0.378658 -0.011552 0.925465
1170.00000000 5480.00000000 -620.00000000 3 178 165 97.000000 1.000000 4.000000 1.000000 -60.708740 114.000000 149.000000 0.291899 -0.168562 0.941478
1170.00000000 5460.00000000 -630.00000000 3 178 165 97.000000 1.000000 4.000000 1.000000 -60.708740 114.000000 149.000000 0.173396 0.003400 0.984846
1110.00000000 5470.00000000 -610.00000000 3 178 165 97.000000 1.000000 4.000000 1.000000 -60.708740 114.000000 149.000000 0.536736 -0.239752 0.808971
1160.00000000 5420.00000000 -690.00000000 3 178 165 97.000000 1.000000 4.000000 1.000000 -60.708740 114.000000 149.000000 0.040926 -0.264156 0.963611
1170.00000000 5360.00000000 -620.00000000 3 178 165 97.000000 1.000000 4.000000 1.000000 -60.708740 114.000000 149.000000 0.455605 -0.248373 0.854830
1120.00000000 5400.00000000 -610.00000000 3 178 165 97.000000 1.000000 4.000000 1.000000 -60.708740 114.000000 149.000000 0.407600 -0.181317 0.894979
1110.00000000 5430.00000000 -660.00000000 3 178 165 97.000000 1.000000 4.000000 1.000000 -60.708740 114.000000 149.000000 0.189690 -0.292150 0.937372
1050.00000000 5460.00000000 -540.00000000 3 178 165 97.000000 1.000000 4.000000 1.000000 -60.708740 114.000000 149.000000 0.690311 0.001383 0.723512
1050.00000000 5450.00000000 -540.00000000 3 178 165 97.000000 1.000000 4.000000 1.000000 -60.708740 114.000000 149.000000 0.198388 -0.418819 0.886133
1070.00000000 5440.00000000 -570.00000000 3 178 165 97.000000 1.000000 4.000000 1.000000 -60.708740 114.000000 149.000000 0.357771 -0.539084 0.762488
1070.00000000 5450.00000000 -580.00000000 3 178 165 97.000000 1.000000 4.000000 1.000000 -60.708740 114.000000 149.000000 0.347417 -0.115806 0.930532
1030.00000000 5470.00000000 -530.00000000 3 178 165 97.000000 1.000000 4.000000 1.000000 -60.708740 114.000000 149.000000 0.143340 -0.104795 0.984110
1060.00000000 5440.00000000 -640.00000000 3 178 165 97.000000 1.000000 4.000000 1.000000 -60.708740 114.000000 149.000000 0.541812 -0.366089 0.756584
1070.00000000 5430.00000000 -550.00000000 3 178 165 97.000000 1.000000 4.000000 1.000000 -60.708740 114.000000 149.000000 0.220265 -0.025003 0.975120
1060.00000000 5420.00000000 -550.00000000 3 178 165 97.000000 1.000000 4.000000 1.000000 -60.708740 114.000000 149.000000 0.398955 -0.437408 0.805921
1050.00000000 5410.00000000 -590.00000000 3 178 165 97.000000 1.000000 4.000000 1.000000 -60.708740 114.000000 149.000000 0.386323 0.224743 0.894564
1080.00000000 5420.00000000 -600.00000000 3 178 165 97.000000 1.000000 4.000000 1.000000 -60.708740 114.000000 149.000000 0.027409 0.101963 0.994411
1080.00000000 5420.00000000 -600.00000000 3 178 165 97.000000 1.000000 4.000000 1.000000 -60.708740 114.000000 149.000000 0.027409 0.101963 0.994411
1050.00000000 5390.00000000 -600.00000000 3 178 165 97.000000 1.000000 4.000000 1.000000 -60.708740 114.000000 149.000000 0.644695 -0.107695 0.756816
1060.00000000 5380.00000000 -570.00000000 3 178 165 97.000000 1.000000 4.000000 1.000000 -60.708740 114.000000 149.000000 0.426711 0.202282 0.881476
1050.00000000 5390.00000000 -600.00000000 3 178 165 97.000000 1.000000 4.000000 1.000000 -60.708740 114.000000 149.000000 0.644695 -0.107695 0.756816
1030.00000000 5400.00000000 -530.00000000 3 178 165 97.000000 1.000000 4.000000 1.000000 -60.708740 114.000000 149.000000 0.317071 0.122781 0.940420
1040.00000000 5420.00000000 -570.00000000 3 178 165 97.000000 1.000000 4.000000 1.000000 -60.708740 114.000000 149.000000 0.690352 -0.146530 0.708479
1040.00000000 5420.00000000 -570.00000000 3 178 165 97.000000 1.000000 4.000000 1.000000 -60.708740 114.000000 149.000000 0.690352 -0.146530 0.708479
1030.00000000 5380.00000000 -530.00000000 3 178 165 97.000000 1.000000 4.000000 1.000000 -60.708740 114.000000 149.000000 0.452594 -0.117760 0.883907
1060.00000000 5430.00000000 -630.00000000 3 178 165 97.000000 1.000000 4.000000 1.000000 -60.708740 114.000000 149.000000 0.356169 0.167526 0.919282
1050.00000000 5360.00000000 -630.00000000 3 178 165 97.000000 1.000000 4.000000 1.000000 -60.708740 114.000000 149.000000 0.571302 0.012330 0.820647
1310.00000000 5340.00000000 -80.00000000 3 178 165 97.000000 1.000000 4.000000 1.000000 -60.708740 114.000000 149.000000 0.475005 -0.124850 0.871081
1280.00000000 5200.00000000 -30.00000000 3 178 165 97.000000 1.000000 4.000000 1.000000 -60.708740 114.000000 149.000000 -0.113665 -0.499263 0.858963
1240.00000000 5280.00000000 -60.00000000 3 178 165 97.000000 1.000000 4.000000 1.000000 -60.708740 114.000000 149.000000 0.284535 -0.008548 0.958627
1240.00000000 5280.00000000 -50.00000000 3 178 165 97.000000 1.000000 4.000000 1.000000 -60.708740 114.000000 149.000000 0.445852 -0.213234 0.869337
1240.00000000 5330.00000000 -160.00000000 3 178 165 97.000000 1.000000 4.000000 1.000000 -60.708740 114.000000 149.000000 0.549986 0.004074 0.835164
1320.00000000 5340.00000000 -290.00000000 3 178 165 97.000000 1.000000 4.000000 1.000000 -60.708740 114.000000 149.000000 0.703054 0.415215 0.577331
1250.00000000 5320.00000000 -240.00000000 3 178 165 97.000000 1.000000 4.000000 1.000000 -60.708740 114.000000 149.000000 0.453716 0.050413 0.889719
1180.00000000 5290.00000000 -290.00000000 3 178 165 97.000000 1.000000 4.000000 1.000000 -60.708740 114.000000 149.000000 -0.351426 -0.237686 0.905541
1210.00000000 5030.00000000 -100.00000000 3 178 165 97.000000 1.000000 4.000000 1.000000 -60.708740 114.000000 149.000000 -0.306549 -0.582603 0.752729
1220.00000000 5070.00000000 -130.00000000 3 178 165 97.000000 1.000000 4.000000 1.000000 -60.708740 114.000000 149.000000 -0.316298 -0.331289 0.888934
1250.00000000 5050.00000000 -130.00000000 3 178 165 97.000000 1.000000 4.000000 1.000000 -60.708740 114.000000 149.000000 -0.186550 -0.562683 0.805349
1210.00000000 5070.00000000 -150.00000000 3 178 165 97.000000 1.000000 4.000000 1.000000 -60.708740 114.000000 149.000000 0.514815 0.488158 -0.704746
1330.00000000 5040.00000000 -200.00000000 3 178 165 97.000000 1.000000 4.000000 1.000000 -60.708740 114.000000 149.000000 0.187006 -0.564060 0.804279
1150.00000000 5280.00000000 -160.00000000 3 178 165 97.000000 1.000000 4.000000 1.000000 -60.708740 114.000000 149.000000 -0.275162 -0.492805 0.825487
1120.00000000 5280.00000000 -130.00000000 3 178 165 97.000000 1.000000 4.000000 1.000000 -60.708740 114.000000 149.000000 0.566981 0.513143 -0.644373
1090.00000000 5250.00000000 -30.00000000 3 178 165 97.000000 1.000000 4.000000 1.000000 -60.708740 114.000000 149.000000 0.366577 0.678906 -0.636167
1030.00000000 5340.00000000 -40.00000000 3 178 165 97.000000 1.000000 4.000000 1.000000 -60.708740 114.000000 149.000000 -0.348591 -0.072899 0.934436
1020.00000000 5330.00000000 -40.00000000 3 178 165 97.000000 1.000000 4.000000 1.000000 -60.708740 114.000000 149.000000 -0.225621 -0.608398 0.760886
1010.00000000 5330.00000000 -40.00000000 3 178 165 97.000000 1.000000 4.000000 1.000000 -60.708740 114.000000 149.000000 0.209768 0.734966 -0.644843
1030.00000000 5320.00000000 -100.00000000 3 178 165 97.000000 1.000000 4.000000 1.000000 -60.708740 114.000000 149.000000 -0.561354 -0.418946 0.713698
1030.00000000 5300.00000000 -80.00000000 3 178 165 97.000000 1.000000 4.000000 1.000000 -60.708740 114.000000 149.000000 0.485823 0.653928 -0.579961
1010.00000000 5330.00000000 -50.00000000 3 178 165 97.000000 1.000000 4.000000 1.000000 -60.708740 114.000000 149.000000 0.312272 0.690882 -0.652050
1020.00000000 5240.00000000 -130.00000000 3 178 165 97.000000 1.000000 4.000000 1.000000 -60.708740 114.000000 149.000000 0.774524 0.305019 -0.554144
1080.00000000 5230.00000000 -170.00000000 3 178 165 97.000000 1.000000 4.000000 1.000000 -60.708740 114.000000 149.000000 0.750684 0.139349 -0.645798
1060.00000000 5270.00000000 -160.00000000 3 178 165 97.000000 1.000000 4.000000 1.000000 -60.708740 114.000000 149.000000 -0.296578 -0.130172 0.946096
1030.00000000 5230.00000000 -130.00000000 3 178 165 97.000000 1.000000 4.000000 1.000000 -60.708740 114.000000 149.000000 0.711395 0.474819 -0.518135
1100.00000000 5290.00000000 -220.00000000 3 178 165 97.000000 1.000000 4.000000 1.000000 -60.708740 114.000000 149.000000 -0.694117 -0.179275 0.697182
1120.00000000 5280.00000000 -220.00000000 3 178 165 97.000000 1.000000 4.000000 1.000000 -60.708740 114.000000 149.000000 -0.455650 -0.181375 0.871485
1170.00000000 5290.00000000 -300.00000000 3 178 165 97.000000 1.000000 4.000000 1.000000 -60.708740 114.000000 149.000000 -0.455389 -0.105741 0.883991
1130.00000000 5290.00000000 -350.00000000 3 178 165 97.000000 1.000000 4.000000 1.000000 -60.708740 114.000000 149.000000 0.950379 0.128932 -0.283120
1110.00000000 5300.00000000 -320.00000000 3 178 165 97.000000 1.000000 4.000000 1.000000 -60.708740 114.000000 149.000000 0.903097 0.425067 -0.061112
1110.00000000 5300.00000000 -320.00000000 3 178 165 97.000000 1.000000 4.000000 1.000000 -60.708740 114.000000 149.000000 0.903097 0.425067 -0.061112
1150.00000000 5260.00000000 -220.00000000 3 178 165 97.000000 1.000000 4.000000 1.000000 -60.708740 114.000000 149.000000 -0.059450 -0.365946 0.928735
1150.00000000 5240.00000000 -270.00000000 3 178 165 97.000000 1.000000 4.000000 1.000000 -60.708740 114.000000 149.000000 0.492758 0.721717 -0.486122
1120.00000000 5260.00000000 -270.00000000 3 178 165 97.000000 1.000000 4.000000 1.000000 -60.708740 114.000000 149.000000 0.416182 0.701375 -0.578676
1170.00000000 5240.00000000 -310.00000000 3 178 165 97.000000 1.000000 4.000000 1.000000 -60.708740 114.000000 149.000000 -0.433594 -0.132211 0.891356
1090.00000000 5250.00000000 -310.00000000 3 178 165 97.000000 1.000000 4.000000 1.000000 -60.708740 114.000000 149.000000 0.665607 0.406668 -0.625770
1070.00000000 5350.00000000 -310.00000000 3 178 165 97.000000 1.000000 4.000000 1.000000 -60.708740 114.000000 149.000000 0.973543 0.222977 0.049957
1070.00000000 5280.00000000 -330.00000000 3 178 165 97.000000 1.000000 4.000000 1.000000 -60.708740 114.000000 149.000000 0.818308 0.568946 0.081687
1150.00000000 5130.00000000 -80.00000000 3 178 165 97.000000 1.000000 4.000000 1.000000 -60.708740 114.000000 149.000000 -0.228121 -0.581943 0.780579
1120.00000000 5090.00000000 -80.00000000 3 178 165 97.000000 1.000000 4.000000 1.000000 -60.708740 114.000000 149.000000 0.047812 -0.332101 0.942031
1160.00000000 5030.00000000 -120.00000000 3 178 165 97.000000 1.000000 4.000000 1.000000 -60.708740 114.000000 149.000000 -0.469172 -0.205356 0.858899
1050.00000000 5150.00000000 -270.00000000 3 178 165 97.000000 1.000000 4.000000 1.000000 -60.708740 114.000000 149.000000 0.604501 0.490000 -0.628075
1310.00000000 5290.00000000 -480.00000000 3 178 165 97.000000 1.000000 4.000000 1.000000 -60.708740 114.000000 149.000000 -0.199343 -0.662932 0.721653
1270.00000000 5320.00000000 -480.00000000 3 178 165 97.000000 1.000000 4.000000 1.000000 -60.708740 114.000000 149.000000 -0.493861 -0.264734 0.828262
1340.00000000 5260.00000000 -410.00000000 3 178 165 97.000000 1.000000 4.000000 1.000000 -60.708740 114.000000 149.000000 0.912973 0.376760 -0.156631
1290.00000000 5230.00000000 -430.00000000 3 178 165 97.000000 1.000000 4.000000 1.000000 -60.708740 114.000000 149.000000 -0.472095 -0.366474 0.801762
1260.00000000 5260.00000000 -470.00000000 3 178 165 97.000000 1.000000 4.000000 1.000000 -60.708740 114.000000 149.000000 0.030008 -0.226862 0.973465
1260.00000000 5270.00000000 -470.00000000 3 178 165 97.000000 1.000000 4.000000 1.000000 -60.708740 114.000000 149.000000 -0.161005 -0.309624 0.937129
1190.00000000 5300.00000000 -390.00000000 3 178 165 97.000000 1.000000 4.000000 1.000000 -60.708740 114.000000 149.000000 -0.668952 0.384854 -0.635917
1230.00000000 5240.00000000 -390.00000000 3 178 165 97.000000 1.000000 4.000000 1.000000 -60.708740 114.000000 149.000000 0.650396 -0.196200 0.733819
1270.00000000 5320.00000000 -590.00000000 3 178 165 97.000000 1.000000 4.000000 1.000000 -60.708740 114.000000 149.000000 -0.244050 -0.495775 0.833455
1290.00000000 5290.00000000 -560.00000000 3 178 165 97.000000 1.000000 4.000000 1.000000 -60.708740 114.000000 149.000000 -0.497128 -0.148112 0.854943
1310.00000000 5320.00000000 -660.00000000 3 178 165 97.000000 1.000000 4.000000 1.000000 -60.708740 114.000000 149.000000 -0.013589 -0.057491 0.998254
1340.00000000 5310.00000000 -680.00000000 3 178 165 97.000000 1.000000 4.000000 1.000000 -60.708740 114.000000 149.000000 -0.383870 -0.405986 0.829349
1240.00000000 5250.00000000 -630.00000000 3 178 165 97.000000 1.000000 4.000000 1.000000 -60.708740 114.000000 149.000000 0.109220 -0.557751 0.822791
1180.00000000 5140.00000000 -520.00000000 3 178 165 97.000000 1.000000 4.000000 1.000000 -60.708740 114.000000 149.000000 0.465284 0.158984 0.870767
1200.00000000 5100.00000000 -500.00000000 3 178 165 97.000000 1.000000 4.000000 1.000000 -60.708740 114.000000 149.000000 0.436540 0.075740 0.896491
1270.00000000 5060.00000000 -540.00000000 3 178 165 97.000000 1.000000 4.000000 1.000000 -60.708740 114.000000 149.000000 0.205073 -0.351350 0.913509
1220.00000000 5050.00000000 -560.00000000 3 178 165 97.000000 1.000000 4.000000 1.000000 -60.708740 114.000000 149.000000 0.803011 0.017968 0.595693
1240.00000000 5050.00000000 -610.00000000 3 178 165 97.000000 1.000000 4.000000 1.000000 -60.708740 114.000000 149.000000 0.736030 -0.250597 0.628857
1150.00000000 5340.00000000 -380.00000000 3 178 165 97.000000 1.000000 4.000000 1.000000 -60.708740 114.000000 149.000000 0.695781 0.361806 0.620472
1140.00000000 5310.00000000 -370.00000000 3 178 165 97.000000 1.000000 4.000000 1.000000 -60.708740 114.000000 149.000000 0.812111 0.266547 0.519065
1140.00000000 5300.00000000 -440.00000000 3 178 165 97.000000 1.000000 4.000000 1.000000 -60.708740 114.000000 149.000000 0.766583 -0.161784 0.621431
1160.00000000 5330.00000000 -520.00000000 3 178 165 97.000000 1.000000 4.000000 1.000000 -60.708740 114.000000 149.000000 0.405378 -0.043861 0.913096
1030.00000000 5320.00000000 -380.00000000 3 178 165 97.000000 1.000000 4.000000 1.000000 -60.708740 114.000000 149.000000 0.842065 0.123619 0.525018
1080.00000000 5330.00000000 -500.00000000 3 178 165 97.000000 1.000000 4.000000 1.000000 -60.708740 114.000000 149.000000 0.342888 -0.318720 0.883655
1050.00000000 5300.00000000 -510.00000000 3 178 165 97.000000 1.000000 4.000000 1.000000 -60.708740 114.000000 149.000000 0.427127 -0.221749 0.876578
1020.00000000 5350.00000000 -500.00000000 3 178 165 97.000000 1.000000 4.000000 1.000000 -60.708740 114.000000 149.000000 0.871658 0.219783 0.438072
1030.00000000 5340.00000000 -510.00000000 3 178 165 97.000000 1.000000 4.000000 1.000000 -60.708740 114.000000 149.000000 0.722129 0.374983 0.581306
1030.00000000 5340.00000000 -510.00000000 3 178 165 97.000000 1.000000 4.000000 1.000000 -60.708740 114.000000 149.000000 0.722129 0.374983 0.581306
1010.00000000 5290.00000000 -450.00000000 3 178 165 97.000000 1.000000 4.000000 1.000000 -60.708740 114.000000 149.000000 0.929705 -0.014106 0.368035
1010.00000000 5290.00000000 -520.00000000 3 178 165 97.000000 1.000000 4.000000 1.000000 -60.708740 114.000000 149.000000 0.918999 -0.152933 0.363390
1040.00000000 5300.00000000 -510.00000000 3 178 165 97.000000 1.000000 4.000000 1.000000 -60.708740 114.000000 149.000000 0.909581 0.030452 0.414409
1070.00000000 5260.00000000 -370.00000000 3 178 165 97.000000 1.000000 4.000000 1.000000 -60.708740 114.000000 149.000000 0.880299 0.468658 -0.073706
1020.00000000 5260.00000000 -380.00000000 3 178 165 97.000000 1.000000 4.000000 1.000000 -60.708740 114.000000 149.000000 0.901330 0.328963 0.281758
1010.00000000 5270.00000000 -380.00000000 3 178 165 97.000000 1.000000 4.000000 1.000000 -60.708740 114.000000 149.000000 0.815962 0.410376 0.407183
1020.00000000 5270.00000000 -450.00000000 3 178 165 97.000000 1.000000 4.000000 1.000000 -60.708740 114.000000 149.000000 0.937642 0.326078 0.120419
1050.00000000 5230.00000000 -460.00000000 3 178 165 97.000000 1.000000 4.000000 1.000000 -60.708740 114.000000 149.000000 0.846591 0.206743 0.490449
1090.00000000 5350.00000000 -530.00000000 3 178 165 97.000000 1.000000 4.000000 1.000000 -60.708740 114.000000 149.000000 0.733819 0.196200 0.650396
1080.00000000 5280.00000000 -530.00000000 3 178 165 97.000000 1.000000 4.000000 1.000000 -60.708740 114.000000 149.000000 0.709775 0.209671 0.672501
1040.00000000 5330.00000000 -540.00000000 3 178 165 97.000000 1.000000 4.000000 1.000000 -60.708740 114.000000 149.000000 0.456392 -0.321513 0.829660
1160.00000000 5070.00000000 -510.00000000 3 178 165 97.000000 1.000000 4.000000 1.000000 -60.708740 114.000000 149.000000 0.965737 0.208703 0.154259
1240.00000000 5390.00000000 -700.00000000 3 178 165 97.000000 1.000000 4.000000 1.000000 -60.708740 114.000000 149.000000 -0.261285 -0.124734 0.957169
1150.00000000 5390.00000000 -700.00000000 3 178 165 97.000000 1.000000 4.000000 1.000000 -60.708740 114.000000 149.000000 0.293952 -0.338716 0.893792
1330.00000000 5250.00000000 -720.00000000 3 178 165 97.000000 1.000000 4.000000 1.000000 -60.708740 114.000000 149.000000 -0.155224 -0.607334 0.779135
1310.00000000 5260.00000000 -710.00000000 3 178 165 97.000000 1.000000 4.000000 1.000000 -60.708740 114.000000 149.000000 -0.340261 -0.402409 0.849876
1330.00000000 5260.00000000 -710.00000000 3 178 165 97.000000 1.000000 4.000000 1.000000 -60.708740 114.000000 149.000000 0.133970 -0.552076 0.822961
1290.00000000 5220.00000000 -720.00000000 3 178 165 97.000000 1.000000 4.000000 1.000000 -60.708740 114.000000 149.000000 -0.204400 -0.087954 0.974928
1390.00000000 4990.00000000 -640.00000000 3 178 165 97.000000 1.000000 4.000000 1.000000 -60.708740 114.000000 149.000000 0.213013 -0.251493 0.944128
1260.00000000 4990.00000000 -160.00000000 3 178 165 97.000000 1.000000 4.000000 1.000000 -60.708740 114.000000 149.000000 -0.226266 -0.631984 0.741215
1330.00000000 4700.00000000 -350.00000000 3 178 165 97.000000 1.000000 4.000000 1.000000 -60.708740 114.000000 149.000000 0.610363 0.427421 -0.666909
1250.00000000 4760.00000000 -190.00000000 3 178 165 97.000000 1.000000 4.000000 1.000000 -60.708740 114.000000 149.000000 -0.660656 -0.159469 0.733556
1060.00000000 4910.00000000 -340.00000000 3 178 165 97.000000 1.000000 4.000000 1.000000 -60.708740 114.000000 149.000000 0.914012 0.336437 -0.226698
1030.00000000 4910.00000000 -330.00000000 3 178 165 97.000000 1.000000 4.000000 1.000000 -60.708740 114.000000 149.000000 0.960902 0.224780 -0.161684
1280.00000000 4910.00000000 -410.00000000 3 178 165 97.000000 1.000000 4.000000 1.000000 -60.708740 114.000000 149.000000 -0.298254 -0.437335 0.848400
1260.00000000 4900.00000000 -430.00000000 3 178 165 97.000000 1.000000 4.000000 1.000000 -60.708740 114.000000 149.000000 0.838009 0.283467 -0.466249
1320.00000000 4890.00000000 -410.00000000 3 178 165 97.000000 1.000000 4.000000 1.000000 -60.708740 114.000000 149.000000 -0.051838 -0.392106 0.918458
1330.00000000 4860.00000000 -420.00000000 3 178 165 97.000000 1.000000 4.000000 1.000000 -60.708740 114.000000 149.000000 -0.099847 -0.384344 0.917775
1200.00000000 4980.00000000 -520.00000000 3 178 165 97.000000 1.000000 4.000000 1.000000 -60.708740 114.000000 149.000000 0.914613 0.165394 0.368955
1220.00000000 4940.00000000 -500.00000000 3 178 165 97.000000 1.000000 4.000000 1.000000 -60.708740 114.000000 149.000000 0.800676 0.332687 0.498234
1220.00000000 4930.00000000 -490.00000000 3 178 165 97.000000 1.000000 4.000000 1.000000 -60.708740 114.000000 149.000000 0.741175 0.503471 0.444045
1220.00000000 4920.00000000 -490.00000000 3 178 165 97.000000 1.000000 4.000000 1.000000 -60.708740 114.000000 149.000000 0.745022 0.416094 0.521351
1250.00000000 4860.00000000 -510.00000000 3 178 165 97.000000 1.000000 4.000000 1.000000 -60.708740 114.000000 149.000000 0.900585 0.432119 0.047116
1200.00000000 4910.00000000 -450.00000000 3 178 165 97.000000 1.000000 4.000000 1.000000 -60.708740 114.000000 149.000000 0.927525 0.367006 0.070732
1210.00000000 4860.00000000 -490.00000000 3 178 165 97.000000 1.000000 4.000000 1.000000 -60.708740 114.000000 149.000000 0.747927 0.652763 -0.120441
1310.00000000 4980.00000000 -550.00000000 3 178 165 97.000000 1.000000 4.000000 1.000000 -60.708740 114.000000 149.000000 0.521887 -0.445675 0.727329
1340.00000000 4990.00000000 -600.00000000 3 178 165 97.000000 1.000000 4.000000 1.000000 -60.708740 114.000000 149.000000 0.107812 -0.312787 0.943685
1340.00000000 4940.00000000 -590.00000000 3 178 165 97.000000 1.000000 4.000000 1.000000 -60.708740 114.000000 149.000000 0.243110 -0.336278 0.909843
1340.00000000 4970.00000000 -570.00000000 3 178 165 97.000000 1.000000 4.000000 1.000000 -60.708740 114.000000 149.000000 -0.178757 0.017299 0.983741
1310.00000000 5000.00000000 -620.00000000 3 178 165 97.000000 1.000000 4.000000 1.000000 -60.708740 114.000000 149.000000 0.276110 -0.056735 0.959450
1310.00000000 4900.00000000 -570.00000000 3 178 165 97.000000 1.000000 4.000000 1.000000 -60.708740 114.000000 149.000000 0.617768 -0.358863 0.699700
1300.00000000 4890.00000000 -560.00000000 3 178 165 97.000000 1.000000 4.000000 1.000000 -60.708740 114.000000 149.000000 0.577088 -0.346253 0.739648
1290.00000000 4870.00000000 -530.00000000 3 178 165 97.000000 1.000000 4.000000 1.000000 -60.708740 114.000000 149.000000 0.878462 0.082399 0.470654
