//X Y Z R G B PointSourceId ScanDirectionFlag NumberOfReturns ReturnNumber GpsTime Intensity Classification Nx Ny Nz
-810.00000000 -18380.00000000 710.00000000 204 60 123 0.000000 0.000000 0.000000 0.000000 -60.708740 0.000000 127.000000 -0.231452 0.022785 0.972579
-790.00000000 -18310.00000000 700.00000000 204 60 123 0.000000 0.000000 0.000000 0.000000 -60.708740 0.000000 127.000000 -0.175096 0.043480 0.983591
-820.00000000 -18370.00000000 700.00000000 204 60 123 0.000000 0.000000 0.000000 0.000000 -60.708740 0.000000 127.000000 0.096961 0.571634 0.814759
-840.00000000 -18380.00000000 670.00000000 204 60 123 0.000000 0.000000 0.000000 0.000000 -60.708740 0.000000 127.000000 -0.107227 0.029847 0.993786
-820.00000000 -18470.00000000 710.00000000 204 60 123 0.000000 0.000000 0.000000 0.000000 -60.708740 0.000000 127.000000 0.166570 -0.161484 0.972717
-780.00000000 -18420.00000000 720.00000000 204 60 123 0.000000 0.000000 0.000000 0.000000 -60.708740 0.000000 127.000000 0.072672 0.342218 0.936806
-810.00000000 -18470.00000000 720.00000000 204 60 123 0.000000 0.000000 0.000000 0.000000 -60.708740 0.000000 127.000000 0.307647 -0.219748 0.925777
-760.00000000 -18400.00000000 700.00000000 204 60 123 0.000000 0.000000 0.000000 0.000000 -60.708740 0.000000 127.000000 0.080882 -0.094552 0.992229
-880.00000000 -18380.00000000 690.00000000 204 60 123 0.000000 0.000000 0.000000 0.000000 -60.708740 0.000000 127.000000 -0.533723 0.149324 0.832371
-880.00000000 -18360.00000000 660.00000000 204 60 123 0.000000 0.000000 0.000000 0.000000 -60.708740 0.000000 127.000000 0.069769 0.270196 0.960274
-850.00000000 -18330.00000000 700.00000000 204 60 123 0.000000 0.000000 0.000000 0.000000 -60.708740 0.000000 127.000000 -0.213041 -0.042127 0.976135
-860.00000000 -18460.00000000 700.00000000 204 60 123 0.000000 0.000000 0.000000 0.000000 -60.708740 0.000000 127.000000 -0.185692 -0.078889 0.979436
-880.00000000 -18470.00000000 720.00000000 204 60 123 0.000000 0.000000 0.000000 0.000000 -60.708740 0.000000 127.000000 0.036939 0.493884 0.868743
-890.00000000 -18450.00000000 700.00000000 204 60 123 0.000000 0.000000 0.000000 0.000000 -60.708740 0.000000 127.000000 0.088339 0.603892 0.792156
-920.00000000 -18470.00000000 680.00000000 204 60 123 0.000000 0.000000 0.000000 0.000000 -60.708740 0.000000 127.000000 -0.005347 0.093041 0.995648
-910.00000000 -18420.00000000 710.00000000 204 60 123 0.000000 0.000000 0.000000 0.000000 -60.708740 0.000000 127.000000 0.014420 0.423416 0.905821
-850.00000000 -18540.00000000 740.00000000 204 60 123 0.000000 0.000000 0.000000 0.000000 -60.708740 0.000000 127.000000 0.250936 -0.323461 0.912362
-860.00000000 -18520.00000000 740.00000000 204 60 123 0.000000 0.000000 0.000000 0.000000 -60.708740 0.000000 127.000000 -0.104727 -0.257292 0.960642
-860.00000000 -18540.00000000 750.00000000 204 60 123 0.000000 0.000000 0.000000 0.000000 -60.708740 0.000000 127.000000 0.215098 0.239759 0.946704
-930.00000000 -18550.00000000 740.00000000 204 60 123 0.000000 0.000000 0.000000 0.000000 -60.708740 0.000000 127.000000 -0.152742 0.193815 0.969075
-920.00000000 -18550.00000000 740.00000000 204 60 123 0.000000 0.000000 0.000000 0.000000 -60.708740 0.000000 127.000000 -0.053394 0.339896 0.938946
-920.00000000 -18520.00000000 710.00000000 204 60 123 0.000000 0.000000 0.000000 0.000000 -60.708740 0.000000 127.000000 0.228564 0.353765 0.906978
-980.00000000 -18560.00000000 750.00000000 204 60 123 0.000000 0.000000 0.000000 0.000000 -60.708740 0.000000 127.000000 0.106876 -0.003239 0.994267
-950.00000000 -18480.00000000 720.00000000 204 60 123 0.000000 0.000000 0.000000 0.000000 -60.708740 0.000000 127.000000 0.180847 0.406544 0.895554
-940.00000000 -18530.00000000 730.00000000 204 60 123 0.000000 0.000000 0.000000 0.000000 -60.708740 0.000000 127.000000 0.028119 0.131596 0.990905
-950.00000000 -18500.00000000 720.00000000 204 60 123 0.000000 0.000000 0.000000 0.000000 -60.708740 0.000000 127.000000 -0.464092 0.301582 0.832866
-1000.00000000 -18520.00000000 720.00000000 204 60 123 0.000000 0.000000 0.000000 0.000000 -60.708740 0.000000 127.000000 -0.109331 0.464300 0.878904
-770.00000000 -18170.00000000 650.00000000 204 60 123 0.000000 0.000000 0.000000 0.000000 -60.708740 0.000000 127.000000 0.046320 0.576891 0.815507
-880.00000000 -18580.00000000 750.00000000 204 60 123 0.000000 0.000000 0.000000 0.000000 -60.708740 0.000000 127.000000 0.165311 0.001125 0.986241
-880.00000000 -18570.00000000 750.00000000 204 60 123 0.000000 0.000000 0.000000 0.000000 -60.708740 0.000000 127.000000 0.224058 0.029954 0.974115
-880.00000000 -18570.00000000 740.00000000 204 60 123 0.000000 0.000000 0.000000 0.000000 -60.708740 0.000000 127.000000 0.205100 0.237699 0.949438
-940.00000000 -18570.00000000 760.00000000 204 60 123 0.000000 0.000000 0.000000 0.000000 -60.708740 0.000000 127.000000 0.074830 0.523809 0.848543
-1010.00000000 -18620.00000000 760.00000000 204 60 123 0.000000 0.000000 0.000000 0.000000 -60.708740 0.000000 127.000000 0.306699 -0.047087 0.950641
-1010.00000000 -18580.00000000 730.00000000 204 60 123 0.000000 0.000000 0.000000 0.000000 -60.708740 0.000000 127.000000 -0.150976 0.123972 0.980733
-980.00000000 -18570.00000000 720.00000000 204 60 123 0.000000 0.000000 0.000000 0.000000 -60.708740 0.000000 127.000000 -0.079055 0.582135 0.809240
-940.00000000 -18660.00000000 760.00000000 204 60 123 0.000000 0.000000 0.000000 0.000000 -60.708740 0.000000 127.000000 0.342379 0.151090 0.927334
-970.00000000 -18650.00000000 770.00000000 204 60 123 0.000000 0.000000 0.000000 0.000000 -60.708740 0.000000 127.000000 0.155472 0.400803 0.902876
-1030.00000000 -18560.00000000 740.00000000 204 60 123 0.000000 0.000000 0.000000 0.000000 -60.708740 0.000000 127.000000 -0.341409 -0.050627 0.938550
-1030.00000000 -18530.00000000 700.00000000 204 60 123 0.000000 0.000000 0.000000 0.000000 -60.708740 0.000000 127.000000 0.664094 -0.395807 -0.634284
-1100.00000000 -18520.00000000 720.00000000 204 60 123 0.000000 0.000000 0.000000 0.000000 -60.708740 0.000000 127.000000 -0.335268 0.109063 0.935789
-1070.00000000 -18610.00000000 770.00000000 204 60 123 0.000000 0.000000 0.000000 0.000000 -60.708740 0.000000 127.000000 0.014760 0.162355 0.986622
-1020.00000000 -18630.00000000 740.00000000 204 60 123 0.000000 0.000000 0.000000 0.000000 -60.708740 0.000000 127.000000 -0.457000 0.162067 0.874577
-1100.00000000 -18640.00000000 780.00000000 204 60 123 0.000000 0.000000 0.000000 0.000000 -60.708740 0.000000 127.000000 0.135226 0.215074 0.967190
-1080.00000000 -18580.00000000 730.00000000 204 60 123 0.000000 0.000000 0.000000 0.000000 -60.708740 0.000000 127.000000 -0.339556 0.181754 0.922858
-1080.00000000 -18580.00000000 730.00000000 204 60 123 0.000000 0.000000 0.000000 0.000000 -60.708740 0.000000 127.000000 -0.339556 0.181754 0.922858
-1040.00000000 -18580.00000000 700.00000000 204 60 123 0.000000 0.000000 0.000000 0.000000 -60.708740 0.000000 127.000000 -0.036973 0.045425 0.998283
-1080.00000000 -18690.00000000 760.00000000 204 60 123 0.000000 0.000000 0.000000 0.000000 -60.708740 0.000000 127.000000 -0.320720 0.388240 0.863949
-1090.00000000 -18690.00000000 730.00000000 204 60 123 0.000000 0.000000 0.000000 0.000000 -60.708740 0.000000 127.000000 -0.139723 0.453740 0.880112
-1130.00000000 -18590.00000000 750.00000000 204 60 123 0.000000 0.000000 0.000000 0.000000 -60.708740 0.000000 127.000000 0.029868 0.370105 0.928510
-1110.00000000 -18630.00000000 740.00000000 204 60 123 0.000000 0.000000 0.000000 0.000000 -60.708740 0.000000 127.000000 0.317474 -0.534441 -0.783315
-1130.00000000 -18630.00000000 780.00000000 204 60 123 0.000000 0.000000 0.000000 0.000000 -60.708740 0.000000 127.000000 -0.043881 0.279586 0.959117
-1130.00000000 -18620.00000000 780.00000000 204 60 123 0.000000 0.000000 0.000000 0.000000 -60.708740 0.000000 127.000000 -0.265347 0.668929 0.694352
-1150.00000000 -18620.00000000 770.00000000 204 60 123 0.000000 0.000000 0.000000 0.000000 -60.708740 0.000000 127.000000 -0.209499 0.724712 0.656431
-1170.00000000 -18720.00000000 770.00000000 204 60 123 0.000000 0.000000 0.000000 0.000000 -60.708740 0.000000 127.000000 0.064460 0.445735 0.892841
-1150.00000000 -18690.00000000 800.00000000 204 60 123 0.000000 0.000000 0.000000 0.000000 -60.708740 0.000000 127.000000 -0.100628 0.602308 0.791896
-1110.00000000 -18660.00000000 760.00000000 204 60 123 0.000000 0.000000 0.000000 0.000000 -60.708740 0.000000 127.000000 -0.178631 0.274082 0.944971
-1110.00000000 -18700.00000000 790.00000000 204 60 123 0.000000 0.000000 0.000000 0.000000 -60.708740 0.000000 127.000000 0.071435 0.502845 0.861420
-1110.00000000 -18700.00000000 790.00000000 204 60 123 0.000000 0.000000 0.000000 0.000000 -60.708740 0.000000 127.000000 0.071435 0.502845 0.861420
-1140.00000000 -18780.00000000 840.00000000 204 60 123 0.000000 0.000000 0.000000 0.000000 -60.708740 0.000000 127.000000 -0.057014 0.095024 0.993841
-1110.00000000 -18770.00000000 830.00000000 204 60 123 0.000000 0.000000 0.000000 0.000000 -60.708740 0.000000 127.000000 0.005616 0.158382 0.987362
-1050.00000000 -18780.00000000 850.00000000 204 60 123 0.000000 0.000000 0.000000 0.000000 -60.708740 0.000000 127.000000 -0.060067 -0.022130 0.997949
-1100.00000000 -18760.00000000 820.00000000 204 60 123 0.000000 0.000000 0.000000 0.000000 -60.708740 0.000000 127.000000 0.115621 0.344143 0.931771
-1130.00000000 -18780.00000000 810.00000000 204 60 123 0.000000 0.000000 0.000000 0.000000 -60.708740 0.000000 127.000000 -0.077501 0.013802 0.996897
-1110.00000000 -18780.00000000 790.00000000 204 60 123 0.000000 0.000000 0.000000 0.000000 -60.708740 0.000000 127.000000 -0.036993 -0.119948 0.992091
-1170.00000000 -18750.00000000 770.00000000 204 60 123 0.000000 0.000000 0.000000 0.000000 -60.708740 0.000000 127.000000 -0.259446 0.048413 0.964543
-1160.00000000 -18780.00000000 780.00000000 204 60 123 0.000000 0.000000 0.000000 0.000000 -60.708740 0.000000 127.000000 -0.109414 0.341751 0.933399
-1190.00000000 -18620.00000000 750.00000000 204 60 123 0.000000 0.000000 0.000000 0.000000 -60.708740 0.000000 127.000000 -0.294208 0.366628 0.882624
-1230.00000000 -18640.00000000 780.00000000 204 60 123 0.000000 0.000000 0.000000 0.000000 -60.708740 0.000000 127.000000 0.293908 -0.498229 -0.815712
-1230.00000000 -18730.00000000 810.00000000 204 60 123 0.000000 0.000000 0.000000 0.000000 -60.708740 0.000000 127.000000 -0.064370 0.619379 0.782449
-1200.00000000 -18690.00000000 760.00000000 204 60 123 0.000000 0.000000 0.000000 0.000000 -60.708740 0.000000 127.000000 -0.348028 0.762424 0.545514
-1200.00000000 -18780.00000000 840.00000000 204 60 123 0.000000 0.000000 0.000000 0.000000 -60.708740 0.000000 127.000000 0.064941 0.026615 0.997534
-1260.00000000 -18760.00000000 780.00000000 204 60 123 0.000000 0.000000 0.000000 0.000000 -60.708740 0.000000 127.000000 -0.379686 0.698557 0.606512
-1210.00000000 -18770.00000000 780.00000000 204 60 123 0.000000 0.000000 0.000000 0.000000 -60.708740 0.000000 127.000000 -0.227526 0.568041 0.790924
-1270.00000000 -18830.00000000 810.00000000 204 60 123 0.000000 0.000000 0.000000 0.000000 -60.708740 0.000000 127.000000 0.014704 0.157223 0.987454
-1190.00000000 -18880.00000000 810.00000000 204 60 123 0.000000 0.000000 0.000000 0.000000 -60.708740 0.000000 127.000000 0.301875 0.431914 0.849895
-1270.00000000 -18840.00000000 780.00000000 204 60 123 0.000000 0.000000 0.000000 0.000000 -60.708740 0.000000 127.000000 -0.498545 0.416816 0.760077
-1250.00000000 -18840.00000000 820.00000000 204 60 123 0.000000 0.000000 0.000000 0.000000 -60.708740 0.000000 127.000000 -0.285593 0.140785 0.947954
-1210.00000000 -18820.00000000 780.00000000 204 60 123 0.000000 0.000000 0.000000 0.000000 -60.708740 0.000000 127.000000 0.156261 0.289423 0.944361
-1250.00000000 -18830.00000000 810.00000000 204 60 123 0.000000 0.000000 0.000000 0.000000 -60.708740 0.000000 127.000000 -0.208779 0.604685 0.768614
-1250.00000000 -18840.00000000 820.00000000 204 60 123 0.000000 0.000000 0.000000 0.000000 -60.708740 0.000000 127.000000 -0.285593 0.140785 0.947954
-1310.00000000 -18810.00000000 800.00000000 204 60 123 0.000000 0.000000 0.000000 0.000000 -60.708740 0.000000 127.000000 -0.070728 0.176222 0.981806
-1300.00000000 -18880.00000000 780.00000000 204 60 123 0.000000 0.000000 0.000000 0.000000 -60.708740 0.000000 127.000000 -0.254589 0.411259 0.875243
-1310.00000000 -18880.00000000 790.00000000 204 60 123 0.000000 0.000000 0.000000 0.000000 -60.708740 0.000000 127.000000 -0.240925 0.346055 0.906753
-1300.00000000 -18880.00000000 800.00000000 204 60 123 0.000000 0.000000 0.000000 0.000000 -60.708740 0.000000 127.000000 -0.547575 0.216269 0.808325
-1230.00000000 -18900.00000000 800.00000000 204 60 123 0.000000 0.000000 0.000000 0.000000 -60.708740 0.000000 127.000000 -0.101943 0.305829 0.946613
-1270.00000000 -18910.00000000 800.00000000 204 60 123 0.000000 0.000000 0.000000 0.000000 -60.708740 0.000000 127.000000 0.297162 0.273969 0.914678
-1260.00000000 -18930.00000000 790.00000000 204 60 123 0.000000 0.000000 0.000000 0.000000 -60.708740 0.000000 127.000000 -0.266609 0.139273 0.953689
-1350.00000000 -18970.00000000 780.00000000 204 60 123 0.000000 0.000000 0.000000 0.000000 -60.708740 0.000000 127.000000 -0.267397 -0.020757 0.963363
-1310.00000000 -18900.00000000 800.00000000 204 60 123 0.000000 0.000000 0.000000 0.000000 -60.708740 0.000000 127.000000 -0.342017 0.363489 0.866545
-1280.00000000 -18930.00000000 780.00000000 204 60 123 0.000000 0.000000 0.000000 0.000000 -60.708740 0.000000 127.000000 -0.112583 0.012023 0.993570
-1330.00000000 -18920.00000000 790.00000000 204 60 123 0.000000 0.000000 0.000000 0.000000 -60.708740 0.000000 127.000000 -0.344629 0.329447 0.879031
-1310.00000000 -19000.00000000 810.00000000 204 60 123 0.000000 0.000000 0.000000 0.000000 -60.708740 0.000000 127.000000 0.007215 -0.048445 0.998800
-1290.00000000 -19010.00000000 810.00000000 204 60 123 0.000000 0.000000 0.000000 0.000000 -60.708740 0.000000 127.000000 -0.080151 0.490752 0.867605
-1340.00000000 -19210.00000000 800.00000000 204 60 123 0.000000 0.000000 0.000000 0.000000 -60.708740 0.000000 127.000000 0.087015 0.075714 0.993326
-1380.00000000 -18860.00000000 780.00000000 204 60 123 0.000000 0.000000 0.000000 0.000000 -60.708740 0.000000 127.000000 -0.377056 0.141571 0.915307
-1390.00000000 -18870.00000000 770.00000000 204 60 123 0.000000 0.000000 0.000000 0.000000 -60.708740 0.000000 127.000000 -0.358607 0.252353 0.898732
-1460.00000000 -18870.00000000 760.00000000 204 60 123 0.000000 0.000000 0.000000 0.000000 -60.708740 0.000000 127.000000 -0.541807 0.545183 0.639704
-1370.00000000 -18870.00000000 780.00000000 204 60 123 0.000000 0.000000 0.000000 0.000000 -60.708740 0.000000 127.000000 -0.314636 0.293956 0.902548
-1590.00000000 -18870.00000000 770.00000000 204 60 123 0.000000 0.000000 0.000000 0.000000 -60.708740 0.000000 127.000000 0.736429 -0.468336 -0.488195
-1620.00000000 -18780.00000000 740.00000000 204 60 123 0.000000 0.000000 0.000000 0.000000 -60.708740 0.000000 127.000000 0.795673 -0.591198 -0.131871
-1660.00000000 -18840.00000000 740.00000000 204 60 123 0.000000 0.000000 0.000000 0.000000 -60.708740 0.000000 127.000000 -0.571896 0.619132 0.538155
-1420.00000000 -18900.00000000 770.00000000 204 60 123 0.000000 0.000000 0.000000 0.000000 -60.708740 0.000000 127.000000 -0.550578 0.755217 0.355683
-1430.00000000 -18910.00000000 760.00000000 204 60 123 0.000000 0.000000 0.000000 0.000000 -60.708740 0.000000 127.000000 -0.357521 0.729735 0.582808
-1430.00000000 -18930.00000000 740.00000000 204 60 123 0.000000 0.000000 0.000000 0.000000 -60.708740 0.000000 127.000000 -0.486374 0.379727 0.786923
-1430.00000000 -18950.00000000 790.00000000 204 60 123 0.000000 0.000000 0.000000 0.000000 -60.708740 0.000000 127.000000 -0.450272 0.345998 0.823128
-1380.00000000 -18910.00000000 800.00000000 204 60 123 0.000000 0.000000 0.000000 0.000000 -60.708740 0.000000 127.000000 -0.185862 0.350441 0.917958
-1430.00000000 -18910.00000000 780.00000000 204 60 123 0.000000 0.000000 0.000000 0.000000 -60.708740 0.000000 127.000000 -0.240518 0.649240 0.721553
-1370.00000000 -18920.00000000 780.00000000 204 60 123 0.000000 0.000000 0.000000 0.000000 -60.708740 0.000000 127.000000 -0.261362 0.174693 0.949301
-1390.00000000 -18940.00000000 780.00000000 204 60 123 0.000000 0.000000 0.000000 0.000000 -60.708740 0.000000 127.000000 -0.410228 0.178297 0.894384
-1390.00000000 -19030.00000000 790.00000000 204 60 123 0.000000 0.000000 0.000000 0.000000 -60.708740 0.000000 127.000000 -0.267672 0.593947 0.758669
-1400.00000000 -18990.00000000 770.00000000 204 60 123 0.000000 0.000000 0.000000 0.000000 -60.708740 0.000000 127.000000 -0.442356 0.288225 0.849263
-1450.00000000 -19040.00000000 800.00000000 204 60 123 0.000000 0.000000 0.000000 0.000000 -60.708740 0.000000 127.000000 -0.164790 0.149695 0.974903
-1490.00000000 -19050.00000000 660.00000000 204 60 123 0.000000 0.000000 0.000000 0.000000 -60.708740 0.000000 127.000000 -0.646910 0.759291 0.070598
-1450.00000000 -19230.00000000 830.00000000 204 60 123 0.000000 0.000000 0.000000 0.000000 -60.708740 0.000000 127.000000 -0.291492 0.021087 0.956341
-1360.00000000 -19080.00000000 790.00000000 204 60 123 0.000000 0.000000 0.000000 0.000000 -60.708740 0.000000 127.000000 -0.010880 0.000989 0.999940
-1360.00000000 -19100.00000000 780.00000000 204 60 123 0.000000 0.000000 0.000000 0.000000 -60.708740 0.000000 127.000000 0.149105 -0.134318 0.979656
-1370.00000000 -19130.00000000 810.00000000 204 60 123 0.000000 0.000000 0.000000 0.000000 -60.708740 0.000000 127.000000 -0.103486 0.043397 0.993684
-1370.00000000 -19130.00000000 810.00000000 204 60 123 0.000000 0.000000 0.000000 0.000000 -60.708740 0.000000 127.000000 -0.103486 0.043397 0.993684
-1420.00000000 -19110.00000000 800.00000000 204 60 123 0.000000 0.000000 0.000000 0.000000 -60.708740 0.000000 127.000000 -0.500039 0.275723 0.820937
-1380.00000000 -19200.00000000 750.00000000 204 60 123 0.000000 0.000000 0.000000 0.000000 -60.708740 0.000000 127.000000 0.627369 0.043902 0.777484
-1430.00000000 -19210.00000000 780.00000000 204 60 123 0.000000 0.000000 0.000000 0.000000 -60.708740 0.000000 127.000000 -0.035716 0.262324 0.964319
-1440.00000000 -19120.00000000 780.00000000 204 60 123 0.000000 0.000000 0.000000 0.000000 -60.708740 0.000000 127.000000 0.005846 0.216308 0.976308
-1480.00000000 -19120.00000000 710.00000000 204 60 123 0.000000 0.000000 0.000000 0.000000 -60.708740 0.000000 127.000000 -0.171685 0.364653 0.915179
-1440.00000000 -19150.00000000 700.00000000 204 60 123 0.000000 0.000000 0.000000 0.000000 -60.708740 0.000000 127.000000 -0.192692 0.322091 0.926891
-1470.00000000 -19150.00000000 680.00000000 204 60 123 0.000000 0.000000 0.000000 0.000000 -60.708740 0.000000 127.000000 -0.578883 0.225035 0.783743
-1490.00000000 -19100.00000000 700.00000000 204 60 123 0.000000 0.000000 0.000000 0.000000 -60.708740 0.000000 127.000000 0.760281 -0.385838 -0.522591
-1510.00000000 -19090.00000000 670.00000000 204 60 123 0.000000 0.000000 0.000000 0.000000 -60.708740 0.000000 127.000000 -0.643975 0.663739 0.380456
-1540.00000000 -18930.00000000 760.00000000 204 60 123 0.000000 0.000000 0.000000 0.000000 -60.708740 0.000000 127.000000 0.740030 -0.392167 -0.546408
-1540.00000000 -18920.00000000 770.00000000 204 60 123 0.000000 0.000000 0.000000 0.000000 -60.708740 0.000000 127.000000 0.877891 -0.319922 -0.356311
-1660.00000000 -18930.00000000 660.00000000 204 60 123 0.000000 0.000000 0.000000 0.000000 -60.708740 0.000000 127.000000 0.839845 -0.526185 -0.133378
-1570.00000000 -19100.00000000 690.00000000 204 60 123 0.000000 0.000000 0.000000 0.000000 -60.708740 0.000000 127.000000 0.877034 -0.456637 -0.149313
-1530.00000000 -19120.00000000 680.00000000 204 60 123 0.000000 0.000000 0.000000 0.000000 -60.708740 0.000000 127.000000 -0.547386 0.812694 0.199743
-1630.00000000 -18880.00000000 640.00000000 204 60 123 0.000000 0.000000 0.000000 0.000000 -60.708740 0.000000 127.000000 -0.618990 0.784615 0.035090
-1610.00000000 -19050.00000000 650.00000000 204 60 123 0.000000 0.000000 0.000000 0.000000 -60.708740 0.000000 127.000000 -0.458669 0.871910 0.171451
-1670.00000000 -18990.00000000 630.00000000 204 60 123 0.000000 0.000000 0.000000 0.000000 -60.708740 0.000000 127.000000 0.855928 -0.516295 -0.028759
-1680.00000000 -19190.00000000 560.00000000 204 60 123 0.000000 0.000000 0.000000 0.000000 -60.708740 0.000000 127.000000 0.919831 -0.380197 0.096753
-1660.00000000 -19160.00000000 550.00000000 204 60 123 0.000000 0.000000 0.000000 0.000000 -60.708740 0.000000 127.000000 0.869345 -0.491848 0.048220
-1400.00000000 -19270.00000000 830.00000000 204 60 123 0.000000 0.000000 0.000000 0.000000 -60.708740 0.000000 127.000000 0.196340 -0.111301 0.974198
-1420.00000000 -19300.00000000 840.00000000 204 60 123 0.000000 0.000000 0.000000 0.000000 -60.708740 0.000000 127.000000 0.262344 0.201909 0.943615
-1430.00000000 -19300.00000000 800.00000000 204 60 123 0.000000 0.000000 0.000000 0.000000 -60.708740 0.000000 127.000000 0.330026 -0.268421 0.905004
-1430.00000000 -19280.00000000 810.00000000 204 60 123 0.000000 0.000000 0.000000 0.000000 -60.708740 0.000000 127.000000 0.543135 0.143553 0.827282
-1380.00000000 -19390.00000000 810.00000000 204 60 123 0.000000 0.000000 0.000000 0.000000 -60.708740 0.000000 127.000000 0.831807 -0.331779 0.444993
-1440.00000000 -19270.00000000 780.00000000 204 60 123 0.000000 0.000000 0.000000 0.000000 -60.708740 0.000000 127.000000 0.421432 -0.156778 0.893205
-1460.00000000 -19300.00000000 770.00000000 204 60 123 0.000000 0.000000 0.000000 0.000000 -60.708740 0.000000 127.000000 0.496234 -0.051144 0.866681
-1460.00000000 -19350.00000000 800.00000000 204 60 123 0.000000 0.000000 0.000000 0.000000 -60.708740 0.000000 127.000000 0.066497 -0.413909 0.907886
-1480.00000000 -19360.00000000 750.00000000 204 60 123 0.000000 0.000000 0.000000 0.000000 -60.708740 0.000000 127.000000 -0.485359 0.525389 -0.698851
-1470.00000000 -19360.00000000 780.00000000 204 60 123 0.000000 0.000000 0.000000 0.000000 -60.708740 0.000000 127.000000 0.741480 -0.178873 0.646693
-1480.00000000 -19370.00000000 780.00000000 204 60 123 0.000000 0.000000 0.000000 0.000000 -60.708740 0.000000 127.000000 0.160511 -0.387783 0.907668
-1410.00000000 -19460.00000000 840.00000000 204 60 123 0.000000 0.000000 0.000000 0.000000 -60.708740 0.000000 127.000000 0.399813 -0.301774 0.865495
-1380.00000000 -19430.00000000 830.00000000 204 60 123 0.000000 0.000000 0.000000 0.000000 -60.708740 0.000000 127.000000 0.609379 -0.001369 0.792878
-1560.00000000 -19320.00000000 690.00000000 204 60 123 0.000000 0.000000 0.000000 0.000000 -60.708740 0.000000 127.000000 -0.031375 0.503368 0.863502
-1590.00000000 -19280.00000000 680.00000000 204 60 123 0.000000 0.000000 0.000000 0.000000 -60.708740 0.000000 127.000000 0.435458 -0.602300 -0.669037
-1600.00000000 -19320.00000000 710.00000000 204 60 123 0.000000 0.000000 0.000000 0.000000 -60.708740 0.000000 127.000000 -0.226650 0.723718 0.651815
-1570.00000000 -19320.00000000 690.00000000 204 60 123 0.000000 0.000000 0.000000 0.000000 -60.708740 0.000000 127.000000 -0.198114 0.313330 0.928749
-1590.00000000 -19350.00000000 720.00000000 204 60 123 0.000000 0.000000 0.000000 0.000000 -60.708740 0.000000 127.000000 0.148112 0.497128 0.854943
-1590.00000000 -19330.00000000 680.00000000 204 60 123 0.000000 0.000000 0.000000 0.000000 -60.708740 0.000000 127.000000 -0.660342 0.686174 0.305146
-1570.00000000 -19340.00000000 720.00000000 204 60 123 0.000000 0.000000 0.000000 0.000000 -60.708740 0.000000 127.000000 -0.283774 0.319061 0.904252
-1590.00000000 -19350.00000000 720.00000000 204 60 123 0.000000 0.000000 0.000000 0.000000 -60.708740 0.000000 127.000000 0.148112 0.497128 0.854943
-1580.00000000 -19360.00000000 690.00000000 204 60 123 0.000000 0.000000 0.000000 0.000000 -60.708740 0.000000 127.000000 -0.088830 0.100367 0.990977
-1610.00000000 -19300.00000000 680.00000000 204 60 123 0.000000 0.000000 0.000000 0.000000 -60.708740 0.000000 127.000000 -0.333355 0.840431 0.427258
-1630.00000000 -19360.00000000 690.00000000 204 60 123 0.000000 0.000000 0.000000 0.000000 -60.708740 0.000000 127.000000 -0.605592 0.768932 0.204946
-1630.00000000 -19360.00000000 690.00000000 204 60 123 0.000000 0.000000 0.000000 0.000000 -60.708740 0.000000 127.000000 -0.605592 0.768932 0.204946
-1620.00000000 -19360.00000000 680.00000000 204 60 123 0.000000 0.000000 0.000000 0.000000 -60.708740 0.000000 127.000000 0.713903 -0.524195 -0.464287
-1620.00000000 -19350.00000000 680.00000000 204 60 123 0.000000 0.000000 0.000000 0.000000 -60.708740 0.000000 127.000000 -0.755949 0.558464 0.341553
-1610.00000000 -19340.00000000 670.00000000 204 60 123 0.000000 0.000000 0.000000 0.000000 -60.708740 0.000000 127.000000 0.768907 -0.626131 -0.129391
-1620.00000000 -19350.00000000 700.00000000 204 60 123 0.000000 0.000000 0.000000 0.000000 -60.708740 0.000000 127.000000 -0.317490 0.451994 0.833608
-1580.00000000 -19510.00000000 770.00000000 204 60 123 0.000000 0.000000 0.000000 0.000000 -60.708740 0.000000 127.000000 0.754170 -0.299426 0.584442
-1580.00000000 -19540.00000000 780.00000000 204 60 123 0.000000 0.000000 0.000000 0.000000 -60.708740 0.000000 127.000000 0.471927 -0.541966 0.695384
-1570.00000000 -19510.00000000 760.00000000 204 60 123 0.000000 0.000000 0.000000 0.000000 -60.708740 0.000000 127.000000 0.431638 -0.409174 0.803906
-1410.00000000 -19580.00000000 870.00000000 204 60 123 0.000000 0.000000 0.000000 0.000000 -60.708740 0.000000 127.000000 0.398168 -0.404514 0.823305
-1740.00000000 -18840.00000000 590.00000000 204 60 123 0.000000 0.000000 0.000000 0.000000 -60.708740 0.000000 127.000000 0.718079 -0.583337 -0.379580
-1740.00000000 -19050.00000000 510.00000000 204 60 123 0.000000 0.000000 0.000000 0.000000 -60.708740 0.000000 127.000000 0.740988 -0.669876 -0.046934
-1760.00000000 -19140.00000000 570.00000000 204 60 123 0.000000 0.000000 0.000000 0.000000 -60.708740 0.000000 127.000000 -0.513277 0.661370 -0.546934
-1750.00000000 -19180.00000000 570.00000000 204 60 123 0.000000 0.000000 0.000000 0.000000 -60.708740 0.000000 127.000000 -0.598869 0.478089 -0.642485
-1760.00000000 -19210.00000000 550.00000000 204 60 123 0.000000 0.000000 0.000000 0.000000 -60.708740 0.000000 127.000000 0.734613 -0.447371 0.510102
-1770.00000000 -19170.00000000 560.00000000 204 60 123 0.000000 0.000000 0.000000 0.000000 -60.708740 0.000000 127.000000 0.738930 -0.457905 0.494273
-1790.00000000 -19200.00000000 610.00000000 204 60 123 0.000000 0.000000 0.000000 0.000000 -60.708740 0.000000 127.000000 0.904535 -0.418639 -0.080983
-1780.00000000 -19170.00000000 550.00000000 204 60 123 0.000000 0.000000 0.000000 0.000000 -60.708740 0.000000 127.000000 0.794612 -0.600663 -0.088290
-1720.00000000 -19070.00000000 440.00000000 204 60 123 0.000000 0.000000 0.000000 0.000000 -60.708740 0.000000 127.000000 0.601825 -0.431780 0.671843
-1750.00000000 -19140.00000000 450.00000000 204 60 123 0.000000 0.000000 0.000000 0.000000 -60.708740 0.000000 127.000000 0.547051 -0.202668 0.812195
-680.00000000 -18240.00000000 680.00000000 204 60 123 0.000000 0.000000 0.000000 0.000000 -60.708740 0.000000 127.000000 -0.109185 0.025366 0.993698
-750.00000000 -18210.00000000 670.00000000 204 60 123 0.000000 0.000000 0.000000 0.000000 -60.708740 0.000000 127.000000 -0.093187 0.128575 0.987312
-770.00000000 -18200.00000000 670.00000000 204 60 123 0.000000 0.000000 0.000000 0.000000 -60.708740 0.000000 127.000000 0.006475 0.407932 0.912990
-730.00000000 -18240.00000000 690.00000000 204 60 123 0.000000 0.000000 0.000000 0.000000 -60.708740 0.000000 127.000000 0.305688 0.223223 0.925595
-710.00000000 -18270.00000000 680.00000000 204 60 123 0.000000 0.000000 0.000000 0.000000 -60.708740 0.000000 127.000000 -0.023087 0.501117 0.865072
-690.00000000 -18300.00000000 690.00000000 204 60 123 0.000000 0.000000 0.000000 0.000000 -60.708740 0.000000 127.000000 -0.033651 -0.168256 0.985169
-760.00000000 -18370.00000000 720.00000000 204 60 123 0.000000 0.000000 0.000000 0.000000 -60.708740 0.000000 127.000000 -0.014401 0.129610 0.991461
-700.00000000 -18320.00000000 690.00000000 204 60 123 0.000000 0.000000 0.000000 0.000000 -60.708740 0.000000 127.000000 0.027050 -0.198758 0.979675
-800.00000000 -18300.00000000 690.00000000 204 60 123 0.000000 0.000000 0.000000 0.000000 -60.708740 0.000000 127.000000 -0.350249 0.211879 0.912378
-790.00000000 -18320.00000000 720.00000000 204 60 123 0.000000 0.000000 0.000000 0.000000 -60.708740 0.000000 127.000000 0.286367 0.424191 0.859102
-790.00000000 -18320.00000000 660.00000000 204 60 123 0.000000 0.000000 0.000000 0.000000 -60.708740 0.000000 127.000000 -0.473616 0.131000 0.870935
-820.00000000 -18390.00000000 690.00000000 204 60 123 0.000000 0.000000 0.000000 0.000000 -60.708740 0.000000 127.000000 0.090087 0.120506 0.988617
-840.00000000 -18370.00000000 660.00000000 204 60 123 0.000000 0.000000 0.000000 0.000000 -60.708740 0.000000 127.000000 0.085460 0.087739 0.992471
-800.00000000 -18460.00000000 690.00000000 204 60 123 0.000000 0.000000 0.000000 0.000000 -60.708740 0.000000 127.000000 0.155703 0.282974 0.946405
-870.00000000 -18370.00000000 690.00000000 204 60 123 0.000000 0.000000 0.000000 0.000000 -60.708740 0.000000 127.000000 -0.156000 0.680038 0.716388
-850.00000000 -18390.00000000 700.00000000 204 60 123 0.000000 0.000000 0.000000 0.000000 -60.708740 0.000000 127.000000 -0.011676 0.398272 0.917193
-890.00000000 -18440.00000000 700.00000000 204 60 123 0.000000 0.000000 0.000000 0.000000 -60.708740 0.000000 127.000000 -0.035288 0.142289 0.989196
-900.00000000 -18450.00000000 710.00000000 204 60 123 0.000000 0.000000 0.000000 0.000000 -60.708740 0.000000 127.000000 -0.001079 -0.111142 0.993804
-890.00000000 -18460.00000000 710.00000000 204 60 123 0.000000 0.000000 0.000000 0.000000 -60.708740 0.000000 127.000000 -0.079201 0.371844 0.924911
-890.00000000 -18520.00000000 740.00000000 204 60 123 0.000000 0.000000 0.000000 0.000000 -60.708740 0.000000 127.000000 0.313897 0.384332 0.868192
-870.00000000 -18510.00000000 750.00000000 204 60 123 0.000000 0.000000 0.000000 0.000000 -60.708740 0.000000 127.000000 -0.032442 0.119700 0.992280
-890.00000000 -18520.00000000 750.00000000 204 60 123 0.000000 0.000000 0.000000 0.000000 -60.708740 0.000000 127.000000 -0.041003 0.100846 0.994057
-930.00000000 -18550.00000000 740.00000000 204 60 123 0.000000 0.000000 0.000000 0.000000 -60.708740 0.000000 127.000000 -0.152742 0.193815 0.969075
-1000.00000000 -18470.00000000 700.00000000 204 60 123 0.000000 0.000000 0.000000 0.000000 -60.708740 0.000000 127.000000 0.017666 0.523181 0.852038
-960.00000000 -18540.00000000 740.00000000 204 60 123 0.000000 0.000000 0.000000 0.000000 -60.708740 0.000000 127.000000 -0.051185 0.066432 0.996477
-960.00000000 -18510.00000000 720.00000000 204 60 123 0.000000 0.000000 0.000000 0.000000 -60.708740 0.000000 127.000000 -0.398108 0.336146 0.853531
-950.00000000 -18540.00000000 730.00000000 204 60 123 0.000000 0.000000 0.000000 0.000000 -60.708740 0.000000 127.000000 0.150976 0.123972 0.980733
-970.00000000 -18520.00000000 720.00000000 204 60 123 0.000000 0.000000 0.000000 0.000000 -60.708740 0.000000 127.000000 -0.141973 0.611233 0.778613
-670.00000000 -18180.00000000 650.00000000 204 60 123 0.000000 0.000000 0.000000 0.000000 -60.708740 0.000000 127.000000 -0.180627 -0.137680 0.973868
-970.00000000 -18580.00000000 730.00000000 204 60 123 0.000000 0.000000 0.000000 0.000000 -60.708740 0.000000 127.000000 0.279163 0.152393 0.948074
-990.00000000 -18610.00000000 760.00000000 204 60 123 0.000000 0.000000 0.000000 0.000000 -60.708740 0.000000 127.000000 -0.219262 0.060021 0.973818
-970.00000000 -18580.00000000 730.00000000 204 60 123 0.000000 0.000000 0.000000 0.000000 -60.708740 0.000000 127.000000 0.279163 0.152393 0.948074
-960.00000000 -18610.00000000 770.00000000 204 60 123 0.000000 0.000000 0.000000 0.000000 -60.708740 0.000000 127.000000 0.115453 -0.250364 0.961243
-1040.00000000 -18530.00000000 750.00000000 204 60 123 0.000000 0.000000 0.000000 0.000000 -60.708740 0.000000 127.000000 -0.509042 0.227769 0.830059
-1050.00000000 -18570.00000000 750.00000000 204 60 123 0.000000 0.000000 0.000000 0.000000 -60.708740 0.000000 127.000000 0.167050 0.275700 0.946617
-1060.00000000 -18570.00000000 750.00000000 204 60 123 0.000000 0.000000 0.000000 0.000000 -60.708740 0.000000 127.000000 -0.152941 0.077063 0.985226
-1030.00000000 -18600.00000000 730.00000000 204 60 123 0.000000 0.000000 0.000000 0.000000 -60.708740 0.000000 127.000000 -0.406699 0.038418 0.912754
-1090.00000000 -18690.00000000 750.00000000 204 60 123 0.000000 0.000000 0.000000 0.000000 -60.708740 0.000000 127.000000 -0.052804 0.431907 0.900371
-1080.00000000 -18730.00000000 770.00000000 204 60 123 0.000000 0.000000 0.000000 0.000000 -60.708740 0.000000 127.000000 0.006573 0.445626 0.895195
-1100.00000000 -18720.00000000 820.00000000 204 60 123 0.000000 0.000000 0.000000 0.000000 -60.708740 0.000000 127.000000 -0.029354 0.338212 0.940612
-1040.00000000 -18700.00000000 800.00000000 204 60 123 0.000000 0.000000 0.000000 0.000000 -60.708740 0.000000 127.000000 -0.041200 0.041200 0.998301
-1150.00000000 -18630.00000000 780.00000000 204 60 123 0.000000 0.000000 0.000000 0.000000 -60.708740 0.000000 127.000000 -0.387237 0.540824 0.746697
-1110.00000000 -18700.00000000 790.00000000 204 60 123 0.000000 0.000000 0.000000 0.000000 -60.708740 0.000000 127.000000 0.071435 0.502845 0.861420
-1150.00000000 -18650.00000000 790.00000000 204 60 123 0.000000 0.000000 0.000000 0.000000 -60.708740 0.000000 127.000000 -0.266352 0.025776 0.963531
-1150.00000000 -18670.00000000 770.00000000 204 60 123 0.000000 0.000000 0.000000 0.000000 -60.708740 0.000000 127.000000 0.126461 0.436219 0.890910
-1100.00000000 -18780.00000000 830.00000000 204 60 123 0.000000 0.000000 0.000000 0.000000 -60.708740 0.000000 127.000000 -0.033198 -0.259433 0.965190
-1030.00000000 -18780.00000000 840.00000000 204 60 123 0.000000 0.000000 0.000000 0.000000 -60.708740 0.000000 127.000000 0.284586 -0.031068 0.958147
-1100.00000000 -18740.00000000 790.00000000 204 60 123 0.000000 0.000000 0.000000 0.000000 -60.708740 0.000000 127.000000 -0.192728 0.479580 0.856072
-1110.00000000 -18770.00000000 790.00000000 204 60 123 0.000000 0.000000 0.000000 0.000000 -60.708740 0.000000 127.000000 0.095523 0.416703 0.904010
-1110.00000000 -18760.00000000 790.00000000 204 60 123 0.000000 0.000000 0.000000 0.000000 -60.708740 0.000000 127.000000 -0.072786 0.345402 0.935628
-1120.00000000 -18770.00000000 790.00000000 204 60 123 0.000000 0.000000 0.000000 0.000000 -60.708740 0.000000 127.000000 0.047775 -0.094439 0.994384
-1190.00000000 -18610.00000000 750.00000000 204 60 123 0.000000 0.000000 0.000000 0.000000 -60.708740 0.000000 127.000000 -0.376293 0.210666 0.902232
-1190.00000000 -18590.00000000 760.00000000 204 60 123 0.000000 0.000000 0.000000 0.000000 -60.708740 0.000000 127.000000 -0.545003 0.619245 0.565251
-1200.00000000 -18610.00000000 740.00000000 204 60 123 0.000000 0.000000 0.000000 0.000000 -60.708740 0.000000 127.000000 -0.189851 0.260874 0.946521
-1210.00000000 -18780.00000000 780.00000000 204 60 123 0.000000 0.000000 0.000000 0.000000 -60.708740 0.000000 127.000000 -0.237703 0.318378 0.917678
-1220.00000000 -18790.00000000 790.00000000 204 60 123 0.000000 0.000000 0.000000 0.000000 -60.708740 0.000000 127.000000 -0.189093 0.480922 0.856130
-1250.00000000 -18840.00000000 820.00000000 204 60 123 0.000000 0.000000 0.000000 0.000000 -60.708740 0.000000 127.000000 -0.285593 0.140785 0.947954
-1210.00000000 -18820.00000000 810.00000000 204 60 123 0.000000 0.000000 0.000000 0.000000 -60.708740 0.000000 127.000000 0.128587 0.145731 0.980932
-1260.00000000 -18820.00000000 770.00000000 204 60 123 0.000000 0.000000 0.000000 0.000000 -60.708740 0.000000 127.000000 -0.135726 0.023556 0.990466
-1200.00000000 -18870.00000000 790.00000000 204 60 123 0.000000 0.000000 0.000000 0.000000 -60.708740 0.000000 127.000000 -0.337286 0.266589 0.902867
-1270.00000000 -18890.00000000 790.00000000 204 60 123 0.000000 0.000000 0.000000 0.000000 -60.708740 0.000000 127.000000 0.019242 0.360459 0.932576
-1320.00000000 -18820.00000000 800.00000000 204 60 123 0.000000 0.000000 0.000000 0.000000 -60.708740 0.000000 127.000000 -0.606189 0.151923 0.780675
-1300.00000000 -18910.00000000 840.00000000 204 60 123 0.000000 0.000000 0.000000 0.000000 -60.708740 0.000000 127.000000 0.056646 0.359638 0.931371
-1250.00000000 -18930.00000000 830.00000000 204 60 123 0.000000 0.000000 0.000000 0.000000 -60.708740 0.000000 127.000000 -0.382865 0.102921 0.918053
-1300.00000000 -18960.00000000 810.00000000 204 60 123 0.000000 0.000000 0.000000 0.000000 -60.708740 0.000000 127.000000 0.138764 0.260348 0.955491
-1320.00000000 -18920.00000000 800.00000000 204 60 123 0.000000 0.000000 0.000000 0.000000 -60.708740 0.000000 127.000000 -0.395638 0.463461 0.792890
-1280.00000000 -18910.00000000 800.00000000 204 60 123 0.000000 0.000000 0.000000 0.000000 -60.708740 0.000000 127.000000 -0.184786 -0.129476 0.974213
-1330.00000000 -19050.00000000 780.00000000 204 60 123 0.000000 0.000000 0.000000 0.000000 -60.708740 0.000000 127.000000 0.131275 -0.171283 0.976437
-1600.00000000 -18880.00000000 760.00000000 204 60 123 0.000000 0.000000 0.000000 0.000000 -60.708740 0.000000 127.000000 0.729026 -0.396603 -0.557877
-1420.00000000 -18910.00000000 780.00000000 204 60 123 0.000000 0.000000 0.000000 0.000000 -60.708740 0.000000 127.000000 -0.182566 0.676569 0.713389
-1390.00000000 -19030.00000000 790.00000000 204 60 123 0.000000 0.000000 0.000000 0.000000 -60.708740 0.000000 127.000000 -0.267672 0.593947 0.758669
-1400.00000000 -19040.00000000 800.00000000 204 60 123 0.000000 0.000000 0.000000 0.000000 -60.708740 0.000000 127.000000 -0.379754 0.237901 0.893974
-1410.00000000 -19100.00000000 800.00000000 204 60 123 0.000000 0.000000 0.000000 0.000000 -60.708740 0.000000 127.000000 -0.191266 0.273827 0.942569
-1390.00000000 -19110.00000000 730.00000000 204 60 123 0.000000 0.000000 0.000000 0.000000 -60.708740 0.000000 127.000000 -0.200545 0.036786 0.978994
-1370.00000000 -19140.00000000 730.00000000 204 60 123 0.000000 0.000000 0.000000 0.000000 -60.708740 0.000000 127.000000 -0.121841 -0.260714 0.957697
-1410.00000000 -19190.00000000 770.00000000 204 60 123 0.000000 0.000000 0.000000 0.000000 -60.708740 0.000000 127.000000 0.350846 -0.095441 0.931557
-1480.00000000 -19130.00000000 770.00000000 204 60 123 0.000000 0.000000 0.000000 0.000000 -60.708740 0.000000 127.000000 -0.206947 0.027199 0.977974
-1440.00000000 -19110.00000000 790.00000000 204 60 123 0.000000 0.000000 0.000000 0.000000 -60.708740 0.000000 127.000000 -0.190159 0.402092 0.895635
-1510.00000000 -19070.00000000 730.00000000 204 60 123 0.000000 0.000000 0.000000 0.000000 -60.708740 0.000000 127.000000 -0.618388 0.674756 0.402864
-1450.00000000 -19200.00000000 760.00000000 204 60 123 0.000000 0.000000 0.000000 0.000000 -60.708740 0.000000 127.000000 0.220030 0.233697 0.947086
-1460.00000000 -19160.00000000 700.00000000 204 60 123 0.000000 0.000000 0.000000 0.000000 -60.708740 0.000000 127.000000 -0.157102 0.383555 0.910058
-1450.00000000 -19160.00000000 710.00000000 204 60 123 0.000000 0.000000 0.000000 0.000000 -60.708740 0.000000 127.000000 -0.291191 0.057221 0.954952
-1550.00000000 -19060.00000000 670.00000000 204 60 123 0.000000 0.000000 0.000000 0.000000 -60.708740 0.000000 127.000000 -0.634516 0.743113 0.212540
-1550.00000000 -19060.00000000 660.00000000 204 60 123 0.000000 0.000000 0.000000 0.000000 -60.708740 0.000000 127.000000 -0.583388 0.788570 0.194463
-1590.00000000 -18930.00000000 620.00000000 204 60 123 0.000000 0.000000 0.000000 0.000000 -60.708740 0.000000 127.000000 -0.622897 0.666084 0.410281
-1600.00000000 -18940.00000000 620.00000000 204 60 123 0.000000 0.000000 0.000000 0.000000 -60.708740 0.000000 127.000000 0.789528 -0.594768 -0.151314
-1630.00000000 -19060.00000000 650.00000000 204 60 123 0.000000 0.000000 0.000000 0.000000 -60.708740 0.000000 127.000000 -0.640530 0.747540 -0.175802
-1350.00000000 -19360.00000000 810.00000000 204 60 123 0.000000 0.000000 0.000000 0.000000 -60.708740 0.000000 127.000000 -0.606001 0.582369 -0.541856
-1370.00000000 -19260.00000000 830.00000000 204 60 123 0.000000 0.000000 0.000000 0.000000 -60.708740 0.000000 127.000000 0.400751 0.001289 0.916186
-1370.00000000 -19400.00000000 840.00000000 204 60 123 0.000000 0.000000 0.000000 0.000000 -60.708740 0.000000 127.000000 0.716703 -0.378852 0.585499
-1440.00000000 -19320.00000000 840.00000000 204 60 123 0.000000 0.000000 0.000000 0.000000 -60.708740 0.000000 127.000000 0.396282 0.052037 0.916653
-1440.00000000 -19320.00000000 840.00000000 204 60 123 0.000000 0.000000 0.000000 0.000000 -60.708740 0.000000 127.000000 0.396282 0.052037 0.916653
-1370.00000000 -19260.00000000 820.00000000 204 60 123 0.000000 0.000000 0.000000 0.000000 -60.708740 0.000000 127.000000 0.056441 -0.267153 0.962000
-1380.00000000 -19420.00000000 830.00000000 204 60 123 0.000000 0.000000 0.000000 0.000000 -60.708740 0.000000 127.000000 -0.402599 0.684252 -0.608040
-1590.00000000 -19350.00000000 720.00000000 204 60 123 0.000000 0.000000 0.000000 0.000000 -60.708740 0.000000 127.000000 0.148112 0.497128 0.854943
-1630.00000000 -19320.00000000 660.00000000 204 60 123 0.000000 0.000000 0.000000 0.000000 -60.708740 0.000000 127.000000 -0.431791 0.882610 0.185890
-1630.00000000 -19360.00000000 670.00000000 204 60 123 0.000000 0.000000 0.000000 0.000000 -60.708740 0.000000 127.000000 0.905810 -0.389427 -0.166897
-1530.00000000 -19460.00000000 790.00000000 204 60 123 0.000000 0.000000 0.000000 0.000000 -60.708740 0.000000 127.000000 0.591658 0.106645 0.799104
-1590.00000000 -19450.00000000 770.00000000 204 60 123 0.000000 0.000000 0.000000 0.000000 -60.708740 0.000000 127.000000 0.473891 0.188665 0.860135
-1570.00000000 -19510.00000000 760.00000000 204 60 123 0.000000 0.000000 0.000000 0.000000 -60.708740 0.000000 127.000000 0.431638 -0.409174 0.803906
-1610.00000000 -19260.00000000 640.00000000 204 60 123 0.000000 0.000000 0.000000 0.000000 -60.708740 0.000000 127.000000 0.690722 -0.668389 -0.275970
-1690.00000000 -19260.00000000 620.00000000 204 60 123 0.000000 0.000000 0.000000 0.000000 -60.708740 0.000000 127.000000 0.867256 -0.425303 0.258814
-1710.00000000 -18790.00000000 760.00000000 204 60 123 0.000000 0.000000 0.000000 0.000000 -60.708740 0.000000 127.000000 0.797199 -0.417120 -0.436446
-1970.00000000 -19050.00000000 660.00000000 204 60 123 0.000000 0.000000 0.000000 0.000000 -60.708740 0.000000 127.000000 0.843168 -0.521683 0.130055
-1720.00000000 -19170.00000000 570.00000000 204 60 123 0.000000 0.000000 0.000000 0.000000 -60.708740 0.000000 127.000000 -0.449556 0.769967 -0.452825
-1750.00000000 -19190.00000000 560.00000000 204 60 123 0.000000 0.000000 0.000000 0.000000 -60.708740 0.000000 127.000000 0.713722 -0.589026 0.379011
-1770.00000000 -19160.00000000 560.00000000 204 60 123 0.000000 0.000000 0.000000 0.000000 -60.708740 0.000000 127.000000 0.757442 -0.592297 0.274712
-1790.00000000 -19100.00000000 540.00000000 204 60 123 0.000000 0.000000 0.000000 0.000000 -60.708740 0.000000 127.000000 0.743182 -0.459751 0.486117
-1720.00000000 -19080.00000000 450.00000000 204 60 123 0.000000 0.000000 0.000000 0.000000 -60.708740 0.000000 127.000000 0.852418 -0.288250 0.436228
-1990.00000000 -19070.00000000 540.00000000 204 60 123 0.000000 0.000000 0.000000 0.000000 -60.708740 0.000000 127.000000 0.803956 -0.428456 0.412409
-840.00000000 -18380.00000000 670.00000000 204 60 123 0.000000 0.000000 0.000000 0.000000 -60.708740 0.000000 127.000000 -0.107227 0.029847 0.993786
-700.00000000 -18250.00000000 670.00000000 204 60 123 0.000000 0.000000 0.000000 0.000000 -60.708740 0.000000 127.000000 -0.021069 0.120868 0.992445
-780.00000000 -18420.00000000 730.00000000 204 60 123 0.000000 0.000000 0.000000 0.000000 -60.708740 0.000000 127.000000 0.072215 0.264788 0.961599
-920.00000000 -18480.00000000 710.00000000 204 60 123 0.000000 0.000000 0.000000 0.000000 -60.708740 0.000000 127.000000 -0.307882 -0.110624 0.944971
-900.00000000 -18420.00000000 710.00000000 204 60 123 0.000000 0.000000 0.000000 0.000000 -60.708740 0.000000 127.000000 0.240168 0.439553 0.865512
-680.00000000 -18200.00000000 650.00000000 204 60 123 0.000000 0.000000 0.000000 0.000000 -60.708740 0.000000 127.000000 -0.487303 0.199420 0.850157
-930.00000000 -18640.00000000 750.00000000 204 60 123 0.000000 0.000000 0.000000 0.000000 -60.708740 0.000000 127.000000 0.264732 -0.045986 0.963225
-990.00000000 -18570.00000000 750.00000000 204 60 123 0.000000 0.000000 0.000000 0.000000 -60.708740 0.000000 127.000000 -0.209229 0.299100 0.931001
-910.00000000 -18630.00000000 740.00000000 204 60 123 0.000000 0.000000 0.000000 0.000000 -60.708740 0.000000 127.000000 0.232766 -0.213710 0.948761
-950.00000000 -18610.00000000 770.00000000 204 60 123 0.000000 0.000000 0.000000 0.000000 -60.708740 0.000000 127.000000 -0.018956 -0.130460 0.991272
-1120.00000000 -18730.00000000 770.00000000 204 60 123 0.000000 0.000000 0.000000 0.000000 -60.708740 0.000000 127.000000 -0.279042 0.020897 0.960052
-1140.00000000 -18780.00000000 840.00000000 204 60 123 0.000000 0.000000 0.000000 0.000000 -60.708740 0.000000 127.000000 -0.057014 0.095024 0.993841
-1210.00000000 -18700.00000000 770.00000000 204 60 123 0.000000 0.000000 0.000000 0.000000 -60.708740 0.000000 127.000000 -0.263284 0.243573 0.933463
-1220.00000000 -18770.00000000 770.00000000 204 60 123 0.000000 0.000000 0.000000 0.000000 -60.708740 0.000000 127.000000 -0.038963 0.442031 0.896153
-1220.00000000 -18800.00000000 770.00000000 204 60 123 0.000000 0.000000 0.000000 0.000000 -60.708740 0.000000 127.000000 0.014285 0.396072 0.918108
-1230.00000000 -18830.00000000 810.00000000 204 60 123 0.000000 0.000000 0.000000 0.000000 -60.708740 0.000000 127.000000 0.126792 0.526114 0.840909
-1250.00000000 -18890.00000000 800.00000000 204 60 123 0.000000 0.000000 0.000000 0.000000 -60.708740 0.000000 127.000000 -0.037537 -0.001015 0.999295
-1280.00000000 -18820.00000000 800.00000000 204 60 123 0.000000 0.000000 0.000000 0.000000 -60.708740 0.000000 127.000000 0.297992 -0.665248 -0.684577
-1200.00000000 -18780.00000000 760.00000000 204 60 123 0.000000 0.000000 0.000000 0.000000 -60.708740 0.000000 127.000000 -0.189352 0.121637 0.974346
-1350.00000000 -19050.00000000 800.00000000 204 60 123 0.000000 0.000000 0.000000 0.000000 -60.708740 0.000000 127.000000 -0.290210 0.390491 0.873667
-1400.00000000 -19030.00000000 790.00000000 204 60 123 0.000000 0.000000 0.000000 0.000000 -60.708740 0.000000 127.000000 -0.345820 0.294920 0.890748
-1420.00000000 -19030.00000000 790.00000000 204 60 123 0.000000 0.000000 0.000000 0.000000 -60.708740 0.000000 127.000000 0.037792 0.147730 0.988305
-1410.00000000 -19190.00000000 770.00000000 204 60 123 0.000000 0.000000 0.000000 0.000000 -60.708740 0.000000 127.000000 0.350846 -0.095441 0.931557
-1490.00000000 -19110.00000000 700.00000000 204 60 123 0.000000 0.000000 0.000000 0.000000 -60.708740 0.000000 127.000000 -0.597823 0.274333 0.753226
-1380.00000000 -19380.00000000 860.00000000 204 60 123 0.000000 0.000000 0.000000 0.000000 -60.708740 0.000000 127.000000 0.362078 -0.292968 0.884912
-1610.00000000 -19360.00000000 700.00000000 204 60 123 0.000000 0.000000 0.000000 0.000000 -60.708740 0.000000 127.000000 -0.242461 0.777441 0.580343
-1580.00000000 -19450.00000000 760.00000000 204 60 123 0.000000 0.000000 0.000000 0.000000 -60.708740 0.000000 127.000000 0.177729 -0.506305 0.843841
-1590.00000000 -19520.00000000 810.00000000 204 60 123 0.000000 0.000000 0.000000 0.000000 -60.708740 0.000000 127.000000 0.422853 0.104667 0.900133
-1770.00000000 -19170.00000000 550.00000000 204 60 123 0.000000 0.000000 0.000000 0.000000 -60.708740 0.000000 127.000000 -0.648161 0.740099 -0.179279
