//X Y Z R G B PointSourceId ScanDirectionFlag NumberOfReturns ReturnNumber GpsTime Intensity Classification Nx Ny Nz
9090.00000000 -7510.00000000 380.00000000 27 155 164 0.000000 0.000000 0.000000 0.000000 -60.708740 0.000000 130.000000 -0.416967 0.181606 0.890594
9090.00000000 -7500.00000000 380.00000000 27 155 164 0.000000 0.000000 0.000000 0.000000 -60.708740 0.000000 130.000000 -0.591385 0.271118 0.759446
9160.00000000 -7590.00000000 340.00000000 27 155 164 0.000000 0.000000 0.000000 0.000000 -60.708740 0.000000 130.000000 0.831525 -0.204473 -0.516485
9130.00000000 -7610.00000000 340.00000000 27 155 164 0.000000 0.000000 0.000000 0.000000 -60.708740 0.000000 130.000000 0.373394 -0.613551 -0.695796
9110.00000000 -7600.00000000 330.00000000 27 155 164 0.000000 0.000000 0.000000 0.000000 -60.708740 0.000000 130.000000 -0.342451 0.519304 0.782975
9120.00000000 -7580.00000000 330.00000000 27 155 164 0.000000 0.000000 0.000000 0.000000 -60.708740 0.000000 130.000000 -0.350885 -0.061766 0.934379
9220.00000000 -7680.00000000 370.00000000 27 155 164 0.000000 0.000000 0.000000 0.000000 -60.708740 0.000000 130.000000 0.810410 -0.512580 -0.283722
9220.00000000 -7680.00000000 350.00000000 27 155 164 0.000000 0.000000 0.000000 0.000000 -60.708740 0.000000 130.000000 0.916783 0.060227 -0.394819
9200.00000000 -7680.00000000 320.00000000 27 155 164 0.000000 0.000000 0.000000 0.000000 -60.708740 0.000000 130.000000 -0.436852 0.366956 0.821282
9240.00000000 -7700.00000000 360.00000000 27 155 164 0.000000 0.000000 0.000000 0.000000 -60.708740 0.000000 130.000000 0.850028 -0.004041 -0.526721
9240.00000000 -7720.00000000 380.00000000 27 155 164 0.000000 0.000000 0.000000 0.000000 -60.708740 0.000000 130.000000 0.840818 -0.158673 -0.517540
9230.00000000 -7710.00000000 350.00000000 27 155 164 0.000000 0.000000 0.000000 0.000000 -60.708740 0.000000 130.000000 -0.555583 0.333350 0.761712
9250.00000000 -7770.00000000 390.00000000 27 155 164 0.000000 0.000000 0.000000 0.000000 -60.708740 0.000000 130.000000 0.862621 -0.330594 -0.382874
9200.00000000 -7710.00000000 360.00000000 27 155 164 0.000000 0.000000 0.000000 0.000000 -60.708740 0.000000 130.000000 0.780381 -0.413715 -0.468877
9210.00000000 -7720.00000000 390.00000000 27 155 164 0.000000 0.000000 0.000000 0.000000 -60.708740 0.000000 130.000000 0.623753 -0.337120 -0.705183
9210.00000000 -7740.00000000 400.00000000 27 155 164 0.000000 0.000000 0.000000 0.000000 -60.708740 0.000000 130.000000 0.842257 -0.374859 -0.387407
9190.00000000 -7740.00000000 350.00000000 27 155 164 0.000000 0.000000 0.000000 0.000000 -60.708740 0.000000 130.000000 0.958844 -0.038754 -0.281277
9190.00000000 -7710.00000000 350.00000000 27 155 164 0.000000 0.000000 0.000000 0.000000 -60.708740 0.000000 130.000000 0.649273 -0.330332 -0.685073
9200.00000000 -7740.00000000 340.00000000 27 155 164 0.000000 0.000000 0.000000 0.000000 -60.708740 0.000000 130.000000 0.732931 0.041112 -0.679060
9190.00000000 -7710.00000000 350.00000000 27 155 164 0.000000 0.000000 0.000000 0.000000 -60.708740 0.000000 130.000000 0.649273 -0.330332 -0.685073
9180.00000000 -7750.00000000 370.00000000 27 155 164 0.000000 0.000000 0.000000 0.000000 -60.708740 0.000000 130.000000 0.650205 -0.572920 -0.498995
9200.00000000 -7760.00000000 390.00000000 27 155 164 0.000000 0.000000 0.000000 0.000000 -60.708740 0.000000 130.000000 0.986245 -0.115678 -0.118063
9180.00000000 -7780.00000000 380.00000000 27 155 164 0.000000 0.000000 0.000000 0.000000 -60.708740 0.000000 130.000000 -0.569961 0.210471 0.794258
9170.00000000 -7690.00000000 320.00000000 27 155 164 0.000000 0.000000 0.000000 0.000000 -60.708740 0.000000 130.000000 0.790841 -0.498888 -0.354515
9150.00000000 -7690.00000000 350.00000000 27 155 164 0.000000 0.000000 0.000000 0.000000 -60.708740 0.000000 130.000000 0.565251 -0.545003 -0.619245
9150.00000000 -7660.00000000 330.00000000 27 155 164 0.000000 0.000000 0.000000 0.000000 -60.708740 0.000000 130.000000 0.838175 -0.081114 -0.539335
9100.00000000 -7660.00000000 320.00000000 27 155 164 0.000000 0.000000 0.000000 0.000000 -60.708740 0.000000 130.000000 0.639284 -0.384892 -0.665714
9160.00000000 -7710.00000000 320.00000000 27 155 164 0.000000 0.000000 0.000000 0.000000 -60.708740 0.000000 130.000000 -0.466754 -0.011968 0.884306
9260.00000000 -7510.00000000 260.00000000 27 155 164 0.000000 0.000000 0.000000 0.000000 -60.708740 0.000000 130.000000 0.807544 0.112851 -0.578911
9260.00000000 -7530.00000000 270.00000000 27 155 164 0.000000 0.000000 0.000000 0.000000 -60.708740 0.000000 130.000000 0.746370 -0.257206 -0.613822
9310.00000000 -7630.00000000 290.00000000 27 155 164 0.000000 0.000000 0.000000 0.000000 -60.708740 0.000000 130.000000 0.878303 0.139894 -0.457179
9220.00000000 -7520.00000000 280.00000000 27 155 164 0.000000 0.000000 0.000000 0.000000 -60.708740 0.000000 130.000000 -0.545217 0.143323 0.825952
9230.00000000 -7530.00000000 310.00000000 27 155 164 0.000000 0.000000 0.000000 0.000000 -60.708740 0.000000 130.000000 -0.536709 0.519885 0.664577
9220.00000000 -7530.00000000 300.00000000 27 155 164 0.000000 0.000000 0.000000 0.000000 -60.708740 0.000000 130.000000 0.633073 -0.410417 -0.656335
9220.00000000 -7610.00000000 280.00000000 27 155 164 0.000000 0.000000 0.000000 0.000000 -60.708740 0.000000 130.000000 0.607267 -0.376868 -0.699427
9230.00000000 -7610.00000000 280.00000000 27 155 164 0.000000 0.000000 0.000000 0.000000 -60.708740 0.000000 130.000000 -0.505364 0.413777 0.757229
9200.00000000 -7550.00000000 280.00000000 27 155 164 0.000000 0.000000 0.000000 0.000000 -60.708740 0.000000 130.000000 -0.586722 0.607012 0.535997
9200.00000000 -7550.00000000 280.00000000 27 155 164 0.000000 0.000000 0.000000 0.000000 -60.708740 0.000000 130.000000 -0.586722 0.607012 0.535997
9180.00000000 -7580.00000000 310.00000000 27 155 164 0.000000 0.000000 0.000000 0.000000 -60.708740 0.000000 130.000000 -0.629475 -0.088679 0.771943
9150.00000000 -7520.00000000 290.00000000 27 155 164 0.000000 0.000000 0.000000 0.000000 -60.708740 0.000000 130.000000 -0.426413 0.019802 0.904312
9120.00000000 -7510.00000000 310.00000000 27 155 164 0.000000 0.000000 0.000000 0.000000 -60.708740 0.000000 130.000000 -0.228683 0.050139 0.972209
9150.00000000 -7610.00000000 260.00000000 27 155 164 0.000000 0.000000 0.000000 0.000000 -60.708740 0.000000 130.000000 0.697174 -0.297869 -0.652091
9110.00000000 -7600.00000000 290.00000000 27 155 164 0.000000 0.000000 0.000000 0.000000 -60.708740 0.000000 130.000000 -0.294614 0.348452 0.889823
9100.00000000 -7590.00000000 290.00000000 27 155 164 0.000000 0.000000 0.000000 0.000000 -60.708740 0.000000 130.000000 -0.413700 -0.022327 0.910140
9200.00000000 -7640.00000000 310.00000000 27 155 164 0.000000 0.000000 0.000000 0.000000 -60.708740 0.000000 130.000000 -0.482510 0.590108 0.647269
9150.00000000 -7620.00000000 260.00000000 27 155 164 0.000000 0.000000 0.000000 0.000000 -60.708740 0.000000 130.000000 -0.426345 0.369288 0.825746
9150.00000000 -7630.00000000 270.00000000 27 155 164 0.000000 0.000000 0.000000 0.000000 -60.708740 0.000000 130.000000 -0.456143 0.265699 0.849316
9150.00000000 -7630.00000000 270.00000000 27 155 164 0.000000 0.000000 0.000000 0.000000 -60.708740 0.000000 130.000000 -0.456143 0.265699 0.849316
9100.00000000 -7660.00000000 310.00000000 27 155 164 0.000000 0.000000 0.000000 0.000000 -60.708740 0.000000 130.000000 0.675591 -0.049991 -0.735580
9090.00000000 -7670.00000000 300.00000000 27 155 164 0.000000 0.000000 0.000000 0.000000 -60.708740 0.000000 130.000000 -0.153012 0.369195 0.916669
9120.00000000 -7670.00000000 290.00000000 27 155 164 0.000000 0.000000 0.000000 0.000000 -60.708740 0.000000 130.000000 -0.467548 0.480765 0.741798
9130.00000000 -7700.00000000 300.00000000 27 155 164 0.000000 0.000000 0.000000 0.000000 -60.708740 0.000000 130.000000 -0.286739 0.421674 0.860216
8950.00000000 -7520.00000000 340.00000000 27 155 164 0.000000 0.000000 0.000000 0.000000 -60.708740 0.000000 130.000000 0.461298 0.053385 0.885638
9070.00000000 -7660.00000000 330.00000000 27 155 164 0.000000 0.000000 0.000000 0.000000 -60.708740 0.000000 130.000000 -0.369247 0.432637 0.822485
9010.00000000 -7750.00000000 330.00000000 27 155 164 0.000000 0.000000 0.000000 0.000000 -60.708740 0.000000 130.000000 -0.062327 0.369983 0.926946
9040.00000000 -7730.00000000 320.00000000 27 155 164 0.000000 0.000000 0.000000 0.000000 -60.708740 0.000000 130.000000 -0.062161 0.471040 0.879919
9070.00000000 -7700.00000000 320.00000000 27 155 164 0.000000 0.000000 0.000000 0.000000 -60.708740 0.000000 130.000000 0.628297 -0.326325 -0.706226
8940.00000000 -7630.00000000 340.00000000 27 155 164 0.000000 0.000000 0.000000 0.000000 -60.708740 0.000000 130.000000 0.404586 0.057798 0.912671
8980.00000000 -7670.00000000 320.00000000 27 155 164 0.000000 0.000000 0.000000 0.000000 -60.708740 0.000000 130.000000 0.610330 0.088433 0.787196
8960.00000000 -7710.00000000 330.00000000 27 155 164 0.000000 0.000000 0.000000 0.000000 -60.708740 0.000000 130.000000 0.362167 0.193251 0.911860
8910.00000000 -7520.00000000 320.00000000 27 155 164 0.000000 0.000000 0.000000 0.000000 -60.708740 0.000000 130.000000 0.493350 -0.012098 0.869747
8900.00000000 -7530.00000000 320.00000000 27 155 164 0.000000 0.000000 0.000000 0.000000 -60.708740 0.000000 130.000000 0.717865 0.156322 0.678405
8900.00000000 -7540.00000000 320.00000000 27 155 164 0.000000 0.000000 0.000000 0.000000 -60.708740 0.000000 130.000000 0.790865 -0.333921 0.512864
8920.00000000 -7590.00000000 320.00000000 27 155 164 0.000000 0.000000 0.000000 0.000000 -60.708740 0.000000 130.000000 0.603636 0.046651 0.795894
9060.00000000 -7610.00000000 300.00000000 27 155 164 0.000000 0.000000 0.000000 0.000000 -60.708740 0.000000 130.000000 -0.055280 0.416621 0.907398
9070.00000000 -7590.00000000 270.00000000 27 155 164 0.000000 0.000000 0.000000 0.000000 -60.708740 0.000000 130.000000 -0.033024 0.250740 0.967491
9040.00000000 -7600.00000000 300.00000000 27 155 164 0.000000 0.000000 0.000000 0.000000 -60.708740 0.000000 130.000000 0.420842 0.235132 0.876131
9010.00000000 -7590.00000000 300.00000000 27 155 164 0.000000 0.000000 0.000000 0.000000 -60.708740 0.000000 130.000000 -0.013140 0.021227 0.999688
8940.00000000 -7520.00000000 300.00000000 27 155 164 0.000000 0.000000 0.000000 0.000000 -60.708740 0.000000 130.000000 0.401644 0.146181 0.904054
8940.00000000 -7510.00000000 300.00000000 27 155 164 0.000000 0.000000 0.000000 0.000000 -60.708740 0.000000 130.000000 0.624817 0.171787 0.761638
8980.00000000 -7550.00000000 280.00000000 27 155 164 0.000000 0.000000 0.000000 0.000000 -60.708740 0.000000 130.000000 0.084188 0.009591 0.996404
8980.00000000 -7530.00000000 280.00000000 27 155 164 0.000000 0.000000 0.000000 0.000000 -60.708740 0.000000 130.000000 0.518422 -0.095687 0.849755
8930.00000000 -7570.00000000 310.00000000 27 155 164 0.000000 0.000000 0.000000 0.000000 -60.708740 0.000000 130.000000 0.818239 -0.069728 0.570633
8930.00000000 -7600.00000000 300.00000000 27 155 164 0.000000 0.000000 0.000000 0.000000 -60.708740 0.000000 130.000000 0.541751 0.329552 0.773241
8930.00000000 -7580.00000000 300.00000000 27 155 164 0.000000 0.000000 0.000000 0.000000 -60.708740 0.000000 130.000000 0.695557 0.283020 0.660379
9080.00000000 -7650.00000000 300.00000000 27 155 164 0.000000 0.000000 0.000000 0.000000 -60.708740 0.000000 130.000000 0.013616 -0.059699 0.998124
9080.00000000 -7630.00000000 290.00000000 27 155 164 0.000000 0.000000 0.000000 0.000000 -60.708740 0.000000 130.000000 -0.447987 0.368274 0.814667
9060.00000000 -7620.00000000 300.00000000 27 155 164 0.000000 0.000000 0.000000 0.000000 -60.708740 0.000000 130.000000 -0.030763 0.445396 0.894805
9070.00000000 -7650.00000000 290.00000000 27 155 164 0.000000 0.000000 0.000000 0.000000 -60.708740 0.000000 130.000000 -0.017081 0.424406 0.905311
9070.00000000 -7670.00000000 300.00000000 27 155 164 0.000000 0.000000 0.000000 0.000000 -60.708740 0.000000 130.000000 -0.048146 0.106370 0.993160
9070.00000000 -7660.00000000 250.00000000 27 155 164 0.000000 0.000000 0.000000 0.000000 -60.708740 0.000000 130.000000 -0.164113 0.216630 0.962361
9020.00000000 -7640.00000000 300.00000000 27 155 164 0.000000 0.000000 0.000000 0.000000 -60.708740 0.000000 130.000000 0.393010 -0.054622 0.917911
9010.00000000 -7620.00000000 290.00000000 27 155 164 0.000000 0.000000 0.000000 0.000000 -60.708740 0.000000 130.000000 -0.192841 0.263960 0.945059
9040.00000000 -7680.00000000 300.00000000 27 155 164 0.000000 0.000000 0.000000 0.000000 -60.708740 0.000000 130.000000 -0.327785 0.252031 0.910515
9030.00000000 -7670.00000000 310.00000000 27 155 164 0.000000 0.000000 0.000000 0.000000 -60.708740 0.000000 130.000000 -0.257128 0.048444 0.965162
9020.00000000 -7660.00000000 300.00000000 27 155 164 0.000000 0.000000 0.000000 0.000000 -60.708740 0.000000 130.000000 -0.189020 0.048741 0.980763
9020.00000000 -7680.00000000 290.00000000 27 155 164 0.000000 0.000000 0.000000 0.000000 -60.708740 0.000000 130.000000 0.008884 -0.002961 0.999956
9020.00000000 -7680.00000000 290.00000000 27 155 164 0.000000 0.000000 0.000000 0.000000 -60.708740 0.000000 130.000000 0.008884 -0.002961 0.999956
9060.00000000 -7710.00000000 310.00000000 27 155 164 0.000000 0.000000 0.000000 0.000000 -60.708740 0.000000 130.000000 -0.205220 0.260313 0.943463
9060.00000000 -7710.00000000 310.00000000 27 155 164 0.000000 0.000000 0.000000 0.000000 -60.708740 0.000000 130.000000 -0.205220 0.260313 0.943463
9020.00000000 -7730.00000000 290.00000000 27 155 164 0.000000 0.000000 0.000000 0.000000 -60.708740 0.000000 130.000000 -0.084876 0.117431 0.989447
9020.00000000 -7710.00000000 280.00000000 27 155 164 0.000000 0.000000 0.000000 0.000000 -60.708740 0.000000 130.000000 0.383552 -0.016788 0.923367
8990.00000000 -7630.00000000 310.00000000 27 155 164 0.000000 0.000000 0.000000 0.000000 -60.708740 0.000000 130.000000 0.350896 0.329629 0.876480
8990.00000000 -7660.00000000 300.00000000 27 155 164 0.000000 0.000000 0.000000 0.000000 -60.708740 0.000000 130.000000 -0.014629 0.461471 0.887035
8970.00000000 -7730.00000000 310.00000000 27 155 164 0.000000 0.000000 0.000000 0.000000 -60.708740 0.000000 130.000000 0.199070 0.533386 0.822114
8970.00000000 -7700.00000000 310.00000000 27 155 164 0.000000 0.000000 0.000000 0.000000 -60.708740 0.000000 130.000000 0.378685 0.524958 0.762245
8990.00000000 -7730.00000000 310.00000000 27 155 164 0.000000 0.000000 0.000000 0.000000 -60.708740 0.000000 130.000000 -0.112952 -0.065033 0.991470
8980.00000000 -7730.00000000 310.00000000 27 155 164 0.000000 0.000000 0.000000 0.000000 -60.708740 0.000000 130.000000 0.087231 0.112819 0.989779
8880.00000000 -7490.00000000 290.00000000 27 155 164 0.000000 0.000000 0.000000 0.000000 -60.708740 0.000000 130.000000 0.964851 0.038200 0.260005
8880.00000000 -7490.00000000 290.00000000 27 155 164 0.000000 0.000000 0.000000 0.000000 -60.708740 0.000000 130.000000 0.964851 0.038200 0.260005
8910.00000000 -7530.00000000 300.00000000 27 155 164 0.000000 0.000000 0.000000 0.000000 -60.708740 0.000000 130.000000 0.502806 0.177549 0.845968
9260.00000000 -7790.00000000 370.00000000 27 155 164 0.000000 0.000000 0.000000 0.000000 -60.708740 0.000000 130.000000 0.831446 -0.054867 -0.552890
9260.00000000 -8000.00000000 480.00000000 27 155 164 0.000000 0.000000 0.000000 0.000000 -60.708740 0.000000 130.000000 0.945035 -0.224222 0.237978
9250.00000000 -7830.00000000 440.00000000 27 155 164 0.000000 0.000000 0.000000 0.000000 -60.708740 0.000000 130.000000 0.881838 -0.296961 -0.366302
9230.00000000 -7890.00000000 430.00000000 27 155 164 0.000000 0.000000 0.000000 0.000000 -60.708740 0.000000 130.000000 0.778783 -0.070537 -0.623315
9190.00000000 -7900.00000000 460.00000000 27 155 164 0.000000 0.000000 0.000000 0.000000 -60.708740 0.000000 130.000000 0.910639 -0.412736 0.019654
9190.00000000 -7900.00000000 460.00000000 27 155 164 0.000000 0.000000 0.000000 0.000000 -60.708740 0.000000 130.000000 0.910639 -0.412736 0.019654
9210.00000000 -7900.00000000 460.00000000 27 155 164 0.000000 0.000000 0.000000 0.000000 -60.708740 0.000000 130.000000 0.881054 -0.053439 -0.469987
9190.00000000 -7890.00000000 440.00000000 27 155 164 0.000000 0.000000 0.000000 0.000000 -60.708740 0.000000 130.000000 0.930459 -0.174374 -0.322243
9200.00000000 -7940.00000000 480.00000000 27 155 164 0.000000 0.000000 0.000000 0.000000 -60.708740 0.000000 130.000000 0.985643 -0.152639 -0.072178
9200.00000000 -7940.00000000 470.00000000 27 155 164 0.000000 0.000000 0.000000 0.000000 -60.708740 0.000000 130.000000 0.934771 0.072719 -0.347729
9210.00000000 -7930.00000000 460.00000000 27 155 164 0.000000 0.000000 0.000000 0.000000 -60.708740 0.000000 130.000000 0.844518 -0.437034 -0.309501
9150.00000000 -7850.00000000 400.00000000 27 155 164 0.000000 0.000000 0.000000 0.000000 -60.708740 0.000000 130.000000 -0.652638 0.416825 0.632710
9160.00000000 -7820.00000000 400.00000000 27 155 164 0.000000 0.000000 0.000000 0.000000 -60.708740 0.000000 130.000000 0.832138 -0.501122 -0.237535
9090.00000000 -7820.00000000 400.00000000 27 155 164 0.000000 0.000000 0.000000 0.000000 -60.708740 0.000000 130.000000 -0.637809 0.098237 0.763904
9160.00000000 -7820.00000000 400.00000000 27 155 164 0.000000 0.000000 0.000000 0.000000 -60.708740 0.000000 130.000000 0.832138 -0.501122 -0.237535
9140.00000000 -7880.00000000 430.00000000 27 155 164 0.000000 0.000000 0.000000 0.000000 -60.708740 0.000000 130.000000 0.935129 -0.219455 -0.278162
9140.00000000 -7870.00000000 430.00000000 27 155 164 0.000000 0.000000 0.000000 0.000000 -60.708740 0.000000 130.000000 0.958538 0.070013 -0.276232
9160.00000000 -7930.00000000 480.00000000 27 155 164 0.000000 0.000000 0.000000 0.000000 -60.708740 0.000000 130.000000 0.974564 0.137068 -0.177308
9090.00000000 -7920.00000000 430.00000000 27 155 164 0.000000 0.000000 0.000000 0.000000 -60.708740 0.000000 130.000000 -0.667159 0.064843 0.742088
9100.00000000 -7930.00000000 440.00000000 27 155 164 0.000000 0.000000 0.000000 0.000000 -60.708740 0.000000 130.000000 0.650620 -0.380489 -0.657208
9090.00000000 -7910.00000000 430.00000000 27 155 164 0.000000 0.000000 0.000000 0.000000 -60.708740 0.000000 130.000000 -0.471947 0.115492 0.874029
9110.00000000 -7910.00000000 410.00000000 27 155 164 0.000000 0.000000 0.000000 0.000000 -60.708740 0.000000 130.000000 0.901379 -0.180276 -0.393722
9090.00000000 -7910.00000000 430.00000000 27 155 164 0.000000 0.000000 0.000000 0.000000 -60.708740 0.000000 130.000000 -0.471947 0.115492 0.874029
9250.00000000 -8030.00000000 600.00000000 27 155 164 0.000000 0.000000 0.000000 0.000000 -60.708740 0.000000 130.000000 0.949363 -0.041940 0.311371
9250.00000000 -8030.00000000 600.00000000 27 155 164 0.000000 0.000000 0.000000 0.000000 -60.708740 0.000000 130.000000 0.949363 -0.041940 0.311371
9190.00000000 -8000.00000000 570.00000000 27 155 164 0.000000 0.000000 0.000000 0.000000 -60.708740 0.000000 130.000000 0.980763 -0.048741 0.189020
9220.00000000 -7990.00000000 530.00000000 27 155 164 0.000000 0.000000 0.000000 0.000000 -60.708740 0.000000 130.000000 0.995613 0.084337 0.040525
9240.00000000 -7990.00000000 530.00000000 27 155 164 0.000000 0.000000 0.000000 0.000000 -60.708740 0.000000 130.000000 0.959503 -0.006096 0.281633
9240.00000000 -7980.00000000 520.00000000 27 155 164 0.000000 0.000000 0.000000 0.000000 -60.708740 0.000000 130.000000 0.875317 -0.301886 0.377737
9230.00000000 -8020.00000000 540.00000000 27 155 164 0.000000 0.000000 0.000000 0.000000 -60.708740 0.000000 130.000000 0.900215 -0.236435 0.365666
9180.00000000 -7970.00000000 550.00000000 27 155 164 0.000000 0.000000 0.000000 0.000000 -60.708740 0.000000 130.000000 0.968656 -0.248404 -0.001189
9180.00000000 -7970.00000000 540.00000000 27 155 164 0.000000 0.000000 0.000000 0.000000 -60.708740 0.000000 130.000000 0.989921 0.079888 -0.116938
9200.00000000 -7980.00000000 510.00000000 27 155 164 0.000000 0.000000 0.000000 0.000000 -60.708740 0.000000 130.000000 0.869664 -0.481242 0.109957
9220.00000000 -8040.00000000 570.00000000 27 155 164 0.000000 0.000000 0.000000 0.000000 -60.708740 0.000000 130.000000 0.985318 0.062392 -0.158922
9230.00000000 -8050.00000000 620.00000000 27 155 164 0.000000 0.000000 0.000000 0.000000 -60.708740 0.000000 130.000000 0.881213 -0.321953 0.346137
9230.00000000 -8050.00000000 620.00000000 27 155 164 0.000000 0.000000 0.000000 0.000000 -60.708740 0.000000 130.000000 0.881213 -0.321953 0.346137
9230.00000000 -8060.00000000 600.00000000 27 155 164 0.000000 0.000000 0.000000 0.000000 -60.708740 0.000000 130.000000 0.980726 -0.041506 0.190927
9230.00000000 -8000.00000000 480.00000000 27 155 164 0.000000 0.000000 0.000000 0.000000 -60.708740 0.000000 130.000000 0.847464 -0.484913 -0.216020
9240.00000000 -8050.00000000 460.00000000 27 155 164 0.000000 0.000000 0.000000 0.000000 -60.708740 0.000000 130.000000 -0.732534 0.254725 0.631276
9160.00000000 -7960.00000000 420.00000000 27 155 164 0.000000 0.000000 0.000000 0.000000 -60.708740 0.000000 130.000000 0.630575 -0.337284 -0.699010
9110.00000000 -7970.00000000 430.00000000 27 155 164 0.000000 0.000000 0.000000 0.000000 -60.708740 0.000000 130.000000 0.794874 -0.079343 -0.601565
9100.00000000 -7970.00000000 420.00000000 27 155 164 0.000000 0.000000 0.000000 0.000000 -60.708740 0.000000 130.000000 0.695470 -0.064795 -0.715628
9090.00000000 -8060.00000000 460.00000000 27 155 164 0.000000 0.000000 0.000000 0.000000 -60.708740 0.000000 130.000000 -0.597145 0.221797 0.770860
9010.00000000 -7820.00000000 410.00000000 27 155 164 0.000000 0.000000 0.000000 0.000000 -60.708740 0.000000 130.000000 -0.187707 -0.172173 0.967017
9010.00000000 -7850.00000000 410.00000000 27 155 164 0.000000 0.000000 0.000000 0.000000 -60.708740 0.000000 130.000000 -0.090412 0.443712 0.891597
9040.00000000 -7850.00000000 400.00000000 27 155 164 0.000000 0.000000 0.000000 0.000000 -60.708740 0.000000 130.000000 -0.071363 0.499538 0.863348
9050.00000000 -7890.00000000 430.00000000 27 155 164 0.000000 0.000000 0.000000 0.000000 -60.708740 0.000000 130.000000 -0.381084 0.340970 0.859368
9060.00000000 -7870.00000000 410.00000000 27 155 164 0.000000 0.000000 0.000000 0.000000 -60.708740 0.000000 130.000000 -0.560297 -0.084546 0.823966
9050.00000000 -7930.00000000 420.00000000 27 155 164 0.000000 0.000000 0.000000 0.000000 -60.708740 0.000000 130.000000 -0.213404 0.107333 0.971050
9070.00000000 -7940.00000000 410.00000000 27 155 164 0.000000 0.000000 0.000000 0.000000 -60.708740 0.000000 130.000000 -0.332101 0.454869 0.826319
9020.00000000 -7880.00000000 420.00000000 27 155 164 0.000000 0.000000 0.000000 0.000000 -60.708740 0.000000 130.000000 -0.341863 0.188663 0.920617
9040.00000000 -7940.00000000 420.00000000 27 155 164 0.000000 0.000000 0.000000 0.000000 -60.708740 0.000000 130.000000 -0.167927 0.506752 0.845578
8980.00000000 -7840.00000000 390.00000000 27 155 164 0.000000 0.000000 0.000000 0.000000 -60.708740 0.000000 130.000000 0.305649 0.142636 0.941400
8990.00000000 -7880.00000000 410.00000000 27 155 164 0.000000 0.000000 0.000000 0.000000 -60.708740 0.000000 130.000000 0.239732 0.335624 0.910980
9000.00000000 -7870.00000000 410.00000000 27 155 164 0.000000 0.000000 0.000000 0.000000 -60.708740 0.000000 130.000000 0.248976 -0.003574 0.968503
9080.00000000 -8030.00000000 490.00000000 27 155 164 0.000000 0.000000 0.000000 0.000000 -60.708740 0.000000 130.000000 0.811783 -0.335198 -0.478174
9030.00000000 -7970.00000000 450.00000000 27 155 164 0.000000 0.000000 0.000000 0.000000 -60.708740 0.000000 130.000000 -0.368380 0.024559 0.929351
8860.00000000 -9250.00000000 780.00000000 27 155 164 0.000000 0.000000 0.000000 0.000000 -60.708740 0.000000 125.000000 0.864554 -0.497434 -0.071462
8870.00000000 -9220.00000000 690.00000000 27 155 164 0.000000 0.000000 0.000000 0.000000 -60.708740 0.000000 125.000000 0.712362 -0.350476 -0.608035
8860.00000000 -9260.00000000 700.00000000 27 155 164 0.000000 0.000000 0.000000 0.000000 -60.708740 0.000000 125.000000 0.900793 -0.017145 -0.433910
8810.00000000 -9270.00000000 700.00000000 27 155 164 0.000000 0.000000 0.000000 0.000000 -60.708740 0.000000 125.000000 -0.450321 0.241081 0.859704
8800.00000000 -9280.00000000 700.00000000 27 155 164 0.000000 0.000000 0.000000 0.000000 -60.708740 0.000000 125.000000 -0.678032 0.467089 0.567538
8840.00000000 -9350.00000000 750.00000000 27 155 164 0.000000 0.000000 0.000000 0.000000 -60.708740 0.000000 125.000000 0.563861 -0.476856 -0.674291
8840.00000000 -9330.00000000 680.00000000 27 155 164 0.000000 0.000000 0.000000 0.000000 -60.708740 0.000000 125.000000 -0.328371 0.337450 0.882213
8860.00000000 -9310.00000000 660.00000000 27 155 164 0.000000 0.000000 0.000000 0.000000 -60.708740 0.000000 125.000000 -0.304208 0.493353 0.814899
8860.00000000 -9380.00000000 720.00000000 27 155 164 0.000000 0.000000 0.000000 0.000000 -60.708740 0.000000 125.000000 -0.557437 0.020646 0.829962
8830.00000000 -9300.00000000 740.00000000 27 155 164 0.000000 0.000000 0.000000 0.000000 -60.708740 0.000000 125.000000 0.783632 -0.275927 -0.556584
8770.00000000 -9310.00000000 800.00000000 27 155 164 0.000000 0.000000 0.000000 0.000000 -60.708740 0.000000 125.000000 0.716726 0.012525 -0.697242
8770.00000000 -9300.00000000 790.00000000 27 155 164 0.000000 0.000000 0.000000 0.000000 -60.708740 0.000000 125.000000 -0.623822 -0.009682 0.781506
8760.00000000 -9380.00000000 810.00000000 27 155 164 0.000000 0.000000 0.000000 0.000000 -60.708740 0.000000 125.000000 0.918451 0.096895 -0.383484
8820.00000000 -9350.00000000 660.00000000 27 155 164 0.000000 0.000000 0.000000 0.000000 -60.708740 0.000000 125.000000 0.583862 -0.553399 -0.594016
8790.00000000 -9320.00000000 670.00000000 27 155 164 0.000000 0.000000 0.000000 0.000000 -60.708740 0.000000 125.000000 -0.039560 0.322863 0.945619
8760.00000000 -9400.00000000 780.00000000 27 155 164 0.000000 0.000000 0.000000 0.000000 -60.708740 0.000000 125.000000 -0.692791 -0.104879 0.713471
8830.00000000 -9420.00000000 690.00000000 27 155 164 0.000000 0.000000 0.000000 0.000000 -60.708740 0.000000 125.000000 -0.475956 0.430160 0.767091
8860.00000000 -9600.00000000 940.00000000 27 155 164 0.000000 0.000000 0.000000 0.000000 -60.708740 0.000000 125.000000 0.900868 -0.006557 0.434043
8840.00000000 -9610.00000000 920.00000000 27 155 164 0.000000 0.000000 0.000000 0.000000 -60.708740 0.000000 125.000000 0.973356 0.168344 -0.155686
8860.00000000 -9570.00000000 900.00000000 27 155 164 0.000000 0.000000 0.000000 0.000000 -60.708740 0.000000 125.000000 0.987290 0.007880 0.158732
8810.00000000 -9540.00000000 840.00000000 27 155 164 0.000000 0.000000 0.000000 0.000000 -60.708740 0.000000 125.000000 0.894875 0.028090 -0.445431
8830.00000000 -9590.00000000 930.00000000 27 155 164 0.000000 0.000000 0.000000 0.000000 -60.708740 0.000000 125.000000 0.990230 0.046827 0.131345
8790.00000000 -9560.00000000 860.00000000 27 155 164 0.000000 0.000000 0.000000 0.000000 -60.708740 0.000000 125.000000 0.802268 -0.448563 -0.393899
8870.00000000 -9530.00000000 790.00000000 27 155 164 0.000000 0.000000 0.000000 0.000000 -60.708740 0.000000 125.000000 0.864565 -0.488917 -0.116136
8860.00000000 -9530.00000000 790.00000000 27 155 164 0.000000 0.000000 0.000000 0.000000 -60.708740 0.000000 125.000000 0.861004 -0.497119 -0.107446
8850.00000000 -9490.00000000 680.00000000 27 155 164 0.000000 0.000000 0.000000 0.000000 -60.708740 0.000000 125.000000 0.728133 -0.278825 -0.626162
8850.00000000 -9520.00000000 680.00000000 27 155 164 0.000000 0.000000 0.000000 0.000000 -60.708740 0.000000 125.000000 -0.549994 0.115251 0.827179
8870.00000000 -9500.00000000 720.00000000 27 155 164 0.000000 0.000000 0.000000 0.000000 -60.708740 0.000000 125.000000 0.812385 -0.023527 -0.582647
8900.00000000 -9550.00000000 720.00000000 27 155 164 0.000000 0.000000 0.000000 0.000000 -60.708740 0.000000 125.000000 0.816844 -0.216088 -0.534857
8860.00000000 -9600.00000000 680.00000000 27 155 164 0.000000 0.000000 0.000000 0.000000 -60.708740 0.000000 125.000000 0.789409 0.100683 -0.605554
8810.00000000 -9520.00000000 700.00000000 27 155 164 0.000000 0.000000 0.000000 0.000000 -60.708740 0.000000 125.000000 0.725985 -0.162852 -0.668150
8820.00000000 -9550.00000000 690.00000000 27 155 164 0.000000 0.000000 0.000000 0.000000 -60.708740 0.000000 125.000000 0.752644 0.006930 -0.658391
8810.00000000 -9550.00000000 680.00000000 27 155 164 0.000000 0.000000 0.000000 0.000000 -60.708740 0.000000 125.000000 -0.698750 -0.004151 0.715354
8810.00000000 -9550.00000000 680.00000000 27 155 164 0.000000 0.000000 0.000000 0.000000 -60.708740 0.000000 125.000000 -0.698750 -0.004151 0.715354
8790.00000000 -9520.00000000 660.00000000 27 155 164 0.000000 0.000000 0.000000 0.000000 -60.708740 0.000000 125.000000 -0.348477 0.433625 0.830983
8800.00000000 -9580.00000000 810.00000000 27 155 164 0.000000 0.000000 0.000000 0.000000 -60.708740 0.000000 125.000000 -0.673945 -0.023819 0.738397
8820.00000000 -9590.00000000 750.00000000 27 155 164 0.000000 0.000000 0.000000 0.000000 -60.708740 0.000000 125.000000 0.517440 -0.605085 -0.605085
8860.00000000 -9710.00000000 800.00000000 27 155 164 0.000000 0.000000 0.000000 0.000000 -60.708740 0.000000 125.000000 0.713451 -0.575045 -0.400389
8680.00000000 -9350.00000000 840.00000000 27 155 164 0.000000 0.000000 0.000000 0.000000 -60.708740 0.000000 125.000000 0.038331 -0.086519 0.995513
8670.00000000 -9360.00000000 840.00000000 27 155 164 0.000000 0.000000 0.000000 0.000000 -60.708740 0.000000 125.000000 0.632142 0.091975 0.769374
8680.00000000 -9350.00000000 840.00000000 27 155 164 0.000000 0.000000 0.000000 0.000000 -60.708740 0.000000 125.000000 0.038331 -0.086519 0.995513
8740.00000000 -9320.00000000 740.00000000 27 155 164 0.000000 0.000000 0.000000 0.000000 -60.708740 0.000000 125.000000 -0.268189 0.607790 0.747439
8720.00000000 -9340.00000000 750.00000000 27 155 164 0.000000 0.000000 0.000000 0.000000 -60.708740 0.000000 125.000000 -0.399066 0.380138 0.834411
8730.00000000 -9380.00000000 820.00000000 27 155 164 0.000000 0.000000 0.000000 0.000000 -60.708740 0.000000 125.000000 0.898814 -0.072728 -0.432254
8720.00000000 -9340.00000000 700.00000000 27 155 164 0.000000 0.000000 0.000000 0.000000 -60.708740 0.000000 125.000000 0.186616 0.442294 0.877240
8740.00000000 -9310.00000000 730.00000000 27 155 164 0.000000 0.000000 0.000000 0.000000 -60.708740 0.000000 125.000000 -0.336820 0.645978 0.685029
8730.00000000 -9320.00000000 670.00000000 27 155 164 0.000000 0.000000 0.000000 0.000000 -60.708740 0.000000 125.000000 0.114653 0.079910 0.990186
8750.00000000 -9340.00000000 660.00000000 27 155 164 0.000000 0.000000 0.000000 0.000000 -60.708740 0.000000 125.000000 -0.546897 0.337173 0.766301
8740.00000000 -9300.00000000 670.00000000 27 155 164 0.000000 0.000000 0.000000 0.000000 -60.708740 0.000000 125.000000 -0.311733 -0.011178 0.950104
8750.00000000 -9340.00000000 660.00000000 27 155 164 0.000000 0.000000 0.000000 0.000000 -60.708740 0.000000 125.000000 -0.546897 0.337173 0.766301
8730.00000000 -9350.00000000 700.00000000 27 155 164 0.000000 0.000000 0.000000 0.000000 -60.708740 0.000000 125.000000 -0.572985 0.097190 0.813783
8710.00000000 -9450.00000000 670.00000000 27 155 164 0.000000 0.000000 0.000000 0.000000 -60.708740 0.000000 125.000000 0.132655 0.159930 0.978174
8750.00000000 -9390.00000000 710.00000000 27 155 164 0.000000 0.000000 0.000000 0.000000 -60.708740 0.000000 125.000000 0.696339 -0.376978 -0.610737
8640.00000000 -9430.00000000 710.00000000 27 155 164 0.000000 0.000000 0.000000 0.000000 -60.708740 0.000000 125.000000 0.283873 0.249637 0.925796
8660.00000000 -9460.00000000 730.00000000 27 155 164 0.000000 0.000000 0.000000 0.000000 -60.708740 0.000000 125.000000 0.001205 0.271059 0.962562
8540.00000000 -9420.00000000 750.00000000 27 155 164 0.000000 0.000000 0.000000 0.000000 -60.708740 0.000000 125.000000 0.843678 0.043087 0.535117
8540.00000000 -9420.00000000 750.00000000 27 155 164 0.000000 0.000000 0.000000 0.000000 -60.708740 0.000000 125.000000 0.843678 0.043087 0.535117
8570.00000000 -9450.00000000 720.00000000 27 155 164 0.000000 0.000000 0.000000 0.000000 -60.708740 0.000000 125.000000 0.490670 0.325525 0.808255
8560.00000000 -9440.00000000 680.00000000 27 155 164 0.000000 0.000000 0.000000 0.000000 -60.708740 0.000000 125.000000 0.465644 0.171862 0.868124
8570.00000000 -9440.00000000 680.00000000 27 155 164 0.000000 0.000000 0.000000 0.000000 -60.708740 0.000000 125.000000 0.373370 0.156393 0.914405
8550.00000000 -9450.00000000 680.00000000 27 155 164 0.000000 0.000000 0.000000 0.000000 -60.708740 0.000000 125.000000 0.517005 -0.136208 0.845076
8470.00000000 -9420.00000000 660.00000000 27 155 164 0.000000 0.000000 0.000000 0.000000 -60.708740 0.000000 125.000000 0.872379 -0.118896 0.474150
8680.00000000 -9480.00000000 680.00000000 27 155 164 0.000000 0.000000 0.000000 0.000000 -60.708740 0.000000 125.000000 0.188444 0.422174 0.886712
8690.00000000 -9470.00000000 680.00000000 27 155 164 0.000000 0.000000 0.000000 0.000000 -60.708740 0.000000 125.000000 -0.255488 0.386968 0.885992
8620.00000000 -9470.00000000 670.00000000 27 155 164 0.000000 0.000000 0.000000 0.000000 -60.708740 0.000000 125.000000 0.424928 0.307493 0.851401
8820.00000000 -9250.00000000 560.00000000 27 155 164 0.000000 0.000000 0.000000 0.000000 -60.708740 0.000000 125.000000 -0.476256 -0.079609 0.875696
8810.00000000 -9340.00000000 620.00000000 27 155 164 0.000000 0.000000 0.000000 0.000000 -60.708740 0.000000 125.000000 0.682179 -0.455342 -0.572097
8800.00000000 -9300.00000000 570.00000000 27 155 164 0.000000 0.000000 0.000000 0.000000 -60.708740 0.000000 125.000000 -0.674900 0.182946 0.714871
8760.00000000 -9360.00000000 640.00000000 27 155 164 0.000000 0.000000 0.000000 0.000000 -60.708740 0.000000 125.000000 -0.168491 0.363883 0.916079
8780.00000000 -9350.00000000 640.00000000 27 155 164 0.000000 0.000000 0.000000 0.000000 -60.708740 0.000000 125.000000 -0.342568 0.300682 0.890077
8790.00000000 -9350.00000000 610.00000000 27 155 164 0.000000 0.000000 0.000000 0.000000 -60.708740 0.000000 125.000000 -0.279520 0.285313 0.916769
8770.00000000 -9490.00000000 620.00000000 27 155 164 0.000000 0.000000 0.000000 0.000000 -60.708740 0.000000 125.000000 -0.185179 0.132270 0.973763
8760.00000000 -9500.00000000 620.00000000 27 155 164 0.000000 0.000000 0.000000 0.000000 -60.708740 0.000000 125.000000 -0.446667 0.009223 0.894653
8760.00000000 -9510.00000000 620.00000000 27 155 164 0.000000 0.000000 0.000000 0.000000 -60.708740 0.000000 125.000000 -0.537196 0.156248 0.828859
8730.00000000 -9320.00000000 630.00000000 27 155 164 0.000000 0.000000 0.000000 0.000000 -60.708740 0.000000 125.000000 0.058252 0.589620 0.805577
8610.00000000 -9440.00000000 600.00000000 27 155 164 0.000000 0.000000 0.000000 0.000000 -60.708740 0.000000 125.000000 0.450498 -0.087868 0.888443
8530.00000000 -9450.00000000 630.00000000 27 155 164 0.000000 0.000000 0.000000 0.000000 -60.708740 0.000000 125.000000 0.358869 -0.067536 0.930941
8550.00000000 -9410.00000000 640.00000000 27 155 164 0.000000 0.000000 0.000000 0.000000 -60.708740 0.000000 125.000000 0.179612 0.197967 0.963612
10480.00000000 -1840.00000000 -750.00000000 27 155 164 0.000000 0.000000 0.000000 0.000000 -60.708740 0.000000 43.000000 0.706931 0.186359 0.682289
10490.00000000 -1840.00000000 -790.00000000 27 155 164 0.000000 0.000000 0.000000 0.000000 -60.708740 0.000000 43.000000 0.875659 0.137047 0.463075
10520.00000000 -1830.00000000 -830.00000000 27 155 164 0.000000 0.000000 0.000000 0.000000 -60.708740 0.000000 43.000000 0.945039 0.099408 0.311479
10510.00000000 -1850.00000000 -850.00000000 27 155 164 0.000000 0.000000 0.000000 0.000000 -60.708740 0.000000 43.000000 0.974713 -0.204355 -0.090412
10480.00000000 -1860.00000000 -850.00000000 27 155 164 0.000000 0.000000 0.000000 0.000000 -60.708740 0.000000 43.000000 0.863482 -0.077222 0.498433
10480.00000000 -1850.00000000 -850.00000000 27 155 164 0.000000 0.000000 0.000000 0.000000 -60.708740 0.000000 43.000000 0.966149 -0.040615 -0.254768
10520.00000000 -1840.00000000 -880.00000000 27 155 164 0.000000 0.000000 0.000000 0.000000 -60.708740 0.000000 43.000000 0.989050 0.012349 0.147066
10480.00000000 -1840.00000000 -910.00000000 27 155 164 0.000000 0.000000 0.000000 0.000000 -60.708740 0.000000 43.000000 0.995622 0.051592 -0.077937
10520.00000000 -1860.00000000 -900.00000000 27 155 164 0.000000 0.000000 0.000000 0.000000 -60.708740 0.000000 43.000000 0.944220 -0.215783 -0.248768
10470.00000000 -1870.00000000 -900.00000000 27 155 164 0.000000 0.000000 0.000000 0.000000 -60.708740 0.000000 43.000000 0.928146 -0.251580 -0.274322
10470.00000000 -1880.00000000 -960.00000000 27 155 164 0.000000 0.000000 0.000000 0.000000 -60.708740 0.000000 43.000000 0.994184 0.098643 -0.043225
10480.00000000 -1910.00000000 -790.00000000 27 155 164 0.000000 0.000000 0.000000 0.000000 -60.708740 0.000000 43.000000 0.924164 0.099358 0.368849
10480.00000000 -1950.00000000 -800.00000000 27 155 164 0.000000 0.000000 0.000000 0.000000 -60.708740 0.000000 43.000000 0.962817 -0.015864 0.269687
10450.00000000 -1950.00000000 -840.00000000 27 155 164 0.000000 0.000000 0.000000 0.000000 -60.708740 0.000000 43.000000 0.821356 -0.567764 0.054945
10480.00000000 -2010.00000000 -840.00000000 27 155 164 0.000000 0.000000 0.000000 0.000000 -60.708740 0.000000 43.000000 0.944696 -0.286807 -0.159035
10460.00000000 -2010.00000000 -820.00000000 27 155 164 0.000000 0.000000 0.000000 0.000000 -60.708740 0.000000 43.000000 0.963109 -0.179518 0.200484
10460.00000000 -2010.00000000 -820.00000000 27 155 164 0.000000 0.000000 0.000000 0.000000 -60.708740 0.000000 43.000000 0.963109 -0.179518 0.200484
10460.00000000 -1980.00000000 -830.00000000 27 155 164 0.000000 0.000000 0.000000 0.000000 -60.708740 0.000000 43.000000 0.817556 -0.380889 0.431886
10470.00000000 -2010.00000000 -840.00000000 27 155 164 0.000000 0.000000 0.000000 0.000000 -60.708740 0.000000 43.000000 0.983614 0.176606 0.036257
10470.00000000 -2040.00000000 -810.00000000 27 155 164 0.000000 0.000000 0.000000 0.000000 -60.708740 0.000000 43.000000 0.917773 -0.381144 -0.111454
10470.00000000 -2050.00000000 -840.00000000 27 155 164 0.000000 0.000000 0.000000 0.000000 -60.708740 0.000000 43.000000 0.998636 0.032484 0.040868
10480.00000000 -1910.00000000 -920.00000000 27 155 164 0.000000 0.000000 0.000000 0.000000 -60.708740 0.000000 43.000000 0.944935 -0.218697 -0.243455
10500.00000000 -1950.00000000 -880.00000000 27 155 164 0.000000 0.000000 0.000000 0.000000 -60.708740 0.000000 43.000000 0.907279 -0.246909 0.340412
10440.00000000 -1950.00000000 -930.00000000 27 155 164 0.000000 0.000000 0.000000 0.000000 -60.708740 0.000000 43.000000 0.795887 -0.443953 -0.411666
10490.00000000 -1910.00000000 -950.00000000 27 155 164 0.000000 0.000000 0.000000 0.000000 -60.708740 0.000000 43.000000 0.988903 -0.135324 0.061300
10490.00000000 -1930.00000000 -950.00000000 27 155 164 0.000000 0.000000 0.000000 0.000000 -60.708740 0.000000 43.000000 0.975722 -0.054543 -0.212113
10480.00000000 -2020.00000000 -900.00000000 27 155 164 0.000000 0.000000 0.000000 0.000000 -60.708740 0.000000 43.000000 0.959794 0.077959 -0.269662
10480.00000000 -2030.00000000 -880.00000000 27 155 164 0.000000 0.000000 0.000000 0.000000 -60.708740 0.000000 43.000000 0.871167 -0.465498 0.156139
10480.00000000 -2020.00000000 -890.00000000 27 155 164 0.000000 0.000000 0.000000 0.000000 -60.708740 0.000000 43.000000 0.960057 -0.267180 0.083094
10460.00000000 -2040.00000000 -870.00000000 27 155 164 0.000000 0.000000 0.000000 0.000000 -60.708740 0.000000 43.000000 0.826420 -0.431382 -0.361855
10460.00000000 -2090.00000000 -770.00000000 27 155 164 0.000000 0.000000 0.000000 0.000000 -60.708740 0.000000 43.000000 0.952126 -0.243755 -0.184500
10190.00000000 -1560.00000000 -660.00000000 27 155 164 0.000000 0.000000 0.000000 0.000000 -60.708740 0.000000 43.000000 -0.072263 0.262430 0.962242
10190.00000000 -1660.00000000 -640.00000000 27 155 164 0.000000 0.000000 0.000000 0.000000 -60.708740 0.000000 43.000000 -0.169010 0.024144 0.985318
10200.00000000 -1650.00000000 -630.00000000 27 155 164 0.000000 0.000000 0.000000 0.000000 -60.708740 0.000000 43.000000 -0.077496 0.077496 0.993976
10210.00000000 -1640.00000000 -620.00000000 27 155 164 0.000000 0.000000 0.000000 0.000000 -60.708740 0.000000 43.000000 0.020701 0.578238 0.815605
10170.00000000 -1610.00000000 -660.00000000 27 155 164 0.000000 0.000000 0.000000 0.000000 -60.708740 0.000000 43.000000 -0.426112 -0.086877 0.900489
10160.00000000 -1590.00000000 -640.00000000 27 155 164 0.000000 0.000000 0.000000 0.000000 -60.708740 0.000000 43.000000 0.104101 0.409462 0.906368
10160.00000000 -1710.00000000 -600.00000000 27 155 164 0.000000 0.000000 0.000000 0.000000 -60.708740 0.000000 43.000000 -0.231825 0.323979 0.917221
10170.00000000 -1700.00000000 -600.00000000 27 155 164 0.000000 0.000000 0.000000 0.000000 -60.708740 0.000000 43.000000 0.074035 0.386330 0.919384
10170.00000000 -1670.00000000 -640.00000000 27 155 164 0.000000 0.000000 0.000000 0.000000 -60.708740 0.000000 43.000000 0.076544 0.299689 0.950961
10160.00000000 -1670.00000000 -640.00000000 27 155 164 0.000000 0.000000 0.000000 0.000000 -60.708740 0.000000 43.000000 -0.582766 0.214866 0.783720
10110.00000000 -1080.00000000 -930.00000000 27 155 164 0.000000 0.000000 0.000000 0.000000 -60.708740 0.000000 43.000000 0.854823 0.092452 -0.510618
10110.00000000 -1140.00000000 -910.00000000 27 155 164 0.000000 0.000000 0.000000 0.000000 -60.708740 0.000000 43.000000 0.708687 -0.386407 -0.590298
10130.00000000 -1200.00000000 -870.00000000 27 155 164 0.000000 0.000000 0.000000 0.000000 -60.708740 0.000000 43.000000 0.847631 -0.069108 -0.526067
10140.00000000 -1240.00000000 -840.00000000 27 155 164 0.000000 0.000000 0.000000 0.000000 -60.708740 0.000000 43.000000 0.811193 0.109621 -0.574412
10110.00000000 -1260.00000000 -800.00000000 27 155 164 0.000000 0.000000 0.000000 0.000000 -60.708740 0.000000 43.000000 0.552266 -0.491836 -0.673127
10130.00000000 -1260.00000000 -820.00000000 27 155 164 0.000000 0.000000 0.000000 0.000000 -60.708740 0.000000 43.000000 0.778506 -0.433948 -0.453451
10110.00000000 -1290.00000000 -810.00000000 27 155 164 0.000000 0.000000 0.000000 0.000000 -60.708740 0.000000 43.000000 -0.352667 0.510482 0.784241
10100.00000000 -1270.00000000 -830.00000000 27 155 164 0.000000 0.000000 0.000000 0.000000 -60.708740 0.000000 43.000000 0.888878 -0.289297 -0.355251
10170.00000000 -1380.00000000 -760.00000000 27 155 164 0.000000 0.000000 0.000000 0.000000 -60.708740 0.000000 43.000000 -0.367319 0.446826 0.815735
10150.00000000 -1330.00000000 -820.00000000 27 155 164 0.000000 0.000000 0.000000 0.000000 -60.708740 0.000000 43.000000 -0.633649 0.290355 0.717066
10170.00000000 -1340.00000000 -820.00000000 27 155 164 0.000000 0.000000 0.000000 0.000000 -60.708740 0.000000 43.000000 -0.635358 0.547723 0.544352
10180.00000000 -1340.00000000 -850.00000000 27 155 164 0.000000 0.000000 0.000000 0.000000 -60.708740 0.000000 43.000000 0.748607 -0.243258 -0.616777
10100.00000000 -1300.00000000 -810.00000000 27 155 164 0.000000 0.000000 0.000000 0.000000 -60.708740 0.000000 43.000000 -0.424995 0.195586 0.883813
10140.00000000 -1330.00000000 -820.00000000 27 155 164 0.000000 0.000000 0.000000 0.000000 -60.708740 0.000000 43.000000 0.667081 -0.182489 -0.722288
10110.00000000 -1310.00000000 -800.00000000 27 155 164 0.000000 0.000000 0.000000 0.000000 -60.708740 0.000000 43.000000 -0.503590 0.380527 0.775626
10120.00000000 -1340.00000000 -790.00000000 27 155 164 0.000000 0.000000 0.000000 0.000000 -60.708740 0.000000 43.000000 -0.613065 -0.064308 0.787410
10130.00000000 -1370.00000000 -840.00000000 27 155 164 0.000000 0.000000 0.000000 0.000000 -60.708740 0.000000 43.000000 -0.499627 0.627478 0.597197
10170.00000000 -1310.00000000 -900.00000000 27 155 164 0.000000 0.000000 0.000000 0.000000 -60.708740 0.000000 43.000000 0.909111 -0.027709 -0.415631
10130.00000000 -1320.00000000 -880.00000000 27 155 164 0.000000 0.000000 0.000000 0.000000 -60.708740 0.000000 43.000000 0.863600 0.051125 -0.501579
10130.00000000 -1360.00000000 -880.00000000 27 155 164 0.000000 0.000000 0.000000 0.000000 -60.708740 0.000000 43.000000 -0.500920 0.524375 0.688556
10270.00000000 -1640.00000000 -730.00000000 27 155 164 0.000000 0.000000 0.000000 0.000000 -60.708740 0.000000 43.000000 -0.249622 0.238465 0.938522
10280.00000000 -1710.00000000 -720.00000000 27 155 164 0.000000 0.000000 0.000000 0.000000 -60.708740 0.000000 43.000000 0.563791 0.245194 0.788682
10220.00000000 -1460.00000000 -800.00000000 27 155 164 0.000000 0.000000 0.000000 0.000000 -60.708740 0.000000 43.000000 0.123236 0.173029 0.977177
10190.00000000 -1480.00000000 -760.00000000 27 155 164 0.000000 0.000000 0.000000 0.000000 -60.708740 0.000000 43.000000 -0.619264 0.212630 0.755844
10220.00000000 -1540.00000000 -750.00000000 27 155 164 0.000000 0.000000 0.000000 0.000000 -60.708740 0.000000 43.000000 -0.109582 0.582978 0.805064
10200.00000000 -1480.00000000 -780.00000000 27 155 164 0.000000 0.000000 0.000000 0.000000 -60.708740 0.000000 43.000000 -0.346167 0.367707 0.863111
10150.00000000 -1450.00000000 -720.00000000 27 155 164 0.000000 0.000000 0.000000 0.000000 -60.708740 0.000000 43.000000 0.716413 -0.307494 -0.626258
10170.00000000 -1400.00000000 -800.00000000 27 155 164 0.000000 0.000000 0.000000 0.000000 -60.708740 0.000000 43.000000 -0.623911 -0.029443 0.780940
10150.00000000 -1460.00000000 -800.00000000 27 155 164 0.000000 0.000000 0.000000 0.000000 -60.708740 0.000000 43.000000 -0.597330 0.113008 0.793994
10160.00000000 -1430.00000000 -830.00000000 27 155 164 0.000000 0.000000 0.000000 0.000000 -60.708740 0.000000 43.000000 -0.423270 0.188934 0.886085
10140.00000000 -1390.00000000 -790.00000000 27 155 164 0.000000 0.000000 0.000000 0.000000 -60.708740 0.000000 43.000000 -0.209841 0.250987 0.944972
10170.00000000 -1470.00000000 -750.00000000 27 155 164 0.000000 0.000000 0.000000 0.000000 -60.708740 0.000000 43.000000 -0.217294 0.152236 0.964161
10170.00000000 -1550.00000000 -720.00000000 27 155 164 0.000000 0.000000 0.000000 0.000000 -60.708740 0.000000 43.000000 -0.556047 -0.057716 0.829144
10170.00000000 -1550.00000000 -720.00000000 27 155 164 0.000000 0.000000 0.000000 0.000000 -60.708740 0.000000 43.000000 -0.556047 -0.057716 0.829144
10180.00000000 -1480.00000000 -790.00000000 27 155 164 0.000000 0.000000 0.000000 0.000000 -60.708740 0.000000 43.000000 -0.474745 0.575397 0.665985
10180.00000000 -1500.00000000 -780.00000000 27 155 164 0.000000 0.000000 0.000000 0.000000 -60.708740 0.000000 43.000000 -0.017611 0.207812 0.978010
10230.00000000 -1580.00000000 -750.00000000 27 155 164 0.000000 0.000000 0.000000 0.000000 -60.708740 0.000000 43.000000 0.098280 0.163800 0.981586
10220.00000000 -1570.00000000 -770.00000000 27 155 164 0.000000 0.000000 0.000000 0.000000 -60.708740 0.000000 43.000000 0.163073 0.019386 0.986423
10200.00000000 -1570.00000000 -750.00000000 27 155 164 0.000000 0.000000 0.000000 0.000000 -60.708740 0.000000 43.000000 -0.147635 -0.001110 0.989041
10210.00000000 -1560.00000000 -750.00000000 27 155 164 0.000000 0.000000 0.000000 0.000000 -60.708740 0.000000 43.000000 0.087214 0.436071 0.895676
10200.00000000 -1600.00000000 -790.00000000 27 155 164 0.000000 0.000000 0.000000 0.000000 -60.708740 0.000000 43.000000 -0.317364 0.088230 0.944191
10230.00000000 -1610.00000000 -780.00000000 27 155 164 0.000000 0.000000 0.000000 0.000000 -60.708740 0.000000 43.000000 0.119111 0.309154 0.943523
10210.00000000 -1590.00000000 -790.00000000 27 155 164 0.000000 0.000000 0.000000 0.000000 -60.708740 0.000000 43.000000 -0.402822 0.281215 0.871007
10250.00000000 -1640.00000000 -720.00000000 27 155 164 0.000000 0.000000 0.000000 0.000000 -60.708740 0.000000 43.000000 0.164058 0.043051 0.985511
10250.00000000 -1650.00000000 -700.00000000 27 155 164 0.000000 0.000000 0.000000 0.000000 -60.708740 0.000000 43.000000 0.411146 0.291929 0.863560
