//X Y Z R G B PointSourceId ScanDirectionFlag NumberOfReturns ReturnNumber GpsTime Intensity Classification Nx Ny Nz
17330.00000000 -3880.00000000 170.00000000 81 150 140 97.000000 1.000000 4.000000 1.000000 -60.708740 114.000000 118.000000 0.169866 0.142184 0.975156
17280.00000000 -3800.00000000 0.00000000 81 150 140 97.000000 1.000000 4.000000 1.000000 -60.708740 114.000000 118.000000 -0.187848 0.217158 0.957891
17180.00000000 -3890.00000000 0.00000000 81 150 140 97.000000 1.000000 4.000000 1.000000 -60.708740 114.000000 118.000000 0.037208 0.525041 0.850263
17180.00000000 -3880.00000000 -10.00000000 81 150 140 97.000000 1.000000 4.000000 1.000000 -60.708740 114.000000 118.000000 -0.231788 0.385329 0.893194
17190.00000000 -3890.00000000 -10.00000000 81 150 140 97.000000 1.000000 4.000000 1.000000 -60.708740 114.000000 118.000000 -0.077091 -0.150624 0.985581
17070.00000000 -3970.00000000 230.00000000 81 150 140 97.000000 1.000000 4.000000 1.000000 -60.708740 114.000000 118.000000 0.285567 -0.023488 0.958071
17010.00000000 -4050.00000000 240.00000000 81 150 140 97.000000 1.000000 4.000000 1.000000 -60.708740 114.000000 118.000000 0.457448 -0.079254 0.885697
17050.00000000 -4040.00000000 210.00000000 81 150 140 97.000000 1.000000 4.000000 1.000000 -60.708740 114.000000 118.000000 0.547465 -0.377506 0.746841
17060.00000000 -4050.00000000 200.00000000 81 150 140 97.000000 1.000000 4.000000 1.000000 -60.708740 114.000000 118.000000 -0.018266 -0.087032 0.996038
17060.00000000 -4010.00000000 230.00000000 81 150 140 97.000000 1.000000 4.000000 1.000000 -60.708740 114.000000 118.000000 0.306641 0.197427 0.931125
17070.00000000 -4000.00000000 210.00000000 81 150 140 97.000000 1.000000 4.000000 1.000000 -60.708740 114.000000 118.000000 0.228692 -0.359790 0.904572
17050.00000000 -4050.00000000 230.00000000 81 150 140 97.000000 1.000000 4.000000 1.000000 -60.708740 114.000000 118.000000 0.526742 -0.025995 0.849628
17050.00000000 -4040.00000000 220.00000000 81 150 140 97.000000 1.000000 4.000000 1.000000 -60.708740 114.000000 118.000000 0.585086 -0.106512 0.803946
17170.00000000 -3960.00000000 0.00000000 81 150 140 97.000000 1.000000 4.000000 1.000000 -60.708740 114.000000 118.000000 0.679446 -0.358551 0.640152
17130.00000000 -3910.00000000 0.00000000 81 150 140 97.000000 1.000000 4.000000 1.000000 -60.708740 114.000000 118.000000 0.141283 0.327831 0.934112
17170.00000000 -3920.00000000 0.00000000 81 150 140 97.000000 1.000000 4.000000 1.000000 -60.708740 114.000000 118.000000 -0.068822 -0.400789 0.913582
17130.00000000 -3910.00000000 0.00000000 81 150 140 97.000000 1.000000 4.000000 1.000000 -60.708740 114.000000 118.000000 0.141283 0.327831 0.934112
17160.00000000 -3920.00000000 10.00000000 81 150 140 97.000000 1.000000 4.000000 1.000000 -60.708740 114.000000 118.000000 -0.247274 -0.032889 0.968387
17100.00000000 -4040.00000000 30.00000000 81 150 140 97.000000 1.000000 4.000000 1.000000 -60.708740 114.000000 118.000000 0.422019 -0.365118 0.829813
17090.00000000 -4120.00000000 180.00000000 81 150 140 97.000000 1.000000 4.000000 1.000000 -60.708740 114.000000 118.000000 0.551119 -0.254483 0.794674
17040.00000000 -4210.00000000 220.00000000 81 150 140 97.000000 1.000000 4.000000 1.000000 -60.708740 114.000000 118.000000 0.220266 -0.209456 0.952686
17110.00000000 -4120.00000000 40.00000000 81 150 140 97.000000 1.000000 4.000000 1.000000 -60.708740 114.000000 118.000000 0.307280 -0.533362 0.788102
17110.00000000 -4130.00000000 30.00000000 81 150 140 97.000000 1.000000 4.000000 1.000000 -60.708740 114.000000 118.000000 -0.384537 0.812156 -0.438787
17090.00000000 -4120.00000000 40.00000000 81 150 140 97.000000 1.000000 4.000000 1.000000 -60.708740 114.000000 118.000000 0.506618 -0.755828 0.414804
17100.00000000 -4120.00000000 40.00000000 81 150 140 97.000000 1.000000 4.000000 1.000000 -60.708740 114.000000 118.000000 0.133551 -0.697765 0.703767
17120.00000000 -4160.00000000 0.00000000 81 150 140 97.000000 1.000000 4.000000 1.000000 -60.708740 114.000000 118.000000 -0.555242 0.665955 -0.498208
17110.00000000 -4140.00000000 10.00000000 81 150 140 97.000000 1.000000 4.000000 1.000000 -60.708740 114.000000 118.000000 0.240784 -0.671993 0.700320
17060.00000000 -4160.00000000 120.00000000 81 150 140 97.000000 1.000000 4.000000 1.000000 -60.708740 114.000000 118.000000 0.472171 -0.381927 0.794472
17080.00000000 -4130.00000000 0.00000000 81 150 140 97.000000 1.000000 4.000000 1.000000 -60.708740 114.000000 118.000000 -0.584488 0.759675 -0.285077
17050.00000000 -4220.00000000 80.00000000 81 150 140 97.000000 1.000000 4.000000 1.000000 -60.708740 114.000000 118.000000 -0.175743 0.750345 -0.637258
17050.00000000 -4200.00000000 60.00000000 81 150 140 97.000000 1.000000 4.000000 1.000000 -60.708740 114.000000 118.000000 -0.079161 0.927128 -0.366289
17050.00000000 -4290.00000000 70.00000000 81 150 140 97.000000 1.000000 4.000000 1.000000 -60.708740 114.000000 118.000000 -0.317923 0.945982 -0.063585
16980.00000000 -4110.00000000 170.00000000 81 150 140 97.000000 1.000000 4.000000 1.000000 -60.708740 114.000000 118.000000 0.544570 -0.205930 0.813041
16990.00000000 -4280.00000000 10.00000000 81 150 140 97.000000 1.000000 4.000000 1.000000 -60.708740 114.000000 118.000000 -0.496423 0.857458 0.135388
17000.00000000 -4290.00000000 60.00000000 81 150 140 97.000000 1.000000 4.000000 1.000000 -60.708740 114.000000 118.000000 -0.294823 0.913516 -0.280300
16690.00000000 -4180.00000000 340.00000000 81 150 140 97.000000 1.000000 4.000000 1.000000 -60.708740 114.000000 118.000000 0.025212 -0.104138 0.994243
15490.00000000 -4670.00000000 330.00000000 81 150 140 97.000000 1.000000 4.000000 1.000000 -60.708740 114.000000 121.000000 -0.121015 -0.147908 0.981569
15550.00000000 -4590.00000000 440.00000000 81 150 140 97.000000 1.000000 4.000000 1.000000 -60.708740 114.000000 121.000000 -0.145045 0.302290 0.942116
15510.00000000 -5020.00000000 260.00000000 81 150 140 97.000000 1.000000 4.000000 1.000000 -60.708740 114.000000 121.000000 -0.681355 0.642141 -0.351298
15450.00000000 -4670.00000000 330.00000000 81 150 140 97.000000 1.000000 4.000000 1.000000 -60.708740 114.000000 121.000000 -0.206221 -0.154342 0.966256
15330.00000000 -4680.00000000 380.00000000 81 150 140 97.000000 1.000000 4.000000 1.000000 -60.708740 114.000000 121.000000 -0.180927 0.083785 0.979921
15210.00000000 -4550.00000000 410.00000000 81 150 140 97.000000 1.000000 4.000000 1.000000 -60.708740 114.000000 121.000000 0.026475 0.801222 0.597781
15170.00000000 -4540.00000000 460.00000000 81 150 140 97.000000 1.000000 4.000000 1.000000 -60.708740 114.000000 121.000000 -0.364375 0.854344 0.370577
15180.00000000 -4560.00000000 450.00000000 81 150 140 97.000000 1.000000 4.000000 1.000000 -60.708740 114.000000 121.000000 -0.457693 0.467536 0.756259
15300.00000000 -4740.00000000 570.00000000 81 150 140 97.000000 1.000000 4.000000 1.000000 -60.708740 114.000000 121.000000 0.406599 -0.253562 0.877715
15320.00000000 -4700.00000000 540.00000000 81 150 140 97.000000 1.000000 4.000000 1.000000 -60.708740 114.000000 121.000000 -0.118390 0.293980 0.948451
15210.00000000 -4670.00000000 560.00000000 81 150 140 97.000000 1.000000 4.000000 1.000000 -60.708740 114.000000 121.000000 0.003445 0.189485 0.981878
15240.00000000 -4730.00000000 450.00000000 81 150 140 97.000000 1.000000 4.000000 1.000000 -60.708740 114.000000 121.000000 -0.083883 -0.140592 0.986508
15160.00000000 -4650.00000000 430.00000000 81 150 140 97.000000 1.000000 4.000000 1.000000 -60.708740 114.000000 121.000000 -0.199980 0.439957 0.875469
15210.00000000 -4650.00000000 330.00000000 81 150 140 97.000000 1.000000 4.000000 1.000000 -60.708740 114.000000 121.000000 -0.266540 0.863588 0.427986
15170.00000000 -4710.00000000 450.00000000 81 150 140 97.000000 1.000000 4.000000 1.000000 -60.708740 114.000000 121.000000 -0.114484 0.531844 0.839068
15160.00000000 -4710.00000000 450.00000000 81 150 140 97.000000 1.000000 4.000000 1.000000 -60.708740 114.000000 121.000000 -0.218773 0.521690 0.824607
15210.00000000 -4750.00000000 440.00000000 81 150 140 97.000000 1.000000 4.000000 1.000000 -60.708740 114.000000 121.000000 -0.273878 0.070062 0.959209
15230.00000000 -4740.00000000 480.00000000 81 150 140 97.000000 1.000000 4.000000 1.000000 -60.708740 114.000000 121.000000 0.195333 -0.286765 0.937876
15330.00000000 -4540.00000000 40.00000000 81 150 140 97.000000 1.000000 4.000000 1.000000 -60.708740 114.000000 121.000000 0.023879 -0.729022 0.684073
15420.00000000 -4670.00000000 260.00000000 81 150 140 97.000000 1.000000 4.000000 1.000000 -60.708740 114.000000 121.000000 0.020784 -0.103922 0.994368
15330.00000000 -4730.00000000 300.00000000 81 150 140 97.000000 1.000000 4.000000 1.000000 -60.708740 114.000000 121.000000 -0.097117 -0.223244 0.969913
15440.00000000 -4680.00000000 30.00000000 81 150 140 97.000000 1.000000 4.000000 1.000000 -60.708740 114.000000 121.000000 -0.085843 0.267779 0.959649
15410.00000000 -4680.00000000 20.00000000 81 150 140 97.000000 1.000000 4.000000 1.000000 -60.708740 114.000000 121.000000 0.060876 -0.078585 0.995047
15370.00000000 -4700.00000000 110.00000000 81 150 140 97.000000 1.000000 4.000000 1.000000 -60.708740 114.000000 121.000000 0.345597 -0.274401 0.897366
15360.00000000 -4690.00000000 140.00000000 81 150 140 97.000000 1.000000 4.000000 1.000000 -60.708740 114.000000 121.000000 0.016898 -0.393863 0.919014
15270.00000000 -4540.00000000 280.00000000 81 150 140 97.000000 1.000000 4.000000 1.000000 -60.708740 114.000000 121.000000 -0.418570 0.895712 0.150000
15280.00000000 -4530.00000000 250.00000000 81 150 140 97.000000 1.000000 4.000000 1.000000 -60.708740 114.000000 121.000000 -0.665374 0.723767 0.182863
15280.00000000 -4550.00000000 160.00000000 81 150 140 97.000000 1.000000 4.000000 1.000000 -60.708740 114.000000 121.000000 -0.427669 0.902556 0.049917
15190.00000000 -4530.00000000 250.00000000 81 150 140 97.000000 1.000000 4.000000 1.000000 -60.708740 114.000000 121.000000 -0.031480 0.950701 0.308506
15250.00000000 -4550.00000000 140.00000000 81 150 140 97.000000 1.000000 4.000000 1.000000 -60.708740 114.000000 121.000000 -0.423090 0.812652 -0.400738
15280.00000000 -4560.00000000 80.00000000 81 150 140 97.000000 1.000000 4.000000 1.000000 -60.708740 114.000000 121.000000 -0.001381 -0.697373 0.716707
15260.00000000 -4580.00000000 30.00000000 81 150 140 97.000000 1.000000 4.000000 1.000000 -60.708740 114.000000 121.000000 -0.639663 0.609442 -0.468414
15300.00000000 -4580.00000000 0.00000000 81 150 140 97.000000 1.000000 4.000000 1.000000 -60.708740 114.000000 121.000000 0.078364 -0.349316 0.933722
15270.00000000 -4640.00000000 290.00000000 81 150 140 97.000000 1.000000 4.000000 1.000000 -60.708740 114.000000 121.000000 -0.063819 0.563024 0.823973
15260.00000000 -4640.00000000 290.00000000 81 150 140 97.000000 1.000000 4.000000 1.000000 -60.708740 114.000000 121.000000 0.004117 0.599775 0.800158
15250.00000000 -4630.00000000 160.00000000 81 150 140 97.000000 1.000000 4.000000 1.000000 -60.708740 114.000000 121.000000 -0.666698 0.656870 -0.352187
15250.00000000 -4670.00000000 250.00000000 81 150 140 97.000000 1.000000 4.000000 1.000000 -60.708740 114.000000 121.000000 -0.473841 0.738003 0.480445
15310.00000000 -4680.00000000 270.00000000 81 150 140 97.000000 1.000000 4.000000 1.000000 -60.708740 114.000000 121.000000 -0.138419 0.596841 0.790330
15230.00000000 -4660.00000000 180.00000000 81 150 140 97.000000 1.000000 4.000000 1.000000 -60.708740 114.000000 121.000000 0.693488 -0.624631 0.359040
15230.00000000 -4680.00000000 180.00000000 81 150 140 97.000000 1.000000 4.000000 1.000000 -60.708740 114.000000 121.000000 0.196638 -0.553331 0.809418
15310.00000000 -4610.00000000 30.00000000 81 150 140 97.000000 1.000000 4.000000 1.000000 -60.708740 114.000000 121.000000 0.148052 -0.040169 0.988163
15340.00000000 -5020.00000000 360.00000000 81 150 140 97.000000 1.000000 4.000000 1.000000 -60.708740 114.000000 121.000000 -0.621023 0.660981 -0.421230
15240.00000000 -4760.00000000 480.00000000 81 150 140 97.000000 1.000000 4.000000 1.000000 -60.708740 114.000000 121.000000 0.119210 0.306731 0.944302
15270.00000000 -4770.00000000 460.00000000 81 150 140 97.000000 1.000000 4.000000 1.000000 -60.708740 114.000000 121.000000 0.501419 0.113502 0.857728
15230.00000000 -4760.00000000 480.00000000 81 150 140 97.000000 1.000000 4.000000 1.000000 -60.708740 114.000000 121.000000 -0.147931 0.079291 0.985814
15190.00000000 -4760.00000000 440.00000000 81 150 140 97.000000 1.000000 4.000000 1.000000 -60.708740 114.000000 121.000000 0.169923 0.489083 0.855526
15300.00000000 -4980.00000000 370.00000000 81 150 140 97.000000 1.000000 4.000000 1.000000 -60.708740 114.000000 121.000000 -0.307973 0.807047 -0.503812
15320.00000000 -4990.00000000 340.00000000 81 150 140 97.000000 1.000000 4.000000 1.000000 -60.708740 114.000000 121.000000 -0.441388 0.897269 0.009223
15310.00000000 -5010.00000000 320.00000000 81 150 140 97.000000 1.000000 4.000000 1.000000 -60.708740 114.000000 121.000000 0.707098 -0.615649 0.347834
15330.00000000 -4970.00000000 240.00000000 81 150 140 97.000000 1.000000 4.000000 1.000000 -60.708740 114.000000 121.000000 -0.559085 0.772525 -0.301046
15340.00000000 -4930.00000000 230.00000000 81 150 140 97.000000 1.000000 4.000000 1.000000 -60.708740 114.000000 121.000000 -0.622027 0.778622 -0.082647
15200.00000000 -4860.00000000 310.00000000 81 150 140 97.000000 1.000000 4.000000 1.000000 -60.708740 114.000000 121.000000 0.486588 -0.427607 0.761829
15300.00000000 -4970.00000000 260.00000000 81 150 140 97.000000 1.000000 4.000000 1.000000 -60.708740 114.000000 121.000000 0.743794 -0.653637 0.139743
15250.00000000 -5000.00000000 240.00000000 81 150 140 97.000000 1.000000 4.000000 1.000000 -60.708740 114.000000 121.000000 -0.066097 0.997746 -0.011541
15110.00000000 -4650.00000000 440.00000000 81 150 140 97.000000 1.000000 4.000000 1.000000 -60.708740 114.000000 121.000000 0.032866 0.393072 0.918920
15090.00000000 -4620.00000000 450.00000000 81 150 140 97.000000 1.000000 4.000000 1.000000 -60.708740 114.000000 121.000000 -0.464287 0.713903 0.524195
15140.00000000 -4610.00000000 420.00000000 81 150 140 97.000000 1.000000 4.000000 1.000000 -60.708740 114.000000 121.000000 0.206322 0.736865 0.643787
15110.00000000 -4610.00000000 400.00000000 81 150 140 97.000000 1.000000 4.000000 1.000000 -60.708740 114.000000 121.000000 0.576143 -0.566005 -0.589659
15080.00000000 -4620.00000000 400.00000000 81 150 140 97.000000 1.000000 4.000000 1.000000 -60.708740 114.000000 121.000000 -0.260538 0.750034 0.607922
15140.00000000 -4650.00000000 380.00000000 81 150 140 97.000000 1.000000 4.000000 1.000000 -60.708740 114.000000 121.000000 -0.012141 0.511280 0.859328
15130.00000000 -4700.00000000 440.00000000 81 150 140 97.000000 1.000000 4.000000 1.000000 -60.708740 114.000000 121.000000 0.064652 0.060269 0.996086
15070.00000000 -4710.00000000 430.00000000 81 150 140 97.000000 1.000000 4.000000 1.000000 -60.708740 114.000000 121.000000 -0.124207 0.339864 0.932237
15110.00000000 -4720.00000000 440.00000000 81 150 140 97.000000 1.000000 4.000000 1.000000 -60.708740 114.000000 121.000000 0.065975 0.086103 0.994099
15060.00000000 -4630.00000000 440.00000000 81 150 140 97.000000 1.000000 4.000000 1.000000 -60.708740 114.000000 121.000000 -0.275431 0.307492 0.910816
15100.00000000 -4760.00000000 440.00000000 81 150 140 97.000000 1.000000 4.000000 1.000000 -60.708740 114.000000 121.000000 -0.232315 0.300726 0.924983
15150.00000000 -4760.00000000 440.00000000 81 150 140 97.000000 1.000000 4.000000 1.000000 -60.708740 114.000000 121.000000 -0.203014 -0.082436 0.975699
15120.00000000 -5080.00000000 200.00000000 81 150 140 97.000000 1.000000 4.000000 1.000000 -60.708740 114.000000 121.000000 -0.200923 0.953371 0.225195
17850.00000000 -3230.00000000 -280.00000000 81 150 140 97.000000 1.000000 4.000000 1.000000 -60.708740 114.000000 118.000000 -0.666831 0.686113 -0.290835
17890.00000000 -3350.00000000 -20.00000000 81 150 140 97.000000 1.000000 4.000000 1.000000 -60.708740 114.000000 118.000000 -0.104194 0.767517 0.632504
17890.00000000 -3330.00000000 -90.00000000 81 150 140 97.000000 1.000000 4.000000 1.000000 -60.708740 114.000000 118.000000 -0.001384 0.693136 0.720806
17850.00000000 -3360.00000000 -40.00000000 81 150 140 97.000000 1.000000 4.000000 1.000000 -60.708740 114.000000 118.000000 -0.055630 0.640455 0.765978
17850.00000000 -3360.00000000 -40.00000000 81 150 140 97.000000 1.000000 4.000000 1.000000 -60.708740 114.000000 118.000000 -0.055630 0.640455 0.765978
17860.00000000 -3320.00000000 -80.00000000 81 150 140 97.000000 1.000000 4.000000 1.000000 -60.708740 114.000000 118.000000 -0.460861 0.713753 0.527412
17860.00000000 -3330.00000000 -80.00000000 81 150 140 97.000000 1.000000 4.000000 1.000000 -60.708740 114.000000 118.000000 0.382709 -0.711215 -0.589667
17870.00000000 -3340.00000000 -70.00000000 81 150 140 97.000000 1.000000 4.000000 1.000000 -60.708740 114.000000 118.000000 0.081316 0.831701 0.549237
17860.00000000 -3340.00000000 -70.00000000 81 150 140 97.000000 1.000000 4.000000 1.000000 -60.708740 114.000000 118.000000 -0.111045 0.846540 0.520615
17870.00000000 -3380.00000000 -70.00000000 81 150 140 97.000000 1.000000 4.000000 1.000000 -60.708740 114.000000 118.000000 -0.243673 0.906112 0.345811
17860.00000000 -3350.00000000 -140.00000000 81 150 140 97.000000 1.000000 4.000000 1.000000 -60.708740 114.000000 118.000000 -0.530090 0.846185 0.054547
17900.00000000 -3330.00000000 -230.00000000 81 150 140 97.000000 1.000000 4.000000 1.000000 -60.708740 114.000000 118.000000 -0.372073 0.910938 0.178196
17940.00000000 -3300.00000000 -200.00000000 81 150 140 97.000000 1.000000 4.000000 1.000000 -60.708740 114.000000 118.000000 -0.307135 0.879042 0.364628
17860.00000000 -3410.00000000 -80.00000000 81 150 140 97.000000 1.000000 4.000000 1.000000 -60.708740 114.000000 118.000000 -0.403563 0.756476 0.514665
17840.00000000 -3360.00000000 -40.00000000 81 150 140 97.000000 1.000000 4.000000 1.000000 -60.708740 114.000000 118.000000 0.149425 0.835891 0.528165
17780.00000000 -3340.00000000 -90.00000000 81 150 140 97.000000 1.000000 4.000000 1.000000 -60.708740 114.000000 118.000000 -0.493986 0.869469 0.001331
17830.00000000 -3350.00000000 -170.00000000 81 150 140 97.000000 1.000000 4.000000 1.000000 -60.708740 114.000000 118.000000 -0.073087 0.989570 0.124131
17780.00000000 -3340.00000000 -110.00000000 81 150 140 97.000000 1.000000 4.000000 1.000000 -60.708740 114.000000 118.000000 -0.217754 0.881387 0.419214
17800.00000000 -3400.00000000 -110.00000000 81 150 140 97.000000 1.000000 4.000000 1.000000 -60.708740 114.000000 118.000000 -0.258559 0.718571 0.645603
17780.00000000 -3370.00000000 -130.00000000 81 150 140 97.000000 1.000000 4.000000 1.000000 -60.708740 114.000000 118.000000 -0.092215 0.994369 -0.052218
17760.00000000 -3390.00000000 -40.00000000 81 150 140 97.000000 1.000000 4.000000 1.000000 -60.708740 114.000000 118.000000 -0.442356 0.849263 0.288225
17760.00000000 -3330.00000000 -130.00000000 81 150 140 97.000000 1.000000 4.000000 1.000000 -60.708740 114.000000 118.000000 -0.638314 0.768525 -0.043875
17830.00000000 -3300.00000000 -190.00000000 81 150 140 97.000000 1.000000 4.000000 1.000000 -60.708740 114.000000 118.000000 -0.476381 0.778794 0.408094
17830.00000000 -3300.00000000 -220.00000000 81 150 140 97.000000 1.000000 4.000000 1.000000 -60.708740 114.000000 118.000000 -0.504035 0.850835 -0.148419
17820.00000000 -3280.00000000 -270.00000000 81 150 140 97.000000 1.000000 4.000000 1.000000 -60.708740 114.000000 118.000000 -0.468722 0.811923 -0.347967
17780.00000000 -3250.00000000 -260.00000000 81 150 140 97.000000 1.000000 4.000000 1.000000 -60.708740 114.000000 118.000000 -0.355099 0.880947 -0.312789
17810.00000000 -3350.00000000 -190.00000000 81 150 140 97.000000 1.000000 4.000000 1.000000 -60.708740 114.000000 118.000000 -0.345201 0.892143 -0.291404
17770.00000000 -3360.00000000 -230.00000000 81 150 140 97.000000 1.000000 4.000000 1.000000 -60.708740 114.000000 118.000000 -0.627304 0.689543 -0.361969
17790.00000000 -3390.00000000 -290.00000000 81 150 140 97.000000 1.000000 4.000000 1.000000 -60.708740 114.000000 118.000000 -0.634881 0.772599 -0.004132
17710.00000000 -3300.00000000 -280.00000000 81 150 140 97.000000 1.000000 4.000000 1.000000 -60.708740 114.000000 118.000000 -0.324872 0.873952 -0.361477
17740.00000000 -3320.00000000 -250.00000000 81 150 140 97.000000 1.000000 4.000000 1.000000 -60.708740 114.000000 118.000000 -0.526840 0.828754 0.188696
17760.00000000 -3350.00000000 -290.00000000 81 150 140 97.000000 1.000000 4.000000 1.000000 -60.708740 114.000000 118.000000 -0.227832 0.785788 -0.575005
17600.00000000 -3380.00000000 -200.00000000 81 150 140 97.000000 1.000000 4.000000 1.000000 -60.708740 114.000000 118.000000 -0.655374 0.732116 0.185715
17610.00000000 -3380.00000000 -240.00000000 81 150 140 97.000000 1.000000 4.000000 1.000000 -60.708740 114.000000 118.000000 -0.328356 0.742440 -0.583923
17620.00000000 -3370.00000000 -310.00000000 81 150 140 97.000000 1.000000 4.000000 1.000000 -60.708740 114.000000 118.000000 -0.213938 0.836029 -0.505259
17570.00000000 -3400.00000000 -230.00000000 81 150 140 97.000000 1.000000 4.000000 1.000000 -60.708740 114.000000 118.000000 -0.497755 0.857647 -0.129155
17590.00000000 -3390.00000000 -260.00000000 81 150 140 97.000000 1.000000 4.000000 1.000000 -60.708740 114.000000 118.000000 -0.086554 0.852769 -0.515067
17840.00000000 -3410.00000000 -110.00000000 81 150 140 97.000000 1.000000 4.000000 1.000000 -60.708740 114.000000 118.000000 -0.069187 0.840125 0.537962
17760.00000000 -3430.00000000 -240.00000000 81 150 140 97.000000 1.000000 4.000000 1.000000 -60.708740 114.000000 118.000000 -0.430104 0.830273 -0.354481
17600.00000000 -3520.00000000 -100.00000000 81 150 140 97.000000 1.000000 4.000000 1.000000 -60.708740 114.000000 118.000000 -0.387209 0.918779 -0.076902
17600.00000000 -3570.00000000 -120.00000000 81 150 140 97.000000 1.000000 4.000000 1.000000 -60.708740 114.000000 118.000000 -0.337000 0.935812 -0.103382
17570.00000000 -3480.00000000 -160.00000000 81 150 140 97.000000 1.000000 4.000000 1.000000 -60.708740 114.000000 118.000000 -0.429022 0.805018 0.409740
17580.00000000 -3530.00000000 -50.00000000 81 150 140 97.000000 1.000000 4.000000 1.000000 -60.708740 114.000000 118.000000 -0.569905 0.613874 0.546230
17580.00000000 -3550.00000000 -80.00000000 81 150 140 97.000000 1.000000 4.000000 1.000000 -60.708740 114.000000 118.000000 0.467414 -0.574634 -0.671803
17560.00000000 -3500.00000000 -180.00000000 81 150 140 97.000000 1.000000 4.000000 1.000000 -60.708740 114.000000 118.000000 0.661236 -0.738853 0.129859
17570.00000000 -3560.00000000 -130.00000000 81 150 140 97.000000 1.000000 4.000000 1.000000 -60.708740 114.000000 118.000000 -0.441589 0.850867 0.284648
17580.00000000 -3570.00000000 -150.00000000 81 150 140 97.000000 1.000000 4.000000 1.000000 -60.708740 114.000000 118.000000 -0.311766 0.943327 -0.113734
17550.00000000 -3490.00000000 -150.00000000 81 150 140 97.000000 1.000000 4.000000 1.000000 -60.708740 114.000000 118.000000 -0.374576 0.922139 0.096709
17550.00000000 -3540.00000000 -110.00000000 81 150 140 97.000000 1.000000 4.000000 1.000000 -60.708740 114.000000 118.000000 -0.686825 0.680480 0.255378
17550.00000000 -3540.00000000 -120.00000000 81 150 140 97.000000 1.000000 4.000000 1.000000 -60.708740 114.000000 118.000000 -0.440008 0.780973 0.443255
17550.00000000 -3540.00000000 -110.00000000 81 150 140 97.000000 1.000000 4.000000 1.000000 -60.708740 114.000000 118.000000 -0.686825 0.680480 0.255378
17530.00000000 -3570.00000000 -160.00000000 81 150 140 97.000000 1.000000 4.000000 1.000000 -60.708740 114.000000 118.000000 -0.355689 0.928063 -0.110386
17600.00000000 -3470.00000000 -320.00000000 81 150 140 97.000000 1.000000 4.000000 1.000000 -60.708740 114.000000 118.000000 -0.207454 0.927194 -0.311887
17600.00000000 -3430.00000000 -320.00000000 81 150 140 97.000000 1.000000 4.000000 1.000000 -60.708740 114.000000 118.000000 0.157720 -0.791606 0.590325
17620.00000000 -3430.00000000 -310.00000000 81 150 140 97.000000 1.000000 4.000000 1.000000 -60.708740 114.000000 118.000000 0.299952 -0.541183 0.785589
17620.00000000 -3560.00000000 -290.00000000 81 150 140 97.000000 1.000000 4.000000 1.000000 -60.708740 114.000000 118.000000 0.639049 -0.510902 0.574975
17580.00000000 -3450.00000000 -220.00000000 81 150 140 97.000000 1.000000 4.000000 1.000000 -60.708740 114.000000 118.000000 -0.361183 0.845888 -0.392454
17580.00000000 -3450.00000000 -240.00000000 81 150 140 97.000000 1.000000 4.000000 1.000000 -60.708740 114.000000 118.000000 -0.743267 0.585262 -0.324071
17550.00000000 -3420.00000000 -260.00000000 81 150 140 97.000000 1.000000 4.000000 1.000000 -60.708740 114.000000 118.000000 -0.287803 0.923547 -0.253438
17590.00000000 -3410.00000000 -350.00000000 81 150 140 97.000000 1.000000 4.000000 1.000000 -60.708740 114.000000 118.000000 0.486306 -0.408237 0.772560
17590.00000000 -3500.00000000 -240.00000000 81 150 140 97.000000 1.000000 4.000000 1.000000 -60.708740 114.000000 118.000000 -0.168647 0.963509 -0.207867
17550.00000000 -3560.00000000 -230.00000000 81 150 140 97.000000 1.000000 4.000000 1.000000 -60.708740 114.000000 118.000000 0.261863 -0.684018 0.680843
17550.00000000 -3510.00000000 -330.00000000 81 150 140 97.000000 1.000000 4.000000 1.000000 -60.708740 114.000000 118.000000 0.597610 -0.715495 0.361841
17630.00000000 -3610.00000000 -100.00000000 81 150 140 97.000000 1.000000 4.000000 1.000000 -60.708740 114.000000 118.000000 -0.494119 0.688417 0.530969
17550.00000000 -3640.00000000 -70.00000000 81 150 140 97.000000 1.000000 4.000000 1.000000 -60.708740 114.000000 118.000000 -0.396376 0.731897 0.554268
17590.00000000 -3590.00000000 -130.00000000 81 150 140 97.000000 1.000000 4.000000 1.000000 -60.708740 114.000000 118.000000 -0.687229 0.716915 0.117259
17590.00000000 -3590.00000000 -130.00000000 81 150 140 97.000000 1.000000 4.000000 1.000000 -60.708740 114.000000 118.000000 -0.687229 0.716915 0.117259
17590.00000000 -3590.00000000 -130.00000000 81 150 140 97.000000 1.000000 4.000000 1.000000 -60.708740 114.000000 118.000000 -0.687229 0.716915 0.117259
17520.00000000 -3580.00000000 -180.00000000 81 150 140 97.000000 1.000000 4.000000 1.000000 -60.708740 114.000000 118.000000 -0.279444 0.952229 -0.123167
17550.00000000 -3630.00000000 -110.00000000 81 150 140 97.000000 1.000000 4.000000 1.000000 -60.708740 114.000000 118.000000 -0.416211 0.858531 0.299488
17540.00000000 -3650.00000000 -160.00000000 81 150 140 97.000000 1.000000 4.000000 1.000000 -60.708740 114.000000 118.000000 -0.642669 0.746473 0.172498
17570.00000000 -3660.00000000 -80.00000000 81 150 140 97.000000 1.000000 4.000000 1.000000 -60.708740 114.000000 118.000000 -0.279813 0.551722 0.785689
17530.00000000 -3660.00000000 -140.00000000 81 150 140 97.000000 1.000000 4.000000 1.000000 -60.708740 114.000000 118.000000 -0.548853 0.824019 -0.140542
17550.00000000 -3610.00000000 -240.00000000 81 150 140 97.000000 1.000000 4.000000 1.000000 -60.708740 114.000000 118.000000 -0.457034 0.764999 -0.453758
17520.00000000 -3540.00000000 -360.00000000 81 150 140 97.000000 1.000000 4.000000 1.000000 -60.708740 114.000000 118.000000 -0.693322 0.506209 -0.512891
17560.00000000 -3500.00000000 -360.00000000 81 150 140 97.000000 1.000000 4.000000 1.000000 -60.708740 114.000000 118.000000 0.592842 -0.552306 0.586086
17470.00000000 -3400.00000000 -260.00000000 81 150 140 97.000000 1.000000 4.000000 1.000000 -60.708740 114.000000 118.000000 -0.698843 0.596412 -0.394855
17450.00000000 -3410.00000000 -260.00000000 81 150 140 97.000000 1.000000 4.000000 1.000000 -60.708740 114.000000 118.000000 -0.244528 0.720965 -0.648395
17490.00000000 -3480.00000000 -270.00000000 81 150 140 97.000000 1.000000 4.000000 1.000000 -60.708740 114.000000 118.000000 -0.556395 0.653890 -0.512690
17440.00000000 -3470.00000000 -330.00000000 81 150 140 97.000000 1.000000 4.000000 1.000000 -60.708740 114.000000 118.000000 0.226866 -0.554047 0.800976
17440.00000000 -3510.00000000 -220.00000000 81 150 140 97.000000 1.000000 4.000000 1.000000 -60.708740 114.000000 118.000000 -0.274849 0.895860 -0.349133
17360.00000000 -3510.00000000 -230.00000000 81 150 140 97.000000 1.000000 4.000000 1.000000 -60.708740 114.000000 118.000000 -0.671719 0.671719 -0.312390
17360.00000000 -3520.00000000 -240.00000000 81 150 140 97.000000 1.000000 4.000000 1.000000 -60.708740 114.000000 118.000000 -0.525232 0.822302 -0.218974
17420.00000000 -3550.00000000 -320.00000000 81 150 140 97.000000 1.000000 4.000000 1.000000 -60.708740 114.000000 118.000000 -0.541793 0.720733 -0.432440
17420.00000000 -3540.00000000 -350.00000000 81 150 140 97.000000 1.000000 4.000000 1.000000 -60.708740 114.000000 118.000000 -0.558553 0.769811 -0.308885
17360.00000000 -3570.00000000 -290.00000000 81 150 140 97.000000 1.000000 4.000000 1.000000 -60.708740 114.000000 118.000000 0.032504 -0.719338 0.693900
17510.00000000 -3630.00000000 -50.00000000 81 150 140 97.000000 1.000000 4.000000 1.000000 -60.708740 114.000000 118.000000 0.076342 0.603537 0.793672
17440.00000000 -3620.00000000 -180.00000000 81 150 140 97.000000 1.000000 4.000000 1.000000 -60.708740 114.000000 118.000000 -0.138845 0.989974 0.025963
17470.00000000 -3660.00000000 -150.00000000 81 150 140 97.000000 1.000000 4.000000 1.000000 -60.708740 114.000000 118.000000 -0.341234 0.910442 -0.233782
17470.00000000 -3660.00000000 -130.00000000 81 150 140 97.000000 1.000000 4.000000 1.000000 -60.708740 114.000000 118.000000 -0.272771 0.900883 0.337647
17350.00000000 -3620.00000000 -90.00000000 81 150 140 97.000000 1.000000 4.000000 1.000000 -60.708740 114.000000 118.000000 -0.094354 0.985341 0.142128
17400.00000000 -3630.00000000 -70.00000000 81 150 140 97.000000 1.000000 4.000000 1.000000 -60.708740 114.000000 118.000000 -0.589055 0.803256 0.088286
17410.00000000 -3700.00000000 -50.00000000 81 150 140 97.000000 1.000000 4.000000 1.000000 -60.708740 114.000000 118.000000 -0.228128 0.387082 0.893379
17360.00000000 -3710.00000000 -100.00000000 81 150 140 97.000000 1.000000 4.000000 1.000000 -60.708740 114.000000 118.000000 -0.282427 0.889123 0.360132
17410.00000000 -3660.00000000 -140.00000000 81 150 140 97.000000 1.000000 4.000000 1.000000 -60.708740 114.000000 118.000000 -0.221266 0.975207 0.003512
17410.00000000 -3680.00000000 -180.00000000 81 150 140 97.000000 1.000000 4.000000 1.000000 -60.708740 114.000000 118.000000 0.405858 -0.543882 0.734487
17380.00000000 -3690.00000000 -110.00000000 81 150 140 97.000000 1.000000 4.000000 1.000000 -60.708740 114.000000 118.000000 -0.356516 0.916146 -0.183229
17380.00000000 -3670.00000000 -110.00000000 81 150 140 97.000000 1.000000 4.000000 1.000000 -60.708740 114.000000 118.000000 0.601764 -0.719181 -0.347360
17360.00000000 -3670.00000000 -170.00000000 81 150 140 97.000000 1.000000 4.000000 1.000000 -60.708740 114.000000 118.000000 -0.671993 0.700320 -0.240784
17360.00000000 -3690.00000000 -160.00000000 81 150 140 97.000000 1.000000 4.000000 1.000000 -60.708740 114.000000 118.000000 -0.575802 0.714390 -0.397617
17380.00000000 -3700.00000000 -160.00000000 81 150 140 97.000000 1.000000 4.000000 1.000000 -60.708740 114.000000 118.000000 -0.111556 0.939486 -0.323914
17360.00000000 -3700.00000000 -160.00000000 81 150 140 97.000000 1.000000 4.000000 1.000000 -60.708740 114.000000 118.000000 -0.145060 0.969209 -0.198977
17450.00000000 -3620.00000000 -250.00000000 81 150 140 97.000000 1.000000 4.000000 1.000000 -60.708740 114.000000 118.000000 -0.506482 0.752347 -0.421249
17430.00000000 -3580.00000000 -300.00000000 81 150 140 97.000000 1.000000 4.000000 1.000000 -60.708740 114.000000 118.000000 -0.612460 0.534848 -0.582090
17450.00000000 -3680.00000000 -240.00000000 81 150 140 97.000000 1.000000 4.000000 1.000000 -60.708740 114.000000 118.000000 0.387897 -0.299669 0.871627
17460.00000000 -3660.00000000 -240.00000000 81 150 140 97.000000 1.000000 4.000000 1.000000 -60.708740 114.000000 118.000000 -0.403327 0.782358 -0.474598
17480.00000000 -3700.00000000 -340.00000000 81 150 140 97.000000 1.000000 4.000000 1.000000 -60.708740 114.000000 118.000000 -0.099474 -0.262250 0.959859
17510.00000000 -3720.00000000 -340.00000000 81 150 140 97.000000 1.000000 4.000000 1.000000 -60.708740 114.000000 118.000000 -0.135932 -0.226553 0.964467
17430.00000000 -3660.00000000 -320.00000000 81 150 140 97.000000 1.000000 4.000000 1.000000 -60.708740 114.000000 118.000000 -0.403050 0.628626 -0.665116
17450.00000000 -3730.00000000 -340.00000000 81 150 140 97.000000 1.000000 4.000000 1.000000 -60.708740 114.000000 118.000000 0.210224 0.044447 0.976642
17450.00000000 -3700.00000000 -330.00000000 81 150 140 97.000000 1.000000 4.000000 1.000000 -60.708740 114.000000 118.000000 -0.034618 -0.115022 0.992760
17410.00000000 -3600.00000000 -260.00000000 81 150 140 97.000000 1.000000 4.000000 1.000000 -60.708740 114.000000 118.000000 0.705670 -0.648065 0.286429
17350.00000000 -3650.00000000 -200.00000000 81 150 140 97.000000 1.000000 4.000000 1.000000 -60.708740 114.000000 118.000000 -0.466589 0.856168 -0.221970
17380.00000000 -3640.00000000 -210.00000000 81 150 140 97.000000 1.000000 4.000000 1.000000 -60.708740 114.000000 118.000000 -0.615595 0.784920 -0.070313
17370.00000000 -3640.00000000 -200.00000000 81 150 140 97.000000 1.000000 4.000000 1.000000 -60.708740 114.000000 118.000000 -0.435888 0.845406 -0.308690
17420.00000000 -3640.00000000 -340.00000000 81 150 140 97.000000 1.000000 4.000000 1.000000 -60.708740 114.000000 118.000000 -0.107586 0.747203 -0.655829
17390.00000000 -3710.00000000 -310.00000000 81 150 140 97.000000 1.000000 4.000000 1.000000 -60.708740 114.000000 118.000000 0.265877 -0.035862 0.963340
17310.00000000 -3480.00000000 -190.00000000 81 150 140 97.000000 1.000000 4.000000 1.000000 -60.708740 114.000000 118.000000 -0.383680 0.915570 -0.120506
17260.00000000 -3510.00000000 -260.00000000 81 150 140 97.000000 1.000000 4.000000 1.000000 -60.708740 114.000000 118.000000 -0.437821 0.590975 -0.677541
17280.00000000 -3550.00000000 -260.00000000 81 150 140 97.000000 1.000000 4.000000 1.000000 -60.708740 114.000000 118.000000 -0.640367 0.762897 -0.088980
17290.00000000 -3510.00000000 -200.00000000 81 150 140 97.000000 1.000000 4.000000 1.000000 -60.708740 114.000000 118.000000 -0.129610 0.991461 0.014401
17250.00000000 -3510.00000000 -240.00000000 81 150 140 97.000000 1.000000 4.000000 1.000000 -60.708740 114.000000 118.000000 -0.427480 0.837736 -0.339792
17330.00000000 -3720.00000000 -30.00000000 81 150 140 97.000000 1.000000 4.000000 1.000000 -60.708740 114.000000 118.000000 -0.018086 0.638573 0.769349
17310.00000000 -3670.00000000 -170.00000000 81 150 140 97.000000 1.000000 4.000000 1.000000 -60.708740 114.000000 118.000000 -0.287494 0.853258 -0.435085
17340.00000000 -3650.00000000 -330.00000000 81 150 140 97.000000 1.000000 4.000000 1.000000 -60.708740 114.000000 118.000000 0.602192 -0.306716 0.737082
17470.00000000 -3550.00000000 -380.00000000 81 150 140 97.000000 1.000000 4.000000 1.000000 -60.708740 114.000000 118.000000 0.350593 -0.452122 0.820165
17360.00000000 -3610.00000000 -380.00000000 81 150 140 97.000000 1.000000 4.000000 1.000000 -60.708740 114.000000 118.000000 0.569018 -0.385358 0.726441
17370.00000000 -3590.00000000 -410.00000000 81 150 140 97.000000 1.000000 4.000000 1.000000 -60.708740 114.000000 118.000000 0.188171 -0.340972 0.921048
17280.00000000 -3630.00000000 -390.00000000 81 150 140 97.000000 1.000000 4.000000 1.000000 -60.708740 114.000000 118.000000 0.213592 -0.309779 0.926507
17280.00000000 -3680.00000000 -400.00000000 81 150 140 97.000000 1.000000 4.000000 1.000000 -60.708740 114.000000 118.000000 0.082947 -0.264154 0.960907
17170.00000000 -3620.00000000 -270.00000000 81 150 140 97.000000 1.000000 4.000000 1.000000 -60.708740 114.000000 118.000000 0.747416 -0.534803 0.394151
17140.00000000 -3720.00000000 -280.00000000 81 150 140 97.000000 1.000000 4.000000 1.000000 -60.708740 114.000000 118.000000 -0.578736 0.451981 -0.678806
17030.00000000 -3610.00000000 -230.00000000 81 150 140 97.000000 1.000000 4.000000 1.000000 -60.708740 114.000000 118.000000 -0.573499 0.784871 -0.234684
17050.00000000 -3650.00000000 -260.00000000 81 150 140 97.000000 1.000000 4.000000 1.000000 -60.708740 114.000000 118.000000 0.289147 -0.595866 0.749225
17050.00000000 -3700.00000000 -250.00000000 81 150 140 97.000000 1.000000 4.000000 1.000000 -60.708740 114.000000 118.000000 0.286388 -0.619173 0.731168
17650.00000000 -3900.00000000 -340.00000000 81 150 140 97.000000 1.000000 4.000000 1.000000 -60.708740 114.000000 118.000000 0.130324 0.537403 0.833195
17530.00000000 -3960.00000000 -340.00000000 81 150 140 97.000000 1.000000 4.000000 1.000000 -60.708740 114.000000 118.000000 0.139680 0.680377 0.719428
17670.00000000 -3890.00000000 -400.00000000 81 150 140 97.000000 1.000000 4.000000 1.000000 -60.708740 114.000000 118.000000 -0.328833 0.425457 0.843122
17620.00000000 -3870.00000000 -380.00000000 81 150 140 97.000000 1.000000 4.000000 1.000000 -60.708740 114.000000 118.000000 0.099240 0.217322 0.971042
17670.00000000 -3890.00000000 -410.00000000 81 150 140 97.000000 1.000000 4.000000 1.000000 -60.708740 114.000000 118.000000 -0.140785 0.285593 0.947954
17590.00000000 -3950.00000000 -410.00000000 81 150 140 97.000000 1.000000 4.000000 1.000000 -60.708740 114.000000 118.000000 0.025890 0.277396 0.960407
17570.00000000 -3930.00000000 -370.00000000 81 150 140 97.000000 1.000000 4.000000 1.000000 -60.708740 114.000000 118.000000 -0.156796 0.337182 0.928290
17540.00000000 -3950.00000000 -360.00000000 81 150 140 97.000000 1.000000 4.000000 1.000000 -60.708740 114.000000 118.000000 0.088393 0.595563 0.798431
17450.00000000 -3780.00000000 -40.00000000 81 150 140 97.000000 1.000000 4.000000 1.000000 -60.708740 114.000000 118.000000 0.233830 -0.078777 0.969081
17440.00000000 -3760.00000000 -40.00000000 81 150 140 97.000000 1.000000 4.000000 1.000000 -60.708740 114.000000 118.000000 0.228688 0.111150 0.967134
17450.00000000 -3780.00000000 -40.00000000 81 150 140 97.000000 1.000000 4.000000 1.000000 -60.708740 114.000000 118.000000 0.233830 -0.078777 0.969081
17450.00000000 -3750.00000000 -40.00000000 81 150 140 97.000000 1.000000 4.000000 1.000000 -60.708740 114.000000 118.000000 -0.096368 0.545129 0.832795
17360.00000000 -3800.00000000 -40.00000000 81 150 140 97.000000 1.000000 4.000000 1.000000 -60.708740 114.000000 118.000000 0.064514 0.620768 0.781336
17350.00000000 -3860.00000000 -60.00000000 81 150 140 97.000000 1.000000 4.000000 1.000000 -60.708740 114.000000 118.000000 0.415719 -0.454541 0.787763
17380.00000000 -3860.00000000 -160.00000000 81 150 140 97.000000 1.000000 4.000000 1.000000 -60.708740 114.000000 118.000000 -0.342969 0.536192 0.771279
17480.00000000 -3790.00000000 -320.00000000 81 150 140 97.000000 1.000000 4.000000 1.000000 -60.708740 114.000000 118.000000 0.126887 0.295180 0.946979
17480.00000000 -3800.00000000 -320.00000000 81 150 140 97.000000 1.000000 4.000000 1.000000 -60.708740 114.000000 118.000000 -0.022530 0.217001 0.975911
17480.00000000 -3800.00000000 -320.00000000 81 150 140 97.000000 1.000000 4.000000 1.000000 -60.708740 114.000000 118.000000 -0.022530 0.217001 0.975911
17450.00000000 -3770.00000000 -330.00000000 81 150 140 97.000000 1.000000 4.000000 1.000000 -60.708740 114.000000 118.000000 -0.058821 -0.343774 0.937208
17450.00000000 -3810.00000000 -320.00000000 81 150 140 97.000000 1.000000 4.000000 1.000000 -60.708740 114.000000 118.000000 0.122063 0.263814 0.956819
17450.00000000 -3800.00000000 -340.00000000 81 150 140 97.000000 1.000000 4.000000 1.000000 -60.708740 114.000000 118.000000 0.112264 0.397776 0.910588
17440.00000000 -3790.00000000 -340.00000000 81 150 140 97.000000 1.000000 4.000000 1.000000 -60.708740 114.000000 118.000000 0.296473 -0.132809 0.945762
17430.00000000 -3840.00000000 -310.00000000 81 150 140 97.000000 1.000000 4.000000 1.000000 -60.708740 114.000000 118.000000 0.437851 0.337412 0.833330
17460.00000000 -3850.00000000 -330.00000000 81 150 140 97.000000 1.000000 4.000000 1.000000 -60.708740 114.000000 118.000000 -0.021482 -0.025574 0.999442
17410.00000000 -3750.00000000 -320.00000000 81 150 140 97.000000 1.000000 4.000000 1.000000 -60.708740 114.000000 118.000000 0.054614 -0.001030 0.998507
17440.00000000 -3980.00000000 -290.00000000 81 150 140 97.000000 1.000000 4.000000 1.000000 -60.708740 114.000000 118.000000 -0.061147 0.809125 0.584447
17460.00000000 -3980.00000000 -290.00000000 81 150 140 97.000000 1.000000 4.000000 1.000000 -60.708740 114.000000 118.000000 -0.029208 0.808090 0.588334
17350.00000000 -4050.00000000 -270.00000000 81 150 140 97.000000 1.000000 4.000000 1.000000 -60.708740 114.000000 118.000000 -0.475131 0.801483 0.363147
17370.00000000 -4040.00000000 -280.00000000 81 150 140 97.000000 1.000000 4.000000 1.000000 -60.708740 114.000000 118.000000 -0.134991 0.893781 0.427707
17320.00000000 -3790.00000000 -50.00000000 81 150 140 97.000000 1.000000 4.000000 1.000000 -60.708740 114.000000 118.000000 -0.200923 0.225195 0.953371
17310.00000000 -3800.00000000 -50.00000000 81 150 140 97.000000 1.000000 4.000000 1.000000 -60.708740 114.000000 118.000000 0.245847 0.336039 0.909196
17330.00000000 -3820.00000000 -40.00000000 81 150 140 97.000000 1.000000 4.000000 1.000000 -60.708740 114.000000 118.000000 0.055766 -0.119498 0.991267
17270.00000000 -3760.00000000 -30.00000000 81 150 140 97.000000 1.000000 4.000000 1.000000 -60.708740 114.000000 118.000000 0.366089 -0.541812 -0.756584
17300.00000000 -3790.00000000 -50.00000000 81 150 140 97.000000 1.000000 4.000000 1.000000 -60.708740 114.000000 118.000000 0.031981 0.338999 0.940243
17280.00000000 -3880.00000000 -30.00000000 81 150 140 97.000000 1.000000 4.000000 1.000000 -60.708740 114.000000 118.000000 0.622757 -0.116859 0.773639
17200.00000000 -3810.00000000 -270.00000000 81 150 140 97.000000 1.000000 4.000000 1.000000 -60.708740 114.000000 118.000000 0.286194 -0.155983 0.945390
17280.00000000 -3740.00000000 -290.00000000 81 150 140 97.000000 1.000000 4.000000 1.000000 -60.708740 114.000000 118.000000 -0.020880 -0.627779 0.778112
17180.00000000 -3770.00000000 -300.00000000 81 150 140 97.000000 1.000000 4.000000 1.000000 -60.708740 114.000000 118.000000 0.569212 -0.252461 0.782471
17340.00000000 -3940.00000000 -140.00000000 81 150 140 97.000000 1.000000 4.000000 1.000000 -60.708740 114.000000 118.000000 -0.444050 0.826470 0.346074
17230.00000000 -3960.00000000 -40.00000000 81 150 140 97.000000 1.000000 4.000000 1.000000 -60.708740 114.000000 118.000000 -0.255192 0.884965 -0.389504
17180.00000000 -3950.00000000 -20.00000000 81 150 140 97.000000 1.000000 4.000000 1.000000 -60.708740 114.000000 118.000000 0.311200 -0.273213 0.910225
17210.00000000 -3930.00000000 -20.00000000 81 150 140 97.000000 1.000000 4.000000 1.000000 -60.708740 114.000000 118.000000 0.213844 -0.230189 0.949360
17200.00000000 -4030.00000000 -40.00000000 81 150 140 97.000000 1.000000 4.000000 1.000000 -60.708740 114.000000 118.000000 -0.678323 0.725821 -0.114291
17200.00000000 -4070.00000000 -30.00000000 81 150 140 97.000000 1.000000 4.000000 1.000000 -60.708740 114.000000 118.000000 -0.380493 0.653921 -0.653921
17320.00000000 -4010.00000000 -260.00000000 81 150 140 97.000000 1.000000 4.000000 1.000000 -60.708740 114.000000 118.000000 -0.251310 0.690706 0.678062
17300.00000000 -4070.00000000 -250.00000000 81 150 140 97.000000 1.000000 4.000000 1.000000 -60.708740 114.000000 118.000000 -0.315837 0.906378 0.280581
17220.00000000 -4060.00000000 -200.00000000 81 150 140 97.000000 1.000000 4.000000 1.000000 -60.708740 114.000000 118.000000 -0.490316 0.842494 0.223147
17440.00000000 -3880.00000000 -370.00000000 81 150 140 97.000000 1.000000 4.000000 1.000000 -60.708740 114.000000 118.000000 0.103491 0.129662 0.986143
17440.00000000 -3760.00000000 -360.00000000 81 150 140 97.000000 1.000000 4.000000 1.000000 -60.708740 114.000000 118.000000 0.296942 -0.106899 0.948893
17490.00000000 -3920.00000000 -360.00000000 81 150 140 97.000000 1.000000 4.000000 1.000000 -60.708740 114.000000 118.000000 -0.383753 0.244476 0.890486
17480.00000000 -3960.00000000 -390.00000000 81 150 140 97.000000 1.000000 4.000000 1.000000 -60.708740 114.000000 118.000000 0.067076 0.809192 0.583703
17480.00000000 -3960.00000000 -390.00000000 81 150 140 97.000000 1.000000 4.000000 1.000000 -60.708740 114.000000 118.000000 0.067076 0.809192 0.583703
17470.00000000 -4010.00000000 -380.00000000 81 150 140 97.000000 1.000000 4.000000 1.000000 -60.708740 114.000000 118.000000 -0.252488 0.849276 0.463659
17470.00000000 -4010.00000000 -380.00000000 81 150 140 97.000000 1.000000 4.000000 1.000000 -60.708740 114.000000 118.000000 -0.252488 0.849276 0.463659
17200.00000000 -4120.00000000 -70.00000000 81 150 140 97.000000 1.000000 4.000000 1.000000 -60.708740 114.000000 118.000000 -0.311736 0.861497 -0.400803
17200.00000000 -4080.00000000 -180.00000000 81 150 140 97.000000 1.000000 4.000000 1.000000 -60.708740 114.000000 118.000000 -0.314832 0.884242 0.344960
17290.00000000 -4080.00000000 -290.00000000 81 150 140 97.000000 1.000000 4.000000 1.000000 -60.708740 114.000000 118.000000 0.009738 0.683029 0.730326
17240.00000000 -4100.00000000 -260.00000000 81 150 140 97.000000 1.000000 4.000000 1.000000 -60.708740 114.000000 118.000000 -0.376704 0.427567 0.821755
17210.00000000 -4140.00000000 -220.00000000 81 150 140 97.000000 1.000000 4.000000 1.000000 -60.708740 114.000000 118.000000 -0.226819 0.664814 0.711742
17380.00000000 -4080.00000000 -360.00000000 81 150 140 97.000000 1.000000 4.000000 1.000000 -60.708740 114.000000 118.000000 0.061259 0.793512 0.605463
17150.00000000 -3770.00000000 -250.00000000 81 150 140 97.000000 1.000000 4.000000 1.000000 -60.708740 114.000000 118.000000 -0.438249 0.604883 -0.664872
17150.00000000 -3810.00000000 -270.00000000 81 150 140 97.000000 1.000000 4.000000 1.000000 -60.708740 114.000000 118.000000 0.143927 -0.475394 0.867921
17110.00000000 -3780.00000000 -260.00000000 81 150 140 97.000000 1.000000 4.000000 1.000000 -60.708740 114.000000 118.000000 0.159552 -0.547250 0.821621
17120.00000000 -3780.00000000 -260.00000000 81 150 140 97.000000 1.000000 4.000000 1.000000 -60.708740 114.000000 118.000000 -0.011813 -0.426589 0.904368
17100.00000000 -3820.00000000 -270.00000000 81 150 140 97.000000 1.000000 4.000000 1.000000 -60.708740 114.000000 118.000000 -0.087713 -0.302413 0.949133
17160.00000000 -3810.00000000 -290.00000000 81 150 140 97.000000 1.000000 4.000000 1.000000 -60.708740 114.000000 118.000000 0.160364 -0.092842 0.982682
17160.00000000 -3800.00000000 -290.00000000 81 150 140 97.000000 1.000000 4.000000 1.000000 -60.708740 114.000000 118.000000 0.592226 -0.194348 0.781983
17010.00000000 -3770.00000000 -290.00000000 81 150 140 97.000000 1.000000 4.000000 1.000000 -60.708740 114.000000 118.000000 0.149736 -0.676080 0.721454
17070.00000000 -3770.00000000 -300.00000000 81 150 140 97.000000 1.000000 4.000000 1.000000 -60.708740 114.000000 118.000000 -0.494408 0.732518 -0.467951
17070.00000000 -3860.00000000 -300.00000000 81 150 140 97.000000 1.000000 4.000000 1.000000 -60.708740 114.000000 118.000000 -0.048835 -0.274228 0.960424
17070.00000000 -3860.00000000 -290.00000000 81 150 140 97.000000 1.000000 4.000000 1.000000 -60.708740 114.000000 118.000000 0.150596 0.079448 0.985398
17070.00000000 -3830.00000000 -280.00000000 81 150 140 97.000000 1.000000 4.000000 1.000000 -60.708740 114.000000 118.000000 -0.101259 -0.417520 0.903008
17040.00000000 -3920.00000000 -260.00000000 81 150 140 97.000000 1.000000 4.000000 1.000000 -60.708740 114.000000 118.000000 -0.025474 -0.462553 0.886225
17010.00000000 -3970.00000000 -350.00000000 81 150 140 97.000000 1.000000 4.000000 1.000000 -60.708740 114.000000 118.000000 0.491760 -0.134907 0.860216
17040.00000000 -3980.00000000 -290.00000000 81 150 140 97.000000 1.000000 4.000000 1.000000 -60.708740 114.000000 118.000000 -0.011770 -0.086670 0.996168
