//X Y Z R G B PointSourceId ScanDirectionFlag NumberOfReturns ReturnNumber GpsTime Intensity Classification Nx Ny Nz
-180.00000000 3610.00000000 250.00000000 160 96 127 97.000000 1.000000 4.000000 1.000000 -60.708740 114.000000 149.000000 -0.540389 0.840450 -0.040286
-190.00000000 3600.00000000 240.00000000 160 96 127 97.000000 1.000000 4.000000 1.000000 -60.708740 114.000000 149.000000 0.859633 -0.439706 0.260172
-240.00000000 3670.00000000 260.00000000 160 96 127 97.000000 1.000000 4.000000 1.000000 -60.708740 114.000000 149.000000 -0.551676 0.669054 -0.498017
-250.00000000 3610.00000000 280.00000000 160 96 127 97.000000 1.000000 4.000000 1.000000 -60.708740 114.000000 149.000000 -0.454499 0.852377 -0.258621
-210.00000000 3630.00000000 220.00000000 160 96 127 97.000000 1.000000 4.000000 1.000000 -60.708740 114.000000 149.000000 0.861656 -0.464428 0.204587
-180.00000000 3670.00000000 220.00000000 160 96 127 97.000000 1.000000 4.000000 1.000000 -60.708740 114.000000 149.000000 -0.459643 0.884570 -0.079153
-210.00000000 3620.00000000 210.00000000 160 96 127 97.000000 1.000000 4.000000 1.000000 -60.708740 114.000000 149.000000 -0.454580 0.888559 -0.061801
-190.00000000 3610.00000000 190.00000000 160 96 127 97.000000 1.000000 4.000000 1.000000 -60.708740 114.000000 149.000000 0.780890 -0.574322 0.245691
-220.00000000 3610.00000000 200.00000000 160 96 127 97.000000 1.000000 4.000000 1.000000 -60.708740 114.000000 149.000000 -0.487558 0.859449 -0.153735
-200.00000000 3560.00000000 160.00000000 160 96 127 97.000000 1.000000 4.000000 1.000000 -60.708740 114.000000 149.000000 0.829733 -0.550759 0.090595
-290.00000000 3610.00000000 260.00000000 160 96 127 97.000000 1.000000 4.000000 1.000000 -60.708740 114.000000 149.000000 -0.489625 0.746802 -0.450060
-190.00000000 3550.00000000 80.00000000 160 96 127 97.000000 1.000000 4.000000 1.000000 -60.708740 114.000000 149.000000 0.758480 -0.639269 -0.126662
-240.00000000 3510.00000000 80.00000000 160 96 127 97.000000 1.000000 4.000000 1.000000 -60.708740 114.000000 149.000000 0.928735 -0.365946 -0.059450
-220.00000000 3500.00000000 140.00000000 160 96 127 97.000000 1.000000 4.000000 1.000000 -60.708740 114.000000 149.000000 0.895406 -0.444367 0.028023
-240.00000000 3480.00000000 40.00000000 160 96 127 97.000000 1.000000 4.000000 1.000000 -60.708740 114.000000 149.000000 0.898179 -0.437643 0.041744
-300.00000000 3310.00000000 390.00000000 160 96 127 97.000000 1.000000 4.000000 1.000000 -60.708740 114.000000 149.000000 -0.320005 0.841380 -0.435519
-300.00000000 3320.00000000 400.00000000 160 96 127 97.000000 1.000000 4.000000 1.000000 -60.708740 114.000000 149.000000 -0.466201 0.676744 -0.569802
-330.00000000 3250.00000000 240.00000000 160 96 127 97.000000 1.000000 4.000000 1.000000 -60.708740 114.000000 149.000000 0.924592 -0.306298 0.226518
-200.00000000 3260.00000000 80.00000000 160 96 127 97.000000 1.000000 4.000000 1.000000 -60.708740 114.000000 149.000000 -0.451947 0.891965 -0.011928
-320.00000000 3210.00000000 60.00000000 160 96 127 97.000000 1.000000 4.000000 1.000000 -60.708740 114.000000 149.000000 0.767668 -0.607029 0.205432
-390.00000000 3800.00000000 320.00000000 160 96 127 97.000000 1.000000 4.000000 1.000000 -60.708740 114.000000 149.000000 0.504629 -0.122904 0.854543
-390.00000000 3810.00000000 320.00000000 160 96 127 97.000000 1.000000 4.000000 1.000000 -60.708740 114.000000 149.000000 0.210451 -0.143313 0.967043
-390.00000000 3810.00000000 320.00000000 160 96 127 97.000000 1.000000 4.000000 1.000000 -60.708740 114.000000 149.000000 0.210451 -0.143313 0.967043
-370.00000000 3810.00000000 320.00000000 160 96 127 97.000000 1.000000 4.000000 1.000000 -60.708740 114.000000 149.000000 0.243372 0.003562 0.969926
-550.00000000 3680.00000000 400.00000000 160 96 127 97.000000 1.000000 4.000000 1.000000 -60.708740 114.000000 149.000000 0.386735 -0.032774 0.921608
-570.00000000 3720.00000000 390.00000000 160 96 127 97.000000 1.000000 4.000000 1.000000 -60.708740 114.000000 149.000000 -0.380978 0.264443 0.885960
-570.00000000 3720.00000000 390.00000000 160 96 127 97.000000 1.000000 4.000000 1.000000 -60.708740 114.000000 149.000000 -0.380978 0.264443 0.885960
-560.00000000 3690.00000000 390.00000000 160 96 127 97.000000 1.000000 4.000000 1.000000 -60.708740 114.000000 149.000000 -0.311026 -0.220132 0.924556
-560.00000000 3700.00000000 390.00000000 160 96 127 97.000000 1.000000 4.000000 1.000000 -60.708740 114.000000 149.000000 0.000981 -0.002944 0.999995
-570.00000000 3710.00000000 390.00000000 160 96 127 97.000000 1.000000 4.000000 1.000000 -60.708740 114.000000 149.000000 -0.301642 -0.156963 0.940412
-560.00000000 3680.00000000 340.00000000 160 96 127 97.000000 1.000000 4.000000 1.000000 -60.708740 114.000000 149.000000 -0.011585 -0.384864 0.922901
-630.00000000 3800.00000000 370.00000000 160 96 127 97.000000 1.000000 4.000000 1.000000 -60.708740 114.000000 149.000000 -0.016399 0.334293 0.942327
-620.00000000 3770.00000000 370.00000000 160 96 127 97.000000 1.000000 4.000000 1.000000 -60.708740 114.000000 149.000000 -0.056209 -0.129625 0.989969
-630.00000000 3790.00000000 370.00000000 160 96 127 97.000000 1.000000 4.000000 1.000000 -60.708740 114.000000 149.000000 -0.142537 0.350115 0.925798
-610.00000000 3780.00000000 350.00000000 160 96 127 97.000000 1.000000 4.000000 1.000000 -60.708740 114.000000 149.000000 -0.252895 0.238923 0.937529
-650.00000000 3780.00000000 360.00000000 160 96 127 97.000000 1.000000 4.000000 1.000000 -60.708740 114.000000 149.000000 -0.179763 0.431138 0.884198
-650.00000000 3790.00000000 360.00000000 160 96 127 97.000000 1.000000 4.000000 1.000000 -60.708740 114.000000 149.000000 -0.208477 0.427304 0.879744
-640.00000000 3780.00000000 370.00000000 160 96 127 97.000000 1.000000 4.000000 1.000000 -60.708740 114.000000 149.000000 -0.310059 0.355433 0.881777
-640.00000000 3770.00000000 370.00000000 160 96 127 97.000000 1.000000 4.000000 1.000000 -60.708740 114.000000 149.000000 -0.028689 0.060566 0.997752
-660.00000000 3760.00000000 380.00000000 160 96 127 97.000000 1.000000 4.000000 1.000000 -60.708740 114.000000 149.000000 -0.062461 0.062461 0.996091
-680.00000000 3770.00000000 350.00000000 160 96 127 97.000000 1.000000 4.000000 1.000000 -60.708740 114.000000 149.000000 -0.630000 0.032272 0.775924
-610.00000000 3730.00000000 370.00000000 160 96 127 97.000000 1.000000 4.000000 1.000000 -60.708740 114.000000 149.000000 -0.147896 0.335875 0.930223
-610.00000000 3700.00000000 370.00000000 160 96 127 97.000000 1.000000 4.000000 1.000000 -60.708740 114.000000 149.000000 -0.212584 -0.220709 0.951891
-630.00000000 3700.00000000 370.00000000 160 96 127 97.000000 1.000000 4.000000 1.000000 -60.708740 114.000000 149.000000 -0.108856 0.099492 0.989066
-600.00000000 3710.00000000 380.00000000 160 96 127 97.000000 1.000000 4.000000 1.000000 -60.708740 114.000000 149.000000 -0.266609 0.139273 0.953689
-640.00000000 3750.00000000 380.00000000 160 96 127 97.000000 1.000000 4.000000 1.000000 -60.708740 114.000000 149.000000 0.169809 0.164702 0.971616
-680.00000000 3730.00000000 340.00000000 160 96 127 97.000000 1.000000 4.000000 1.000000 -60.708740 114.000000 149.000000 -0.519682 0.095919 0.848958
-660.00000000 3680.00000000 360.00000000 160 96 127 97.000000 1.000000 4.000000 1.000000 -60.708740 114.000000 149.000000 0.141109 0.066473 0.987760
-660.00000000 3690.00000000 380.00000000 160 96 127 97.000000 1.000000 4.000000 1.000000 -60.708740 114.000000 149.000000 -0.217427 -0.233836 0.947653
-660.00000000 3710.00000000 370.00000000 160 96 127 97.000000 1.000000 4.000000 1.000000 -60.708740 114.000000 149.000000 -0.378976 0.478961 0.791817
-390.00000000 3780.00000000 300.00000000 160 96 127 97.000000 1.000000 4.000000 1.000000 -60.708740 114.000000 149.000000 0.330756 -0.292193 0.897343
-380.00000000 3720.00000000 260.00000000 160 96 127 97.000000 1.000000 4.000000 1.000000 -60.708740 114.000000 149.000000 0.122566 -0.488822 0.863730
-680.00000000 3840.00000000 290.00000000 160 96 127 97.000000 1.000000 4.000000 1.000000 -60.708740 114.000000 149.000000 0.616448 -0.318741 -0.719998
-680.00000000 3850.00000000 280.00000000 160 96 127 97.000000 1.000000 4.000000 1.000000 -60.708740 114.000000 149.000000 -0.319695 0.570310 0.756665
-680.00000000 3850.00000000 280.00000000 160 96 127 97.000000 1.000000 4.000000 1.000000 -60.708740 114.000000 149.000000 -0.319695 0.570310 0.756665
-670.00000000 3790.00000000 290.00000000 160 96 127 97.000000 1.000000 4.000000 1.000000 -60.708740 114.000000 149.000000 0.561908 -0.619280 -0.548409
-720.00000000 3860.00000000 330.00000000 160 96 127 97.000000 1.000000 4.000000 1.000000 -60.708740 114.000000 149.000000 -0.442817 0.243323 0.862964
-690.00000000 3880.00000000 320.00000000 160 96 127 97.000000 1.000000 4.000000 1.000000 -60.708740 114.000000 149.000000 -0.535975 0.699606 0.472526
-700.00000000 3820.00000000 390.00000000 160 96 127 97.000000 1.000000 4.000000 1.000000 -60.708740 114.000000 149.000000 -0.258661 0.390235 0.883635
-690.00000000 3800.00000000 330.00000000 160 96 127 97.000000 1.000000 4.000000 1.000000 -60.708740 114.000000 149.000000 -0.169193 0.675246 0.717925
-690.00000000 3820.00000000 320.00000000 160 96 127 97.000000 1.000000 4.000000 1.000000 -60.708740 114.000000 149.000000 -0.104671 0.656035 0.747437
-720.00000000 3790.00000000 380.00000000 160 96 127 97.000000 1.000000 4.000000 1.000000 -60.708740 114.000000 149.000000 -0.507498 0.217934 0.833637
-720.00000000 3770.00000000 360.00000000 160 96 127 97.000000 1.000000 4.000000 1.000000 -60.708740 114.000000 149.000000 -0.526274 -0.037295 0.849497
-700.00000000 3780.00000000 340.00000000 160 96 127 97.000000 1.000000 4.000000 1.000000 -60.708740 114.000000 149.000000 -0.629426 0.514678 0.582177
-710.00000000 3770.00000000 330.00000000 160 96 127 97.000000 1.000000 4.000000 1.000000 -60.708740 114.000000 149.000000 -0.335988 0.050593 0.940507
-730.00000000 3770.00000000 390.00000000 160 96 127 97.000000 1.000000 4.000000 1.000000 -60.708740 114.000000 149.000000 -0.132802 0.223056 0.965717
-740.00000000 3770.00000000 320.00000000 160 96 127 97.000000 1.000000 4.000000 1.000000 -60.708740 114.000000 149.000000 -0.581255 0.187649 0.791789
-710.00000000 3750.00000000 390.00000000 160 96 127 97.000000 1.000000 4.000000 1.000000 -60.708740 114.000000 149.000000 -0.348726 -0.013949 0.937121
-720.00000000 3690.00000000 370.00000000 160 96 127 97.000000 1.000000 4.000000 1.000000 -60.708740 114.000000 149.000000 -0.152252 -0.089913 0.984243
-690.00000000 3700.00000000 330.00000000 160 96 127 97.000000 1.000000 4.000000 1.000000 -60.708740 114.000000 149.000000 -0.130046 0.392936 0.910324
-690.00000000 3690.00000000 330.00000000 160 96 127 97.000000 1.000000 4.000000 1.000000 -60.708740 114.000000 149.000000 -0.454121 0.214321 0.864778
-690.00000000 3690.00000000 330.00000000 160 96 127 97.000000 1.000000 4.000000 1.000000 -60.708740 114.000000 149.000000 -0.454121 0.214321 0.864778
-690.00000000 3700.00000000 330.00000000 160 96 127 97.000000 1.000000 4.000000 1.000000 -60.708740 114.000000 149.000000 -0.130046 0.392936 0.910324
-700.00000000 3710.00000000 320.00000000 160 96 127 97.000000 1.000000 4.000000 1.000000 -60.708740 114.000000 149.000000 -0.166447 0.484611 0.858748
-750.00000000 3750.00000000 380.00000000 160 96 127 97.000000 1.000000 4.000000 1.000000 -60.708740 114.000000 149.000000 -0.293463 0.335174 0.895286
-750.00000000 3730.00000000 360.00000000 160 96 127 97.000000 1.000000 4.000000 1.000000 -60.708740 114.000000 149.000000 -0.072265 0.204546 0.976186
-750.00000000 3700.00000000 370.00000000 160 96 127 97.000000 1.000000 4.000000 1.000000 -60.708740 114.000000 149.000000 -0.182243 0.247041 0.951714
-740.00000000 3710.00000000 360.00000000 160 96 127 97.000000 1.000000 4.000000 1.000000 -60.708740 114.000000 149.000000 -0.190503 0.190503 0.963025
-760.00000000 3700.00000000 360.00000000 160 96 127 97.000000 1.000000 4.000000 1.000000 -60.708740 114.000000 149.000000 -0.456625 0.613851 0.643958
-760.00000000 3700.00000000 360.00000000 160 96 127 97.000000 1.000000 4.000000 1.000000 -60.708740 114.000000 149.000000 -0.456625 0.613851 0.643958
-750.00000000 3710.00000000 360.00000000 160 96 127 97.000000 1.000000 4.000000 1.000000 -60.708740 114.000000 149.000000 -0.329458 0.180851 0.926688
-760.00000000 3710.00000000 360.00000000 160 96 127 97.000000 1.000000 4.000000 1.000000 -60.708740 114.000000 149.000000 -0.514112 0.256279 0.818541
-740.00000000 3680.00000000 320.00000000 160 96 127 97.000000 1.000000 4.000000 1.000000 -60.708740 114.000000 149.000000 -0.511436 0.129680 0.849480
-730.00000000 3690.00000000 320.00000000 160 96 127 97.000000 1.000000 4.000000 1.000000 -60.708740 114.000000 149.000000 -0.011707 0.404541 0.914445
-780.00000000 3770.00000000 340.00000000 160 96 127 97.000000 1.000000 4.000000 1.000000 -60.708740 114.000000 149.000000 0.550532 -0.418272 -0.722470
-840.00000000 3760.00000000 360.00000000 160 96 127 97.000000 1.000000 4.000000 1.000000 -60.708740 114.000000 149.000000 -0.279585 0.504503 0.816889
-840.00000000 3760.00000000 360.00000000 160 96 127 97.000000 1.000000 4.000000 1.000000 -60.708740 114.000000 149.000000 -0.279585 0.504503 0.816889
-770.00000000 3750.00000000 360.00000000 160 96 127 97.000000 1.000000 4.000000 1.000000 -60.708740 114.000000 149.000000 -0.560553 0.213471 0.800132
-820.00000000 3690.00000000 370.00000000 160 96 127 97.000000 1.000000 4.000000 1.000000 -60.708740 114.000000 149.000000 -0.095736 0.512973 0.853050
-850.00000000 3690.00000000 360.00000000 160 96 127 97.000000 1.000000 4.000000 1.000000 -60.708740 114.000000 149.000000 -0.178436 0.608512 0.773223
-700.00000000 3860.00000000 300.00000000 160 96 127 97.000000 1.000000 4.000000 1.000000 -60.708740 114.000000 149.000000 0.533888 -0.487026 -0.691209
-700.00000000 3860.00000000 300.00000000 160 96 127 97.000000 1.000000 4.000000 1.000000 -60.708740 114.000000 149.000000 0.533888 -0.487026 -0.691209
-700.00000000 3800.00000000 310.00000000 160 96 127 97.000000 1.000000 4.000000 1.000000 -60.708740 114.000000 149.000000 -0.339395 0.735627 0.586228
-750.00000000 3830.00000000 280.00000000 160 96 127 97.000000 1.000000 4.000000 1.000000 -60.708740 114.000000 149.000000 -0.546960 0.355443 0.757954
-760.00000000 3760.00000000 310.00000000 160 96 127 97.000000 1.000000 4.000000 1.000000 -60.708740 114.000000 149.000000 -0.237303 0.445889 0.863059
-730.00000000 3790.00000000 280.00000000 160 96 127 97.000000 1.000000 4.000000 1.000000 -60.708740 114.000000 149.000000 -0.520924 0.611959 0.595101
-740.00000000 3730.00000000 310.00000000 160 96 127 97.000000 1.000000 4.000000 1.000000 -60.708740 114.000000 149.000000 -0.420351 0.156376 0.893785
-500.00000000 3600.00000000 370.00000000 160 96 127 97.000000 1.000000 4.000000 1.000000 -60.708740 114.000000 149.000000 -0.034054 -0.486286 0.873136
-560.00000000 3670.00000000 390.00000000 160 96 127 97.000000 1.000000 4.000000 1.000000 -60.708740 114.000000 149.000000 0.177585 -0.405702 0.896588
-610.00000000 3660.00000000 400.00000000 160 96 127 97.000000 1.000000 4.000000 1.000000 -60.708740 114.000000 149.000000 -0.275309 0.331254 0.902483
-650.00000000 3660.00000000 390.00000000 160 96 127 97.000000 1.000000 4.000000 1.000000 -60.708740 114.000000 149.000000 -0.064613 0.457790 0.886710
-680.00000000 3630.00000000 380.00000000 160 96 127 97.000000 1.000000 4.000000 1.000000 -60.708740 114.000000 149.000000 -0.303515 0.229418 0.924795
-680.00000000 3660.00000000 380.00000000 160 96 127 97.000000 1.000000 4.000000 1.000000 -60.708740 114.000000 149.000000 -0.258341 -0.144406 0.955200
-680.00000000 3610.00000000 350.00000000 160 96 127 97.000000 1.000000 4.000000 1.000000 -60.708740 114.000000 149.000000 -0.171300 0.232384 0.957421
-620.00000000 3510.00000000 370.00000000 160 96 127 97.000000 1.000000 4.000000 1.000000 -60.708740 114.000000 149.000000 0.518770 -0.208421 0.829119
-670.00000000 3580.00000000 390.00000000 160 96 127 97.000000 1.000000 4.000000 1.000000 -60.708740 114.000000 149.000000 0.019436 0.382241 0.923858
-670.00000000 3550.00000000 330.00000000 160 96 127 97.000000 1.000000 4.000000 1.000000 -60.708740 114.000000 149.000000 0.258476 0.258476 0.930796
-650.00000000 3510.00000000 400.00000000 160 96 127 97.000000 1.000000 4.000000 1.000000 -60.708740 114.000000 149.000000 0.496765 -0.020304 0.867647
-470.00000000 3660.00000000 260.00000000 160 96 127 97.000000 1.000000 4.000000 1.000000 -60.708740 114.000000 149.000000 0.419076 -0.128404 0.898826
-470.00000000 3650.00000000 260.00000000 160 96 127 97.000000 1.000000 4.000000 1.000000 -60.708740 114.000000 149.000000 0.444061 -0.081619 0.892272
-450.00000000 3660.00000000 200.00000000 160 96 127 97.000000 1.000000 4.000000 1.000000 -60.708740 114.000000 149.000000 -0.297311 0.689441 -0.660513
-500.00000000 3590.00000000 210.00000000 160 96 127 97.000000 1.000000 4.000000 1.000000 -60.708740 114.000000 149.000000 0.634858 -0.159093 0.756072
-510.00000000 3610.00000000 210.00000000 160 96 127 97.000000 1.000000 4.000000 1.000000 -60.708740 114.000000 149.000000 0.540824 -0.387237 0.746697
-500.00000000 3550.00000000 270.00000000 160 96 127 97.000000 1.000000 4.000000 1.000000 -60.708740 114.000000 149.000000 0.750417 -0.274465 0.601285
-450.00000000 3610.00000000 130.00000000 160 96 127 97.000000 1.000000 4.000000 1.000000 -60.708740 114.000000 149.000000 0.904632 -0.421800 0.061032
-460.00000000 3600.00000000 100.00000000 160 96 127 97.000000 1.000000 4.000000 1.000000 -60.708740 114.000000 149.000000 0.934136 -0.356531 -0.016613
-460.00000000 3600.00000000 100.00000000 160 96 127 97.000000 1.000000 4.000000 1.000000 -60.708740 114.000000 149.000000 0.934136 -0.356531 -0.016613
-370.00000000 3440.00000000 210.00000000 160 96 127 97.000000 1.000000 4.000000 1.000000 -60.708740 114.000000 149.000000 0.716628 -0.523754 0.460571
-370.00000000 3350.00000000 180.00000000 160 96 127 97.000000 1.000000 4.000000 1.000000 -60.708740 114.000000 149.000000 0.689258 -0.721048 0.070804
-460.00000000 3490.00000000 170.00000000 160 96 127 97.000000 1.000000 4.000000 1.000000 -60.708740 114.000000 149.000000 0.612628 -0.541745 0.575499
-380.00000000 3350.00000000 110.00000000 160 96 127 97.000000 1.000000 4.000000 1.000000 -60.708740 114.000000 149.000000 -0.535618 0.842087 -0.063262
-550.00000000 3600.00000000 250.00000000 160 96 127 97.000000 1.000000 4.000000 1.000000 -60.708740 114.000000 149.000000 0.344940 -0.505377 0.790955
-520.00000000 3610.00000000 270.00000000 160 96 127 97.000000 1.000000 4.000000 1.000000 -60.708740 114.000000 149.000000 0.162237 -0.466249 0.869650
-590.00000000 3630.00000000 290.00000000 160 96 127 97.000000 1.000000 4.000000 1.000000 -60.708740 114.000000 149.000000 0.270901 -0.372676 0.887539
-550.00000000 3600.00000000 210.00000000 160 96 127 97.000000 1.000000 4.000000 1.000000 -60.708740 114.000000 149.000000 0.610062 -0.126168 0.782244
-550.00000000 3600.00000000 210.00000000 160 96 127 97.000000 1.000000 4.000000 1.000000 -60.708740 114.000000 149.000000 0.610062 -0.126168 0.782244
-530.00000000 3610.00000000 230.00000000 160 96 127 97.000000 1.000000 4.000000 1.000000 -60.708740 114.000000 149.000000 0.523040 -0.037261 0.851493
-530.00000000 3600.00000000 180.00000000 160 96 127 97.000000 1.000000 4.000000 1.000000 -60.708740 114.000000 149.000000 0.470508 -0.255944 0.844462
-590.00000000 3630.00000000 210.00000000 160 96 127 97.000000 1.000000 4.000000 1.000000 -60.708740 114.000000 149.000000 0.436469 -0.246174 0.865386
-590.00000000 3550.00000000 280.00000000 160 96 127 97.000000 1.000000 4.000000 1.000000 -60.708740 114.000000 149.000000 0.535563 -0.468827 0.702406
-570.00000000 3570.00000000 240.00000000 160 96 127 97.000000 1.000000 4.000000 1.000000 -60.708740 114.000000 149.000000 0.301087 0.026236 0.953236
-580.00000000 3580.00000000 270.00000000 160 96 127 97.000000 1.000000 4.000000 1.000000 -60.708740 114.000000 149.000000 0.150986 -0.336602 0.929464
-550.00000000 3540.00000000 180.00000000 160 96 127 97.000000 1.000000 4.000000 1.000000 -60.708740 114.000000 149.000000 0.581163 -0.331862 0.743046
-630.00000000 3630.00000000 210.00000000 160 96 127 97.000000 1.000000 4.000000 1.000000 -60.708740 114.000000 149.000000 0.129836 -0.253114 0.958685
-650.00000000 3620.00000000 190.00000000 160 96 127 97.000000 1.000000 4.000000 1.000000 -60.708740 114.000000 149.000000 0.284258 0.038819 0.957962
-630.00000000 3560.00000000 170.00000000 160 96 127 97.000000 1.000000 4.000000 1.000000 -60.708740 114.000000 149.000000 0.140950 -0.571217 0.808606
-370.00000000 3300.00000000 360.00000000 160 96 127 97.000000 1.000000 4.000000 1.000000 -60.708740 114.000000 149.000000 0.528001 -0.332208 0.781571
-350.00000000 3270.00000000 390.00000000 160 96 127 97.000000 1.000000 4.000000 1.000000 -60.708740 114.000000 149.000000 0.411666 -0.443953 0.795887
-490.00000000 3120.00000000 430.00000000 160 96 127 97.000000 1.000000 4.000000 1.000000 -60.708740 114.000000 149.000000 0.708772 -0.216526 0.671386
-520.00000000 3060.00000000 400.00000000 160 96 127 97.000000 1.000000 4.000000 1.000000 -60.708740 114.000000 149.000000 0.661616 -0.387730 0.641817
-530.00000000 3030.00000000 390.00000000 160 96 127 97.000000 1.000000 4.000000 1.000000 -60.708740 114.000000 149.000000 0.267893 -0.616629 0.740272
-350.00000000 3200.00000000 220.00000000 160 96 127 97.000000 1.000000 4.000000 1.000000 -60.708740 114.000000 149.000000 -0.565243 0.818076 0.106074
-380.00000000 3130.00000000 220.00000000 160 96 127 97.000000 1.000000 4.000000 1.000000 -60.708740 114.000000 149.000000 0.675721 -0.665999 0.315985
-470.00000000 3050.00000000 260.00000000 160 96 127 97.000000 1.000000 4.000000 1.000000 -60.708740 114.000000 149.000000 0.634049 -0.590321 0.499503
-470.00000000 3020.00000000 290.00000000 160 96 127 97.000000 1.000000 4.000000 1.000000 -60.708740 114.000000 149.000000 -0.639561 0.764283 -0.082664
-480.00000000 3030.00000000 250.00000000 160 96 127 97.000000 1.000000 4.000000 1.000000 -60.708740 114.000000 149.000000 0.745004 -0.626303 0.229593
-370.00000000 3090.00000000 90.00000000 160 96 127 97.000000 1.000000 4.000000 1.000000 -60.708740 114.000000 149.000000 -0.474792 0.862318 0.176013
-720.00000000 3640.00000000 380.00000000 160 96 127 97.000000 1.000000 4.000000 1.000000 -60.708740 114.000000 149.000000 -0.523567 0.004038 0.851975
-700.00000000 3670.00000000 380.00000000 160 96 127 97.000000 1.000000 4.000000 1.000000 -60.708740 114.000000 149.000000 -0.060520 0.547497 0.834616
-700.00000000 3640.00000000 360.00000000 160 96 127 97.000000 1.000000 4.000000 1.000000 -60.708740 114.000000 149.000000 -0.325178 0.036981 0.944929
-690.00000000 3600.00000000 380.00000000 160 96 127 97.000000 1.000000 4.000000 1.000000 -60.708740 114.000000 149.000000 -0.293030 -0.211711 0.932369
-750.00000000 3670.00000000 320.00000000 160 96 127 97.000000 1.000000 4.000000 1.000000 -60.708740 114.000000 149.000000 -0.191444 0.133123 0.972434
-750.00000000 3670.00000000 320.00000000 160 96 127 97.000000 1.000000 4.000000 1.000000 -60.708740 114.000000 149.000000 -0.191444 0.133123 0.972434
-720.00000000 3580.00000000 330.00000000 160 96 127 97.000000 1.000000 4.000000 1.000000 -60.708740 114.000000 149.000000 0.146170 0.312831 0.938494
-690.00000000 3550.00000000 320.00000000 160 96 127 97.000000 1.000000 4.000000 1.000000 -60.708740 114.000000 149.000000 0.307228 0.013682 0.951537
-700.00000000 3510.00000000 390.00000000 160 96 127 97.000000 1.000000 4.000000 1.000000 -60.708740 114.000000 149.000000 0.011452 -0.055178 0.998411
-710.00000000 3530.00000000 390.00000000 160 96 127 97.000000 1.000000 4.000000 1.000000 -60.708740 114.000000 149.000000 0.235394 0.086857 0.968011
-700.00000000 3510.00000000 390.00000000 160 96 127 97.000000 1.000000 4.000000 1.000000 -60.708740 114.000000 149.000000 0.011452 -0.055178 0.998411
-750.00000000 3570.00000000 370.00000000 160 96 127 97.000000 1.000000 4.000000 1.000000 -60.708740 114.000000 149.000000 0.048158 0.104155 0.993394
-730.00000000 3560.00000000 370.00000000 160 96 127 97.000000 1.000000 4.000000 1.000000 -60.708740 114.000000 149.000000 -0.387538 0.054602 0.920235
-730.00000000 3560.00000000 370.00000000 160 96 127 97.000000 1.000000 4.000000 1.000000 -60.708740 114.000000 149.000000 -0.387538 0.054602 0.920235
-740.00000000 3550.00000000 370.00000000 160 96 127 97.000000 1.000000 4.000000 1.000000 -60.708740 114.000000 149.000000 -0.050942 -0.181259 0.982115
-780.00000000 3530.00000000 400.00000000 160 96 127 97.000000 1.000000 4.000000 1.000000 -60.708740 114.000000 149.000000 -0.186620 -0.232268 0.954581
-710.00000000 3470.00000000 360.00000000 160 96 127 97.000000 1.000000 4.000000 1.000000 -60.708740 114.000000 149.000000 -0.057866 -0.230234 0.971413
-710.00000000 3470.00000000 360.00000000 160 96 127 97.000000 1.000000 4.000000 1.000000 -60.708740 114.000000 149.000000 -0.057866 -0.230234 0.971413
-720.00000000 3460.00000000 340.00000000 160 96 127 97.000000 1.000000 4.000000 1.000000 -60.708740 114.000000 149.000000 0.466523 0.109186 0.877744
-720.00000000 3460.00000000 340.00000000 160 96 127 97.000000 1.000000 4.000000 1.000000 -60.708740 114.000000 149.000000 0.466523 0.109186 0.877744
-710.00000000 3470.00000000 300.00000000 160 96 127 97.000000 1.000000 4.000000 1.000000 -60.708740 114.000000 149.000000 0.486771 -0.004001 0.873520
-550.00000000 2990.00000000 340.00000000 160 96 127 97.000000 1.000000 4.000000 1.000000 -60.708740 114.000000 149.000000 0.844033 -0.393047 0.364860
-610.00000000 2910.00000000 350.00000000 160 96 127 97.000000 1.000000 4.000000 1.000000 -60.708740 114.000000 149.000000 -0.315852 0.691635 -0.649522
-600.00000000 2900.00000000 310.00000000 160 96 127 97.000000 1.000000 4.000000 1.000000 -60.708740 114.000000 149.000000 -0.446765 0.808661 -0.382713
-620.00000000 2870.00000000 310.00000000 160 96 127 97.000000 1.000000 4.000000 1.000000 -60.708740 114.000000 149.000000 0.828130 -0.559921 0.026268
-640.00000000 2890.00000000 310.00000000 160 96 127 97.000000 1.000000 4.000000 1.000000 -60.708740 114.000000 149.000000 0.722289 -0.315093 0.615642
300.00000000 4010.00000000 -140.00000000 160 96 127 97.000000 1.000000 4.000000 1.000000 -60.708740 114.000000 149.000000 -0.477325 0.349612 0.806184
270.00000000 4090.00000000 -120.00000000 160 96 127 97.000000 1.000000 4.000000 1.000000 -60.708740 114.000000 149.000000 0.712244 -0.223848 -0.665283
280.00000000 4080.00000000 -330.00000000 160 96 127 97.000000 1.000000 4.000000 1.000000 -60.708740 114.000000 149.000000 0.779603 -0.269317 -0.565409
240.00000000 4050.00000000 -260.00000000 160 96 127 97.000000 1.000000 4.000000 1.000000 -60.708740 114.000000 149.000000 0.768015 -0.419066 -0.484290
170.00000000 4040.00000000 -190.00000000 160 96 127 97.000000 1.000000 4.000000 1.000000 -60.708740 114.000000 149.000000 0.754283 -0.260916 -0.602478
110.00000000 3940.00000000 -100.00000000 160 96 127 97.000000 1.000000 4.000000 1.000000 -60.708740 114.000000 149.000000 -0.506639 0.283906 0.814073
110.00000000 3940.00000000 -100.00000000 160 96 127 97.000000 1.000000 4.000000 1.000000 -60.708740 114.000000 149.000000 -0.506639 0.283906 0.814073
90.00000000 3910.00000000 -140.00000000 160 96 127 97.000000 1.000000 4.000000 1.000000 -60.708740 114.000000 149.000000 -0.665064 0.195970 0.720615
20.00000000 3840.00000000 -350.00000000 160 96 127 97.000000 1.000000 4.000000 1.000000 -60.708740 114.000000 149.000000 0.515528 -0.676736 -0.525604
-10.00000000 3810.00000000 -330.00000000 160 96 127 97.000000 1.000000 4.000000 1.000000 -60.708740 114.000000 149.000000 -0.567695 0.648554 0.507051
-40.00000000 3840.00000000 -360.00000000 160 96 127 97.000000 1.000000 4.000000 1.000000 -60.708740 114.000000 149.000000 0.621195 -0.450408 -0.641287
-60.00000000 3840.00000000 -400.00000000 160 96 127 97.000000 1.000000 4.000000 1.000000 -60.708740 114.000000 149.000000 -0.511771 0.432784 0.742151
-130.00000000 3840.00000000 -370.00000000 160 96 127 97.000000 1.000000 4.000000 1.000000 -60.708740 114.000000 149.000000 -0.551701 0.410071 0.726270
-150.00000000 3890.00000000 -380.00000000 160 96 127 97.000000 1.000000 4.000000 1.000000 -60.708740 114.000000 149.000000 -0.432204 0.406497 0.804960
-140.00000000 3430.00000000 -170.00000000 160 96 127 97.000000 1.000000 4.000000 1.000000 -60.708740 114.000000 149.000000 0.409145 -0.677491 -0.611233
-120.00000000 3410.00000000 -90.00000000 160 96 127 97.000000 1.000000 4.000000 1.000000 -60.708740 114.000000 149.000000 -0.386943 0.696498 0.604290
-340.00000000 3600.00000000 -140.00000000 160 96 127 97.000000 1.000000 4.000000 1.000000 -60.708740 114.000000 149.000000 -0.270719 0.481107 0.833815
-310.00000000 3520.00000000 -180.00000000 160 96 127 97.000000 1.000000 4.000000 1.000000 -60.708740 114.000000 149.000000 -0.414102 0.407707 0.813815
-320.00000000 3550.00000000 -240.00000000 160 96 127 97.000000 1.000000 4.000000 1.000000 -60.708740 114.000000 149.000000 -0.407252 0.049404 0.911978
-270.00000000 3560.00000000 -340.00000000 160 96 127 97.000000 1.000000 4.000000 1.000000 -60.708740 114.000000 149.000000 -0.303387 0.057605 0.951125
-330.00000000 3380.00000000 -30.00000000 160 96 127 97.000000 1.000000 4.000000 1.000000 -60.708740 114.000000 149.000000 0.602751 -0.413458 -0.682454
-280.00000000 3350.00000000 -160.00000000 160 96 127 97.000000 1.000000 4.000000 1.000000 -60.708740 114.000000 149.000000 -0.401279 0.420463 0.813748
-280.00000000 3290.00000000 -90.00000000 160 96 127 97.000000 1.000000 4.000000 1.000000 -60.708740 114.000000 149.000000 -0.620439 0.373580 0.689560
-280.00000000 3280.00000000 -80.00000000 160 96 127 97.000000 1.000000 4.000000 1.000000 -60.708740 114.000000 149.000000 0.631250 -0.735147 -0.247148
-300.00000000 3290.00000000 -150.00000000 160 96 127 97.000000 1.000000 4.000000 1.000000 -60.708740 114.000000 149.000000 -0.340413 0.685712 0.643364
-330.00000000 3300.00000000 -180.00000000 160 96 127 97.000000 1.000000 4.000000 1.000000 -60.708740 114.000000 149.000000 0.629826 -0.333629 -0.701435
-310.00000000 3310.00000000 -170.00000000 160 96 127 97.000000 1.000000 4.000000 1.000000 -60.708740 114.000000 149.000000 -0.571106 0.323359 0.754504
-370.00000000 3610.00000000 -160.00000000 160 96 127 97.000000 1.000000 4.000000 1.000000 -60.708740 114.000000 149.000000 -0.265313 0.354244 0.896727
-400.00000000 3520.00000000 -100.00000000 160 96 127 97.000000 1.000000 4.000000 1.000000 -60.708740 114.000000 149.000000 0.555876 -0.414021 -0.720825
-450.00000000 3530.00000000 -60.00000000 160 96 127 97.000000 1.000000 4.000000 1.000000 -60.708740 114.000000 149.000000 -0.283174 0.339512 0.896964
-440.00000000 3520.00000000 -140.00000000 160 96 127 97.000000 1.000000 4.000000 1.000000 -60.708740 114.000000 149.000000 -0.482047 0.056630 0.874314
-480.00000000 3560.00000000 -140.00000000 160 96 127 97.000000 1.000000 4.000000 1.000000 -60.708740 114.000000 149.000000 -0.499045 -0.025836 0.866191
-500.00000000 3520.00000000 -130.00000000 160 96 127 97.000000 1.000000 4.000000 1.000000 -60.708740 114.000000 149.000000 -0.490449 0.206743 0.846591
-410.00000000 3660.00000000 -200.00000000 160 96 127 97.000000 1.000000 4.000000 1.000000 -60.708740 114.000000 149.000000 -0.144090 0.478844 0.865995
-350.00000000 3510.00000000 -330.00000000 160 96 127 97.000000 1.000000 4.000000 1.000000 -60.708740 114.000000 149.000000 -0.224074 0.027560 0.974182
-460.00000000 3540.00000000 -280.00000000 160 96 127 97.000000 1.000000 4.000000 1.000000 -60.708740 114.000000 149.000000 -0.569104 0.495238 0.656400
-350.00000000 3480.00000000 -150.00000000 160 96 127 97.000000 1.000000 4.000000 1.000000 -60.708740 114.000000 149.000000 -0.515917 0.298191 0.803064
-420.00000000 3400.00000000 -100.00000000 160 96 127 97.000000 1.000000 4.000000 1.000000 -60.708740 114.000000 149.000000 -0.506900 0.734757 0.450761
-400.00000000 3410.00000000 -100.00000000 160 96 127 97.000000 1.000000 4.000000 1.000000 -60.708740 114.000000 149.000000 -0.423100 0.850850 0.311513
-510.00000000 3480.00000000 -40.00000000 160 96 127 97.000000 1.000000 4.000000 1.000000 -60.708740 114.000000 149.000000 0.524625 -0.711158 -0.467999
-510.00000000 3480.00000000 -70.00000000 160 96 127 97.000000 1.000000 4.000000 1.000000 -60.708740 114.000000 149.000000 -0.610215 0.673398 0.417340
-510.00000000 3500.00000000 -100.00000000 160 96 127 97.000000 1.000000 4.000000 1.000000 -60.708740 114.000000 149.000000 0.090523 -0.441474 -0.892696
-500.00000000 3470.00000000 -170.00000000 160 96 127 97.000000 1.000000 4.000000 1.000000 -60.708740 114.000000 149.000000 -0.227501 0.319074 0.920019
-480.00000000 3450.00000000 -140.00000000 160 96 127 97.000000 1.000000 4.000000 1.000000 -60.708740 114.000000 149.000000 -0.480290 0.100592 0.871323
-470.00000000 3380.00000000 -20.00000000 160 96 127 97.000000 1.000000 4.000000 1.000000 -60.708740 114.000000 149.000000 -0.528666 0.572580 0.626629
-470.00000000 3410.00000000 -30.00000000 160 96 127 97.000000 1.000000 4.000000 1.000000 -60.708740 114.000000 149.000000 0.567146 -0.584076 -0.580690
-500.00000000 3400.00000000 -50.00000000 160 96 127 97.000000 1.000000 4.000000 1.000000 -60.708740 114.000000 149.000000 -0.569848 0.404675 0.715200
-370.00000000 3500.00000000 -240.00000000 160 96 127 97.000000 1.000000 4.000000 1.000000 -60.708740 114.000000 149.000000 -0.445539 0.481708 0.754621
-370.00000000 3450.00000000 -270.00000000 160 96 127 97.000000 1.000000 4.000000 1.000000 -60.708740 114.000000 149.000000 -0.179477 0.310258 0.933557
-360.00000000 3460.00000000 -270.00000000 160 96 127 97.000000 1.000000 4.000000 1.000000 -60.708740 114.000000 149.000000 -0.286807 0.159035 0.944696
-410.00000000 3470.00000000 -280.00000000 160 96 127 97.000000 1.000000 4.000000 1.000000 -60.708740 114.000000 149.000000 -0.079865 0.385788 0.919124
-540.00000000 3480.00000000 -80.00000000 160 96 127 97.000000 1.000000 4.000000 1.000000 -60.708740 114.000000 149.000000 -0.663451 0.569393 0.485411
-520.00000000 3440.00000000 -30.00000000 160 96 127 97.000000 1.000000 4.000000 1.000000 -60.708740 114.000000 149.000000 -0.551220 0.329446 0.766565
-520.00000000 3460.00000000 -70.00000000 160 96 127 97.000000 1.000000 4.000000 1.000000 -60.708740 114.000000 149.000000 0.832700 -0.264178 -0.486643
-520.00000000 3450.00000000 -150.00000000 160 96 127 97.000000 1.000000 4.000000 1.000000 -60.708740 114.000000 149.000000 -0.224754 0.219306 0.949416
-570.00000000 3470.00000000 -140.00000000 160 96 127 97.000000 1.000000 4.000000 1.000000 -60.708740 114.000000 149.000000 -0.629880 0.052608 0.774909
-570.00000000 3450.00000000 -120.00000000 160 96 127 97.000000 1.000000 4.000000 1.000000 -60.708740 114.000000 149.000000 -0.125456 0.415837 0.900744
-350.00000000 3210.00000000 -30.00000000 160 96 127 97.000000 1.000000 4.000000 1.000000 -60.708740 114.000000 149.000000 -0.414934 0.795962 0.440766
-380.00000000 3110.00000000 -50.00000000 160 96 127 97.000000 1.000000 4.000000 1.000000 -60.708740 114.000000 149.000000 0.561897 -0.711073 -0.422666
1060.00000000 6050.00000000 50.00000000 160 96 127 97.000000 1.000000 4.000000 1.000000 -60.708740 114.000000 149.000000 -0.642879 0.622842 -0.445841
1050.00000000 6040.00000000 60.00000000 160 96 127 97.000000 1.000000 4.000000 1.000000 -60.708740 114.000000 149.000000 0.854780 -0.518339 -0.025985
1050.00000000 6040.00000000 60.00000000 160 96 127 97.000000 1.000000 4.000000 1.000000 -60.708740 114.000000 149.000000 0.854780 -0.518339 -0.025985
1050.00000000 6040.00000000 40.00000000 160 96 127 97.000000 1.000000 4.000000 1.000000 -60.708740 114.000000 149.000000 -0.450700 0.888918 -0.081819
1050.00000000 6010.00000000 60.00000000 160 96 127 97.000000 1.000000 4.000000 1.000000 -60.708740 114.000000 149.000000 -0.576111 0.660092 -0.482052
1060.00000000 5950.00000000 50.00000000 160 96 127 97.000000 1.000000 4.000000 1.000000 -60.708740 114.000000 149.000000 0.705955 -0.488995 0.512360
1040.00000000 5990.00000000 50.00000000 160 96 127 97.000000 1.000000 4.000000 1.000000 -60.708740 114.000000 149.000000 0.858400 -0.509457 -0.060018
1050.00000000 5940.00000000 40.00000000 160 96 127 97.000000 1.000000 4.000000 1.000000 -60.708740 114.000000 149.000000 0.789152 -0.439138 0.429415
810.00000000 5750.00000000 350.00000000 160 96 127 97.000000 1.000000 4.000000 1.000000 -60.708740 114.000000 149.000000 0.287836 -0.761732 -0.580443
830.00000000 5700.00000000 370.00000000 160 96 127 97.000000 1.000000 4.000000 1.000000 -60.708740 114.000000 149.000000 -0.443121 0.817948 0.366885
750.00000000 5730.00000000 370.00000000 160 96 127 97.000000 1.000000 4.000000 1.000000 -60.708740 114.000000 149.000000 0.763175 -0.627164 -0.155658
940.00000000 5860.00000000 210.00000000 160 96 127 97.000000 1.000000 4.000000 1.000000 -60.708740 114.000000 149.000000 -0.363826 0.856153 0.366923
940.00000000 5860.00000000 220.00000000 160 96 127 97.000000 1.000000 4.000000 1.000000 -60.708740 114.000000 149.000000 0.840822 -0.432111 -0.326033
970.00000000 5720.00000000 160.00000000 160 96 127 97.000000 1.000000 4.000000 1.000000 -60.708740 114.000000 149.000000 -0.477310 0.846348 0.236368
920.00000000 5770.00000000 170.00000000 160 96 127 97.000000 1.000000 4.000000 1.000000 -60.708740 114.000000 149.000000 -0.557255 0.828123 0.060663
880.00000000 5810.00000000 260.00000000 160 96 127 97.000000 1.000000 4.000000 1.000000 -60.708740 114.000000 149.000000 0.740203 -0.630659 -0.233172
880.00000000 5810.00000000 260.00000000 160 96 127 97.000000 1.000000 4.000000 1.000000 -60.708740 114.000000 149.000000 0.740203 -0.630659 -0.233172
880.00000000 5710.00000000 250.00000000 160 96 127 97.000000 1.000000 4.000000 1.000000 -60.708740 114.000000 149.000000 0.730063 -0.538895 -0.420239
850.00000000 5770.00000000 290.00000000 160 96 127 97.000000 1.000000 4.000000 1.000000 -60.708740 114.000000 149.000000 0.802485 -0.514414 -0.302317
840.00000000 5750.00000000 250.00000000 160 96 127 97.000000 1.000000 4.000000 1.000000 -60.708740 114.000000 149.000000 0.799945 -0.496573 -0.336903
950.00000000 5790.00000000 90.00000000 160 96 127 97.000000 1.000000 4.000000 1.000000 -60.708740 114.000000 149.000000 -0.478388 0.864609 -0.153611
990.00000000 5790.00000000 140.00000000 160 96 127 97.000000 1.000000 4.000000 1.000000 -60.708740 114.000000 149.000000 -0.688060 0.724794 0.035321
940.00000000 5780.00000000 120.00000000 160 96 127 97.000000 1.000000 4.000000 1.000000 -60.708740 114.000000 149.000000 0.709922 -0.649300 0.272802
950.00000000 5800.00000000 20.00000000 160 96 127 97.000000 1.000000 4.000000 1.000000 -60.708740 114.000000 149.000000 0.756609 -0.428362 0.494012
960.00000000 5750.00000000 70.00000000 160 96 127 97.000000 1.000000 4.000000 1.000000 -60.708740 114.000000 149.000000 -0.436447 0.896301 -0.078478
960.00000000 5740.00000000 100.00000000 160 96 127 97.000000 1.000000 4.000000 1.000000 -60.708740 114.000000 149.000000 0.705167 -0.673896 0.220462
960.00000000 5730.00000000 70.00000000 160 96 127 97.000000 1.000000 4.000000 1.000000 -60.708740 114.000000 149.000000 0.839173 -0.543477 -0.020534
940.00000000 5750.00000000 30.00000000 160 96 127 97.000000 1.000000 4.000000 1.000000 -60.708740 114.000000 149.000000 -0.699229 0.708062 -0.098628
780.00000000 5890.00000000 280.00000000 160 96 127 97.000000 1.000000 4.000000 1.000000 -60.708740 114.000000 149.000000 0.711073 -0.422666 -0.561897
800.00000000 5790.00000000 310.00000000 160 96 127 97.000000 1.000000 4.000000 1.000000 -60.708740 114.000000 149.000000 0.639226 -0.330185 -0.694528
820.00000000 5770.00000000 290.00000000 160 96 127 97.000000 1.000000 4.000000 1.000000 -60.708740 114.000000 149.000000 0.800852 -0.596016 -0.058321
620.00000000 5710.00000000 10.00000000 160 96 127 97.000000 1.000000 4.000000 1.000000 -60.708740 114.000000 149.000000 0.887728 -0.460352 0.003957
630.00000000 5730.00000000 0.00000000 160 96 127 97.000000 1.000000 4.000000 1.000000 -60.708740 114.000000 149.000000 -0.581620 0.770765 -0.260074
580.00000000 5710.00000000 40.00000000 160 96 127 97.000000 1.000000 4.000000 1.000000 -60.708740 114.000000 149.000000 0.852630 -0.520975 -0.040075
1440.00000000 5290.00000000 40.00000000 160 96 127 97.000000 1.000000 4.000000 1.000000 -60.708740 114.000000 149.000000 -0.441376 0.897244 0.011858
1390.00000000 5350.00000000 80.00000000 160 96 127 97.000000 1.000000 4.000000 1.000000 -60.708740 114.000000 149.000000 0.662331 -0.585199 -0.467824
1420.00000000 5310.00000000 80.00000000 160 96 127 97.000000 1.000000 4.000000 1.000000 -60.708740 114.000000 149.000000 0.612659 -0.659401 -0.435706
1410.00000000 5290.00000000 80.00000000 160 96 127 97.000000 1.000000 4.000000 1.000000 -60.708740 114.000000 149.000000 0.825802 -0.440533 -0.352111
1410.00000000 5310.00000000 0.00000000 160 96 127 97.000000 1.000000 4.000000 1.000000 -60.708740 114.000000 149.000000 0.796258 -0.302356 -0.523979
1400.00000000 5300.00000000 10.00000000 160 96 127 97.000000 1.000000 4.000000 1.000000 -60.708740 114.000000 149.000000 -0.498826 0.866524 0.017574
1110.00000000 5670.00000000 90.00000000 160 96 127 97.000000 1.000000 4.000000 1.000000 -60.708740 114.000000 149.000000 0.763175 -0.627164 -0.155658
1120.00000000 5660.00000000 60.00000000 160 96 127 97.000000 1.000000 4.000000 1.000000 -60.708740 114.000000 149.000000 -0.474483 0.843014 -0.253365
1120.00000000 5570.00000000 0.00000000 160 96 127 97.000000 1.000000 4.000000 1.000000 -60.708740 114.000000 149.000000 -0.357449 0.716530 -0.599012
1020.00000000 5650.00000000 90.00000000 160 96 127 97.000000 1.000000 4.000000 1.000000 -60.708740 114.000000 149.000000 -0.646462 0.698050 0.307916
1010.00000000 5680.00000000 130.00000000 160 96 127 97.000000 1.000000 4.000000 1.000000 -60.708740 114.000000 149.000000 -0.490252 0.830491 0.264458
1020.00000000 5650.00000000 80.00000000 160 96 127 97.000000 1.000000 4.000000 1.000000 -60.708740 114.000000 149.000000 -0.636575 0.767080 0.079753
1010.00000000 5630.00000000 30.00000000 160 96 127 97.000000 1.000000 4.000000 1.000000 -60.708740 114.000000 149.000000 0.567735 -0.422077 0.706773
1030.00000000 5620.00000000 50.00000000 160 96 127 97.000000 1.000000 4.000000 1.000000 -60.708740 114.000000 149.000000 -0.705592 0.552852 -0.443278
1050.00000000 5580.00000000 10.00000000 160 96 127 97.000000 1.000000 4.000000 1.000000 -60.708740 114.000000 149.000000 0.768115 -0.211734 0.604292
1020.00000000 5560.00000000 30.00000000 160 96 127 97.000000 1.000000 4.000000 1.000000 -60.708740 114.000000 149.000000 0.574134 -0.305458 0.759648
1090.00000000 5360.00000000 120.00000000 160 96 127 97.000000 1.000000 4.000000 1.000000 -60.708740 114.000000 149.000000 0.696986 -0.584409 0.415543
1060.00000000 5360.00000000 140.00000000 160 96 127 97.000000 1.000000 4.000000 1.000000 -60.708740 114.000000 149.000000 0.718984 -0.529691 0.449988
1290.00000000 5320.00000000 140.00000000 160 96 127 97.000000 1.000000 4.000000 1.000000 -60.708740 114.000000 149.000000 0.723904 -0.515181 0.458859
1310.00000000 5270.00000000 10.00000000 160 96 127 97.000000 1.000000 4.000000 1.000000 -60.708740 114.000000 149.000000 0.797104 -0.601025 -0.058255
1230.00000000 5330.00000000 90.00000000 160 96 127 97.000000 1.000000 4.000000 1.000000 -60.708740 114.000000 149.000000 0.759066 -0.493475 -0.424618
1240.00000000 5320.00000000 20.00000000 160 96 127 97.000000 1.000000 4.000000 1.000000 -60.708740 114.000000 149.000000 0.851844 -0.510528 -0.117147
1210.00000000 5300.00000000 20.00000000 160 96 127 97.000000 1.000000 4.000000 1.000000 -60.708740 114.000000 149.000000 0.878109 -0.329101 -0.347300
1180.00000000 5250.00000000 20.00000000 160 96 127 97.000000 1.000000 4.000000 1.000000 -60.708740 114.000000 149.000000 -0.443199 0.637203 0.630513
1220.00000000 5150.00000000 0.00000000 160 96 127 97.000000 1.000000 4.000000 1.000000 -60.708740 114.000000 149.000000 0.876016 -0.276875 -0.394888
1120.00000000 5280.00000000 210.00000000 160 96 127 97.000000 1.000000 4.000000 1.000000 -60.708740 114.000000 149.000000 -0.303802 0.737806 -0.602782
1150.00000000 5260.00000000 230.00000000 160 96 127 97.000000 1.000000 4.000000 1.000000 -60.708740 114.000000 149.000000 0.403449 -0.302203 0.863656
1150.00000000 5260.00000000 150.00000000 160 96 127 97.000000 1.000000 4.000000 1.000000 -60.708740 114.000000 149.000000 0.900653 -0.420305 0.110312
1090.00000000 5230.00000000 190.00000000 160 96 127 97.000000 1.000000 4.000000 1.000000 -60.708740 114.000000 149.000000 -0.470686 0.834186 -0.287382
1040.00000000 5220.00000000 190.00000000 160 96 127 97.000000 1.000000 4.000000 1.000000 -60.708740 114.000000 149.000000 -0.757210 0.614164 -0.222343
1160.00000000 5220.00000000 60.00000000 160 96 127 97.000000 1.000000 4.000000 1.000000 -60.708740 114.000000 149.000000 -0.693810 0.540002 0.476472
1080.00000000 5350.00000000 70.00000000 160 96 127 97.000000 1.000000 4.000000 1.000000 -60.708740 114.000000 149.000000 0.457362 -0.601440 -0.655050
1030.00000000 5210.00000000 40.00000000 160 96 127 97.000000 1.000000 4.000000 1.000000 -60.708740 114.000000 149.000000 -0.557749 0.700932 0.444534
1090.00000000 5180.00000000 270.00000000 160 96 127 97.000000 1.000000 4.000000 1.000000 -60.708740 114.000000 149.000000 0.411124 -0.168777 0.895819
1080.00000000 5130.00000000 290.00000000 160 96 127 97.000000 1.000000 4.000000 1.000000 -60.708740 114.000000 149.000000 0.695788 -0.343820 0.630609
1060.00000000 4990.00000000 120.00000000 160 96 127 97.000000 1.000000 4.000000 1.000000 -60.708740 114.000000 149.000000 0.734648 -0.619909 0.275692
880.00000000 5360.00000000 350.00000000 160 96 127 97.000000 1.000000 4.000000 1.000000 -60.708740 114.000000 149.000000 -0.159430 0.227945 0.960533
790.00000000 5560.00000000 390.00000000 160 96 127 97.000000 1.000000 4.000000 1.000000 -60.708740 114.000000 149.000000 -0.213767 0.452946 0.865531
950.00000000 5650.00000000 290.00000000 160 96 127 97.000000 1.000000 4.000000 1.000000 -60.708740 114.000000 149.000000 0.802568 -0.548963 -0.233503
950.00000000 5660.00000000 220.00000000 160 96 127 97.000000 1.000000 4.000000 1.000000 -60.708740 114.000000 149.000000 -0.703407 0.648929 0.290015
880.00000000 5650.00000000 150.00000000 160 96 127 97.000000 1.000000 4.000000 1.000000 -60.708740 114.000000 149.000000 0.621173 -0.754392 -0.212221
890.00000000 5650.00000000 160.00000000 160 96 127 97.000000 1.000000 4.000000 1.000000 -60.708740 114.000000 149.000000 -0.562081 0.636350 0.528322
870.00000000 5690.00000000 170.00000000 160 96 127 97.000000 1.000000 4.000000 1.000000 -60.708740 114.000000 149.000000 -0.438814 0.845065 0.305464
880.00000000 5560.00000000 250.00000000 160 96 127 97.000000 1.000000 4.000000 1.000000 -60.708740 114.000000 149.000000 0.818176 -0.502169 -0.280026
900.00000000 5560.00000000 230.00000000 160 96 127 97.000000 1.000000 4.000000 1.000000 -60.708740 114.000000 149.000000 -0.365307 0.786940 0.497269
930.00000000 5690.00000000 80.00000000 160 96 127 97.000000 1.000000 4.000000 1.000000 -60.708740 114.000000 149.000000 -0.514490 0.856563 -0.040001
950.00000000 5630.00000000 120.00000000 160 96 127 97.000000 1.000000 4.000000 1.000000 -60.708740 114.000000 149.000000 0.821556 -0.541172 -0.179386
950.00000000 5640.00000000 110.00000000 160 96 127 97.000000 1.000000 4.000000 1.000000 -60.708740 114.000000 149.000000 0.872887 -0.451899 -0.183998
1000.00000000 5590.00000000 100.00000000 160 96 127 97.000000 1.000000 4.000000 1.000000 -60.708740 114.000000 149.000000 0.790084 -0.536751 0.296084
990.00000000 5580.00000000 50.00000000 160 96 127 97.000000 1.000000 4.000000 1.000000 -60.708740 114.000000 149.000000 -0.360483 0.738908 -0.569269
920.00000000 5480.00000000 270.00000000 160 96 127 97.000000 1.000000 4.000000 1.000000 -60.708740 114.000000 149.000000 0.666202 -0.572229 -0.478256
930.00000000 5490.00000000 240.00000000 160 96 127 97.000000 1.000000 4.000000 1.000000 -60.708740 114.000000 149.000000 -0.400546 0.723620 0.562083
930.00000000 5470.00000000 220.00000000 160 96 127 97.000000 1.000000 4.000000 1.000000 -60.708740 114.000000 149.000000 -0.457460 0.821529 0.340325
