//X Y Z R G B PointSourceId ScanDirectionFlag NumberOfReturns ReturnNumber GpsTime Intensity Classification Nx Ny Nz
7440.00000000 3940.00000000 -910.00000000 159 200 76 97.000000 1.000000 4.000000 1.000000 -60.708740 114.000000 149.000000 0.518565 0.785072 0.338753
7440.00000000 3960.00000000 -930.00000000 159 200 76 97.000000 1.000000 4.000000 1.000000 -60.708740 114.000000 149.000000 0.236023 0.479660 0.845115
7470.00000000 3940.00000000 -970.00000000 159 200 76 97.000000 1.000000 4.000000 1.000000 -60.708740 114.000000 149.000000 0.390221 0.850402 0.352909
7480.00000000 3940.00000000 -970.00000000 159 200 76 97.000000 1.000000 4.000000 1.000000 -60.708740 114.000000 149.000000 0.329600 0.716027 0.615361
7430.00000000 3960.00000000 -970.00000000 159 200 76 97.000000 1.000000 4.000000 1.000000 -60.708740 114.000000 149.000000 -0.023755 0.627411 0.778326
7480.00000000 3910.00000000 -920.00000000 159 200 76 97.000000 1.000000 4.000000 1.000000 -60.708740 114.000000 149.000000 0.414764 0.749197 0.516405
7470.00000000 3920.00000000 -920.00000000 159 200 76 97.000000 1.000000 4.000000 1.000000 -60.708740 114.000000 149.000000 0.201759 0.829791 0.520326
7410.00000000 3880.00000000 -870.00000000 159 200 76 97.000000 1.000000 4.000000 1.000000 -60.708740 114.000000 149.000000 0.317219 0.530824 0.785874
7420.00000000 3860.00000000 -940.00000000 159 200 76 97.000000 1.000000 4.000000 1.000000 -60.708740 114.000000 149.000000 0.272017 0.931623 0.241010
7450.00000000 3840.00000000 -990.00000000 159 200 76 97.000000 1.000000 4.000000 1.000000 -60.708740 114.000000 149.000000 0.155981 0.719331 0.676929
7450.00000000 3840.00000000 -990.00000000 159 200 76 97.000000 1.000000 4.000000 1.000000 -60.708740 114.000000 149.000000 0.155981 0.719331 0.676929
7570.00000000 3830.00000000 -930.00000000 159 200 76 97.000000 1.000000 4.000000 1.000000 -60.708740 114.000000 149.000000 0.453590 0.813279 0.364464
7540.00000000 3830.00000000 -950.00000000 159 200 76 97.000000 1.000000 4.000000 1.000000 -60.708740 114.000000 149.000000 0.333393 0.854418 0.398521
7540.00000000 3830.00000000 -950.00000000 159 200 76 97.000000 1.000000 4.000000 1.000000 -60.708740 114.000000 149.000000 0.333393 0.854418 0.398521
7550.00000000 3820.00000000 -950.00000000 159 200 76 97.000000 1.000000 4.000000 1.000000 -60.708740 114.000000 149.000000 0.248401 0.910803 0.329749
7500.00000000 3810.00000000 -970.00000000 159 200 76 97.000000 1.000000 4.000000 1.000000 -60.708740 114.000000 149.000000 0.392230 0.382779 0.836442
7520.00000000 3830.00000000 -980.00000000 159 200 76 97.000000 1.000000 4.000000 1.000000 -60.708740 114.000000 149.000000 0.018125 0.768209 0.639942
7440.00000000 3830.00000000 -930.00000000 159 200 76 97.000000 1.000000 4.000000 1.000000 -60.708740 114.000000 149.000000 0.489850 0.483208 0.725642
7430.00000000 3830.00000000 -930.00000000 159 200 76 97.000000 1.000000 4.000000 1.000000 -60.708740 114.000000 149.000000 0.272996 0.665727 0.694464
7460.00000000 3820.00000000 -960.00000000 159 200 76 97.000000 1.000000 4.000000 1.000000 -60.708740 114.000000 149.000000 0.386553 0.705666 0.593812
7460.00000000 3830.00000000 -970.00000000 159 200 76 97.000000 1.000000 4.000000 1.000000 -60.708740 114.000000 149.000000 0.037174 0.852249 0.521813
7420.00000000 3830.00000000 -970.00000000 159 200 76 97.000000 1.000000 4.000000 1.000000 -60.708740 114.000000 149.000000 0.362963 0.638881 0.678298
7340.00000000 4020.00000000 -940.00000000 159 200 76 97.000000 1.000000 4.000000 1.000000 -60.708740 114.000000 149.000000 0.591870 0.524421 0.612105
7350.00000000 4020.00000000 -950.00000000 159 200 76 97.000000 1.000000 4.000000 1.000000 -60.708740 114.000000 149.000000 0.589395 0.741184 0.321341
7370.00000000 4010.00000000 -990.00000000 159 200 76 97.000000 1.000000 4.000000 1.000000 -60.708740 114.000000 149.000000 0.058823 0.707316 0.704446
7260.00000000 4100.00000000 -930.00000000 159 200 76 97.000000 1.000000 4.000000 1.000000 -60.708740 114.000000 149.000000 0.058687 0.768654 0.636967
7260.00000000 4110.00000000 -930.00000000 159 200 76 97.000000 1.000000 4.000000 1.000000 -60.708740 114.000000 149.000000 0.375515 0.726434 0.575571
7250.00000000 4120.00000000 -920.00000000 159 200 76 97.000000 1.000000 4.000000 1.000000 -60.708740 114.000000 149.000000 0.386407 0.708687 0.590298
7260.00000000 4120.00000000 -930.00000000 159 200 76 97.000000 1.000000 4.000000 1.000000 -60.708740 114.000000 149.000000 0.596050 0.589296 0.545394
7280.00000000 4120.00000000 -970.00000000 159 200 76 97.000000 1.000000 4.000000 1.000000 -60.708740 114.000000 149.000000 0.061911 0.686785 0.724220
7240.00000000 4140.00000000 -980.00000000 159 200 76 97.000000 1.000000 4.000000 1.000000 -60.708740 114.000000 149.000000 0.115419 0.565406 0.816697
7280.00000000 4090.00000000 -920.00000000 159 200 76 97.000000 1.000000 4.000000 1.000000 -60.708740 114.000000 149.000000 0.461635 0.494727 0.736300
7290.00000000 4080.00000000 -920.00000000 159 200 76 97.000000 1.000000 4.000000 1.000000 -60.708740 114.000000 149.000000 0.625804 0.442235 0.642493
7280.00000000 4050.00000000 -930.00000000 159 200 76 97.000000 1.000000 4.000000 1.000000 -60.708740 114.000000 149.000000 0.248069 0.856828 0.452003
7320.00000000 4030.00000000 -940.00000000 159 200 76 97.000000 1.000000 4.000000 1.000000 -60.708740 114.000000 149.000000 0.568546 0.685256 0.455170
7300.00000000 4050.00000000 -920.00000000 159 200 76 97.000000 1.000000 4.000000 1.000000 -60.708740 114.000000 149.000000 0.114386 0.891084 0.439187
7310.00000000 4050.00000000 -940.00000000 159 200 76 97.000000 1.000000 4.000000 1.000000 -60.708740 114.000000 149.000000 0.315539 0.892782 0.321521
7320.00000000 4050.00000000 -920.00000000 159 200 76 97.000000 1.000000 4.000000 1.000000 -60.708740 114.000000 149.000000 0.593252 0.768567 0.239492
7250.00000000 4080.00000000 -900.00000000 159 200 76 97.000000 1.000000 4.000000 1.000000 -60.708740 114.000000 149.000000 0.679828 0.449321 0.579607
7260.00000000 4080.00000000 -920.00000000 159 200 76 97.000000 1.000000 4.000000 1.000000 -60.708740 114.000000 149.000000 0.508570 0.403912 0.760402
7270.00000000 4090.00000000 -930.00000000 159 200 76 97.000000 1.000000 4.000000 1.000000 -60.708740 114.000000 149.000000 0.686977 0.486400 0.539887
7310.00000000 4080.00000000 -980.00000000 159 200 76 97.000000 1.000000 4.000000 1.000000 -60.708740 114.000000 149.000000 0.569456 0.535660 0.623529
7310.00000000 4080.00000000 -980.00000000 159 200 76 97.000000 1.000000 4.000000 1.000000 -60.708740 114.000000 149.000000 0.569456 0.535660 0.623529
7160.00000000 4200.00000000 -910.00000000 159 200 76 97.000000 1.000000 4.000000 1.000000 -60.708740 114.000000 149.000000 0.064828 0.664128 0.744803
7160.00000000 4200.00000000 -910.00000000 159 200 76 97.000000 1.000000 4.000000 1.000000 -60.708740 114.000000 149.000000 0.064828 0.664128 0.744803
7130.00000000 4240.00000000 -940.00000000 159 200 76 97.000000 1.000000 4.000000 1.000000 -60.708740 114.000000 149.000000 0.230295 0.709684 0.665818
7130.00000000 4210.00000000 -930.00000000 159 200 76 97.000000 1.000000 4.000000 1.000000 -60.708740 114.000000 149.000000 0.275651 0.384105 0.881181
7210.00000000 4140.00000000 -940.00000000 159 200 76 97.000000 1.000000 4.000000 1.000000 -60.708740 114.000000 149.000000 0.588424 0.719549 0.368790
7200.00000000 4100.00000000 -930.00000000 159 200 76 97.000000 1.000000 4.000000 1.000000 -60.708740 114.000000 149.000000 0.101529 0.654789 0.748961
7220.00000000 4080.00000000 -910.00000000 159 200 76 97.000000 1.000000 4.000000 1.000000 -60.708740 114.000000 149.000000 0.543353 0.513073 0.664472
7220.00000000 4090.00000000 -910.00000000 159 200 76 97.000000 1.000000 4.000000 1.000000 -60.708740 114.000000 149.000000 0.240367 0.882342 0.404593
7230.00000000 4070.00000000 -920.00000000 159 200 76 97.000000 1.000000 4.000000 1.000000 -60.708740 114.000000 149.000000 0.568076 0.628760 0.530990
7110.00000000 4150.00000000 -920.00000000 159 200 76 97.000000 1.000000 4.000000 1.000000 -60.708740 114.000000 149.000000 0.186426 0.854578 0.484708
7110.00000000 4110.00000000 -910.00000000 159 200 76 97.000000 1.000000 4.000000 1.000000 -60.708740 114.000000 149.000000 0.351250 0.684528 0.638784
7110.00000000 4110.00000000 -910.00000000 159 200 76 97.000000 1.000000 4.000000 1.000000 -60.708740 114.000000 149.000000 0.351250 0.684528 0.638784
7110.00000000 4110.00000000 -910.00000000 159 200 76 97.000000 1.000000 4.000000 1.000000 -60.708740 114.000000 149.000000 0.351250 0.684528 0.638784
7140.00000000 4110.00000000 -910.00000000 159 200 76 97.000000 1.000000 4.000000 1.000000 -60.708740 114.000000 149.000000 0.600957 0.670874 0.434487
7090.00000000 4140.00000000 -900.00000000 159 200 76 97.000000 1.000000 4.000000 1.000000 -60.708740 114.000000 149.000000 0.527267 0.796442 0.296093
7100.00000000 4160.00000000 -930.00000000 159 200 76 97.000000 1.000000 4.000000 1.000000 -60.708740 114.000000 149.000000 0.527456 0.441476 0.725872
7090.00000000 4130.00000000 -890.00000000 159 200 76 97.000000 1.000000 4.000000 1.000000 -60.708740 114.000000 149.000000 0.278908 0.789452 0.546786
7080.00000000 4110.00000000 -910.00000000 159 200 76 97.000000 1.000000 4.000000 1.000000 -60.708740 114.000000 149.000000 0.487116 0.759377 0.431352
7080.00000000 4130.00000000 -940.00000000 159 200 76 97.000000 1.000000 4.000000 1.000000 -60.708740 114.000000 149.000000 0.403907 0.872862 0.273809
7080.00000000 4110.00000000 -910.00000000 159 200 76 97.000000 1.000000 4.000000 1.000000 -60.708740 114.000000 149.000000 0.487116 0.759377 0.431352
7090.00000000 4090.00000000 -960.00000000 159 200 76 97.000000 1.000000 4.000000 1.000000 -60.708740 114.000000 149.000000 0.376247 0.885904 0.271317
7380.00000000 3930.00000000 -920.00000000 159 200 76 97.000000 1.000000 4.000000 1.000000 -60.708740 114.000000 149.000000 0.130116 0.740312 0.659551
7330.00000000 4000.00000000 -900.00000000 159 200 76 97.000000 1.000000 4.000000 1.000000 -60.708740 114.000000 149.000000 0.582607 0.382387 0.717181
7360.00000000 3970.00000000 -930.00000000 159 200 76 97.000000 1.000000 4.000000 1.000000 -60.708740 114.000000 149.000000 0.070205 0.606058 0.792316
7350.00000000 3980.00000000 -930.00000000 159 200 76 97.000000 1.000000 4.000000 1.000000 -60.708740 114.000000 149.000000 0.476154 0.821877 0.312722
7350.00000000 3970.00000000 -910.00000000 159 200 76 97.000000 1.000000 4.000000 1.000000 -60.708740 114.000000 149.000000 0.482597 0.644023 0.593578
7400.00000000 4000.00000000 -980.00000000 159 200 76 97.000000 1.000000 4.000000 1.000000 -60.708740 114.000000 149.000000 0.576224 0.330885 0.747316
7400.00000000 3920.00000000 -920.00000000 159 200 76 97.000000 1.000000 4.000000 1.000000 -60.708740 114.000000 149.000000 0.323201 0.674011 0.664267
7360.00000000 3850.00000000 -890.00000000 159 200 76 97.000000 1.000000 4.000000 1.000000 -60.708740 114.000000 149.000000 0.528322 0.562081 0.636350
7360.00000000 3840.00000000 -890.00000000 159 200 76 97.000000 1.000000 4.000000 1.000000 -60.708740 114.000000 149.000000 0.352054 0.873278 0.336814
7360.00000000 3840.00000000 -880.00000000 159 200 76 97.000000 1.000000 4.000000 1.000000 -60.708740 114.000000 149.000000 0.228124 0.831350 0.506771
7380.00000000 3850.00000000 -960.00000000 159 200 76 97.000000 1.000000 4.000000 1.000000 -60.708740 114.000000 149.000000 0.407978 0.705290 0.579758
7400.00000000 3850.00000000 -980.00000000 159 200 76 97.000000 1.000000 4.000000 1.000000 -60.708740 114.000000 149.000000 0.127957 0.816280 0.563307
7380.00000000 3850.00000000 -960.00000000 159 200 76 97.000000 1.000000 4.000000 1.000000 -60.708740 114.000000 149.000000 0.407978 0.705290 0.579758
7380.00000000 3840.00000000 -960.00000000 159 200 76 97.000000 1.000000 4.000000 1.000000 -60.708740 114.000000 149.000000 0.321415 0.725203 0.608912
7380.00000000 3840.00000000 -970.00000000 159 200 76 97.000000 1.000000 4.000000 1.000000 -60.708740 114.000000 149.000000 0.422782 0.694689 0.581947
7400.00000000 3850.00000000 -990.00000000 159 200 76 97.000000 1.000000 4.000000 1.000000 -60.708740 114.000000 149.000000 0.129859 0.738853 0.661236
7390.00000000 3860.00000000 -1000.00000000 159 200 76 97.000000 1.000000 4.000000 1.000000 -60.708740 114.000000 149.000000 0.133493 0.679464 0.721462
7400.00000000 3870.00000000 -990.00000000 159 200 76 97.000000 1.000000 4.000000 1.000000 -60.708740 114.000000 149.000000 0.086230 0.708844 0.700075
7390.00000000 3870.00000000 -990.00000000 159 200 76 97.000000 1.000000 4.000000 1.000000 -60.708740 114.000000 149.000000 0.208856 0.623475 0.753430
7390.00000000 3860.00000000 -990.00000000 159 200 76 97.000000 1.000000 4.000000 1.000000 -60.708740 114.000000 149.000000 0.139177 0.773707 0.618068
7350.00000000 3840.00000000 -960.00000000 159 200 76 97.000000 1.000000 4.000000 1.000000 -60.708740 114.000000 149.000000 0.262904 0.819824 0.508695
7300.00000000 3930.00000000 -950.00000000 159 200 76 97.000000 1.000000 4.000000 1.000000 -60.708740 114.000000 149.000000 0.123573 0.647641 0.751859
7290.00000000 3950.00000000 -960.00000000 159 200 76 97.000000 1.000000 4.000000 1.000000 -60.708740 114.000000 149.000000 0.206442 0.545923 0.812004
7290.00000000 3930.00000000 -950.00000000 159 200 76 97.000000 1.000000 4.000000 1.000000 -60.708740 114.000000 149.000000 0.175767 0.725995 0.664859
7400.00000000 3820.00000000 -910.00000000 159 200 76 97.000000 1.000000 4.000000 1.000000 -60.708740 114.000000 149.000000 0.480622 0.547608 0.684929
7380.00000000 3830.00000000 -940.00000000 159 200 76 97.000000 1.000000 4.000000 1.000000 -60.708740 114.000000 149.000000 0.213226 0.917300 0.336296
7280.00000000 3800.00000000 -890.00000000 159 200 76 97.000000 1.000000 4.000000 1.000000 -60.708740 114.000000 216.000000 0.780381 0.468877 0.413715
7240.00000000 3750.00000000 -880.00000000 159 200 76 97.000000 1.000000 4.000000 1.000000 -60.708740 114.000000 216.000000 0.225929 0.905172 0.360028
7180.00000000 3980.00000000 -980.00000000 159 200 76 97.000000 1.000000 4.000000 1.000000 -60.708740 114.000000 149.000000 0.258570 0.460530 0.849149
7170.00000000 3980.00000000 -970.00000000 159 200 76 97.000000 1.000000 4.000000 1.000000 -60.708740 114.000000 149.000000 0.127041 0.724883 0.677056
7090.00000000 3950.00000000 -910.00000000 159 200 76 97.000000 1.000000 4.000000 1.000000 -60.708740 114.000000 149.000000 0.122759 0.791279 0.599006
7090.00000000 4000.00000000 -950.00000000 159 200 76 97.000000 1.000000 4.000000 1.000000 -60.708740 114.000000 149.000000 0.615547 0.461241 0.639029
7190.00000000 3750.00000000 -860.00000000 159 200 76 97.000000 1.000000 4.000000 1.000000 -60.708740 114.000000 216.000000 0.279208 0.713178 0.642977
7180.00000000 3780.00000000 -900.00000000 159 200 76 97.000000 1.000000 4.000000 1.000000 -60.708740 114.000000 216.000000 0.537715 0.632110 0.557942
7190.00000000 3770.00000000 -910.00000000 159 200 76 97.000000 1.000000 4.000000 1.000000 -60.708740 114.000000 216.000000 0.157800 0.798018 0.581606
7000.00000000 4250.00000000 -860.00000000 159 200 76 97.000000 1.000000 4.000000 1.000000 -60.708740 114.000000 149.000000 0.769141 0.529493 0.357853
7000.00000000 4240.00000000 -830.00000000 159 200 76 97.000000 1.000000 4.000000 1.000000 -60.708740 114.000000 149.000000 0.522257 0.676751 0.518898
6930.00000000 4310.00000000 -850.00000000 159 200 76 97.000000 1.000000 4.000000 1.000000 -60.708740 114.000000 149.000000 0.457306 0.428012 0.779536
6930.00000000 4310.00000000 -850.00000000 159 200 76 97.000000 1.000000 4.000000 1.000000 -60.708740 114.000000 149.000000 0.457306 0.428012 0.779536
6920.00000000 4290.00000000 -830.00000000 159 200 76 97.000000 1.000000 4.000000 1.000000 -60.708740 114.000000 149.000000 0.726420 0.451737 0.517926
7000.00000000 4180.00000000 -950.00000000 159 200 76 97.000000 1.000000 4.000000 1.000000 -60.708740 114.000000 149.000000 0.693833 0.674867 0.251297
6950.00000000 4210.00000000 -920.00000000 159 200 76 97.000000 1.000000 4.000000 1.000000 -60.708740 114.000000 149.000000 0.373075 0.675480 0.636036
6890.00000000 4340.00000000 -830.00000000 159 200 76 97.000000 1.000000 4.000000 1.000000 -60.708740 114.000000 149.000000 0.367771 0.920121 0.134618
6850.00000000 4250.00000000 -830.00000000 159 200 76 97.000000 1.000000 4.000000 1.000000 -60.708740 114.000000 149.000000 0.372386 0.926327 0.056984
6830.00000000 4250.00000000 -840.00000000 159 200 76 97.000000 1.000000 4.000000 1.000000 -60.708740 114.000000 149.000000 0.467916 0.883544 0.020111
6740.00000000 4330.00000000 -770.00000000 159 200 76 97.000000 1.000000 4.000000 1.000000 -60.708740 114.000000 149.000000 0.458975 0.730715 0.505369
6780.00000000 4300.00000000 -820.00000000 159 200 76 97.000000 1.000000 4.000000 1.000000 -60.708740 114.000000 149.000000 0.750171 0.554899 0.359626
6790.00000000 4300.00000000 -830.00000000 159 200 76 97.000000 1.000000 4.000000 1.000000 -60.708740 114.000000 149.000000 0.549362 0.831891 0.078480
6770.00000000 4320.00000000 -820.00000000 159 200 76 97.000000 1.000000 4.000000 1.000000 -60.708740 114.000000 149.000000 0.333629 0.701435 0.629826
6750.00000000 4320.00000000 -860.00000000 159 200 76 97.000000 1.000000 4.000000 1.000000 -60.708740 114.000000 149.000000 0.265122 0.712814 0.649312
6740.00000000 4310.00000000 -850.00000000 159 200 76 97.000000 1.000000 4.000000 1.000000 -60.708740 114.000000 149.000000 0.670720 0.587089 0.453279
6740.00000000 4310.00000000 -850.00000000 159 200 76 97.000000 1.000000 4.000000 1.000000 -60.708740 114.000000 149.000000 0.670720 0.587089 0.453279
6760.00000000 4310.00000000 -850.00000000 159 200 76 97.000000 1.000000 4.000000 1.000000 -60.708740 114.000000 149.000000 0.088072 0.882116 0.462726
6750.00000000 4270.00000000 -800.00000000 159 200 76 97.000000 1.000000 4.000000 1.000000 -60.708740 114.000000 149.000000 0.349109 0.738813 0.576436
6740.00000000 4300.00000000 -840.00000000 159 200 76 97.000000 1.000000 4.000000 1.000000 -60.708740 114.000000 149.000000 0.219601 0.947966 0.230513
6740.00000000 4300.00000000 -840.00000000 159 200 76 97.000000 1.000000 4.000000 1.000000 -60.708740 114.000000 149.000000 0.219601 0.947966 0.230513
6750.00000000 4300.00000000 -850.00000000 159 200 76 97.000000 1.000000 4.000000 1.000000 -60.708740 114.000000 149.000000 0.604030 0.755431 0.253913
6740.00000000 4300.00000000 -840.00000000 159 200 76 97.000000 1.000000 4.000000 1.000000 -60.708740 114.000000 149.000000 0.219601 0.947966 0.230513
6740.00000000 4260.00000000 -730.00000000 159 200 76 97.000000 1.000000 4.000000 1.000000 -60.708740 114.000000 149.000000 0.702104 0.627170 0.337206
6760.00000000 4250.00000000 -790.00000000 159 200 76 97.000000 1.000000 4.000000 1.000000 -60.708740 114.000000 149.000000 0.763608 0.550508 0.337408
6880.00000000 4220.00000000 -870.00000000 159 200 76 97.000000 1.000000 4.000000 1.000000 -60.708740 114.000000 149.000000 0.352956 0.821454 0.447922
6880.00000000 4230.00000000 -880.00000000 159 200 76 97.000000 1.000000 4.000000 1.000000 -60.708740 114.000000 149.000000 0.550838 0.774366 0.311343
6890.00000000 4240.00000000 -900.00000000 159 200 76 97.000000 1.000000 4.000000 1.000000 -60.708740 114.000000 149.000000 0.740653 0.596057 0.310078
6890.00000000 4230.00000000 -910.00000000 159 200 76 97.000000 1.000000 4.000000 1.000000 -60.708740 114.000000 149.000000 0.722610 0.578416 0.378510
6840.00000000 4230.00000000 -880.00000000 159 200 76 97.000000 1.000000 4.000000 1.000000 -60.708740 114.000000 149.000000 0.147394 0.814389 0.561289
6830.00000000 4260.00000000 -900.00000000 159 200 76 97.000000 1.000000 4.000000 1.000000 -60.708740 114.000000 149.000000 0.622587 0.777140 0.091857
6830.00000000 4260.00000000 -900.00000000 159 200 76 97.000000 1.000000 4.000000 1.000000 -60.708740 114.000000 149.000000 0.622587 0.777140 0.091857
6850.00000000 4240.00000000 -910.00000000 159 200 76 97.000000 1.000000 4.000000 1.000000 -60.708740 114.000000 149.000000 0.380978 0.885960 0.264443
7050.00000000 3970.00000000 -930.00000000 159 200 76 97.000000 1.000000 4.000000 1.000000 -60.708740 114.000000 149.000000 0.641983 0.503813 0.577953
7050.00000000 3960.00000000 -940.00000000 159 200 76 97.000000 1.000000 4.000000 1.000000 -60.708740 114.000000 149.000000 0.578308 0.622145 0.527727
6730.00000000 4320.00000000 -760.00000000 159 200 76 97.000000 1.000000 4.000000 1.000000 -60.708740 114.000000 149.000000 0.538261 0.672407 0.508078
6730.00000000 4270.00000000 -740.00000000 159 200 76 97.000000 1.000000 4.000000 1.000000 -60.708740 114.000000 149.000000 0.497166 0.789995 0.358796
6690.00000000 4340.00000000 -730.00000000 159 200 76 97.000000 1.000000 4.000000 1.000000 -60.708740 114.000000 149.000000 0.482388 0.821788 0.303260
6670.00000000 4330.00000000 -750.00000000 159 200 76 97.000000 1.000000 4.000000 1.000000 -60.708740 114.000000 149.000000 0.458187 0.887991 0.039196
6720.00000000 4270.00000000 -730.00000000 159 200 76 97.000000 1.000000 4.000000 1.000000 -60.708740 114.000000 149.000000 0.460856 0.873736 0.155557
6690.00000000 4340.00000000 -820.00000000 159 200 76 97.000000 1.000000 4.000000 1.000000 -60.708740 114.000000 149.000000 0.352367 0.934878 -0.042908
6720.00000000 4310.00000000 -840.00000000 159 200 76 97.000000 1.000000 4.000000 1.000000 -60.708740 114.000000 149.000000 0.391242 0.919877 0.027479
6710.00000000 4310.00000000 -830.00000000 159 200 76 97.000000 1.000000 4.000000 1.000000 -60.708740 114.000000 149.000000 0.649624 0.707084 0.279322
6730.00000000 4300.00000000 -820.00000000 159 200 76 97.000000 1.000000 4.000000 1.000000 -60.708740 114.000000 149.000000 0.395494 0.824342 0.405024
6730.00000000 4290.00000000 -810.00000000 159 200 76 97.000000 1.000000 4.000000 1.000000 -60.708740 114.000000 149.000000 0.460548 0.869596 0.178039
6680.00000000 4320.00000000 -830.00000000 159 200 76 97.000000 1.000000 4.000000 1.000000 -60.708740 114.000000 149.000000 0.518898 0.853759 0.042896
6630.00000000 4290.00000000 -830.00000000 159 200 76 97.000000 1.000000 4.000000 1.000000 -60.708740 114.000000 149.000000 0.310707 0.812255 0.493662
5400.00000000 5060.00000000 -520.00000000 159 200 76 97.000000 1.000000 4.000000 1.000000 -60.708740 114.000000 149.000000 0.613065 0.787410 0.064308
5510.00000000 5020.00000000 -600.00000000 159 200 76 97.000000 1.000000 4.000000 1.000000 -60.708740 114.000000 149.000000 0.653042 0.724736 0.219759
5470.00000000 5030.00000000 -530.00000000 159 200 76 97.000000 1.000000 4.000000 1.000000 -60.708740 114.000000 149.000000 0.302356 0.937442 -0.172578
5520.00000000 5020.00000000 -620.00000000 159 200 76 97.000000 1.000000 4.000000 1.000000 -60.708740 114.000000 149.000000 0.722758 0.657477 0.212942
5450.00000000 5040.00000000 -570.00000000 159 200 76 97.000000 1.000000 4.000000 1.000000 -60.708740 114.000000 149.000000 0.556412 0.804727 0.206930
5410.00000000 5060.00000000 -550.00000000 159 200 76 97.000000 1.000000 4.000000 1.000000 -60.708740 114.000000 149.000000 0.426389 0.904262 0.022442
5310.00000000 5110.00000000 -490.00000000 159 200 76 97.000000 1.000000 4.000000 1.000000 -60.708740 114.000000 149.000000 0.611902 0.788769 0.058480
5300.00000000 5110.00000000 -510.00000000 159 200 76 97.000000 1.000000 4.000000 1.000000 -60.708740 114.000000 149.000000 0.575098 0.814841 0.072779
5350.00000000 5020.00000000 -500.00000000 159 200 76 97.000000 1.000000 4.000000 1.000000 -60.708740 114.000000 149.000000 0.533695 0.547164 -0.644811
5330.00000000 5020.00000000 -520.00000000 159 200 76 97.000000 1.000000 4.000000 1.000000 -60.708740 114.000000 149.000000 0.581606 0.798018 -0.157800
5260.00000000 5160.00000000 -510.00000000 159 200 76 97.000000 1.000000 4.000000 1.000000 -60.708740 114.000000 149.000000 0.619697 0.777918 -0.104015
5260.00000000 5140.00000000 -480.00000000 159 200 76 97.000000 1.000000 4.000000 1.000000 -60.708740 114.000000 149.000000 0.648248 0.760742 0.032342
5260.00000000 5140.00000000 -520.00000000 159 200 76 97.000000 1.000000 4.000000 1.000000 -60.708740 114.000000 149.000000 0.613851 0.643958 -0.456625
5230.00000000 5160.00000000 -520.00000000 159 200 76 97.000000 1.000000 4.000000 1.000000 -60.708740 114.000000 149.000000 0.378641 0.857738 -0.347731
5260.00000000 5080.00000000 -470.00000000 159 200 76 97.000000 1.000000 4.000000 1.000000 -60.708740 114.000000 149.000000 0.619249 0.783627 0.049597
5270.00000000 5050.00000000 -490.00000000 159 200 76 97.000000 1.000000 4.000000 1.000000 -60.708740 114.000000 149.000000 -0.452869 -0.606611 0.653401
5250.00000000 5090.00000000 -460.00000000 159 200 76 97.000000 1.000000 4.000000 1.000000 -60.708740 114.000000 149.000000 0.545437 0.805022 -0.233317
5230.00000000 5100.00000000 -450.00000000 159 200 76 97.000000 1.000000 4.000000 1.000000 -60.708740 114.000000 149.000000 0.545965 0.821191 -0.166033
5230.00000000 5100.00000000 -460.00000000 159 200 76 97.000000 1.000000 4.000000 1.000000 -60.708740 114.000000 149.000000 0.465977 0.794902 -0.388583
5220.00000000 5070.00000000 -510.00000000 159 200 76 97.000000 1.000000 4.000000 1.000000 -60.708740 114.000000 149.000000 0.373693 0.921227 -0.108138
5320.00000000 5110.00000000 -530.00000000 159 200 76 97.000000 1.000000 4.000000 1.000000 -60.708740 114.000000 149.000000 0.391998 0.881621 -0.262834
5340.00000000 5090.00000000 -530.00000000 159 200 76 97.000000 1.000000 4.000000 1.000000 -60.708740 114.000000 149.000000 0.464572 0.809410 -0.359205
5330.00000000 5020.00000000 -530.00000000 159 200 76 97.000000 1.000000 4.000000 1.000000 -60.708740 114.000000 149.000000 0.806851 0.586930 -0.067119
5330.00000000 5020.00000000 -530.00000000 159 200 76 97.000000 1.000000 4.000000 1.000000 -60.708740 114.000000 149.000000 0.806851 0.586930 -0.067119
5160.00000000 5190.00000000 -410.00000000 159 200 76 97.000000 1.000000 4.000000 1.000000 -60.708740 114.000000 149.000000 0.683379 0.704976 -0.189742
5180.00000000 5200.00000000 -480.00000000 159 200 76 97.000000 1.000000 4.000000 1.000000 -60.708740 114.000000 149.000000 0.739225 0.608304 -0.288984
5180.00000000 5200.00000000 -470.00000000 159 200 76 97.000000 1.000000 4.000000 1.000000 -60.708740 114.000000 149.000000 0.697925 0.679105 -0.227414
5110.00000000 5230.00000000 -440.00000000 159 200 76 97.000000 1.000000 4.000000 1.000000 -60.708740 114.000000 149.000000 0.575825 0.491886 -0.653050
5130.00000000 5210.00000000 -390.00000000 159 200 76 97.000000 1.000000 4.000000 1.000000 -60.708740 114.000000 149.000000 0.397475 0.885759 -0.239676
5050.00000000 5260.00000000 -430.00000000 159 200 76 97.000000 1.000000 4.000000 1.000000 -60.708740 114.000000 149.000000 0.624012 0.756518 -0.195678
5120.00000000 5210.00000000 -460.00000000 159 200 76 97.000000 1.000000 4.000000 1.000000 -60.708740 114.000000 149.000000 0.197247 0.933077 -0.300767
5120.00000000 5210.00000000 -460.00000000 159 200 76 97.000000 1.000000 4.000000 1.000000 -60.708740 114.000000 149.000000 0.197247 0.933077 -0.300767
5110.00000000 5210.00000000 -470.00000000 159 200 76 97.000000 1.000000 4.000000 1.000000 -60.708740 114.000000 149.000000 0.379898 0.818609 -0.430763
5090.00000000 5230.00000000 -460.00000000 159 200 76 97.000000 1.000000 4.000000 1.000000 -60.708740 114.000000 149.000000 0.397497 0.796604 -0.455432
5110.00000000 5210.00000000 -460.00000000 159 200 76 97.000000 1.000000 4.000000 1.000000 -60.708740 114.000000 149.000000 0.467013 0.843089 -0.266644
5200.00000000 5110.00000000 -440.00000000 159 200 76 97.000000 1.000000 4.000000 1.000000 -60.708740 114.000000 149.000000 0.474978 0.751089 -0.458542
5190.00000000 5140.00000000 -420.00000000 159 200 76 97.000000 1.000000 4.000000 1.000000 -60.708740 114.000000 149.000000 0.753395 0.634678 -0.171987
5140.00000000 5130.00000000 -420.00000000 159 200 76 97.000000 1.000000 4.000000 1.000000 -60.708740 114.000000 149.000000 0.178844 0.759705 -0.625190
5210.00000000 5180.00000000 -470.00000000 159 200 76 97.000000 1.000000 4.000000 1.000000 -60.708740 114.000000 149.000000 0.482580 0.807486 -0.339240
5210.00000000 5170.00000000 -490.00000000 159 200 76 97.000000 1.000000 4.000000 1.000000 -60.708740 114.000000 149.000000 0.751859 0.647641 -0.123573
5190.00000000 5130.00000000 -470.00000000 159 200 76 97.000000 1.000000 4.000000 1.000000 -60.708740 114.000000 149.000000 0.721603 0.690042 -0.055949
5160.00000000 5180.00000000 -460.00000000 159 200 76 97.000000 1.000000 4.000000 1.000000 -60.708740 114.000000 149.000000 0.606609 0.791041 -0.079248
5140.00000000 5130.00000000 -450.00000000 159 200 76 97.000000 1.000000 4.000000 1.000000 -60.708740 114.000000 149.000000 0.490571 0.855921 -0.163524
5160.00000000 5110.00000000 -460.00000000 159 200 76 97.000000 1.000000 4.000000 1.000000 -60.708740 114.000000 149.000000 0.355313 0.914682 -0.192640
5140.00000000 5130.00000000 -480.00000000 159 200 76 97.000000 1.000000 4.000000 1.000000 -60.708740 114.000000 149.000000 0.731621 0.681643 0.009718
5140.00000000 5120.00000000 -470.00000000 159 200 76 97.000000 1.000000 4.000000 1.000000 -60.708740 114.000000 149.000000 0.740862 0.671622 -0.006924
5150.00000000 5110.00000000 -480.00000000 159 200 76 97.000000 1.000000 4.000000 1.000000 -60.708740 114.000000 149.000000 0.742514 0.659518 -0.117083
5200.00000000 5090.00000000 -440.00000000 159 200 76 97.000000 1.000000 4.000000 1.000000 -60.708740 114.000000 149.000000 0.174976 0.777502 -0.604048
5190.00000000 5090.00000000 -480.00000000 159 200 76 97.000000 1.000000 4.000000 1.000000 -60.708740 114.000000 149.000000 0.457582 0.828679 -0.322351
5180.00000000 5100.00000000 -460.00000000 159 200 76 97.000000 1.000000 4.000000 1.000000 -60.708740 114.000000 149.000000 0.558713 0.811715 -0.170174
5190.00000000 5090.00000000 -490.00000000 159 200 76 97.000000 1.000000 4.000000 1.000000 -60.708740 114.000000 149.000000 0.493509 0.716169 -0.493509
5210.00000000 5080.00000000 -520.00000000 159 200 76 97.000000 1.000000 4.000000 1.000000 -60.708740 114.000000 149.000000 0.481671 0.850097 -0.212902
5170.00000000 5100.00000000 -480.00000000 159 200 76 97.000000 1.000000 4.000000 1.000000 -60.708740 114.000000 149.000000 0.367041 0.926341 -0.084702
5090.00000000 5150.00000000 -440.00000000 159 200 76 97.000000 1.000000 4.000000 1.000000 -60.708740 114.000000 149.000000 0.584620 0.517229 -0.625055
5100.00000000 5140.00000000 -420.00000000 159 200 76 97.000000 1.000000 4.000000 1.000000 -60.708740 114.000000 149.000000 0.343273 0.932128 -0.115329
5070.00000000 5170.00000000 -410.00000000 159 200 76 97.000000 1.000000 4.000000 1.000000 -60.708740 114.000000 149.000000 0.434487 0.670874 -0.600957
5080.00000000 5160.00000000 -420.00000000 159 200 76 97.000000 1.000000 4.000000 1.000000 -60.708740 114.000000 149.000000 0.209878 0.729131 -0.651398
5080.00000000 5150.00000000 -420.00000000 159 200 76 97.000000 1.000000 4.000000 1.000000 -60.708740 114.000000 149.000000 0.488964 0.603223 -0.630108
5130.00000000 5140.00000000 -460.00000000 159 200 76 97.000000 1.000000 4.000000 1.000000 -60.708740 114.000000 149.000000 0.351144 0.926745 -0.133572
5680.00000000 4940.00000000 -640.00000000 159 200 76 97.000000 1.000000 4.000000 1.000000 -60.708740 114.000000 149.000000 0.694169 0.714629 0.086223
5680.00000000 4940.00000000 -620.00000000 159 200 76 97.000000 1.000000 4.000000 1.000000 -60.708740 114.000000 149.000000 0.604985 0.796033 0.017997
5720.00000000 4920.00000000 -630.00000000 159 200 76 97.000000 1.000000 4.000000 1.000000 -60.708740 114.000000 149.000000 0.415688 0.900423 0.128229
5700.00000000 4890.00000000 -620.00000000 159 200 76 97.000000 1.000000 4.000000 1.000000 -60.708740 114.000000 149.000000 0.408209 0.908506 0.089339
5670.00000000 4930.00000000 -630.00000000 159 200 76 97.000000 1.000000 4.000000 1.000000 -60.708740 114.000000 149.000000 0.479263 0.859112 0.179538
5650.00000000 4870.00000000 -640.00000000 159 200 76 97.000000 1.000000 4.000000 1.000000 -60.708740 114.000000 149.000000 0.525970 0.850476 0.006761
5620.00000000 4970.00000000 -600.00000000 159 200 76 97.000000 1.000000 4.000000 1.000000 -60.708740 114.000000 149.000000 0.354281 0.934942 0.019185
5610.00000000 4960.00000000 -600.00000000 159 200 76 97.000000 1.000000 4.000000 1.000000 -60.708740 114.000000 149.000000 0.821728 0.529016 -0.211911
5620.00000000 4950.00000000 -600.00000000 159 200 76 97.000000 1.000000 4.000000 1.000000 -60.708740 114.000000 149.000000 0.770285 0.620132 -0.148651
5560.00000000 4940.00000000 -590.00000000 159 200 76 97.000000 1.000000 4.000000 1.000000 -60.708740 114.000000 149.000000 0.636938 0.747443 0.188779
5600.00000000 4960.00000000 -620.00000000 159 200 76 97.000000 1.000000 4.000000 1.000000 -60.708740 114.000000 149.000000 0.801413 0.586722 -0.116168
5580.00000000 4970.00000000 -620.00000000 159 200 76 97.000000 1.000000 4.000000 1.000000 -60.708740 114.000000 149.000000 0.428153 0.902989 0.036013
5630.00000000 4920.00000000 -570.00000000 159 200 76 97.000000 1.000000 4.000000 1.000000 -60.708740 114.000000 149.000000 0.777495 0.628876 -0.004128
5590.00000000 4900.00000000 -590.00000000 159 200 76 97.000000 1.000000 4.000000 1.000000 -60.708740 114.000000 149.000000 0.468237 0.757393 -0.455093
5560.00000000 4860.00000000 -560.00000000 159 200 76 97.000000 1.000000 4.000000 1.000000 -60.708740 114.000000 149.000000 0.375707 0.810567 -0.449249
5580.00000000 4910.00000000 -610.00000000 159 200 76 97.000000 1.000000 4.000000 1.000000 -60.708740 114.000000 149.000000 0.385311 0.917342 0.100099
5580.00000000 4910.00000000 -610.00000000 159 200 76 97.000000 1.000000 4.000000 1.000000 -60.708740 114.000000 149.000000 0.385311 0.917342 0.100099
5710.00000000 4850.00000000 -600.00000000 159 200 76 97.000000 1.000000 4.000000 1.000000 -60.708740 114.000000 149.000000 0.479620 0.786447 -0.389186
5720.00000000 4830.00000000 -650.00000000 159 200 76 97.000000 1.000000 4.000000 1.000000 -60.708740 114.000000 149.000000 0.718916 0.689751 -0.086037
5680.00000000 4850.00000000 -620.00000000 159 200 76 97.000000 1.000000 4.000000 1.000000 -60.708740 114.000000 149.000000 0.520970 0.707388 -0.477695
5710.00000000 4840.00000000 -660.00000000 159 200 76 97.000000 1.000000 4.000000 1.000000 -60.708740 114.000000 149.000000 0.747222 0.618228 0.243830
5550.00000000 4990.00000000 -580.00000000 159 200 76 97.000000 1.000000 4.000000 1.000000 -60.708740 114.000000 149.000000 0.471173 0.880889 -0.045069
5520.00000000 5010.00000000 -600.00000000 159 200 76 97.000000 1.000000 4.000000 1.000000 -60.708740 114.000000 149.000000 0.654715 0.731741 0.189482
5520.00000000 5010.00000000 -600.00000000 159 200 76 97.000000 1.000000 4.000000 1.000000 -60.708740 114.000000 149.000000 0.654715 0.731741 0.189482
5540.00000000 5000.00000000 -600.00000000 159 200 76 97.000000 1.000000 4.000000 1.000000 -60.708740 114.000000 149.000000 0.489866 0.862685 -0.125718
5530.00000000 5010.00000000 -590.00000000 159 200 76 97.000000 1.000000 4.000000 1.000000 -60.708740 114.000000 149.000000 0.478202 0.878249 -0.001325
5500.00000000 5000.00000000 -560.00000000 159 200 76 97.000000 1.000000 4.000000 1.000000 -60.708740 114.000000 149.000000 0.559921 0.828130 -0.026268
5480.00000000 5010.00000000 -560.00000000 159 200 76 97.000000 1.000000 4.000000 1.000000 -60.708740 114.000000 149.000000 0.690445 0.705619 0.159333
5480.00000000 4990.00000000 -620.00000000 159 200 76 97.000000 1.000000 4.000000 1.000000 -60.708740 114.000000 149.000000 0.389905 0.866965 -0.310395
5520.00000000 5010.00000000 -610.00000000 159 200 76 97.000000 1.000000 4.000000 1.000000 -60.708740 114.000000 149.000000 0.692340 0.686089 0.223487
5540.00000000 5000.00000000 -610.00000000 159 200 76 97.000000 1.000000 4.000000 1.000000 -60.708740 114.000000 149.000000 0.463477 0.803468 -0.373669
5520.00000000 4900.00000000 -550.00000000 159 200 76 97.000000 1.000000 4.000000 1.000000 -60.708740 114.000000 149.000000 0.546841 0.836263 -0.040352
5520.00000000 4900.00000000 -550.00000000 159 200 76 97.000000 1.000000 4.000000 1.000000 -60.708740 114.000000 149.000000 0.546841 0.836263 -0.040352
5510.00000000 4900.00000000 -550.00000000 159 200 76 97.000000 1.000000 4.000000 1.000000 -60.708740 114.000000 149.000000 0.623687 0.767961 -0.145777
5510.00000000 4920.00000000 -600.00000000 159 200 76 97.000000 1.000000 4.000000 1.000000 -60.708740 114.000000 149.000000 0.263022 0.961873 -0.074968
5530.00000000 4870.00000000 -570.00000000 159 200 76 97.000000 1.000000 4.000000 1.000000 -60.708740 114.000000 149.000000 0.232627 0.953368 -0.192287
5530.00000000 4860.00000000 -600.00000000 159 200 76 97.000000 1.000000 4.000000 1.000000 -60.708740 114.000000 149.000000 0.331128 0.941033 -0.069367
5510.00000000 4870.00000000 -570.00000000 159 200 76 97.000000 1.000000 4.000000 1.000000 -60.708740 114.000000 149.000000 0.623563 0.740382 -0.251004
5550.00000000 4910.00000000 -610.00000000 159 200 76 97.000000 1.000000 4.000000 1.000000 -60.708740 114.000000 149.000000 0.326269 0.928398 0.177838
5460.00000000 4980.00000000 -530.00000000 159 200 76 97.000000 1.000000 4.000000 1.000000 -60.708740 114.000000 149.000000 0.331254 0.902483 -0.275309
5430.00000000 4980.00000000 -550.00000000 159 200 76 97.000000 1.000000 4.000000 1.000000 -60.708740 114.000000 149.000000 0.799478 0.594187 -0.088188
5440.00000000 4970.00000000 -540.00000000 159 200 76 97.000000 1.000000 4.000000 1.000000 -60.708740 114.000000 149.000000 0.294256 0.832946 -0.468630
5370.00000000 5010.00000000 -500.00000000 159 200 76 97.000000 1.000000 4.000000 1.000000 -60.708740 114.000000 149.000000 0.133840 0.942289 -0.306886
4990.00000000 5290.00000000 -410.00000000 159 200 76 97.000000 1.000000 4.000000 1.000000 -60.708740 114.000000 149.000000 0.174742 0.840854 -0.512279
5030.00000000 5230.00000000 -420.00000000 159 200 76 97.000000 1.000000 4.000000 1.000000 -60.708740 114.000000 149.000000 0.345770 0.931545 -0.112545
5020.00000000 5240.00000000 -440.00000000 159 200 76 97.000000 1.000000 4.000000 1.000000 -60.708740 114.000000 149.000000 0.705836 0.693797 -0.142973
5040.00000000 5260.00000000 -430.00000000 159 200 76 97.000000 1.000000 4.000000 1.000000 -60.708740 114.000000 149.000000 0.562334 0.772611 -0.294707
5040.00000000 5230.00000000 -410.00000000 159 200 76 97.000000 1.000000 4.000000 1.000000 -60.708740 114.000000 149.000000 0.740415 0.648817 -0.175562
5010.00000000 5210.00000000 -400.00000000 159 200 76 97.000000 1.000000 4.000000 1.000000 -60.708740 114.000000 149.000000 0.311705 0.667015 -0.676706
4970.00000000 5270.00000000 -410.00000000 159 200 76 97.000000 1.000000 4.000000 1.000000 -60.708740 114.000000 149.000000 0.615119 0.788078 -0.023712
4890.00000000 5290.00000000 -410.00000000 159 200 76 97.000000 1.000000 4.000000 1.000000 -60.708740 114.000000 34.000000 0.347763 0.674301 -0.651444
4880.00000000 5300.00000000 -390.00000000 159 200 76 97.000000 1.000000 4.000000 1.000000 -60.708740 114.000000 34.000000 0.341477 0.814780 -0.468538
4890.00000000 5290.00000000 -390.00000000 159 200 76 97.000000 1.000000 4.000000 1.000000 -60.708740 114.000000 34.000000 0.289070 0.791388 -0.538649
4880.00000000 5300.00000000 -380.00000000 159 200 76 97.000000 1.000000 4.000000 1.000000 -60.708740 114.000000 34.000000 0.414773 0.861688 -0.292331
4900.00000000 5270.00000000 -400.00000000 159 200 76 97.000000 1.000000 4.000000 1.000000 -60.708740 114.000000 34.000000 0.312290 0.882560 -0.351515
4850.00000000 5310.00000000 -390.00000000 159 200 76 97.000000 1.000000 4.000000 1.000000 -60.708740 114.000000 34.000000 0.559109 0.825078 -0.081507
4860.00000000 5300.00000000 -410.00000000 159 200 76 97.000000 1.000000 4.000000 1.000000 -60.708740 114.000000 34.000000 0.474461 0.803548 -0.359440
5980.00000000 5130.00000000 10.00000000 159 200 76 97.000000 1.000000 4.000000 1.000000 -60.708740 114.000000 149.000000 0.078846 -0.362156 0.928777
5970.00000000 5110.00000000 10.00000000 159 200 76 97.000000 1.000000 4.000000 1.000000 -60.708740 114.000000 149.000000 -0.006465 -0.399521 0.916701
7240.00000000 4530.00000000 -250.00000000 159 200 76 97.000000 1.000000 4.000000 1.000000 -60.708740 114.000000 149.000000 -0.008955 -0.008955 0.999920
7250.00000000 4550.00000000 -280.00000000 159 200 76 97.000000 1.000000 4.000000 1.000000 -60.708740 114.000000 149.000000 -0.273367 -0.225703 0.935055
7250.00000000 4620.00000000 -270.00000000 159 200 76 97.000000 1.000000 4.000000 1.000000 -60.708740 114.000000 149.000000 0.141715 -0.227525 0.963405
7240.00000000 4530.00000000 -320.00000000 159 200 76 97.000000 1.000000 4.000000 1.000000 -60.708740 114.000000 149.000000 -0.287044 -0.252770 0.923966
7240.00000000 4570.00000000 -320.00000000 159 200 76 97.000000 1.000000 4.000000 1.000000 -60.708740 114.000000 149.000000 0.227824 0.346815 0.909844
7170.00000000 4650.00000000 -230.00000000 159 200 76 97.000000 1.000000 4.000000 1.000000 -60.708740 114.000000 149.000000 0.219939 0.305077 0.926582
7200.00000000 4580.00000000 -260.00000000 159 200 76 97.000000 1.000000 4.000000 1.000000 -60.708740 114.000000 149.000000 0.213673 0.373564 0.902659
7230.00000000 4590.00000000 -280.00000000 159 200 76 97.000000 1.000000 4.000000 1.000000 -60.708740 114.000000 149.000000 0.071916 0.103879 0.991987
7230.00000000 4550.00000000 -290.00000000 159 200 76 97.000000 1.000000 4.000000 1.000000 -60.708740 114.000000 149.000000 -0.340398 -0.092108 0.935759
7180.00000000 4530.00000000 -280.00000000 159 200 76 97.000000 1.000000 4.000000 1.000000 -60.708740 114.000000 149.000000 -0.269608 -0.080499 0.959600
7150.00000000 4540.00000000 -470.00000000 159 200 76 97.000000 1.000000 4.000000 1.000000 -60.708740 114.000000 149.000000 0.284987 0.597041 -0.749883
7210.00000000 4510.00000000 -390.00000000 159 200 76 97.000000 1.000000 4.000000 1.000000 -60.708740 114.000000 149.000000 -0.092419 -0.052334 0.994344
7180.00000000 4500.00000000 -460.00000000 159 200 76 97.000000 1.000000 4.000000 1.000000 -60.708740 114.000000 149.000000 -0.328356 -0.583923 0.742440
7190.00000000 4450.00000000 -550.00000000 159 200 76 97.000000 1.000000 4.000000 1.000000 -60.708740 114.000000 149.000000 -0.058884 -0.736769 0.673576
7190.00000000 4400.00000000 -620.00000000 159 200 76 97.000000 1.000000 4.000000 1.000000 -60.708740 114.000000 149.000000 0.730041 0.652542 0.203048
7180.00000000 4400.00000000 -610.00000000 159 200 76 97.000000 1.000000 4.000000 1.000000 -60.708740 114.000000 149.000000 0.635724 0.743998 -0.205721
7160.00000000 4410.00000000 -620.00000000 159 200 76 97.000000 1.000000 4.000000 1.000000 -60.708740 114.000000 149.000000 0.340904 0.928861 -0.144919
7160.00000000 4350.00000000 -630.00000000 159 200 76 97.000000 1.000000 4.000000 1.000000 -60.708740 114.000000 149.000000 0.730190 0.635565 0.250757
7170.00000000 4360.00000000 -660.00000000 159 200 76 97.000000 1.000000 4.000000 1.000000 -60.708740 114.000000 149.000000 0.764544 0.591142 0.256950
7150.00000000 4430.00000000 -550.00000000 159 200 76 97.000000 1.000000 4.000000 1.000000 -60.708740 114.000000 149.000000 -0.086052 -0.710294 0.698626
7130.00000000 4370.00000000 -610.00000000 159 200 76 97.000000 1.000000 4.000000 1.000000 -60.708740 114.000000 149.000000 0.525553 0.724501 -0.445974
7130.00000000 4350.00000000 -680.00000000 159 200 76 97.000000 1.000000 4.000000 1.000000 -60.708740 114.000000 149.000000 0.490534 0.866564 0.091887
7100.00000000 4950.00000000 -760.00000000 159 200 76 97.000000 1.000000 4.000000 1.000000 -60.708740 114.000000 149.000000 0.475632 0.873175 -0.106485
7090.00000000 4860.00000000 -780.00000000 159 200 76 97.000000 1.000000 4.000000 1.000000 -60.708740 114.000000 149.000000 0.663077 0.552285 -0.505282
7210.00000000 4820.00000000 -780.00000000 159 200 76 97.000000 1.000000 4.000000 1.000000 -60.708740 114.000000 149.000000 0.243469 0.531910 -0.811046
7190.00000000 4830.00000000 -790.00000000 159 200 76 97.000000 1.000000 4.000000 1.000000 -60.708740 114.000000 149.000000 -0.473766 -0.440979 0.762288
7180.00000000 4740.00000000 -810.00000000 159 200 76 97.000000 1.000000 4.000000 1.000000 -60.708740 114.000000 149.000000 -0.363316 -0.568598 0.738037
7140.00000000 4790.00000000 -770.00000000 159 200 76 97.000000 1.000000 4.000000 1.000000 -60.708740 114.000000 149.000000 0.652049 0.517258 -0.554326
7150.00000000 4780.00000000 -800.00000000 159 200 76 97.000000 1.000000 4.000000 1.000000 -60.708740 114.000000 149.000000 0.234385 0.857397 -0.458186
7140.00000000 4790.00000000 -780.00000000 159 200 76 97.000000 1.000000 4.000000 1.000000 -60.708740 114.000000 149.000000 -0.209574 -0.634932 0.743600
7150.00000000 4780.00000000 -810.00000000 159 200 76 97.000000 1.000000 4.000000 1.000000 -60.708740 114.000000 149.000000 0.366895 0.832994 -0.414135
7140.00000000 4780.00000000 -790.00000000 159 200 76 97.000000 1.000000 4.000000 1.000000 -60.708740 114.000000 149.000000 -0.368788 -0.428933 0.824628
7150.00000000 4770.00000000 -810.00000000 159 200 76 97.000000 1.000000 4.000000 1.000000 -60.708740 114.000000 149.000000 0.336368 0.798675 -0.498973
7320.00000000 4530.00000000 -850.00000000 159 200 76 97.000000 1.000000 4.000000 1.000000 -60.708740 114.000000 149.000000 -0.141826 0.091770 0.985629
7250.00000000 4570.00000000 -840.00000000 159 200 76 97.000000 1.000000 4.000000 1.000000 -60.708740 114.000000 149.000000 -0.219536 -0.005870 0.975587
7260.00000000 4560.00000000 -830.00000000 159 200 76 97.000000 1.000000 4.000000 1.000000 -60.708740 114.000000 149.000000 0.029149 0.078810 0.996463
7240.00000000 4520.00000000 -780.00000000 159 200 76 97.000000 1.000000 4.000000 1.000000 -60.708740 114.000000 149.000000 -0.126596 0.330783 0.935177
7260.00000000 4550.00000000 -830.00000000 159 200 76 97.000000 1.000000 4.000000 1.000000 -60.708740 114.000000 149.000000 0.256058 0.180189 0.949719
7250.00000000 4540.00000000 -840.00000000 159 200 76 97.000000 1.000000 4.000000 1.000000 -60.708740 114.000000 149.000000 0.214541 -0.239138 0.946987
7300.00000000 4510.00000000 -820.00000000 159 200 76 97.000000 1.000000 4.000000 1.000000 -60.708740 114.000000 149.000000 0.003682 -0.300718 0.953706
7290.00000000 4510.00000000 -860.00000000 159 200 76 97.000000 1.000000 4.000000 1.000000 -60.708740 114.000000 149.000000 -0.169096 -0.139034 0.975744
7290.00000000 4510.00000000 -860.00000000 159 200 76 97.000000 1.000000 4.000000 1.000000 -60.708740 114.000000 149.000000 -0.169096 -0.139034 0.975744
7320.00000000 4510.00000000 -850.00000000 159 200 76 97.000000 1.000000 4.000000 1.000000 -60.708740 114.000000 149.000000 -0.032635 -0.377262 0.925532
7240.00000000 4500.00000000 -890.00000000 159 200 76 97.000000 1.000000 4.000000 1.000000 -60.708740 114.000000 149.000000 0.014346 -0.124701 0.992091
7160.00000000 4670.00000000 -770.00000000 159 200 76 97.000000 1.000000 4.000000 1.000000 -60.708740 114.000000 149.000000 -0.251291 0.038000 0.967165
7160.00000000 4670.00000000 -820.00000000 159 200 76 97.000000 1.000000 4.000000 1.000000 -60.708740 114.000000 149.000000 -0.250698 0.010796 0.968005
7160.00000000 4600.00000000 -790.00000000 159 200 76 97.000000 1.000000 4.000000 1.000000 -60.708740 114.000000 149.000000 0.349159 0.176700 0.920253
7180.00000000 4600.00000000 -780.00000000 159 200 76 97.000000 1.000000 4.000000 1.000000 -60.708740 114.000000 149.000000 -0.184826 -0.169316 0.968076
7160.00000000 4630.00000000 -800.00000000 159 200 76 97.000000 1.000000 4.000000 1.000000 -60.708740 114.000000 149.000000 0.185240 0.129794 0.974084
7190.00000000 4630.00000000 -860.00000000 159 200 76 97.000000 1.000000 4.000000 1.000000 -60.708740 114.000000 149.000000 -0.108422 -0.536327 0.837017
7210.00000000 4570.00000000 -790.00000000 159 200 76 97.000000 1.000000 4.000000 1.000000 -60.708740 114.000000 149.000000 -0.295806 -0.028707 0.954817
7230.00000000 4590.00000000 -850.00000000 159 200 76 97.000000 1.000000 4.000000 1.000000 -60.708740 114.000000 149.000000 0.153840 0.174182 0.972622
7220.00000000 4560.00000000 -830.00000000 159 200 76 97.000000 1.000000 4.000000 1.000000 -60.708740 114.000000 149.000000 0.013723 0.068614 0.997549
7210.00000000 4590.00000000 -830.00000000 159 200 76 97.000000 1.000000 4.000000 1.000000 -60.708740 114.000000 149.000000 0.267623 -0.276210 0.923085
