//X Y Z R G B PointSourceId ScanDirectionFlag NumberOfReturns ReturnNumber GpsTime Intensity Classification Nx Ny Nz
12480.00000000 -7580.00000000 270.00000000 165 190 78 97.000000 1.000000 4.000000 1.000000 -60.708740 114.000000 96.000000 0.012277 0.552453 0.833454
12460.00000000 -7530.00000000 230.00000000 165 190 78 97.000000 1.000000 4.000000 1.000000 -60.708740 114.000000 96.000000 0.245420 0.157865 0.956477
12540.00000000 -7490.00000000 130.00000000 165 190 78 97.000000 1.000000 4.000000 1.000000 -60.708740 114.000000 96.000000 0.381294 -0.188489 0.905034
12540.00000000 -7490.00000000 130.00000000 165 190 78 97.000000 1.000000 4.000000 1.000000 -60.708740 114.000000 96.000000 0.381294 -0.188489 0.905034
12850.00000000 -7830.00000000 520.00000000 165 190 78 97.000000 1.000000 4.000000 1.000000 -60.708740 114.000000 96.000000 0.085072 0.989398 0.117702
12860.00000000 -7920.00000000 550.00000000 165 190 78 97.000000 1.000000 4.000000 1.000000 -60.708740 114.000000 96.000000 -0.125184 0.977922 -0.167325
12800.00000000 -7890.00000000 520.00000000 165 190 78 97.000000 1.000000 4.000000 1.000000 -60.708740 114.000000 96.000000 -0.264178 0.832700 -0.486643
12620.00000000 -7800.00000000 590.00000000 165 190 78 97.000000 1.000000 4.000000 1.000000 -60.708740 114.000000 96.000000 0.204346 0.961087 -0.185889
12440.00000000 -7050.00000000 480.00000000 165 190 78 97.000000 1.000000 4.000000 1.000000 -60.708740 114.000000 96.000000 0.081330 0.931961 0.353319
12350.00000000 -7060.00000000 440.00000000 165 190 78 97.000000 1.000000 4.000000 1.000000 -60.708740 114.000000 96.000000 -0.187120 0.982089 0.022082
12320.00000000 -7430.00000000 660.00000000 165 190 78 97.000000 1.000000 4.000000 1.000000 -60.708740 114.000000 96.000000 0.184957 0.340264 0.921961
12220.00000000 -7340.00000000 680.00000000 165 190 78 97.000000 1.000000 4.000000 1.000000 -60.708740 114.000000 96.000000 0.001357 0.563126 0.826370
12230.00000000 -7340.00000000 690.00000000 165 190 78 97.000000 1.000000 4.000000 1.000000 -60.708740 114.000000 96.000000 0.272416 0.692989 0.667500
12150.00000000 -7360.00000000 710.00000000 165 190 78 97.000000 1.000000 4.000000 1.000000 -60.708740 114.000000 96.000000 0.082978 0.656543 0.749711
12180.00000000 -7330.00000000 680.00000000 165 190 78 97.000000 1.000000 4.000000 1.000000 -60.708740 114.000000 96.000000 -0.042426 0.874530 0.483113
12180.00000000 -7330.00000000 690.00000000 165 190 78 97.000000 1.000000 4.000000 1.000000 -60.708740 114.000000 96.000000 0.223489 0.689222 0.689222
12180.00000000 -7360.00000000 670.00000000 165 190 78 97.000000 1.000000 4.000000 1.000000 -60.708740 114.000000 96.000000 -0.314613 0.363249 0.876966
12180.00000000 -7330.00000000 660.00000000 165 190 78 97.000000 1.000000 4.000000 1.000000 -60.708740 114.000000 96.000000 0.194772 0.605786 0.771419
12190.00000000 -7390.00000000 730.00000000 165 190 78 97.000000 1.000000 4.000000 1.000000 -60.708740 114.000000 96.000000 0.129583 0.437166 0.889997
12180.00000000 -7380.00000000 670.00000000 165 190 78 97.000000 1.000000 4.000000 1.000000 -60.708740 114.000000 96.000000 0.222405 0.331455 0.916883
12180.00000000 -7400.00000000 680.00000000 165 190 78 97.000000 1.000000 4.000000 1.000000 -60.708740 114.000000 96.000000 0.146434 0.671783 0.726130
12170.00000000 -7440.00000000 730.00000000 165 190 78 97.000000 1.000000 4.000000 1.000000 -60.708740 114.000000 96.000000 0.157201 0.338052 0.927905
12190.00000000 -7410.00000000 690.00000000 165 190 78 97.000000 1.000000 4.000000 1.000000 -60.708740 114.000000 96.000000 -0.142561 0.751819 0.643773
12160.00000000 -7370.00000000 710.00000000 165 190 78 97.000000 1.000000 4.000000 1.000000 -60.708740 114.000000 96.000000 0.132173 0.604433 0.785615
12160.00000000 -7380.00000000 720.00000000 165 190 78 97.000000 1.000000 4.000000 1.000000 -60.708740 114.000000 96.000000 -0.164882 0.772977 0.612634
12160.00000000 -7370.00000000 710.00000000 165 190 78 97.000000 1.000000 4.000000 1.000000 -60.708740 114.000000 96.000000 0.132173 0.604433 0.785615
12150.00000000 -7440.00000000 730.00000000 165 190 78 97.000000 1.000000 4.000000 1.000000 -60.708740 114.000000 96.000000 -0.140620 0.081536 0.986701
12130.00000000 -7430.00000000 720.00000000 165 190 78 97.000000 1.000000 4.000000 1.000000 -60.708740 114.000000 96.000000 -0.113070 0.588844 0.800299
12160.00000000 -7410.00000000 660.00000000 165 190 78 97.000000 1.000000 4.000000 1.000000 -60.708740 114.000000 96.000000 -0.146177 0.718828 0.679646
12140.00000000 -7460.00000000 720.00000000 165 190 78 97.000000 1.000000 4.000000 1.000000 -60.708740 114.000000 96.000000 -0.078457 0.092102 0.992654
12110.00000000 -7360.00000000 690.00000000 165 190 78 97.000000 1.000000 4.000000 1.000000 -60.708740 114.000000 96.000000 0.145807 0.400616 0.904570
12110.00000000 -7380.00000000 700.00000000 165 190 78 97.000000 1.000000 4.000000 1.000000 -60.708740 114.000000 96.000000 -0.167982 0.448438 0.877887
12100.00000000 -7390.00000000 670.00000000 165 190 78 97.000000 1.000000 4.000000 1.000000 -60.708740 114.000000 96.000000 -0.347879 0.554988 0.755625
12080.00000000 -7410.00000000 730.00000000 165 190 78 97.000000 1.000000 4.000000 1.000000 -60.708740 114.000000 96.000000 0.055517 0.019902 0.998259
12110.00000000 -7430.00000000 720.00000000 165 190 78 97.000000 1.000000 4.000000 1.000000 -60.708740 114.000000 96.000000 0.028273 0.141365 0.989554
12050.00000000 -7380.00000000 730.00000000 165 190 78 97.000000 1.000000 4.000000 1.000000 -60.708740 114.000000 96.000000 0.038261 0.670274 0.741127
12060.00000000 -7400.00000000 700.00000000 165 190 78 97.000000 1.000000 4.000000 1.000000 -60.708740 114.000000 96.000000 -0.038006 0.612327 0.789691
12070.00000000 -7380.00000000 730.00000000 165 190 78 97.000000 1.000000 4.000000 1.000000 -60.708740 114.000000 96.000000 0.076854 0.752592 0.653987
12050.00000000 -7380.00000000 730.00000000 165 190 78 97.000000 1.000000 4.000000 1.000000 -60.708740 114.000000 96.000000 0.038261 0.670274 0.741127
12060.00000000 -7380.00000000 730.00000000 165 190 78 97.000000 1.000000 4.000000 1.000000 -60.708740 114.000000 96.000000 0.200418 0.370558 0.906929
12010.00000000 -7340.00000000 660.00000000 165 190 78 97.000000 1.000000 4.000000 1.000000 -60.708740 114.000000 96.000000 0.335378 0.805860 0.487967
11960.00000000 -7370.00000000 700.00000000 165 190 78 97.000000 1.000000 4.000000 1.000000 -60.708740 114.000000 96.000000 0.152390 0.647281 0.746863
11980.00000000 -7370.00000000 700.00000000 165 190 78 97.000000 1.000000 4.000000 1.000000 -60.708740 114.000000 96.000000 0.361855 0.431382 0.826420
11990.00000000 -7400.00000000 700.00000000 165 190 78 97.000000 1.000000 4.000000 1.000000 -60.708740 114.000000 96.000000 0.172036 0.373929 0.911362
11960.00000000 -7390.00000000 730.00000000 165 190 78 97.000000 1.000000 4.000000 1.000000 -60.708740 114.000000 96.000000 0.274413 0.585308 0.762963
11950.00000000 -7310.00000000 660.00000000 165 190 78 97.000000 1.000000 4.000000 1.000000 -60.708740 114.000000 96.000000 0.006919 0.748688 0.662886
11940.00000000 -7330.00000000 690.00000000 165 190 78 97.000000 1.000000 4.000000 1.000000 -60.708740 114.000000 96.000000 -0.057851 0.557348 0.828261
11940.00000000 -7320.00000000 690.00000000 165 190 78 97.000000 1.000000 4.000000 1.000000 -60.708740 114.000000 96.000000 -0.097899 0.626848 0.772967
11920.00000000 -7320.00000000 680.00000000 165 190 78 97.000000 1.000000 4.000000 1.000000 -60.708740 114.000000 96.000000 0.322020 0.629477 0.707150
11880.00000000 -7280.00000000 700.00000000 165 190 78 97.000000 1.000000 4.000000 1.000000 -60.708740 114.000000 96.000000 0.255884 0.579271 0.773931
11900.00000000 -7330.00000000 660.00000000 165 190 78 97.000000 1.000000 4.000000 1.000000 -60.708740 114.000000 96.000000 0.080974 0.532720 0.842409
11900.00000000 -7330.00000000 660.00000000 165 190 78 97.000000 1.000000 4.000000 1.000000 -60.708740 114.000000 96.000000 0.080974 0.532720 0.842409
11900.00000000 -7340.00000000 670.00000000 165 190 78 97.000000 1.000000 4.000000 1.000000 -60.708740 114.000000 96.000000 0.120865 0.447912 0.885870
11940.00000000 -7380.00000000 700.00000000 165 190 78 97.000000 1.000000 4.000000 1.000000 -60.708740 114.000000 96.000000 -0.318464 0.632078 0.706440
11950.00000000 -7410.00000000 720.00000000 165 190 78 97.000000 1.000000 4.000000 1.000000 -60.708740 114.000000 96.000000 -0.285254 0.603973 0.744209
11890.00000000 -7380.00000000 710.00000000 165 190 78 97.000000 1.000000 4.000000 1.000000 -60.708740 114.000000 96.000000 0.213517 0.443458 0.870492
11910.00000000 -7370.00000000 690.00000000 165 190 78 97.000000 1.000000 4.000000 1.000000 -60.708740 114.000000 96.000000 0.014894 0.510451 0.859778
11900.00000000 -7410.00000000 710.00000000 165 190 78 97.000000 1.000000 4.000000 1.000000 -60.708740 114.000000 96.000000 -0.311736 0.400803 0.861497
11870.00000000 -7430.00000000 700.00000000 165 190 78 97.000000 1.000000 4.000000 1.000000 -60.708740 114.000000 96.000000 -0.140811 0.321268 0.936461
11840.00000000 -7440.00000000 710.00000000 165 190 78 97.000000 1.000000 4.000000 1.000000 -60.708740 114.000000 96.000000 0.014052 0.364074 0.931264
11860.00000000 -7440.00000000 710.00000000 165 190 78 97.000000 1.000000 4.000000 1.000000 -60.708740 114.000000 96.000000 0.079545 0.632018 0.770860
11840.00000000 -7430.00000000 710.00000000 165 190 78 97.000000 1.000000 4.000000 1.000000 -60.708740 114.000000 96.000000 -0.024284 0.348918 0.936839
11840.00000000 -7420.00000000 670.00000000 165 190 78 97.000000 1.000000 4.000000 1.000000 -60.708740 114.000000 96.000000 0.230295 -0.665818 -0.709684
11790.00000000 -7430.00000000 690.00000000 165 190 78 97.000000 1.000000 4.000000 1.000000 -60.708740 114.000000 96.000000 0.275005 0.355276 0.893393
11790.00000000 -7480.00000000 700.00000000 165 190 78 97.000000 1.000000 4.000000 1.000000 -60.708740 114.000000 96.000000 0.005880 0.222278 0.974966
11810.00000000 -7460.00000000 700.00000000 165 190 78 97.000000 1.000000 4.000000 1.000000 -60.708740 114.000000 96.000000 -0.054952 0.007258 0.998463
11800.00000000 -7470.00000000 700.00000000 165 190 78 97.000000 1.000000 4.000000 1.000000 -60.708740 114.000000 96.000000 -0.233320 0.008291 0.972365
12420.00000000 -7210.00000000 500.00000000 165 190 78 97.000000 1.000000 4.000000 1.000000 -60.708740 114.000000 96.000000 -0.368609 0.926214 0.079083
12410.00000000 -7230.00000000 540.00000000 165 190 78 97.000000 1.000000 4.000000 1.000000 -60.708740 114.000000 96.000000 -0.138411 0.799211 0.584897
12310.00000000 -7200.00000000 570.00000000 165 190 78 97.000000 1.000000 4.000000 1.000000 -60.708740 114.000000 96.000000 -0.126747 0.753028 0.645666
12330.00000000 -7250.00000000 440.00000000 165 190 78 97.000000 1.000000 4.000000 1.000000 -60.708740 114.000000 96.000000 0.174697 0.977562 -0.117704
12440.00000000 -7340.00000000 640.00000000 165 190 78 97.000000 1.000000 4.000000 1.000000 -60.708740 114.000000 96.000000 -0.177824 0.457051 0.871483
12440.00000000 -7350.00000000 570.00000000 165 190 78 97.000000 1.000000 4.000000 1.000000 -60.708740 114.000000 96.000000 0.127243 0.832196 0.539684
12420.00000000 -7310.00000000 580.00000000 165 190 78 97.000000 1.000000 4.000000 1.000000 -60.708740 114.000000 96.000000 -0.350593 0.820165 0.452122
12410.00000000 -7360.00000000 600.00000000 165 190 78 97.000000 1.000000 4.000000 1.000000 -60.708740 114.000000 96.000000 0.336820 0.714318 0.613435
12430.00000000 -7300.00000000 540.00000000 165 190 78 97.000000 1.000000 4.000000 1.000000 -60.708740 114.000000 96.000000 0.103449 0.802819 0.587180
12420.00000000 -7330.00000000 520.00000000 165 190 78 97.000000 1.000000 4.000000 1.000000 -60.708740 114.000000 96.000000 -0.229984 0.972262 0.042590
12400.00000000 -7300.00000000 510.00000000 165 190 78 97.000000 1.000000 4.000000 1.000000 -60.708740 114.000000 96.000000 -0.423997 0.905147 0.030570
12380.00000000 -7280.00000000 500.00000000 165 190 78 97.000000 1.000000 4.000000 1.000000 -60.708740 114.000000 96.000000 -0.467664 0.881525 0.064838
12400.00000000 -7300.00000000 500.00000000 165 190 78 97.000000 1.000000 4.000000 1.000000 -60.708740 114.000000 96.000000 -0.336930 0.908690 0.246498
12420.00000000 -7410.00000000 620.00000000 165 190 78 97.000000 1.000000 4.000000 1.000000 -60.708740 114.000000 96.000000 -0.308655 0.651246 0.693261
12430.00000000 -7420.00000000 570.00000000 165 190 78 97.000000 1.000000 4.000000 1.000000 -60.708740 114.000000 96.000000 -0.093803 0.818255 0.567150
12380.00000000 -7390.00000000 610.00000000 165 190 78 97.000000 1.000000 4.000000 1.000000 -60.708740 114.000000 96.000000 -0.087003 0.349352 0.932944
12390.00000000 -7410.00000000 650.00000000 165 190 78 97.000000 1.000000 4.000000 1.000000 -60.708740 114.000000 96.000000 0.293497 0.643128 0.707280
12310.00000000 -7300.00000000 570.00000000 165 190 78 97.000000 1.000000 4.000000 1.000000 -60.708740 114.000000 96.000000 0.175342 0.947393 0.267771
12290.00000000 -7360.00000000 600.00000000 165 190 78 97.000000 1.000000 4.000000 1.000000 -60.708740 114.000000 96.000000 -0.249425 0.515891 0.819539
12310.00000000 -7360.00000000 610.00000000 165 190 78 97.000000 1.000000 4.000000 1.000000 -60.708740 114.000000 96.000000 0.269331 0.705999 0.655001
12310.00000000 -7360.00000000 610.00000000 165 190 78 97.000000 1.000000 4.000000 1.000000 -60.708740 114.000000 96.000000 0.269331 0.705999 0.655001
12300.00000000 -7360.00000000 600.00000000 165 190 78 97.000000 1.000000 4.000000 1.000000 -60.708740 114.000000 96.000000 0.230863 0.565537 0.791752
12350.00000000 -7350.00000000 530.00000000 165 190 78 97.000000 1.000000 4.000000 1.000000 -60.708740 114.000000 96.000000 0.060569 0.832468 0.550753
12320.00000000 -7280.00000000 550.00000000 165 190 78 97.000000 1.000000 4.000000 1.000000 -60.708740 114.000000 96.000000 0.059253 0.877771 0.475402
12310.00000000 -7280.00000000 550.00000000 165 190 78 97.000000 1.000000 4.000000 1.000000 -60.708740 114.000000 96.000000 0.123730 0.976089 0.178721
12290.00000000 -7340.00000000 530.00000000 165 190 78 97.000000 1.000000 4.000000 1.000000 -60.708740 114.000000 96.000000 0.312128 0.872435 0.376076
12360.00000000 -7440.00000000 650.00000000 165 190 78 97.000000 1.000000 4.000000 1.000000 -60.708740 114.000000 96.000000 -0.066159 0.046636 0.996719
12340.00000000 -7410.00000000 600.00000000 165 190 78 97.000000 1.000000 4.000000 1.000000 -60.708740 114.000000 96.000000 -0.001375 0.636526 0.771254
12300.00000000 -7370.00000000 630.00000000 165 190 78 97.000000 1.000000 4.000000 1.000000 -60.708740 114.000000 96.000000 0.271467 0.738200 0.617548
12330.00000000 -7420.00000000 640.00000000 165 190 78 97.000000 1.000000 4.000000 1.000000 -60.708740 114.000000 96.000000 -0.255656 0.428111 0.866811
12300.00000000 -7410.00000000 640.00000000 165 190 78 97.000000 1.000000 4.000000 1.000000 -60.708740 114.000000 96.000000 0.047002 0.662302 0.747761
12290.00000000 -7420.00000000 640.00000000 165 190 78 97.000000 1.000000 4.000000 1.000000 -60.708740 114.000000 96.000000 0.236464 0.308119 0.921492
12210.00000000 -7250.00000000 510.00000000 165 190 78 97.000000 1.000000 4.000000 1.000000 -60.708740 114.000000 96.000000 0.041817 0.978510 0.201915
12150.00000000 -7270.00000000 530.00000000 165 190 78 97.000000 1.000000 4.000000 1.000000 -60.708740 114.000000 96.000000 -0.075263 0.901787 0.425578
12180.00000000 -7270.00000000 480.00000000 165 190 78 97.000000 1.000000 4.000000 1.000000 -60.708740 114.000000 96.000000 0.127706 0.926901 -0.352909
12170.00000000 -7260.00000000 460.00000000 165 190 78 97.000000 1.000000 4.000000 1.000000 -60.708740 114.000000 96.000000 0.262293 0.928658 -0.262293
12260.00000000 -7310.00000000 620.00000000 165 190 78 97.000000 1.000000 4.000000 1.000000 -60.708740 114.000000 96.000000 -0.046466 0.804009 0.592798
12280.00000000 -7360.00000000 640.00000000 165 190 78 97.000000 1.000000 4.000000 1.000000 -60.708740 114.000000 96.000000 0.272416 0.667500 0.692989
12270.00000000 -7360.00000000 610.00000000 165 190 78 97.000000 1.000000 4.000000 1.000000 -60.708740 114.000000 96.000000 0.133620 0.533011 0.835491
12220.00000000 -7320.00000000 620.00000000 165 190 78 97.000000 1.000000 4.000000 1.000000 -60.708740 114.000000 96.000000 0.169689 0.946184 0.275574
12240.00000000 -7340.00000000 580.00000000 165 190 78 97.000000 1.000000 4.000000 1.000000 -60.708740 114.000000 96.000000 -0.134846 0.582359 0.801670
12240.00000000 -7340.00000000 580.00000000 165 190 78 97.000000 1.000000 4.000000 1.000000 -60.708740 114.000000 96.000000 -0.134846 0.582359 0.801670
12210.00000000 -7340.00000000 610.00000000 165 190 78 97.000000 1.000000 4.000000 1.000000 -60.708740 114.000000 96.000000 0.046834 0.762118 0.645742
12270.00000000 -7290.00000000 540.00000000 165 190 78 97.000000 1.000000 4.000000 1.000000 -60.708740 114.000000 96.000000 0.011140 0.999564 0.027344
12270.00000000 -7360.00000000 550.00000000 165 190 78 97.000000 1.000000 4.000000 1.000000 -60.708740 114.000000 96.000000 0.196602 0.803172 0.562373
12280.00000000 -7340.00000000 560.00000000 165 190 78 97.000000 1.000000 4.000000 1.000000 -60.708740 114.000000 96.000000 0.005514 0.991338 0.131223
12210.00000000 -7310.00000000 530.00000000 165 190 78 97.000000 1.000000 4.000000 1.000000 -60.708740 114.000000 96.000000 0.187117 0.980873 0.053632
12230.00000000 -7320.00000000 540.00000000 165 190 78 97.000000 1.000000 4.000000 1.000000 -60.708740 114.000000 96.000000 0.022634 0.896054 0.443367
12220.00000000 -7320.00000000 550.00000000 165 190 78 97.000000 1.000000 4.000000 1.000000 -60.708740 114.000000 96.000000 -0.026296 0.998214 -0.053645
12260.00000000 -7390.00000000 630.00000000 165 190 78 97.000000 1.000000 4.000000 1.000000 -60.708740 114.000000 96.000000 -0.151401 0.598108 0.786984
12260.00000000 -7390.00000000 640.00000000 165 190 78 97.000000 1.000000 4.000000 1.000000 -60.708740 114.000000 96.000000 -0.381345 0.474670 0.793262
12280.00000000 -7380.00000000 620.00000000 165 190 78 97.000000 1.000000 4.000000 1.000000 -60.708740 114.000000 96.000000 -0.244631 0.654979 0.714953
12280.00000000 -7410.00000000 640.00000000 165 190 78 97.000000 1.000000 4.000000 1.000000 -60.708740 114.000000 96.000000 0.196266 0.212287 0.957295
12260.00000000 -7410.00000000 600.00000000 165 190 78 97.000000 1.000000 4.000000 1.000000 -60.708740 114.000000 96.000000 -0.236459 0.759488 0.606024
12220.00000000 -7380.00000000 610.00000000 165 190 78 97.000000 1.000000 4.000000 1.000000 -60.708740 114.000000 96.000000 0.046355 0.920470 0.388054
12230.00000000 -7370.00000000 580.00000000 165 190 78 97.000000 1.000000 4.000000 1.000000 -60.708740 114.000000 96.000000 -0.032541 0.928075 0.370970
12240.00000000 -7370.00000000 590.00000000 165 190 78 97.000000 1.000000 4.000000 1.000000 -60.708740 114.000000 96.000000 -0.344625 0.752349 0.561431
12210.00000000 -7380.00000000 590.00000000 165 190 78 97.000000 1.000000 4.000000 1.000000 -60.708740 114.000000 96.000000 -0.414936 0.772920 0.480024
12180.00000000 -7360.00000000 630.00000000 165 190 78 97.000000 1.000000 4.000000 1.000000 -60.708740 114.000000 96.000000 -0.356225 0.821693 0.444886
12140.00000000 -7280.00000000 570.00000000 165 190 78 97.000000 1.000000 4.000000 1.000000 -60.708740 114.000000 96.000000 0.052195 0.911403 0.408191
12160.00000000 -7350.00000000 620.00000000 165 190 78 97.000000 1.000000 4.000000 1.000000 -60.708740 114.000000 96.000000 -0.040676 0.582083 0.812111
12140.00000000 -7360.00000000 600.00000000 165 190 78 97.000000 1.000000 4.000000 1.000000 -60.708740 114.000000 96.000000 -0.046121 0.834376 0.549263
12170.00000000 -7340.00000000 550.00000000 165 190 78 97.000000 1.000000 4.000000 1.000000 -60.708740 114.000000 96.000000 -0.269986 0.924238 0.269986
12160.00000000 -7280.00000000 520.00000000 165 190 78 97.000000 1.000000 4.000000 1.000000 -60.708740 114.000000 96.000000 0.140396 0.872771 0.467504
12140.00000000 -7310.00000000 520.00000000 165 190 78 97.000000 1.000000 4.000000 1.000000 -60.708740 114.000000 96.000000 0.329969 0.931920 0.150488
12160.00000000 -7280.00000000 520.00000000 165 190 78 97.000000 1.000000 4.000000 1.000000 -60.708740 114.000000 96.000000 0.140396 0.872771 0.467504
12130.00000000 -7330.00000000 500.00000000 165 190 78 97.000000 1.000000 4.000000 1.000000 -60.708740 114.000000 96.000000 0.091280 0.877696 0.470445
12160.00000000 -7370.00000000 600.00000000 165 190 78 97.000000 1.000000 4.000000 1.000000 -60.708740 114.000000 96.000000 -0.013823 0.943709 0.330487
12160.00000000 -7380.00000000 610.00000000 165 190 78 97.000000 1.000000 4.000000 1.000000 -60.708740 114.000000 96.000000 0.175766 0.861105 0.477079
12140.00000000 -7380.00000000 610.00000000 165 190 78 97.000000 1.000000 4.000000 1.000000 -60.708740 114.000000 96.000000 0.209878 0.651398 0.729131
12160.00000000 -7410.00000000 550.00000000 165 190 78 97.000000 1.000000 4.000000 1.000000 -60.708740 114.000000 96.000000 -0.068660 0.967485 0.243432
12180.00000000 -7410.00000000 540.00000000 165 190 78 97.000000 1.000000 4.000000 1.000000 -60.708740 114.000000 96.000000 -0.335127 0.905867 0.259028
12180.00000000 -7370.00000000 550.00000000 165 190 78 97.000000 1.000000 4.000000 1.000000 -60.708740 114.000000 96.000000 -0.088950 0.657648 0.748056
12180.00000000 -7300.00000000 470.00000000 165 190 78 97.000000 1.000000 4.000000 1.000000 -60.708740 114.000000 96.000000 -0.081130 0.996276 0.029207
12160.00000000 -7330.00000000 450.00000000 165 190 78 97.000000 1.000000 4.000000 1.000000 -60.708740 114.000000 96.000000 0.084741 0.993168 0.080222
12300.00000000 -7240.00000000 220.00000000 165 190 78 97.000000 1.000000 4.000000 1.000000 -60.708740 114.000000 96.000000 -0.327364 0.865287 -0.379620
12440.00000000 -7370.00000000 300.00000000 165 190 78 97.000000 1.000000 4.000000 1.000000 -60.708740 114.000000 96.000000 0.343917 -0.425578 0.837021
12450.00000000 -7370.00000000 300.00000000 165 190 78 97.000000 1.000000 4.000000 1.000000 -60.708740 114.000000 96.000000 0.425633 -0.387374 0.817789
12240.00000000 -7380.00000000 250.00000000 165 190 78 97.000000 1.000000 4.000000 1.000000 -60.708740 114.000000 96.000000 -0.226320 -0.308877 0.923783
12220.00000000 -7390.00000000 210.00000000 165 190 78 97.000000 1.000000 4.000000 1.000000 -60.708740 114.000000 96.000000 0.223786 -0.234769 0.945940
12220.00000000 -7360.00000000 130.00000000 165 190 78 97.000000 1.000000 4.000000 1.000000 -60.708740 114.000000 96.000000 0.252280 -0.069032 0.965189
12350.00000000 -7460.00000000 650.00000000 165 190 78 97.000000 1.000000 4.000000 1.000000 -60.708740 114.000000 96.000000 0.327046 0.404545 0.854040
12310.00000000 -7510.00000000 260.00000000 165 190 78 97.000000 1.000000 4.000000 1.000000 -60.708740 114.000000 96.000000 0.128773 0.005503 0.991659
12250.00000000 -7460.00000000 200.00000000 165 190 78 97.000000 1.000000 4.000000 1.000000 -60.708740 114.000000 96.000000 -0.215945 -0.088625 0.972375
12110.00000000 -7250.00000000 530.00000000 165 190 78 97.000000 1.000000 4.000000 1.000000 -60.708740 114.000000 96.000000 0.240033 0.950641 0.196638
12060.00000000 -7270.00000000 530.00000000 165 190 78 97.000000 1.000000 4.000000 1.000000 -60.708740 114.000000 96.000000 0.250836 0.960454 0.120869
12080.00000000 -7270.00000000 490.00000000 165 190 78 97.000000 1.000000 4.000000 1.000000 -60.708740 114.000000 96.000000 -0.328135 0.921902 0.205972
11980.00000000 -7230.00000000 600.00000000 165 190 78 97.000000 1.000000 4.000000 1.000000 -60.708740 114.000000 96.000000 -0.219459 0.846051 0.485836
12110.00000000 -7340.00000000 650.00000000 165 190 78 97.000000 1.000000 4.000000 1.000000 -60.708740 114.000000 96.000000 0.088477 0.874935 0.476088
12100.00000000 -7340.00000000 620.00000000 165 190 78 97.000000 1.000000 4.000000 1.000000 -60.708740 114.000000 96.000000 0.014246 0.920784 0.389812
12100.00000000 -7360.00000000 570.00000000 165 190 78 97.000000 1.000000 4.000000 1.000000 -60.708740 114.000000 96.000000 -0.103419 0.874107 0.474596
12110.00000000 -7350.00000000 610.00000000 165 190 78 97.000000 1.000000 4.000000 1.000000 -60.708740 114.000000 96.000000 -0.039375 0.471139 0.881180
12100.00000000 -7350.00000000 600.00000000 165 190 78 97.000000 1.000000 4.000000 1.000000 -60.708740 114.000000 96.000000 -0.243927 0.621620 0.744371
12110.00000000 -7350.00000000 570.00000000 165 190 78 97.000000 1.000000 4.000000 1.000000 -60.708740 114.000000 96.000000 -0.141713 0.954905 0.260910
12080.00000000 -7350.00000000 580.00000000 165 190 78 97.000000 1.000000 4.000000 1.000000 -60.708740 114.000000 96.000000 0.259591 0.819190 0.511411
12060.00000000 -7300.00000000 650.00000000 165 190 78 97.000000 1.000000 4.000000 1.000000 -60.708740 114.000000 96.000000 -0.026306 0.823797 0.566274
12070.00000000 -7350.00000000 610.00000000 165 190 78 97.000000 1.000000 4.000000 1.000000 -60.708740 114.000000 96.000000 -0.075251 0.904381 0.420038
12060.00000000 -7330.00000000 580.00000000 165 190 78 97.000000 1.000000 4.000000 1.000000 -60.708740 114.000000 96.000000 0.120102 0.972198 0.201014
12110.00000000 -7310.00000000 540.00000000 165 190 78 97.000000 1.000000 4.000000 1.000000 -60.708740 114.000000 96.000000 0.076115 0.928068 0.364550
12110.00000000 -7310.00000000 540.00000000 165 190 78 97.000000 1.000000 4.000000 1.000000 -60.708740 114.000000 96.000000 0.076115 0.928068 0.364550
12120.00000000 -7340.00000000 540.00000000 165 190 78 97.000000 1.000000 4.000000 1.000000 -60.708740 114.000000 96.000000 0.089763 0.953565 0.287501
12110.00000000 -7340.00000000 540.00000000 165 190 78 97.000000 1.000000 4.000000 1.000000 -60.708740 114.000000 96.000000 0.060046 0.985460 0.158945
12100.00000000 -7340.00000000 530.00000000 165 190 78 97.000000 1.000000 4.000000 1.000000 -60.708740 114.000000 96.000000 -0.085828 0.769543 0.632800
12110.00000000 -7340.00000000 540.00000000 165 190 78 97.000000 1.000000 4.000000 1.000000 -60.708740 114.000000 96.000000 0.060046 0.985460 0.158945
12120.00000000 -7330.00000000 510.00000000 165 190 78 97.000000 1.000000 4.000000 1.000000 -60.708740 114.000000 96.000000 0.109414 0.933399 0.341751
12040.00000000 -7360.00000000 560.00000000 165 190 78 97.000000 1.000000 4.000000 1.000000 -60.708740 114.000000 96.000000 0.052724 0.648359 0.759507
12050.00000000 -7360.00000000 560.00000000 165 190 78 97.000000 1.000000 4.000000 1.000000 -60.708740 114.000000 96.000000 -0.145744 0.881679 0.448776
12060.00000000 -7360.00000000 500.00000000 165 190 78 97.000000 1.000000 4.000000 1.000000 -60.708740 114.000000 96.000000 -0.094614 0.871299 0.481545
12090.00000000 -7370.00000000 640.00000000 165 190 78 97.000000 1.000000 4.000000 1.000000 -60.708740 114.000000 96.000000 -0.383772 0.746315 0.543814
12100.00000000 -7380.00000000 630.00000000 165 190 78 97.000000 1.000000 4.000000 1.000000 -60.708740 114.000000 96.000000 0.337408 0.763608 0.550508
12120.00000000 -7400.00000000 650.00000000 165 190 78 97.000000 1.000000 4.000000 1.000000 -60.708740 114.000000 96.000000 -0.267431 0.751655 0.602906
12110.00000000 -7380.00000000 620.00000000 165 190 78 97.000000 1.000000 4.000000 1.000000 -60.708740 114.000000 96.000000 -0.216423 0.742689 0.633699
12120.00000000 -7370.00000000 570.00000000 165 190 78 97.000000 1.000000 4.000000 1.000000 -60.708740 114.000000 96.000000 -0.004137 0.762647 0.646802
12100.00000000 -7370.00000000 600.00000000 165 190 78 97.000000 1.000000 4.000000 1.000000 -60.708740 114.000000 96.000000 -0.101108 0.963724 0.247010
12050.00000000 -7390.00000000 600.00000000 165 190 78 97.000000 1.000000 4.000000 1.000000 -60.708740 114.000000 96.000000 0.185890 0.671356 0.717444
12070.00000000 -7410.00000000 570.00000000 165 190 78 97.000000 1.000000 4.000000 1.000000 -60.708740 114.000000 96.000000 0.064143 0.896642 0.438085
12120.00000000 -7370.00000000 560.00000000 165 190 78 97.000000 1.000000 4.000000 1.000000 -60.708740 114.000000 96.000000 0.345109 0.855808 0.385346
12010.00000000 -7360.00000000 590.00000000 165 190 78 97.000000 1.000000 4.000000 1.000000 -60.708740 114.000000 96.000000 0.179013 0.732883 0.656382
11980.00000000 -7360.00000000 590.00000000 165 190 78 97.000000 1.000000 4.000000 1.000000 -60.708740 114.000000 96.000000 -0.013855 0.943433 0.331272
12030.00000000 -7300.00000000 560.00000000 165 190 78 97.000000 1.000000 4.000000 1.000000 -60.708740 114.000000 96.000000 -0.131282 0.818670 0.559056
12010.00000000 -7300.00000000 560.00000000 165 190 78 97.000000 1.000000 4.000000 1.000000 -60.708740 114.000000 96.000000 -0.013002 0.975178 0.221040
12030.00000000 -7360.00000000 490.00000000 165 190 78 97.000000 1.000000 4.000000 1.000000 -60.708740 114.000000 96.000000 -0.194061 0.909931 0.366560
12000.00000000 -7360.00000000 500.00000000 165 190 78 97.000000 1.000000 4.000000 1.000000 -60.708740 114.000000 96.000000 0.091704 0.992893 -0.075854
11990.00000000 -7320.00000000 550.00000000 165 190 78 97.000000 1.000000 4.000000 1.000000 -60.708740 114.000000 96.000000 0.009703 0.995128 0.098111
11980.00000000 -7360.00000000 530.00000000 165 190 78 97.000000 1.000000 4.000000 1.000000 -60.708740 114.000000 96.000000 -0.030015 0.992711 0.116724
11970.00000000 -7360.00000000 530.00000000 165 190 78 97.000000 1.000000 4.000000 1.000000 -60.708740 114.000000 96.000000 -0.163439 0.889513 0.426677
11980.00000000 -7350.00000000 520.00000000 165 190 78 97.000000 1.000000 4.000000 1.000000 -60.708740 114.000000 96.000000 0.196426 0.897741 0.394307
12030.00000000 -7400.00000000 600.00000000 165 190 78 97.000000 1.000000 4.000000 1.000000 -60.708740 114.000000 96.000000 -0.048533 0.519994 0.852790
11980.00000000 -7390.00000000 590.00000000 165 190 78 97.000000 1.000000 4.000000 1.000000 -60.708740 114.000000 96.000000 0.325865 0.695503 0.640381
12000.00000000 -7400.00000000 540.00000000 165 190 78 97.000000 1.000000 4.000000 1.000000 -60.708740 114.000000 96.000000 -0.275885 0.700079 0.658617
12000.00000000 -7380.00000000 540.00000000 165 190 78 97.000000 1.000000 4.000000 1.000000 -60.708740 114.000000 96.000000 -0.001351 0.844105 0.536176
12000.00000000 -7380.00000000 530.00000000 165 190 78 97.000000 1.000000 4.000000 1.000000 -60.708740 114.000000 96.000000 0.042334 0.878098 0.476604
12030.00000000 -7400.00000000 550.00000000 165 190 78 97.000000 1.000000 4.000000 1.000000 -60.708740 114.000000 96.000000 -0.001383 0.728889 0.684630
12010.00000000 -7370.00000000 510.00000000 165 190 78 97.000000 1.000000 4.000000 1.000000 -60.708740 114.000000 96.000000 -0.067762 0.997070 0.035494
11990.00000000 -7390.00000000 540.00000000 165 190 78 97.000000 1.000000 4.000000 1.000000 -60.708740 114.000000 96.000000 0.018191 0.684247 0.729024
11990.00000000 -7360.00000000 450.00000000 165 190 78 97.000000 1.000000 4.000000 1.000000 -60.708740 114.000000 96.000000 0.255866 0.955851 -0.144505
11960.00000000 -7370.00000000 460.00000000 165 190 78 97.000000 1.000000 4.000000 1.000000 -60.708740 114.000000 96.000000 0.298578 0.953686 -0.036535
11960.00000000 -7370.00000000 460.00000000 165 190 78 97.000000 1.000000 4.000000 1.000000 -60.708740 114.000000 96.000000 0.298578 0.953686 -0.036535
11990.00000000 -7370.00000000 440.00000000 165 190 78 97.000000 1.000000 4.000000 1.000000 -60.708740 114.000000 96.000000 0.091371 0.986091 0.138836
11930.00000000 -7360.00000000 610.00000000 165 190 78 97.000000 1.000000 4.000000 1.000000 -60.708740 114.000000 96.000000 -0.107811 0.704461 0.701507
11940.00000000 -7340.00000000 590.00000000 165 190 78 97.000000 1.000000 4.000000 1.000000 -60.708740 114.000000 96.000000 -0.223225 0.722751 0.654066
11920.00000000 -7350.00000000 600.00000000 165 190 78 97.000000 1.000000 4.000000 1.000000 -60.708740 114.000000 96.000000 -0.176807 0.917983 0.355029
11890.00000000 -7320.00000000 570.00000000 165 190 78 97.000000 1.000000 4.000000 1.000000 -60.708740 114.000000 96.000000 -0.101164 0.981168 0.164544
11870.00000000 -7340.00000000 590.00000000 165 190 78 97.000000 1.000000 4.000000 1.000000 -60.708740 114.000000 96.000000 -0.003962 0.886083 0.463510
11910.00000000 -7350.00000000 570.00000000 165 190 78 97.000000 1.000000 4.000000 1.000000 -60.708740 114.000000 96.000000 -0.004009 0.869958 0.493110
11910.00000000 -7360.00000000 590.00000000 165 190 78 97.000000 1.000000 4.000000 1.000000 -60.708740 114.000000 96.000000 -0.372357 0.756096 0.538210
11940.00000000 -7310.00000000 530.00000000 165 190 78 97.000000 1.000000 4.000000 1.000000 -60.708740 114.000000 96.000000 -0.011042 0.958206 0.285867
11870.00000000 -7360.00000000 560.00000000 165 190 78 97.000000 1.000000 4.000000 1.000000 -60.708740 114.000000 96.000000 -0.095495 0.718413 0.689030
11950.00000000 -7360.00000000 490.00000000 165 190 78 97.000000 1.000000 4.000000 1.000000 -60.708740 114.000000 96.000000 0.015880 0.961357 -0.274848
11920.00000000 -7350.00000000 560.00000000 165 190 78 97.000000 1.000000 4.000000 1.000000 -60.708740 114.000000 96.000000 0.266589 0.902867 0.337286
11950.00000000 -7410.00000000 610.00000000 165 190 78 97.000000 1.000000 4.000000 1.000000 -60.708740 114.000000 96.000000 0.305082 0.692488 0.653747
11900.00000000 -7380.00000000 600.00000000 165 190 78 97.000000 1.000000 4.000000 1.000000 -60.708740 114.000000 96.000000 -0.123737 0.663412 0.737952
11860.00000000 -7330.00000000 540.00000000 165 190 78 97.000000 1.000000 4.000000 1.000000 -60.708740 114.000000 96.000000 -0.085828 0.769543 0.632800
11860.00000000 -7320.00000000 540.00000000 165 190 78 97.000000 1.000000 4.000000 1.000000 -60.708740 114.000000 96.000000 -0.051770 0.840913 0.538688
11820.00000000 -7400.00000000 630.00000000 165 190 78 97.000000 1.000000 4.000000 1.000000 -60.708740 114.000000 96.000000 0.279999 0.654398 0.702398
11940.00000000 -7360.00000000 420.00000000 165 190 78 97.000000 1.000000 4.000000 1.000000 -60.708740 114.000000 96.000000 0.184366 0.935694 -0.300808
11900.00000000 -7360.00000000 450.00000000 165 190 78 97.000000 1.000000 4.000000 1.000000 -60.708740 114.000000 96.000000 0.300327 0.952101 -0.057509
11930.00000000 -7440.00000000 480.00000000 165 190 78 97.000000 1.000000 4.000000 1.000000 -60.708740 114.000000 96.000000 0.179165 0.934712 -0.306941
11890.00000000 -7380.00000000 460.00000000 165 190 78 97.000000 1.000000 4.000000 1.000000 -60.708740 114.000000 96.000000 0.007795 0.989919 -0.141417
11920.00000000 -7380.00000000 390.00000000 165 190 78 97.000000 1.000000 4.000000 1.000000 -60.708740 114.000000 96.000000 0.175734 0.960590 -0.215373
11920.00000000 -7380.00000000 390.00000000 165 190 78 97.000000 1.000000 4.000000 1.000000 -60.708740 114.000000 96.000000 0.175734 0.960590 -0.215373
11920.00000000 -7400.00000000 370.00000000 165 190 78 97.000000 1.000000 4.000000 1.000000 -60.708740 114.000000 96.000000 0.242609 0.774783 -0.583826
11940.00000000 -7440.00000000 340.00000000 165 190 78 97.000000 1.000000 4.000000 1.000000 -60.708740 114.000000 96.000000 0.360857 -0.446699 0.818683
11870.00000000 -7400.00000000 390.00000000 165 190 78 97.000000 1.000000 4.000000 1.000000 -60.708740 114.000000 96.000000 0.093160 0.896842 -0.432431
11880.00000000 -7400.00000000 390.00000000 165 190 78 97.000000 1.000000 4.000000 1.000000 -60.708740 114.000000 96.000000 0.208857 0.932149 -0.295765
11870.00000000 -7390.00000000 400.00000000 165 190 78 97.000000 1.000000 4.000000 1.000000 -60.708740 114.000000 96.000000 0.253202 0.815529 -0.520385
11900.00000000 -7410.00000000 340.00000000 165 190 78 97.000000 1.000000 4.000000 1.000000 -60.708740 114.000000 96.000000 0.035328 -0.719269 0.693833
11790.00000000 -7320.00000000 480.00000000 165 190 78 97.000000 1.000000 4.000000 1.000000 -60.708740 114.000000 96.000000 0.256928 0.943900 -0.207466
11840.00000000 -7320.00000000 430.00000000 165 190 78 97.000000 1.000000 4.000000 1.000000 -60.708740 114.000000 96.000000 0.161142 0.935177 -0.315399
11800.00000000 -7360.00000000 350.00000000 165 190 78 97.000000 1.000000 4.000000 1.000000 -60.708740 114.000000 96.000000 0.308534 -0.564313 0.765740
11840.00000000 -7380.00000000 430.00000000 165 190 78 97.000000 1.000000 4.000000 1.000000 -60.708740 114.000000 96.000000 -0.187074 -0.795444 0.576431
11840.00000000 -7380.00000000 430.00000000 165 190 78 97.000000 1.000000 4.000000 1.000000 -60.708740 114.000000 96.000000 -0.187074 -0.795444 0.576431
11800.00000000 -7370.00000000 460.00000000 165 190 78 97.000000 1.000000 4.000000 1.000000 -60.708740 114.000000 96.000000 0.304770 0.943847 -0.127547
11820.00000000 -7410.00000000 440.00000000 165 190 78 97.000000 1.000000 4.000000 1.000000 -60.708740 114.000000 96.000000 -0.001234 0.949175 -0.314746
11810.00000000 -7410.00000000 440.00000000 165 190 78 97.000000 1.000000 4.000000 1.000000 -60.708740 114.000000 96.000000 0.243635 0.841230 -0.482673
11830.00000000 -7390.00000000 360.00000000 165 190 78 97.000000 1.000000 4.000000 1.000000 -60.708740 114.000000 96.000000 -0.099920 0.818182 -0.566211
11800.00000000 -7400.00000000 400.00000000 165 190 78 97.000000 1.000000 4.000000 1.000000 -60.708740 114.000000 96.000000 0.159668 -0.688852 0.707099
12120.00000000 -7420.00000000 80.00000000 165 190 78 97.000000 1.000000 4.000000 1.000000 -60.708740 114.000000 96.000000 0.417443 -0.324333 0.848852
11910.00000000 -7250.00000000 150.00000000 165 190 78 97.000000 1.000000 4.000000 1.000000 -60.708740 114.000000 96.000000 0.288706 -0.330161 0.898689
11840.00000000 -7160.00000000 230.00000000 165 190 78 97.000000 1.000000 4.000000 1.000000 -60.708740 114.000000 96.000000 -0.428441 0.615155 -0.661833
11840.00000000 -7220.00000000 180.00000000 165 190 78 97.000000 1.000000 4.000000 1.000000 -60.708740 114.000000 96.000000 0.139201 -0.443434 0.885432
11930.00000000 -7260.00000000 120.00000000 165 190 78 97.000000 1.000000 4.000000 1.000000 -60.708740 114.000000 96.000000 0.222963 0.753083 -0.618994
11890.00000000 -7290.00000000 210.00000000 165 190 78 97.000000 1.000000 4.000000 1.000000 -60.708740 114.000000 96.000000 0.326105 0.673301 -0.663567
11870.00000000 -7320.00000000 220.00000000 165 190 78 97.000000 1.000000 4.000000 1.000000 -60.708740 114.000000 96.000000 0.268347 0.792488 -0.547680
11870.00000000 -7330.00000000 170.00000000 165 190 78 97.000000 1.000000 4.000000 1.000000 -60.708740 114.000000 96.000000 0.303511 -0.333413 0.892590
11850.00000000 -7350.00000000 210.00000000 165 190 78 97.000000 1.000000 4.000000 1.000000 -60.708740 114.000000 96.000000 0.060940 -0.568299 0.820562
11850.00000000 -7340.00000000 170.00000000 165 190 78 97.000000 1.000000 4.000000 1.000000 -60.708740 114.000000 96.000000 0.368456 -0.368456 0.853511
11810.00000000 -7400.00000000 290.00000000 165 190 78 97.000000 1.000000 4.000000 1.000000 -60.708740 114.000000 96.000000 0.026395 0.812698 -0.582087
11930.00000000 -7290.00000000 140.00000000 165 190 78 97.000000 1.000000 4.000000 1.000000 -60.708740 114.000000 96.000000 0.076456 -0.374232 0.924178
11880.00000000 -7280.00000000 140.00000000 165 190 78 97.000000 1.000000 4.000000 1.000000 -60.708740 114.000000 96.000000 0.175695 0.658474 -0.731808
11880.00000000 -7280.00000000 130.00000000 165 190 78 97.000000 1.000000 4.000000 1.000000 -60.708740 114.000000 96.000000 0.228890 0.602588 -0.764524
11940.00000000 -7470.00000000 340.00000000 165 190 78 97.000000 1.000000 4.000000 1.000000 -60.708740 114.000000 96.000000 0.370572 -0.476449 0.797291
11860.00000000 -7480.00000000 340.00000000 165 190 78 97.000000 1.000000 4.000000 1.000000 -60.708740 114.000000 96.000000 0.400477 -0.329349 0.855072
12020.00000000 -7560.00000000 300.00000000 165 190 78 97.000000 1.000000 4.000000 1.000000 -60.708740 114.000000 96.000000 0.197185 -0.155944 0.967884
11970.00000000 -7540.00000000 240.00000000 165 190 78 97.000000 1.000000 4.000000 1.000000 -60.708740 114.000000 96.000000 0.022495 0.427409 0.903778
11940.00000000 -7480.00000000 290.00000000 165 190 78 97.000000 1.000000 4.000000 1.000000 -60.708740 114.000000 96.000000 0.021058 -0.007019 0.999754
11940.00000000 -7480.00000000 290.00000000 165 190 78 97.000000 1.000000 4.000000 1.000000 -60.708740 114.000000 96.000000 0.021058 -0.007019 0.999754
11930.00000000 -7500.00000000 290.00000000 165 190 78 97.000000 1.000000 4.000000 1.000000 -60.708740 114.000000 96.000000 -0.040092 0.145476 0.988549
11920.00000000 -7510.00000000 290.00000000 165 190 78 97.000000 1.000000 4.000000 1.000000 -60.708740 114.000000 96.000000 0.156261 -0.289423 0.944361
11910.00000000 -7460.00000000 300.00000000 165 190 78 97.000000 1.000000 4.000000 1.000000 -60.708740 114.000000 96.000000 0.433255 -0.372949 0.820487
11930.00000000 -7480.00000000 230.00000000 165 190 78 97.000000 1.000000 4.000000 1.000000 -60.708740 114.000000 96.000000 -0.088274 0.130645 0.987491
11930.00000000 -7510.00000000 200.00000000 165 190 78 97.000000 1.000000 4.000000 1.000000 -60.708740 114.000000 96.000000 0.246194 0.240630 0.938875
11890.00000000 -7510.00000000 220.00000000 165 190 78 97.000000 1.000000 4.000000 1.000000 -60.708740 114.000000 96.000000 0.311013 0.006195 0.950386
11880.00000000 -7510.00000000 180.00000000 165 190 78 97.000000 1.000000 4.000000 1.000000 -60.708740 114.000000 96.000000 0.079951 0.205413 0.975404
11920.00000000 -7570.00000000 280.00000000 165 190 78 97.000000 1.000000 4.000000 1.000000 -60.708740 114.000000 96.000000 0.212650 -0.180951 0.960227
11920.00000000 -7540.00000000 270.00000000 165 190 78 97.000000 1.000000 4.000000 1.000000 -60.708740 114.000000 96.000000 0.174950 -0.010291 0.984524
11930.00000000 -7540.00000000 230.00000000 165 190 78 97.000000 1.000000 4.000000 1.000000 -60.708740 114.000000 96.000000 -0.096849 0.264720 0.959450
11740.00000000 -7440.00000000 690.00000000 165 190 78 97.000000 1.000000 4.000000 1.000000 -60.708740 114.000000 96.000000 -0.195353 0.182242 0.963652
11740.00000000 -7430.00000000 690.00000000 165 190 78 97.000000 1.000000 4.000000 1.000000 -60.708740 114.000000 96.000000 -0.369009 0.372123 0.851679
11710.00000000 -7440.00000000 690.00000000 165 190 78 97.000000 1.000000 4.000000 1.000000 -60.708740 114.000000 96.000000 -0.392684 0.516518 0.760926
11770.00000000 -7480.00000000 700.00000000 165 190 78 97.000000 1.000000 4.000000 1.000000 -60.708740 114.000000 96.000000 -0.008951 0.374681 0.927111
11770.00000000 -7480.00000000 700.00000000 165 190 78 97.000000 1.000000 4.000000 1.000000 -60.708740 114.000000 96.000000 -0.008951 0.374681 0.927111
11780.00000000 -7450.00000000 700.00000000 165 190 78 97.000000 1.000000 4.000000 1.000000 -60.708740 114.000000 96.000000 -0.137934 0.021307 0.990212
11780.00000000 -7470.00000000 700.00000000 165 190 78 97.000000 1.000000 4.000000 1.000000 -60.708740 114.000000 96.000000 -0.099755 0.145426 0.984327
11770.00000000 -7470.00000000 690.00000000 165 190 78 97.000000 1.000000 4.000000 1.000000 -60.708740 114.000000 96.000000 -0.127260 0.453274 0.882240
11710.00000000 -7480.00000000 660.00000000 165 190 78 97.000000 1.000000 4.000000 1.000000 -60.708740 114.000000 96.000000 -0.066122 0.086295 0.994073
11720.00000000 -7450.00000000 680.00000000 165 190 78 97.000000 1.000000 4.000000 1.000000 -60.708740 114.000000 96.000000 -0.293203 0.209030 0.932919
11720.00000000 -7470.00000000 690.00000000 165 190 78 97.000000 1.000000 4.000000 1.000000 -60.708740 114.000000 96.000000 -0.291856 0.059901 0.954585
11740.00000000 -7500.00000000 700.00000000 165 190 78 97.000000 1.000000 4.000000 1.000000 -60.708740 114.000000 96.000000 -0.239999 0.063419 0.968699
11740.00000000 -7490.00000000 700.00000000 165 190 78 97.000000 1.000000 4.000000 1.000000 -60.708740 114.000000 96.000000 0.124846 0.134543 0.983012
11700.00000000 -7500.00000000 680.00000000 165 190 78 97.000000 1.000000 4.000000 1.000000 -60.708740 114.000000 96.000000 0.385435 0.111900 0.915925
11720.00000000 -7500.00000000 680.00000000 165 190 78 97.000000 1.000000 4.000000 1.000000 -60.708740 114.000000 96.000000 -0.322203 0.205813 0.924027
11680.00000000 -7510.00000000 660.00000000 165 190 78 97.000000 1.000000 4.000000 1.000000 -60.708740 114.000000 96.000000 -0.241906 -0.087390 0.966356
11690.00000000 -7490.00000000 680.00000000 165 190 78 97.000000 1.000000 4.000000 1.000000 -60.708740 114.000000 96.000000 0.253985 0.077080 0.964132
11690.00000000 -7530.00000000 660.00000000 165 190 78 97.000000 1.000000 4.000000 1.000000 -60.708740 114.000000 96.000000 0.093055 0.533990 0.840354
11600.00000000 -7510.00000000 700.00000000 165 190 78 97.000000 1.000000 4.000000 1.000000 -60.708740 114.000000 96.000000 0.177743 -0.137404 0.974437
11780.00000000 -7320.00000000 470.00000000 165 190 78 97.000000 1.000000 4.000000 1.000000 -60.708740 114.000000 96.000000 0.217793 0.974592 -0.052319
11770.00000000 -7320.00000000 460.00000000 165 190 78 97.000000 1.000000 4.000000 1.000000 -60.708740 114.000000 96.000000 0.183069 0.973421 -0.137617
11760.00000000 -7320.00000000 450.00000000 165 190 78 97.000000 1.000000 4.000000 1.000000 -60.708740 114.000000 96.000000 0.194151 0.965542 0.173302
11740.00000000 -7280.00000000 470.00000000 165 190 78 97.000000 1.000000 4.000000 1.000000 -60.708740 114.000000 96.000000 0.032315 0.992866 -0.114776
11720.00000000 -7350.00000000 330.00000000 165 190 78 97.000000 1.000000 4.000000 1.000000 -60.708740 114.000000 96.000000 -0.179373 -0.734356 0.654635
11760.00000000 -7380.00000000 400.00000000 165 190 78 97.000000 1.000000 4.000000 1.000000 -60.708740 114.000000 96.000000 0.045977 0.837334 -0.544755
11720.00000000 -7380.00000000 370.00000000 165 190 78 97.000000 1.000000 4.000000 1.000000 -60.708740 114.000000 96.000000 0.193488 0.844448 -0.499469
11730.00000000 -7420.00000000 390.00000000 165 190 78 97.000000 1.000000 4.000000 1.000000 -60.708740 114.000000 96.000000 0.234195 0.878605 -0.416181
11570.00000000 -7400.00000000 330.00000000 165 190 78 97.000000 1.000000 4.000000 1.000000 -60.708740 114.000000 96.000000 0.006924 -0.671622 0.740862
11460.00000000 -7380.00000000 340.00000000 165 190 78 0.000000 0.000000 0.000000 0.000000 -60.708740 0.000000 96.000000 -0.146033 -0.523654 0.839322
11480.00000000 -7390.00000000 340.00000000 165 190 78 0.000000 0.000000 0.000000 0.000000 -60.708740 0.000000 96.000000 0.340521 0.653345 -0.676155
11780.00000000 -7170.00000000 240.00000000 165 190 78 97.000000 1.000000 4.000000 1.000000 -60.708740 114.000000 96.000000 -0.253818 0.861767 -0.439243
11760.00000000 -7160.00000000 250.00000000 165 190 78 97.000000 1.000000 4.000000 1.000000 -60.708740 114.000000 96.000000 0.170490 0.798134 -0.577855
11720.00000000 -7190.00000000 270.00000000 165 190 78 97.000000 1.000000 4.000000 1.000000 -60.708740 114.000000 96.000000 -0.212457 0.951319 -0.223282
11660.00000000 -7230.00000000 260.00000000 165 190 78 97.000000 1.000000 4.000000 1.000000 -60.708740 114.000000 96.000000 0.343241 0.730404 -0.590505
11700.00000000 -7390.00000000 280.00000000 165 190 78 97.000000 1.000000 4.000000 1.000000 -60.708740 114.000000 96.000000 -0.091157 0.803048 -0.588902
11730.00000000 -7420.00000000 300.00000000 165 190 78 97.000000 1.000000 4.000000 1.000000 -60.708740 114.000000 96.000000 0.079298 -0.598341 0.797308
11690.00000000 -7380.00000000 300.00000000 165 190 78 97.000000 1.000000 4.000000 1.000000 -60.708740 114.000000 96.000000 0.017406 0.879649 -0.475305
11690.00000000 -7380.00000000 300.00000000 165 190 78 97.000000 1.000000 4.000000 1.000000 -60.708740 114.000000 96.000000 0.017406 0.879649 -0.475305
11690.00000000 -7390.00000000 290.00000000 165 190 78 97.000000 1.000000 4.000000 1.000000 -60.708740 114.000000 96.000000 0.244836 -0.677642 0.693438
11620.00000000 -7370.00000000 190.00000000 165 190 78 97.000000 1.000000 4.000000 1.000000 -60.708740 114.000000 96.000000 0.122895 -0.605590 0.786230
11530.00000000 -7330.00000000 150.00000000 165 190 78 97.000000 1.000000 4.000000 1.000000 -60.708740 114.000000 96.000000 -0.130654 0.826496 -0.547572
11470.00000000 -7380.00000000 170.00000000 165 190 78 0.000000 0.000000 0.000000 0.000000 -60.708740 0.000000 96.000000 -0.012443 -0.157228 0.987484
11500.00000000 -7360.00000000 110.00000000 165 190 78 0.000000 0.000000 0.000000 0.000000 -60.708740 0.000000 96.000000 -0.009639 -0.596220 0.802763
