//X Y Z R G B PointSourceId ScanDirectionFlag NumberOfReturns ReturnNumber GpsTime Intensity Classification Nx Ny Nz
-10540.00000000 -16380.00000000 970.00000000 83 219 104 0.000000 0.000000 1.000000 1.000000 1686050048.338563 771.000000 57.000000 0.649067 0.442166 -0.619033
-10540.00000000 -16410.00000000 920.00000000 83 219 104 0.000000 0.000000 1.000000 1.000000 1686050358.307008 5397.000000 57.000000 0.853171 0.404134 -0.329810
-10560.00000000 -16380.00000000 930.00000000 83 219 104 0.000000 0.000000 1.000000 1.000000 1686050955.786866 2827.000000 57.000000 0.854364 0.519159 0.023165
-10540.00000000 -16410.00000000 930.00000000 83 219 104 0.000000 0.000000 1.000000 1.000000 1686050060.835175 1285.000000 57.000000 0.631222 0.775502 -0.012486
-10540.00000000 -16410.00000000 920.00000000 83 219 104 0.000000 0.000000 1.000000 1.000000 1686050374.260865 2570.000000 57.000000 0.853171 0.404134 -0.329810
-10570.00000000 -16410.00000000 870.00000000 83 219 104 0.000000 0.000000 1.000000 1.000000 1686050351.927796 1799.000000 57.000000 0.523000 0.737480 -0.427310
-10550.00000000 -16390.00000000 880.00000000 83 219 104 0.000000 0.000000 1.000000 1.000000 1686050041.378480 771.000000 57.000000 0.655665 0.755050 -0.001380
-10570.00000000 -16410.00000000 850.00000000 83 219 104 0.000000 0.000000 1.000000 1.000000 1686050362.141480 1542.000000 57.000000 0.715247 0.681980 0.152727
-10570.00000000 -16410.00000000 850.00000000 83 219 104 0.000000 0.000000 1.000000 1.000000 1686050363.202210 1542.000000 57.000000 0.715247 0.681980 0.152727
-10540.00000000 -16400.00000000 840.00000000 83 219 104 0.000000 0.000000 1.000000 1.000000 1686050048.439240 1542.000000 57.000000 0.634645 0.758257 -0.149239
-10540.00000000 -16420.00000000 880.00000000 83 219 104 0.000000 0.000000 1.000000 1.000000 1686050940.179322 2313.000000 57.000000 0.705013 0.461675 -0.538343
-10540.00000000 -16430.00000000 870.00000000 83 219 104 0.000000 0.000000 1.000000 1.000000 1686050048.338105 257.000000 57.000000 0.722532 0.684271 -0.098594
-10550.00000000 -16430.00000000 840.00000000 83 219 104 0.000000 0.000000 1.000000 1.000000 1686050046.769868 3341.000000 57.000000 0.608436 0.770890 0.188508
-10570.00000000 -16420.00000000 840.00000000 83 219 104 0.000000 0.000000 1.000000 1.000000 1686050358.510072 1028.000000 57.000000 0.822740 0.534856 -0.192427
-10560.00000000 -16430.00000000 850.00000000 83 219 104 0.000000 0.000000 1.000000 1.000000 1686050362.030457 3084.000000 57.000000 0.956075 0.292169 0.023622
-10540.00000000 -16440.00000000 830.00000000 83 219 104 0.000000 0.000000 1.000000 1.000000 1686050050.734132 1285.000000 57.000000 0.861397 0.368289 -0.349798
-10560.00000000 -16420.00000000 850.00000000 83 219 104 0.000000 0.000000 1.000000 1.000000 1686050047.166413 771.000000 57.000000 0.678724 0.715329 -0.166249
-10580.00000000 -16400.00000000 840.00000000 83 219 104 0.000000 0.000000 1.000000 1.000000 1686050379.245423 1285.000000 57.000000 0.760890 0.482715 -0.433626
-10580.00000000 -16400.00000000 840.00000000 83 219 104 0.000000 0.000000 1.000000 1.000000 1686050059.369538 514.000000 57.000000 0.760890 0.482715 -0.433626
-10590.00000000 -16410.00000000 830.00000000 83 219 104 0.000000 0.000000 1.000000 1.000000 1686050044.072968 1028.000000 57.000000 0.833684 0.531603 -0.149560
-10450.00000000 -16380.00000000 790.00000000 83 219 104 0.000000 0.000000 0.000000 0.000000 -60.708740 0.000000 57.000000 0.671386 0.708772 0.216526
-10460.00000000 -16410.00000000 800.00000000 83 219 104 0.000000 0.000000 0.000000 0.000000 -60.708740 0.000000 57.000000 0.871734 0.489933 0.006675
-10470.00000000 -16390.00000000 770.00000000 83 219 104 0.000000 0.000000 0.000000 0.000000 -60.708740 0.000000 57.000000 0.931919 0.280563 -0.229808
-10460.00000000 -16440.00000000 820.00000000 83 219 104 0.000000 0.000000 0.000000 0.000000 -60.708740 0.000000 57.000000 0.888565 0.458313 0.020043
-10480.00000000 -16450.00000000 820.00000000 83 219 104 0.000000 0.000000 1.000000 1.000000 1686050363.291444 14906.000000 57.000000 0.903167 0.396478 -0.164603
-10620.00000000 -16340.00000000 920.00000000 83 219 104 0.000000 0.000000 1.000000 1.000000 1686050355.795533 1542.000000 57.000000 0.568582 0.746769 -0.345037
-10520.00000000 -15940.00000000 500.00000000 83 219 104 0.000000 0.000000 1.000000 1.000000 1686050375.377015 257.000000 57.000000 0.541562 0.406583 0.735800
-10510.00000000 -16010.00000000 500.00000000 83 219 104 0.000000 0.000000 1.000000 1.000000 1686050374.358460 514.000000 57.000000 0.390558 0.484551 0.782736
-10530.00000000 -16020.00000000 510.00000000 83 219 104 0.000000 0.000000 1.000000 1.000000 1686050058.331208 257.000000 57.000000 0.362111 0.457823 0.811957
-10530.00000000 -16000.00000000 490.00000000 83 219 104 0.000000 0.000000 1.000000 1.000000 1686050384.048524 514.000000 57.000000 0.509911 0.577226 0.637810
-10520.00000000 -16010.00000000 490.00000000 83 219 104 0.000000 0.000000 1.000000 1.000000 1686050374.259705 5654.000000 57.000000 0.412587 0.451419 0.791197
-10560.00000000 -15930.00000000 520.00000000 83 219 104 0.000000 0.000000 1.000000 1.000000 1686050025.110017 1542.000000 57.000000 0.645392 0.625380 0.438600
-10550.00000000 -15910.00000000 500.00000000 83 219 104 0.000000 0.000000 1.000000 1.000000 1686050351.826844 1028.000000 57.000000 0.606862 0.749466 0.264611
-10570.00000000 -15930.00000000 500.00000000 83 219 104 0.000000 0.000000 1.000000 1.000000 1686050364.529664 2056.000000 57.000000 0.322423 0.652946 0.685350
-10550.00000000 -15920.00000000 510.00000000 83 219 104 0.000000 0.000000 1.000000 1.000000 1686050950.584107 1028.000000 57.000000 0.375391 0.391098 0.840311
-10540.00000000 -15930.00000000 490.00000000 83 219 104 0.000000 0.000000 1.000000 1.000000 1686050054.663300 5140.000000 57.000000 0.727942 0.329114 0.601485
-10600.00000000 -15930.00000000 490.00000000 83 219 104 0.000000 0.000000 1.000000 1.000000 1686050374.158509 771.000000 57.000000 0.801771 0.457925 0.384015
-10480.00000000 -15870.00000000 470.00000000 83 219 104 0.000000 0.000000 1.000000 1.000000 1686050372.977540 1028.000000 57.000000 0.657491 0.182381 0.731056
-10490.00000000 -15870.00000000 470.00000000 83 219 104 0.000000 0.000000 1.000000 1.000000 1686050364.726258 4626.000000 57.000000 0.444631 0.299003 0.844334
-10500.00000000 -15880.00000000 480.00000000 83 219 104 0.000000 0.000000 1.000000 1.000000 1686050369.340882 10280.000000 57.000000 0.344789 0.465545 0.815100
-10500.00000000 -15880.00000000 480.00000000 83 219 104 0.000000 0.000000 1.000000 1.000000 1686050376.749024 1542.000000 57.000000 0.344789 0.465545 0.815100
-10480.00000000 -15900.00000000 400.00000000 83 219 104 0.000000 0.000000 0.000000 0.000000 -60.708740 0.000000 57.000000 0.414927 0.122368 0.901588
-10480.00000000 -15900.00000000 400.00000000 83 219 104 0.000000 0.000000 1.000000 1.000000 1686050369.240479 5911.000000 57.000000 0.414927 0.122368 0.901588
-10480.00000000 -15890.00000000 390.00000000 83 219 104 0.000000 0.000000 0.000000 0.000000 -60.708740 0.000000 57.000000 0.351130 0.690827 0.632033
-10480.00000000 -15950.00000000 370.00000000 83 219 104 0.000000 0.000000 1.000000 1.000000 1686050956.999268 3084.000000 57.000000 0.554593 0.671878 0.490924
-10450.00000000 -15920.00000000 400.00000000 83 219 104 0.000000 0.000000 0.000000 0.000000 -60.708740 0.000000 57.000000 0.445806 0.646169 0.619454
-10490.00000000 -15910.00000000 360.00000000 83 219 104 0.000000 0.000000 1.000000 1.000000 1686050376.748780 2827.000000 57.000000 0.234929 0.388593 0.890957
-10490.00000000 -15930.00000000 400.00000000 83 219 104 0.000000 0.000000 1.000000 1.000000 1686050374.157044 2313.000000 57.000000 0.419891 0.579217 0.698712
-10520.00000000 -15900.00000000 370.00000000 83 219 104 0.000000 0.000000 1.000000 1.000000 1686050360.793031 1028.000000 57.000000 0.501727 0.282905 0.817456
-10530.00000000 -15870.00000000 340.00000000 83 219 104 0.000000 0.000000 1.000000 1.000000 1686050050.831849 257.000000 57.000000 0.459713 0.590104 0.663658
-10510.00000000 -15910.00000000 370.00000000 83 219 104 0.000000 0.000000 1.000000 1.000000 1686050367.041627 7967.000000 57.000000 0.409102 0.337548 0.847760
-10520.00000000 -15910.00000000 370.00000000 83 219 104 0.000000 0.000000 1.000000 1.000000 1686050385.272279 514.000000 57.000000 0.561030 0.483993 0.671562
-10480.00000000 -15960.00000000 370.00000000 83 219 104 0.000000 0.000000 0.000000 0.000000 -60.708740 0.000000 57.000000 0.414300 0.546348 0.727914
-10520.00000000 -15970.00000000 390.00000000 83 219 104 0.000000 0.000000 1.000000 1.000000 1686050374.357911 2570.000000 57.000000 0.760134 0.511660 0.400501
-10510.00000000 -15980.00000000 380.00000000 83 219 104 0.000000 0.000000 1.000000 1.000000 1686050366.844849 5654.000000 57.000000 0.602344 0.507859 0.615842
-10560.00000000 -15880.00000000 480.00000000 83 219 104 0.000000 0.000000 1.000000 1.000000 1686050045.426636 1542.000000 57.000000 0.273378 0.507702 0.817009
-10570.00000000 -15910.00000000 480.00000000 83 219 104 0.000000 0.000000 1.000000 1.000000 1686050055.929780 257.000000 57.000000 0.523166 0.499766 0.690312
-10600.00000000 -15930.00000000 480.00000000 83 219 104 0.000000 0.000000 1.000000 1.000000 1686050369.242799 771.000000 57.000000 0.778506 0.453451 0.433948
-10610.00000000 -15920.00000000 480.00000000 83 219 104 0.000000 0.000000 1.000000 1.000000 1686050370.592835 7710.000000 57.000000 0.801945 0.495835 0.333214
-10540.00000000 -15880.00000000 370.00000000 83 219 104 0.000000 0.000000 1.000000 1.000000 1686050052.060487 1285.000000 57.000000 0.532247 0.372735 0.760120
-10570.00000000 -15890.00000000 400.00000000 83 219 104 0.000000 0.000000 1.000000 1.000000 1686050045.628327 1028.000000 57.000000 0.476988 0.762198 0.437649
-10580.00000000 -15890.00000000 400.00000000 83 219 104 0.000000 0.000000 1.000000 1.000000 1686050379.148743 1285.000000 57.000000 0.478523 0.708614 0.518539
-10590.00000000 -15900.00000000 400.00000000 83 219 104 0.000000 0.000000 1.000000 1.000000 1686050374.157838 771.000000 57.000000 0.687521 0.584310 0.431157
-10470.00000000 -16050.00000000 500.00000000 83 219 104 0.000000 0.000000 0.000000 0.000000 -60.708740 0.000000 57.000000 0.529747 0.281379 0.800122
-10470.00000000 -16100.00000000 550.00000000 83 219 104 0.000000 0.000000 0.000000 0.000000 -60.708740 0.000000 57.000000 0.482052 0.660092 0.576111
-10490.00000000 -16120.00000000 540.00000000 83 219 104 0.000000 0.000000 1.000000 1.000000 1686050363.296204 7710.000000 57.000000 0.863156 0.430817 0.263361
-10490.00000000 -16110.00000000 540.00000000 83 219 104 0.000000 0.000000 1.000000 1.000000 1686050045.425874 3598.000000 57.000000 0.828093 0.291626 0.478766
-10490.00000000 -16110.00000000 520.00000000 83 219 104 0.000000 0.000000 1.000000 1.000000 1686050365.794801 6168.000000 57.000000 0.512135 0.663257 0.545718
-10450.00000000 -16110.00000000 490.00000000 83 219 104 0.000000 0.000000 0.000000 0.000000 -60.708740 0.000000 57.000000 0.421834 0.467437 0.776891
-10510.00000000 -16050.00000000 560.00000000 83 219 104 0.000000 0.000000 1.000000 1.000000 1686050048.437135 2313.000000 57.000000 0.704018 0.578123 0.412472
-10510.00000000 -16060.00000000 500.00000000 83 219 104 0.000000 0.000000 1.000000 1.000000 1686050370.492066 5397.000000 57.000000 0.427530 0.831397 0.354961
-10530.00000000 -16110.00000000 530.00000000 83 219 104 0.000000 0.000000 1.000000 1.000000 1686050375.376649 1028.000000 57.000000 0.893449 0.247439 0.374863
-10500.00000000 -16100.00000000 530.00000000 83 219 104 0.000000 0.000000 1.000000 1.000000 1686050027.712586 771.000000 57.000000 0.692396 0.692396 0.202917
-10520.00000000 -16080.00000000 530.00000000 83 219 104 0.000000 0.000000 1.000000 1.000000 1686049634.856580 771.000000 57.000000 0.625695 0.474723 0.618986
-10500.00000000 -16100.00000000 540.00000000 83 219 104 0.000000 0.000000 1.000000 1.000000 1686050942.869019 1542.000000 57.000000 0.623245 0.449472 0.639954
-10500.00000000 -16100.00000000 540.00000000 83 219 104 0.000000 0.000000 1.000000 1.000000 1686050047.070222 2827.000000 57.000000 0.623245 0.449472 0.639954
-10500.00000000 -16110.00000000 560.00000000 83 219 104 0.000000 0.000000 1.000000 1.000000 1686050055.832978 1799.000000 57.000000 0.579607 0.449321 0.679828
-10530.00000000 -16110.00000000 520.00000000 83 219 104 0.000000 0.000000 1.000000 1.000000 1686050360.792176 1799.000000 57.000000 0.433626 0.482715 0.760890
-10500.00000000 -16080.00000000 520.00000000 83 219 104 0.000000 0.000000 1.000000 1.000000 1686050368.085938 5911.000000 57.000000 0.411195 0.440220 0.798201
-10460.00000000 -16180.00000000 580.00000000 83 219 104 0.000000 0.000000 0.000000 0.000000 -60.708740 0.000000 57.000000 0.561340 0.697927 0.444741
-10480.00000000 -16170.00000000 580.00000000 83 219 104 0.000000 0.000000 1.000000 1.000000 1686050354.428956 3855.000000 57.000000 0.413080 0.762483 0.497981
-10520.00000000 -16130.00000000 580.00000000 83 219 104 0.000000 0.000000 1.000000 1.000000 1686050304.983887 2827.000000 57.000000 0.660152 0.549287 0.512332
-10510.00000000 -16140.00000000 580.00000000 83 219 104 0.000000 0.000000 1.000000 1.000000 1686050374.158692 3341.000000 57.000000 0.675550 0.737090 0.018182
-10480.00000000 -16140.00000000 550.00000000 83 219 104 0.000000 0.000000 1.000000 1.000000 1686050054.460725 3084.000000 57.000000 0.394769 0.675566 0.622710
-10470.00000000 -16140.00000000 550.00000000 83 219 104 0.000000 0.000000 0.000000 0.000000 -60.708740 0.000000 57.000000 0.410463 0.639790 0.649761
-10470.00000000 -16140.00000000 550.00000000 83 219 104 0.000000 0.000000 0.000000 0.000000 -60.708740 0.000000 57.000000 0.410463 0.639790 0.649761
-10500.00000000 -16160.00000000 560.00000000 83 219 104 0.000000 0.000000 1.000000 1.000000 1686050375.279114 3341.000000 57.000000 0.902151 0.421372 0.092564
-10500.00000000 -16130.00000000 560.00000000 83 219 104 0.000000 0.000000 1.000000 1.000000 1686050358.309632 257.000000 57.000000 0.405823 0.627784 0.664225
-10510.00000000 -16150.00000000 550.00000000 83 219 104 0.000000 0.000000 1.000000 1.000000 1686050937.562012 1799.000000 57.000000 0.656558 0.735772 0.166044
-10530.00000000 -16130.00000000 530.00000000 83 219 104 0.000000 0.000000 1.000000 1.000000 1686050949.199342 1028.000000 57.000000 0.583924 0.634408 0.506517
-10520.00000000 -16130.00000000 530.00000000 83 219 104 0.000000 0.000000 1.000000 1.000000 1686050052.060181 257.000000 57.000000 0.521509 0.789440 0.323750
-10500.00000000 -16130.00000000 560.00000000 83 219 104 0.000000 0.000000 1.000000 1.000000 1686050363.295960 6425.000000 57.000000 0.405823 0.627784 0.664225
-10500.00000000 -16130.00000000 560.00000000 83 219 104 0.000000 0.000000 1.000000 1.000000 1686050054.562653 3341.000000 57.000000 0.405823 0.627784 0.664225
-10500.00000000 -16160.00000000 560.00000000 83 219 104 0.000000 0.000000 1.000000 1.000000 1686050371.546448 257.000000 57.000000 0.902151 0.421372 0.092564
-10530.00000000 -16130.00000000 540.00000000 83 219 104 0.000000 0.000000 1.000000 1.000000 1686050060.730897 1285.000000 57.000000 0.592106 0.740535 0.317833
-10500.00000000 -16160.00000000 550.00000000 83 219 104 0.000000 0.000000 1.000000 1.000000 1686050351.827210 1542.000000 57.000000 0.833759 0.548786 0.060663
-10550.00000000 -16040.00000000 500.00000000 83 219 104 0.000000 0.000000 1.000000 1.000000 1686050045.426179 1028.000000 57.000000 0.842950 0.520430 0.136338
-10550.00000000 -16040.00000000 490.00000000 83 219 104 0.000000 0.000000 1.000000 1.000000 1686050368.086060 1799.000000 57.000000 0.766252 0.582983 0.270163
-10570.00000000 -16090.00000000 530.00000000 83 219 104 0.000000 0.000000 1.000000 1.000000 1686050356.927064 3084.000000 57.000000 0.693322 0.512891 0.506209
-10540.00000000 -16110.00000000 530.00000000 83 219 104 0.000000 0.000000 1.000000 1.000000 1686050954.397706 2827.000000 57.000000 0.493636 0.611570 0.618309
-10600.00000000 -16060.00000000 520.00000000 83 219 104 0.000000 0.000000 1.000000 1.000000 1686050370.392152 514.000000 57.000000 0.681770 0.731555 -0.004149
-10600.00000000 -16070.00000000 520.00000000 83 219 104 0.000000 0.000000 1.000000 1.000000 1686050048.337373 1285.000000 57.000000 0.546726 0.483192 0.683825
-10580.00000000 -16080.00000000 540.00000000 83 219 104 0.000000 0.000000 1.000000 1.000000 1686050045.628236 1285.000000 57.000000 0.844322 0.318759 0.430713
-10600.00000000 -16080.00000000 560.00000000 83 219 104 0.000000 0.000000 1.000000 1.000000 1686050349.325623 2827.000000 57.000000 0.508754 0.676660 0.532261
-10590.00000000 -16080.00000000 520.00000000 83 219 104 0.000000 0.000000 1.000000 1.000000 1686050054.663209 2827.000000 57.000000 0.717805 0.661751 0.216431
-10560.00000000 -16140.00000000 560.00000000 83 219 104 0.000000 0.000000 1.000000 1.000000 1686050041.379243 257.000000 57.000000 0.456013 0.797621 0.394782
-10550.00000000 -16180.00000000 560.00000000 83 219 104 0.000000 0.000000 1.000000 1.000000 1686050045.425904 1285.000000 57.000000 0.408116 0.874965 0.260532
-10650.00000000 -16120.00000000 540.00000000 83 219 104 0.000000 0.000000 1.000000 1.000000 1686049994.909974 3855.000000 57.000000 0.566634 0.783242 0.255848
-10630.00000000 -16080.00000000 520.00000000 83 219 104 0.000000 0.000000 1.000000 1.000000 1686050055.833161 1542.000000 57.000000 0.853061 0.503087 0.138531
-10660.00000000 -16140.00000000 570.00000000 83 219 104 0.000000 0.000000 1.000000 1.000000 1686050950.373170 771.000000 57.000000 0.426475 0.783221 0.452420
-10630.00000000 -16150.00000000 520.00000000 83 219 104 0.000000 0.000000 1.000000 1.000000 1686050466.437562 1028.000000 57.000000 0.768157 0.634058 0.088914
-10670.00000000 -16150.00000000 540.00000000 83 219 104 0.000000 0.000000 1.000000 1.000000 1686050369.342652 4883.000000 57.000000 0.656297 0.449221 0.606198
-10490.00000000 -16210.00000000 590.00000000 83 219 104 0.000000 0.000000 1.000000 1.000000 1686050137.241273 1285.000000 57.000000 0.810750 0.378990 0.446152
-10450.00000000 -16220.00000000 600.00000000 83 219 104 0.000000 0.000000 0.000000 0.000000 -60.708740 0.000000 57.000000 0.702627 0.597315 0.386692
-10480.00000000 -16220.00000000 580.00000000 83 219 104 0.000000 0.000000 0.000000 0.000000 -60.708740 0.000000 57.000000 0.647233 0.757771 0.082904
-10480.00000000 -16230.00000000 590.00000000 83 219 104 0.000000 0.000000 0.000000 0.000000 -60.708740 0.000000 57.000000 0.527127 0.805550 0.270602
-10490.00000000 -16210.00000000 590.00000000 83 219 104 0.000000 0.000000 1.000000 1.000000 1686050364.631715 3855.000000 57.000000 0.810750 0.378990 0.446152
-10480.00000000 -16230.00000000 560.00000000 83 219 104 0.000000 0.000000 0.000000 0.000000 -60.708740 0.000000 57.000000 0.622109 0.601878 0.500722
-10550.00000000 -16210.00000000 580.00000000 83 219 104 0.000000 0.000000 1.000000 1.000000 1686050369.244385 5397.000000 57.000000 0.779487 0.619218 -0.094704
-10540.00000000 -16220.00000000 570.00000000 83 219 104 0.000000 0.000000 1.000000 1.000000 1686050369.244447 514.000000 57.000000 0.604591 0.796525 -0.004113
-10080.00000000 -15520.00000000 180.00000000 83 219 104 0.000000 0.000000 0.000000 0.000000 -60.708740 0.000000 57.000000 -0.392018 0.011644 0.919884
-9930.00000000 -15760.00000000 330.00000000 83 219 104 0.000000 0.000000 0.000000 0.000000 -60.708740 0.000000 57.000000 0.785663 0.429280 -0.445479
-10000.00000000 -15580.00000000 340.00000000 83 219 104 0.000000 0.000000 0.000000 0.000000 -60.708740 0.000000 57.000000 -0.492818 -0.045301 0.868952
-10010.00000000 -15630.00000000 320.00000000 83 219 104 0.000000 0.000000 0.000000 0.000000 -60.708740 0.000000 57.000000 -0.489940 0.004005 0.871747
-9990.00000000 -15690.00000000 340.00000000 83 219 104 0.000000 0.000000 0.000000 0.000000 -60.708740 0.000000 57.000000 -0.315309 -0.031658 0.948461
-10020.00000000 -15630.00000000 320.00000000 83 219 104 0.000000 0.000000 0.000000 0.000000 -60.708740 0.000000 57.000000 -0.248957 -0.197261 0.948213
-9980.00000000 -15730.00000000 360.00000000 83 219 104 0.000000 0.000000 0.000000 0.000000 -60.708740 0.000000 57.000000 -0.409130 -0.054998 0.910817
-9970.00000000 -15740.00000000 340.00000000 83 219 104 0.000000 0.000000 0.000000 0.000000 -60.708740 0.000000 57.000000 -0.643950 0.026656 0.764603
-9950.00000000 -15780.00000000 340.00000000 83 219 104 0.000000 0.000000 0.000000 0.000000 -60.708740 0.000000 57.000000 0.742101 0.288861 -0.604852
-9990.00000000 -15730.00000000 340.00000000 83 219 104 0.000000 0.000000 0.000000 0.000000 -60.708740 0.000000 57.000000 -0.566128 -0.186686 0.802900
-10010.00000000 -15760.00000000 320.00000000 83 219 104 0.000000 0.000000 0.000000 0.000000 -60.708740 0.000000 57.000000 -0.334798 -0.567700 0.752082
-9960.00000000 -15820.00000000 350.00000000 83 219 104 0.000000 0.000000 0.000000 0.000000 -60.708740 0.000000 57.000000 -0.194784 -0.414465 0.888976
-10020.00000000 -15820.00000000 320.00000000 83 219 104 0.000000 0.000000 0.000000 0.000000 -60.708740 0.000000 57.000000 0.734307 -0.006941 -0.678782
-10000.00000000 -15800.00000000 320.00000000 83 219 104 0.000000 0.000000 0.000000 0.000000 -60.708740 0.000000 57.000000 -0.290524 -0.031172 0.956360
-9990.00000000 -15810.00000000 320.00000000 83 219 104 0.000000 0.000000 0.000000 0.000000 -60.708740 0.000000 57.000000 -0.220022 -0.487083 0.845187
-10010.00000000 -15810.00000000 320.00000000 83 219 104 0.000000 0.000000 0.000000 0.000000 -60.708740 0.000000 57.000000 -0.134043 -0.146340 0.980111
-10030.00000000 -15730.00000000 340.00000000 83 219 104 0.000000 0.000000 0.000000 0.000000 -60.708740 0.000000 57.000000 -0.140641 -0.279942 0.949659
-10050.00000000 -15700.00000000 320.00000000 83 219 104 0.000000 0.000000 0.000000 0.000000 -60.708740 0.000000 57.000000 -0.619302 -0.185026 0.763041
-10070.00000000 -15710.00000000 320.00000000 83 219 104 0.000000 0.000000 0.000000 0.000000 -60.708740 0.000000 57.000000 -0.446083 -0.151582 0.882062
-9920.00000000 -15800.00000000 300.00000000 83 219 104 0.000000 0.000000 0.000000 0.000000 -60.708740 0.000000 57.000000 0.443026 0.613549 -0.653672
-9900.00000000 -15860.00000000 270.00000000 83 219 104 0.000000 0.000000 0.000000 0.000000 -60.708740 0.000000 57.000000 -0.281647 0.152278 0.947358
-9990.00000000 -15570.00000000 310.00000000 83 219 104 0.000000 0.000000 0.000000 0.000000 -60.708740 0.000000 57.000000 -0.686417 -0.373661 0.623866
-10020.00000000 -15560.00000000 200.00000000 83 219 104 0.000000 0.000000 0.000000 0.000000 -60.708740 0.000000 57.000000 -0.247020 -0.224940 0.942541
-10010.00000000 -15550.00000000 210.00000000 83 219 104 0.000000 0.000000 0.000000 0.000000 -60.708740 0.000000 57.000000 -0.413389 -0.435908 0.799433
-10020.00000000 -15540.00000000 200.00000000 83 219 104 0.000000 0.000000 0.000000 0.000000 -60.708740 0.000000 57.000000 -0.466245 -0.211384 0.859030
-10030.00000000 -15610.00000000 310.00000000 83 219 104 0.000000 0.000000 0.000000 0.000000 -60.708740 0.000000 57.000000 0.303667 0.599301 -0.740692
-10060.00000000 -15540.00000000 180.00000000 83 219 104 0.000000 0.000000 0.000000 0.000000 -60.708740 0.000000 57.000000 -0.525054 -0.086798 0.846631
-10030.00000000 -15580.00000000 190.00000000 83 219 104 0.000000 0.000000 0.000000 0.000000 -60.708740 0.000000 57.000000 -0.479620 -0.389186 0.786447
-10110.00000000 -15560.00000000 200.00000000 83 219 104 0.000000 0.000000 0.000000 0.000000 -60.708740 0.000000 57.000000 0.328734 0.540406 -0.774529
-10090.00000000 -15540.00000000 150.00000000 83 219 104 0.000000 0.000000 0.000000 0.000000 -60.708740 0.000000 57.000000 -0.360533 -0.585662 0.725959
-10110.00000000 -15550.00000000 180.00000000 83 219 104 0.000000 0.000000 0.000000 0.000000 -60.708740 0.000000 57.000000 -0.445433 0.161052 0.880711
-10100.00000000 -15550.00000000 190.00000000 83 219 104 0.000000 0.000000 0.000000 0.000000 -60.708740 0.000000 57.000000 -0.457386 -0.111869 0.882204
-10100.00000000 -15550.00000000 180.00000000 83 219 104 0.000000 0.000000 0.000000 0.000000 -60.708740 0.000000 57.000000 0.768164 0.221914 -0.600565
-10110.00000000 -15590.00000000 190.00000000 83 219 104 0.000000 0.000000 0.000000 0.000000 -60.708740 0.000000 57.000000 -0.588068 -0.151132 0.794566
-10110.00000000 -15580.00000000 190.00000000 83 219 104 0.000000 0.000000 0.000000 0.000000 -60.708740 0.000000 57.000000 -0.450485 -0.383153 0.806385
-10030.00000000 -15660.00000000 300.00000000 83 219 104 0.000000 0.000000 0.000000 0.000000 -60.708740 0.000000 57.000000 -0.566758 0.115695 0.815721
-10060.00000000 -15680.00000000 300.00000000 83 219 104 0.000000 0.000000 0.000000 0.000000 -60.708740 0.000000 57.000000 -0.467788 -0.175605 0.866220
-10110.00000000 -15620.00000000 150.00000000 83 219 104 0.000000 0.000000 0.000000 0.000000 -60.708740 0.000000 57.000000 0.182540 0.278614 -0.942896
-9950.00000000 -15740.00000000 310.00000000 83 219 104 0.000000 0.000000 0.000000 0.000000 -60.708740 0.000000 57.000000 0.454042 0.621585 -0.638340
-10000.00000000 -15770.00000000 290.00000000 83 219 104 0.000000 0.000000 0.000000 0.000000 -60.708740 0.000000 57.000000 -0.216343 -0.367347 0.904573
-9970.00000000 -15820.00000000 260.00000000 83 219 104 0.000000 0.000000 0.000000 0.000000 -60.708740 0.000000 57.000000 -0.690143 -0.185985 0.699365
-10010.00000000 -15810.00000000 270.00000000 83 219 104 0.000000 0.000000 0.000000 0.000000 -60.708740 0.000000 57.000000 -0.434578 0.036103 0.899910
-10030.00000000 -15740.00000000 310.00000000 83 219 104 0.000000 0.000000 0.000000 0.000000 -60.708740 0.000000 57.000000 -0.614981 -0.148858 0.774364
-10060.00000000 -15750.00000000 300.00000000 83 219 104 0.000000 0.000000 0.000000 0.000000 -60.708740 0.000000 57.000000 -0.377770 -0.008964 0.925856
-10030.00000000 -15760.00000000 280.00000000 83 219 104 0.000000 0.000000 0.000000 0.000000 -60.708740 0.000000 57.000000 -0.497560 -0.251091 0.830294
-10030.00000000 -15780.00000000 270.00000000 83 219 104 0.000000 0.000000 0.000000 0.000000 -60.708740 0.000000 57.000000 -0.309937 -0.119413 0.943228
-10040.00000000 -15800.00000000 280.00000000 83 219 104 0.000000 0.000000 0.000000 0.000000 -60.708740 0.000000 57.000000 -0.562491 0.020629 0.826546
-10060.00000000 -15800.00000000 300.00000000 83 219 104 0.000000 0.000000 0.000000 0.000000 -60.708740 0.000000 57.000000 -0.105486 -0.269574 0.957185
-10040.00000000 -15810.00000000 310.00000000 83 219 104 0.000000 0.000000 0.000000 0.000000 -60.708740 0.000000 57.000000 -0.600897 -0.122542 0.789877
-10040.00000000 -15800.00000000 280.00000000 83 219 104 0.000000 0.000000 0.000000 0.000000 -60.708740 0.000000 57.000000 -0.562491 0.020629 0.826546
-10060.00000000 -15800.00000000 260.00000000 83 219 104 0.000000 0.000000 0.000000 0.000000 -60.708740 0.000000 57.000000 -0.579901 -0.245403 0.776848
-10070.00000000 -15790.00000000 250.00000000 83 219 104 0.000000 0.000000 0.000000 0.000000 -60.708740 0.000000 57.000000 -0.435117 -0.126141 0.891494
-10070.00000000 -15800.00000000 260.00000000 83 219 104 0.000000 0.000000 0.000000 0.000000 -60.708740 0.000000 57.000000 -0.373564 0.213673 0.902659
-10030.00000000 -15830.00000000 310.00000000 83 219 104 0.000000 0.000000 0.000000 0.000000 -60.708740 0.000000 57.000000 -0.363115 -0.193757 0.911376
-10050.00000000 -15860.00000000 300.00000000 83 219 104 0.000000 0.000000 0.000000 0.000000 -60.708740 0.000000 57.000000 -0.404816 -0.032965 0.913804
-10070.00000000 -15830.00000000 280.00000000 83 219 104 0.000000 0.000000 0.000000 0.000000 -60.708740 0.000000 57.000000 -0.396357 0.154849 0.904944
-10040.00000000 -15850.00000000 280.00000000 83 219 104 0.000000 0.000000 0.000000 0.000000 -60.708740 0.000000 57.000000 -0.183970 -0.213088 0.959556
-10100.00000000 -15820.00000000 290.00000000 83 219 104 0.000000 0.000000 0.000000 0.000000 -60.708740 0.000000 57.000000 -0.441694 -0.396721 0.804686
-10080.00000000 -15790.00000000 250.00000000 83 219 104 0.000000 0.000000 0.000000 0.000000 -60.708740 0.000000 57.000000 -0.379561 -0.102769 0.919441
-10080.00000000 -15860.00000000 280.00000000 83 219 104 0.000000 0.000000 0.000000 0.000000 -60.708740 0.000000 57.000000 -0.477226 0.250122 0.842434
-10080.00000000 -15830.00000000 300.00000000 83 219 104 0.000000 0.000000 0.000000 0.000000 -60.708740 0.000000 57.000000 -0.503621 -0.402571 0.764396
-10100.00000000 -15860.00000000 280.00000000 83 219 104 0.000000 0.000000 0.000000 0.000000 -60.708740 0.000000 57.000000 0.042646 -0.339875 0.939503
-10130.00000000 -15760.00000000 330.00000000 83 219 104 0.000000 0.000000 0.000000 0.000000 -60.708740 0.000000 57.000000 -0.173228 -0.490073 0.854296
-10280.00000000 -15850.00000000 360.00000000 83 219 104 0.000000 0.000000 0.000000 0.000000 -60.708740 0.000000 57.000000 0.182060 0.055927 0.981696
-10290.00000000 -15820.00000000 350.00000000 83 219 104 0.000000 0.000000 0.000000 0.000000 -60.708740 0.000000 57.000000 -0.189352 -0.121637 0.974346
-10310.00000000 -15830.00000000 320.00000000 83 219 104 0.000000 0.000000 0.000000 0.000000 -60.708740 0.000000 57.000000 -0.003458 0.194785 0.980840
-10300.00000000 -15840.00000000 320.00000000 83 219 104 0.000000 0.000000 0.000000 0.000000 -60.708740 0.000000 57.000000 -0.051016 0.357109 0.932669
-10350.00000000 -15820.00000000 370.00000000 83 219 104 0.000000 0.000000 0.000000 0.000000 -60.708740 0.000000 57.000000 -0.251712 -0.066372 0.965524
-10350.00000000 -15790.00000000 360.00000000 83 219 104 0.000000 0.000000 0.000000 0.000000 -60.708740 0.000000 57.000000 -0.082025 -0.148596 0.985490
-10340.00000000 -15860.00000000 370.00000000 83 219 104 0.000000 0.000000 0.000000 0.000000 -60.708740 0.000000 57.000000 -0.061351 0.440362 0.895722
-10370.00000000 -15810.00000000 360.00000000 83 219 104 0.000000 0.000000 0.000000 0.000000 -60.708740 0.000000 57.000000 -0.283741 0.143888 0.948044
-10400.00000000 -15860.00000000 360.00000000 83 219 104 0.000000 0.000000 0.000000 0.000000 -60.708740 0.000000 57.000000 -0.049591 0.411475 0.910071
-10400.00000000 -15860.00000000 360.00000000 83 219 104 0.000000 0.000000 0.000000 0.000000 -60.708740 0.000000 57.000000 -0.049591 0.411475 0.910071
-10140.00000000 -15550.00000000 200.00000000 83 219 104 0.000000 0.000000 0.000000 0.000000 -60.708740 0.000000 57.000000 -0.685427 -0.026741 0.727650
-10140.00000000 -15560.00000000 170.00000000 83 219 104 0.000000 0.000000 0.000000 0.000000 -60.708740 0.000000 57.000000 -0.486985 0.186156 0.853341
-10150.00000000 -15590.00000000 180.00000000 83 219 104 0.000000 0.000000 0.000000 0.000000 -60.708740 0.000000 57.000000 -0.205232 -0.235134 0.950048
-10160.00000000 -15590.00000000 180.00000000 83 219 104 0.000000 0.000000 0.000000 0.000000 -60.708740 0.000000 57.000000 -0.588092 0.187884 0.786669
-10180.00000000 -15580.00000000 160.00000000 83 219 104 0.000000 0.000000 0.000000 0.000000 -60.708740 0.000000 57.000000 -0.480822 0.173096 0.859562
-10140.00000000 -15620.00000000 150.00000000 83 219 104 0.000000 0.000000 0.000000 0.000000 -60.708740 0.000000 57.000000 -0.325946 0.006244 0.945368
-10180.00000000 -15630.00000000 170.00000000 83 219 104 0.000000 0.000000 0.000000 0.000000 -60.708740 0.000000 57.000000 -0.573846 -0.298912 0.762464
-10170.00000000 -15620.00000000 150.00000000 83 219 104 0.000000 0.000000 0.000000 0.000000 -60.708740 0.000000 57.000000 -0.279985 -0.033598 0.959416
-10180.00000000 -15680.00000000 190.00000000 83 219 104 0.000000 0.000000 0.000000 0.000000 -60.708740 0.000000 57.000000 -0.207003 0.162738 0.964710
-10210.00000000 -15630.00000000 190.00000000 83 219 104 0.000000 0.000000 0.000000 0.000000 -60.708740 0.000000 57.000000 -0.496318 0.077330 0.864690
-10200.00000000 -15690.00000000 170.00000000 83 219 104 0.000000 0.000000 0.000000 0.000000 -60.708740 0.000000 57.000000 -0.141493 -0.091554 0.985696
-10220.00000000 -15690.00000000 190.00000000 83 219 104 0.000000 0.000000 0.000000 0.000000 -60.708740 0.000000 57.000000 -0.130399 0.299782 0.945054
-10280.00000000 -15640.00000000 180.00000000 83 219 104 0.000000 0.000000 0.000000 0.000000 -60.708740 0.000000 57.000000 -0.193701 0.267885 0.943778
-10270.00000000 -15650.00000000 190.00000000 83 219 104 0.000000 0.000000 0.000000 0.000000 -60.708740 0.000000 57.000000 -0.345382 0.237541 0.907902
-10270.00000000 -15690.00000000 190.00000000 83 219 104 0.000000 0.000000 0.000000 0.000000 -60.708740 0.000000 57.000000 -0.172839 0.104194 0.979423
-10120.00000000 -15600.00000000 140.00000000 83 219 104 0.000000 0.000000 0.000000 0.000000 -60.708740 0.000000 57.000000 -0.055848 -0.442698 0.894930
-10230.00000000 -15590.00000000 90.00000000 83 219 104 0.000000 0.000000 0.000000 0.000000 -60.708740 0.000000 57.000000 -0.152252 0.089913 0.984243
-10260.00000000 -15610.00000000 110.00000000 83 219 104 0.000000 0.000000 0.000000 0.000000 -60.708740 0.000000 57.000000 -0.132293 -0.217063 0.967152
-10120.00000000 -15770.00000000 290.00000000 83 219 104 0.000000 0.000000 0.000000 0.000000 -60.708740 0.000000 57.000000 -0.656737 -0.061794 0.751583
-10190.00000000 -15770.00000000 240.00000000 83 219 104 0.000000 0.000000 0.000000 0.000000 -60.708740 0.000000 57.000000 -0.017611 0.207812 0.978010
-10180.00000000 -15740.00000000 200.00000000 83 219 104 0.000000 0.000000 0.000000 0.000000 -60.708740 0.000000 57.000000 0.075082 0.079565 0.993998
-10130.00000000 -15810.00000000 290.00000000 83 219 104 0.000000 0.000000 0.000000 0.000000 -60.708740 0.000000 57.000000 -0.094741 -0.228643 0.968889
-10150.00000000 -15850.00000000 280.00000000 83 219 104 0.000000 0.000000 0.000000 0.000000 -60.708740 0.000000 57.000000 0.026913 0.188388 0.981726
-10150.00000000 -15860.00000000 280.00000000 83 219 104 0.000000 0.000000 0.000000 0.000000 -60.708740 0.000000 57.000000 -0.238288 0.148765 0.959733
-10180.00000000 -15800.00000000 280.00000000 83 219 104 0.000000 0.000000 0.000000 0.000000 -60.708740 0.000000 57.000000 -0.098597 0.352519 0.930596
-10160.00000000 -15840.00000000 280.00000000 83 219 104 0.000000 0.000000 0.000000 0.000000 -60.708740 0.000000 57.000000 -0.067942 0.371681 0.925871
-10180.00000000 -15830.00000000 260.00000000 83 219 104 0.000000 0.000000 0.000000 0.000000 -60.708740 0.000000 57.000000 0.190593 -0.110868 0.975388
-10170.00000000 -15790.00000000 230.00000000 83 219 104 0.000000 0.000000 0.000000 0.000000 -60.708740 0.000000 57.000000 -0.437886 -0.233238 0.868249
-10150.00000000 -15830.00000000 230.00000000 83 219 104 0.000000 0.000000 0.000000 0.000000 -60.708740 0.000000 57.000000 -0.543933 -0.081376 0.835173
-10210.00000000 -15780.00000000 240.00000000 83 219 104 0.000000 0.000000 0.000000 0.000000 -60.708740 0.000000 57.000000 -0.351437 0.221275 0.909686
-10210.00000000 -15710.00000000 190.00000000 83 219 104 0.000000 0.000000 0.000000 0.000000 -60.708740 0.000000 57.000000 -0.176626 0.197560 0.964248
-10230.00000000 -15770.00000000 200.00000000 83 219 104 0.000000 0.000000 0.000000 0.000000 -60.708740 0.000000 57.000000 0.075546 -0.221684 0.972188
-10270.00000000 -15710.00000000 200.00000000 83 219 104 0.000000 0.000000 0.000000 0.000000 -60.708740 0.000000 57.000000 0.008939 0.371596 0.928352
-10270.00000000 -15700.00000000 190.00000000 83 219 104 0.000000 0.000000 0.000000 0.000000 -60.708740 0.000000 57.000000 -0.163933 0.057789 0.984777
-10240.00000000 -15760.00000000 210.00000000 83 219 104 0.000000 0.000000 0.000000 0.000000 -60.708740 0.000000 57.000000 -0.056040 -0.337541 0.939641
-10280.00000000 -15770.00000000 210.00000000 83 219 104 0.000000 0.000000 0.000000 0.000000 -60.708740 0.000000 57.000000 0.283243 0.111980 0.952488
-10250.00000000 -15760.00000000 190.00000000 83 219 104 0.000000 0.000000 0.000000 0.000000 -60.708740 0.000000 57.000000 -0.101478 0.253053 0.962116
-10230.00000000 -15840.00000000 270.00000000 83 219 104 0.000000 0.000000 0.000000 0.000000 -60.708740 0.000000 57.000000 -0.265113 -0.023213 0.963938
-10250.00000000 -15860.00000000 250.00000000 83 219 104 0.000000 0.000000 0.000000 0.000000 -60.708740 0.000000 57.000000 0.142233 0.267184 0.953091
-10220.00000000 -15830.00000000 260.00000000 83 219 104 0.000000 0.000000 0.000000 0.000000 -60.708740 0.000000 57.000000 0.158221 0.191666 0.968623
-10250.00000000 -15820.00000000 190.00000000 83 219 104 0.000000 0.000000 0.000000 0.000000 -60.708740 0.000000 57.000000 -0.310951 -0.275914 0.909495
-10250.00000000 -15790.00000000 190.00000000 83 219 104 0.000000 0.000000 0.000000 0.000000 -60.708740 0.000000 57.000000 -0.131506 -0.093594 0.986887
-10330.00000000 -15610.00000000 190.00000000 83 219 104 0.000000 0.000000 0.000000 0.000000 -60.708740 0.000000 57.000000 -0.102419 0.221275 0.969818
-10350.00000000 -15610.00000000 190.00000000 83 219 104 0.000000 0.000000 0.000000 0.000000 -60.708740 0.000000 57.000000 -0.077178 0.072704 0.994363
-10350.00000000 -15610.00000000 190.00000000 83 219 104 0.000000 0.000000 0.000000 0.000000 -60.708740 0.000000 57.000000 -0.077178 0.072704 0.994363
-10350.00000000 -15590.00000000 200.00000000 83 219 104 0.000000 0.000000 0.000000 0.000000 -60.708740 0.000000 57.000000 -0.112695 -0.146625 0.982752
-10310.00000000 -15650.00000000 190.00000000 83 219 104 0.000000 0.000000 0.000000 0.000000 -60.708740 0.000000 57.000000 0.022882 -0.099154 0.994809
-10300.00000000 -15630.00000000 170.00000000 83 219 104 0.000000 0.000000 0.000000 0.000000 -60.708740 0.000000 57.000000 -0.406087 0.284413 0.868448
-10320.00000000 -15680.00000000 190.00000000 83 219 104 0.000000 0.000000 0.000000 0.000000 -60.708740 0.000000 57.000000 -0.121776 0.102859 0.987213
-10300.00000000 -15690.00000000 190.00000000 83 219 104 0.000000 0.000000 0.000000 0.000000 -60.708740 0.000000 57.000000 0.159169 0.200579 0.966661
-10360.00000000 -15650.00000000 210.00000000 83 219 104 0.000000 0.000000 0.000000 0.000000 -60.708740 0.000000 57.000000 0.289697 -0.006112 0.957099
-10360.00000000 -15630.00000000 180.00000000 83 219 104 0.000000 0.000000 0.000000 0.000000 -60.708740 0.000000 57.000000 -0.439966 0.306266 0.844175
-10350.00000000 -15640.00000000 190.00000000 83 219 104 0.000000 0.000000 0.000000 0.000000 -60.708740 0.000000 57.000000 -0.063618 0.083709 0.994457
-10330.00000000 -15690.00000000 200.00000000 83 219 104 0.000000 0.000000 0.000000 0.000000 -60.708740 0.000000 57.000000 -0.204177 0.206846 0.956831
-10350.00000000 -15690.00000000 190.00000000 83 219 104 0.000000 0.000000 0.000000 0.000000 -60.708740 0.000000 57.000000 0.233320 -0.008291 0.972365
-10350.00000000 -15670.00000000 150.00000000 83 219 104 0.000000 0.000000 0.000000 0.000000 -60.708740 0.000000 57.000000 -0.219738 0.227927 0.948559
-10340.00000000 -15680.00000000 190.00000000 83 219 104 0.000000 0.000000 0.000000 0.000000 -60.708740 0.000000 57.000000 -0.387567 0.293335 0.873926
-10380.00000000 -15610.00000000 180.00000000 83 219 104 0.000000 0.000000 0.000000 0.000000 -60.708740 0.000000 57.000000 -0.267420 -0.127782 0.955070
-10370.00000000 -15580.00000000 190.00000000 83 219 104 0.000000 0.000000 0.000000 0.000000 -60.708740 0.000000 57.000000 -0.101177 -0.069346 0.992449
-10370.00000000 -15580.00000000 190.00000000 83 219 104 0.000000 0.000000 0.000000 0.000000 -60.708740 0.000000 57.000000 -0.101177 -0.069346 0.992449
-10380.00000000 -15650.00000000 160.00000000 83 219 104 0.000000 0.000000 0.000000 0.000000 -60.708740 0.000000 57.000000 -0.070717 -0.011610 0.997429
-10290.00000000 -15590.00000000 90.00000000 83 219 104 0.000000 0.000000 0.000000 0.000000 -60.708740 0.000000 57.000000 -0.552567 0.209700 0.806657
-10320.00000000 -15540.00000000 60.00000000 83 219 104 0.000000 0.000000 0.000000 0.000000 -60.708740 0.000000 57.000000 -0.483792 0.097893 0.869691
-10350.00000000 -15750.00000000 240.00000000 83 219 104 0.000000 0.000000 0.000000 0.000000 -60.708740 0.000000 57.000000 0.276329 0.097299 0.956125
-10350.00000000 -15760.00000000 240.00000000 83 219 104 0.000000 0.000000 0.000000 0.000000 -60.708740 0.000000 57.000000 0.181776 -0.246407 0.951967
-10320.00000000 -15770.00000000 240.00000000 83 219 104 0.000000 0.000000 0.000000 0.000000 -60.708740 0.000000 57.000000 0.051091 0.492961 0.868550
-10310.00000000 -15730.00000000 160.00000000 83 219 104 0.000000 0.000000 0.000000 0.000000 -60.708740 0.000000 57.000000 -0.258844 0.329039 0.908148
-10330.00000000 -15700.00000000 210.00000000 83 219 104 0.000000 0.000000 0.000000 0.000000 -60.708740 0.000000 57.000000 -0.066317 0.407378 0.910849
-10350.00000000 -15720.00000000 220.00000000 83 219 104 0.000000 0.000000 0.000000 0.000000 -60.708740 0.000000 57.000000 0.091894 0.078280 0.992687
-10350.00000000 -15710.00000000 220.00000000 83 219 104 0.000000 0.000000 0.000000 0.000000 -60.708740 0.000000 57.000000 0.105008 0.369573 0.923249
-10310.00000000 -15800.00000000 210.00000000 83 219 104 0.000000 0.000000 0.000000 0.000000 -60.708740 0.000000 57.000000 0.289885 -0.089695 0.952849
-10390.00000000 -15780.00000000 270.00000000 83 219 104 0.000000 0.000000 0.000000 0.000000 -60.708740 0.000000 57.000000 -0.014561 0.448754 0.893537
-10430.00000000 -15780.00000000 290.00000000 83 219 104 0.000000 0.000000 0.000000 0.000000 -60.708740 0.000000 57.000000 0.425230 0.228281 0.875824
-10420.00000000 -15770.00000000 270.00000000 83 219 104 0.000000 0.000000 0.000000 0.000000 -60.708740 0.000000 57.000000 -0.079624 0.470761 0.878660
-10370.00000000 -15710.00000000 240.00000000 83 219 104 0.000000 0.000000 0.000000 0.000000 -60.708740 0.000000 57.000000 -0.206367 0.301830 0.930758
-10390.00000000 -15810.00000000 280.00000000 83 219 104 0.000000 0.000000 0.000000 0.000000 -60.708740 0.000000 57.000000 0.437983 0.352600 0.826949
-10430.00000000 -15820.00000000 280.00000000 83 219 104 0.000000 0.000000 0.000000 0.000000 -60.708740 0.000000 57.000000 -0.097838 0.090932 0.991039
-10440.00000000 -15800.00000000 280.00000000 83 219 104 0.000000 0.000000 0.000000 0.000000 -60.708740 0.000000 57.000000 -0.130938 -0.003301 0.991385
-10440.00000000 -15800.00000000 280.00000000 83 219 104 0.000000 0.000000 0.000000 0.000000 -60.708740 0.000000 57.000000 -0.130938 -0.003301 0.991385
-10410.00000000 -15800.00000000 270.00000000 83 219 104 0.000000 0.000000 0.000000 0.000000 -60.708740 0.000000 57.000000 -0.067118 0.062717 0.995772
-10420.00000000 -15800.00000000 270.00000000 83 219 104 0.000000 0.000000 0.000000 0.000000 -60.708740 0.000000 57.000000 0.238194 -0.151338 0.959354
-10370.00000000 -15790.00000000 230.00000000 83 219 104 0.000000 0.000000 0.000000 0.000000 -60.708740 0.000000 57.000000 0.153575 0.420538 0.894182
-9680.00000000 -16370.00000000 730.00000000 83 219 104 0.000000 0.000000 0.000000 0.000000 -60.708740 0.000000 57.000000 0.838440 0.537462 -0.090294
-9690.00000000 -16380.00000000 720.00000000 83 219 104 0.000000 0.000000 0.000000 0.000000 -60.708740 0.000000 57.000000 0.565880 0.498713 -0.656555
-9690.00000000 -16390.00000000 710.00000000 83 219 104 0.000000 0.000000 0.000000 0.000000 -60.708740 0.000000 57.000000 -0.712453 -0.026699 0.701211
-9690.00000000 -16410.00000000 670.00000000 83 219 104 0.000000 0.000000 0.000000 0.000000 -60.708740 0.000000 57.000000 0.795689 0.271507 -0.541445
-9730.00000000 -16420.00000000 700.00000000 83 219 104 0.000000 0.000000 0.000000 0.000000 -60.708740 0.000000 57.000000 -0.476388 0.219290 0.851449
-9720.00000000 -16470.00000000 750.00000000 83 219 104 0.000000 0.000000 0.000000 0.000000 -60.708740 0.000000 57.000000 -0.631920 -0.064482 0.772347
-9720.00000000 -16460.00000000 730.00000000 83 219 104 0.000000 0.000000 0.000000 0.000000 -60.708740 0.000000 57.000000 0.671241 0.018142 -0.741017
-9680.00000000 -16250.00000000 530.00000000 83 219 104 0.000000 0.000000 0.000000 0.000000 -60.708740 0.000000 57.000000 -0.424916 -0.340246 0.838856
-9680.00000000 -16230.00000000 540.00000000 83 219 104 0.000000 0.000000 0.000000 0.000000 -60.708740 0.000000 57.000000 0.749180 0.309618 -0.585548
-9750.00000000 -16280.00000000 610.00000000 83 219 104 0.000000 0.000000 0.000000 0.000000 -60.708740 0.000000 57.000000 0.639216 0.478154 -0.602306
-9710.00000000 -16250.00000000 530.00000000 83 219 104 0.000000 0.000000 0.000000 0.000000 -60.708740 0.000000 57.000000 -0.464590 0.006618 0.885501
-9710.00000000 -16250.00000000 520.00000000 83 219 104 0.000000 0.000000 0.000000 0.000000 -60.708740 0.000000 57.000000 -0.525116 -0.335625 0.782054
-9710.00000000 -16240.00000000 530.00000000 83 219 104 0.000000 0.000000 0.000000 0.000000 -60.708740 0.000000 57.000000 -0.496132 0.042604 0.867201
-9700.00000000 -16260.00000000 540.00000000 83 219 104 0.000000 0.000000 0.000000 0.000000 -60.708740 0.000000 57.000000 0.680666 0.437690 -0.587470
-9750.00000000 -16240.00000000 470.00000000 83 219 104 0.000000 0.000000 0.000000 0.000000 -60.708740 0.000000 57.000000 -0.129610 -0.014401 0.991461
-9740.00000000 -16400.00000000 540.00000000 83 219 104 0.000000 0.000000 0.000000 0.000000 -60.708740 0.000000 57.000000 0.073428 0.179356 0.981040
-9760.00000000 -16400.00000000 500.00000000 83 219 104 0.000000 0.000000 0.000000 0.000000 -60.708740 0.000000 57.000000 0.118519 0.123308 0.985266
-9740.00000000 -16380.00000000 520.00000000 83 219 104 0.000000 0.000000 0.000000 0.000000 -60.708740 0.000000 57.000000 -0.271007 -0.404240 0.873582
-9750.00000000 -16440.00000000 540.00000000 83 219 104 0.000000 0.000000 0.000000 0.000000 -60.708740 0.000000 57.000000 -0.392409 0.269124 0.879538
-10080.00000000 -16420.00000000 770.00000000 83 219 104 0.000000 0.000000 0.000000 0.000000 -60.708740 0.000000 57.000000 0.844489 0.463007 -0.269190
-10080.00000000 -16410.00000000 730.00000000 83 219 104 0.000000 0.000000 0.000000 0.000000 -60.708740 0.000000 57.000000 0.580457 0.779649 0.234984
-10230.00000000 -16170.00000000 670.00000000 83 219 104 0.000000 0.000000 0.000000 0.000000 -60.708740 0.000000 57.000000 0.638206 0.658098 0.399500
-10250.00000000 -16200.00000000 690.00000000 83 219 104 0.000000 0.000000 0.000000 0.000000 -60.708740 0.000000 57.000000 0.865224 0.499326 -0.045393
-10260.00000000 -16180.00000000 660.00000000 83 219 104 0.000000 0.000000 0.000000 0.000000 -60.708740 0.000000 57.000000 0.694085 0.621888 0.362631
-10350.00000000 -16190.00000000 750.00000000 83 219 104 0.000000 0.000000 0.000000 0.000000 -60.708740 0.000000 57.000000 0.872862 0.403907 -0.273809
-10330.00000000 -16150.00000000 740.00000000 83 219 104 0.000000 0.000000 0.000000 0.000000 -60.708740 0.000000 57.000000 0.713393 0.629654 0.307580
-10320.00000000 -16170.00000000 700.00000000 83 219 104 0.000000 0.000000 0.000000 0.000000 -60.708740 0.000000 57.000000 0.943659 0.290042 0.159319
-10320.00000000 -16200.00000000 720.00000000 83 219 104 0.000000 0.000000 0.000000 0.000000 -60.708740 0.000000 57.000000 0.737304 0.540252 0.405599
-10290.00000000 -16200.00000000 660.00000000 83 219 104 0.000000 0.000000 0.000000 0.000000 -60.708740 0.000000 57.000000 0.655337 0.638747 0.403157
-10340.00000000 -16140.00000000 720.00000000 83 219 104 0.000000 0.000000 0.000000 0.000000 -60.708740 0.000000 57.000000 0.827194 0.561162 -0.029097
-10360.00000000 -16190.00000000 730.00000000 83 219 104 0.000000 0.000000 0.000000 0.000000 -60.708740 0.000000 57.000000 0.676863 0.727221 0.114045
-10360.00000000 -16200.00000000 680.00000000 83 219 104 0.000000 0.000000 0.000000 0.000000 -60.708740 0.000000 57.000000 0.779173 0.549724 0.301153
-10370.00000000 -16190.00000000 710.00000000 83 219 104 0.000000 0.000000 0.000000 0.000000 -60.708740 0.000000 57.000000 0.814073 0.506639 0.283906
-10430.00000000 -16190.00000000 720.00000000 83 219 104 0.000000 0.000000 0.000000 0.000000 -60.708740 0.000000 57.000000 0.623741 0.771898 0.122970
-10180.00000000 -16330.00000000 760.00000000 83 219 104 0.000000 0.000000 0.000000 0.000000 -60.708740 0.000000 57.000000 0.770573 0.570383 -0.284397
-10190.00000000 -16340.00000000 780.00000000 83 219 104 0.000000 0.000000 0.000000 0.000000 -60.708740 0.000000 57.000000 0.774867 0.448607 -0.445345
-10190.00000000 -16360.00000000 670.00000000 83 219 104 0.000000 0.000000 0.000000 0.000000 -60.708740 0.000000 57.000000 0.726984 0.679987 -0.095462
-10180.00000000 -16370.00000000 680.00000000 83 219 104 0.000000 0.000000 0.000000 0.000000 -60.708740 0.000000 57.000000 0.766008 0.620390 0.168370
