//X Y Z R G B PointSourceId ScanDirectionFlag NumberOfReturns ReturnNumber GpsTime Intensity Classification Nx Ny Nz
16430.00000000 -12880.00000000 120.00000000 137 167 103 0.000000 0.000000 0.000000 0.000000 -60.708740 0.000000 178.000000 -0.120102 0.201014 0.972198
16420.00000000 -12880.00000000 100.00000000 137 167 103 0.000000 0.000000 0.000000 0.000000 -60.708740 0.000000 178.000000 -0.417680 0.389093 0.821066
16420.00000000 -12980.00000000 120.00000000 137 167 103 0.000000 0.000000 0.000000 0.000000 -60.708740 0.000000 178.000000 0.172452 0.272936 0.946449
16380.00000000 -12840.00000000 90.00000000 137 167 103 0.000000 0.000000 0.000000 0.000000 -60.708740 0.000000 178.000000 -0.098597 0.352519 0.930596
16380.00000000 -12880.00000000 110.00000000 137 167 103 0.000000 0.000000 0.000000 0.000000 -60.708740 0.000000 178.000000 0.128632 0.320903 0.938336
16400.00000000 -12880.00000000 110.00000000 137 167 103 0.000000 0.000000 0.000000 0.000000 -60.708740 0.000000 178.000000 -0.282624 0.498105 0.819765
16410.00000000 -12890.00000000 110.00000000 137 167 103 0.000000 0.000000 0.000000 0.000000 -60.708740 0.000000 178.000000 -0.173226 0.345043 0.922463
16380.00000000 -12880.00000000 110.00000000 137 167 103 0.000000 0.000000 0.000000 0.000000 -60.708740 0.000000 178.000000 0.128632 0.320903 0.938336
16370.00000000 -12860.00000000 110.00000000 137 167 103 0.000000 0.000000 0.000000 0.000000 -60.708740 0.000000 178.000000 -0.236223 0.120048 0.964255
16360.00000000 -12850.00000000 110.00000000 137 167 103 0.000000 0.000000 0.000000 0.000000 -60.708740 0.000000 178.000000 0.113355 0.421232 0.899841
16370.00000000 -12860.00000000 100.00000000 137 167 103 0.000000 0.000000 0.000000 0.000000 -60.708740 0.000000 178.000000 -0.285023 0.236810 0.928807
16370.00000000 -12860.00000000 100.00000000 137 167 103 0.000000 0.000000 0.000000 0.000000 -60.708740 0.000000 178.000000 -0.285023 0.236810 0.928807
16350.00000000 -12900.00000000 110.00000000 137 167 103 0.000000 0.000000 0.000000 0.000000 -60.708740 0.000000 178.000000 0.130321 0.693547 0.708526
16370.00000000 -12890.00000000 110.00000000 137 167 103 0.000000 0.000000 0.000000 0.000000 -60.708740 0.000000 178.000000 -0.226597 0.648536 0.726673
16340.00000000 -12890.00000000 100.00000000 137 167 103 0.000000 0.000000 0.000000 0.000000 -60.708740 0.000000 178.000000 0.083152 0.713356 0.695851
16400.00000000 -12920.00000000 140.00000000 137 167 103 0.000000 0.000000 0.000000 0.000000 -60.708740 0.000000 178.000000 -0.430171 0.582974 0.689271
16390.00000000 -12920.00000000 140.00000000 137 167 103 0.000000 0.000000 0.000000 0.000000 -60.708740 0.000000 178.000000 -0.326652 0.645179 0.690683
16410.00000000 -12920.00000000 140.00000000 137 167 103 0.000000 0.000000 0.000000 0.000000 -60.708740 0.000000 178.000000 0.087093 0.427173 0.899966
16400.00000000 -12920.00000000 140.00000000 137 167 103 0.000000 0.000000 0.000000 0.000000 -60.708740 0.000000 178.000000 -0.430171 0.582974 0.689271
16370.00000000 -12920.00000000 140.00000000 137 167 103 0.000000 0.000000 0.000000 0.000000 -60.708740 0.000000 178.000000 0.057124 0.210266 0.975974
16350.00000000 -12980.00000000 130.00000000 137 167 103 0.000000 0.000000 0.000000 0.000000 -60.708740 0.000000 178.000000 -0.316724 0.290207 0.903031
16340.00000000 -12970.00000000 130.00000000 137 167 103 0.000000 0.000000 0.000000 0.000000 -60.708740 0.000000 178.000000 -0.082840 0.745562 0.661268
16370.00000000 -12980.00000000 140.00000000 137 167 103 0.000000 0.000000 0.000000 0.000000 -60.708740 0.000000 178.000000 -0.049785 0.305092 0.951020
16300.00000000 -12870.00000000 160.00000000 137 167 103 0.000000 0.000000 0.000000 0.000000 -60.708740 0.000000 178.000000 0.174018 0.289117 0.941344
16310.00000000 -12910.00000000 160.00000000 137 167 103 0.000000 0.000000 0.000000 0.000000 -60.708740 0.000000 178.000000 0.372487 0.429549 0.822642
16310.00000000 -12910.00000000 160.00000000 137 167 103 0.000000 0.000000 0.000000 0.000000 -60.708740 0.000000 178.000000 0.372487 0.429549 0.822642
16270.00000000 -12870.00000000 170.00000000 137 167 103 0.000000 0.000000 0.000000 0.000000 -60.708740 0.000000 178.000000 0.244421 0.493454 0.834722
16270.00000000 -12900.00000000 150.00000000 137 167 103 0.000000 0.000000 0.000000 0.000000 -60.708740 0.000000 178.000000 0.289869 0.249887 0.923868
16270.00000000 -12890.00000000 180.00000000 137 167 103 0.000000 0.000000 0.000000 0.000000 -60.708740 0.000000 178.000000 -0.151302 0.582736 0.798453
16270.00000000 -12910.00000000 150.00000000 137 167 103 0.000000 0.000000 0.000000 0.000000 -60.708740 0.000000 178.000000 0.164122 0.389611 0.906238
16270.00000000 -12900.00000000 180.00000000 137 167 103 0.000000 0.000000 0.000000 0.000000 -60.708740 0.000000 178.000000 -0.250794 0.412984 0.875526
16330.00000000 -12920.00000000 150.00000000 137 167 103 0.000000 0.000000 0.000000 0.000000 -60.708740 0.000000 178.000000 -0.082677 0.480645 0.873009
16310.00000000 -12960.00000000 160.00000000 137 167 103 0.000000 0.000000 0.000000 0.000000 -60.708740 0.000000 178.000000 0.064625 0.771186 0.633321
16300.00000000 -12920.00000000 170.00000000 137 167 103 0.000000 0.000000 0.000000 0.000000 -60.708740 0.000000 178.000000 0.012482 0.644897 0.764168
16250.00000000 -12920.00000000 150.00000000 137 167 103 0.000000 0.000000 0.000000 0.000000 -60.708740 0.000000 178.000000 -0.287076 0.704058 0.649530
16260.00000000 -12930.00000000 170.00000000 137 167 103 0.000000 0.000000 0.000000 0.000000 -60.708740 0.000000 178.000000 0.029626 0.703969 0.709612
16290.00000000 -12870.00000000 140.00000000 137 167 103 0.000000 0.000000 0.000000 0.000000 -60.708740 0.000000 178.000000 -0.303144 0.382358 0.872872
16330.00000000 -12910.00000000 130.00000000 137 167 103 0.000000 0.000000 0.000000 0.000000 -60.708740 0.000000 178.000000 -0.179420 0.278032 0.943667
16320.00000000 -12880.00000000 90.00000000 137 167 103 0.000000 0.000000 0.000000 0.000000 -60.708740 0.000000 178.000000 0.076980 0.488474 0.869176
16270.00000000 -12840.00000000 110.00000000 137 167 103 0.000000 0.000000 0.000000 0.000000 -60.708740 0.000000 178.000000 0.077963 0.531567 0.843420
16280.00000000 -12910.00000000 100.00000000 137 167 103 0.000000 0.000000 0.000000 0.000000 -60.708740 0.000000 178.000000 -0.256736 0.600100 0.757606
16300.00000000 -12940.00000000 140.00000000 137 167 103 0.000000 0.000000 0.000000 0.000000 -60.708740 0.000000 178.000000 0.094497 0.395790 0.913466
16310.00000000 -12940.00000000 140.00000000 137 167 103 0.000000 0.000000 0.000000 0.000000 -60.708740 0.000000 178.000000 0.160063 0.335436 0.928365
16300.00000000 -12940.00000000 140.00000000 137 167 103 0.000000 0.000000 0.000000 0.000000 -60.708740 0.000000 178.000000 0.094497 0.395790 0.913466
16290.00000000 -12940.00000000 140.00000000 137 167 103 0.000000 0.000000 0.000000 0.000000 -60.708740 0.000000 178.000000 -0.159339 0.702610 0.693505
16320.00000000 -12940.00000000 140.00000000 137 167 103 0.000000 0.000000 0.000000 0.000000 -60.708740 0.000000 178.000000 0.093399 0.369534 0.924511
16320.00000000 -12930.00000000 130.00000000 137 167 103 0.000000 0.000000 0.000000 0.000000 -60.708740 0.000000 178.000000 0.200909 0.250111 0.947143
16260.00000000 -12930.00000000 110.00000000 137 167 103 0.000000 0.000000 0.000000 0.000000 -60.708740 0.000000 178.000000 -0.029666 0.359858 0.932535
16220.00000000 -12950.00000000 100.00000000 137 167 103 0.000000 0.000000 0.000000 0.000000 -60.708740 0.000000 178.000000 -0.009590 0.820672 0.571319
16220.00000000 -12960.00000000 70.00000000 137 167 103 0.000000 0.000000 0.000000 0.000000 -60.708740 0.000000 178.000000 0.449141 0.602750 0.659519
16210.00000000 -12950.00000000 70.00000000 137 167 103 0.000000 0.000000 0.000000 0.000000 -60.708740 0.000000 178.000000 0.172382 0.636136 0.752074
16240.00000000 -12990.00000000 120.00000000 137 167 103 0.000000 0.000000 0.000000 0.000000 -60.708740 0.000000 178.000000 0.334214 0.788362 0.516513
16220.00000000 -13000.00000000 90.00000000 137 167 103 0.000000 0.000000 0.000000 0.000000 -60.708740 0.000000 178.000000 0.316653 0.383961 0.867355
16230.00000000 -13000.00000000 90.00000000 137 167 103 0.000000 0.000000 0.000000 0.000000 -60.708740 0.000000 178.000000 0.170226 0.250647 0.952995
16220.00000000 -13000.00000000 90.00000000 137 167 103 0.000000 0.000000 0.000000 0.000000 -60.708740 0.000000 178.000000 0.316653 0.383961 0.867355
16220.00000000 -12970.00000000 70.00000000 137 167 103 0.000000 0.000000 0.000000 0.000000 -60.708740 0.000000 178.000000 0.216941 0.499116 0.838940
16220.00000000 -12980.00000000 80.00000000 137 167 103 0.000000 0.000000 0.000000 0.000000 -60.708740 0.000000 178.000000 0.121949 0.304202 0.944769
16240.00000000 -12990.00000000 80.00000000 137 167 103 0.000000 0.000000 0.000000 0.000000 -60.708740 0.000000 178.000000 0.126868 0.520595 0.844326
16240.00000000 -12990.00000000 80.00000000 137 167 103 0.000000 0.000000 0.000000 0.000000 -60.708740 0.000000 178.000000 0.126868 0.520595 0.844326
16200.00000000 -12940.00000000 70.00000000 137 167 103 0.000000 0.000000 0.000000 0.000000 -60.708740 0.000000 178.000000 0.382706 0.373334 0.845078
16190.00000000 -12960.00000000 90.00000000 137 167 103 0.000000 0.000000 0.000000 0.000000 -60.708740 0.000000 178.000000 0.356095 0.778252 0.517223
16190.00000000 -13000.00000000 90.00000000 137 167 103 0.000000 0.000000 0.000000 0.000000 -60.708740 0.000000 178.000000 -0.064420 0.611277 0.788791
16170.00000000 -12980.00000000 60.00000000 137 167 103 0.000000 0.000000 0.000000 0.000000 -60.708740 0.000000 178.000000 0.123830 0.726569 0.675843
16200.00000000 -12940.00000000 60.00000000 137 167 103 0.000000 0.000000 0.000000 0.000000 -60.708740 0.000000 178.000000 0.067393 0.350180 0.934255
16240.00000000 -12960.00000000 50.00000000 137 167 103 0.000000 0.000000 0.000000 0.000000 -60.708740 0.000000 178.000000 0.041177 0.671607 0.739762
16210.00000000 -13010.00000000 160.00000000 137 167 103 0.000000 0.000000 0.000000 0.000000 -60.708740 0.000000 178.000000 0.019252 0.365783 0.930501
16190.00000000 -13010.00000000 150.00000000 137 167 103 0.000000 0.000000 0.000000 0.000000 -60.708740 0.000000 178.000000 0.058786 0.755611 0.652378
16320.00000000 -13020.00000000 110.00000000 137 167 103 0.000000 0.000000 0.000000 0.000000 -60.708740 0.000000 178.000000 -0.233805 0.670031 0.704552
16300.00000000 -13010.00000000 100.00000000 137 167 103 0.000000 0.000000 0.000000 0.000000 -60.708740 0.000000 178.000000 0.109544 0.813546 0.571089
16250.00000000 -13050.00000000 100.00000000 137 167 103 0.000000 0.000000 0.000000 0.000000 -60.708740 0.000000 178.000000 -0.122221 0.575766 0.808428
16240.00000000 -13010.00000000 120.00000000 137 167 103 0.000000 0.000000 0.000000 0.000000 -60.708740 0.000000 178.000000 0.210183 0.699052 0.683483
16210.00000000 -13030.00000000 110.00000000 137 167 103 0.000000 0.000000 0.000000 0.000000 -60.708740 0.000000 178.000000 -0.267484 0.533405 0.802453
16240.00000000 -13010.00000000 130.00000000 137 167 103 0.000000 0.000000 0.000000 0.000000 -60.708740 0.000000 178.000000 -0.020644 0.565649 0.824388
16240.00000000 -13020.00000000 100.00000000 137 167 103 0.000000 0.000000 0.000000 0.000000 -60.708740 0.000000 178.000000 -0.182070 0.619649 0.763469
16240.00000000 -13010.00000000 90.00000000 137 167 103 0.000000 0.000000 0.000000 0.000000 -60.708740 0.000000 178.000000 -0.121670 0.564371 0.816506
16190.00000000 -13030.00000000 100.00000000 137 167 103 0.000000 0.000000 0.000000 0.000000 -60.708740 0.000000 178.000000 -0.254146 0.749810 0.610897
16190.00000000 -13030.00000000 90.00000000 137 167 103 0.000000 0.000000 0.000000 0.000000 -60.708740 0.000000 178.000000 -0.150556 0.815388 0.558995
16170.00000000 -13030.00000000 80.00000000 137 167 103 0.000000 0.000000 0.000000 0.000000 -60.708740 0.000000 178.000000 0.247721 0.733695 0.632713
16170.00000000 -13030.00000000 90.00000000 137 167 103 0.000000 0.000000 0.000000 0.000000 -60.708740 0.000000 178.000000 0.024804 0.390329 0.920341
16150.00000000 -12510.00000000 20.00000000 137 167 103 0.000000 0.000000 0.000000 0.000000 -60.708740 0.000000 178.000000 -0.266226 -0.184310 0.946126
16090.00000000 -12510.00000000 30.00000000 137 167 103 0.000000 0.000000 0.000000 0.000000 -60.708740 0.000000 178.000000 -0.390174 -0.094463 0.915883
16090.00000000 -12570.00000000 40.00000000 137 167 103 0.000000 0.000000 0.000000 0.000000 -60.708740 0.000000 178.000000 -0.069470 -0.028857 0.997167
16080.00000000 -12550.00000000 50.00000000 137 167 103 0.000000 0.000000 0.000000 0.000000 -60.708740 0.000000 178.000000 0.032324 0.216690 0.975705
16100.00000000 -12560.00000000 40.00000000 137 167 103 0.000000 0.000000 0.000000 0.000000 -60.708740 0.000000 178.000000 0.068407 0.300735 0.951251
16160.00000000 -12620.00000000 100.00000000 137 167 103 0.000000 0.000000 0.000000 0.000000 -60.708740 0.000000 178.000000 0.138492 0.435464 0.889489
16140.00000000 -12660.00000000 110.00000000 137 167 103 0.000000 0.000000 0.000000 0.000000 -60.708740 0.000000 178.000000 -0.055846 0.714543 0.697359
16150.00000000 -12630.00000000 70.00000000 137 167 103 0.000000 0.000000 0.000000 0.000000 -60.708740 0.000000 178.000000 0.117903 0.455987 0.882142
16130.00000000 -12650.00000000 100.00000000 137 167 103 0.000000 0.000000 0.000000 0.000000 -60.708740 0.000000 178.000000 -0.383896 0.627744 0.677172
16120.00000000 -12650.00000000 70.00000000 137 167 103 0.000000 0.000000 0.000000 0.000000 -60.708740 0.000000 178.000000 0.176272 0.194552 0.964924
16100.00000000 -12610.00000000 50.00000000 137 167 103 0.000000 0.000000 0.000000 0.000000 -60.708740 0.000000 178.000000 -0.007215 0.048445 0.998800
16080.00000000 -12640.00000000 50.00000000 137 167 103 0.000000 0.000000 0.000000 0.000000 -60.708740 0.000000 178.000000 0.145669 0.306312 0.940720
16010.00000000 -12570.00000000 90.00000000 137 167 103 0.000000 0.000000 0.000000 0.000000 -60.708740 0.000000 178.000000 0.251267 0.449234 0.857353
16050.00000000 -12510.00000000 40.00000000 137 167 103 0.000000 0.000000 0.000000 0.000000 -60.708740 0.000000 178.000000 0.061243 0.329672 0.942107
16060.00000000 -12560.00000000 50.00000000 137 167 103 0.000000 0.000000 0.000000 0.000000 -60.708740 0.000000 178.000000 0.036037 0.170886 0.984631
16040.00000000 -12550.00000000 30.00000000 137 167 103 0.000000 0.000000 0.000000 0.000000 -60.708740 0.000000 178.000000 0.101526 0.353311 0.929980
16040.00000000 -12550.00000000 30.00000000 137 167 103 0.000000 0.000000 0.000000 0.000000 -60.708740 0.000000 178.000000 0.101526 0.353311 0.929980
16000.00000000 -12530.00000000 30.00000000 137 167 103 0.000000 0.000000 0.000000 0.000000 -60.708740 0.000000 178.000000 0.135835 0.387901 0.911637
16010.00000000 -12520.00000000 60.00000000 137 167 103 0.000000 0.000000 0.000000 0.000000 -60.708740 0.000000 178.000000 0.011133 0.300580 0.953692
16030.00000000 -12550.00000000 30.00000000 137 167 103 0.000000 0.000000 0.000000 0.000000 -60.708740 0.000000 178.000000 0.076741 0.308263 0.948201
16020.00000000 -12560.00000000 30.00000000 137 167 103 0.000000 0.000000 0.000000 0.000000 -60.708740 0.000000 178.000000 0.120816 0.332582 0.935303
16050.00000000 -12620.00000000 90.00000000 137 167 103 0.000000 0.000000 0.000000 0.000000 -60.708740 0.000000 178.000000 0.216593 0.696526 0.684060
16030.00000000 -12600.00000000 50.00000000 137 167 103 0.000000 0.000000 0.000000 0.000000 -60.708740 0.000000 178.000000 0.085941 0.399694 0.912611
16020.00000000 -12640.00000000 60.00000000 137 167 103 0.000000 0.000000 0.000000 0.000000 -60.708740 0.000000 178.000000 0.291102 0.347830 0.891220
16020.00000000 -12640.00000000 60.00000000 137 167 103 0.000000 0.000000 0.000000 0.000000 -60.708740 0.000000 178.000000 0.291102 0.347830 0.891220
16000.00000000 -12630.00000000 60.00000000 137 167 103 0.000000 0.000000 0.000000 0.000000 -60.708740 0.000000 178.000000 0.124283 0.455705 0.881411
16130.00000000 -12670.00000000 110.00000000 137 167 103 0.000000 0.000000 0.000000 0.000000 -60.708740 0.000000 178.000000 0.318261 -0.602596 -0.731839
16160.00000000 -12710.00000000 70.00000000 137 167 103 0.000000 0.000000 0.000000 0.000000 -60.708740 0.000000 178.000000 0.243515 0.339754 0.908442
16130.00000000 -12740.00000000 90.00000000 137 167 103 0.000000 0.000000 0.000000 0.000000 -60.708740 0.000000 178.000000 0.293788 0.682294 0.669451
16160.00000000 -12710.00000000 70.00000000 137 167 103 0.000000 0.000000 0.000000 0.000000 -60.708740 0.000000 178.000000 0.243515 0.339754 0.908442
16110.00000000 -12750.00000000 130.00000000 137 167 103 0.000000 0.000000 0.000000 0.000000 -60.708740 0.000000 178.000000 0.026504 0.796527 0.604021
16110.00000000 -12750.00000000 130.00000000 137 167 103 0.000000 0.000000 0.000000 0.000000 -60.708740 0.000000 178.000000 0.026504 0.796527 0.604021
16100.00000000 -12720.00000000 70.00000000 137 167 103 0.000000 0.000000 0.000000 0.000000 -60.708740 0.000000 178.000000 0.165948 0.701855 0.692720
16090.00000000 -12680.00000000 60.00000000 137 167 103 0.000000 0.000000 0.000000 0.000000 -60.708740 0.000000 178.000000 0.197045 0.218493 0.955737
16080.00000000 -12740.00000000 50.00000000 137 167 103 0.000000 0.000000 0.000000 0.000000 -60.708740 0.000000 178.000000 0.208841 0.535059 0.818595
16100.00000000 -12720.00000000 50.00000000 137 167 103 0.000000 0.000000 0.000000 0.000000 -60.708740 0.000000 178.000000 -0.380159 0.623724 0.682970
16100.00000000 -12720.00000000 50.00000000 137 167 103 0.000000 0.000000 0.000000 0.000000 -60.708740 0.000000 178.000000 -0.380159 0.623724 0.682970
16090.00000000 -12750.00000000 60.00000000 137 167 103 0.000000 0.000000 0.000000 0.000000 -60.708740 0.000000 178.000000 0.189010 0.285584 0.939530
16120.00000000 -12710.00000000 60.00000000 137 167 103 0.000000 0.000000 0.000000 0.000000 -60.708740 0.000000 178.000000 0.456033 -0.566283 -0.686555
16160.00000000 -12770.00000000 110.00000000 137 167 103 0.000000 0.000000 0.000000 0.000000 -60.708740 0.000000 178.000000 -0.141804 0.498507 0.855209
16140.00000000 -12770.00000000 70.00000000 137 167 103 0.000000 0.000000 0.000000 0.000000 -60.708740 0.000000 178.000000 -0.362272 0.670449 0.647500
16090.00000000 -12760.00000000 70.00000000 137 167 103 0.000000 0.000000 0.000000 0.000000 -60.708740 0.000000 178.000000 0.031816 0.836911 0.546413
16110.00000000 -12780.00000000 70.00000000 137 167 103 0.000000 0.000000 0.000000 0.000000 -60.708740 0.000000 178.000000 -0.009685 0.640563 0.767845
16100.00000000 -12820.00000000 90.00000000 137 167 103 0.000000 0.000000 0.000000 0.000000 -60.708740 0.000000 178.000000 0.401329 0.532376 0.745326
16080.00000000 -12820.00000000 90.00000000 137 167 103 0.000000 0.000000 0.000000 0.000000 -60.708740 0.000000 178.000000 0.254358 0.294595 0.921149
16090.00000000 -12760.00000000 60.00000000 137 167 103 0.000000 0.000000 0.000000 0.000000 -60.708740 0.000000 178.000000 0.119129 0.410645 0.903980
16040.00000000 -12730.00000000 140.00000000 137 167 103 0.000000 0.000000 0.000000 0.000000 -60.708740 0.000000 178.000000 -0.031889 0.564297 0.824956
16040.00000000 -12740.00000000 120.00000000 137 167 103 0.000000 0.000000 0.000000 0.000000 -60.708740 0.000000 178.000000 0.196744 0.800704 0.565831
16070.00000000 -12720.00000000 70.00000000 137 167 103 0.000000 0.000000 0.000000 0.000000 -60.708740 0.000000 178.000000 0.333930 -0.685778 -0.646684
16050.00000000 -12730.00000000 90.00000000 137 167 103 0.000000 0.000000 0.000000 0.000000 -60.708740 0.000000 178.000000 0.408580 0.573998 0.709640
16070.00000000 -12730.00000000 80.00000000 137 167 103 0.000000 0.000000 0.000000 0.000000 -60.708740 0.000000 178.000000 -0.034857 0.581412 0.812862
16070.00000000 -12720.00000000 70.00000000 137 167 103 0.000000 0.000000 0.000000 0.000000 -60.708740 0.000000 178.000000 0.333930 -0.685778 -0.646684
16070.00000000 -12720.00000000 70.00000000 137 167 103 0.000000 0.000000 0.000000 0.000000 -60.708740 0.000000 178.000000 0.333930 -0.685778 -0.646684
16010.00000000 -12750.00000000 70.00000000 137 167 103 0.000000 0.000000 0.000000 0.000000 -60.708740 0.000000 178.000000 0.191819 0.282898 0.939773
16010.00000000 -12750.00000000 70.00000000 137 167 103 0.000000 0.000000 0.000000 0.000000 -60.708740 0.000000 178.000000 0.191819 0.282898 0.939773
16030.00000000 -12750.00000000 70.00000000 137 167 103 0.000000 0.000000 0.000000 0.000000 -60.708740 0.000000 178.000000 0.125940 0.611920 0.780828
16010.00000000 -12750.00000000 70.00000000 137 167 103 0.000000 0.000000 0.000000 0.000000 -60.708740 0.000000 178.000000 0.191819 0.282898 0.939773
16050.00000000 -12670.00000000 30.00000000 137 167 103 0.000000 0.000000 0.000000 0.000000 -60.708740 0.000000 178.000000 0.094830 0.628794 0.771768
16060.00000000 -12740.00000000 60.00000000 137 167 103 0.000000 0.000000 0.000000 0.000000 -60.708740 0.000000 178.000000 0.225869 0.480540 0.847387
16000.00000000 -12670.00000000 60.00000000 137 167 103 0.000000 0.000000 0.000000 0.000000 -60.708740 0.000000 178.000000 0.326146 0.621463 0.712329
16000.00000000 -12670.00000000 60.00000000 137 167 103 0.000000 0.000000 0.000000 0.000000 -60.708740 0.000000 178.000000 0.326146 0.621463 0.712329
16040.00000000 -12770.00000000 90.00000000 137 167 103 0.000000 0.000000 0.000000 0.000000 -60.708740 0.000000 178.000000 0.427897 0.731886 0.530328
16040.00000000 -12760.00000000 70.00000000 137 167 103 0.000000 0.000000 0.000000 0.000000 -60.708740 0.000000 178.000000 0.326043 0.653708 0.682906
16040.00000000 -12760.00000000 70.00000000 137 167 103 0.000000 0.000000 0.000000 0.000000 -60.708740 0.000000 178.000000 0.326043 0.653708 0.682906
16050.00000000 -12760.00000000 70.00000000 137 167 103 0.000000 0.000000 0.000000 0.000000 -60.708740 0.000000 178.000000 0.286541 0.555667 0.780467
16060.00000000 -12800.00000000 80.00000000 137 167 103 0.000000 0.000000 0.000000 0.000000 -60.708740 0.000000 178.000000 -0.080124 0.496208 0.864499
16070.00000000 -12800.00000000 80.00000000 137 167 103 0.000000 0.000000 0.000000 0.000000 -60.708740 0.000000 178.000000 0.175155 0.610756 0.772203
16040.00000000 -12820.00000000 80.00000000 137 167 103 0.000000 0.000000 0.000000 0.000000 -60.708740 0.000000 178.000000 0.382940 0.576876 0.721506
16060.00000000 -12800.00000000 80.00000000 137 167 103 0.000000 0.000000 0.000000 0.000000 -60.708740 0.000000 178.000000 -0.080124 0.496208 0.864499
16050.00000000 -12810.00000000 70.00000000 137 167 103 0.000000 0.000000 0.000000 0.000000 -60.708740 0.000000 178.000000 -0.047856 0.468984 0.881909
16020.00000000 -12760.00000000 80.00000000 137 167 103 0.000000 0.000000 0.000000 0.000000 -60.708740 0.000000 178.000000 0.261794 0.788518 0.556509
16030.00000000 -12770.00000000 90.00000000 137 167 103 0.000000 0.000000 0.000000 0.000000 -60.708740 0.000000 178.000000 0.022866 0.878333 0.477501
16010.00000000 -12770.00000000 100.00000000 137 167 103 0.000000 0.000000 0.000000 0.000000 -60.708740 0.000000 178.000000 -0.209693 0.675678 0.706744
16030.00000000 -12790.00000000 70.00000000 137 167 103 0.000000 0.000000 0.000000 0.000000 -60.708740 0.000000 178.000000 0.292952 0.533648 0.793346
16030.00000000 -12760.00000000 80.00000000 137 167 103 0.000000 0.000000 0.000000 0.000000 -60.708740 0.000000 178.000000 0.259754 0.776114 0.574608
16020.00000000 -12830.00000000 90.00000000 137 167 103 0.000000 0.000000 0.000000 0.000000 -60.708740 0.000000 178.000000 -0.093887 0.561879 0.821874
16030.00000000 -12820.00000000 90.00000000 137 167 103 0.000000 0.000000 0.000000 0.000000 -60.708740 0.000000 178.000000 -0.056986 0.501755 0.863130
15940.00000000 -12560.00000000 150.00000000 137 167 103 0.000000 0.000000 0.000000 0.000000 -60.708740 0.000000 178.000000 0.421999 0.551081 0.719880
15980.00000000 -12530.00000000 130.00000000 137 167 103 0.000000 0.000000 0.000000 0.000000 -60.708740 0.000000 178.000000 0.060513 0.538984 0.840140
15950.00000000 -12500.00000000 100.00000000 137 167 103 0.000000 0.000000 0.000000 0.000000 -60.708740 0.000000 178.000000 -0.012551 0.704256 0.709835
15930.00000000 -12560.00000000 140.00000000 137 167 103 0.000000 0.000000 0.000000 0.000000 -60.708740 0.000000 178.000000 0.410146 0.616049 0.672506
15960.00000000 -12510.00000000 30.00000000 137 167 103 0.000000 0.000000 0.000000 0.000000 -60.708740 0.000000 178.000000 0.243737 0.376684 0.893701
15970.00000000 -12560.00000000 40.00000000 137 167 103 0.000000 0.000000 0.000000 0.000000 -60.708740 0.000000 178.000000 0.210379 0.557429 0.803127
15970.00000000 -12560.00000000 40.00000000 137 167 103 0.000000 0.000000 0.000000 0.000000 -60.708740 0.000000 178.000000 0.210379 0.557429 0.803127
15970.00000000 -12560.00000000 40.00000000 137 167 103 0.000000 0.000000 0.000000 0.000000 -60.708740 0.000000 178.000000 0.210379 0.557429 0.803127
15960.00000000 -12560.00000000 40.00000000 137 167 103 0.000000 0.000000 0.000000 0.000000 -60.708740 0.000000 178.000000 0.259443 0.580209 0.772040
15970.00000000 -12560.00000000 40.00000000 137 167 103 0.000000 0.000000 0.000000 0.000000 -60.708740 0.000000 178.000000 0.210379 0.557429 0.803127
15980.00000000 -12550.00000000 20.00000000 137 167 103 0.000000 0.000000 0.000000 0.000000 -60.708740 0.000000 178.000000 0.283543 0.460176 0.841333
15950.00000000 -12560.00000000 50.00000000 137 167 103 0.000000 0.000000 0.000000 0.000000 -60.708740 0.000000 178.000000 -0.144019 0.818085 0.556773
15950.00000000 -12560.00000000 50.00000000 137 167 103 0.000000 0.000000 0.000000 0.000000 -60.708740 0.000000 178.000000 -0.144019 0.818085 0.556773
15990.00000000 -12660.00000000 50.00000000 137 167 103 0.000000 0.000000 0.000000 0.000000 -60.708740 0.000000 178.000000 0.381345 0.474670 0.793262
15910.00000000 -12580.00000000 60.00000000 137 167 103 0.000000 0.000000 0.000000 0.000000 -60.708740 0.000000 178.000000 0.029781 0.363847 0.930982
15990.00000000 -12690.00000000 80.00000000 137 167 103 0.000000 0.000000 0.000000 0.000000 -60.708740 0.000000 178.000000 0.495389 0.502061 0.708890
15970.00000000 -12690.00000000 80.00000000 137 167 103 0.000000 0.000000 0.000000 0.000000 -60.708740 0.000000 178.000000 0.138844 0.436573 0.888891
15990.00000000 -12670.00000000 70.00000000 137 167 103 0.000000 0.000000 0.000000 0.000000 -60.708740 0.000000 178.000000 0.294575 0.300437 0.907173
15990.00000000 -12750.00000000 70.00000000 137 167 103 0.000000 0.000000 0.000000 0.000000 -60.708740 0.000000 178.000000 -0.026188 0.831128 0.555464
15940.00000000 -12740.00000000 70.00000000 137 167 103 0.000000 0.000000 0.000000 0.000000 -60.708740 0.000000 178.000000 0.109621 0.574412 0.811193
15940.00000000 -12740.00000000 60.00000000 137 167 103 0.000000 0.000000 0.000000 0.000000 -60.708740 0.000000 178.000000 0.408225 0.398695 0.821215
15950.00000000 -12750.00000000 60.00000000 137 167 103 0.000000 0.000000 0.000000 0.000000 -60.708740 0.000000 178.000000 0.501456 0.669166 0.548415
15950.00000000 -12740.00000000 60.00000000 137 167 103 0.000000 0.000000 0.000000 0.000000 -60.708740 0.000000 178.000000 0.249839 0.473622 0.844549
15920.00000000 -12710.00000000 40.00000000 137 167 103 0.000000 0.000000 0.000000 0.000000 -60.708740 0.000000 178.000000 -0.034958 0.809630 0.585898
15980.00000000 -12790.00000000 80.00000000 137 167 103 0.000000 0.000000 0.000000 0.000000 -60.708740 0.000000 178.000000 0.300640 0.705781 0.641473
15960.00000000 -12760.00000000 90.00000000 137 167 103 0.000000 0.000000 0.000000 0.000000 -60.708740 0.000000 178.000000 0.476524 0.496448 0.725578
15980.00000000 -12790.00000000 80.00000000 137 167 103 0.000000 0.000000 0.000000 0.000000 -60.708740 0.000000 178.000000 0.300640 0.705781 0.641473
15960.00000000 -12780.00000000 80.00000000 137 167 103 0.000000 0.000000 0.000000 0.000000 -60.708740 0.000000 178.000000 0.418315 0.364644 0.831894
15980.00000000 -12780.00000000 70.00000000 137 167 103 0.000000 0.000000 0.000000 0.000000 -60.708740 0.000000 178.000000 0.292218 0.794516 0.532310
15960.00000000 -12830.00000000 100.00000000 137 167 103 0.000000 0.000000 0.000000 0.000000 -60.708740 0.000000 178.000000 0.559615 0.764860 0.319093
15920.00000000 -12770.00000000 80.00000000 137 167 103 0.000000 0.000000 0.000000 0.000000 -60.708740 0.000000 178.000000 0.468870 0.468870 0.748547
15920.00000000 -12780.00000000 90.00000000 137 167 103 0.000000 0.000000 0.000000 0.000000 -60.708740 0.000000 178.000000 0.147896 0.499331 0.853695
15920.00000000 -12800.00000000 100.00000000 137 167 103 0.000000 0.000000 0.000000 0.000000 -60.708740 0.000000 178.000000 0.004149 0.684625 0.728884
15990.00000000 -12810.00000000 50.00000000 137 167 103 0.000000 0.000000 0.000000 0.000000 -60.708740 0.000000 178.000000 0.164841 0.901606 0.399917
15890.00000000 -12740.00000000 70.00000000 137 167 103 0.000000 0.000000 0.000000 0.000000 -60.708740 0.000000 178.000000 0.463227 0.563565 0.683970
15870.00000000 -12720.00000000 70.00000000 137 167 103 0.000000 0.000000 0.000000 0.000000 -60.708740 0.000000 178.000000 0.018163 0.699970 0.713941
15880.00000000 -12720.00000000 70.00000000 137 167 103 0.000000 0.000000 0.000000 0.000000 -60.708740 0.000000 178.000000 0.156388 0.820665 0.549592
15890.00000000 -12750.00000000 100.00000000 137 167 103 0.000000 0.000000 0.000000 0.000000 -60.708740 0.000000 178.000000 0.258795 0.419218 0.870219
15840.00000000 -12690.00000000 100.00000000 137 167 103 0.000000 0.000000 0.000000 0.000000 -60.708740 0.000000 178.000000 0.599453 0.754457 0.267302
15850.00000000 -12750.00000000 80.00000000 137 167 103 0.000000 0.000000 0.000000 0.000000 -60.708740 0.000000 178.000000 0.335760 0.904646 0.262450
15850.00000000 -12750.00000000 80.00000000 137 167 103 0.000000 0.000000 0.000000 0.000000 -60.708740 0.000000 178.000000 0.335760 0.904646 0.262450
15880.00000000 -12710.00000000 40.00000000 137 167 103 0.000000 0.000000 0.000000 0.000000 -60.708740 0.000000 178.000000 0.035333 0.708077 0.705251
15880.00000000 -12710.00000000 60.00000000 137 167 103 0.000000 0.000000 0.000000 0.000000 -60.708740 0.000000 178.000000 0.043476 0.812015 0.582015
15880.00000000 -12720.00000000 60.00000000 137 167 103 0.000000 0.000000 0.000000 0.000000 -60.708740 0.000000 178.000000 0.186173 0.727769 0.660070
15870.00000000 -12710.00000000 60.00000000 137 167 103 0.000000 0.000000 0.000000 0.000000 -60.708740 0.000000 178.000000 0.258715 0.709482 0.655517
15880.00000000 -12710.00000000 60.00000000 137 167 103 0.000000 0.000000 0.000000 0.000000 -60.708740 0.000000 178.000000 0.043476 0.812015 0.582015
15880.00000000 -12710.00000000 40.00000000 137 167 103 0.000000 0.000000 0.000000 0.000000 -60.708740 0.000000 178.000000 0.035333 0.708077 0.705251
15870.00000000 -12710.00000000 60.00000000 137 167 103 0.000000 0.000000 0.000000 0.000000 -60.708740 0.000000 178.000000 0.258715 0.709482 0.655517
15860.00000000 -12690.00000000 60.00000000 137 167 103 0.000000 0.000000 0.000000 0.000000 -60.708740 0.000000 178.000000 0.408237 0.486306 0.772560
15830.00000000 -12720.00000000 50.00000000 137 167 103 0.000000 0.000000 0.000000 0.000000 -60.708740 0.000000 178.000000 0.067921 0.724010 0.686437
15900.00000000 -12770.00000000 90.00000000 137 167 103 0.000000 0.000000 0.000000 0.000000 -60.708740 0.000000 178.000000 0.204946 0.605592 0.768932
15910.00000000 -12770.00000000 80.00000000 137 167 103 0.000000 0.000000 0.000000 0.000000 -60.708740 0.000000 178.000000 0.347615 0.860541 0.372335
15910.00000000 -12770.00000000 100.00000000 137 167 103 0.000000 0.000000 0.000000 0.000000 -60.708740 0.000000 178.000000 0.538401 0.605912 0.585658
15890.00000000 -12790.00000000 80.00000000 137 167 103 0.000000 0.000000 0.000000 0.000000 -60.708740 0.000000 178.000000 0.434500 0.864458 0.252828
15910.00000000 -12800.00000000 70.00000000 137 167 103 0.000000 0.000000 0.000000 0.000000 -60.708740 0.000000 178.000000 -0.001375 0.636526 0.771254
15860.00000000 -12760.00000000 70.00000000 137 167 103 0.000000 0.000000 0.000000 0.000000 -60.708740 0.000000 178.000000 0.035074 0.615891 0.787050
15850.00000000 -12760.00000000 80.00000000 137 167 103 0.000000 0.000000 0.000000 0.000000 -60.708740 0.000000 178.000000 0.194869 0.768735 0.609157
16130.00000000 -12840.00000000 70.00000000 137 167 103 0.000000 0.000000 0.000000 0.000000 -60.708740 0.000000 178.000000 0.032820 0.389901 0.920272
16130.00000000 -12840.00000000 70.00000000 137 167 103 0.000000 0.000000 0.000000 0.000000 -60.708740 0.000000 178.000000 0.032820 0.389901 0.920272
16100.00000000 -12870.00000000 60.00000000 137 167 103 0.000000 0.000000 0.000000 0.000000 -60.708740 0.000000 178.000000 0.102812 0.385204 0.917086
16150.00000000 -12920.00000000 130.00000000 137 167 103 0.000000 0.000000 0.000000 0.000000 -60.708740 0.000000 178.000000 0.516850 0.510160 0.687461
16160.00000000 -12960.00000000 130.00000000 137 167 103 0.000000 0.000000 0.000000 0.000000 -60.708740 0.000000 178.000000 0.377751 0.359096 0.853437
16140.00000000 -12920.00000000 140.00000000 137 167 103 0.000000 0.000000 0.000000 0.000000 -60.708740 0.000000 178.000000 0.165104 0.607401 0.777049
16140.00000000 -12960.00000000 80.00000000 137 167 103 0.000000 0.000000 0.000000 0.000000 -60.708740 0.000000 178.000000 0.099854 0.554263 0.826330
16130.00000000 -12960.00000000 80.00000000 137 167 103 0.000000 0.000000 0.000000 0.000000 -60.708740 0.000000 178.000000 -0.225759 0.532914 0.815497
16140.00000000 -12960.00000000 80.00000000 137 167 103 0.000000 0.000000 0.000000 0.000000 -60.708740 0.000000 178.000000 0.099854 0.554263 0.826330
16130.00000000 -12970.00000000 100.00000000 137 167 103 0.000000 0.000000 0.000000 0.000000 -60.708740 0.000000 178.000000 0.173719 0.575540 0.799109
16150.00000000 -12970.00000000 90.00000000 137 167 103 0.000000 0.000000 0.000000 0.000000 -60.708740 0.000000 178.000000 -0.258559 0.718571 0.645603
16160.00000000 -12980.00000000 70.00000000 137 167 103 0.000000 0.000000 0.000000 0.000000 -60.708740 0.000000 178.000000 0.412864 0.461436 0.785251
16120.00000000 -12960.00000000 110.00000000 137 167 103 0.000000 0.000000 0.000000 0.000000 -60.708740 0.000000 178.000000 0.548171 0.625759 0.554918
16120.00000000 -12940.00000000 80.00000000 137 167 103 0.000000 0.000000 0.000000 0.000000 -60.708740 0.000000 178.000000 0.353258 0.527467 0.772650
16120.00000000 -12970.00000000 90.00000000 137 167 103 0.000000 0.000000 0.000000 0.000000 -60.708740 0.000000 178.000000 -0.172528 0.676372 0.716069
16120.00000000 -12980.00000000 100.00000000 137 167 103 0.000000 0.000000 0.000000 0.000000 -60.708740 0.000000 178.000000 0.017479 0.488078 0.872625
16000.00000000 -12910.00000000 100.00000000 137 167 103 0.000000 0.000000 0.000000 0.000000 -60.708740 0.000000 178.000000 0.046330 0.568599 0.821309
16070.00000000 -12960.00000000 120.00000000 137 167 103 0.000000 0.000000 0.000000 0.000000 -60.708740 0.000000 178.000000 0.178819 0.423060 0.888281
16040.00000000 -12960.00000000 110.00000000 137 167 103 0.000000 0.000000 0.000000 0.000000 -60.708740 0.000000 178.000000 0.366606 0.562129 0.741358
16060.00000000 -12960.00000000 100.00000000 137 167 103 0.000000 0.000000 0.000000 0.000000 -60.708740 0.000000 178.000000 -0.136450 0.748225 0.649261
16040.00000000 -12960.00000000 100.00000000 137 167 103 0.000000 0.000000 0.000000 0.000000 -60.708740 0.000000 178.000000 0.224903 0.587850 0.777079
16040.00000000 -12970.00000000 110.00000000 137 167 103 0.000000 0.000000 0.000000 0.000000 -60.708740 0.000000 178.000000 0.075741 0.816005 0.573061
16050.00000000 -12970.00000000 110.00000000 137 167 103 0.000000 0.000000 0.000000 0.000000 -60.708740 0.000000 178.000000 0.317516 0.746243 0.585068
16000.00000000 -12990.00000000 90.00000000 137 167 103 0.000000 0.000000 0.000000 0.000000 -60.708740 0.000000 178.000000 0.158926 0.897714 0.410915
16140.00000000 -13050.00000000 90.00000000 137 167 103 0.000000 0.000000 0.000000 0.000000 -60.708740 0.000000 178.000000 0.500712 0.431761 0.750247
16100.00000000 -13040.00000000 110.00000000 137 167 103 0.000000 0.000000 0.000000 0.000000 -60.708740 0.000000 178.000000 0.244927 0.500636 0.830286
16100.00000000 -13030.00000000 100.00000000 137 167 103 0.000000 0.000000 0.000000 0.000000 -60.708740 0.000000 178.000000 0.047856 0.468984 0.881909
16110.00000000 -13040.00000000 100.00000000 137 167 103 0.000000 0.000000 0.000000 0.000000 -60.708740 0.000000 178.000000 0.267927 0.381684 0.884609
16120.00000000 -13060.00000000 100.00000000 137 167 103 0.000000 0.000000 0.000000 0.000000 -60.708740 0.000000 178.000000 0.322407 0.374359 0.869430
16110.00000000 -13020.00000000 50.00000000 137 167 103 0.000000 0.000000 0.000000 0.000000 -60.708740 0.000000 178.000000 0.072461 0.828330 0.555535
16130.00000000 -13030.00000000 60.00000000 137 167 103 0.000000 0.000000 0.000000 0.000000 -60.708740 0.000000 178.000000 0.020861 0.783000 0.621671
16040.00000000 -13050.00000000 80.00000000 137 167 103 0.000000 0.000000 0.000000 0.000000 -60.708740 0.000000 178.000000 -0.017987 0.806626 0.590788
15950.00000000 -12840.00000000 100.00000000 137 167 103 0.000000 0.000000 0.000000 0.000000 -60.708740 0.000000 178.000000 0.423054 0.862907 0.276436
15930.00000000 -12890.00000000 100.00000000 137 167 103 0.000000 0.000000 0.000000 0.000000 -60.708740 0.000000 178.000000 0.319568 0.660225 0.679691
15950.00000000 -12890.00000000 100.00000000 137 167 103 0.000000 0.000000 0.000000 0.000000 -60.708740 0.000000 178.000000 0.155392 0.516492 0.842074
15940.00000000 -12900.00000000 100.00000000 137 167 103 0.000000 0.000000 0.000000 0.000000 -60.708740 0.000000 178.000000 0.538831 0.515331 0.666405
15990.00000000 -13000.00000000 140.00000000 137 167 103 0.000000 0.000000 0.000000 0.000000 -60.708740 0.000000 178.000000 -0.081168 0.841581 0.533998
15990.00000000 -12990.00000000 110.00000000 137 167 103 0.000000 0.000000 0.000000 0.000000 -60.708740 0.000000 178.000000 0.001360 0.819933 0.572458
15960.00000000 -13000.00000000 130.00000000 137 167 103 0.000000 0.000000 0.000000 0.000000 -60.708740 0.000000 178.000000 0.392167 0.740030 0.546408
15930.00000000 -12970.00000000 110.00000000 137 167 103 0.000000 0.000000 0.000000 0.000000 -60.708740 0.000000 178.000000 0.017997 0.804334 0.593906
15940.00000000 -12970.00000000 80.00000000 137 167 103 0.000000 0.000000 0.000000 0.000000 -60.708740 0.000000 178.000000 0.311525 0.908249 0.279349
15970.00000000 -13040.00000000 90.00000000 137 167 103 0.000000 0.000000 0.000000 0.000000 -60.708740 0.000000 178.000000 0.217984 0.921803 0.320565
15990.00000000 -13030.00000000 80.00000000 137 167 103 0.000000 0.000000 0.000000 0.000000 -60.708740 0.000000 178.000000 0.450437 0.493336 0.744128
15970.00000000 -13040.00000000 90.00000000 137 167 103 0.000000 0.000000 0.000000 0.000000 -60.708740 0.000000 178.000000 0.217984 0.921803 0.320565
15960.00000000 -13060.00000000 70.00000000 137 167 103 0.000000 0.000000 0.000000 0.000000 -60.708740 0.000000 178.000000 0.182613 0.704363 0.685948
15920.00000000 -13040.00000000 40.00000000 137 167 103 0.000000 0.000000 0.000000 0.000000 -60.708740 0.000000 178.000000 0.400171 0.762776 0.507973
15910.00000000 -13040.00000000 60.00000000 137 167 103 0.000000 0.000000 0.000000 0.000000 -60.708740 0.000000 178.000000 0.386972 0.749453 0.537190
15820.00000000 -12130.00000000 150.00000000 137 167 103 0.000000 0.000000 0.000000 0.000000 -60.708740 0.000000 177.000000 0.541671 0.615919 -0.572045
15820.00000000 -12230.00000000 10.00000000 137 167 103 0.000000 0.000000 0.000000 0.000000 -60.708740 0.000000 178.000000 -0.514431 0.042754 0.856465
15810.00000000 -12280.00000000 70.00000000 137 167 103 0.000000 0.000000 0.000000 0.000000 -60.708740 0.000000 178.000000 -0.029046 0.175435 0.984062
15790.00000000 -12280.00000000 50.00000000 137 167 103 0.000000 0.000000 0.000000 0.000000 -60.708740 0.000000 178.000000 -0.207497 0.183708 0.960831
15760.00000000 -12320.00000000 10.00000000 137 167 103 0.000000 0.000000 0.000000 0.000000 -60.708740 0.000000 178.000000 0.060394 0.401284 0.913961
15780.00000000 -12300.00000000 0.00000000 137 167 103 0.000000 0.000000 0.000000 0.000000 -60.708740 0.000000 178.000000 -0.234226 0.381538 0.894185
15810.00000000 -12750.00000000 50.00000000 137 167 103 0.000000 0.000000 0.000000 0.000000 -60.708740 0.000000 178.000000 0.416201 0.805085 0.422629
16510.00000000 -12400.00000000 -20.00000000 137 167 103 0.000000 0.000000 0.000000 0.000000 -60.708740 0.000000 178.000000 0.728518 0.540193 -0.421252
16510.00000000 -12430.00000000 -30.00000000 137 167 103 0.000000 0.000000 0.000000 0.000000 -60.708740 0.000000 178.000000 0.814703 0.060926 -0.576668
16550.00000000 -12490.00000000 -100.00000000 137 167 103 0.000000 0.000000 0.000000 0.000000 -60.708740 0.000000 178.000000 -0.379911 -0.529919 0.758191
16540.00000000 -12510.00000000 -110.00000000 137 167 103 0.000000 0.000000 0.000000 0.000000 -60.708740 0.000000 178.000000 -0.329487 -0.369332 0.868926
16170.00000000 -12150.00000000 -270.00000000 137 167 103 0.000000 0.000000 0.000000 0.000000 -60.708740 0.000000 177.000000 0.536982 0.493488 -0.684192
16180.00000000 -12140.00000000 -260.00000000 137 167 103 0.000000 0.000000 0.000000 0.000000 -60.708740 0.000000 177.000000 0.582186 0.484875 -0.652652
16480.00000000 -12370.00000000 -40.00000000 137 167 103 0.000000 0.000000 0.000000 0.000000 -60.708740 0.000000 178.000000 0.799600 -0.091424 -0.593533
16480.00000000 -12490.00000000 -80.00000000 137 167 103 0.000000 0.000000 0.000000 0.000000 -60.708740 0.000000 178.000000 -0.300132 -0.229011 0.925999
16480.00000000 -12460.00000000 -130.00000000 137 167 103 0.000000 0.000000 0.000000 0.000000 -60.708740 0.000000 178.000000 -0.325234 -0.091596 0.941187
16350.00000000 -12350.00000000 -40.00000000 137 167 103 0.000000 0.000000 0.000000 0.000000 -60.708740 0.000000 178.000000 0.744757 0.412658 -0.524453
16360.00000000 -12340.00000000 -20.00000000 137 167 103 0.000000 0.000000 0.000000 0.000000 -60.708740 0.000000 178.000000 -0.488649 -0.442581 0.751894
16360.00000000 -12370.00000000 -180.00000000 137 167 103 0.000000 0.000000 0.000000 0.000000 -60.708740 0.000000 178.000000 -0.421444 -0.434362 0.796062
16370.00000000 -12410.00000000 -170.00000000 137 167 103 0.000000 0.000000 0.000000 0.000000 -60.708740 0.000000 178.000000 0.712942 0.146206 -0.685811
16380.00000000 -12440.00000000 -180.00000000 137 167 103 0.000000 0.000000 0.000000 0.000000 -60.708740 0.000000 178.000000 -0.586212 -0.278014 0.760963
16390.00000000 -12440.00000000 -170.00000000 137 167 103 0.000000 0.000000 0.000000 0.000000 -60.708740 0.000000 178.000000 -0.558679 -0.023451 0.829052
16380.00000000 -12440.00000000 -180.00000000 137 167 103 0.000000 0.000000 0.000000 0.000000 -60.708740 0.000000 178.000000 -0.586212 -0.278014 0.760963
16380.00000000 -12430.00000000 -170.00000000 137 167 103 0.000000 0.000000 0.000000 0.000000 -60.708740 0.000000 178.000000 -0.361794 0.043102 0.931261
16400.00000000 -12490.00000000 -160.00000000 137 167 103 0.000000 0.000000 0.000000 0.000000 -60.708740 0.000000 178.000000 -0.525231 -0.360389 0.770877
16340.00000000 -12450.00000000 -140.00000000 137 167 103 0.000000 0.000000 0.000000 0.000000 -60.708740 0.000000 178.000000 0.688823 -0.244319 -0.682518
16370.00000000 -12430.00000000 -180.00000000 137 167 103 0.000000 0.000000 0.000000 0.000000 -60.708740 0.000000 178.000000 -0.304249 -0.154171 0.940034
16340.00000000 -12450.00000000 -160.00000000 137 167 103 0.000000 0.000000 0.000000 0.000000 -60.708740 0.000000 178.000000 -0.650303 0.020978 0.759386
16340.00000000 -12470.00000000 -160.00000000 137 167 103 0.000000 0.000000 0.000000 0.000000 -60.708740 0.000000 178.000000 -0.304127 -0.057746 0.950880
16360.00000000 -12430.00000000 -200.00000000 137 167 103 0.000000 0.000000 0.000000 0.000000 -60.708740 0.000000 178.000000 -0.278630 -0.067431 0.958028
16360.00000000 -12430.00000000 -200.00000000 137 167 103 0.000000 0.000000 0.000000 0.000000 -60.708740 0.000000 178.000000 -0.278630 -0.067431 0.958028
16370.00000000 -12440.00000000 -190.00000000 137 167 103 0.000000 0.000000 0.000000 0.000000 -60.708740 0.000000 178.000000 -0.567555 -0.100157 0.817221
16190.00000000 -12180.00000000 -250.00000000 137 167 103 0.000000 0.000000 0.000000 0.000000 -60.708740 0.000000 177.000000 -0.591494 -0.285384 0.754116
16220.00000000 -12170.00000000 -230.00000000 137 167 103 0.000000 0.000000 0.000000 0.000000 -60.708740 0.000000 177.000000 -0.323679 -0.478414 0.816304
16330.00000000 -12480.00000000 -160.00000000 137 167 103 0.000000 0.000000 0.000000 0.000000 -60.708740 0.000000 178.000000 -0.203762 0.022378 0.978765
16330.00000000 -12440.00000000 -160.00000000 137 167 103 0.000000 0.000000 0.000000 0.000000 -60.708740 0.000000 178.000000 0.681248 -0.283720 -0.674836
16300.00000000 -12490.00000000 -160.00000000 137 167 103 0.000000 0.000000 0.000000 0.000000 -60.708740 0.000000 178.000000 -0.157587 0.113609 0.980948
16020.00000000 -12160.00000000 -90.00000000 137 167 103 0.000000 0.000000 0.000000 0.000000 -60.708740 0.000000 177.000000 -0.492837 -0.573574 0.654312
16050.00000000 -12150.00000000 -150.00000000 137 167 103 0.000000 0.000000 0.000000 0.000000 -60.708740 0.000000 177.000000 0.852533 0.042834 -0.520916
16050.00000000 -12150.00000000 -150.00000000 137 167 103 0.000000 0.000000 0.000000 0.000000 -60.708740 0.000000 177.000000 0.852533 0.042834 -0.520916
16120.00000000 -12160.00000000 -210.00000000 137 167 103 0.000000 0.000000 0.000000 0.000000 -60.708740 0.000000 177.000000 -0.338546 -0.273498 0.900325
15960.00000000 -11880.00000000 -70.00000000 137 167 103 0.000000 0.000000 0.000000 0.000000 -60.708740 0.000000 177.000000 0.836822 0.525791 -0.152553
15930.00000000 -11900.00000000 -90.00000000 137 167 103 0.000000 0.000000 0.000000 0.000000 -60.708740 0.000000 177.000000 0.417147 0.603284 -0.679733
15960.00000000 -11930.00000000 -80.00000000 137 167 103 0.000000 0.000000 0.000000 0.000000 -60.708740 0.000000 177.000000 0.883929 0.305686 -0.353873
15960.00000000 -11990.00000000 -20.00000000 137 167 103 0.000000 0.000000 0.000000 0.000000 -60.708740 0.000000 177.000000 0.740329 0.453431 -0.496300
15990.00000000 -11960.00000000 -60.00000000 137 167 103 0.000000 0.000000 0.000000 0.000000 -60.708740 0.000000 177.000000 0.439229 0.745208 -0.501740
15970.00000000 -11960.00000000 -90.00000000 137 167 103 0.000000 0.000000 0.000000 0.000000 -60.708740 0.000000 177.000000 0.394557 0.751459 -0.528804
15920.00000000 -11930.00000000 -50.00000000 137 167 103 0.000000 0.000000 0.000000 0.000000 -60.708740 0.000000 177.000000 0.848786 0.526497 -0.048621
15900.00000000 -11860.00000000 -60.00000000 137 167 103 0.000000 0.000000 0.000000 0.000000 -60.708740 0.000000 177.000000 0.468520 0.626373 -0.623014
15880.00000000 -11860.00000000 -30.00000000 137 167 103 0.000000 0.000000 0.000000 0.000000 -60.708740 0.000000 177.000000 0.820884 0.442992 -0.360427
15890.00000000 -11850.00000000 -60.00000000 137 167 103 0.000000 0.000000 0.000000 0.000000 -60.708740 0.000000 177.000000 0.352946 0.806504 -0.474320
15890.00000000 -11850.00000000 -70.00000000 137 167 103 0.000000 0.000000 0.000000 0.000000 -60.708740 0.000000 177.000000 0.760153 0.599624 -0.250237
15880.00000000 -11870.00000000 -50.00000000 137 167 103 0.000000 0.000000 0.000000 0.000000 -60.708740 0.000000 177.000000 0.932974 0.334669 -0.132501
15900.00000000 -11870.00000000 -20.00000000 137 167 103 0.000000 0.000000 0.000000 0.000000 -60.708740 0.000000 177.000000 0.513920 0.801715 -0.305189
15910.00000000 -11880.00000000 -20.00000000 137 167 103 0.000000 0.000000 0.000000 0.000000 -60.708740 0.000000 177.000000 0.401739 0.749367 -0.526360
15880.00000000 -11870.00000000 -50.00000000 137 167 103 0.000000 0.000000 0.000000 0.000000 -60.708740 0.000000 177.000000 0.932974 0.334669 -0.132501
15900.00000000 -11890.00000000 -30.00000000 137 167 103 0.000000 0.000000 0.000000 0.000000 -60.708740 0.000000 177.000000 0.427989 0.759230 -0.490302
15880.00000000 -11870.00000000 -30.00000000 137 167 103 0.000000 0.000000 0.000000 0.000000 -60.708740 0.000000 177.000000 0.768309 0.477950 -0.425751
15870.00000000 -11890.00000000 -70.00000000 137 167 103 0.000000 0.000000 0.000000 0.000000 -60.708740 0.000000 177.000000 0.701551 0.276465 -0.656805
