//X Y Z R G B PointSourceId ScanDirectionFlag NumberOfReturns ReturnNumber GpsTime Intensity Classification Nx Ny Nz
17780.00000000 12320.00000000 -1010.00000000 101 231 89 97.000000 1.000000 4.000000 1.000000 -60.708740 114.000000 229.000000 0.909843 0.130378 0.393938
17780.00000000 12320.00000000 -1010.00000000 101 231 89 97.000000 1.000000 4.000000 1.000000 -60.708740 114.000000 229.000000 0.909843 0.130378 0.393938
17790.00000000 12280.00000000 -970.00000000 101 231 89 97.000000 1.000000 4.000000 1.000000 -60.708740 114.000000 229.000000 0.993961 -0.025317 0.106771
17790.00000000 12280.00000000 -960.00000000 101 231 89 97.000000 1.000000 4.000000 1.000000 -60.708740 114.000000 229.000000 0.944457 -0.304102 0.124588
17830.00000000 12220.00000000 -860.00000000 101 231 89 97.000000 1.000000 4.000000 1.000000 -60.708740 114.000000 229.000000 0.946202 0.319680 -0.050070
17830.00000000 12240.00000000 -850.00000000 101 231 89 97.000000 1.000000 4.000000 1.000000 -60.708740 114.000000 229.000000 0.905492 -0.194962 -0.376927
17810.00000000 12250.00000000 -830.00000000 101 231 89 97.000000 1.000000 4.000000 1.000000 -60.708740 114.000000 229.000000 0.898266 0.107568 -0.426083
17840.00000000 12260.00000000 -860.00000000 101 231 89 97.000000 1.000000 4.000000 1.000000 -60.708740 114.000000 229.000000 0.937128 0.072492 -0.341373
17830.00000000 12260.00000000 -840.00000000 101 231 89 97.000000 1.000000 4.000000 1.000000 -60.708740 114.000000 229.000000 0.843420 0.077963 -0.531567
17830.00000000 12220.00000000 -860.00000000 101 231 89 97.000000 1.000000 4.000000 1.000000 -60.708740 114.000000 229.000000 0.946202 0.319680 -0.050070
17830.00000000 12230.00000000 -850.00000000 101 231 89 97.000000 1.000000 4.000000 1.000000 -60.708740 114.000000 229.000000 0.955135 0.253729 -0.152769
17840.00000000 12180.00000000 -860.00000000 101 231 89 97.000000 1.000000 4.000000 1.000000 -60.708740 114.000000 229.000000 0.979656 0.149105 0.134318
17830.00000000 12200.00000000 -860.00000000 101 231 89 97.000000 1.000000 4.000000 1.000000 -60.708740 114.000000 229.000000 0.954342 -0.272481 -0.122419
17820.00000000 12190.00000000 -860.00000000 101 231 89 97.000000 1.000000 4.000000 1.000000 -60.708740 114.000000 229.000000 0.881543 -0.198678 -0.428262
17830.00000000 12130.00000000 -860.00000000 101 231 89 97.000000 1.000000 4.000000 1.000000 -60.708740 114.000000 229.000000 0.800558 -0.154126 -0.579095
17840.00000000 12150.00000000 -840.00000000 101 231 89 97.000000 1.000000 4.000000 1.000000 -60.708740 114.000000 229.000000 0.830852 0.221052 -0.510707
17830.00000000 12120.00000000 -850.00000000 101 231 89 97.000000 1.000000 4.000000 1.000000 -60.708740 114.000000 229.000000 0.744029 0.089167 -0.662171
17840.00000000 12220.00000000 -880.00000000 101 231 89 97.000000 1.000000 4.000000 1.000000 -60.708740 114.000000 229.000000 0.940303 0.085963 -0.329304
17810.00000000 12250.00000000 -880.00000000 101 231 89 97.000000 1.000000 4.000000 1.000000 -60.708740 114.000000 229.000000 0.943821 0.309252 -0.116471
17840.00000000 12220.00000000 -880.00000000 101 231 89 97.000000 1.000000 4.000000 1.000000 -60.708740 114.000000 229.000000 0.940303 0.085963 -0.329304
17810.00000000 12190.00000000 -920.00000000 101 231 89 97.000000 1.000000 4.000000 1.000000 -60.708740 114.000000 229.000000 0.954747 0.249703 0.161573
17810.00000000 12190.00000000 -920.00000000 101 231 89 97.000000 1.000000 4.000000 1.000000 -60.708740 114.000000 229.000000 0.954747 0.249703 0.161573
17810.00000000 12190.00000000 -930.00000000 101 231 89 97.000000 1.000000 4.000000 1.000000 -60.708740 114.000000 229.000000 0.992248 0.109998 -0.057834
17800.00000000 12240.00000000 -940.00000000 101 231 89 97.000000 1.000000 4.000000 1.000000 -60.708740 114.000000 229.000000 0.998304 -0.039004 -0.043221
17800.00000000 12240.00000000 -940.00000000 101 231 89 97.000000 1.000000 4.000000 1.000000 -60.708740 114.000000 229.000000 0.998304 -0.039004 -0.043221
17800.00000000 12180.00000000 -890.00000000 101 231 89 97.000000 1.000000 4.000000 1.000000 -60.708740 114.000000 229.000000 0.944057 0.055685 0.325046
17800.00000000 12210.00000000 -940.00000000 101 231 89 97.000000 1.000000 4.000000 1.000000 -60.708740 114.000000 229.000000 0.995675 -0.075746 -0.053791
17790.00000000 12250.00000000 -980.00000000 101 231 89 97.000000 1.000000 4.000000 1.000000 -60.708740 114.000000 229.000000 0.908950 -0.242871 0.338857
17790.00000000 12220.00000000 -1000.00000000 101 231 89 97.000000 1.000000 4.000000 1.000000 -60.708740 114.000000 229.000000 0.929474 0.081580 0.359753
17800.00000000 12240.00000000 -990.00000000 101 231 89 97.000000 1.000000 4.000000 1.000000 -60.708740 114.000000 229.000000 0.955440 0.052023 0.290565
17800.00000000 12260.00000000 -990.00000000 101 231 89 97.000000 1.000000 4.000000 1.000000 -60.708740 114.000000 229.000000 0.660752 -0.133349 0.738664
17800.00000000 12250.00000000 -990.00000000 101 231 89 97.000000 1.000000 4.000000 1.000000 -60.708740 114.000000 229.000000 0.746575 -0.496069 0.443330
17790.00000000 12190.00000000 -980.00000000 101 231 89 97.000000 1.000000 4.000000 1.000000 -60.708740 114.000000 229.000000 0.907744 -0.252882 0.334740
17780.00000000 12180.00000000 -980.00000000 101 231 89 97.000000 1.000000 4.000000 1.000000 -60.708740 114.000000 229.000000 0.754231 0.243047 0.609970
17800.00000000 12180.00000000 -1010.00000000 101 231 89 97.000000 1.000000 4.000000 1.000000 -60.708740 114.000000 229.000000 0.852601 0.074691 0.517197
17790.00000000 12200.00000000 -1000.00000000 101 231 89 97.000000 1.000000 4.000000 1.000000 -60.708740 114.000000 229.000000 0.834317 -0.260628 0.485786
17820.00000000 12150.00000000 -880.00000000 101 231 89 97.000000 1.000000 4.000000 1.000000 -60.708740 114.000000 229.000000 0.955242 0.039015 -0.293243
17810.00000000 12140.00000000 -930.00000000 101 231 89 97.000000 1.000000 4.000000 1.000000 -60.708740 114.000000 229.000000 0.983029 -0.127273 0.132121
17830.00000000 12110.00000000 -870.00000000 101 231 89 97.000000 1.000000 4.000000 1.000000 -60.708740 114.000000 229.000000 0.908259 0.121380 -0.400415
17840.00000000 12120.00000000 -890.00000000 101 231 89 97.000000 1.000000 4.000000 1.000000 -60.708740 114.000000 229.000000 0.961853 0.190792 0.196055
17840.00000000 12130.00000000 -890.00000000 101 231 89 97.000000 1.000000 4.000000 1.000000 -60.708740 114.000000 229.000000 0.936056 -0.351181 -0.021709
17830.00000000 12120.00000000 -880.00000000 101 231 89 97.000000 1.000000 4.000000 1.000000 -60.708740 114.000000 229.000000 0.968098 -0.027938 0.249009
17830.00000000 12110.00000000 -870.00000000 101 231 89 97.000000 1.000000 4.000000 1.000000 -60.708740 114.000000 229.000000 0.908259 0.121380 -0.400415
17840.00000000 12100.00000000 -890.00000000 101 231 89 97.000000 1.000000 4.000000 1.000000 -60.708740 114.000000 229.000000 0.991923 0.007706 0.126605
17820.00000000 12110.00000000 -910.00000000 101 231 89 97.000000 1.000000 4.000000 1.000000 -60.708740 114.000000 229.000000 0.950880 0.304127 0.057746
17800.00000000 12100.00000000 -940.00000000 101 231 89 97.000000 1.000000 4.000000 1.000000 -60.708740 114.000000 229.000000 0.909420 0.196825 0.366354
17810.00000000 12160.00000000 -1010.00000000 101 231 89 97.000000 1.000000 4.000000 1.000000 -60.708740 114.000000 229.000000 0.806878 -0.271048 0.524862
17810.00000000 12100.00000000 -950.00000000 101 231 89 97.000000 1.000000 4.000000 1.000000 -60.708740 114.000000 229.000000 0.825285 0.034793 0.563643
17810.00000000 12100.00000000 -1000.00000000 101 231 89 97.000000 1.000000 4.000000 1.000000 -60.708740 114.000000 229.000000 0.971709 0.005932 0.236105
17800.00000000 12160.00000000 -970.00000000 101 231 89 97.000000 1.000000 4.000000 1.000000 -60.708740 114.000000 229.000000 0.945105 0.069090 0.319380
17800.00000000 12170.00000000 -960.00000000 101 231 89 97.000000 1.000000 4.000000 1.000000 -60.708740 114.000000 229.000000 0.986025 0.139162 0.091585
17800.00000000 12150.00000000 -980.00000000 101 231 89 97.000000 1.000000 4.000000 1.000000 -60.708740 114.000000 229.000000 0.861790 -0.425557 0.276078
17790.00000000 12160.00000000 -990.00000000 101 231 89 97.000000 1.000000 4.000000 1.000000 -60.708740 114.000000 229.000000 0.905343 0.009145 0.424583
17790.00000000 12150.00000000 -1000.00000000 101 231 89 97.000000 1.000000 4.000000 1.000000 -60.708740 114.000000 229.000000 0.908232 0.022409 0.417866
17780.00000000 12170.00000000 -990.00000000 101 231 89 97.000000 1.000000 4.000000 1.000000 -60.708740 114.000000 229.000000 0.944972 0.209841 0.250987
17800.00000000 12150.00000000 -1000.00000000 101 231 89 97.000000 1.000000 4.000000 1.000000 -60.708740 114.000000 229.000000 0.924977 0.006397 0.379970
17800.00000000 12130.00000000 -960.00000000 101 231 89 97.000000 1.000000 4.000000 1.000000 -60.708740 114.000000 229.000000 0.999815 0.017014 -0.009007
17800.00000000 12100.00000000 -950.00000000 101 231 89 97.000000 1.000000 4.000000 1.000000 -60.708740 114.000000 229.000000 0.986742 0.021674 0.160845
17780.00000000 12110.00000000 -950.00000000 101 231 89 97.000000 1.000000 4.000000 1.000000 -60.708740 114.000000 229.000000 0.958057 0.146278 0.246433
17800.00000000 12110.00000000 -990.00000000 101 231 89 97.000000 1.000000 4.000000 1.000000 -60.708740 114.000000 229.000000 0.901092 0.069735 0.427984
17820.00000000 12280.00000000 -1040.00000000 101 231 89 97.000000 1.000000 4.000000 1.000000 -60.708740 114.000000 229.000000 0.644348 -0.395885 0.654287
17810.00000000 12170.00000000 -1040.00000000 101 231 89 97.000000 1.000000 4.000000 1.000000 -60.708740 114.000000 229.000000 0.653735 -0.126577 0.746062
17810.00000000 12160.00000000 -1040.00000000 101 231 89 97.000000 1.000000 4.000000 1.000000 -60.708740 114.000000 229.000000 0.687186 -0.440931 0.577369
17830.00000000 11930.00000000 -840.00000000 101 231 89 97.000000 1.000000 4.000000 1.000000 -60.708740 114.000000 229.000000 0.939884 0.265167 -0.215188
17840.00000000 12080.00000000 -900.00000000 101 231 89 97.000000 1.000000 4.000000 1.000000 -60.708740 114.000000 229.000000 0.967488 0.202798 -0.151130
17840.00000000 12080.00000000 -900.00000000 101 231 89 97.000000 1.000000 4.000000 1.000000 -60.708740 114.000000 229.000000 0.967488 0.202798 -0.151130
17830.00000000 12070.00000000 -880.00000000 101 231 89 97.000000 1.000000 4.000000 1.000000 -60.708740 114.000000 229.000000 0.979475 -0.056485 0.193491
17830.00000000 12090.00000000 -880.00000000 101 231 89 97.000000 1.000000 4.000000 1.000000 -60.708740 114.000000 229.000000 0.900353 0.396155 -0.180071
17830.00000000 12090.00000000 -880.00000000 101 231 89 97.000000 1.000000 4.000000 1.000000 -60.708740 114.000000 229.000000 0.900353 0.396155 -0.180071
17840.00000000 12060.00000000 -890.00000000 101 231 89 97.000000 1.000000 4.000000 1.000000 -60.708740 114.000000 229.000000 0.982899 0.160399 0.090451
17840.00000000 12090.00000000 -900.00000000 101 231 89 97.000000 1.000000 4.000000 1.000000 -60.708740 114.000000 229.000000 0.966404 -0.116480 -0.229121
17820.00000000 12080.00000000 -920.00000000 101 231 89 97.000000 1.000000 4.000000 1.000000 -60.708740 114.000000 229.000000 0.901143 -0.410126 0.140493
17810.00000000 12080.00000000 -920.00000000 101 231 89 97.000000 1.000000 4.000000 1.000000 -60.708740 114.000000 229.000000 0.991695 0.005491 0.128492
17840.00000000 12070.00000000 -910.00000000 101 231 89 97.000000 1.000000 4.000000 1.000000 -60.708740 114.000000 229.000000 0.949905 0.052417 -0.308112
17810.00000000 12010.00000000 -890.00000000 101 231 89 97.000000 1.000000 4.000000 1.000000 -60.708740 114.000000 229.000000 0.905867 0.335127 -0.259028
17830.00000000 12040.00000000 -900.00000000 101 231 89 97.000000 1.000000 4.000000 1.000000 -60.708740 114.000000 229.000000 0.943621 -0.113448 -0.310981
17830.00000000 12040.00000000 -930.00000000 101 231 89 97.000000 1.000000 4.000000 1.000000 -60.708740 114.000000 229.000000 0.986960 0.160930 -0.003376
17830.00000000 12020.00000000 -910.00000000 101 231 89 97.000000 1.000000 4.000000 1.000000 -60.708740 114.000000 229.000000 0.970910 0.206874 -0.120571
17810.00000000 12020.00000000 -940.00000000 101 231 89 97.000000 1.000000 4.000000 1.000000 -60.708740 114.000000 229.000000 0.846581 0.145254 0.512057
17820.00000000 12050.00000000 -930.00000000 101 231 89 97.000000 1.000000 4.000000 1.000000 -60.708740 114.000000 229.000000 0.936977 0.300331 0.178538
17830.00000000 12030.00000000 -920.00000000 101 231 89 97.000000 1.000000 4.000000 1.000000 -60.708740 114.000000 229.000000 0.986245 0.140892 -0.086430
17810.00000000 12020.00000000 -940.00000000 101 231 89 97.000000 1.000000 4.000000 1.000000 -60.708740 114.000000 229.000000 0.846581 0.145254 0.512057
17830.00000000 12050.00000000 -920.00000000 101 231 89 97.000000 1.000000 4.000000 1.000000 -60.708740 114.000000 229.000000 0.955783 -0.289900 -0.049372
17820.00000000 12040.00000000 -920.00000000 101 231 89 97.000000 1.000000 4.000000 1.000000 -60.708740 114.000000 229.000000 0.991367 -0.058181 -0.117504
17830.00000000 12010.00000000 -910.00000000 101 231 89 97.000000 1.000000 4.000000 1.000000 -60.708740 114.000000 229.000000 0.959134 -0.280631 -0.036170
17800.00000000 12070.00000000 -900.00000000 101 231 89 97.000000 1.000000 4.000000 1.000000 -60.708740 114.000000 229.000000 0.923878 -0.370365 -0.096322
17810.00000000 12060.00000000 -960.00000000 101 231 89 97.000000 1.000000 4.000000 1.000000 -60.708740 114.000000 229.000000 0.964150 0.098331 0.246465
17820.00000000 12080.00000000 -1000.00000000 101 231 89 97.000000 1.000000 4.000000 1.000000 -60.708740 114.000000 229.000000 0.948677 0.003720 0.316226
17810.00000000 12080.00000000 -1010.00000000 101 231 89 97.000000 1.000000 4.000000 1.000000 -60.708740 114.000000 229.000000 0.907108 -0.112866 0.405482
17820.00000000 12010.00000000 -950.00000000 101 231 89 97.000000 1.000000 4.000000 1.000000 -60.708740 114.000000 229.000000 0.843485 0.083922 0.530556
17820.00000000 12030.00000000 -950.00000000 101 231 89 97.000000 1.000000 4.000000 1.000000 -60.708740 114.000000 229.000000 0.982034 -0.063242 0.177792
17810.00000000 12040.00000000 -960.00000000 101 231 89 97.000000 1.000000 4.000000 1.000000 -60.708740 114.000000 229.000000 0.980338 0.167673 0.104031
17820.00000000 12010.00000000 -950.00000000 101 231 89 97.000000 1.000000 4.000000 1.000000 -60.708740 114.000000 229.000000 0.843485 0.083922 0.530556
17820.00000000 12010.00000000 -950.00000000 101 231 89 97.000000 1.000000 4.000000 1.000000 -60.708740 114.000000 229.000000 0.843485 0.083922 0.530556
17830.00000000 12030.00000000 -1020.00000000 101 231 89 97.000000 1.000000 4.000000 1.000000 -60.708740 114.000000 229.000000 0.946748 -0.029150 0.320652
17810.00000000 12030.00000000 -1030.00000000 101 231 89 97.000000 1.000000 4.000000 1.000000 -60.708740 114.000000 229.000000 0.734388 0.202536 0.647807
17810.00000000 12040.00000000 -1010.00000000 101 231 89 97.000000 1.000000 4.000000 1.000000 -60.708740 114.000000 229.000000 0.916961 -0.264258 0.298915
17800.00000000 12080.00000000 -970.00000000 101 231 89 97.000000 1.000000 4.000000 1.000000 -60.708740 114.000000 229.000000 0.940437 0.220220 0.259001
17790.00000000 12060.00000000 -1030.00000000 101 231 89 97.000000 1.000000 4.000000 1.000000 -60.708740 114.000000 229.000000 0.718795 0.219848 0.659545
17770.00000000 12080.00000000 -1030.00000000 101 231 89 97.000000 1.000000 4.000000 1.000000 -60.708740 114.000000 229.000000 0.759185 0.079838 0.645960
17800.00000000 12060.00000000 -990.00000000 101 231 89 97.000000 1.000000 4.000000 1.000000 -60.708740 114.000000 229.000000 0.909856 -0.363655 0.199795
17800.00000000 12040.00000000 -1020.00000000 101 231 89 97.000000 1.000000 4.000000 1.000000 -60.708740 114.000000 229.000000 0.933319 0.014044 0.358773
17830.00000000 11990.00000000 -920.00000000 101 231 89 97.000000 1.000000 4.000000 1.000000 -60.708740 114.000000 229.000000 0.987860 -0.148698 -0.044955
17820.00000000 12000.00000000 -910.00000000 101 231 89 97.000000 1.000000 4.000000 1.000000 -60.708740 114.000000 229.000000 0.968169 0.094919 0.231601
17820.00000000 11970.00000000 -930.00000000 101 231 89 97.000000 1.000000 4.000000 1.000000 -60.708740 114.000000 229.000000 0.984572 0.160334 -0.070072
17820.00000000 11980.00000000 -930.00000000 101 231 89 97.000000 1.000000 4.000000 1.000000 -60.708740 114.000000 229.000000 0.962172 -0.136709 -0.235661
17830.00000000 12000.00000000 -920.00000000 101 231 89 97.000000 1.000000 4.000000 1.000000 -60.708740 114.000000 229.000000 0.991614 0.062760 0.112969
17840.00000000 11930.00000000 -900.00000000 101 231 89 97.000000 1.000000 4.000000 1.000000 -60.708740 114.000000 229.000000 0.955969 0.217934 -0.196542
17830.00000000 11940.00000000 -900.00000000 101 231 89 97.000000 1.000000 4.000000 1.000000 -60.708740 114.000000 229.000000 0.992579 -0.111538 0.048446
17830.00000000 11930.00000000 -920.00000000 101 231 89 97.000000 1.000000 4.000000 1.000000 -60.708740 114.000000 229.000000 0.926551 0.154194 -0.343115
17830.00000000 11930.00000000 -910.00000000 101 231 89 97.000000 1.000000 4.000000 1.000000 -60.708740 114.000000 229.000000 0.946315 0.280239 -0.161104
17820.00000000 11950.00000000 -940.00000000 101 231 89 97.000000 1.000000 4.000000 1.000000 -60.708740 114.000000 229.000000 0.966536 -0.222651 -0.127413
17820.00000000 11950.00000000 -940.00000000 101 231 89 97.000000 1.000000 4.000000 1.000000 -60.708740 114.000000 229.000000 0.966536 -0.222651 -0.127413
17830.00000000 11930.00000000 -910.00000000 101 231 89 97.000000 1.000000 4.000000 1.000000 -60.708740 114.000000 229.000000 0.946315 0.280239 -0.161104
17820.00000000 11980.00000000 -950.00000000 101 231 89 97.000000 1.000000 4.000000 1.000000 -60.708740 114.000000 229.000000 0.999486 0.019398 -0.025523
17820.00000000 11970.00000000 -970.00000000 101 231 89 97.000000 1.000000 4.000000 1.000000 -60.708740 114.000000 229.000000 0.973573 -0.119341 0.194715
17820.00000000 11980.00000000 -950.00000000 101 231 89 97.000000 1.000000 4.000000 1.000000 -60.708740 114.000000 229.000000 0.999486 0.019398 -0.025523
17820.00000000 12000.00000000 -1000.00000000 101 231 89 97.000000 1.000000 4.000000 1.000000 -60.708740 114.000000 229.000000 0.942865 0.026721 0.332102
17810.00000000 11990.00000000 -1000.00000000 101 231 89 97.000000 1.000000 4.000000 1.000000 -60.708740 114.000000 229.000000 0.788396 0.151672 0.596177
17830.00000000 11930.00000000 -960.00000000 101 231 89 97.000000 1.000000 4.000000 1.000000 -60.708740 114.000000 229.000000 0.923544 0.140268 0.356919
17810.00000000 11950.00000000 -950.00000000 101 231 89 97.000000 1.000000 4.000000 1.000000 -60.708740 114.000000 229.000000 0.988013 -0.092810 -0.123355
17820.00000000 11960.00000000 -970.00000000 101 231 89 97.000000 1.000000 4.000000 1.000000 -60.708740 114.000000 229.000000 0.913076 -0.241654 0.328476
17820.00000000 11950.00000000 -970.00000000 101 231 89 97.000000 1.000000 4.000000 1.000000 -60.708740 114.000000 229.000000 0.958652 0.250482 0.135077
17810.00000000 11950.00000000 -950.00000000 101 231 89 97.000000 1.000000 4.000000 1.000000 -60.708740 114.000000 229.000000 0.988013 -0.092810 -0.123355
17820.00000000 11940.00000000 -1010.00000000 101 231 89 97.000000 1.000000 4.000000 1.000000 -60.708740 114.000000 229.000000 0.941220 -0.047771 0.334398
17810.00000000 11960.00000000 -1010.00000000 101 231 89 97.000000 1.000000 4.000000 1.000000 -60.708740 114.000000 229.000000 0.973248 -0.158613 0.166226
17800.00000000 11990.00000000 -1020.00000000 101 231 89 97.000000 1.000000 4.000000 1.000000 -60.708740 114.000000 229.000000 0.961602 -0.185989 0.201818
17800.00000000 11990.00000000 -990.00000000 101 231 89 97.000000 1.000000 4.000000 1.000000 -60.708740 114.000000 229.000000 0.794111 -0.173948 0.582348
17780.00000000 11970.00000000 -1030.00000000 101 231 89 97.000000 1.000000 4.000000 1.000000 -60.708740 114.000000 229.000000 0.707710 -0.351403 0.612913
17740.00000000 12010.00000000 -900.00000000 101 231 89 97.000000 1.000000 4.000000 1.000000 -60.708740 114.000000 229.000000 0.963215 0.190022 -0.190022
17830.00000000 11910.00000000 -900.00000000 101 231 89 97.000000 1.000000 4.000000 1.000000 -60.708740 114.000000 229.000000 0.962425 -0.010950 -0.271328
17830.00000000 11910.00000000 -940.00000000 101 231 89 97.000000 1.000000 4.000000 1.000000 -60.708740 114.000000 229.000000 0.998902 -0.046293 0.007201
17840.00000000 11890.00000000 -920.00000000 101 231 89 97.000000 1.000000 4.000000 1.000000 -60.708740 114.000000 229.000000 0.978664 -0.132386 -0.157131
17840.00000000 11900.00000000 -910.00000000 101 231 89 97.000000 1.000000 4.000000 1.000000 -60.708740 114.000000 229.000000 0.989154 -0.042311 -0.140654
17840.00000000 11890.00000000 -910.00000000 101 231 89 97.000000 1.000000 4.000000 1.000000 -60.708740 114.000000 229.000000 0.951091 -0.280672 0.129029
17830.00000000 11890.00000000 -910.00000000 101 231 89 97.000000 1.000000 4.000000 1.000000 -60.708740 114.000000 229.000000 0.919657 0.372012 -0.125848
17840.00000000 11900.00000000 -910.00000000 101 231 89 97.000000 1.000000 4.000000 1.000000 -60.708740 114.000000 229.000000 0.989154 -0.042311 -0.140654
17830.00000000 11880.00000000 -940.00000000 101 231 89 97.000000 1.000000 4.000000 1.000000 -60.708740 114.000000 229.000000 0.958057 0.246433 -0.146278
17820.00000000 11870.00000000 -920.00000000 101 231 89 97.000000 1.000000 4.000000 1.000000 -60.708740 114.000000 229.000000 0.960579 0.241778 0.137226
17840.00000000 11880.00000000 -920.00000000 101 231 89 97.000000 1.000000 4.000000 1.000000 -60.708740 114.000000 229.000000 0.976265 -0.161666 -0.144121
17840.00000000 11870.00000000 -930.00000000 101 231 89 97.000000 1.000000 4.000000 1.000000 -60.708740 114.000000 229.000000 0.995609 -0.031555 -0.088136
17830.00000000 11860.00000000 -930.00000000 101 231 89 97.000000 1.000000 4.000000 1.000000 -60.708740 114.000000 229.000000 0.984526 -0.119009 -0.128626
17830.00000000 11860.00000000 -930.00000000 101 231 89 97.000000 1.000000 4.000000 1.000000 -60.708740 114.000000 229.000000 0.984526 -0.119009 -0.128626
17840.00000000 11880.00000000 -930.00000000 101 231 89 97.000000 1.000000 4.000000 1.000000 -60.708740 114.000000 229.000000 0.935625 -0.045545 -0.350046
17840.00000000 11860.00000000 -930.00000000 101 231 89 97.000000 1.000000 4.000000 1.000000 -60.708740 114.000000 229.000000 0.952184 0.076226 -0.295862
17840.00000000 11880.00000000 -910.00000000 101 231 89 97.000000 1.000000 4.000000 1.000000 -60.708740 114.000000 229.000000 0.958652 0.135077 -0.250482
17840.00000000 11870.00000000 -910.00000000 101 231 89 97.000000 1.000000 4.000000 1.000000 -60.708740 114.000000 229.000000 0.959147 0.104846 -0.262762
17820.00000000 11900.00000000 -950.00000000 101 231 89 97.000000 1.000000 4.000000 1.000000 -60.708740 114.000000 229.000000 0.988689 0.145160 -0.037719
17830.00000000 11890.00000000 -970.00000000 101 231 89 97.000000 1.000000 4.000000 1.000000 -60.708740 114.000000 229.000000 0.989873 0.135552 -0.042147
17830.00000000 11900.00000000 -980.00000000 101 231 89 97.000000 1.000000 4.000000 1.000000 -60.708740 114.000000 229.000000 0.995977 -0.085431 0.027035
17820.00000000 11900.00000000 -950.00000000 101 231 89 97.000000 1.000000 4.000000 1.000000 -60.708740 114.000000 229.000000 0.988689 0.145160 -0.037719
17820.00000000 11890.00000000 -960.00000000 101 231 89 97.000000 1.000000 4.000000 1.000000 -60.708740 114.000000 229.000000 0.985178 -0.125997 -0.116397
17820.00000000 11910.00000000 -950.00000000 101 231 89 97.000000 1.000000 4.000000 1.000000 -60.708740 114.000000 229.000000 0.947430 -0.317510 -0.039529
17820.00000000 11900.00000000 -960.00000000 101 231 89 97.000000 1.000000 4.000000 1.000000 -60.708740 114.000000 229.000000 0.991841 -0.046369 -0.118749
17820.00000000 11890.00000000 -1030.00000000 101 231 89 97.000000 1.000000 4.000000 1.000000 -60.708740 114.000000 229.000000 0.851402 0.040017 0.522985
17820.00000000 11890.00000000 -1030.00000000 101 231 89 97.000000 1.000000 4.000000 1.000000 -60.708740 114.000000 229.000000 0.851402 0.040017 0.522985
17820.00000000 11900.00000000 -1030.00000000 101 231 89 97.000000 1.000000 4.000000 1.000000 -60.708740 114.000000 229.000000 0.815029 -0.134606 0.563568
17830.00000000 11860.00000000 -950.00000000 101 231 89 97.000000 1.000000 4.000000 1.000000 -60.708740 114.000000 229.000000 0.963951 -0.058915 -0.259477
17820.00000000 11880.00000000 -970.00000000 101 231 89 97.000000 1.000000 4.000000 1.000000 -60.708740 114.000000 229.000000 0.967393 -0.167060 0.190371
17820.00000000 11880.00000000 -1030.00000000 101 231 89 97.000000 1.000000 4.000000 1.000000 -60.708740 114.000000 229.000000 0.900079 -0.116547 0.419850
17820.00000000 11860.00000000 -1010.00000000 101 231 89 97.000000 1.000000 4.000000 1.000000 -60.708740 114.000000 229.000000 0.960797 -0.064559 0.269631
17800.00000000 11880.00000000 -1020.00000000 101 231 89 97.000000 1.000000 4.000000 1.000000 -60.708740 114.000000 229.000000 0.900571 -0.164651 0.402322
17820.00000000 11830.00000000 -890.00000000 101 231 89 97.000000 1.000000 4.000000 1.000000 -60.708740 114.000000 229.000000 0.865227 -0.298618 -0.402752
17840.00000000 11820.00000000 -940.00000000 101 231 89 97.000000 1.000000 4.000000 1.000000 -60.708740 114.000000 229.000000 0.992406 0.103210 0.066917
17840.00000000 11780.00000000 -920.00000000 101 231 89 97.000000 1.000000 4.000000 1.000000 -60.708740 114.000000 229.000000 0.984568 0.060280 0.164292
17830.00000000 11790.00000000 -940.00000000 101 231 89 97.000000 1.000000 4.000000 1.000000 -60.708740 114.000000 229.000000 0.911434 0.184576 -0.367722
17820.00000000 11790.00000000 -940.00000000 101 231 89 97.000000 1.000000 4.000000 1.000000 -60.708740 114.000000 229.000000 0.911376 0.193757 -0.363115
17840.00000000 11780.00000000 -910.00000000 101 231 89 97.000000 1.000000 4.000000 1.000000 -60.708740 114.000000 229.000000 0.775767 0.191264 -0.601334
17840.00000000 11770.00000000 -930.00000000 101 231 89 97.000000 1.000000 4.000000 1.000000 -60.708740 114.000000 229.000000 0.980187 0.193661 0.041584
17830.00000000 11800.00000000 -980.00000000 101 231 89 97.000000 1.000000 4.000000 1.000000 -60.708740 114.000000 229.000000 0.999441 0.011184 -0.031518
17830.00000000 11840.00000000 -950.00000000 101 231 89 97.000000 1.000000 4.000000 1.000000 -60.708740 114.000000 229.000000 0.955175 0.196929 0.221043
17830.00000000 11840.00000000 -950.00000000 101 231 89 97.000000 1.000000 4.000000 1.000000 -60.708740 114.000000 229.000000 0.955175 0.196929 0.221043
17830.00000000 11830.00000000 -980.00000000 101 231 89 97.000000 1.000000 4.000000 1.000000 -60.708740 114.000000 229.000000 0.912036 0.003881 0.410093
17830.00000000 11840.00000000 -960.00000000 101 231 89 97.000000 1.000000 4.000000 1.000000 -60.708740 114.000000 229.000000 0.977002 -0.190965 -0.094867
17830.00000000 11840.00000000 -960.00000000 101 231 89 97.000000 1.000000 4.000000 1.000000 -60.708740 114.000000 229.000000 0.977002 -0.190965 -0.094867
17840.00000000 11820.00000000 -950.00000000 101 231 89 97.000000 1.000000 4.000000 1.000000 -60.708740 114.000000 229.000000 0.969048 0.120972 -0.215202
17820.00000000 11840.00000000 -960.00000000 101 231 89 97.000000 1.000000 4.000000 1.000000 -60.708740 114.000000 229.000000 0.985683 -0.033511 -0.165244
17830.00000000 11830.00000000 -950.00000000 101 231 89 97.000000 1.000000 4.000000 1.000000 -60.708740 114.000000 229.000000 0.964818 0.262692 -0.010895
17830.00000000 11840.00000000 -950.00000000 101 231 89 97.000000 1.000000 4.000000 1.000000 -60.708740 114.000000 229.000000 0.955175 0.196929 0.221043
17820.00000000 11840.00000000 -980.00000000 101 231 89 97.000000 1.000000 4.000000 1.000000 -60.708740 114.000000 229.000000 0.880057 -0.446574 0.161465
17820.00000000 11830.00000000 -1030.00000000 101 231 89 97.000000 1.000000 4.000000 1.000000 -60.708740 114.000000 229.000000 0.931403 -0.084187 0.354120
17820.00000000 11840.00000000 -1030.00000000 101 231 89 97.000000 1.000000 4.000000 1.000000 -60.708740 114.000000 229.000000 0.835121 -0.321200 0.446547
17810.00000000 11810.00000000 -1030.00000000 101 231 89 97.000000 1.000000 4.000000 1.000000 -60.708740 114.000000 229.000000 0.785955 -0.485775 0.382487
17830.00000000 11770.00000000 -960.00000000 101 231 89 97.000000 1.000000 4.000000 1.000000 -60.708740 114.000000 229.000000 0.978010 0.017611 -0.207812
17830.00000000 11760.00000000 -970.00000000 101 231 89 97.000000 1.000000 4.000000 1.000000 -60.708740 114.000000 229.000000 0.981787 -0.103410 0.159373
17830.00000000 11770.00000000 -960.00000000 101 231 89 97.000000 1.000000 4.000000 1.000000 -60.708740 114.000000 229.000000 0.978010 0.017611 -0.207812
17840.00000000 11790.00000000 -950.00000000 101 231 89 97.000000 1.000000 4.000000 1.000000 -60.708740 114.000000 229.000000 0.995597 0.009645 -0.093237
17820.00000000 11770.00000000 -1010.00000000 101 231 89 97.000000 1.000000 4.000000 1.000000 -60.708740 114.000000 229.000000 0.760192 0.316613 0.567331
17830.00000000 11790.00000000 -1020.00000000 101 231 89 97.000000 1.000000 4.000000 1.000000 -60.708740 114.000000 229.000000 0.806701 -0.055292 0.588367
17830.00000000 11760.00000000 -1010.00000000 101 231 89 97.000000 1.000000 4.000000 1.000000 -60.708740 114.000000 229.000000 0.964586 -0.040757 0.260599
17820.00000000 11790.00000000 -1010.00000000 101 231 89 97.000000 1.000000 4.000000 1.000000 -60.708740 114.000000 229.000000 0.972258 0.035113 0.231259
17830.00000000 11790.00000000 -1010.00000000 101 231 89 97.000000 1.000000 4.000000 1.000000 -60.708740 114.000000 229.000000 0.979855 -0.063877 0.189222
17840.00000000 11760.00000000 -1020.00000000 101 231 89 97.000000 1.000000 4.000000 1.000000 -60.708740 114.000000 229.000000 0.952780 0.001229 0.303660
17810.00000000 11770.00000000 -1000.00000000 101 231 89 97.000000 1.000000 4.000000 1.000000 -60.708740 114.000000 229.000000 0.877020 0.279258 0.390961
17830.00000000 11760.00000000 -1010.00000000 101 231 89 97.000000 1.000000 4.000000 1.000000 -60.708740 114.000000 229.000000 0.964586 -0.040757 0.260599
17800.00000000 11830.00000000 -960.00000000 101 231 89 97.000000 1.000000 4.000000 1.000000 -60.708740 114.000000 229.000000 0.954408 0.298483 0.003685
17800.00000000 11790.00000000 -990.00000000 101 231 89 97.000000 1.000000 4.000000 1.000000 -60.708740 114.000000 229.000000 0.995304 0.033869 -0.090681
17820.00000000 12060.00000000 -1050.00000000 101 231 89 97.000000 1.000000 4.000000 1.000000 -60.708740 114.000000 229.000000 0.839322 0.146033 0.523654
17820.00000000 12070.00000000 -1050.00000000 101 231 89 97.000000 1.000000 4.000000 1.000000 -60.708740 114.000000 229.000000 0.915175 -0.066044 0.397609
17810.00000000 12060.00000000 -1040.00000000 101 231 89 97.000000 1.000000 4.000000 1.000000 -60.708740 114.000000 229.000000 0.748607 0.243258 0.616777
17830.00000000 12010.00000000 -1070.00000000 101 231 89 97.000000 1.000000 4.000000 1.000000 -60.708740 114.000000 229.000000 0.874905 -0.155765 0.458561
17820.00000000 12020.00000000 -1060.00000000 101 231 89 97.000000 1.000000 4.000000 1.000000 -60.708740 114.000000 229.000000 0.830084 -0.046194 0.555722
17840.00000000 12010.00000000 -1060.00000000 101 231 89 97.000000 1.000000 4.000000 1.000000 -60.708740 114.000000 229.000000 0.751149 0.132907 0.646615
17810.00000000 12050.00000000 -1040.00000000 101 231 89 97.000000 1.000000 4.000000 1.000000 -60.708740 114.000000 229.000000 0.671049 0.073917 0.737719
17810.00000000 12050.00000000 -1040.00000000 101 231 89 97.000000 1.000000 4.000000 1.000000 -60.708740 114.000000 229.000000 0.671049 0.073917 0.737719
17810.00000000 12020.00000000 -1050.00000000 101 231 89 97.000000 1.000000 4.000000 1.000000 -60.708740 114.000000 229.000000 0.836197 0.143053 0.529444
17820.00000000 12030.00000000 -1060.00000000 101 231 89 97.000000 1.000000 4.000000 1.000000 -60.708740 114.000000 229.000000 0.860564 -0.289923 0.418777
17810.00000000 12040.00000000 -1040.00000000 101 231 89 97.000000 1.000000 4.000000 1.000000 -60.708740 114.000000 229.000000 0.598207 -0.106770 0.794197
17800.00000000 12010.00000000 -1050.00000000 101 231 89 97.000000 1.000000 4.000000 1.000000 -60.708740 114.000000 229.000000 0.604148 0.009633 0.796814
17830.00000000 11990.00000000 -1080.00000000 101 231 89 97.000000 1.000000 4.000000 1.000000 -60.708740 114.000000 229.000000 0.779512 -0.181530 0.599507
17830.00000000 11940.00000000 -1050.00000000 101 231 89 97.000000 1.000000 4.000000 1.000000 -60.708740 114.000000 229.000000 0.731056 0.182381 0.657491
17810.00000000 11950.00000000 -1040.00000000 101 231 89 97.000000 1.000000 4.000000 1.000000 -60.708740 114.000000 229.000000 0.500708 -0.089362 0.860991
17830.00000000 11930.00000000 -1050.00000000 101 231 89 97.000000 1.000000 4.000000 1.000000 -60.708740 114.000000 229.000000 0.642082 0.275633 0.715372
17820.00000000 11940.00000000 -1040.00000000 101 231 89 97.000000 1.000000 4.000000 1.000000 -60.708740 114.000000 229.000000 0.793492 0.046676 0.606788
17820.00000000 11950.00000000 -1050.00000000 101 231 89 97.000000 1.000000 4.000000 1.000000 -60.708740 114.000000 229.000000 0.763838 -0.145564 0.628778
17840.00000000 11890.00000000 -1040.00000000 101 231 89 97.000000 1.000000 4.000000 1.000000 -60.708740 114.000000 229.000000 0.828498 -0.136857 0.543012
17830.00000000 11920.00000000 -1050.00000000 101 231 89 97.000000 1.000000 4.000000 1.000000 -60.708740 114.000000 229.000000 0.779878 0.046708 0.624186
17830.00000000 11890.00000000 -1040.00000000 101 231 89 97.000000 1.000000 4.000000 1.000000 -60.708740 114.000000 229.000000 0.752740 -0.129680 0.645419
17840.00000000 11910.00000000 -1080.00000000 101 231 89 97.000000 1.000000 4.000000 1.000000 -60.708740 114.000000 229.000000 0.801895 0.049500 0.595411
17830.00000000 11910.00000000 -1080.00000000 101 231 89 97.000000 1.000000 4.000000 1.000000 -60.708740 114.000000 229.000000 0.292330 0.087049 0.952347
17840.00000000 11880.00000000 -1060.00000000 101 231 89 97.000000 1.000000 4.000000 1.000000 -60.708740 114.000000 229.000000 0.862743 -0.098071 0.496041
17840.00000000 11850.00000000 -1070.00000000 101 231 89 97.000000 1.000000 4.000000 1.000000 -60.708740 114.000000 229.000000 0.334360 -0.115063 0.935395
17830.00000000 11850.00000000 -1070.00000000 101 231 89 97.000000 1.000000 4.000000 1.000000 -60.708740 114.000000 229.000000 0.618544 -0.178691 0.765162
17830.00000000 11850.00000000 -1070.00000000 101 231 89 97.000000 1.000000 4.000000 1.000000 -60.708740 114.000000 229.000000 0.618544 -0.178691 0.765162
17840.00000000 11860.00000000 -1070.00000000 101 231 89 97.000000 1.000000 4.000000 1.000000 -60.708740 114.000000 229.000000 0.539375 -0.195998 0.818938
17830.00000000 11750.00000000 -980.00000000 101 231 89 97.000000 1.000000 4.000000 1.000000 -60.708740 114.000000 229.000000 0.983781 -0.172779 -0.048190
17820.00000000 11740.00000000 -970.00000000 101 231 89 97.000000 1.000000 4.000000 1.000000 -60.708740 114.000000 229.000000 0.984462 -0.175594 0.001133
17830.00000000 11740.00000000 -1010.00000000 101 231 89 97.000000 1.000000 4.000000 1.000000 -60.708740 114.000000 229.000000 0.918779 0.068606 0.388766
17820.00000000 11730.00000000 -1000.00000000 101 231 89 97.000000 1.000000 4.000000 1.000000 -60.708740 114.000000 229.000000 0.968695 0.168973 0.181872
17830.00000000 11700.00000000 -970.00000000 101 231 89 97.000000 1.000000 4.000000 1.000000 -60.708740 114.000000 229.000000 0.998391 -0.024095 0.051334
17830.00000000 11710.00000000 -990.00000000 101 231 89 97.000000 1.000000 4.000000 1.000000 -60.708740 114.000000 229.000000 0.922010 0.347689 0.170325
17840.00000000 11690.00000000 -1000.00000000 101 231 89 97.000000 1.000000 4.000000 1.000000 -60.708740 114.000000 229.000000 0.968196 0.121504 0.218707
17840.00000000 10560.00000000 -1160.00000000 101 231 89 0.000000 0.000000 0.000000 0.000000 -60.708740 0.000000 54.000000 0.708158 0.199896 0.677166
17840.00000000 10410.00000000 -1160.00000000 101 231 89 0.000000 0.000000 0.000000 0.000000 -60.708740 0.000000 54.000000 0.930352 -0.183272 0.317579
17840.00000000 10410.00000000 -1160.00000000 101 231 89 0.000000 0.000000 0.000000 0.000000 -60.708740 0.000000 54.000000 0.930352 -0.183272 0.317579
17750.00000000 10510.00000000 -1180.00000000 101 231 89 0.000000 0.000000 0.000000 0.000000 -60.708740 0.000000 54.000000 0.929605 -0.340167 0.141851
17750.00000000 10510.00000000 -1180.00000000 101 231 89 0.000000 0.000000 0.000000 0.000000 -60.708740 0.000000 54.000000 0.929605 -0.340167 0.141851
17740.00000000 10480.00000000 -1160.00000000 101 231 89 0.000000 0.000000 0.000000 0.000000 -60.708740 0.000000 54.000000 0.920133 0.377104 0.105589
17800.00000000 10410.00000000 -1200.00000000 101 231 89 0.000000 0.000000 0.000000 0.000000 -60.708740 0.000000 54.000000 0.981413 0.154832 0.113381
17780.00000000 10430.00000000 -1220.00000000 101 231 89 0.000000 0.000000 0.000000 0.000000 -60.708740 0.000000 54.000000 0.926228 -0.341242 0.160175
17780.00000000 10440.00000000 -1210.00000000 101 231 89 0.000000 0.000000 0.000000 0.000000 -60.708740 0.000000 54.000000 0.752990 0.043960 0.656562
17730.00000000 10510.00000000 -1220.00000000 101 231 89 0.000000 0.000000 0.000000 0.000000 -60.708740 0.000000 54.000000 0.986138 -0.164165 0.024108
17760.00000000 10440.00000000 -1200.00000000 101 231 89 0.000000 0.000000 0.000000 0.000000 -60.708740 0.000000 54.000000 0.951152 -0.174041 0.254990
17760.00000000 10440.00000000 -1200.00000000 101 231 89 0.000000 0.000000 0.000000 0.000000 -60.708740 0.000000 54.000000 0.951152 -0.174041 0.254990
17740.00000000 10410.00000000 -1250.00000000 101 231 89 0.000000 0.000000 0.000000 0.000000 -60.708740 0.000000 54.000000 0.948117 0.180400 0.261783
17820.00000000 10400.00000000 -1180.00000000 101 231 89 0.000000 0.000000 0.000000 0.000000 -60.708740 0.000000 54.000000 0.935602 -0.310946 0.167220
17840.00000000 10390.00000000 -1180.00000000 101 231 89 0.000000 0.000000 0.000000 0.000000 -60.708740 0.000000 54.000000 0.713960 -0.070962 0.696582
17800.00000000 10340.00000000 -1190.00000000 101 231 89 0.000000 0.000000 0.000000 0.000000 -60.708740 0.000000 54.000000 0.931252 0.323371 0.167931
17820.00000000 10330.00000000 -1220.00000000 101 231 89 0.000000 0.000000 0.000000 0.000000 -60.708740 0.000000 54.000000 0.772498 -0.110357 0.625355
17780.00000000 10350.00000000 -1240.00000000 101 231 89 0.000000 0.000000 0.000000 0.000000 -60.708740 0.000000 54.000000 0.640186 0.198998 0.741999
17770.00000000 10290.00000000 -1240.00000000 101 231 89 0.000000 0.000000 0.000000 0.000000 -60.708740 0.000000 54.000000 0.990699 -0.063138 0.120537
17790.00000000 10310.00000000 -1230.00000000 101 231 89 0.000000 0.000000 0.000000 0.000000 -60.708740 0.000000 54.000000 0.808600 0.273704 0.520819
17790.00000000 10310.00000000 -1230.00000000 101 231 89 0.000000 0.000000 0.000000 0.000000 -60.708740 0.000000 54.000000 0.808600 0.273704 0.520819
17790.00000000 10310.00000000 -1230.00000000 101 231 89 0.000000 0.000000 0.000000 0.000000 -60.708740 0.000000 54.000000 0.808600 0.273704 0.520819
17770.00000000 10260.00000000 -1260.00000000 101 231 89 0.000000 0.000000 0.000000 0.000000 -60.708740 0.000000 54.000000 0.967569 0.108357 0.228188
17770.00000000 10260.00000000 -1260.00000000 101 231 89 0.000000 0.000000 0.000000 0.000000 -60.708740 0.000000 54.000000 0.967569 0.108357 0.228188
17740.00000000 10380.00000000 -1260.00000000 101 231 89 0.000000 0.000000 0.000000 0.000000 -60.708740 0.000000 54.000000 0.921197 -0.244984 0.302290
17740.00000000 10390.00000000 -1250.00000000 101 231 89 0.000000 0.000000 0.000000 0.000000 -60.708740 0.000000 54.000000 0.964347 -0.189729 0.184495
17740.00000000 10380.00000000 -1260.00000000 101 231 89 0.000000 0.000000 0.000000 0.000000 -60.708740 0.000000 54.000000 0.921197 -0.244984 0.302290
17770.00000000 10240.00000000 -1260.00000000 101 231 89 0.000000 0.000000 0.000000 0.000000 -60.708740 0.000000 54.000000 0.911329 -0.215195 0.350956
17770.00000000 10240.00000000 -1260.00000000 101 231 89 0.000000 0.000000 0.000000 0.000000 -60.708740 0.000000 54.000000 0.911329 -0.215195 0.350956
17830.00000000 10140.00000000 -1260.00000000 101 231 89 0.000000 0.000000 0.000000 0.000000 -60.708740 0.000000 54.000000 0.435783 -0.326447 0.838765
17830.00000000 10140.00000000 -1260.00000000 101 231 89 0.000000 0.000000 0.000000 0.000000 -60.708740 0.000000 54.000000 0.435783 -0.326447 0.838765
17830.00000000 10090.00000000 -1240.00000000 101 231 89 0.000000 0.000000 0.000000 0.000000 -60.708740 0.000000 54.000000 0.820197 0.215359 0.529997
17820.00000000 10110.00000000 -1230.00000000 101 231 89 0.000000 0.000000 0.000000 0.000000 -60.708740 0.000000 54.000000 0.986258 0.031072 0.162266
17840.00000000 10090.00000000 -1250.00000000 101 231 89 0.000000 0.000000 0.000000 0.000000 -60.708740 0.000000 54.000000 0.491593 0.034044 0.870160
17840.00000000 10080.00000000 -1280.00000000 101 231 89 0.000000 0.000000 0.000000 0.000000 -60.708740 0.000000 54.000000 0.646007 0.202942 0.735860
17780.00000000 10130.00000000 -1240.00000000 101 231 89 0.000000 0.000000 0.000000 0.000000 -60.708740 0.000000 54.000000 0.919852 -0.129029 0.370438
17790.00000000 10100.00000000 -1240.00000000 101 231 89 0.000000 0.000000 0.000000 0.000000 -60.708740 0.000000 54.000000 0.956079 0.255219 0.144139
17790.00000000 10110.00000000 -1240.00000000 101 231 89 0.000000 0.000000 0.000000 0.000000 -60.708740 0.000000 54.000000 0.870936 0.350517 0.344395
17790.00000000 10110.00000000 -1240.00000000 101 231 89 0.000000 0.000000 0.000000 0.000000 -60.708740 0.000000 54.000000 0.870936 0.350517 0.344395
17790.00000000 10110.00000000 -1240.00000000 101 231 89 0.000000 0.000000 0.000000 0.000000 -60.708740 0.000000 54.000000 0.870936 0.350517 0.344395
17790.00000000 10090.00000000 -1280.00000000 101 231 89 0.000000 0.000000 0.000000 0.000000 -60.708740 0.000000 54.000000 0.671053 -0.424612 0.607777
17820.00000000 10090.00000000 -1320.00000000 101 231 89 0.000000 0.000000 0.000000 0.000000 -60.708740 0.000000 54.000000 0.486486 -0.496448 0.718937
17820.00000000 10090.00000000 -1320.00000000 101 231 89 0.000000 0.000000 0.000000 0.000000 -60.708740 0.000000 54.000000 0.486486 -0.496448 0.718937
17810.00000000 10100.00000000 -1340.00000000 101 231 89 0.000000 0.000000 0.000000 0.000000 -60.708740 0.000000 54.000000 0.376854 0.024606 0.925946
17810.00000000 10100.00000000 -1340.00000000 101 231 89 0.000000 0.000000 0.000000 0.000000 -60.708740 0.000000 54.000000 0.376854 0.024606 0.925946
17810.00000000 10100.00000000 -1340.00000000 101 231 89 0.000000 0.000000 0.000000 0.000000 -60.708740 0.000000 54.000000 0.376854 0.024606 0.925946
17780.00000000 10150.00000000 -1330.00000000 101 231 89 0.000000 0.000000 0.000000 0.000000 -60.708740 0.000000 54.000000 0.818044 -0.272681 0.506408
17790.00000000 10100.00000000 -1300.00000000 101 231 89 0.000000 0.000000 0.000000 0.000000 -60.708740 0.000000 54.000000 0.925655 -0.062419 0.373184
17780.00000000 10080.00000000 -1350.00000000 101 231 89 0.000000 0.000000 0.000000 0.000000 -60.708740 0.000000 54.000000 0.443662 -0.257659 0.858356
17760.00000000 10140.00000000 -1320.00000000 101 231 89 0.000000 0.000000 0.000000 0.000000 -60.708740 0.000000 54.000000 0.815883 0.109465 0.567761
17740.00000000 10110.00000000 -1310.00000000 101 231 89 0.000000 0.000000 0.000000 0.000000 -60.708740 0.000000 54.000000 0.943398 -0.016374 0.331260
17750.00000000 10100.00000000 -1300.00000000 101 231 89 0.000000 0.000000 0.000000 0.000000 -60.708740 0.000000 54.000000 0.956675 -0.177458 0.230829
17760.00000000 10080.00000000 -1340.00000000 101 231 89 0.000000 0.000000 0.000000 0.000000 -60.708740 0.000000 54.000000 0.591488 0.094464 0.800761
17810.00000000 10060.00000000 -1230.00000000 101 231 89 0.000000 0.000000 0.000000 0.000000 -60.708740 0.000000 54.000000 0.692490 -0.032438 0.720698
17810.00000000 10060.00000000 -1230.00000000 101 231 89 0.000000 0.000000 0.000000 0.000000 -60.708740 0.000000 54.000000 0.692490 -0.032438 0.720698
17830.00000000 10060.00000000 -1260.00000000 101 231 89 0.000000 0.000000 0.000000 0.000000 -60.708740 0.000000 54.000000 0.589268 -0.442368 0.676072
17840.00000000 10040.00000000 -1280.00000000 101 231 89 0.000000 0.000000 0.000000 0.000000 -60.708740 0.000000 54.000000 0.682976 -0.169598 0.710479
17830.00000000 10030.00000000 -1280.00000000 101 231 89 0.000000 0.000000 0.000000 0.000000 -60.708740 0.000000 54.000000 0.897454 -0.030762 0.440033
17830.00000000 10050.00000000 -1260.00000000 101 231 89 0.000000 0.000000 0.000000 0.000000 -60.708740 0.000000 54.000000 0.664323 0.143108 0.733618
17820.00000000 10030.00000000 -1250.00000000 101 231 89 0.000000 0.000000 0.000000 0.000000 -60.708740 0.000000 54.000000 0.633232 0.004139 0.773951
17830.00000000 10050.00000000 -1270.00000000 101 231 89 0.000000 0.000000 0.000000 0.000000 -60.708740 0.000000 54.000000 0.660739 -0.120269 0.740918
17830.00000000 10070.00000000 -1250.00000000 101 231 89 0.000000 0.000000 0.000000 0.000000 -60.708740 0.000000 54.000000 0.859679 -0.214545 0.463597
17820.00000000 10000.00000000 -1260.00000000 101 231 89 0.000000 0.000000 0.000000 0.000000 -60.708740 0.000000 54.000000 0.889351 0.067354 0.452236
17840.00000000 10030.00000000 -1290.00000000 101 231 89 0.000000 0.000000 0.000000 0.000000 -60.708740 0.000000 54.000000 0.501454 0.004012 0.865175
17840.00000000 10070.00000000 -1340.00000000 101 231 89 0.000000 0.000000 0.000000 0.000000 -60.708740 0.000000 54.000000 0.654430 -0.133282 0.744283
17830.00000000 10010.00000000 -1290.00000000 101 231 89 0.000000 0.000000 0.000000 0.000000 -60.708740 0.000000 54.000000 -0.834928 0.284528 -0.471104
17810.00000000 10010.00000000 -1340.00000000 101 231 89 0.000000 0.000000 0.000000 0.000000 -60.708740 0.000000 54.000000 0.528916 -0.051636 0.847102
17730.00000000 10050.00000000 -1220.00000000 101 231 89 0.000000 0.000000 0.000000 0.000000 -60.708740 0.000000 54.000000 0.964931 -0.098150 0.243463
17730.00000000 10010.00000000 -1230.00000000 101 231 89 0.000000 0.000000 0.000000 0.000000 -60.708740 0.000000 54.000000 0.979792 0.191150 0.058908
17750.00000000 10040.00000000 -1300.00000000 101 231 89 0.000000 0.000000 0.000000 0.000000 -60.708740 0.000000 54.000000 0.670280 -0.297367 0.679925
18020.00000000 12940.00000000 -980.00000000 101 231 89 97.000000 1.000000 4.000000 1.000000 -60.708740 114.000000 229.000000 -0.505296 0.174394 0.845141
17960.00000000 12960.00000000 -910.00000000 101 231 89 97.000000 1.000000 4.000000 1.000000 -60.708740 114.000000 229.000000 -0.182824 -0.347224 0.919789
17960.00000000 12960.00000000 -910.00000000 101 231 89 97.000000 1.000000 4.000000 1.000000 -60.708740 114.000000 229.000000 -0.182824 -0.347224 0.919789
17950.00000000 12860.00000000 -810.00000000 101 231 89 97.000000 1.000000 4.000000 1.000000 -60.708740 114.000000 229.000000 0.699754 -0.430490 0.570108
17940.00000000 12870.00000000 -800.00000000 101 231 89 97.000000 1.000000 4.000000 1.000000 -60.708740 114.000000 229.000000 0.883954 0.170383 0.435424
17950.00000000 12840.00000000 -800.00000000 101 231 89 97.000000 1.000000 4.000000 1.000000 -60.708740 114.000000 229.000000 0.698537 0.223469 0.679785
17950.00000000 12820.00000000 -830.00000000 101 231 89 97.000000 1.000000 4.000000 1.000000 -60.708740 114.000000 229.000000 0.359440 -0.474461 0.803548
17940.00000000 12790.00000000 -820.00000000 101 231 89 97.000000 1.000000 4.000000 1.000000 -60.708740 114.000000 229.000000 0.696993 0.213620 0.684519
17940.00000000 12800.00000000 -810.00000000 101 231 89 97.000000 1.000000 4.000000 1.000000 -60.708740 114.000000 229.000000 0.845622 -0.045822 0.531812
17950.00000000 12770.00000000 -850.00000000 101 231 89 97.000000 1.000000 4.000000 1.000000 -60.708740 114.000000 229.000000 0.227393 0.030078 0.973338
17900.00000000 12930.00000000 -860.00000000 101 231 89 97.000000 1.000000 4.000000 1.000000 -60.708740 114.000000 229.000000 0.740797 -0.061853 0.668875
17900.00000000 12820.00000000 -820.00000000 101 231 89 97.000000 1.000000 4.000000 1.000000 -60.708740 114.000000 229.000000 0.962220 0.139698 0.233701
