//X Y Z R G B PointSourceId ScanDirectionFlag NumberOfReturns ReturnNumber GpsTime Intensity Classification Nx Ny Nz
16700.00000000 -12560.00000000 -110.00000000 159 240 56 0.000000 0.000000 0.000000 0.000000 -60.708740 0.000000 178.000000 0.046495 0.280228 0.958807
16730.00000000 -12600.00000000 -60.00000000 159 240 56 0.000000 0.000000 0.000000 0.000000 -60.708740 0.000000 178.000000 0.475012 0.582435 0.659646
16740.00000000 -12660.00000000 -20.00000000 159 240 56 0.000000 0.000000 0.000000 0.000000 -60.708740 0.000000 178.000000 0.303709 0.836368 0.456343
16750.00000000 -12630.00000000 -50.00000000 159 240 56 0.000000 0.000000 0.000000 0.000000 -60.708740 0.000000 178.000000 0.666548 0.413891 0.620006
16710.00000000 -12590.00000000 -60.00000000 159 240 56 0.000000 0.000000 0.000000 0.000000 -60.708740 0.000000 178.000000 0.356876 0.891443 0.279229
16650.00000000 -12520.00000000 -130.00000000 159 240 56 0.000000 0.000000 0.000000 0.000000 -60.708740 0.000000 178.000000 0.533136 0.479655 0.696920
16640.00000000 -12510.00000000 -110.00000000 159 240 56 0.000000 0.000000 0.000000 0.000000 -60.708740 0.000000 178.000000 0.457925 0.384015 0.801771
16660.00000000 -12530.00000000 -150.00000000 159 240 56 0.000000 0.000000 0.000000 0.000000 -60.708740 0.000000 178.000000 -0.006708 0.505777 0.862638
16650.00000000 -12570.00000000 -110.00000000 159 240 56 0.000000 0.000000 0.000000 0.000000 -60.708740 0.000000 178.000000 0.204946 0.768932 0.605592
16550.00000000 -12530.00000000 -130.00000000 159 240 56 0.000000 0.000000 0.000000 0.000000 -60.708740 0.000000 178.000000 0.422782 0.581947 0.694689
16550.00000000 -12520.00000000 -130.00000000 159 240 56 0.000000 0.000000 0.000000 0.000000 -60.708740 0.000000 178.000000 0.282872 0.363693 0.887531
16550.00000000 -12510.00000000 -140.00000000 159 240 56 0.000000 0.000000 0.000000 0.000000 -60.708740 0.000000 178.000000 0.188710 0.468061 0.863312
16550.00000000 -12530.00000000 -130.00000000 159 240 56 0.000000 0.000000 0.000000 0.000000 -60.708740 0.000000 178.000000 0.422782 0.581947 0.694689
16560.00000000 -12510.00000000 -150.00000000 159 240 56 0.000000 0.000000 0.000000 0.000000 -60.708740 0.000000 178.000000 0.573823 0.460062 0.677547
16540.00000000 -12520.00000000 -130.00000000 159 240 56 0.000000 0.000000 0.000000 0.000000 -60.708740 0.000000 178.000000 0.468028 0.344278 0.813893
16520.00000000 -12510.00000000 -130.00000000 159 240 56 0.000000 0.000000 0.000000 0.000000 -60.708740 0.000000 178.000000 0.541164 0.755680 0.368902
16520.00000000 -12510.00000000 -110.00000000 159 240 56 0.000000 0.000000 0.000000 0.000000 -60.708740 0.000000 178.000000 -0.018162 0.697143 0.716702
16210.00000000 -12160.00000000 -390.00000000 159 240 56 0.000000 0.000000 0.000000 0.000000 -60.708740 0.000000 177.000000 -0.355120 0.146226 0.923313
16170.00000000 -12160.00000000 -400.00000000 159 240 56 0.000000 0.000000 0.000000 0.000000 -60.708740 0.000000 177.000000 0.051101 0.262985 0.963446
16350.00000000 -12320.00000000 -20.00000000 159 240 56 0.000000 0.000000 0.000000 0.000000 -60.708740 0.000000 178.000000 0.039241 0.886312 0.461423
16500.00000000 -12400.00000000 -50.00000000 159 240 56 0.000000 0.000000 0.000000 0.000000 -60.708740 0.000000 178.000000 0.273202 0.813361 0.513619
16500.00000000 -12460.00000000 -60.00000000 159 240 56 0.000000 0.000000 0.000000 0.000000 -60.708740 0.000000 178.000000 0.471707 0.525045 0.708393
16500.00000000 -12450.00000000 -70.00000000 159 240 56 0.000000 0.000000 0.000000 0.000000 -60.708740 0.000000 178.000000 0.540258 0.647973 0.536892
16430.00000000 -12440.00000000 -170.00000000 159 240 56 0.000000 0.000000 0.000000 0.000000 -60.708740 0.000000 178.000000 0.277354 0.572141 0.771835
16420.00000000 -12490.00000000 -140.00000000 159 240 56 0.000000 0.000000 0.000000 0.000000 -60.708740 0.000000 178.000000 0.350812 0.792932 0.498186
16350.00000000 -12360.00000000 -20.00000000 159 240 56 0.000000 0.000000 0.000000 0.000000 -60.708740 0.000000 178.000000 0.421559 0.809458 0.408736
16350.00000000 -12350.00000000 -20.00000000 159 240 56 0.000000 0.000000 0.000000 0.000000 -60.708740 0.000000 178.000000 0.489784 0.832787 0.258025
16350.00000000 -12410.00000000 -110.00000000 159 240 56 0.000000 0.000000 0.000000 0.000000 -60.708740 0.000000 178.000000 0.535236 0.717514 0.445754
16390.00000000 -12410.00000000 -180.00000000 159 240 56 0.000000 0.000000 0.000000 0.000000 -60.708740 0.000000 178.000000 0.133120 0.641667 0.755343
16350.00000000 -12380.00000000 -160.00000000 159 240 56 0.000000 0.000000 0.000000 0.000000 -60.708740 0.000000 178.000000 0.502724 0.643958 0.576704
16380.00000000 -12490.00000000 -90.00000000 159 240 56 0.000000 0.000000 0.000000 0.000000 -60.708740 0.000000 178.000000 0.036704 0.879528 0.474429
16390.00000000 -12450.00000000 -180.00000000 159 240 56 0.000000 0.000000 0.000000 0.000000 -60.708740 0.000000 178.000000 0.217806 0.314608 0.923895
16390.00000000 -12480.00000000 -120.00000000 159 240 56 0.000000 0.000000 0.000000 0.000000 -60.708740 0.000000 178.000000 0.612842 0.626274 0.481878
16410.00000000 -12470.00000000 -160.00000000 159 240 56 0.000000 0.000000 0.000000 0.000000 -60.708740 0.000000 178.000000 0.322809 0.500910 0.803046
16400.00000000 -12480.00000000 -150.00000000 159 240 56 0.000000 0.000000 0.000000 0.000000 -60.708740 0.000000 178.000000 0.511660 0.400501 0.760134
16400.00000000 -12460.00000000 -160.00000000 159 240 56 0.000000 0.000000 0.000000 0.000000 -60.708740 0.000000 178.000000 0.337288 0.815508 0.470302
16360.00000000 -12420.00000000 -180.00000000 159 240 56 0.000000 0.000000 0.000000 0.000000 -60.708740 0.000000 178.000000 -0.051982 0.398528 0.915682
16360.00000000 -12450.00000000 -180.00000000 159 240 56 0.000000 0.000000 0.000000 0.000000 -60.708740 0.000000 178.000000 -0.019854 0.438103 0.898706
16340.00000000 -12480.00000000 -120.00000000 159 240 56 0.000000 0.000000 0.000000 0.000000 -60.708740 0.000000 178.000000 0.640274 0.698628 0.319326
16360.00000000 -12470.00000000 -160.00000000 159 240 56 0.000000 0.000000 0.000000 0.000000 -60.708740 0.000000 178.000000 0.249639 0.598191 0.761477
16370.00000000 -12470.00000000 -160.00000000 159 240 56 0.000000 0.000000 0.000000 0.000000 -60.708740 0.000000 178.000000 0.115239 0.459533 0.880653
16340.00000000 -12490.00000000 -170.00000000 159 240 56 0.000000 0.000000 0.000000 0.000000 -60.708740 0.000000 178.000000 0.390611 0.451694 0.802119
16370.00000000 -12470.00000000 -160.00000000 159 240 56 0.000000 0.000000 0.000000 0.000000 -60.708740 0.000000 178.000000 0.115239 0.459533 0.880653
16370.00000000 -12490.00000000 -160.00000000 159 240 56 0.000000 0.000000 0.000000 0.000000 -60.708740 0.000000 178.000000 0.059756 0.501674 0.862990
16360.00000000 -12470.00000000 -160.00000000 159 240 56 0.000000 0.000000 0.000000 0.000000 -60.708740 0.000000 178.000000 0.249639 0.598191 0.761477
16360.00000000 -12440.00000000 -190.00000000 159 240 56 0.000000 0.000000 0.000000 0.000000 -60.708740 0.000000 178.000000 -0.060265 0.531176 0.845116
16430.00000000 -12460.00000000 -190.00000000 159 240 56 0.000000 0.000000 0.000000 0.000000 -60.708740 0.000000 178.000000 0.192407 0.230081 0.953961
16350.00000000 -12490.00000000 -190.00000000 159 240 56 0.000000 0.000000 0.000000 0.000000 -60.708740 0.000000 178.000000 0.243703 0.633627 0.734252
16330.00000000 -12310.00000000 -30.00000000 159 240 56 0.000000 0.000000 0.000000 0.000000 -60.708740 0.000000 178.000000 0.223719 0.841609 0.491573
16190.00000000 -12180.00000000 -300.00000000 159 240 56 0.000000 0.000000 0.000000 0.000000 -60.708740 0.000000 177.000000 -0.296926 0.311698 0.902596
16310.00000000 -12470.00000000 -150.00000000 159 240 56 0.000000 0.000000 0.000000 0.000000 -60.708740 0.000000 178.000000 0.340558 0.669709 0.659932
16180.00000000 -12170.00000000 -390.00000000 159 240 56 0.000000 0.000000 0.000000 0.000000 -60.708740 0.000000 177.000000 -0.027703 0.410262 0.911547
16180.00000000 -12170.00000000 -400.00000000 159 240 56 0.000000 0.000000 0.000000 0.000000 -60.708740 0.000000 177.000000 0.161422 0.042968 0.985950
15980.00000000 -11900.00000000 -70.00000000 159 240 56 0.000000 0.000000 0.000000 0.000000 -60.708740 0.000000 177.000000 -0.051692 -0.540670 0.839645
15960.00000000 -11890.00000000 -70.00000000 159 240 56 0.000000 0.000000 0.000000 0.000000 -60.708740 0.000000 177.000000 -0.064220 -0.435876 0.897713
15950.00000000 -11880.00000000 -60.00000000 159 240 56 0.000000 0.000000 0.000000 0.000000 -60.708740 0.000000 177.000000 0.238141 0.853969 -0.462630
15930.00000000 -11880.00000000 -60.00000000 159 240 56 0.000000 0.000000 0.000000 0.000000 -60.708740 0.000000 177.000000 0.113907 0.744093 -0.658293
15920.00000000 -11920.00000000 -30.00000000 159 240 56 0.000000 0.000000 0.000000 0.000000 -60.708740 0.000000 177.000000 -0.445421 -0.403613 0.799185
15920.00000000 -11910.00000000 -60.00000000 159 240 56 0.000000 0.000000 0.000000 0.000000 -60.708740 0.000000 177.000000 0.112403 -0.246770 0.962533
15920.00000000 -11920.00000000 -40.00000000 159 240 56 0.000000 0.000000 0.000000 0.000000 -60.708740 0.000000 177.000000 -0.126808 0.053693 0.990473
15920.00000000 -11930.00000000 -90.00000000 159 240 56 0.000000 0.000000 0.000000 0.000000 -60.708740 0.000000 177.000000 -0.359526 0.128107 0.924299
15920.00000000 -11930.00000000 -90.00000000 159 240 56 0.000000 0.000000 0.000000 0.000000 -60.708740 0.000000 177.000000 -0.359526 0.128107 0.924299
15940.00000000 -11970.00000000 -40.00000000 159 240 56 0.000000 0.000000 0.000000 0.000000 -60.708740 0.000000 177.000000 0.190897 -0.074170 0.978804
15940.00000000 -11980.00000000 -70.00000000 159 240 56 0.000000 0.000000 0.000000 0.000000 -60.708740 0.000000 177.000000 -0.260713 0.227253 0.938288
15870.00000000 -11850.00000000 -60.00000000 159 240 56 0.000000 0.000000 0.000000 0.000000 -60.708740 0.000000 177.000000 -0.533729 -0.325366 0.780558
15900.00000000 -11900.00000000 -70.00000000 159 240 56 0.000000 0.000000 0.000000 0.000000 -60.708740 0.000000 177.000000 0.152809 -0.320762 0.934752
15900.00000000 -11900.00000000 -80.00000000 159 240 56 0.000000 0.000000 0.000000 0.000000 -60.708740 0.000000 177.000000 -0.282468 -0.455345 0.844318
15830.00000000 -11860.00000000 -50.00000000 159 240 56 0.000000 0.000000 0.000000 0.000000 -60.708740 0.000000 177.000000 -0.482773 -0.277866 0.830494
15840.00000000 -11830.00000000 -90.00000000 159 240 56 0.000000 0.000000 0.000000 0.000000 -60.708740 0.000000 177.000000 0.001195 -0.256844 0.966452
15880.00000000 -11920.00000000 -60.00000000 159 240 56 0.000000 0.000000 0.000000 0.000000 -60.708740 0.000000 177.000000 -0.346578 0.284104 0.893962
15910.00000000 -11920.00000000 -40.00000000 159 240 56 0.000000 0.000000 0.000000 0.000000 -60.708740 0.000000 177.000000 0.068600 -0.051178 0.996331
15890.00000000 -11920.00000000 -50.00000000 159 240 56 0.000000 0.000000 0.000000 0.000000 -60.708740 0.000000 177.000000 -0.474596 -0.103419 0.874107
15870.00000000 -11950.00000000 -70.00000000 159 240 56 0.000000 0.000000 0.000000 0.000000 -60.708740 0.000000 177.000000 -0.171264 0.038447 0.984475
15890.00000000 -11960.00000000 -40.00000000 159 240 56 0.000000 0.000000 0.000000 0.000000 -60.708740 0.000000 177.000000 0.351699 0.086922 0.932069
15900.00000000 -11990.00000000 -30.00000000 159 240 56 0.000000 0.000000 0.000000 0.000000 -60.708740 0.000000 177.000000 0.391276 0.407117 0.825323
15880.00000000 -11990.00000000 -90.00000000 159 240 56 0.000000 0.000000 0.000000 0.000000 -60.708740 0.000000 177.000000 0.510102 0.447371 0.734613
15860.00000000 -11920.00000000 -60.00000000 159 240 56 0.000000 0.000000 0.000000 0.000000 -60.708740 0.000000 177.000000 -0.371502 -0.024594 0.928107
15850.00000000 -11930.00000000 -30.00000000 159 240 56 0.000000 0.000000 0.000000 0.000000 -60.708740 0.000000 177.000000 -0.107812 0.367107 0.923910
15850.00000000 -11910.00000000 -60.00000000 159 240 56 0.000000 0.000000 0.000000 0.000000 -60.708740 0.000000 177.000000 0.001223 -0.294859 0.955540
15860.00000000 -11920.00000000 -80.00000000 159 240 56 0.000000 0.000000 0.000000 0.000000 -60.708740 0.000000 177.000000 -0.020449 -0.239370 0.970713
15840.00000000 -11970.00000000 -40.00000000 159 240 56 0.000000 0.000000 0.000000 0.000000 -60.708740 0.000000 177.000000 0.367701 0.567076 0.737035
15840.00000000 -11960.00000000 -90.00000000 159 240 56 0.000000 0.000000 0.000000 0.000000 -60.708740 0.000000 177.000000 -0.164882 0.612634 0.772977
15980.00000000 -12070.00000000 -90.00000000 159 240 56 0.000000 0.000000 0.000000 0.000000 -60.708740 0.000000 177.000000 0.155765 0.458561 0.874905
15940.00000000 -12030.00000000 -50.00000000 159 240 56 0.000000 0.000000 0.000000 0.000000 -60.708740 0.000000 177.000000 0.252919 0.592238 0.765040
15940.00000000 -12050.00000000 -30.00000000 159 240 56 0.000000 0.000000 0.000000 0.000000 -60.708740 0.000000 177.000000 0.254097 0.534694 0.805939
15940.00000000 -12060.00000000 -90.00000000 159 240 56 0.000000 0.000000 0.000000 0.000000 -60.708740 0.000000 177.000000 0.141074 0.420372 0.896318
15950.00000000 -12060.00000000 -100.00000000 159 240 56 0.000000 0.000000 0.000000 0.000000 -60.708740 0.000000 177.000000 0.132254 0.247485 0.959823
15930.00000000 -12050.00000000 -90.00000000 159 240 56 0.000000 0.000000 0.000000 0.000000 -60.708740 0.000000 177.000000 0.354900 0.221631 0.908254
15960.00000000 -12140.00000000 -50.00000000 159 240 56 0.000000 0.000000 0.000000 0.000000 -60.708740 0.000000 177.000000 0.532433 0.613565 0.583141
15940.00000000 -12110.00000000 -50.00000000 159 240 56 0.000000 0.000000 0.000000 0.000000 -60.708740 0.000000 177.000000 0.683214 0.572964 0.452692
15930.00000000 -12090.00000000 -50.00000000 159 240 56 0.000000 0.000000 0.000000 0.000000 -60.708740 0.000000 177.000000 0.452631 0.717909 0.528898
15920.00000000 -12090.00000000 -60.00000000 159 240 56 0.000000 0.000000 0.000000 0.000000 -60.708740 0.000000 177.000000 0.705813 0.482222 0.518931
15930.00000000 -12110.00000000 -60.00000000 159 240 56 0.000000 0.000000 0.000000 0.000000 -60.708740 0.000000 177.000000 0.426463 0.896558 0.119635
15950.00000000 -12130.00000000 -70.00000000 159 240 56 0.000000 0.000000 0.000000 0.000000 -60.708740 0.000000 177.000000 0.505369 0.730715 0.458975
15970.00000000 -12100.00000000 -130.00000000 159 240 56 0.000000 0.000000 0.000000 0.000000 -60.708740 0.000000 177.000000 0.313101 0.582849 0.749836
15890.00000000 -12020.00000000 -80.00000000 159 240 56 0.000000 0.000000 0.000000 0.000000 -60.708740 0.000000 177.000000 -0.030207 0.395324 0.918045
15900.00000000 -12070.00000000 -60.00000000 159 240 56 0.000000 0.000000 0.000000 0.000000 -60.708740 0.000000 177.000000 0.154694 0.587236 0.794496
15880.00000000 -12070.00000000 -80.00000000 159 240 56 0.000000 0.000000 0.000000 0.000000 -60.708740 0.000000 177.000000 0.226544 0.623387 0.748376
15850.00000000 -12030.00000000 -80.00000000 159 240 56 0.000000 0.000000 0.000000 0.000000 -60.708740 0.000000 177.000000 0.140535 0.557700 0.818059
15860.00000000 -12030.00000000 -80.00000000 159 240 56 0.000000 0.000000 0.000000 0.000000 -60.708740 0.000000 177.000000 0.510503 0.334468 0.792160
15860.00000000 -12040.00000000 -80.00000000 159 240 56 0.000000 0.000000 0.000000 0.000000 -60.708740 0.000000 177.000000 0.648259 0.500086 0.574173
15910.00000000 -12120.00000000 -60.00000000 159 240 56 0.000000 0.000000 0.000000 0.000000 -60.708740 0.000000 177.000000 0.699052 0.683483 0.210183
15890.00000000 -12110.00000000 -70.00000000 159 240 56 0.000000 0.000000 0.000000 0.000000 -60.708740 0.000000 177.000000 0.451148 0.864825 0.220328
15900.00000000 -12080.00000000 -60.00000000 159 240 56 0.000000 0.000000 0.000000 0.000000 -60.708740 0.000000 177.000000 0.071388 0.866458 0.494119
15890.00000000 -12110.00000000 -50.00000000 159 240 56 0.000000 0.000000 0.000000 0.000000 -60.708740 0.000000 177.000000 0.115166 0.961440 0.249741
15850.00000000 -12110.00000000 -60.00000000 159 240 56 0.000000 0.000000 0.000000 0.000000 -60.708740 0.000000 177.000000 0.350490 0.816754 0.458334
16080.00000000 -12320.00000000 -20.00000000 159 240 56 0.000000 0.000000 0.000000 0.000000 -60.708740 0.000000 178.000000 0.483731 0.737979 0.470523
16030.00000000 -12220.00000000 -120.00000000 159 240 56 0.000000 0.000000 0.000000 0.000000 -60.708740 0.000000 177.000000 0.701773 0.485073 0.521746
16030.00000000 -12310.00000000 -50.00000000 159 240 56 0.000000 0.000000 0.000000 0.000000 -60.708740 0.000000 178.000000 0.624295 0.717859 0.308115
16050.00000000 -12370.00000000 -100.00000000 159 240 56 0.000000 0.000000 0.000000 0.000000 -60.708740 0.000000 178.000000 0.408919 0.747221 0.523876
16070.00000000 -12380.00000000 -50.00000000 159 240 56 0.000000 0.000000 0.000000 0.000000 -60.708740 0.000000 178.000000 0.563187 0.762147 0.319300
16050.00000000 -12380.00000000 -80.00000000 159 240 56 0.000000 0.000000 0.000000 0.000000 -60.708740 0.000000 178.000000 0.365559 0.690135 0.624564
16030.00000000 -12360.00000000 -30.00000000 159 240 56 0.000000 0.000000 0.000000 0.000000 -60.708740 0.000000 178.000000 0.423014 0.890783 0.166029
16020.00000000 -12470.00000000 -40.00000000 159 240 56 0.000000 0.000000 0.000000 0.000000 -60.708740 0.000000 178.000000 0.495640 0.771899 0.398137
15960.00000000 -12180.00000000 -80.00000000 159 240 56 0.000000 0.000000 0.000000 0.000000 -60.708740 0.000000 177.000000 0.502413 0.499075 0.706049
15990.00000000 -12300.00000000 -50.00000000 159 240 56 0.000000 0.000000 0.000000 0.000000 -60.708740 0.000000 178.000000 0.467519 0.631737 0.618332
15960.00000000 -12310.00000000 -20.00000000 159 240 56 0.000000 0.000000 0.000000 0.000000 -60.708740 0.000000 178.000000 0.566537 0.806977 -0.166805
15870.00000000 -12280.00000000 -30.00000000 159 240 56 0.000000 0.000000 0.000000 0.000000 -60.708740 0.000000 178.000000 0.401186 0.862319 0.308959
15840.00000000 -12290.00000000 -30.00000000 159 240 56 0.000000 0.000000 0.000000 0.000000 -60.708740 0.000000 178.000000 0.593573 0.794884 -0.125820
15960.00000000 -12410.00000000 -30.00000000 159 240 56 0.000000 0.000000 0.000000 0.000000 -60.708740 0.000000 178.000000 0.383772 0.746315 0.543814
15980.00000000 -12390.00000000 -40.00000000 159 240 56 0.000000 0.000000 0.000000 0.000000 -60.708740 0.000000 178.000000 0.397315 0.902207 0.167819
15980.00000000 -12380.00000000 -40.00000000 159 240 56 0.000000 0.000000 0.000000 0.000000 -60.708740 0.000000 178.000000 0.312465 0.945306 0.093608
15970.00000000 -12380.00000000 -30.00000000 159 240 56 0.000000 0.000000 0.000000 0.000000 -60.708740 0.000000 178.000000 0.498363 0.836701 0.227083
16450.00000000 -12530.00000000 -100.00000000 159 240 56 0.000000 0.000000 0.000000 0.000000 -60.708740 0.000000 178.000000 0.524455 0.810804 0.259893
16430.00000000 -12550.00000000 -100.00000000 159 240 56 0.000000 0.000000 0.000000 0.000000 -60.708740 0.000000 178.000000 0.263482 0.927171 0.266330
16420.00000000 -12550.00000000 -90.00000000 159 240 56 0.000000 0.000000 0.000000 0.000000 -60.708740 0.000000 178.000000 0.573421 0.814861 0.084792
16490.00000000 -12540.00000000 -130.00000000 159 240 56 0.000000 0.000000 0.000000 0.000000 -60.708740 0.000000 178.000000 0.061397 0.792454 0.606834
16440.00000000 -12520.00000000 -130.00000000 159 240 56 0.000000 0.000000 0.000000 0.000000 -60.708740 0.000000 178.000000 0.146939 0.478641 0.865628
16440.00000000 -12500.00000000 -110.00000000 159 240 56 0.000000 0.000000 0.000000 0.000000 -60.708740 0.000000 178.000000 0.550651 0.760577 0.343955
16450.00000000 -12500.00000000 -140.00000000 159 240 56 0.000000 0.000000 0.000000 0.000000 -60.708740 0.000000 178.000000 0.059635 0.495107 0.866783
16430.00000000 -12550.00000000 -120.00000000 159 240 56 0.000000 0.000000 0.000000 0.000000 -60.708740 0.000000 178.000000 0.199409 0.811337 0.549517
16450.00000000 -12560.00000000 -110.00000000 159 240 56 0.000000 0.000000 0.000000 0.000000 -60.708740 0.000000 178.000000 0.282277 0.880039 0.381904
16380.00000000 -12550.00000000 -130.00000000 159 240 56 0.000000 0.000000 0.000000 0.000000 -60.708740 0.000000 178.000000 0.291764 0.941040 0.171223
16380.00000000 -12550.00000000 -130.00000000 159 240 56 0.000000 0.000000 0.000000 0.000000 -60.708740 0.000000 178.000000 0.291764 0.941040 0.171223
16390.00000000 -12560.00000000 -160.00000000 159 240 56 0.000000 0.000000 0.000000 0.000000 -60.708740 0.000000 178.000000 0.163639 0.812189 0.559975
16370.00000000 -12540.00000000 -130.00000000 159 240 56 0.000000 0.000000 0.000000 0.000000 -60.708740 0.000000 178.000000 0.649067 0.619033 0.442166
16370.00000000 -12530.00000000 -140.00000000 159 240 56 0.000000 0.000000 0.000000 0.000000 -60.708740 0.000000 178.000000 0.312272 0.690882 0.652050
16370.00000000 -12530.00000000 -110.00000000 159 240 56 0.000000 0.000000 0.000000 0.000000 -60.708740 0.000000 178.000000 0.303619 0.907922 0.288951
16370.00000000 -12530.00000000 -150.00000000 159 240 56 0.000000 0.000000 0.000000 0.000000 -60.708740 0.000000 178.000000 0.672576 0.438927 0.595806
16370.00000000 -12570.00000000 -140.00000000 159 240 56 0.000000 0.000000 0.000000 0.000000 -60.708740 0.000000 178.000000 0.325245 0.831183 0.450944
16370.00000000 -12550.00000000 -120.00000000 159 240 56 0.000000 0.000000 0.000000 0.000000 -60.708740 0.000000 178.000000 0.295238 0.585689 0.754853
16370.00000000 -12550.00000000 -120.00000000 159 240 56 0.000000 0.000000 0.000000 0.000000 -60.708740 0.000000 178.000000 0.295238 0.585689 0.754853
15820.00000000 -11940.00000000 -60.00000000 159 240 56 0.000000 0.000000 0.000000 0.000000 -60.708740 0.000000 177.000000 0.017853 0.556195 0.830860
15820.00000000 -11930.00000000 -70.00000000 159 240 56 0.000000 0.000000 0.000000 0.000000 -60.708740 0.000000 177.000000 0.347657 0.305517 0.886450
15780.00000000 -11970.00000000 -50.00000000 159 240 56 0.000000 0.000000 0.000000 0.000000 -60.708740 0.000000 177.000000 0.238300 0.565377 0.789659
15810.00000000 -12050.00000000 -60.00000000 159 240 56 0.000000 0.000000 0.000000 0.000000 -60.708740 0.000000 177.000000 0.719439 0.544127 0.431663
15790.00000000 -12050.00000000 -80.00000000 159 240 56 0.000000 0.000000 0.000000 0.000000 -60.708740 0.000000 177.000000 0.363532 0.913819 0.181053
15770.00000000 -12010.00000000 -20.00000000 159 240 56 0.000000 0.000000 0.000000 0.000000 -60.708740 0.000000 177.000000 0.389427 0.905810 0.166897
15770.00000000 -12040.00000000 -50.00000000 159 240 56 0.000000 0.000000 0.000000 0.000000 -60.708740 0.000000 177.000000 0.161104 0.946315 0.280239
15770.00000000 -12040.00000000 -40.00000000 159 240 56 0.000000 0.000000 0.000000 0.000000 -60.708740 0.000000 177.000000 0.429549 0.822642 0.372487
15760.00000000 -12050.00000000 -50.00000000 159 240 56 0.000000 0.000000 0.000000 0.000000 -60.708740 0.000000 177.000000 0.382214 0.720138 0.579063
15780.00000000 -12050.00000000 -80.00000000 159 240 56 0.000000 0.000000 0.000000 0.000000 -60.708740 0.000000 177.000000 0.569215 0.747602 0.342178
15800.00000000 -12250.00000000 -50.00000000 159 240 56 0.000000 0.000000 0.000000 0.000000 -60.708740 0.000000 178.000000 0.105881 0.939531 0.325686
15800.00000000 -12300.00000000 -20.00000000 159 240 56 0.000000 0.000000 0.000000 0.000000 -60.708740 0.000000 178.000000 0.292886 0.954733 0.051984
18140.00000000 -13350.00000000 660.00000000 159 240 56 0.000000 0.000000 0.000000 0.000000 -60.708740 0.000000 178.000000 -0.502580 -0.045439 0.863336
18090.00000000 -13340.00000000 630.00000000 159 240 56 0.000000 0.000000 0.000000 0.000000 -60.708740 0.000000 178.000000 -0.326686 0.042277 0.944187
18040.00000000 -13340.00000000 610.00000000 159 240 56 0.000000 0.000000 0.000000 0.000000 -60.708740 0.000000 178.000000 -0.176980 -0.200578 0.963559
18030.00000000 -13310.00000000 610.00000000 159 240 56 0.000000 0.000000 0.000000 0.000000 -60.708740 0.000000 178.000000 -0.406713 0.011695 0.913481
17960.00000000 -13310.00000000 600.00000000 159 240 56 0.000000 0.000000 0.000000 0.000000 -60.708740 0.000000 178.000000 -0.341366 0.081025 0.936432
17920.00000000 -13320.00000000 590.00000000 159 240 56 0.000000 0.000000 0.000000 0.000000 -60.708740 0.000000 178.000000 -0.055178 -0.011452 0.998411
17530.00000000 -12310.00000000 10.00000000 159 240 56 0.000000 0.000000 0.000000 0.000000 -60.708740 0.000000 178.000000 0.663978 0.742779 -0.086098
17390.00000000 -12320.00000000 -10.00000000 159 240 56 0.000000 0.000000 0.000000 0.000000 -60.708740 0.000000 178.000000 0.199721 0.877293 -0.436427
17510.00000000 -12390.00000000 30.00000000 159 240 56 0.000000 0.000000 0.000000 0.000000 -60.708740 0.000000 178.000000 0.360132 0.889123 -0.282427
17340.00000000 -12320.00000000 0.00000000 159 240 56 0.000000 0.000000 0.000000 0.000000 -60.708740 0.000000 178.000000 0.483936 0.781743 -0.393299
17320.00000000 -12380.00000000 -10.00000000 159 240 56 0.000000 0.000000 0.000000 0.000000 -60.708740 0.000000 178.000000 0.784936 0.577478 -0.224489
17240.00000000 -12390.00000000 30.00000000 159 240 56 0.000000 0.000000 0.000000 0.000000 -60.708740 0.000000 178.000000 0.095914 0.962979 -0.251935
17700.00000000 -12690.00000000 540.00000000 159 240 56 0.000000 0.000000 0.000000 0.000000 -60.708740 0.000000 178.000000 0.238624 0.784496 0.572385
17680.00000000 -12820.00000000 430.00000000 159 240 56 0.000000 0.000000 0.000000 0.000000 -60.708740 0.000000 178.000000 0.275331 0.628647 0.727321
17580.00000000 -12740.00000000 550.00000000 159 240 56 0.000000 0.000000 0.000000 0.000000 -60.708740 0.000000 178.000000 -0.003201 0.094960 0.995476
17570.00000000 -12680.00000000 540.00000000 159 240 56 0.000000 0.000000 0.000000 0.000000 -60.708740 0.000000 178.000000 -0.195754 0.236255 0.951769
17530.00000000 -12700.00000000 390.00000000 159 240 56 0.000000 0.000000 0.000000 0.000000 -60.708740 0.000000 178.000000 0.232478 0.392399 0.889931
17730.00000000 -12840.00000000 460.00000000 159 240 56 0.000000 0.000000 0.000000 0.000000 -60.708740 0.000000 178.000000 0.162713 0.655416 0.737533
17710.00000000 -12890.00000000 470.00000000 159 240 56 0.000000 0.000000 0.000000 0.000000 -60.708740 0.000000 178.000000 0.061015 0.245305 0.967524
17700.00000000 -13130.00000000 620.00000000 159 240 56 0.000000 0.000000 0.000000 0.000000 -60.708740 0.000000 178.000000 -0.545196 -0.028985 0.837807
17620.00000000 -12880.00000000 490.00000000 159 240 56 0.000000 0.000000 0.000000 0.000000 -60.708740 0.000000 178.000000 -0.334740 0.252882 0.907744
17630.00000000 -12910.00000000 490.00000000 159 240 56 0.000000 0.000000 0.000000 0.000000 -60.708740 0.000000 178.000000 0.091109 0.011791 0.995771
17600.00000000 -12950.00000000 580.00000000 159 240 56 0.000000 0.000000 0.000000 0.000000 -60.708740 0.000000 178.000000 -0.062071 -0.057715 0.996402
17560.00000000 -12910.00000000 590.00000000 159 240 56 0.000000 0.000000 0.000000 0.000000 -60.708740 0.000000 178.000000 -0.348259 0.109763 0.930950
17540.00000000 -12880.00000000 550.00000000 159 240 56 0.000000 0.000000 0.000000 0.000000 -60.708740 0.000000 178.000000 -0.044872 0.026088 0.998652
17530.00000000 -12880.00000000 550.00000000 159 240 56 0.000000 0.000000 0.000000 0.000000 -60.708740 0.000000 178.000000 -0.392903 0.177022 0.902381
17530.00000000 -12880.00000000 550.00000000 159 240 56 0.000000 0.000000 0.000000 0.000000 -60.708740 0.000000 178.000000 -0.392903 0.177022 0.902381
17590.00000000 -12930.00000000 530.00000000 159 240 56 0.000000 0.000000 0.000000 0.000000 -60.708740 0.000000 178.000000 -0.168316 -0.366336 0.915133
17560.00000000 -12950.00000000 490.00000000 159 240 56 0.000000 0.000000 0.000000 0.000000 -60.708740 0.000000 178.000000 -0.247201 0.045505 0.967895
17530.00000000 -12950.00000000 500.00000000 159 240 56 0.000000 0.000000 0.000000 0.000000 -60.708740 0.000000 178.000000 0.043175 -0.255349 0.965885
17520.00000000 -12930.00000000 500.00000000 159 240 56 0.000000 0.000000 0.000000 0.000000 -60.708740 0.000000 178.000000 -0.292895 -0.244317 0.924404
17670.00000000 -12860.00000000 450.00000000 159 240 56 0.000000 0.000000 0.000000 0.000000 -60.708740 0.000000 178.000000 -0.091497 0.013994 0.995707
17650.00000000 -12850.00000000 460.00000000 159 240 56 0.000000 0.000000 0.000000 0.000000 -60.708740 0.000000 178.000000 0.163639 0.559975 0.812189
17640.00000000 -12860.00000000 430.00000000 159 240 56 0.000000 0.000000 0.000000 0.000000 -60.708740 0.000000 178.000000 0.219857 0.281473 0.934043
17640.00000000 -13010.00000000 600.00000000 159 240 56 0.000000 0.000000 0.000000 0.000000 -60.708740 0.000000 178.000000 -0.069538 0.331946 0.940732
17600.00000000 -13010.00000000 590.00000000 159 240 56 0.000000 0.000000 0.000000 0.000000 -60.708740 0.000000 178.000000 -0.369561 -0.335825 0.866398
17660.00000000 -13030.00000000 600.00000000 159 240 56 0.000000 0.000000 0.000000 0.000000 -60.708740 0.000000 178.000000 -0.011997 0.112339 0.993598
17620.00000000 -13030.00000000 590.00000000 159 240 56 0.000000 0.000000 0.000000 0.000000 -60.708740 0.000000 178.000000 -0.021960 -0.179147 0.983577
17640.00000000 -13090.00000000 590.00000000 159 240 56 0.000000 0.000000 0.000000 0.000000 -60.708740 0.000000 178.000000 -0.263010 -0.581141 0.770130
17560.00000000 -13040.00000000 600.00000000 159 240 56 0.000000 0.000000 0.000000 0.000000 -60.708740 0.000000 178.000000 0.061343 -0.254137 0.965221
17530.00000000 -13010.00000000 620.00000000 159 240 56 0.000000 0.000000 0.000000 0.000000 -60.708740 0.000000 178.000000 -0.289936 -0.424933 0.857536
17540.00000000 -13060.00000000 610.00000000 159 240 56 0.000000 0.000000 0.000000 0.000000 -60.708740 0.000000 178.000000 0.198456 -0.316686 0.927537
17580.00000000 -13020.00000000 530.00000000 159 240 56 0.000000 0.000000 0.000000 0.000000 -60.708740 0.000000 178.000000 -0.371295 0.174978 0.911879
17560.00000000 -13050.00000000 490.00000000 159 240 56 0.000000 0.000000 0.000000 0.000000 -60.708740 0.000000 178.000000 -0.382113 -0.482076 0.788411
17550.00000000 -13020.00000000 530.00000000 159 240 56 0.000000 0.000000 0.000000 0.000000 -60.708740 0.000000 178.000000 -0.530809 -0.127219 0.837889
17520.00000000 -13040.00000000 370.00000000 159 240 56 0.000000 0.000000 0.000000 0.000000 -60.708740 0.000000 178.000000 0.645040 0.425027 -0.635040
17460.00000000 -12660.00000000 340.00000000 159 240 56 0.000000 0.000000 0.000000 0.000000 -60.708740 0.000000 178.000000 0.592620 0.372645 0.714099
17450.00000000 -12650.00000000 340.00000000 159 240 56 0.000000 0.000000 0.000000 0.000000 -60.708740 0.000000 178.000000 -0.004135 0.627208 0.778841
17360.00000000 -12660.00000000 330.00000000 159 240 56 0.000000 0.000000 0.000000 0.000000 -60.708740 0.000000 178.000000 0.420773 0.119618 0.899245
17510.00000000 -12690.00000000 520.00000000 159 240 56 0.000000 0.000000 0.000000 0.000000 -60.708740 0.000000 178.000000 -0.188063 0.244887 0.951138
17440.00000000 -12720.00000000 410.00000000 159 240 56 0.000000 0.000000 0.000000 0.000000 -60.708740 0.000000 178.000000 0.251639 0.210387 0.944677
17470.00000000 -12690.00000000 320.00000000 159 240 56 0.000000 0.000000 0.000000 0.000000 -60.708740 0.000000 178.000000 0.400694 0.130753 0.906834
17500.00000000 -12700.00000000 350.00000000 159 240 56 0.000000 0.000000 0.000000 0.000000 -60.708740 0.000000 178.000000 0.367840 0.444275 0.816893
17480.00000000 -12720.00000000 390.00000000 159 240 56 0.000000 0.000000 0.000000 0.000000 -60.708740 0.000000 178.000000 0.161882 0.358956 0.919209
17510.00000000 -12710.00000000 350.00000000 159 240 56 0.000000 0.000000 0.000000 0.000000 -60.708740 0.000000 178.000000 -0.178274 0.617101 0.766424
17440.00000000 -12700.00000000 370.00000000 159 240 56 0.000000 0.000000 0.000000 0.000000 -60.708740 0.000000 178.000000 0.036622 0.467948 0.882997
17450.00000000 -12690.00000000 370.00000000 159 240 56 0.000000 0.000000 0.000000 0.000000 -60.708740 0.000000 178.000000 -0.085289 0.203951 0.975259
17450.00000000 -12740.00000000 390.00000000 159 240 56 0.000000 0.000000 0.000000 0.000000 -60.708740 0.000000 178.000000 0.304909 0.510288 0.804138
17460.00000000 -12710.00000000 390.00000000 159 240 56 0.000000 0.000000 0.000000 0.000000 -60.708740 0.000000 178.000000 -0.081131 0.063349 0.994688
17460.00000000 -12770.00000000 410.00000000 159 240 56 0.000000 0.000000 0.000000 0.000000 -60.708740 0.000000 178.000000 0.168403 0.202345 0.964726
17460.00000000 -12760.00000000 390.00000000 159 240 56 0.000000 0.000000 0.000000 0.000000 -60.708740 0.000000 178.000000 -0.198758 -0.027050 0.979675
17400.00000000 -12690.00000000 350.00000000 159 240 56 0.000000 0.000000 0.000000 0.000000 -60.708740 0.000000 178.000000 -0.139877 0.462890 0.875310
17400.00000000 -12670.00000000 350.00000000 159 240 56 0.000000 0.000000 0.000000 0.000000 -60.708740 0.000000 178.000000 0.188952 0.429169 0.883239
17410.00000000 -12670.00000000 350.00000000 159 240 56 0.000000 0.000000 0.000000 0.000000 -60.708740 0.000000 178.000000 0.323699 0.029196 0.945709
17380.00000000 -12700.00000000 380.00000000 159 240 56 0.000000 0.000000 0.000000 0.000000 -60.708740 0.000000 178.000000 0.447048 0.090524 0.889918
17370.00000000 -12690.00000000 380.00000000 159 240 56 0.000000 0.000000 0.000000 0.000000 -60.708740 0.000000 178.000000 0.243795 0.492191 0.835651
17360.00000000 -12670.00000000 350.00000000 159 240 56 0.000000 0.000000 0.000000 0.000000 -60.708740 0.000000 178.000000 0.472606 0.127848 0.871951
17360.00000000 -12740.00000000 400.00000000 159 240 56 0.000000 0.000000 0.000000 0.000000 -60.708740 0.000000 178.000000 0.021388 0.142965 0.989497
17370.00000000 -12740.00000000 400.00000000 159 240 56 0.000000 0.000000 0.000000 0.000000 -60.708740 0.000000 178.000000 0.229689 0.116769 0.966234
17380.00000000 -12730.00000000 320.00000000 159 240 56 0.000000 0.000000 0.000000 0.000000 -60.708740 0.000000 178.000000 0.004000 0.491965 0.870606
17420.00000000 -12780.00000000 410.00000000 159 240 56 0.000000 0.000000 0.000000 0.000000 -60.708740 0.000000 178.000000 0.030249 0.398496 0.916671
17390.00000000 -12760.00000000 420.00000000 159 240 56 0.000000 0.000000 0.000000 0.000000 -60.708740 0.000000 178.000000 0.087496 0.247270 0.964988
17410.00000000 -12820.00000000 450.00000000 159 240 56 0.000000 0.000000 0.000000 0.000000 -60.708740 0.000000 178.000000 -0.252047 -0.277679 0.927020
17360.00000000 -12770.00000000 430.00000000 159 240 56 0.000000 0.000000 0.000000 0.000000 -60.708740 0.000000 178.000000 -0.100137 0.390946 0.914950
17360.00000000 -12820.00000000 450.00000000 159 240 56 0.000000 0.000000 0.000000 0.000000 -60.708740 0.000000 178.000000 -0.120971 -0.150298 0.981212
17360.00000000 -12830.00000000 450.00000000 159 240 56 0.000000 0.000000 0.000000 0.000000 -60.708740 0.000000 178.000000 -0.080696 -0.337334 0.937920
17320.00000000 -12550.00000000 380.00000000 159 240 56 0.000000 0.000000 0.000000 0.000000 -60.708740 0.000000 178.000000 0.403026 0.253202 0.879465
17290.00000000 -12570.00000000 360.00000000 159 240 56 0.000000 0.000000 0.000000 0.000000 -60.708740 0.000000 178.000000 0.384634 0.296457 0.874168
17280.00000000 -12660.00000000 350.00000000 159 240 56 0.000000 0.000000 0.000000 0.000000 -60.708740 0.000000 178.000000 -0.186156 0.486985 0.853341
17260.00000000 -12650.00000000 350.00000000 159 240 56 0.000000 0.000000 0.000000 0.000000 -60.708740 0.000000 178.000000 0.220635 0.262265 0.939435
17330.00000000 -12700.00000000 390.00000000 159 240 56 0.000000 0.000000 0.000000 0.000000 -60.708740 0.000000 178.000000 -0.285079 0.135178 0.948924
17310.00000000 -12700.00000000 360.00000000 159 240 56 0.000000 0.000000 0.000000 0.000000 -60.708740 0.000000 178.000000 0.196367 0.441457 0.875532
17320.00000000 -12720.00000000 390.00000000 159 240 56 0.000000 0.000000 0.000000 0.000000 -60.708740 0.000000 178.000000 -0.212772 -0.121038 0.969576
17290.00000000 -12680.00000000 350.00000000 159 240 56 0.000000 0.000000 0.000000 0.000000 -60.708740 0.000000 178.000000 0.155142 0.276558 0.948392
17290.00000000 -12670.00000000 350.00000000 159 240 56 0.000000 0.000000 0.000000 0.000000 -60.708740 0.000000 178.000000 0.387855 0.429354 0.815613
17300.00000000 -12690.00000000 350.00000000 159 240 56 0.000000 0.000000 0.000000 0.000000 -60.708740 0.000000 178.000000 0.384749 0.188772 0.903512
17300.00000000 -12740.00000000 360.00000000 159 240 56 0.000000 0.000000 0.000000 0.000000 -60.708740 0.000000 178.000000 0.297430 0.095649 0.949940
17320.00000000 -12780.00000000 360.00000000 159 240 56 0.000000 0.000000 0.000000 0.000000 -60.708740 0.000000 178.000000 0.293030 -0.211711 0.932369
17460.00000000 -12650.00000000 270.00000000 159 240 56 0.000000 0.000000 0.000000 0.000000 -60.708740 0.000000 178.000000 0.588698 0.467940 0.659141
17450.00000000 -12590.00000000 190.00000000 159 240 56 0.000000 0.000000 0.000000 0.000000 -60.708740 0.000000 178.000000 0.232453 0.772244 0.591274
17400.00000000 -12550.00000000 150.00000000 159 240 56 0.000000 0.000000 0.000000 0.000000 -60.708740 0.000000 178.000000 0.727309 0.680480 -0.089267
17420.00000000 -12650.00000000 290.00000000 159 240 56 0.000000 0.000000 0.000000 0.000000 -60.708740 0.000000 178.000000 0.073014 0.803159 0.591274
17370.00000000 -12620.00000000 260.00000000 159 240 56 0.000000 0.000000 0.000000 0.000000 -60.708740 0.000000 178.000000 -0.018120 0.656519 0.754091
17380.00000000 -12540.00000000 140.00000000 159 240 56 0.000000 0.000000 0.000000 0.000000 -60.708740 0.000000 178.000000 0.332329 0.916423 -0.222992
17370.00000000 -12720.00000000 310.00000000 159 240 56 0.000000 0.000000 0.000000 0.000000 -60.708740 0.000000 178.000000 -0.309303 0.303384 0.901271
17360.00000000 -12730.00000000 300.00000000 159 240 56 0.000000 0.000000 0.000000 0.000000 -60.708740 0.000000 178.000000 -0.215512 0.294392 0.931068
17370.00000000 -12720.00000000 310.00000000 159 240 56 0.000000 0.000000 0.000000 0.000000 -60.708740 0.000000 178.000000 -0.309303 0.303384 0.901271
17370.00000000 -12680.00000000 300.00000000 159 240 56 0.000000 0.000000 0.000000 0.000000 -60.708740 0.000000 178.000000 -0.148567 0.448586 0.881305
17280.00000000 -12610.00000000 290.00000000 159 240 56 0.000000 0.000000 0.000000 0.000000 -60.708740 0.000000 178.000000 -0.168513 0.626989 0.760584
17340.00000000 -12650.00000000 210.00000000 159 240 56 0.000000 0.000000 0.000000 0.000000 -60.708740 0.000000 178.000000 0.268018 0.491108 0.828842
17180.00000000 -12610.00000000 200.00000000 159 240 56 0.000000 0.000000 0.000000 0.000000 -60.708740 0.000000 178.000000 0.295754 0.115384 0.948270
17210.00000000 -12620.00000000 230.00000000 159 240 56 0.000000 0.000000 0.000000 0.000000 -60.708740 0.000000 178.000000 0.172264 0.472622 0.864265
17260.00000000 -12560.00000000 80.00000000 159 240 56 0.000000 0.000000 0.000000 0.000000 -60.708740 0.000000 178.000000 0.202442 0.911706 -0.357504
17260.00000000 -12690.00000000 190.00000000 159 240 56 0.000000 0.000000 0.000000 0.000000 -60.708740 0.000000 178.000000 -0.117199 0.519436 0.846434
17210.00000000 -12680.00000000 270.00000000 159 240 56 0.000000 0.000000 0.000000 0.000000 -60.708740 0.000000 178.000000 -0.354109 -0.072944 0.932355
17480.00000000 -12880.00000000 570.00000000 159 240 56 0.000000 0.000000 0.000000 0.000000 -60.708740 0.000000 178.000000 0.109519 -0.055324 0.992444
17510.00000000 -12940.00000000 500.00000000 159 240 56 0.000000 0.000000 0.000000 0.000000 -60.708740 0.000000 178.000000 -0.347583 -0.104140 0.931848
17480.00000000 -12960.00000000 500.00000000 159 240 56 0.000000 0.000000 0.000000 0.000000 -60.708740 0.000000 178.000000 -0.230760 -0.267122 0.935626
17490.00000000 -12940.00000000 500.00000000 159 240 56 0.000000 0.000000 0.000000 0.000000 -60.708740 0.000000 178.000000 0.246672 -0.243884 0.937909
17510.00000000 -12980.00000000 510.00000000 159 240 56 0.000000 0.000000 0.000000 0.000000 -60.708740 0.000000 178.000000 0.028705 -0.509855 0.859782
17510.00000000 -12980.00000000 510.00000000 159 240 56 0.000000 0.000000 0.000000 0.000000 -60.708740 0.000000 178.000000 0.028705 -0.509855 0.859782
17430.00000000 -12930.00000000 490.00000000 159 240 56 0.000000 0.000000 0.000000 0.000000 -60.708740 0.000000 178.000000 -0.075458 -0.432166 0.898631
17420.00000000 -12850.00000000 500.00000000 159 240 56 0.000000 0.000000 0.000000 0.000000 -60.708740 0.000000 178.000000 -0.063484 0.183266 0.981011
17350.00000000 -12840.00000000 500.00000000 159 240 56 0.000000 0.000000 0.000000 0.000000 -60.708740 0.000000 178.000000 0.023111 -0.108952 0.993778
17490.00000000 -12840.00000000 460.00000000 159 240 56 0.000000 0.000000 0.000000 0.000000 -60.708740 0.000000 178.000000 -0.173881 0.439816 0.881094
17490.00000000 -12840.00000000 460.00000000 159 240 56 0.000000 0.000000 0.000000 0.000000 -60.708740 0.000000 178.000000 -0.173881 0.439816 0.881094
17430.00000000 -12910.00000000 450.00000000 159 240 56 0.000000 0.000000 0.000000 0.000000 -60.708740 0.000000 178.000000 -0.157272 -0.182844 0.970481
17350.00000000 -12880.00000000 450.00000000 159 240 56 0.000000 0.000000 0.000000 0.000000 -60.708740 0.000000 178.000000 0.182483 -0.313424 0.931915
17350.00000000 -12880.00000000 410.00000000 159 240 56 0.000000 0.000000 0.000000 0.000000 -60.708740 0.000000 178.000000 0.026187 -0.547173 0.836610
17370.00000000 -12950.00000000 480.00000000 159 240 56 0.000000 0.000000 0.000000 0.000000 -60.708740 0.000000 178.000000 -0.192262 -0.383078 0.903486
17450.00000000 -13030.00000000 410.00000000 159 240 56 0.000000 0.000000 0.000000 0.000000 -60.708740 0.000000 178.000000 -0.443306 -0.505930 0.739942
17500.00000000 -13060.00000000 440.00000000 159 240 56 0.000000 0.000000 0.000000 0.000000 -60.708740 0.000000 178.000000 -0.454090 -0.431304 0.779602
17280.00000000 -12890.00000000 490.00000000 159 240 56 0.000000 0.000000 0.000000 0.000000 -60.708740 0.000000 178.000000 -0.039338 -0.308359 0.950456
17290.00000000 -12840.00000000 450.00000000 159 240 56 0.000000 0.000000 0.000000 0.000000 -60.708740 0.000000 178.000000 -0.187238 -0.330834 0.924927
17310.00000000 -12850.00000000 430.00000000 159 240 56 0.000000 0.000000 0.000000 0.000000 -60.708740 0.000000 178.000000 0.121641 -0.303434 0.945056
17320.00000000 -12860.00000000 430.00000000 159 240 56 0.000000 0.000000 0.000000 0.000000 -60.708740 0.000000 178.000000 -0.144231 -0.010063 0.989493
17300.00000000 -12940.00000000 440.00000000 159 240 56 0.000000 0.000000 0.000000 0.000000 -60.708740 0.000000 178.000000 -0.283157 -0.229625 0.931179
17270.00000000 -12930.00000000 430.00000000 159 240 56 0.000000 0.000000 0.000000 0.000000 -60.708740 0.000000 178.000000 -0.220810 -0.410499 0.884722
17340.00000000 -12940.00000000 430.00000000 159 240 56 0.000000 0.000000 0.000000 0.000000 -60.708740 0.000000 178.000000 0.104031 -0.167673 0.980338
17240.00000000 -12860.00000000 460.00000000 159 240 56 0.000000 0.000000 0.000000 0.000000 -60.708740 0.000000 178.000000 0.151338 -0.238194 0.959354
17240.00000000 -13140.00000000 400.00000000 159 240 56 0.000000 0.000000 0.000000 0.000000 -60.708740 0.000000 178.000000 -0.251280 -0.671659 0.696945
16810.00000000 -12460.00000000 130.00000000 159 240 56 0.000000 0.000000 0.000000 0.000000 -60.708740 0.000000 178.000000 0.331281 -0.055863 0.941877
16700.00000000 -12470.00000000 110.00000000 159 240 56 0.000000 0.000000 0.000000 0.000000 -60.708740 0.000000 178.000000 0.314063 0.782766 -0.537255
16590.00000000 -12400.00000000 70.00000000 159 240 56 0.000000 0.000000 0.000000 0.000000 -60.708740 0.000000 178.000000 0.343893 0.833823 -0.431829
16620.00000000 -12410.00000000 80.00000000 159 240 56 0.000000 0.000000 0.000000 0.000000 -60.708740 0.000000 178.000000 0.349034 0.930306 -0.112723
16600.00000000 -12400.00000000 60.00000000 159 240 56 0.000000 0.000000 0.000000 0.000000 -60.708740 0.000000 178.000000 0.236737 0.951005 -0.198859
16550.00000000 -12410.00000000 70.00000000 159 240 56 0.000000 0.000000 0.000000 0.000000 -60.708740 0.000000 178.000000 0.106317 0.994114 -0.020825
16580.00000000 -12410.00000000 60.00000000 159 240 56 0.000000 0.000000 0.000000 0.000000 -60.708740 0.000000 178.000000 0.411146 0.863560 -0.291929
16560.00000000 -12410.00000000 60.00000000 159 240 56 0.000000 0.000000 0.000000 0.000000 -60.708740 0.000000 178.000000 0.180873 0.978190 0.102125
17160.00000000 -12580.00000000 200.00000000 159 240 56 0.000000 0.000000 0.000000 0.000000 -60.708740 0.000000 178.000000 0.212824 0.487533 0.846769
17130.00000000 -12580.00000000 190.00000000 159 240 56 0.000000 0.000000 0.000000 0.000000 -60.708740 0.000000 178.000000 0.001123 0.160574 0.987023
17100.00000000 -12600.00000000 160.00000000 159 240 56 0.000000 0.000000 0.000000 0.000000 -60.708740 0.000000 178.000000 -0.156631 0.376760 0.912973
17020.00000000 -12540.00000000 180.00000000 159 240 56 0.000000 0.000000 0.000000 0.000000 -60.708740 0.000000 178.000000 0.012275 0.141723 0.989830
17090.00000000 -12530.00000000 10.00000000 159 240 56 0.000000 0.000000 0.000000 0.000000 -60.708740 0.000000 178.000000 -0.408522 -0.171781 0.896438
17050.00000000 -12530.00000000 80.00000000 159 240 56 0.000000 0.000000 0.000000 0.000000 -60.708740 0.000000 178.000000 0.443995 0.886561 0.129915
17040.00000000 -12520.00000000 50.00000000 159 240 56 0.000000 0.000000 0.000000 0.000000 -60.708740 0.000000 178.000000 0.120527 0.846594 -0.518412
17030.00000000 -12540.00000000 10.00000000 159 240 56 0.000000 0.000000 0.000000 0.000000 -60.708740 0.000000 178.000000 -0.178964 -0.070865 0.981300
17030.00000000 -12630.00000000 0.00000000 159 240 56 0.000000 0.000000 0.000000 0.000000 -60.708740 0.000000 178.000000 0.263103 0.246219 0.932820
17050.00000000 -12600.00000000 -10.00000000 159 240 56 0.000000 0.000000 0.000000 0.000000 -60.708740 0.000000 178.000000 0.131015 -0.202247 0.970531
17030.00000000 -12640.00000000 0.00000000 159 240 56 0.000000 0.000000 0.000000 0.000000 -60.708740 0.000000 178.000000 0.086207 0.271488 0.958573
17040.00000000 -12650.00000000 10.00000000 159 240 56 0.000000 0.000000 0.000000 0.000000 -60.708740 0.000000 178.000000 -0.092168 0.405813 0.909297
17000.00000000 -12530.00000000 150.00000000 159 240 56 0.000000 0.000000 0.000000 0.000000 -60.708740 0.000000 178.000000 0.143791 0.549962 0.822719
16950.00000000 -12530.00000000 170.00000000 159 240 56 0.000000 0.000000 0.000000 0.000000 -60.708740 0.000000 178.000000 0.180548 0.326106 0.927932
16940.00000000 -12620.00000000 0.00000000 159 240 56 0.000000 0.000000 0.000000 0.000000 -60.708740 0.000000 178.000000 0.105113 0.367214 0.924178
17160.00000000 -13070.00000000 430.00000000 159 240 56 0.000000 0.000000 0.000000 0.000000 -60.708740 0.000000 178.000000 0.366458 0.685260 -0.629387
17010.00000000 -13070.00000000 310.00000000 159 240 56 0.000000 0.000000 0.000000 0.000000 -60.708740 0.000000 178.000000 0.545477 0.793850 -0.268808
16960.00000000 -12880.00000000 250.00000000 159 240 56 0.000000 0.000000 0.000000 0.000000 -60.708740 0.000000 178.000000 0.489896 0.697224 -0.523336
16940.00000000 -12990.00000000 270.00000000 159 240 56 0.000000 0.000000 0.000000 0.000000 -60.708740 0.000000 178.000000 0.424199 0.905221 -0.025108
16980.00000000 -13030.00000000 280.00000000 159 240 56 0.000000 0.000000 0.000000 0.000000 -60.708740 0.000000 178.000000 0.267869 0.873222 -0.407100
16990.00000000 -13060.00000000 280.00000000 159 240 56 0.000000 0.000000 0.000000 0.000000 -60.708740 0.000000 178.000000 0.268912 0.951226 -0.151179
16850.00000000 -13010.00000000 250.00000000 159 240 56 0.000000 0.000000 0.000000 0.000000 -60.708740 0.000000 178.000000 0.139600 0.927444 -0.346928
16780.00000000 -12510.00000000 160.00000000 159 240 56 0.000000 0.000000 0.000000 0.000000 -60.708740 0.000000 178.000000 0.020753 -0.590756 0.806583
16760.00000000 -12510.00000000 160.00000000 159 240 56 0.000000 0.000000 0.000000 0.000000 -60.708740 0.000000 178.000000 0.136760 0.713858 -0.686807
16750.00000000 -12530.00000000 20.00000000 159 240 56 0.000000 0.000000 0.000000 0.000000 -60.708740 0.000000 178.000000 0.414344 0.466340 0.781566
16750.00000000 -12710.00000000 190.00000000 159 240 56 0.000000 0.000000 0.000000 0.000000 -60.708740 0.000000 178.000000 0.627862 0.590830 -0.506666
