//X Y Z R G B PointSourceId ScanDirectionFlag NumberOfReturns ReturnNumber GpsTime Intensity Classification Nx Ny Nz
840.00000000 5100.00000000 440.00000000 254 208 24 97.000000 1.000000 4.000000 1.000000 -60.708740 114.000000 149.000000 0.047536 -0.034860 0.998261
840.00000000 5050.00000000 470.00000000 254 208 24 97.000000 1.000000 4.000000 1.000000 -60.708740 114.000000 149.000000 0.271022 0.142854 0.951914
900.00000000 5080.00000000 400.00000000 254 208 24 97.000000 1.000000 4.000000 1.000000 -60.708740 114.000000 149.000000 0.604030 -0.253913 0.755431
890.00000000 5080.00000000 350.00000000 254 208 24 97.000000 1.000000 4.000000 1.000000 -60.708740 114.000000 149.000000 0.528379 0.086876 0.844552
900.00000000 5100.00000000 350.00000000 254 208 24 97.000000 1.000000 4.000000 1.000000 -60.708740 114.000000 149.000000 0.335170 -0.050470 0.940805
900.00000000 5070.00000000 340.00000000 254 208 24 97.000000 1.000000 4.000000 1.000000 -60.708740 114.000000 149.000000 0.670674 0.155936 0.725176
890.00000000 5040.00000000 370.00000000 254 208 24 97.000000 1.000000 4.000000 1.000000 -60.708740 114.000000 149.000000 0.543165 0.380052 0.748687
820.00000000 5340.00000000 410.00000000 254 208 24 97.000000 1.000000 4.000000 1.000000 -60.708740 114.000000 149.000000 0.326639 0.471811 0.818964
830.00000000 5330.00000000 410.00000000 254 208 24 97.000000 1.000000 4.000000 1.000000 -60.708740 114.000000 149.000000 0.236699 0.438721 0.866889
800.00000000 5290.00000000 410.00000000 254 208 24 97.000000 1.000000 4.000000 1.000000 -60.708740 114.000000 149.000000 0.205578 -0.049291 0.977399
800.00000000 5320.00000000 330.00000000 254 208 24 97.000000 1.000000 4.000000 1.000000 -60.708740 114.000000 149.000000 0.134043 0.146340 0.980111
830.00000000 5280.00000000 400.00000000 254 208 24 97.000000 1.000000 4.000000 1.000000 -60.708740 114.000000 149.000000 0.200970 -0.281358 0.938322
830.00000000 5310.00000000 340.00000000 254 208 24 97.000000 1.000000 4.000000 1.000000 -60.708740 114.000000 149.000000 0.593333 0.116311 0.796510
820.00000000 5290.00000000 340.00000000 254 208 24 97.000000 1.000000 4.000000 1.000000 -60.708740 114.000000 149.000000 0.125785 -0.001094 0.992057
790.00000000 5280.00000000 340.00000000 254 208 24 97.000000 1.000000 4.000000 1.000000 -60.708740 114.000000 149.000000 0.022123 0.189794 0.981575
830.00000000 5270.00000000 430.00000000 254 208 24 97.000000 1.000000 4.000000 1.000000 -60.708740 114.000000 149.000000 0.142398 0.203976 0.968564
800.00000000 5270.00000000 420.00000000 254 208 24 97.000000 1.000000 4.000000 1.000000 -60.708740 114.000000 149.000000 0.019029 0.135438 0.990603
830.00000000 5260.00000000 430.00000000 254 208 24 97.000000 1.000000 4.000000 1.000000 -60.708740 114.000000 149.000000 0.338350 -0.207007 0.917969
830.00000000 5260.00000000 420.00000000 254 208 24 97.000000 1.000000 4.000000 1.000000 -60.708740 114.000000 149.000000 0.372373 -0.273672 0.886816
830.00000000 5220.00000000 430.00000000 254 208 24 97.000000 1.000000 4.000000 1.000000 -60.708740 114.000000 149.000000 0.231558 0.350978 0.907301
830.00000000 5200.00000000 440.00000000 254 208 24 97.000000 1.000000 4.000000 1.000000 -60.708740 114.000000 149.000000 0.412545 0.331593 0.848441
780.00000000 5270.00000000 430.00000000 254 208 24 97.000000 1.000000 4.000000 1.000000 -60.708740 114.000000 149.000000 0.205483 -0.003483 0.978655
830.00000000 5260.00000000 390.00000000 254 208 24 97.000000 1.000000 4.000000 1.000000 -60.708740 114.000000 149.000000 0.041492 0.115504 0.992440
820.00000000 5250.00000000 390.00000000 254 208 24 97.000000 1.000000 4.000000 1.000000 -60.708740 114.000000 149.000000 0.236081 0.437577 0.867636
830.00000000 5260.00000000 390.00000000 254 208 24 97.000000 1.000000 4.000000 1.000000 -60.708740 114.000000 149.000000 0.041492 0.115504 0.992440
830.00000000 5260.00000000 390.00000000 254 208 24 97.000000 1.000000 4.000000 1.000000 -60.708740 114.000000 149.000000 0.041492 0.115504 0.992440
810.00000000 5190.00000000 370.00000000 254 208 24 97.000000 1.000000 4.000000 1.000000 -60.708740 114.000000 149.000000 0.535178 -0.274651 0.798844
810.00000000 5200.00000000 370.00000000 254 208 24 97.000000 1.000000 4.000000 1.000000 -60.708740 114.000000 149.000000 0.317579 -0.183272 0.930352
770.00000000 5250.00000000 390.00000000 254 208 24 97.000000 1.000000 4.000000 1.000000 -60.708740 114.000000 149.000000 0.213525 -0.187000 0.958873
770.00000000 5240.00000000 390.00000000 254 208 24 97.000000 1.000000 4.000000 1.000000 -60.708740 114.000000 149.000000 -0.033668 0.083628 0.995928
760.00000000 5260.00000000 360.00000000 254 208 24 97.000000 1.000000 4.000000 1.000000 -60.708740 114.000000 149.000000 0.144028 0.367760 0.918700
780.00000000 5220.00000000 340.00000000 254 208 24 97.000000 1.000000 4.000000 1.000000 -60.708740 114.000000 149.000000 0.376733 -0.166331 0.911266
790.00000000 5200.00000000 330.00000000 254 208 24 97.000000 1.000000 4.000000 1.000000 -60.708740 114.000000 149.000000 0.469290 -0.094422 0.877981
780.00000000 5220.00000000 340.00000000 254 208 24 97.000000 1.000000 4.000000 1.000000 -60.708740 114.000000 149.000000 0.376733 -0.166331 0.911266
740.00000000 5280.00000000 420.00000000 254 208 24 97.000000 1.000000 4.000000 1.000000 -60.708740 114.000000 149.000000 -0.138019 0.003312 0.990424
730.00000000 5300.00000000 420.00000000 254 208 24 97.000000 1.000000 4.000000 1.000000 -60.708740 114.000000 149.000000 0.058908 0.191150 0.979792
730.00000000 5250.00000000 430.00000000 254 208 24 97.000000 1.000000 4.000000 1.000000 -60.708740 114.000000 149.000000 -0.257966 0.213822 0.942196
750.00000000 5250.00000000 400.00000000 254 208 24 97.000000 1.000000 4.000000 1.000000 -60.708740 114.000000 149.000000 0.318754 -0.176776 0.931207
750.00000000 5260.00000000 360.00000000 254 208 24 97.000000 1.000000 4.000000 1.000000 -60.708740 114.000000 149.000000 -0.133389 0.226632 0.964803
750.00000000 5260.00000000 400.00000000 254 208 24 97.000000 1.000000 4.000000 1.000000 -60.708740 114.000000 149.000000 0.285242 0.033631 0.957865
750.00000000 5260.00000000 400.00000000 254 208 24 97.000000 1.000000 4.000000 1.000000 -60.708740 114.000000 149.000000 0.285242 0.033631 0.957865
810.00000000 5110.00000000 430.00000000 254 208 24 97.000000 1.000000 4.000000 1.000000 -60.708740 114.000000 149.000000 0.026469 0.313847 0.949104
830.00000000 5110.00000000 440.00000000 254 208 24 97.000000 1.000000 4.000000 1.000000 -60.708740 114.000000 149.000000 0.022393 -0.073578 0.997038
810.00000000 5110.00000000 440.00000000 254 208 24 97.000000 1.000000 4.000000 1.000000 -60.708740 114.000000 149.000000 -0.024972 0.090116 0.995618
830.00000000 5170.00000000 450.00000000 254 208 24 97.000000 1.000000 4.000000 1.000000 -60.708740 114.000000 149.000000 0.554341 0.069470 0.829385
780.00000000 5130.00000000 430.00000000 254 208 24 97.000000 1.000000 4.000000 1.000000 -60.708740 114.000000 149.000000 -0.100785 0.093834 0.990473
790.00000000 5170.00000000 430.00000000 254 208 24 97.000000 1.000000 4.000000 1.000000 -60.708740 114.000000 149.000000 -0.108143 0.190183 0.975774
820.00000000 5160.00000000 340.00000000 254 208 24 97.000000 1.000000 4.000000 1.000000 -60.708740 114.000000 149.000000 0.236084 -0.211521 0.948432
790.00000000 5150.00000000 350.00000000 254 208 24 97.000000 1.000000 4.000000 1.000000 -60.708740 114.000000 149.000000 0.278646 0.203786 0.938524
780.00000000 5180.00000000 340.00000000 254 208 24 97.000000 1.000000 4.000000 1.000000 -60.708740 114.000000 149.000000 0.406019 0.001289 0.913864
770.00000000 5120.00000000 330.00000000 254 208 24 97.000000 1.000000 4.000000 1.000000 -60.708740 114.000000 149.000000 0.180865 0.366002 0.912869
820.00000000 5040.00000000 480.00000000 254 208 24 97.000000 1.000000 4.000000 1.000000 -60.708740 114.000000 149.000000 0.648972 0.304357 0.697282
830.00000000 5040.00000000 470.00000000 254 208 24 97.000000 1.000000 4.000000 1.000000 -60.708740 114.000000 149.000000 0.539637 0.278472 0.794509
830.00000000 5020.00000000 450.00000000 254 208 24 97.000000 1.000000 4.000000 1.000000 -60.708740 114.000000 149.000000 0.273580 -0.010943 0.961787
830.00000000 5040.00000000 480.00000000 254 208 24 97.000000 1.000000 4.000000 1.000000 -60.708740 114.000000 149.000000 0.396174 0.325263 0.858633
830.00000000 5050.00000000 440.00000000 254 208 24 97.000000 1.000000 4.000000 1.000000 -60.708740 114.000000 149.000000 0.418639 0.080983 0.904535
820.00000000 5040.00000000 440.00000000 254 208 24 97.000000 1.000000 4.000000 1.000000 -60.708740 114.000000 149.000000 0.662914 -0.038164 0.747722
780.00000000 5070.00000000 450.00000000 254 208 24 97.000000 1.000000 4.000000 1.000000 -60.708740 114.000000 149.000000 0.138541 0.088809 0.986367
760.00000000 5090.00000000 440.00000000 254 208 24 97.000000 1.000000 4.000000 1.000000 -60.708740 114.000000 149.000000 0.016904 0.399192 0.916712
760.00000000 5050.00000000 450.00000000 254 208 24 97.000000 1.000000 4.000000 1.000000 -60.708740 114.000000 149.000000 0.136188 0.091187 0.986477
780.00000000 5040.00000000 450.00000000 254 208 24 97.000000 1.000000 4.000000 1.000000 -60.708740 114.000000 149.000000 -0.042743 0.235699 0.970886
770.00000000 5060.00000000 450.00000000 254 208 24 97.000000 1.000000 4.000000 1.000000 -60.708740 114.000000 149.000000 0.058898 0.085568 0.994590
770.00000000 5050.00000000 450.00000000 254 208 24 97.000000 1.000000 4.000000 1.000000 -60.708740 114.000000 149.000000 0.094132 0.141794 0.985410
830.00000000 5060.00000000 340.00000000 254 208 24 97.000000 1.000000 4.000000 1.000000 -60.708740 114.000000 149.000000 0.598491 0.321023 0.733998
830.00000000 5050.00000000 340.00000000 254 208 24 97.000000 1.000000 4.000000 1.000000 -60.708740 114.000000 149.000000 0.665145 -0.275947 0.693856
730.00000000 5070.00000000 320.00000000 254 208 24 97.000000 1.000000 4.000000 1.000000 -60.708740 114.000000 149.000000 0.409604 0.377974 0.830278
740.00000000 5060.00000000 320.00000000 254 208 24 97.000000 1.000000 4.000000 1.000000 -60.708740 114.000000 149.000000 0.099052 0.214403 0.971710
740.00000000 5060.00000000 320.00000000 254 208 24 97.000000 1.000000 4.000000 1.000000 -60.708740 114.000000 149.000000 0.099052 0.214403 0.971710
740.00000000 5040.00000000 320.00000000 254 208 24 97.000000 1.000000 4.000000 1.000000 -60.708740 114.000000 149.000000 0.654715 0.189482 0.731741
750.00000000 5030.00000000 330.00000000 254 208 24 97.000000 1.000000 4.000000 1.000000 -60.708740 114.000000 149.000000 0.054951 0.009331 0.998446
740.00000000 5040.00000000 330.00000000 254 208 24 97.000000 1.000000 4.000000 1.000000 -60.708740 114.000000 149.000000 0.373533 0.153642 0.914804
750.00000000 5060.00000000 320.00000000 254 208 24 97.000000 1.000000 4.000000 1.000000 -60.708740 114.000000 149.000000 0.119616 0.313151 0.942140
730.00000000 5050.00000000 320.00000000 254 208 24 97.000000 1.000000 4.000000 1.000000 -60.708740 114.000000 149.000000 0.328393 0.415550 0.848219
710.00000000 5020.00000000 340.00000000 254 208 24 97.000000 1.000000 4.000000 1.000000 -60.708740 114.000000 149.000000 0.368653 0.177921 0.912381
750.00000000 5040.00000000 330.00000000 254 208 24 97.000000 1.000000 4.000000 1.000000 -60.708740 114.000000 149.000000 0.019138 0.142971 0.989542
700.00000000 5100.00000000 350.00000000 254 208 24 97.000000 1.000000 4.000000 1.000000 -60.708740 114.000000 149.000000 -0.287651 0.117977 0.950441
670.00000000 5070.00000000 320.00000000 254 208 24 97.000000 1.000000 4.000000 1.000000 -60.708740 114.000000 149.000000 0.130181 -0.061058 0.989608
700.00000000 5030.00000000 340.00000000 254 208 24 97.000000 1.000000 4.000000 1.000000 -60.708740 114.000000 149.000000 0.431281 -0.132374 0.892454
690.00000000 5020.00000000 340.00000000 254 208 24 97.000000 1.000000 4.000000 1.000000 -60.708740 114.000000 149.000000 -0.153466 0.023872 0.987866
670.00000000 5060.00000000 350.00000000 254 208 24 97.000000 1.000000 4.000000 1.000000 -60.708740 114.000000 149.000000 -0.200720 0.456452 0.866812
700.00000000 5020.00000000 340.00000000 254 208 24 97.000000 1.000000 4.000000 1.000000 -60.708740 114.000000 149.000000 0.147323 0.071893 0.986472
670.00000000 5020.00000000 330.00000000 254 208 24 97.000000 1.000000 4.000000 1.000000 -60.708740 114.000000 149.000000 -0.279945 -0.070306 0.957438
970.00000000 5330.00000000 300.00000000 254 208 24 97.000000 1.000000 4.000000 1.000000 -60.708740 114.000000 149.000000 0.627736 0.293800 0.720853
990.00000000 5320.00000000 240.00000000 254 208 24 97.000000 1.000000 4.000000 1.000000 -60.708740 114.000000 149.000000 0.949016 0.018805 0.314667
1000.00000000 5350.00000000 240.00000000 254 208 24 97.000000 1.000000 4.000000 1.000000 -60.708740 114.000000 149.000000 0.761264 -0.094975 0.641449
990.00000000 5280.00000000 310.00000000 254 208 24 97.000000 1.000000 4.000000 1.000000 -60.708740 114.000000 149.000000 0.646642 0.089041 0.757579
990.00000000 5300.00000000 270.00000000 254 208 24 97.000000 1.000000 4.000000 1.000000 -60.708740 114.000000 149.000000 0.937633 0.040092 0.345308
960.00000000 5330.00000000 310.00000000 254 208 24 97.000000 1.000000 4.000000 1.000000 -60.708740 114.000000 149.000000 0.708062 0.098628 0.699229
920.00000000 5350.00000000 280.00000000 254 208 24 97.000000 1.000000 4.000000 1.000000 -60.708740 114.000000 149.000000 0.657701 -0.323167 0.680436
930.00000000 5330.00000000 250.00000000 254 208 24 97.000000 1.000000 4.000000 1.000000 -60.708740 114.000000 149.000000 0.799272 0.305464 0.517548
930.00000000 5340.00000000 250.00000000 254 208 24 97.000000 1.000000 4.000000 1.000000 -60.708740 114.000000 149.000000 0.616608 0.126293 0.777074
930.00000000 5340.00000000 250.00000000 254 208 24 97.000000 1.000000 4.000000 1.000000 -60.708740 114.000000 149.000000 0.616608 0.126293 0.777074
940.00000000 5330.00000000 240.00000000 254 208 24 97.000000 1.000000 4.000000 1.000000 -60.708740 114.000000 149.000000 0.586681 0.187433 0.787829
950.00000000 5340.00000000 240.00000000 254 208 24 97.000000 1.000000 4.000000 1.000000 -60.708740 114.000000 149.000000 0.678043 -0.276003 0.681234
940.00000000 5300.00000000 250.00000000 254 208 24 97.000000 1.000000 4.000000 1.000000 -60.708740 114.000000 149.000000 0.466790 -0.044910 0.883227
960.00000000 5290.00000000 270.00000000 254 208 24 97.000000 1.000000 4.000000 1.000000 -60.708740 114.000000 149.000000 0.831382 -0.009556 0.555620
960.00000000 5290.00000000 270.00000000 254 208 24 97.000000 1.000000 4.000000 1.000000 -60.708740 114.000000 149.000000 0.831382 -0.009556 0.555620
1000.00000000 5310.00000000 210.00000000 254 208 24 97.000000 1.000000 4.000000 1.000000 -60.708740 114.000000 149.000000 0.955989 -0.180501 0.231309
930.00000000 5350.00000000 230.00000000 254 208 24 97.000000 1.000000 4.000000 1.000000 -60.708740 114.000000 149.000000 0.914231 0.129807 0.383838
930.00000000 5350.00000000 230.00000000 254 208 24 97.000000 1.000000 4.000000 1.000000 -60.708740 114.000000 149.000000 0.914231 0.129807 0.383838
940.00000000 5340.00000000 220.00000000 254 208 24 97.000000 1.000000 4.000000 1.000000 -60.708740 114.000000 149.000000 0.679925 -0.297367 0.670280
930.00000000 5350.00000000 230.00000000 254 208 24 97.000000 1.000000 4.000000 1.000000 -60.708740 114.000000 149.000000 0.914231 0.129807 0.383838
970.00000000 5250.00000000 290.00000000 254 208 24 97.000000 1.000000 4.000000 1.000000 -60.708740 114.000000 149.000000 0.675072 -0.445048 0.588396
980.00000000 5260.00000000 280.00000000 254 208 24 97.000000 1.000000 4.000000 1.000000 -60.708740 114.000000 149.000000 0.887631 -0.090860 0.451504
980.00000000 5270.00000000 280.00000000 254 208 24 97.000000 1.000000 4.000000 1.000000 -60.708740 114.000000 149.000000 0.899148 0.125627 0.419226
980.00000000 5260.00000000 280.00000000 254 208 24 97.000000 1.000000 4.000000 1.000000 -60.708740 114.000000 149.000000 0.887631 -0.090860 0.451504
970.00000000 5240.00000000 260.00000000 254 208 24 97.000000 1.000000 4.000000 1.000000 -60.708740 114.000000 149.000000 0.962816 -0.090783 0.254449
970.00000000 5190.00000000 300.00000000 254 208 24 97.000000 1.000000 4.000000 1.000000 -60.708740 114.000000 149.000000 0.803612 -0.122385 0.582434
980.00000000 5200.00000000 290.00000000 254 208 24 97.000000 1.000000 4.000000 1.000000 -60.708740 114.000000 149.000000 0.771220 -0.058664 0.633860
990.00000000 5220.00000000 270.00000000 254 208 24 97.000000 1.000000 4.000000 1.000000 -60.708740 114.000000 149.000000 0.601075 -0.040822 0.798149
980.00000000 5190.00000000 260.00000000 254 208 24 97.000000 1.000000 4.000000 1.000000 -60.708740 114.000000 149.000000 0.849805 -0.268926 0.453332
1000.00000000 5190.00000000 270.00000000 254 208 24 97.000000 1.000000 4.000000 1.000000 -60.708740 114.000000 149.000000 0.892058 0.218973 0.395327
990.00000000 5200.00000000 250.00000000 254 208 24 97.000000 1.000000 4.000000 1.000000 -60.708740 114.000000 149.000000 0.852026 -0.277868 0.443668
960.00000000 5230.00000000 300.00000000 254 208 24 97.000000 1.000000 4.000000 1.000000 -60.708740 114.000000 149.000000 0.773639 -0.116859 0.622757
930.00000000 5230.00000000 290.00000000 254 208 24 97.000000 1.000000 4.000000 1.000000 -60.708740 114.000000 149.000000 0.648872 0.113811 0.752337
950.00000000 5260.00000000 290.00000000 254 208 24 97.000000 1.000000 4.000000 1.000000 -60.708740 114.000000 149.000000 0.442221 -0.028056 0.896467
920.00000000 5250.00000000 290.00000000 254 208 24 97.000000 1.000000 4.000000 1.000000 -60.708740 114.000000 149.000000 0.519304 -0.342451 0.782975
950.00000000 5230.00000000 280.00000000 254 208 24 97.000000 1.000000 4.000000 1.000000 -60.708740 114.000000 149.000000 0.934461 -0.140922 0.326993
950.00000000 5250.00000000 270.00000000 254 208 24 97.000000 1.000000 4.000000 1.000000 -60.708740 114.000000 149.000000 0.817009 0.273378 0.507702
960.00000000 5270.00000000 270.00000000 254 208 24 97.000000 1.000000 4.000000 1.000000 -60.708740 114.000000 149.000000 0.853369 0.265050 0.448899
950.00000000 5220.00000000 300.00000000 254 208 24 97.000000 1.000000 4.000000 1.000000 -60.708740 114.000000 149.000000 0.869829 0.143761 0.471944
940.00000000 5200.00000000 280.00000000 254 208 24 97.000000 1.000000 4.000000 1.000000 -60.708740 114.000000 149.000000 0.789865 0.181106 0.585930
940.00000000 5200.00000000 290.00000000 254 208 24 97.000000 1.000000 4.000000 1.000000 -60.708740 114.000000 149.000000 0.802461 0.115895 0.585342
930.00000000 5210.00000000 300.00000000 254 208 24 97.000000 1.000000 4.000000 1.000000 -60.708740 114.000000 149.000000 0.907171 0.136427 0.398030
950.00000000 5220.00000000 310.00000000 254 208 24 97.000000 1.000000 4.000000 1.000000 -60.708740 114.000000 149.000000 0.775715 -0.205109 0.596822
930.00000000 5210.00000000 300.00000000 254 208 24 97.000000 1.000000 4.000000 1.000000 -60.708740 114.000000 149.000000 0.907171 0.136427 0.398030
980.00000000 5220.00000000 230.00000000 254 208 24 97.000000 1.000000 4.000000 1.000000 -60.708740 114.000000 149.000000 0.818306 -0.060983 0.571538
890.00000000 5320.00000000 290.00000000 254 208 24 97.000000 1.000000 4.000000 1.000000 -60.708740 114.000000 149.000000 0.863786 -0.080319 0.497417
910.00000000 5350.00000000 280.00000000 254 208 24 97.000000 1.000000 4.000000 1.000000 -60.708740 114.000000 149.000000 0.468951 0.134192 0.872970
880.00000000 5330.00000000 300.00000000 254 208 24 97.000000 1.000000 4.000000 1.000000 -60.708740 114.000000 149.000000 0.798115 0.012406 0.602377
900.00000000 5290.00000000 310.00000000 254 208 24 97.000000 1.000000 4.000000 1.000000 -60.708740 114.000000 149.000000 0.377406 0.247164 0.892454
880.00000000 5290.00000000 310.00000000 254 208 24 97.000000 1.000000 4.000000 1.000000 -60.708740 114.000000 149.000000 0.497119 -0.101133 0.861768
900.00000000 5310.00000000 280.00000000 254 208 24 97.000000 1.000000 4.000000 1.000000 -60.708740 114.000000 149.000000 0.741044 -0.041090 0.670198
900.00000000 5310.00000000 260.00000000 254 208 24 97.000000 1.000000 4.000000 1.000000 -60.708740 114.000000 149.000000 0.688657 -0.262421 0.675934
900.00000000 5290.00000000 270.00000000 254 208 24 97.000000 1.000000 4.000000 1.000000 -60.708740 114.000000 149.000000 0.897798 -0.001307 0.440405
860.00000000 5330.00000000 300.00000000 254 208 24 97.000000 1.000000 4.000000 1.000000 -60.708740 114.000000 149.000000 0.207463 -0.143033 0.967730
870.00000000 5300.00000000 310.00000000 254 208 24 97.000000 1.000000 4.000000 1.000000 -60.708740 114.000000 149.000000 0.353810 0.128032 0.926513
890.00000000 5250.00000000 310.00000000 254 208 24 97.000000 1.000000 4.000000 1.000000 -60.708740 114.000000 149.000000 0.307108 0.110346 0.945256
910.00000000 5260.00000000 310.00000000 254 208 24 97.000000 1.000000 4.000000 1.000000 -60.708740 114.000000 149.000000 0.764521 0.295274 0.572992
910.00000000 5270.00000000 310.00000000 254 208 24 97.000000 1.000000 4.000000 1.000000 -60.708740 114.000000 149.000000 0.743071 0.233090 0.627308
890.00000000 5260.00000000 270.00000000 254 208 24 97.000000 1.000000 4.000000 1.000000 -60.708740 114.000000 149.000000 0.734388 -0.202536 0.647807
910.00000000 5250.00000000 260.00000000 254 208 24 97.000000 1.000000 4.000000 1.000000 -60.708740 114.000000 149.000000 0.511909 0.252088 0.821219
910.00000000 5220.00000000 310.00000000 254 208 24 97.000000 1.000000 4.000000 1.000000 -60.708740 114.000000 149.000000 0.579243 -0.131848 0.804421
870.00000000 5270.00000000 300.00000000 254 208 24 97.000000 1.000000 4.000000 1.000000 -60.708740 114.000000 149.000000 0.322555 -0.284261 0.902859
970.00000000 5250.00000000 40.00000000 254 208 24 97.000000 1.000000 4.000000 1.000000 -60.708740 114.000000 149.000000 0.827409 -0.503841 -0.248069
990.00000000 5220.00000000 30.00000000 254 208 24 97.000000 1.000000 4.000000 1.000000 -60.708740 114.000000 149.000000 0.738787 -0.586827 -0.331403
990.00000000 5220.00000000 30.00000000 254 208 24 97.000000 1.000000 4.000000 1.000000 -60.708740 114.000000 149.000000 0.738787 -0.586827 -0.331403
1000.00000000 5210.00000000 0.00000000 254 208 24 97.000000 1.000000 4.000000 1.000000 -60.708740 114.000000 149.000000 0.914405 -0.156393 -0.373370
950.00000000 5190.00000000 10.00000000 254 208 24 97.000000 1.000000 4.000000 1.000000 -60.708740 114.000000 149.000000 -0.679350 0.572524 0.459020
960.00000000 5200.00000000 -10.00000000 254 208 24 97.000000 1.000000 4.000000 1.000000 -60.708740 114.000000 149.000000 0.902805 0.019827 -0.429593
950.00000000 5190.00000000 10.00000000 254 208 24 97.000000 1.000000 4.000000 1.000000 -60.708740 114.000000 149.000000 -0.679350 0.572524 0.459020
980.00000000 5180.00000000 260.00000000 254 208 24 97.000000 1.000000 4.000000 1.000000 -60.708740 114.000000 149.000000 0.886226 0.053255 0.460182
960.00000000 5150.00000000 310.00000000 254 208 24 97.000000 1.000000 4.000000 1.000000 -60.708740 114.000000 149.000000 0.742241 -0.006937 0.670098
920.00000000 5140.00000000 250.00000000 254 208 24 97.000000 1.000000 4.000000 1.000000 -60.708740 114.000000 149.000000 0.948964 -0.273248 0.157488
980.00000000 5180.00000000 220.00000000 254 208 24 97.000000 1.000000 4.000000 1.000000 -60.708740 114.000000 149.000000 0.669013 -0.330437 0.665757
980.00000000 5180.00000000 220.00000000 254 208 24 97.000000 1.000000 4.000000 1.000000 -60.708740 114.000000 149.000000 0.669013 -0.330437 0.665757
990.00000000 5160.00000000 210.00000000 254 208 24 97.000000 1.000000 4.000000 1.000000 -60.708740 114.000000 149.000000 0.859778 0.014894 0.510451
980.00000000 5130.00000000 230.00000000 254 208 24 97.000000 1.000000 4.000000 1.000000 -60.708740 114.000000 149.000000 0.766706 0.009705 0.641925
970.00000000 5130.00000000 230.00000000 254 208 24 97.000000 1.000000 4.000000 1.000000 -60.708740 114.000000 149.000000 0.829408 0.271302 0.488343
940.00000000 5120.00000000 220.00000000 254 208 24 97.000000 1.000000 4.000000 1.000000 -60.708740 114.000000 149.000000 0.971597 -0.172360 0.162146
930.00000000 5100.00000000 230.00000000 254 208 24 97.000000 1.000000 4.000000 1.000000 -60.708740 114.000000 149.000000 0.993541 0.014209 0.112579
910.00000000 5170.00000000 310.00000000 254 208 24 97.000000 1.000000 4.000000 1.000000 -60.708740 114.000000 149.000000 0.617249 -0.395503 0.680133
870.00000000 5170.00000000 250.00000000 254 208 24 97.000000 1.000000 4.000000 1.000000 -60.708740 114.000000 149.000000 0.791825 0.306257 0.528412
880.00000000 5160.00000000 160.00000000 254 208 24 97.000000 1.000000 4.000000 1.000000 -60.708740 114.000000 149.000000 0.945726 -0.150180 0.288182
910.00000000 5160.00000000 190.00000000 254 208 24 97.000000 1.000000 4.000000 1.000000 -60.708740 114.000000 149.000000 0.995003 -0.085223 -0.052019
890.00000000 5120.00000000 170.00000000 254 208 24 97.000000 1.000000 4.000000 1.000000 -60.708740 114.000000 149.000000 0.899781 -0.419711 0.119316
860.00000000 5150.00000000 180.00000000 254 208 24 97.000000 1.000000 4.000000 1.000000 -60.708740 114.000000 149.000000 0.991551 -0.129333 -0.009949
860.00000000 5160.00000000 190.00000000 254 208 24 97.000000 1.000000 4.000000 1.000000 -60.708740 114.000000 149.000000 0.922326 -0.160952 0.351296
860.00000000 5170.00000000 180.00000000 254 208 24 97.000000 1.000000 4.000000 1.000000 -60.708740 114.000000 149.000000 0.995100 -0.095031 -0.027308
890.00000000 5100.00000000 250.00000000 254 208 24 97.000000 1.000000 4.000000 1.000000 -60.708740 114.000000 149.000000 0.923231 0.161110 0.348838
840.00000000 5050.00000000 270.00000000 254 208 24 97.000000 1.000000 4.000000 1.000000 -60.708740 114.000000 149.000000 0.944651 -0.071861 0.320110
990.00000000 5150.00000000 80.00000000 254 208 24 97.000000 1.000000 4.000000 1.000000 -60.708740 114.000000 149.000000 0.862743 -0.476352 -0.169599
980.00000000 5140.00000000 80.00000000 254 208 24 97.000000 1.000000 4.000000 1.000000 -60.708740 114.000000 149.000000 0.842359 -0.233058 -0.485918
980.00000000 5140.00000000 80.00000000 254 208 24 97.000000 1.000000 4.000000 1.000000 -60.708740 114.000000 149.000000 0.842359 -0.233058 -0.485918
960.00000000 5170.00000000 70.00000000 254 208 24 97.000000 1.000000 4.000000 1.000000 -60.708740 114.000000 149.000000 0.915190 -0.386291 0.114918
960.00000000 5120.00000000 70.00000000 254 208 24 97.000000 1.000000 4.000000 1.000000 -60.708740 114.000000 149.000000 0.894424 -0.432422 0.114092
950.00000000 5110.00000000 70.00000000 254 208 24 97.000000 1.000000 4.000000 1.000000 -60.708740 114.000000 149.000000 0.928721 -0.370724 -0.006370
920.00000000 5120.00000000 100.00000000 254 208 24 97.000000 1.000000 4.000000 1.000000 -60.708740 114.000000 149.000000 0.812456 -0.551255 -0.189826
950.00000000 5110.00000000 80.00000000 254 208 24 97.000000 1.000000 4.000000 1.000000 -60.708740 114.000000 149.000000 0.931707 -0.191370 -0.308706
970.00000000 5170.00000000 50.00000000 254 208 24 97.000000 1.000000 4.000000 1.000000 -60.708740 114.000000 149.000000 0.783605 -0.586549 -0.204753
970.00000000 5160.00000000 50.00000000 254 208 24 97.000000 1.000000 4.000000 1.000000 -60.708740 114.000000 149.000000 0.773836 -0.171795 -0.609643
970.00000000 5110.00000000 40.00000000 254 208 24 97.000000 1.000000 4.000000 1.000000 -60.708740 114.000000 149.000000 0.973044 -0.180943 -0.142983
970.00000000 5110.00000000 30.00000000 254 208 24 97.000000 1.000000 4.000000 1.000000 -60.708740 114.000000 149.000000 0.946308 0.026532 -0.322174
940.00000000 5160.00000000 10.00000000 254 208 24 97.000000 1.000000 4.000000 1.000000 -60.708740 114.000000 149.000000 0.820252 -0.162855 -0.548329
950.00000000 5110.00000000 60.00000000 254 208 24 97.000000 1.000000 4.000000 1.000000 -60.708740 114.000000 149.000000 0.893770 0.067273 -0.443453
940.00000000 5110.00000000 50.00000000 254 208 24 97.000000 1.000000 4.000000 1.000000 -60.708740 114.000000 149.000000 0.877023 -0.003993 -0.480433
1000.00000000 5080.00000000 120.00000000 254 208 24 97.000000 1.000000 4.000000 1.000000 -60.708740 114.000000 149.000000 0.868614 -0.457243 0.190888
980.00000000 5070.00000000 90.00000000 254 208 24 97.000000 1.000000 4.000000 1.000000 -60.708740 114.000000 149.000000 0.778374 -0.459875 -0.427375
970.00000000 5070.00000000 70.00000000 254 208 24 97.000000 1.000000 4.000000 1.000000 -60.708740 114.000000 149.000000 0.822446 -0.538740 -0.182598
990.00000000 5020.00000000 100.00000000 254 208 24 97.000000 1.000000 4.000000 1.000000 -60.708740 114.000000 149.000000 0.905851 -0.247316 -0.343901
950.00000000 5060.00000000 70.00000000 254 208 24 97.000000 1.000000 4.000000 1.000000 -60.708740 114.000000 149.000000 0.898001 -0.406615 -0.168106
950.00000000 5060.00000000 70.00000000 254 208 24 97.000000 1.000000 4.000000 1.000000 -60.708740 114.000000 149.000000 0.898001 -0.406615 -0.168106
980.00000000 5100.00000000 60.00000000 254 208 24 97.000000 1.000000 4.000000 1.000000 -60.708740 114.000000 149.000000 0.813990 -0.131479 -0.565804
970.00000000 5070.00000000 30.00000000 254 208 24 97.000000 1.000000 4.000000 1.000000 -60.708740 114.000000 149.000000 0.816928 -0.553113 -0.163386
1000.00000000 5030.00000000 40.00000000 254 208 24 97.000000 1.000000 4.000000 1.000000 -60.708740 114.000000 149.000000 0.917174 -0.393458 -0.063114
950.00000000 5050.00000000 60.00000000 254 208 24 97.000000 1.000000 4.000000 1.000000 -60.708740 114.000000 149.000000 0.809115 -0.587059 -0.026369
900.00000000 5150.00000000 120.00000000 254 208 24 97.000000 1.000000 4.000000 1.000000 -60.708740 114.000000 149.000000 0.977694 0.120198 0.172243
880.00000000 5150.00000000 90.00000000 254 208 24 97.000000 1.000000 4.000000 1.000000 -60.708740 114.000000 149.000000 0.949921 -0.279231 -0.140284
860.00000000 5160.00000000 140.00000000 254 208 24 97.000000 1.000000 4.000000 1.000000 -60.708740 114.000000 149.000000 0.999072 0.015466 0.040210
860.00000000 5150.00000000 120.00000000 254 208 24 97.000000 1.000000 4.000000 1.000000 -60.708740 114.000000 149.000000 0.987291 0.156731 -0.026313
860.00000000 5150.00000000 140.00000000 254 208 24 97.000000 1.000000 4.000000 1.000000 -60.708740 114.000000 149.000000 0.990959 0.051198 0.124012
850.00000000 5150.00000000 100.00000000 254 208 24 97.000000 1.000000 4.000000 1.000000 -60.708740 114.000000 149.000000 0.795541 -0.364824 -0.483753
860.00000000 5140.00000000 120.00000000 254 208 24 97.000000 1.000000 4.000000 1.000000 -60.708740 114.000000 149.000000 0.997185 -0.073276 0.015929
860.00000000 5120.00000000 110.00000000 254 208 24 97.000000 1.000000 4.000000 1.000000 -60.708740 114.000000 149.000000 0.943680 0.091068 -0.318080
860.00000000 5110.00000000 110.00000000 254 208 24 97.000000 1.000000 4.000000 1.000000 -60.708740 114.000000 149.000000 0.993020 0.050493 0.106595
860.00000000 5120.00000000 120.00000000 254 208 24 97.000000 1.000000 4.000000 1.000000 -60.708740 114.000000 149.000000 0.884721 -0.365004 -0.289900
860.00000000 5140.00000000 140.00000000 254 208 24 97.000000 1.000000 4.000000 1.000000 -60.708740 114.000000 149.000000 0.959678 -0.207820 -0.189288
890.00000000 5110.00000000 30.00000000 254 208 24 97.000000 1.000000 4.000000 1.000000 -60.708740 114.000000 149.000000 0.832484 -0.307691 -0.460756
890.00000000 5120.00000000 20.00000000 254 208 24 97.000000 1.000000 4.000000 1.000000 -60.708740 114.000000 149.000000 0.867038 -0.271803 -0.417575
870.00000000 5110.00000000 60.00000000 254 208 24 97.000000 1.000000 4.000000 1.000000 -60.708740 114.000000 149.000000 0.957587 -0.108136 -0.267082
870.00000000 5120.00000000 60.00000000 254 208 24 97.000000 1.000000 4.000000 1.000000 -60.708740 114.000000 149.000000 0.910116 -0.314085 -0.270259
840.00000000 5130.00000000 30.00000000 254 208 24 97.000000 1.000000 4.000000 1.000000 -60.708740 114.000000 149.000000 0.929331 -0.192034 -0.315384
910.00000000 5090.00000000 90.00000000 254 208 24 97.000000 1.000000 4.000000 1.000000 -60.708740 114.000000 149.000000 0.958871 -0.167968 -0.228807
900.00000000 5090.00000000 80.00000000 254 208 24 97.000000 1.000000 4.000000 1.000000 -60.708740 114.000000 149.000000 0.850402 -0.390221 -0.352909
880.00000000 5060.00000000 70.00000000 254 208 24 97.000000 1.000000 4.000000 1.000000 -60.708740 114.000000 149.000000 0.757629 -0.302731 -0.578232
910.00000000 5020.00000000 70.00000000 254 208 24 97.000000 1.000000 4.000000 1.000000 -60.708740 114.000000 149.000000 0.937566 -0.333030 0.100310
880.00000000 5060.00000000 70.00000000 254 208 24 97.000000 1.000000 4.000000 1.000000 -60.708740 114.000000 149.000000 0.757629 -0.302731 -0.578232
880.00000000 5060.00000000 80.00000000 254 208 24 97.000000 1.000000 4.000000 1.000000 -60.708740 114.000000 149.000000 0.988772 -0.145172 -0.035436
850.00000000 5100.00000000 100.00000000 254 208 24 97.000000 1.000000 4.000000 1.000000 -60.708740 114.000000 149.000000 0.961670 -0.234203 0.142615
850.00000000 5090.00000000 100.00000000 254 208 24 97.000000 1.000000 4.000000 1.000000 -60.708740 114.000000 149.000000 0.966895 -0.033004 -0.253031
850.00000000 5100.00000000 100.00000000 254 208 24 97.000000 1.000000 4.000000 1.000000 -60.708740 114.000000 149.000000 0.961670 -0.234203 0.142615
850.00000000 5100.00000000 90.00000000 254 208 24 97.000000 1.000000 4.000000 1.000000 -60.708740 114.000000 149.000000 0.951408 -0.173595 -0.254337
850.00000000 5100.00000000 90.00000000 254 208 24 97.000000 1.000000 4.000000 1.000000 -60.708740 114.000000 149.000000 0.951408 -0.173595 -0.254337
850.00000000 5090.00000000 90.00000000 254 208 24 97.000000 1.000000 4.000000 1.000000 -60.708740 114.000000 149.000000 0.965948 -0.114169 -0.232187
870.00000000 5070.00000000 90.00000000 254 208 24 97.000000 1.000000 4.000000 1.000000 -60.708740 114.000000 149.000000 0.999374 -0.035367 0.001010
850.00000000 5050.00000000 110.00000000 254 208 24 97.000000 1.000000 4.000000 1.000000 -60.708740 114.000000 149.000000 0.860593 -0.150494 -0.486549
840.00000000 5040.00000000 90.00000000 254 208 24 97.000000 1.000000 4.000000 1.000000 -60.708740 114.000000 149.000000 0.935223 0.164389 -0.313583
840.00000000 5060.00000000 80.00000000 254 208 24 97.000000 1.000000 4.000000 1.000000 -60.708740 114.000000 149.000000 0.994820 0.014073 -0.100673
840.00000000 5060.00000000 80.00000000 254 208 24 97.000000 1.000000 4.000000 1.000000 -60.708740 114.000000 149.000000 0.994820 0.014073 -0.100673
850.00000000 5060.00000000 90.00000000 254 208 24 97.000000 1.000000 4.000000 1.000000 -60.708740 114.000000 149.000000 -0.705048 0.559061 0.436300
890.00000000 5100.00000000 30.00000000 254 208 24 97.000000 1.000000 4.000000 1.000000 -60.708740 114.000000 149.000000 0.759573 -0.378973 -0.528610
900.00000000 5070.00000000 40.00000000 254 208 24 97.000000 1.000000 4.000000 1.000000 -60.708740 114.000000 149.000000 0.774843 0.079657 -0.627116
910.00000000 5070.00000000 50.00000000 254 208 24 97.000000 1.000000 4.000000 1.000000 -60.708740 114.000000 149.000000 0.845600 -0.292173 -0.446761
900.00000000 5080.00000000 -10.00000000 254 208 24 97.000000 1.000000 4.000000 1.000000 -60.708740 114.000000 149.000000 0.934603 -0.286388 -0.210949
910.00000000 5060.00000000 60.00000000 254 208 24 97.000000 1.000000 4.000000 1.000000 -60.708740 114.000000 149.000000 0.798054 -0.043633 -0.601004
890.00000000 5030.00000000 30.00000000 254 208 24 97.000000 1.000000 4.000000 1.000000 -60.708740 114.000000 149.000000 0.963941 -0.138818 -0.227039
840.00000000 5080.00000000 60.00000000 254 208 24 97.000000 1.000000 4.000000 1.000000 -60.708740 114.000000 149.000000 0.876058 -0.451923 -0.168191
840.00000000 5080.00000000 60.00000000 254 208 24 97.000000 1.000000 4.000000 1.000000 -60.708740 114.000000 149.000000 0.876058 -0.451923 -0.168191
870.00000000 5020.00000000 10.00000000 254 208 24 97.000000 1.000000 4.000000 1.000000 -60.708740 114.000000 149.000000 0.803345 -0.546398 -0.236824
850.00000000 5030.00000000 20.00000000 254 208 24 97.000000 1.000000 4.000000 1.000000 -60.708740 114.000000 149.000000 0.699450 -0.469083 -0.539194
860.00000000 5030.00000000 -10.00000000 254 208 24 97.000000 1.000000 4.000000 1.000000 -60.708740 114.000000 149.000000 0.890028 -0.081921 -0.448485
830.00000000 5190.00000000 110.00000000 254 208 24 97.000000 1.000000 4.000000 1.000000 -60.708740 114.000000 149.000000 0.975570 -0.008218 0.219533
710.00000000 5280.00000000 0.00000000 254 208 24 97.000000 1.000000 4.000000 1.000000 -60.708740 114.000000 149.000000 0.235943 0.278328 0.931056
720.00000000 5270.00000000 0.00000000 254 208 24 97.000000 1.000000 4.000000 1.000000 -60.708740 114.000000 149.000000 0.186263 0.183658 0.965182
720.00000000 5270.00000000 0.00000000 254 208 24 97.000000 1.000000 4.000000 1.000000 -60.708740 114.000000 149.000000 0.186263 0.183658 0.965182
710.00000000 5260.00000000 10.00000000 254 208 24 97.000000 1.000000 4.000000 1.000000 -60.708740 114.000000 149.000000 0.035578 0.393988 0.918427
720.00000000 5230.00000000 10.00000000 254 208 24 97.000000 1.000000 4.000000 1.000000 -60.708740 114.000000 149.000000 0.325212 -0.016323 0.945500
720.00000000 5190.00000000 40.00000000 254 208 24 97.000000 1.000000 4.000000 1.000000 -60.708740 114.000000 149.000000 -0.279233 0.416560 0.865163
680.00000000 5260.00000000 20.00000000 254 208 24 97.000000 1.000000 4.000000 1.000000 -60.708740 114.000000 149.000000 0.461099 0.130717 0.877668
700.00000000 5270.00000000 10.00000000 254 208 24 97.000000 1.000000 4.000000 1.000000 -60.708740 114.000000 149.000000 0.598948 -0.076125 0.797161
700.00000000 5260.00000000 10.00000000 254 208 24 97.000000 1.000000 4.000000 1.000000 -60.708740 114.000000 149.000000 0.279514 0.170435 0.944894
680.00000000 5260.00000000 10.00000000 254 208 24 97.000000 1.000000 4.000000 1.000000 -60.708740 114.000000 149.000000 0.111853 -0.079566 0.990534
700.00000000 5260.00000000 10.00000000 254 208 24 97.000000 1.000000 4.000000 1.000000 -60.708740 114.000000 149.000000 0.279514 0.170435 0.944894
690.00000000 5200.00000000 50.00000000 254 208 24 97.000000 1.000000 4.000000 1.000000 -60.708740 114.000000 149.000000 0.472955 0.309542 0.824922
680.00000000 5220.00000000 0.00000000 254 208 24 97.000000 1.000000 4.000000 1.000000 -60.708740 114.000000 149.000000 0.120726 0.147554 0.981658
810.00000000 5130.00000000 300.00000000 254 208 24 97.000000 1.000000 4.000000 1.000000 -60.708740 114.000000 149.000000 0.402446 0.174537 0.898651
790.00000000 5030.00000000 260.00000000 254 208 24 97.000000 1.000000 4.000000 1.000000 -60.708740 114.000000 149.000000 0.551119 -0.254483 0.794674
790.00000000 5020.00000000 270.00000000 254 208 24 97.000000 1.000000 4.000000 1.000000 -60.708740 114.000000 149.000000 0.757157 0.162356 0.632735
720.00000000 5090.00000000 310.00000000 254 208 24 97.000000 1.000000 4.000000 1.000000 -60.708740 114.000000 149.000000 0.377220 0.334109 0.863757
820.00000000 5170.00000000 130.00000000 254 208 24 97.000000 1.000000 4.000000 1.000000 -60.708740 114.000000 149.000000 0.985297 -0.170815 0.003394
810.00000000 5130.00000000 110.00000000 254 208 24 97.000000 1.000000 4.000000 1.000000 -60.708740 114.000000 149.000000 0.980726 -0.008086 0.195221
820.00000000 5120.00000000 130.00000000 254 208 24 97.000000 1.000000 4.000000 1.000000 -60.708740 114.000000 149.000000 0.990417 0.137341 -0.014516
830.00000000 5110.00000000 100.00000000 254 208 24 97.000000 1.000000 4.000000 1.000000 -60.708740 114.000000 149.000000 0.866398 -0.369561 -0.335825
800.00000000 5160.00000000 0.00000000 254 208 24 97.000000 1.000000 4.000000 1.000000 -60.708740 114.000000 149.000000 -0.306713 0.586127 0.749921
760.00000000 5180.00000000 60.00000000 254 208 24 97.000000 1.000000 4.000000 1.000000 -60.708740 114.000000 149.000000 -0.277461 0.271710 0.921515
810.00000000 5100.00000000 120.00000000 254 208 24 97.000000 1.000000 4.000000 1.000000 -60.708740 114.000000 149.000000 0.997847 0.013669 0.064140
810.00000000 5100.00000000 120.00000000 254 208 24 97.000000 1.000000 4.000000 1.000000 -60.708740 114.000000 149.000000 0.997847 0.013669 0.064140
830.00000000 5100.00000000 100.00000000 254 208 24 97.000000 1.000000 4.000000 1.000000 -60.708740 114.000000 149.000000 0.847639 -0.291810 -0.443119
830.00000000 5070.00000000 70.00000000 254 208 24 97.000000 1.000000 4.000000 1.000000 -60.708740 114.000000 149.000000 0.760983 -0.597127 -0.253661
760.00000000 5080.00000000 90.00000000 254 208 24 97.000000 1.000000 4.000000 1.000000 -60.708740 114.000000 149.000000 -0.528771 0.324291 0.784370
810.00000000 5030.00000000 60.00000000 254 208 24 97.000000 1.000000 4.000000 1.000000 -60.708740 114.000000 149.000000 0.974129 -0.145298 -0.173094
750.00000000 5170.00000000 30.00000000 254 208 24 97.000000 1.000000 4.000000 1.000000 -60.708740 114.000000 149.000000 0.625337 -0.457686 -0.632043
740.00000000 5160.00000000 60.00000000 254 208 24 97.000000 1.000000 4.000000 1.000000 -60.708740 114.000000 149.000000 -0.418923 0.474345 0.774274
740.00000000 5150.00000000 20.00000000 254 208 24 97.000000 1.000000 4.000000 1.000000 -60.708740 114.000000 149.000000 0.034234 0.028010 0.999021
610.00000000 5610.00000000 -10.00000000 254 208 24 97.000000 1.000000 4.000000 1.000000 -60.708740 114.000000 149.000000 0.823440 -0.464464 0.325912
630.00000000 5420.00000000 30.00000000 254 208 24 97.000000 1.000000 4.000000 1.000000 -60.708740 114.000000 149.000000 0.946547 0.124159 0.297715
650.00000000 5380.00000000 -10.00000000 254 208 24 97.000000 1.000000 4.000000 1.000000 -60.708740 114.000000 149.000000 0.668063 -0.438156 0.601424
620.00000000 5360.00000000 20.00000000 254 208 24 97.000000 1.000000 4.000000 1.000000 -60.708740 114.000000 149.000000 0.956645 -0.011052 0.291046
590.00000000 5380.00000000 20.00000000 254 208 24 97.000000 1.000000 4.000000 1.000000 -60.708740 114.000000 149.000000 0.950087 -0.063167 0.305523
640.00000000 5300.00000000 40.00000000 254 208 24 97.000000 1.000000 4.000000 1.000000 -60.708740 114.000000 149.000000 0.890085 0.064459 0.451214
610.00000000 5350.00000000 10.00000000 254 208 24 97.000000 1.000000 4.000000 1.000000 -60.708740 114.000000 149.000000 0.837480 0.220389 0.500056
660.00000000 5220.00000000 50.00000000 254 208 24 97.000000 1.000000 4.000000 1.000000 -60.708740 114.000000 149.000000 0.651645 0.023824 0.758150
560.00000000 5080.00000000 150.00000000 254 208 24 97.000000 1.000000 4.000000 1.000000 -60.708740 114.000000 149.000000 0.960090 -0.088446 -0.265339
560.00000000 5080.00000000 160.00000000 254 208 24 97.000000 1.000000 4.000000 1.000000 -60.708740 114.000000 149.000000 0.968764 -0.186548 -0.163390
660.00000000 5140.00000000 70.00000000 254 208 24 97.000000 1.000000 4.000000 1.000000 -60.708740 114.000000 149.000000 0.277876 0.049037 0.959364
590.00000000 5120.00000000 130.00000000 254 208 24 97.000000 1.000000 4.000000 1.000000 -60.708740 114.000000 149.000000 0.916771 -0.367554 -0.156316
580.00000000 5120.00000000 130.00000000 254 208 24 97.000000 1.000000 4.000000 1.000000 -60.708740 114.000000 149.000000 0.834949 -0.530525 0.146301
350.00000000 5220.00000000 150.00000000 254 208 24 97.000000 1.000000 4.000000 1.000000 -60.708740 114.000000 149.000000 0.980680 -0.076181 -0.180174
460.00000000 5030.00000000 200.00000000 254 208 24 97.000000 1.000000 4.000000 1.000000 -60.708740 114.000000 149.000000 0.917622 -0.394405 0.049135
440.00000000 5080.00000000 200.00000000 254 208 24 97.000000 1.000000 4.000000 1.000000 -60.708740 114.000000 149.000000 0.932452 -0.337212 -0.129697
410.00000000 5070.00000000 200.00000000 254 208 24 97.000000 1.000000 4.000000 1.000000 -60.708740 114.000000 149.000000 0.846540 -0.520615 0.111045
380.00000000 5080.00000000 160.00000000 254 208 24 97.000000 1.000000 4.000000 1.000000 -60.708740 114.000000 149.000000 0.987336 -0.061928 -0.146056
410.00000000 5070.00000000 170.00000000 254 208 24 97.000000 1.000000 4.000000 1.000000 -60.708740 114.000000 149.000000 0.988861 0.056672 -0.137631
410.00000000 5050.00000000 200.00000000 254 208 24 97.000000 1.000000 4.000000 1.000000 -60.708740 114.000000 149.000000 0.904268 -0.044209 -0.424671
410.00000000 5030.00000000 190.00000000 254 208 24 97.000000 1.000000 4.000000 1.000000 -60.708740 114.000000 149.000000 0.932160 0.078680 -0.353394
410.00000000 5050.00000000 180.00000000 254 208 24 97.000000 1.000000 4.000000 1.000000 -60.708740 114.000000 149.000000 0.918681 -0.377143 0.117425
390.00000000 5060.00000000 170.00000000 254 208 24 97.000000 1.000000 4.000000 1.000000 -60.708740 114.000000 149.000000 0.999156 0.025778 -0.031965
400.00000000 5060.00000000 190.00000000 254 208 24 97.000000 1.000000 4.000000 1.000000 -60.708740 114.000000 149.000000 0.977176 -0.200790 -0.069364
410.00000000 5060.00000000 190.00000000 254 208 24 97.000000 1.000000 4.000000 1.000000 -60.708740 114.000000 149.000000 0.952992 -0.274366 0.128568
960.00000000 4980.00000000 360.00000000 254 208 24 97.000000 1.000000 4.000000 1.000000 -60.708740 114.000000 149.000000 0.881305 -0.148567 0.448586
830.00000000 5000.00000000 440.00000000 254 208 24 97.000000 1.000000 4.000000 1.000000 -60.708740 114.000000 149.000000 0.167804 -0.050459 0.984528
830.00000000 4990.00000000 450.00000000 254 208 24 97.000000 1.000000 4.000000 1.000000 -60.708740 114.000000 149.000000 0.171026 0.088546 0.981280
810.00000000 4990.00000000 450.00000000 254 208 24 97.000000 1.000000 4.000000 1.000000 -60.708740 114.000000 149.000000 0.242016 0.256006 0.935890
770.00000000 4990.00000000 320.00000000 254 208 24 97.000000 1.000000 4.000000 1.000000 -60.708740 114.000000 149.000000 0.140751 -0.023646 0.989763
760.00000000 5000.00000000 320.00000000 254 208 24 97.000000 1.000000 4.000000 1.000000 -60.708740 114.000000 149.000000 0.420780 -0.342568 0.839995
760.00000000 5000.00000000 330.00000000 254 208 24 97.000000 1.000000 4.000000 1.000000 -60.708740 114.000000 149.000000 0.684644 0.290212 0.668610
780.00000000 4960.00000000 320.00000000 254 208 24 97.000000 1.000000 4.000000 1.000000 -60.708740 114.000000 149.000000 0.507514 -0.356065 0.784632
710.00000000 5000.00000000 400.00000000 254 208 24 97.000000 1.000000 4.000000 1.000000 -60.708740 114.000000 149.000000 0.429239 -0.066770 0.900720
750.00000000 4990.00000000 350.00000000 254 208 24 97.000000 1.000000 4.000000 1.000000 -60.708740 114.000000 149.000000 0.169180 0.075591 0.982682
740.00000000 4960.00000000 360.00000000 254 208 24 97.000000 1.000000 4.000000 1.000000 -60.708740 114.000000 149.000000 0.288571 0.044105 0.956442
720.00000000 4960.00000000 330.00000000 254 208 24 97.000000 1.000000 4.000000 1.000000 -60.708740 114.000000 149.000000 0.671443 0.012511 0.740951
690.00000000 5010.00000000 340.00000000 254 208 24 97.000000 1.000000 4.000000 1.000000 -60.708740 114.000000 149.000000 -0.092338 0.341250 0.935426
670.00000000 5010.00000000 330.00000000 254 208 24 97.000000 1.000000 4.000000 1.000000 -60.708740 114.000000 149.000000 -0.281910 0.108830 0.953249
710.00000000 4910.00000000 340.00000000 254 208 24 97.000000 1.000000 4.000000 1.000000 -60.708740 114.000000 149.000000 0.481018 0.349976 0.803827
710.00000000 4910.00000000 330.00000000 254 208 24 97.000000 1.000000 4.000000 1.000000 -60.708740 114.000000 149.000000 0.359721 -0.165048 0.918346
730.00000000 4920.00000000 350.00000000 254 208 24 97.000000 1.000000 4.000000 1.000000 -60.708740 114.000000 149.000000 0.003306 0.135555 0.990764
710.00000000 4870.00000000 330.00000000 254 208 24 97.000000 1.000000 4.000000 1.000000 -60.708740 114.000000 149.000000 0.727425 -0.086008 0.680776
710.00000000 4860.00000000 330.00000000 254 208 24 97.000000 1.000000 4.000000 1.000000 -60.708740 114.000000 149.000000 0.572306 -0.055111 0.818186
710.00000000 4870.00000000 330.00000000 254 208 24 97.000000 1.000000 4.000000 1.000000 -60.708740 114.000000 149.000000 0.727425 -0.086008 0.680776
680.00000000 4920.00000000 360.00000000 254 208 24 97.000000 1.000000 4.000000 1.000000 -60.708740 114.000000 149.000000 0.188932 -0.079229 0.978789
700.00000000 4860.00000000 340.00000000 254 208 24 97.000000 1.000000 4.000000 1.000000 -60.708740 114.000000 149.000000 0.564786 0.193336 0.802270
700.00000000 4860.00000000 330.00000000 254 208 24 97.000000 1.000000 4.000000 1.000000 -60.708740 114.000000 149.000000 0.330368 0.197087 0.923046
