//X Y Z R G B PointSourceId ScanDirectionFlag NumberOfReturns ReturnNumber GpsTime Intensity Classification Nx Ny Nz
16990.00000000 -4550.00000000 280.00000000 231 213 33 97.000000 1.000000 4.000000 1.000000 -60.708740 114.000000 118.000000 0.799605 0.197226 0.567215
16990.00000000 -4550.00000000 280.00000000 231 213 33 97.000000 1.000000 4.000000 1.000000 -60.708740 114.000000 118.000000 0.799605 0.197226 0.567215
16980.00000000 -4550.00000000 290.00000000 231 213 33 97.000000 1.000000 4.000000 1.000000 -60.708740 114.000000 118.000000 0.412355 0.520782 0.747495
16980.00000000 -4580.00000000 270.00000000 231 213 33 97.000000 1.000000 4.000000 1.000000 -60.708740 114.000000 118.000000 0.701420 0.369601 0.609430
16950.00000000 -4520.00000000 220.00000000 231 213 33 97.000000 1.000000 4.000000 1.000000 -60.708740 114.000000 118.000000 0.644833 0.537080 0.543815
16920.00000000 -4560.00000000 310.00000000 231 213 33 97.000000 1.000000 4.000000 1.000000 -60.708740 114.000000 118.000000 0.603114 0.522023 0.603114
16970.00000000 -4660.00000000 260.00000000 231 213 33 97.000000 1.000000 4.000000 1.000000 -60.708740 114.000000 118.000000 0.839317 0.233908 0.490748
16980.00000000 -4700.00000000 290.00000000 231 213 33 97.000000 1.000000 4.000000 1.000000 -60.708740 114.000000 118.000000 0.543477 0.020534 0.839173
16970.00000000 -4690.00000000 270.00000000 231 213 33 97.000000 1.000000 4.000000 1.000000 -60.708740 114.000000 118.000000 0.711679 0.488342 0.505009
16970.00000000 -4670.00000000 250.00000000 231 213 33 97.000000 1.000000 4.000000 1.000000 -60.708740 114.000000 118.000000 0.528685 0.416690 0.739501
16990.00000000 -4750.00000000 310.00000000 231 213 33 97.000000 1.000000 4.000000 1.000000 -60.708740 114.000000 118.000000 0.740015 0.423572 0.522460
16890.00000000 -4600.00000000 280.00000000 231 213 33 97.000000 1.000000 4.000000 1.000000 -60.708740 114.000000 118.000000 0.414021 0.555876 0.720825
16840.00000000 -4670.00000000 160.00000000 231 213 33 97.000000 1.000000 4.000000 1.000000 -60.708740 114.000000 118.000000 0.535135 0.023267 0.844446
16940.00000000 -4680.00000000 30.00000000 231 213 33 97.000000 1.000000 4.000000 1.000000 -60.708740 114.000000 118.000000 0.732008 -0.613477 -0.296327
16880.00000000 -4730.00000000 120.00000000 231 213 33 97.000000 1.000000 4.000000 1.000000 -60.708740 114.000000 118.000000 0.764878 -0.635686 0.104235
16880.00000000 -4710.00000000 140.00000000 231 213 33 97.000000 1.000000 4.000000 1.000000 -60.708740 114.000000 118.000000 0.917193 0.011676 0.398272
16880.00000000 -4720.00000000 140.00000000 231 213 33 97.000000 1.000000 4.000000 1.000000 -60.708740 114.000000 118.000000 0.707649 -0.050036 0.704790
16850.00000000 -4690.00000000 10.00000000 231 213 33 97.000000 1.000000 4.000000 1.000000 -60.708740 114.000000 118.000000 0.600396 -0.711641 -0.364818
16870.00000000 -4690.00000000 20.00000000 231 213 33 97.000000 1.000000 4.000000 1.000000 -60.708740 114.000000 118.000000 -0.555420 0.799866 0.227428
16950.00000000 -4880.00000000 360.00000000 231 213 33 97.000000 1.000000 4.000000 1.000000 -60.708740 114.000000 118.000000 0.722189 -0.018159 0.691458
16940.00000000 -4900.00000000 390.00000000 231 213 33 97.000000 1.000000 4.000000 1.000000 -60.708740 114.000000 118.000000 0.737168 0.261576 0.623026
16890.00000000 -4760.00000000 340.00000000 231 213 33 97.000000 1.000000 4.000000 1.000000 -60.708740 114.000000 118.000000 0.451802 0.133389 0.882090
16890.00000000 -4760.00000000 340.00000000 231 213 33 97.000000 1.000000 4.000000 1.000000 -60.708740 114.000000 118.000000 0.451802 0.133389 0.882090
16890.00000000 -4760.00000000 340.00000000 231 213 33 97.000000 1.000000 4.000000 1.000000 -60.708740 114.000000 118.000000 0.451802 0.133389 0.882090
16860.00000000 -4780.00000000 360.00000000 231 213 33 97.000000 1.000000 4.000000 1.000000 -60.708740 114.000000 118.000000 0.526274 0.037295 0.849497
16860.00000000 -4780.00000000 360.00000000 231 213 33 97.000000 1.000000 4.000000 1.000000 -60.708740 114.000000 118.000000 0.526274 0.037295 0.849497
16860.00000000 -4760.00000000 390.00000000 231 213 33 97.000000 1.000000 4.000000 1.000000 -60.708740 114.000000 118.000000 0.403487 0.209813 0.890605
16840.00000000 -4760.00000000 370.00000000 231 213 33 97.000000 1.000000 4.000000 1.000000 -60.708740 114.000000 118.000000 0.748687 0.380052 0.543165
16860.00000000 -4820.00000000 350.00000000 231 213 33 97.000000 1.000000 4.000000 1.000000 -60.708740 114.000000 118.000000 0.954307 0.144672 0.261472
16850.00000000 -4840.00000000 390.00000000 231 213 33 97.000000 1.000000 4.000000 1.000000 -60.708740 114.000000 118.000000 0.548060 0.078294 0.832767
16860.00000000 -4840.00000000 390.00000000 231 213 33 97.000000 1.000000 4.000000 1.000000 -60.708740 114.000000 118.000000 0.759675 -0.285077 0.584488
16860.00000000 -4860.00000000 330.00000000 231 213 33 97.000000 1.000000 4.000000 1.000000 -60.708740 114.000000 118.000000 0.822819 0.012322 0.568170
16860.00000000 -4880.00000000 380.00000000 231 213 33 97.000000 1.000000 4.000000 1.000000 -60.708740 114.000000 118.000000 0.818013 0.397047 0.416182
16860.00000000 -4880.00000000 380.00000000 231 213 33 97.000000 1.000000 4.000000 1.000000 -60.708740 114.000000 118.000000 0.818013 0.397047 0.416182
16860.00000000 -5030.00000000 340.00000000 231 213 33 97.000000 1.000000 4.000000 1.000000 -60.708740 114.000000 118.000000 0.995056 0.014045 0.098317
17110.00000000 -4770.00000000 60.00000000 231 213 33 97.000000 1.000000 4.000000 1.000000 -60.708740 114.000000 118.000000 0.953642 -0.294901 0.060002
17110.00000000 -4800.00000000 0.00000000 231 213 33 97.000000 1.000000 4.000000 1.000000 -60.708740 114.000000 118.000000 0.859383 -0.309009 -0.407400
17070.00000000 -4760.00000000 20.00000000 231 213 33 97.000000 1.000000 4.000000 1.000000 -60.708740 114.000000 118.000000 0.946657 -0.268333 0.178435
17000.00000000 -4760.00000000 300.00000000 231 213 33 97.000000 1.000000 4.000000 1.000000 -60.708740 114.000000 118.000000 0.682275 0.227425 0.694823
16900.00000000 -4760.00000000 90.00000000 231 213 33 97.000000 1.000000 4.000000 1.000000 -60.708740 114.000000 118.000000 0.974397 -0.214490 -0.067411
16880.00000000 -4800.00000000 20.00000000 231 213 33 97.000000 1.000000 4.000000 1.000000 -60.708740 114.000000 118.000000 -0.593540 0.536046 0.600304
16920.00000000 -4810.00000000 -10.00000000 231 213 33 97.000000 1.000000 4.000000 1.000000 -60.708740 114.000000 118.000000 0.602942 -0.569163 -0.559030
16870.00000000 -4800.00000000 10.00000000 231 213 33 97.000000 1.000000 4.000000 1.000000 -60.708740 114.000000 118.000000 -0.531480 0.598970 0.598970
16870.00000000 -4800.00000000 10.00000000 231 213 33 97.000000 1.000000 4.000000 1.000000 -60.708740 114.000000 118.000000 -0.531480 0.598970 0.598970
16880.00000000 -5080.00000000 280.00000000 231 213 33 97.000000 1.000000 4.000000 1.000000 -60.708740 114.000000 118.000000 0.971186 -0.225076 0.078342
16800.00000000 -4550.00000000 340.00000000 231 213 33 97.000000 1.000000 4.000000 1.000000 -60.708740 114.000000 118.000000 -0.161850 0.459305 0.873409
16830.00000000 -4580.00000000 330.00000000 231 213 33 97.000000 1.000000 4.000000 1.000000 -60.708740 114.000000 118.000000 0.109711 0.474463 0.873412
16790.00000000 -4570.00000000 360.00000000 231 213 33 97.000000 1.000000 4.000000 1.000000 -60.708740 114.000000 118.000000 -0.135788 0.297119 0.945136
16690.00000000 -4530.00000000 350.00000000 231 213 33 97.000000 1.000000 4.000000 1.000000 -60.708740 114.000000 118.000000 0.070128 0.599667 0.797171
16800.00000000 -4610.00000000 360.00000000 231 213 33 97.000000 1.000000 4.000000 1.000000 -60.708740 114.000000 118.000000 0.324265 0.274378 0.905301
16820.00000000 -4630.00000000 350.00000000 231 213 33 97.000000 1.000000 4.000000 1.000000 -60.708740 114.000000 118.000000 0.018064 0.615571 0.787875
16760.00000000 -4650.00000000 320.00000000 231 213 33 97.000000 1.000000 4.000000 1.000000 -60.708740 114.000000 118.000000 0.234889 0.274272 0.932525
16820.00000000 -4700.00000000 370.00000000 231 213 33 97.000000 1.000000 4.000000 1.000000 -60.708740 114.000000 118.000000 0.444275 0.367840 0.816893
16820.00000000 -4720.00000000 380.00000000 231 213 33 97.000000 1.000000 4.000000 1.000000 -60.708740 114.000000 118.000000 0.477337 0.574480 0.664923
16800.00000000 -4730.00000000 350.00000000 231 213 33 97.000000 1.000000 4.000000 1.000000 -60.708740 114.000000 118.000000 0.738523 0.366816 0.565712
16770.00000000 -4690.00000000 350.00000000 231 213 33 97.000000 1.000000 4.000000 1.000000 -60.708740 114.000000 118.000000 0.273026 0.396717 0.876398
16760.00000000 -4710.00000000 330.00000000 231 213 33 97.000000 1.000000 4.000000 1.000000 -60.708740 114.000000 118.000000 -0.187551 0.456325 0.869823
16620.00000000 -4420.00000000 340.00000000 231 213 33 97.000000 1.000000 4.000000 1.000000 -60.708740 114.000000 118.000000 -0.342319 0.825037 0.449590
16610.00000000 -4580.00000000 370.00000000 231 213 33 97.000000 1.000000 4.000000 1.000000 -60.708740 114.000000 118.000000 -0.474764 0.429082 0.768432
16590.00000000 -4580.00000000 370.00000000 231 213 33 97.000000 1.000000 4.000000 1.000000 -60.708740 114.000000 118.000000 -0.387296 0.497489 0.776213
16560.00000000 -4420.00000000 450.00000000 231 213 33 97.000000 1.000000 4.000000 1.000000 -60.708740 114.000000 118.000000 -0.339517 0.903908 0.260149
16550.00000000 -4580.00000000 400.00000000 231 213 33 97.000000 1.000000 4.000000 1.000000 -60.708740 114.000000 118.000000 0.525709 -0.456057 -0.718082
16630.00000000 -4610.00000000 340.00000000 231 213 33 97.000000 1.000000 4.000000 1.000000 -60.708740 114.000000 118.000000 0.347584 -0.465033 -0.814205
16640.00000000 -4650.00000000 370.00000000 231 213 33 97.000000 1.000000 4.000000 1.000000 -60.708740 114.000000 118.000000 -0.106512 0.585086 0.803946
16640.00000000 -4740.00000000 320.00000000 231 213 33 97.000000 1.000000 4.000000 1.000000 -60.708740 114.000000 118.000000 -0.445234 0.874196 0.193773
16570.00000000 -4600.00000000 370.00000000 231 213 33 97.000000 1.000000 4.000000 1.000000 -60.708740 114.000000 118.000000 0.651591 -0.359442 -0.668004
16760.00000000 -4580.00000000 310.00000000 231 213 33 97.000000 1.000000 4.000000 1.000000 -60.708740 114.000000 118.000000 0.142736 0.758752 0.635549
16770.00000000 -4560.00000000 80.00000000 231 213 33 97.000000 1.000000 4.000000 1.000000 -60.708740 114.000000 118.000000 -0.422414 0.858653 0.290314
16780.00000000 -4580.00000000 20.00000000 231 213 33 97.000000 1.000000 4.000000 1.000000 -60.708740 114.000000 118.000000 0.971123 -0.208912 -0.115218
16740.00000000 -4470.00000000 -10.00000000 231 213 33 97.000000 1.000000 4.000000 1.000000 -60.708740 114.000000 118.000000 -0.596580 0.799732 0.067240
16680.00000000 -4570.00000000 100.00000000 231 213 33 97.000000 1.000000 4.000000 1.000000 -60.708740 114.000000 118.000000 -0.620292 0.768196 0.158469
16720.00000000 -4520.00000000 40.00000000 231 213 33 97.000000 1.000000 4.000000 1.000000 -60.708740 114.000000 118.000000 -0.615552 0.786144 0.055442
16720.00000000 -4510.00000000 30.00000000 231 213 33 97.000000 1.000000 4.000000 1.000000 -60.708740 114.000000 118.000000 0.677093 -0.711024 -0.189709
16720.00000000 -4510.00000000 30.00000000 231 213 33 97.000000 1.000000 4.000000 1.000000 -60.708740 114.000000 118.000000 0.677093 -0.711024 -0.189709
16720.00000000 -4510.00000000 20.00000000 231 213 33 97.000000 1.000000 4.000000 1.000000 -60.708740 114.000000 118.000000 0.842494 -0.490316 -0.223147
16730.00000000 -4580.00000000 10.00000000 231 213 33 97.000000 1.000000 4.000000 1.000000 -60.708740 114.000000 118.000000 0.920814 -0.102617 0.376261
16670.00000000 -4570.00000000 40.00000000 231 213 33 97.000000 1.000000 4.000000 1.000000 -60.708740 114.000000 118.000000 0.966594 -0.251240 0.050743
16770.00000000 -4690.00000000 290.00000000 231 213 33 97.000000 1.000000 4.000000 1.000000 -60.708740 114.000000 118.000000 0.266127 0.205456 0.941788
16820.00000000 -4650.00000000 90.00000000 231 213 33 97.000000 1.000000 4.000000 1.000000 -60.708740 114.000000 118.000000 0.463758 0.530246 0.709766
16780.00000000 -4620.00000000 0.00000000 231 213 33 97.000000 1.000000 4.000000 1.000000 -60.708740 114.000000 118.000000 0.678758 -0.189313 0.709541
16780.00000000 -4600.00000000 10.00000000 231 213 33 97.000000 1.000000 4.000000 1.000000 -60.708740 114.000000 118.000000 0.922269 -0.301704 0.241649
16760.00000000 -4740.00000000 70.00000000 231 213 33 97.000000 1.000000 4.000000 1.000000 -60.708740 114.000000 118.000000 0.359971 0.259238 0.896224
16790.00000000 -4730.00000000 60.00000000 231 213 33 97.000000 1.000000 4.000000 1.000000 -60.708740 114.000000 118.000000 0.303355 0.786183 0.538416
16780.00000000 -4730.00000000 50.00000000 231 213 33 97.000000 1.000000 4.000000 1.000000 -60.708740 114.000000 118.000000 0.209260 0.754885 0.621578
16810.00000000 -4670.00000000 20.00000000 231 213 33 97.000000 1.000000 4.000000 1.000000 -60.708740 114.000000 118.000000 0.143238 0.404186 0.903392
16810.00000000 -4700.00000000 30.00000000 231 213 33 97.000000 1.000000 4.000000 1.000000 -60.708740 114.000000 118.000000 -0.347079 0.725118 0.594760
16710.00000000 -4620.00000000 120.00000000 231 213 33 97.000000 1.000000 4.000000 1.000000 -60.708740 114.000000 118.000000 -0.686977 0.486400 0.539887
16670.00000000 -4640.00000000 100.00000000 231 213 33 97.000000 1.000000 4.000000 1.000000 -60.708740 114.000000 118.000000 0.917046 -0.318159 0.240419
16670.00000000 -4630.00000000 100.00000000 231 213 33 97.000000 1.000000 4.000000 1.000000 -60.708740 114.000000 118.000000 0.905696 -0.359080 0.225334
16680.00000000 -4630.00000000 90.00000000 231 213 33 97.000000 1.000000 4.000000 1.000000 -60.708740 114.000000 118.000000 0.773488 -0.521579 0.360100
16700.00000000 -4640.00000000 40.00000000 231 213 33 97.000000 1.000000 4.000000 1.000000 -60.708740 114.000000 118.000000 0.957829 -0.256209 0.130076
16750.00000000 -4670.00000000 110.00000000 231 213 33 97.000000 1.000000 4.000000 1.000000 -60.708740 114.000000 118.000000 0.939530 -0.342446 0.003763
16730.00000000 -4680.00000000 130.00000000 231 213 33 97.000000 1.000000 4.000000 1.000000 -60.708740 114.000000 118.000000 0.948959 -0.305906 -0.076802
16720.00000000 -4720.00000000 120.00000000 231 213 33 97.000000 1.000000 4.000000 1.000000 -60.708740 114.000000 118.000000 0.879754 -0.473294 0.045011
16740.00000000 -4750.00000000 60.00000000 231 213 33 97.000000 1.000000 4.000000 1.000000 -60.708740 114.000000 118.000000 0.121722 0.407139 0.905219
16730.00000000 -4730.00000000 60.00000000 231 213 33 97.000000 1.000000 4.000000 1.000000 -60.708740 114.000000 118.000000 0.341409 0.050627 0.938550
16590.00000000 -4600.00000000 210.00000000 231 213 33 97.000000 1.000000 4.000000 1.000000 -60.708740 114.000000 118.000000 0.525288 -0.623251 -0.579337
16630.00000000 -4710.00000000 310.00000000 231 213 33 97.000000 1.000000 4.000000 1.000000 -60.708740 114.000000 118.000000 -0.155233 0.767121 0.622438
16630.00000000 -4710.00000000 310.00000000 231 213 33 97.000000 1.000000 4.000000 1.000000 -60.708740 114.000000 118.000000 -0.155233 0.767121 0.622438
16630.00000000 -4710.00000000 310.00000000 231 213 33 97.000000 1.000000 4.000000 1.000000 -60.708740 114.000000 118.000000 -0.155233 0.767121 0.622438
16640.00000000 -4740.00000000 270.00000000 231 213 33 97.000000 1.000000 4.000000 1.000000 -60.708740 114.000000 118.000000 0.518062 -0.425962 -0.741733
16620.00000000 -4740.00000000 300.00000000 231 213 33 97.000000 1.000000 4.000000 1.000000 -60.708740 114.000000 118.000000 -0.417303 0.863649 0.282788
16620.00000000 -4750.00000000 240.00000000 231 213 33 97.000000 1.000000 4.000000 1.000000 -60.708740 114.000000 118.000000 0.827805 -0.335852 -0.449380
16610.00000000 -4710.00000000 270.00000000 231 213 33 97.000000 1.000000 4.000000 1.000000 -60.708740 114.000000 118.000000 0.656452 -0.475130 -0.585938
16600.00000000 -4670.00000000 170.00000000 231 213 33 97.000000 1.000000 4.000000 1.000000 -60.708740 114.000000 118.000000 -0.589608 0.807053 -0.032059
16640.00000000 -4680.00000000 150.00000000 231 213 33 97.000000 1.000000 4.000000 1.000000 -60.708740 114.000000 118.000000 -0.597428 0.797053 0.088240
16640.00000000 -4680.00000000 150.00000000 231 213 33 97.000000 1.000000 4.000000 1.000000 -60.708740 114.000000 118.000000 -0.597428 0.797053 0.088240
16540.00000000 -4610.00000000 260.00000000 231 213 33 97.000000 1.000000 4.000000 1.000000 -60.708740 114.000000 118.000000 -0.646935 0.753524 0.116952
16550.00000000 -4590.00000000 230.00000000 231 213 33 97.000000 1.000000 4.000000 1.000000 -60.708740 114.000000 118.000000 -0.635555 0.771844 0.018079
16570.00000000 -4660.00000000 230.00000000 231 213 33 97.000000 1.000000 4.000000 1.000000 -60.708740 114.000000 118.000000 -0.523040 0.851493 0.037261
16570.00000000 -4660.00000000 210.00000000 231 213 33 97.000000 1.000000 4.000000 1.000000 -60.708740 114.000000 118.000000 0.585365 -0.612356 -0.531383
16530.00000000 -4600.00000000 200.00000000 231 213 33 97.000000 1.000000 4.000000 1.000000 -60.708740 114.000000 118.000000 0.858334 -0.464493 0.217966
16510.00000000 -4600.00000000 170.00000000 231 213 33 97.000000 1.000000 4.000000 1.000000 -60.708740 114.000000 118.000000 -0.691706 0.685432 0.227432
16580.00000000 -4700.00000000 290.00000000 231 213 33 97.000000 1.000000 4.000000 1.000000 -60.708740 114.000000 118.000000 -0.675708 0.737010 0.015325
16560.00000000 -4670.00000000 240.00000000 231 213 33 97.000000 1.000000 4.000000 1.000000 -60.708740 114.000000 118.000000 0.735627 -0.586228 -0.339395
16550.00000000 -4710.00000000 240.00000000 231 213 33 97.000000 1.000000 4.000000 1.000000 -60.708740 114.000000 118.000000 -0.656658 0.747738 0.098425
16570.00000000 -4690.00000000 180.00000000 231 213 33 97.000000 1.000000 4.000000 1.000000 -60.708740 114.000000 118.000000 -0.575718 0.804815 0.144301
16550.00000000 -4680.00000000 150.00000000 231 213 33 97.000000 1.000000 4.000000 1.000000 -60.708740 114.000000 118.000000 0.843001 -0.483239 -0.236284
16510.00000000 -4680.00000000 200.00000000 231 213 33 97.000000 1.000000 4.000000 1.000000 -60.708740 114.000000 118.000000 -0.695951 0.718088 -0.001384
16540.00000000 -4690.00000000 160.00000000 231 213 33 97.000000 1.000000 4.000000 1.000000 -60.708740 114.000000 118.000000 0.990034 -0.068000 0.123322
16530.00000000 -4670.00000000 190.00000000 231 213 33 97.000000 1.000000 4.000000 1.000000 -60.708740 114.000000 118.000000 0.731484 -0.651067 0.202589
16530.00000000 -4730.00000000 210.00000000 231 213 33 97.000000 1.000000 4.000000 1.000000 -60.708740 114.000000 118.000000 0.828983 -0.522850 0.198532
16530.00000000 -4710.00000000 190.00000000 231 213 33 97.000000 1.000000 4.000000 1.000000 -60.708740 114.000000 118.000000 0.904504 -0.379401 0.194750
16650.00000000 -4590.00000000 70.00000000 231 213 33 97.000000 1.000000 4.000000 1.000000 -60.708740 114.000000 118.000000 0.849614 -0.521643 -0.077752
16630.00000000 -4690.00000000 90.00000000 231 213 33 97.000000 1.000000 4.000000 1.000000 -60.708740 114.000000 118.000000 0.812488 -0.579129 0.066877
16610.00000000 -4680.00000000 130.00000000 231 213 33 97.000000 1.000000 4.000000 1.000000 -60.708740 114.000000 118.000000 0.880571 -0.458125 0.121310
16610.00000000 -4720.00000000 130.00000000 231 213 33 97.000000 1.000000 4.000000 1.000000 -60.708740 114.000000 118.000000 0.933924 -0.323228 0.152674
16630.00000000 -4680.00000000 10.00000000 231 213 33 97.000000 1.000000 4.000000 1.000000 -60.708740 114.000000 118.000000 0.927083 0.130866 0.351272
16660.00000000 -4710.00000000 30.00000000 231 213 33 97.000000 1.000000 4.000000 1.000000 -60.708740 114.000000 118.000000 0.816199 0.256520 0.517703
16620.00000000 -4690.00000000 30.00000000 231 213 33 97.000000 1.000000 4.000000 1.000000 -60.708740 114.000000 118.000000 0.885614 0.133057 0.444953
16610.00000000 -4700.00000000 50.00000000 231 213 33 97.000000 1.000000 4.000000 1.000000 -60.708740 114.000000 118.000000 0.970485 -0.167944 0.173072
16800.00000000 -4790.00000000 350.00000000 231 213 33 97.000000 1.000000 4.000000 1.000000 -60.708740 114.000000 118.000000 0.281782 0.448079 0.848425
16790.00000000 -4770.00000000 390.00000000 231 213 33 97.000000 1.000000 4.000000 1.000000 -60.708740 114.000000 118.000000 0.677562 0.557106 0.480149
16780.00000000 -4770.00000000 350.00000000 231 213 33 97.000000 1.000000 4.000000 1.000000 -60.708740 114.000000 118.000000 0.652638 0.416825 0.632710
16780.00000000 -4760.00000000 340.00000000 231 213 33 97.000000 1.000000 4.000000 1.000000 -60.708740 114.000000 118.000000 0.237731 0.662813 0.710044
16830.00000000 -4910.00000000 360.00000000 231 213 33 97.000000 1.000000 4.000000 1.000000 -60.708740 114.000000 118.000000 0.869593 -0.268618 0.414309
16830.00000000 -4890.00000000 360.00000000 231 213 33 97.000000 1.000000 4.000000 1.000000 -60.708740 114.000000 118.000000 -0.759866 0.413432 -0.501675
16760.00000000 -4900.00000000 320.00000000 231 213 33 97.000000 1.000000 4.000000 1.000000 -60.708740 114.000000 118.000000 0.841323 -0.078032 0.534871
16800.00000000 -5010.00000000 340.00000000 231 213 33 97.000000 1.000000 4.000000 1.000000 -60.708740 114.000000 118.000000 0.735674 -0.677265 0.009735
16810.00000000 -5040.00000000 320.00000000 231 213 33 97.000000 1.000000 4.000000 1.000000 -60.708740 114.000000 118.000000 0.894093 -0.369203 -0.253549
16630.00000000 -4760.00000000 350.00000000 231 213 33 97.000000 1.000000 4.000000 1.000000 -60.708740 114.000000 118.000000 0.615452 -0.688052 -0.384451
16630.00000000 -4760.00000000 330.00000000 231 213 33 97.000000 1.000000 4.000000 1.000000 -60.708740 114.000000 118.000000 -0.480147 0.794893 0.370950
16690.00000000 -4800.00000000 310.00000000 231 213 33 97.000000 1.000000 4.000000 1.000000 -60.708740 114.000000 118.000000 -0.152761 0.691204 0.706329
16810.00000000 -4770.00000000 80.00000000 231 213 33 97.000000 1.000000 4.000000 1.000000 -60.708740 114.000000 118.000000 -0.630531 0.717169 0.296815
16780.00000000 -4770.00000000 -10.00000000 231 213 33 97.000000 1.000000 4.000000 1.000000 -60.708740 114.000000 118.000000 0.159421 0.543818 0.823922
16720.00000000 -4790.00000000 40.00000000 231 213 33 97.000000 1.000000 4.000000 1.000000 -60.708740 114.000000 118.000000 0.004051 0.527930 0.849278
16720.00000000 -4770.00000000 30.00000000 231 213 33 97.000000 1.000000 4.000000 1.000000 -60.708740 114.000000 118.000000 0.421020 0.670636 0.610728
16810.00000000 -5080.00000000 260.00000000 231 213 33 97.000000 1.000000 4.000000 1.000000 -60.708740 114.000000 118.000000 0.926513 -0.353810 -0.128032
16770.00000000 -5060.00000000 310.00000000 231 213 33 97.000000 1.000000 4.000000 1.000000 -60.708740 114.000000 118.000000 -0.527437 0.780734 0.335059
16560.00000000 -4760.00000000 170.00000000 231 213 33 97.000000 1.000000 4.000000 1.000000 -60.708740 114.000000 118.000000 0.796084 -0.387589 0.464785
16530.00000000 -4790.00000000 170.00000000 231 213 33 97.000000 1.000000 4.000000 1.000000 -60.708740 114.000000 118.000000 0.997174 -0.074762 -0.007371
16510.00000000 -4800.00000000 200.00000000 231 213 33 97.000000 1.000000 4.000000 1.000000 -60.708740 114.000000 118.000000 0.758853 -0.548510 0.351111
16510.00000000 -4800.00000000 200.00000000 231 213 33 97.000000 1.000000 4.000000 1.000000 -60.708740 114.000000 118.000000 0.758853 -0.548510 0.351111
16860.00000000 -5110.00000000 270.00000000 231 213 33 97.000000 1.000000 4.000000 1.000000 -60.708740 114.000000 118.000000 0.714545 -0.494685 -0.494685
16880.00000000 -5090.00000000 250.00000000 231 213 33 97.000000 1.000000 4.000000 1.000000 -60.708740 114.000000 118.000000 -0.568025 0.812940 -0.128359
16870.00000000 -5090.00000000 290.00000000 231 213 33 97.000000 1.000000 4.000000 1.000000 -60.708740 114.000000 118.000000 0.910559 -0.412453 0.027673
16870.00000000 -5100.00000000 280.00000000 231 213 33 97.000000 1.000000 4.000000 1.000000 -60.708740 114.000000 118.000000 0.894481 -0.442446 -0.064381
16870.00000000 -5090.00000000 270.00000000 231 213 33 97.000000 1.000000 4.000000 1.000000 -60.708740 114.000000 118.000000 -0.497213 0.845712 0.193778
16870.00000000 -5090.00000000 270.00000000 231 213 33 97.000000 1.000000 4.000000 1.000000 -60.708740 114.000000 118.000000 -0.497213 0.845712 0.193778
16840.00000000 -5090.00000000 240.00000000 231 213 33 97.000000 1.000000 4.000000 1.000000 -60.708740 114.000000 118.000000 -0.610428 0.771788 0.178105
16790.00000000 -5090.00000000 340.00000000 231 213 33 97.000000 1.000000 4.000000 1.000000 -60.708740 114.000000 118.000000 -0.648267 0.671244 0.359419
16820.00000000 -5120.00000000 280.00000000 231 213 33 97.000000 1.000000 4.000000 1.000000 -60.708740 114.000000 118.000000 0.794106 -0.573776 -0.200439
16820.00000000 -5160.00000000 190.00000000 231 213 33 97.000000 1.000000 4.000000 1.000000 -60.708740 114.000000 118.000000 -0.301875 0.849895 0.431914
16820.00000000 -5190.00000000 230.00000000 231 213 33 97.000000 1.000000 4.000000 1.000000 -60.708740 114.000000 118.000000 -0.466514 0.670510 0.576872
16490.00000000 -4640.00000000 270.00000000 231 213 33 97.000000 1.000000 4.000000 1.000000 -60.708740 114.000000 118.000000 0.809084 -0.392526 -0.437386
16500.00000000 -4660.00000000 230.00000000 231 213 33 97.000000 1.000000 4.000000 1.000000 -60.708740 114.000000 118.000000 0.874214 -0.433384 0.218926
16490.00000000 -4650.00000000 160.00000000 231 213 33 97.000000 1.000000 4.000000 1.000000 -60.708740 114.000000 118.000000 0.756813 -0.573636 0.313330
16500.00000000 -4660.00000000 190.00000000 231 213 33 97.000000 1.000000 4.000000 1.000000 -60.708740 114.000000 118.000000 0.941993 -0.217170 0.255901
16480.00000000 -4650.00000000 170.00000000 231 213 33 97.000000 1.000000 4.000000 1.000000 -60.708740 114.000000 118.000000 -0.639085 0.735964 -0.223445
16480.00000000 -4680.00000000 250.00000000 231 213 33 97.000000 1.000000 4.000000 1.000000 -60.708740 114.000000 118.000000 0.928359 -0.293390 -0.228192
16480.00000000 -4700.00000000 260.00000000 231 213 33 97.000000 1.000000 4.000000 1.000000 -60.708740 114.000000 118.000000 -0.571957 0.783909 0.241562
16490.00000000 -4740.00000000 240.00000000 231 213 33 97.000000 1.000000 4.000000 1.000000 -60.708740 114.000000 118.000000 0.884543 -0.465761 0.025503
16460.00000000 -4710.00000000 250.00000000 231 213 33 97.000000 1.000000 4.000000 1.000000 -60.708740 114.000000 118.000000 0.816280 -0.377112 -0.437577
16460.00000000 -4710.00000000 240.00000000 231 213 33 97.000000 1.000000 4.000000 1.000000 -60.708740 114.000000 118.000000 0.837021 -0.425578 0.343917
16480.00000000 -4700.00000000 210.00000000 231 213 33 97.000000 1.000000 4.000000 1.000000 -60.708740 114.000000 118.000000 0.935500 -0.285808 0.207734
16490.00000000 -4670.00000000 200.00000000 231 213 33 97.000000 1.000000 4.000000 1.000000 -60.708740 114.000000 118.000000 0.723980 -0.576229 -0.379228
16470.00000000 -4690.00000000 150.00000000 231 213 33 97.000000 1.000000 4.000000 1.000000 -60.708740 114.000000 118.000000 0.907628 -0.325928 0.264542
16460.00000000 -4690.00000000 170.00000000 231 213 33 97.000000 1.000000 4.000000 1.000000 -60.708740 114.000000 118.000000 0.768411 -0.578289 -0.274093
16460.00000000 -4750.00000000 220.00000000 231 213 33 97.000000 1.000000 4.000000 1.000000 -60.708740 114.000000 118.000000 0.995380 -0.094231 -0.018413
16460.00000000 -4720.00000000 190.00000000 231 213 33 97.000000 1.000000 4.000000 1.000000 -60.708740 114.000000 118.000000 0.646306 -0.710139 0.279268
16470.00000000 -4710.00000000 150.00000000 231 213 33 97.000000 1.000000 4.000000 1.000000 -60.708740 114.000000 118.000000 0.920993 -0.354659 0.161209
16460.00000000 -4720.00000000 160.00000000 231 213 33 97.000000 1.000000 4.000000 1.000000 -60.708740 114.000000 118.000000 0.870178 -0.492426 0.017538
16450.00000000 -4730.00000000 160.00000000 231 213 33 97.000000 1.000000 4.000000 1.000000 -60.708740 114.000000 118.000000 0.956477 -0.245420 0.157865
16370.00000000 -4740.00000000 240.00000000 231 213 33 97.000000 1.000000 4.000000 1.000000 -60.708740 114.000000 118.000000 0.844495 -0.489716 -0.216809
16390.00000000 -4750.00000000 150.00000000 231 213 33 97.000000 1.000000 4.000000 1.000000 -60.708740 114.000000 118.000000 0.955949 0.016077 0.293092
16390.00000000 -4750.00000000 150.00000000 231 213 33 97.000000 1.000000 4.000000 1.000000 -60.708740 114.000000 118.000000 0.955949 0.016077 0.293092
16410.00000000 -4710.00000000 210.00000000 231 213 33 97.000000 1.000000 4.000000 1.000000 -60.708740 114.000000 118.000000 0.878982 -0.347646 -0.326392
16500.00000000 -4700.00000000 130.00000000 231 213 33 97.000000 1.000000 4.000000 1.000000 -60.708740 114.000000 118.000000 0.800211 -0.525583 0.288834
16470.00000000 -4700.00000000 140.00000000 231 213 33 97.000000 1.000000 4.000000 1.000000 -60.708740 114.000000 118.000000 0.971450 -0.235320 -0.030169
16450.00000000 -4740.00000000 100.00000000 231 213 33 97.000000 1.000000 4.000000 1.000000 -60.708740 114.000000 118.000000 0.816855 -0.566411 0.109205
16400.00000000 -4690.00000000 130.00000000 231 213 33 97.000000 1.000000 4.000000 1.000000 -60.708740 114.000000 118.000000 0.720172 -0.534748 0.442037
16380.00000000 -4710.00000000 140.00000000 231 213 33 97.000000 1.000000 4.000000 1.000000 -60.708740 114.000000 118.000000 0.868810 -0.495129 -0.004004
16500.00000000 -4760.00000000 190.00000000 231 213 33 97.000000 1.000000 4.000000 1.000000 -60.708740 114.000000 118.000000 0.940587 -0.282314 -0.188668
16440.00000000 -4780.00000000 230.00000000 231 213 33 97.000000 1.000000 4.000000 1.000000 -60.708740 114.000000 118.000000 0.732574 -0.491139 0.471295
16450.00000000 -4760.00000000 230.00000000 231 213 33 97.000000 1.000000 4.000000 1.000000 -60.708740 114.000000 118.000000 0.940597 -0.327683 -0.088886
16440.00000000 -4800.00000000 230.00000000 231 213 33 97.000000 1.000000 4.000000 1.000000 -60.708740 114.000000 118.000000 -0.713228 0.698934 -0.052885
16390.00000000 -4780.00000000 190.00000000 231 213 33 97.000000 1.000000 4.000000 1.000000 -60.708740 114.000000 118.000000 0.998131 -0.013587 0.059574
16350.00000000 -4820.00000000 200.00000000 231 213 33 97.000000 1.000000 4.000000 1.000000 -60.708740 114.000000 118.000000 0.952311 0.041735 0.302261
16370.00000000 -4830.00000000 170.00000000 231 213 33 97.000000 1.000000 4.000000 1.000000 -60.708740 114.000000 118.000000 0.930443 -0.171068 0.324056
16340.00000000 -4830.00000000 150.00000000 231 213 33 97.000000 1.000000 4.000000 1.000000 -60.708740 114.000000 118.000000 0.687027 -0.315224 0.654696
16430.00000000 -4830.00000000 60.00000000 231 213 33 97.000000 1.000000 4.000000 1.000000 -60.708740 114.000000 118.000000 0.884609 0.267927 0.381684
16350.00000000 -4780.00000000 140.00000000 231 213 33 97.000000 1.000000 4.000000 1.000000 -60.708740 114.000000 118.000000 0.723807 -0.169142 0.668950
16320.00000000 -4800.00000000 220.00000000 231 213 33 97.000000 1.000000 4.000000 1.000000 -60.708740 114.000000 118.000000 0.709915 -0.467180 0.527033
16330.00000000 -4800.00000000 190.00000000 231 213 33 97.000000 1.000000 4.000000 1.000000 -60.708740 114.000000 118.000000 0.772377 -0.632980 0.052630
16270.00000000 -4830.00000000 200.00000000 231 213 33 97.000000 1.000000 4.000000 1.000000 -60.708740 114.000000 118.000000 0.819271 -0.549675 0.163255
16280.00000000 -4810.00000000 200.00000000 231 213 33 97.000000 1.000000 4.000000 1.000000 -60.708740 114.000000 118.000000 0.749875 -0.424984 0.507027
16320.00000000 -4850.00000000 220.00000000 231 213 33 97.000000 1.000000 4.000000 1.000000 -60.708740 114.000000 118.000000 0.986701 -0.081536 0.140620
16330.00000000 -4860.00000000 210.00000000 231 213 33 97.000000 1.000000 4.000000 1.000000 -60.708740 114.000000 118.000000 0.741719 -0.268417 0.614658
16180.00000000 -4810.00000000 210.00000000 231 213 33 97.000000 1.000000 4.000000 1.000000 -60.708740 114.000000 118.000000 0.944112 -0.308472 0.116178
16160.00000000 -4900.00000000 230.00000000 231 213 33 97.000000 1.000000 4.000000 1.000000 -60.708740 114.000000 118.000000 0.859487 0.125673 0.495469
16120.00000000 -4850.00000000 210.00000000 231 213 33 97.000000 1.000000 4.000000 1.000000 -60.708740 114.000000 118.000000 0.818708 -0.457653 0.346803
16160.00000000 -4930.00000000 220.00000000 231 213 33 97.000000 1.000000 4.000000 1.000000 -60.708740 114.000000 118.000000 0.995380 -0.094231 -0.018413
16160.00000000 -4990.00000000 170.00000000 231 213 33 97.000000 1.000000 4.000000 1.000000 -60.708740 114.000000 118.000000 0.615595 -0.070313 0.784920
16100.00000000 -4920.00000000 220.00000000 231 213 33 97.000000 1.000000 4.000000 1.000000 -60.708740 114.000000 118.000000 0.890208 -0.455114 0.020020
16100.00000000 -4930.00000000 230.00000000 231 213 33 97.000000 1.000000 4.000000 1.000000 -60.708740 114.000000 118.000000 -0.816287 0.484720 -0.314200
16100.00000000 -4970.00000000 230.00000000 231 213 33 97.000000 1.000000 4.000000 1.000000 -60.708740 114.000000 118.000000 0.807304 0.012378 0.590006
17910.00000000 -3300.00000000 -620.00000000 231 213 33 97.000000 1.000000 4.000000 1.000000 -60.708740 114.000000 118.000000 0.794612 0.343746 0.500430
17910.00000000 -3300.00000000 -620.00000000 231 213 33 97.000000 1.000000 4.000000 1.000000 -60.708740 114.000000 118.000000 0.794612 0.343746 0.500430
17320.00000000 -3050.00000000 -660.00000000 231 213 33 97.000000 1.000000 4.000000 1.000000 -60.708740 114.000000 118.000000 0.415967 -0.687755 -0.594949
17320.00000000 -3040.00000000 -690.00000000 231 213 33 97.000000 1.000000 4.000000 1.000000 -60.708740 114.000000 118.000000 -0.381081 0.678027 0.628536
17310.00000000 -3050.00000000 -670.00000000 231 213 33 97.000000 1.000000 4.000000 1.000000 -60.708740 114.000000 118.000000 -0.236188 0.929195 0.284274
17330.00000000 -3050.00000000 -660.00000000 231 213 33 97.000000 1.000000 4.000000 1.000000 -60.708740 114.000000 118.000000 0.304812 -0.708003 -0.637041
17320.00000000 -3050.00000000 -670.00000000 231 213 33 97.000000 1.000000 4.000000 1.000000 -60.708740 114.000000 118.000000 -0.225077 0.892953 0.389840
17540.00000000 -3060.00000000 -740.00000000 231 213 33 97.000000 1.000000 4.000000 1.000000 -60.708740 114.000000 118.000000 0.219146 0.623246 0.750693
17530.00000000 -3060.00000000 -740.00000000 231 213 33 97.000000 1.000000 4.000000 1.000000 -60.708740 114.000000 118.000000 0.094464 0.603114 0.792042
17540.00000000 -3020.00000000 -900.00000000 231 213 33 97.000000 1.000000 4.000000 1.000000 -60.708740 114.000000 118.000000 -0.482844 0.826616 0.289081
17480.00000000 -3060.00000000 -730.00000000 231 213 33 97.000000 1.000000 4.000000 1.000000 -60.708740 114.000000 118.000000 -0.162967 0.378367 0.911197
17450.00000000 -3060.00000000 -770.00000000 231 213 33 97.000000 1.000000 4.000000 1.000000 -60.708740 114.000000 118.000000 -0.351141 0.790467 0.501858
17450.00000000 -3060.00000000 -800.00000000 231 213 33 97.000000 1.000000 4.000000 1.000000 -60.708740 114.000000 118.000000 -0.400803 0.861497 0.311736
17340.00000000 -3030.00000000 -720.00000000 231 213 33 97.000000 1.000000 4.000000 1.000000 -60.708740 114.000000 118.000000 -0.089267 0.727309 0.680480
17320.00000000 -3030.00000000 -750.00000000 231 213 33 97.000000 1.000000 4.000000 1.000000 -60.708740 114.000000 118.000000 0.732213 -0.561855 -0.384944
17300.00000000 -3040.00000000 -700.00000000 231 213 33 97.000000 1.000000 4.000000 1.000000 -60.708740 114.000000 118.000000 -0.255173 0.711632 0.654574
17320.00000000 -3020.00000000 -780.00000000 231 213 33 97.000000 1.000000 4.000000 1.000000 -60.708740 114.000000 118.000000 -0.289705 0.904409 0.313234
17800.00000000 -3260.00000000 -660.00000000 231 213 33 97.000000 1.000000 4.000000 1.000000 -60.708740 114.000000 118.000000 0.654453 -0.052755 0.754260
17760.00000000 -3270.00000000 -630.00000000 231 213 33 97.000000 1.000000 4.000000 1.000000 -60.708740 114.000000 118.000000 0.562948 0.620426 0.546042
17570.00000000 -3200.00000000 -500.00000000 231 213 33 97.000000 1.000000 4.000000 1.000000 -60.708740 114.000000 118.000000 -0.237200 0.711600 0.661333
17620.00000000 -3150.00000000 -630.00000000 231 213 33 97.000000 1.000000 4.000000 1.000000 -60.708740 114.000000 118.000000 0.206215 0.714775 0.668260
17600.00000000 -3180.00000000 -530.00000000 231 213 33 97.000000 1.000000 4.000000 1.000000 -60.708740 114.000000 118.000000 -0.044125 0.730201 0.681806
17610.00000000 -3180.00000000 -570.00000000 231 213 33 97.000000 1.000000 4.000000 1.000000 -60.708740 114.000000 118.000000 -0.186817 0.395357 0.899329
17600.00000000 -3200.00000000 -530.00000000 231 213 33 97.000000 1.000000 4.000000 1.000000 -60.708740 114.000000 118.000000 -0.225682 0.471055 0.852746
17610.00000000 -3230.00000000 -680.00000000 231 213 33 97.000000 1.000000 4.000000 1.000000 -60.708740 114.000000 118.000000 -0.117341 0.741180 0.660972
17570.00000000 -3100.00000000 -660.00000000 231 213 33 97.000000 1.000000 4.000000 1.000000 -60.708740 114.000000 118.000000 0.208771 0.620126 0.756213
17570.00000000 -3140.00000000 -630.00000000 231 213 33 97.000000 1.000000 4.000000 1.000000 -60.708740 114.000000 118.000000 0.240399 0.642635 0.727481
17580.00000000 -3140.00000000 -630.00000000 231 213 33 97.000000 1.000000 4.000000 1.000000 -60.708740 114.000000 118.000000 0.104099 0.862735 0.494825
17540.00000000 -3110.00000000 -650.00000000 231 213 33 97.000000 1.000000 4.000000 1.000000 -60.708740 114.000000 118.000000 -0.038192 0.649267 0.759601
17520.00000000 -3130.00000000 -640.00000000 231 213 33 97.000000 1.000000 4.000000 1.000000 -60.708740 114.000000 118.000000 -0.435550 0.605765 0.665841
17520.00000000 -3110.00000000 -660.00000000 231 213 33 97.000000 1.000000 4.000000 1.000000 -60.708740 114.000000 118.000000 0.331862 0.581163 0.743046
17580.00000000 -3170.00000000 -570.00000000 231 213 33 97.000000 1.000000 4.000000 1.000000 -60.708740 114.000000 118.000000 0.363178 0.782850 0.505221
17580.00000000 -3210.00000000 -550.00000000 231 213 33 97.000000 1.000000 4.000000 1.000000 -60.708740 114.000000 118.000000 -0.162979 0.689995 0.705227
17560.00000000 -3210.00000000 -550.00000000 231 213 33 97.000000 1.000000 4.000000 1.000000 -60.708740 114.000000 118.000000 -0.152476 0.759362 0.632550
17580.00000000 -3210.00000000 -560.00000000 231 213 33 97.000000 1.000000 4.000000 1.000000 -60.708740 114.000000 118.000000 -0.127248 0.458952 0.879301
17540.00000000 -3200.00000000 -600.00000000 231 213 33 97.000000 1.000000 4.000000 1.000000 -60.708740 114.000000 118.000000 0.202480 0.644536 0.737275
17560.00000000 -3180.00000000 -620.00000000 231 213 33 97.000000 1.000000 4.000000 1.000000 -60.708740 114.000000 118.000000 0.041090 0.670198 0.741044
17550.00000000 -3180.00000000 -620.00000000 231 213 33 97.000000 1.000000 4.000000 1.000000 -60.708740 114.000000 118.000000 -0.058262 0.424095 0.903742
17540.00000000 -3180.00000000 -620.00000000 231 213 33 97.000000 1.000000 4.000000 1.000000 -60.708740 114.000000 118.000000 -0.239737 0.615795 0.750549
17660.00000000 -3360.00000000 -440.00000000 231 213 33 97.000000 1.000000 4.000000 1.000000 -60.708740 114.000000 118.000000 0.612691 0.545177 0.572182
17620.00000000 -3370.00000000 -410.00000000 231 213 33 97.000000 1.000000 4.000000 1.000000 -60.708740 114.000000 118.000000 0.631114 0.271840 0.726497
17530.00000000 -3310.00000000 -470.00000000 231 213 33 97.000000 1.000000 4.000000 1.000000 -60.708740 114.000000 118.000000 0.101507 0.722319 0.684070
17580.00000000 -3360.00000000 -410.00000000 231 213 33 97.000000 1.000000 4.000000 1.000000 -60.708740 114.000000 118.000000 0.304770 0.127547 0.943847
17590.00000000 -3390.00000000 -380.00000000 231 213 33 97.000000 1.000000 4.000000 1.000000 -60.708740 114.000000 118.000000 0.554918 0.548171 0.625759
17580.00000000 -3320.00000000 -450.00000000 231 213 33 97.000000 1.000000 4.000000 1.000000 -60.708740 114.000000 118.000000 -0.076876 0.715095 0.694788
17520.00000000 -3330.00000000 -450.00000000 231 213 33 97.000000 1.000000 4.000000 1.000000 -60.708740 114.000000 118.000000 -0.186385 0.691628 0.697790
17520.00000000 -3360.00000000 -520.00000000 231 213 33 97.000000 1.000000 4.000000 1.000000 -60.708740 114.000000 118.000000 0.088387 0.789683 0.607114
17520.00000000 -3360.00000000 -510.00000000 231 213 33 97.000000 1.000000 4.000000 1.000000 -60.708740 114.000000 118.000000 0.156815 0.860283 0.485100
17610.00000000 -3250.00000000 -580.00000000 231 213 33 97.000000 1.000000 4.000000 1.000000 -60.708740 114.000000 118.000000 0.280639 0.807425 0.518947
17590.00000000 -3270.00000000 -530.00000000 231 213 33 97.000000 1.000000 4.000000 1.000000 -60.708740 114.000000 118.000000 0.194814 0.780790 0.593646
17560.00000000 -3240.00000000 -610.00000000 231 213 33 97.000000 1.000000 4.000000 1.000000 -60.708740 114.000000 118.000000 0.070753 0.758067 0.648328
17560.00000000 -3260.00000000 -670.00000000 231 213 33 97.000000 1.000000 4.000000 1.000000 -60.708740 114.000000 118.000000 -0.195821 0.482826 0.853541
17550.00000000 -3240.00000000 -610.00000000 231 213 33 97.000000 1.000000 4.000000 1.000000 -60.708740 114.000000 118.000000 -0.170817 0.790594 0.588033
17540.00000000 -3270.00000000 -680.00000000 231 213 33 97.000000 1.000000 4.000000 1.000000 -60.708740 114.000000 118.000000 0.006857 0.585627 0.810552
17530.00000000 -3280.00000000 -680.00000000 231 213 33 97.000000 1.000000 4.000000 1.000000 -60.708740 114.000000 118.000000 -0.146242 0.743270 0.652811
17530.00000000 -3360.00000000 -530.00000000 231 213 33 97.000000 1.000000 4.000000 1.000000 -60.708740 114.000000 118.000000 -0.020993 0.723546 0.689957
17520.00000000 -3520.00000000 -290.00000000 231 213 33 97.000000 1.000000 4.000000 1.000000 -60.708740 114.000000 118.000000 0.538898 0.332991 0.773761
17530.00000000 -3590.00000000 -260.00000000 231 213 33 97.000000 1.000000 4.000000 1.000000 -60.708740 114.000000 118.000000 0.276966 0.339172 0.899028
17540.00000000 -3660.00000000 -340.00000000 231 213 33 97.000000 1.000000 4.000000 1.000000 -60.708740 114.000000 118.000000 0.399884 0.444851 0.801374
17520.00000000 -3540.00000000 -490.00000000 231 213 33 97.000000 1.000000 4.000000 1.000000 -60.708740 114.000000 118.000000 0.548727 0.636524 0.541974
17430.00000000 -3190.00000000 -520.00000000 231 213 33 97.000000 1.000000 4.000000 1.000000 -60.708740 114.000000 118.000000 0.119349 0.587903 0.800079
17510.00000000 -3140.00000000 -600.00000000 231 213 33 97.000000 1.000000 4.000000 1.000000 -60.708740 114.000000 118.000000 0.095416 -0.670845 -0.735434
17490.00000000 -3130.00000000 -640.00000000 231 213 33 97.000000 1.000000 4.000000 1.000000 -60.708740 114.000000 118.000000 -0.275242 0.625261 0.730267
17500.00000000 -3100.00000000 -660.00000000 231 213 33 97.000000 1.000000 4.000000 1.000000 -60.708740 114.000000 118.000000 0.017601 0.510428 0.859740
17500.00000000 -3220.00000000 -600.00000000 231 213 33 97.000000 1.000000 4.000000 1.000000 -60.708740 114.000000 118.000000 0.198657 0.768450 0.608292
17500.00000000 -3210.00000000 -590.00000000 231 213 33 97.000000 1.000000 4.000000 1.000000 -60.708740 114.000000 118.000000 -0.248314 0.825143 0.507424
17500.00000000 -3230.00000000 -600.00000000 231 213 33 97.000000 1.000000 4.000000 1.000000 -60.708740 114.000000 118.000000 -0.315389 0.713265 0.625926
17510.00000000 -3230.00000000 -590.00000000 231 213 33 97.000000 1.000000 4.000000 1.000000 -60.708740 114.000000 118.000000 0.026361 0.817184 0.575774
17460.00000000 -3190.00000000 -530.00000000 231 213 33 97.000000 1.000000 4.000000 1.000000 -60.708740 114.000000 118.000000 0.261269 0.612794 0.745803
17460.00000000 -3170.00000000 -540.00000000 231 213 33 97.000000 1.000000 4.000000 1.000000 -60.708740 114.000000 118.000000 0.162389 0.736064 0.657145
17480.00000000 -3190.00000000 -640.00000000 231 213 33 97.000000 1.000000 4.000000 1.000000 -60.708740 114.000000 118.000000 -0.122023 0.871390 0.475173
17510.00000000 -3180.00000000 -620.00000000 231 213 33 97.000000 1.000000 4.000000 1.000000 -60.708740 114.000000 118.000000 0.071881 0.408231 0.910044
17510.00000000 -3210.00000000 -610.00000000 231 213 33 97.000000 1.000000 4.000000 1.000000 -60.708740 114.000000 118.000000 -0.077679 0.518331 0.851645
17460.00000000 -3190.00000000 -620.00000000 231 213 33 97.000000 1.000000 4.000000 1.000000 -60.708740 114.000000 118.000000 -0.135983 0.385518 0.912625
17460.00000000 -3200.00000000 -610.00000000 231 213 33 97.000000 1.000000 4.000000 1.000000 -60.708740 114.000000 118.000000 -0.135689 0.889837 0.435635
17510.00000000 -3330.00000000 -400.00000000 231 213 33 97.000000 1.000000 4.000000 1.000000 -60.708740 114.000000 118.000000 0.223033 0.813685 0.536817
17460.00000000 -3350.00000000 -390.00000000 231 213 33 97.000000 1.000000 4.000000 1.000000 -60.708740 114.000000 118.000000 0.097094 0.810085 0.578218
17510.00000000 -3320.00000000 -470.00000000 231 213 33 97.000000 1.000000 4.000000 1.000000 -60.708740 114.000000 118.000000 -0.176484 0.436105 0.882420
17470.00000000 -3370.00000000 -450.00000000 231 213 33 97.000000 1.000000 4.000000 1.000000 -60.708740 114.000000 118.000000 0.050035 0.701919 0.710497
17480.00000000 -3240.00000000 -570.00000000 231 213 33 97.000000 1.000000 4.000000 1.000000 -60.708740 114.000000 118.000000 -0.160199 0.555457 0.815968
17440.00000000 -3270.00000000 -570.00000000 231 213 33 97.000000 1.000000 4.000000 1.000000 -60.708740 114.000000 118.000000 -0.088950 0.748056 0.657648
17450.00000000 -3290.00000000 -560.00000000 231 213 33 97.000000 1.000000 4.000000 1.000000 -60.708740 114.000000 118.000000 -0.234440 0.796473 0.557376
17480.00000000 -3290.00000000 -640.00000000 231 213 33 97.000000 1.000000 4.000000 1.000000 -60.708740 114.000000 118.000000 -0.275870 0.824493 0.494072
17500.00000000 -3310.00000000 -650.00000000 231 213 33 97.000000 1.000000 4.000000 1.000000 -60.708740 114.000000 118.000000 0.182598 0.822446 0.538740
17350.00000000 -3400.00000000 -530.00000000 231 213 33 97.000000 1.000000 4.000000 1.000000 -60.708740 114.000000 118.000000 0.061223 0.804439 0.590871
17390.00000000 -3380.00000000 -650.00000000 231 213 33 97.000000 1.000000 4.000000 1.000000 -60.708740 114.000000 118.000000 -0.297416 0.718621 0.628592
17260.00000000 -3100.00000000 -650.00000000 231 213 33 97.000000 1.000000 4.000000 1.000000 -60.708740 114.000000 118.000000 -0.326033 0.840822 0.432111
17300.00000000 -3370.00000000 -640.00000000 231 213 33 97.000000 1.000000 4.000000 1.000000 -60.708740 114.000000 118.000000 0.583935 -0.556854 -0.590706
17360.00000000 -3470.00000000 -280.00000000 231 213 33 97.000000 1.000000 4.000000 1.000000 -60.708740 114.000000 118.000000 -0.153439 0.333142 0.930308
17360.00000000 -3570.00000000 -250.00000000 231 213 33 97.000000 1.000000 4.000000 1.000000 -60.708740 114.000000 118.000000 0.224572 0.857594 0.462709
17390.00000000 -3500.00000000 -310.00000000 231 213 33 97.000000 1.000000 4.000000 1.000000 -60.708740 114.000000 118.000000 0.256235 0.842355 0.474112
17370.00000000 -3710.00000000 -170.00000000 231 213 33 97.000000 1.000000 4.000000 1.000000 -60.708740 114.000000 118.000000 0.659481 0.348559 0.666027
17510.00000000 -3610.00000000 -310.00000000 231 213 33 97.000000 1.000000 4.000000 1.000000 -60.708740 114.000000 118.000000 0.696126 0.162988 0.699173
17430.00000000 -3630.00000000 -310.00000000 231 213 33 97.000000 1.000000 4.000000 1.000000 -60.708740 114.000000 118.000000 0.546230 0.613874 0.569905
17430.00000000 -3630.00000000 -310.00000000 231 213 33 97.000000 1.000000 4.000000 1.000000 -60.708740 114.000000 118.000000 0.546230 0.613874 0.569905
17430.00000000 -3670.00000000 -220.00000000 231 213 33 97.000000 1.000000 4.000000 1.000000 -60.708740 114.000000 118.000000 0.450460 0.550193 0.703117
17480.00000000 -3710.00000000 -340.00000000 231 213 33 97.000000 1.000000 4.000000 1.000000 -60.708740 114.000000 118.000000 0.659251 0.020995 0.751630
17460.00000000 -3670.00000000 -340.00000000 231 213 33 97.000000 1.000000 4.000000 1.000000 -60.708740 114.000000 118.000000 0.366079 0.259368 0.893708
17440.00000000 -3700.00000000 -330.00000000 231 213 33 97.000000 1.000000 4.000000 1.000000 -60.708740 114.000000 118.000000 0.453063 0.184472 0.872183
