//X Y Z R G B PointSourceId ScanDirectionFlag NumberOfReturns ReturnNumber GpsTime Intensity Classification Nx Ny Nz
16660.00000000 -4780.00000000 -50.00000000 227 237 23 97.000000 1.000000 4.000000 1.000000 -60.708740 114.000000 118.000000 0.728152 0.321291 -0.605448
16800.00000000 -4760.00000000 -390.00000000 227 237 23 97.000000 1.000000 4.000000 1.000000 -60.708740 114.000000 118.000000 0.881305 -0.148567 0.448586
16800.00000000 -4830.00000000 -380.00000000 227 237 23 97.000000 1.000000 4.000000 1.000000 -60.708740 114.000000 118.000000 0.973630 0.201743 0.106510
16780.00000000 -4850.00000000 -370.00000000 227 237 23 97.000000 1.000000 4.000000 1.000000 -60.708740 114.000000 118.000000 0.998216 0.057610 0.015712
16810.00000000 -4840.00000000 -450.00000000 227 237 23 97.000000 1.000000 4.000000 1.000000 -60.708740 114.000000 118.000000 0.764113 -0.088783 0.638944
16750.00000000 -4900.00000000 -390.00000000 227 237 23 97.000000 1.000000 4.000000 1.000000 -60.708740 114.000000 118.000000 0.976620 -0.177907 0.120678
16750.00000000 -4910.00000000 -390.00000000 227 237 23 97.000000 1.000000 4.000000 1.000000 -60.708740 114.000000 118.000000 0.981797 -0.178182 0.065772
16740.00000000 -4970.00000000 -370.00000000 227 237 23 97.000000 1.000000 4.000000 1.000000 -60.708740 114.000000 118.000000 0.811815 0.121846 0.571060
16690.00000000 -4990.00000000 -380.00000000 227 237 23 97.000000 1.000000 4.000000 1.000000 -60.708740 114.000000 118.000000 0.948822 0.112482 0.295101
16690.00000000 -5000.00000000 -370.00000000 227 237 23 97.000000 1.000000 4.000000 1.000000 -60.708740 114.000000 118.000000 0.822857 0.248555 0.511005
16680.00000000 -4970.00000000 -400.00000000 227 237 23 97.000000 1.000000 4.000000 1.000000 -60.708740 114.000000 118.000000 0.982539 -0.171137 0.073002
16680.00000000 -5030.00000000 -370.00000000 227 237 23 97.000000 1.000000 4.000000 1.000000 -60.708740 114.000000 118.000000 0.974198 -0.111301 0.196340
16820.00000000 -4960.00000000 -550.00000000 227 237 23 97.000000 1.000000 4.000000 1.000000 -60.708740 114.000000 118.000000 0.390796 -0.335188 0.857279
16810.00000000 -4950.00000000 -550.00000000 227 237 23 97.000000 1.000000 4.000000 1.000000 -60.708740 114.000000 118.000000 0.320335 -0.234146 0.917911
16770.00000000 -4920.00000000 -580.00000000 227 237 23 97.000000 1.000000 4.000000 1.000000 -60.708740 114.000000 118.000000 0.686910 0.162970 0.708234
16780.00000000 -5000.00000000 -560.00000000 227 237 23 97.000000 1.000000 4.000000 1.000000 -60.708740 114.000000 118.000000 0.732598 0.058780 0.678119
16770.00000000 -4990.00000000 -580.00000000 227 237 23 97.000000 1.000000 4.000000 1.000000 -60.708740 114.000000 118.000000 0.108765 0.234166 0.966093
16760.00000000 -4980.00000000 -580.00000000 227 237 23 97.000000 1.000000 4.000000 1.000000 -60.708740 114.000000 118.000000 0.727331 -0.050013 0.684462
16820.00000000 -4920.00000000 -610.00000000 227 237 23 97.000000 1.000000 4.000000 1.000000 -60.708740 114.000000 118.000000 0.377978 0.415934 0.827123
16820.00000000 -4920.00000000 -610.00000000 227 237 23 97.000000 1.000000 4.000000 1.000000 -60.708740 114.000000 118.000000 0.377978 0.415934 0.827123
16830.00000000 -5000.00000000 -680.00000000 227 237 23 97.000000 1.000000 4.000000 1.000000 -60.708740 114.000000 118.000000 0.162774 -0.335286 0.927948
16790.00000000 -5070.00000000 -630.00000000 227 237 23 97.000000 1.000000 4.000000 1.000000 -60.708740 114.000000 118.000000 0.325861 -0.325861 0.887484
16750.00000000 -4970.00000000 -570.00000000 227 237 23 97.000000 1.000000 4.000000 1.000000 -60.708740 114.000000 118.000000 0.480860 0.071084 0.873911
17040.00000000 -4480.00000000 -840.00000000 227 237 23 97.000000 1.000000 4.000000 1.000000 -60.708740 114.000000 118.000000 0.049902 0.089823 0.994707
17040.00000000 -4470.00000000 -840.00000000 227 237 23 97.000000 1.000000 4.000000 1.000000 -60.708740 114.000000 118.000000 -0.066122 0.086295 0.994073
17020.00000000 -4450.00000000 -840.00000000 227 237 23 97.000000 1.000000 4.000000 1.000000 -60.708740 114.000000 118.000000 0.098726 0.206201 0.973517
17090.00000000 -4420.00000000 -900.00000000 227 237 23 97.000000 1.000000 4.000000 1.000000 -60.708740 114.000000 118.000000 -0.482668 0.379355 0.789380
17110.00000000 -4660.00000000 -750.00000000 227 237 23 97.000000 1.000000 4.000000 1.000000 -60.708740 114.000000 118.000000 -0.401870 0.203127 0.892883
17160.00000000 -4590.00000000 -780.00000000 227 237 23 97.000000 1.000000 4.000000 1.000000 -60.708740 114.000000 118.000000 -0.126225 0.095554 0.987389
17110.00000000 -4670.00000000 -750.00000000 227 237 23 97.000000 1.000000 4.000000 1.000000 -60.708740 114.000000 118.000000 -0.427645 -0.179523 0.885941
17060.00000000 -4660.00000000 -750.00000000 227 237 23 97.000000 1.000000 4.000000 1.000000 -60.708740 114.000000 118.000000 -0.014876 0.170501 0.985245
17070.00000000 -4680.00000000 -730.00000000 227 237 23 97.000000 1.000000 4.000000 1.000000 -60.708740 114.000000 118.000000 -0.289843 0.230461 0.928913
17020.00000000 -4720.00000000 -710.00000000 227 237 23 97.000000 1.000000 4.000000 1.000000 -60.708740 114.000000 118.000000 -0.022773 0.233720 0.972037
16990.00000000 -4470.00000000 -850.00000000 227 237 23 97.000000 1.000000 4.000000 1.000000 -60.708740 114.000000 118.000000 -0.343977 0.371742 0.862257
16930.00000000 -4750.00000000 -730.00000000 227 237 23 97.000000 1.000000 4.000000 1.000000 -60.708740 114.000000 118.000000 0.076494 0.031244 0.996580
16970.00000000 -4670.00000000 -730.00000000 227 237 23 97.000000 1.000000 4.000000 1.000000 -60.708740 114.000000 118.000000 -0.127535 0.134823 0.982628
16890.00000000 -4700.00000000 -730.00000000 227 237 23 97.000000 1.000000 4.000000 1.000000 -60.708740 114.000000 118.000000 0.057321 0.155586 0.986158
16940.00000000 -4820.00000000 -770.00000000 227 237 23 97.000000 1.000000 4.000000 1.000000 -60.708740 114.000000 118.000000 0.137544 -0.317305 0.938296
16930.00000000 -4800.00000000 -770.00000000 227 237 23 97.000000 1.000000 4.000000 1.000000 -60.708740 114.000000 118.000000 0.125402 -0.137577 0.982521
16990.00000000 -4770.00000000 -760.00000000 227 237 23 97.000000 1.000000 4.000000 1.000000 -60.708740 114.000000 118.000000 0.116350 -0.191415 0.974589
17000.00000000 -4820.00000000 -790.00000000 227 237 23 97.000000 1.000000 4.000000 1.000000 -60.708740 114.000000 118.000000 0.043881 0.279586 0.959117
16980.00000000 -4790.00000000 -780.00000000 227 237 23 97.000000 1.000000 4.000000 1.000000 -60.708740 114.000000 118.000000 -0.163268 -0.271213 0.948571
16800.00000000 -5020.00000000 -740.00000000 227 237 23 97.000000 1.000000 4.000000 1.000000 -60.708740 114.000000 118.000000 0.511654 0.224517 0.829338
16760.00000000 -5080.00000000 -730.00000000 227 237 23 97.000000 1.000000 4.000000 1.000000 -60.708740 114.000000 118.000000 0.490495 -0.186358 0.851285
16860.00000000 -5250.00000000 -600.00000000 227 237 23 97.000000 1.000000 4.000000 1.000000 -60.708740 114.000000 118.000000 0.518507 0.111212 0.847810
16860.00000000 -5280.00000000 -600.00000000 227 237 23 97.000000 1.000000 4.000000 1.000000 -60.708740 114.000000 118.000000 0.308058 0.341118 0.888110
16840.00000000 -5430.00000000 -620.00000000 227 237 23 97.000000 1.000000 4.000000 1.000000 -60.708740 114.000000 118.000000 0.558837 -0.134180 0.818350
16670.00000000 -5090.00000000 -300.00000000 227 237 23 97.000000 1.000000 4.000000 1.000000 -60.708740 114.000000 118.000000 0.886893 0.364661 -0.283626
16650.00000000 -5150.00000000 -260.00000000 227 237 23 97.000000 1.000000 4.000000 1.000000 -60.708740 114.000000 118.000000 0.950337 0.304777 0.063013
16530.00000000 -5340.00000000 -120.00000000 227 237 23 97.000000 1.000000 4.000000 1.000000 -60.708740 114.000000 118.000000 0.821199 0.049132 -0.568523
16540.00000000 -5270.00000000 -100.00000000 227 237 23 97.000000 1.000000 4.000000 1.000000 -60.708740 114.000000 118.000000 0.882706 0.204835 -0.422933
16640.00000000 -5350.00000000 -230.00000000 227 237 23 97.000000 1.000000 4.000000 1.000000 -60.708740 114.000000 118.000000 0.997349 -0.071012 0.015898
16640.00000000 -5350.00000000 -240.00000000 227 237 23 97.000000 1.000000 4.000000 1.000000 -60.708740 114.000000 118.000000 0.883090 -0.096873 -0.459094
16620.00000000 -5370.00000000 -270.00000000 227 237 23 97.000000 1.000000 4.000000 1.000000 -60.708740 114.000000 118.000000 0.980340 0.053734 -0.189859
16640.00000000 -5380.00000000 -210.00000000 227 237 23 97.000000 1.000000 4.000000 1.000000 -60.708740 114.000000 118.000000 0.925513 -0.027259 -0.377734
16590.00000000 -5390.00000000 -270.00000000 227 237 23 97.000000 1.000000 4.000000 1.000000 -60.708740 114.000000 118.000000 0.975711 -0.077321 0.204961
16580.00000000 -5320.00000000 -210.00000000 227 237 23 97.000000 1.000000 4.000000 1.000000 -60.708740 114.000000 118.000000 0.957877 -0.138345 -0.251657
16780.00000000 -5170.00000000 -610.00000000 227 237 23 97.000000 1.000000 4.000000 1.000000 -60.708740 114.000000 118.000000 0.379498 0.032603 0.924618
16760.00000000 -5130.00000000 -670.00000000 227 237 23 97.000000 1.000000 4.000000 1.000000 -60.708740 114.000000 118.000000 0.752917 0.026640 0.657576
16770.00000000 -5150.00000000 -610.00000000 227 237 23 97.000000 1.000000 4.000000 1.000000 -60.708740 114.000000 118.000000 0.426405 0.297098 0.854349
16780.00000000 -5240.00000000 -620.00000000 227 237 23 97.000000 1.000000 4.000000 1.000000 -60.708740 114.000000 118.000000 0.236662 0.125444 0.963460
16720.00000000 -5090.00000000 -590.00000000 227 237 23 97.000000 1.000000 4.000000 1.000000 -60.708740 114.000000 118.000000 0.338690 -0.135750 0.931054
16730.00000000 -5240.00000000 -550.00000000 227 237 23 97.000000 1.000000 4.000000 1.000000 -60.708740 114.000000 118.000000 0.345771 0.176414 0.921586
16720.00000000 -5250.00000000 -630.00000000 227 237 23 97.000000 1.000000 4.000000 1.000000 -60.708740 114.000000 118.000000 0.387018 0.120683 0.914140
16780.00000000 -5280.00000000 -680.00000000 227 237 23 97.000000 1.000000 4.000000 1.000000 -60.708740 114.000000 118.000000 0.463409 -0.286725 0.838476
16790.00000000 -5310.00000000 -670.00000000 227 237 23 97.000000 1.000000 4.000000 1.000000 -60.708740 114.000000 118.000000 0.525524 0.188225 0.829696
16770.00000000 -5270.00000000 -670.00000000 227 237 23 97.000000 1.000000 4.000000 1.000000 -60.708740 114.000000 118.000000 0.436625 -0.099043 0.894175
16800.00000000 -5270.00000000 -610.00000000 227 237 23 97.000000 1.000000 4.000000 1.000000 -60.708740 114.000000 118.000000 0.277515 0.128799 0.952049
16830.00000000 -5290.00000000 -610.00000000 227 237 23 97.000000 1.000000 4.000000 1.000000 -60.708740 114.000000 118.000000 0.146316 0.110039 0.983099
16820.00000000 -5420.00000000 -600.00000000 227 237 23 97.000000 1.000000 4.000000 1.000000 -60.708740 114.000000 118.000000 0.036748 0.040947 0.998485
16800.00000000 -5360.00000000 -590.00000000 227 237 23 97.000000 1.000000 4.000000 1.000000 -60.708740 114.000000 118.000000 0.608899 -0.135476 0.781594
16810.00000000 -5380.00000000 -600.00000000 227 237 23 97.000000 1.000000 4.000000 1.000000 -60.708740 114.000000 118.000000 0.198064 0.141839 0.969872
16820.00000000 -5420.00000000 -680.00000000 227 237 23 97.000000 1.000000 4.000000 1.000000 -60.708740 114.000000 118.000000 0.532037 -0.257437 0.806637
16740.00000000 -5270.00000000 -580.00000000 227 237 23 97.000000 1.000000 4.000000 1.000000 -60.708740 114.000000 118.000000 0.722184 0.004158 0.691689
16730.00000000 -5280.00000000 -550.00000000 227 237 23 97.000000 1.000000 4.000000 1.000000 -60.708740 114.000000 118.000000 0.789044 0.174165 0.589132
16680.00000000 -5270.00000000 -680.00000000 227 237 23 97.000000 1.000000 4.000000 1.000000 -60.708740 114.000000 118.000000 0.790999 -0.167879 0.588334
16730.00000000 -5280.00000000 -620.00000000 227 237 23 97.000000 1.000000 4.000000 1.000000 -60.708740 114.000000 118.000000 0.412031 -0.006499 0.911147
16710.00000000 -5340.00000000 -610.00000000 227 237 23 97.000000 1.000000 4.000000 1.000000 -60.708740 114.000000 118.000000 0.396699 -0.063203 0.915770
16700.00000000 -5400.00000000 -590.00000000 227 237 23 97.000000 1.000000 4.000000 1.000000 -60.708740 114.000000 118.000000 0.517221 -0.273455 0.810990
16670.00000000 -5360.00000000 -550.00000000 227 237 23 97.000000 1.000000 4.000000 1.000000 -60.708740 114.000000 118.000000 0.912092 -0.159793 0.377564
16730.00000000 -5400.00000000 -640.00000000 227 237 23 97.000000 1.000000 4.000000 1.000000 -60.708740 114.000000 118.000000 0.331014 -0.255187 0.908465
16640.00000000 -5410.00000000 -600.00000000 227 237 23 97.000000 1.000000 4.000000 1.000000 -60.708740 114.000000 118.000000 0.614981 0.148858 0.774364
16620.00000000 -5410.00000000 -580.00000000 227 237 23 97.000000 1.000000 4.000000 1.000000 -60.708740 114.000000 118.000000 0.648536 -0.226597 0.726673
16660.00000000 -5420.00000000 -570.00000000 227 237 23 97.000000 1.000000 4.000000 1.000000 -60.708740 114.000000 118.000000 0.679785 0.223469 0.698537
16630.00000000 -5380.00000000 -570.00000000 227 237 23 97.000000 1.000000 4.000000 1.000000 -60.708740 114.000000 118.000000 0.738037 -0.363316 0.568598
16640.00000000 -5420.00000000 -550.00000000 227 237 23 97.000000 1.000000 4.000000 1.000000 -60.708740 114.000000 118.000000 0.471484 0.094297 0.876819
16540.00000000 -5490.00000000 -250.00000000 227 237 23 97.000000 1.000000 4.000000 1.000000 -60.708740 114.000000 118.000000 0.857729 0.241379 -0.453913
16550.00000000 -5430.00000000 -310.00000000 227 237 23 97.000000 1.000000 4.000000 1.000000 -60.708740 114.000000 118.000000 0.922642 0.318005 0.218183
16550.00000000 -5440.00000000 -300.00000000 227 237 23 97.000000 1.000000 4.000000 1.000000 -60.708740 114.000000 118.000000 0.991346 0.127153 0.032632
16790.00000000 -5470.00000000 -640.00000000 227 237 23 97.000000 1.000000 4.000000 1.000000 -60.708740 114.000000 118.000000 0.655381 -0.110956 0.747104
16800.00000000 -5470.00000000 -650.00000000 227 237 23 97.000000 1.000000 4.000000 1.000000 -60.708740 114.000000 118.000000 0.427409 -0.022495 0.903778
16820.00000000 -5470.00000000 -610.00000000 227 237 23 97.000000 1.000000 4.000000 1.000000 -60.708740 114.000000 118.000000 0.253241 0.311124 0.916008
16760.00000000 -5560.00000000 -690.00000000 227 237 23 97.000000 1.000000 4.000000 1.000000 -60.708740 114.000000 118.000000 0.552261 -0.072404 0.830521
16680.00000000 -5500.00000000 -590.00000000 227 237 23 97.000000 1.000000 4.000000 1.000000 -60.708740 114.000000 118.000000 0.636136 0.172382 0.752074
16690.00000000 -5500.00000000 -590.00000000 227 237 23 97.000000 1.000000 4.000000 1.000000 -60.708740 114.000000 118.000000 0.573247 -0.020720 0.819121
16670.00000000 -5500.00000000 -580.00000000 227 237 23 97.000000 1.000000 4.000000 1.000000 -60.708740 114.000000 118.000000 0.742406 0.018176 0.669703
16670.00000000 -5470.00000000 -610.00000000 227 237 23 97.000000 1.000000 4.000000 1.000000 -60.708740 114.000000 118.000000 0.883332 -0.042193 0.466846
16680.00000000 -5460.00000000 -630.00000000 227 237 23 97.000000 1.000000 4.000000 1.000000 -60.708740 114.000000 118.000000 0.700797 0.041223 0.712169
16730.00000000 -5470.00000000 -630.00000000 227 237 23 97.000000 1.000000 4.000000 1.000000 -60.708740 114.000000 118.000000 0.621287 -0.151937 0.768711
16670.00000000 -5540.00000000 -580.00000000 227 237 23 97.000000 1.000000 4.000000 1.000000 -60.708740 114.000000 118.000000 0.866493 0.116010 0.485522
16670.00000000 -5550.00000000 -570.00000000 227 237 23 97.000000 1.000000 4.000000 1.000000 -60.708740 114.000000 118.000000 0.524045 -0.194818 0.829109
16710.00000000 -5540.00000000 -650.00000000 227 237 23 97.000000 1.000000 4.000000 1.000000 -60.708740 114.000000 118.000000 0.655947 -0.248154 0.712849
16760.00000000 -5680.00000000 -630.00000000 227 237 23 97.000000 1.000000 4.000000 1.000000 -60.708740 114.000000 118.000000 0.491597 0.101169 0.864926
16780.00000000 -5700.00000000 -640.00000000 227 237 23 97.000000 1.000000 4.000000 1.000000 -60.708740 114.000000 118.000000 0.600891 0.211625 0.770808
16770.00000000 -5700.00000000 -640.00000000 227 237 23 97.000000 1.000000 4.000000 1.000000 -60.708740 114.000000 118.000000 0.467010 0.149851 0.871462
16670.00000000 -5750.00000000 -660.00000000 227 237 23 97.000000 1.000000 4.000000 1.000000 -60.708740 114.000000 118.000000 0.510907 -0.234741 0.826964
16630.00000000 -5510.00000000 -450.00000000 227 237 23 97.000000 1.000000 4.000000 1.000000 -60.708740 114.000000 118.000000 0.796744 0.400786 0.452293
16540.00000000 -5490.00000000 -450.00000000 227 237 23 97.000000 1.000000 4.000000 1.000000 -60.708740 114.000000 118.000000 0.731901 0.146380 0.665502
16560.00000000 -5460.00000000 -470.00000000 227 237 23 97.000000 1.000000 4.000000 1.000000 -60.708740 114.000000 118.000000 0.712304 -0.179225 0.678603
16540.00000000 -5500.00000000 -490.00000000 227 237 23 97.000000 1.000000 4.000000 1.000000 -60.708740 114.000000 118.000000 0.781667 -0.341879 0.521646
16540.00000000 -5490.00000000 -450.00000000 227 237 23 97.000000 1.000000 4.000000 1.000000 -60.708740 114.000000 118.000000 0.731901 0.146380 0.665502
16550.00000000 -5490.00000000 -460.00000000 227 237 23 97.000000 1.000000 4.000000 1.000000 -60.708740 114.000000 118.000000 0.763393 -0.055649 0.643533
16580.00000000 -5450.00000000 -510.00000000 227 237 23 97.000000 1.000000 4.000000 1.000000 -60.708740 114.000000 118.000000 0.631566 -0.006910 0.775292
16510.00000000 -5570.00000000 -440.00000000 227 237 23 97.000000 1.000000 4.000000 1.000000 -60.708740 114.000000 118.000000 0.719894 0.064920 0.691041
16540.00000000 -5530.00000000 -450.00000000 227 237 23 97.000000 1.000000 4.000000 1.000000 -60.708740 114.000000 118.000000 0.941475 -0.266820 0.205991
16560.00000000 -5590.00000000 -470.00000000 227 237 23 97.000000 1.000000 4.000000 1.000000 -60.708740 114.000000 118.000000 0.697586 0.272968 0.662467
16540.00000000 -5530.00000000 -450.00000000 227 237 23 97.000000 1.000000 4.000000 1.000000 -60.708740 114.000000 118.000000 0.941475 -0.266820 0.205991
16560.00000000 -5560.00000000 -460.00000000 227 237 23 97.000000 1.000000 4.000000 1.000000 -60.708740 114.000000 118.000000 0.869590 -0.229788 0.437048
16640.00000000 -5450.00000000 -600.00000000 227 237 23 97.000000 1.000000 4.000000 1.000000 -60.708740 114.000000 118.000000 0.409425 0.220232 0.885364
16610.00000000 -5440.00000000 -560.00000000 227 237 23 97.000000 1.000000 4.000000 1.000000 -60.708740 114.000000 118.000000 0.953659 0.028823 0.299507
16660.00000000 -5500.00000000 -580.00000000 227 237 23 97.000000 1.000000 4.000000 1.000000 -60.708740 114.000000 118.000000 0.465314 -0.112415 0.877978
16620.00000000 -5480.00000000 -540.00000000 227 237 23 97.000000 1.000000 4.000000 1.000000 -60.708740 114.000000 118.000000 0.625206 0.082684 0.776068
16630.00000000 -5430.00000000 -570.00000000 227 237 23 97.000000 1.000000 4.000000 1.000000 -60.708740 114.000000 118.000000 0.597315 0.386692 0.702627
16630.00000000 -5460.00000000 -580.00000000 227 237 23 97.000000 1.000000 4.000000 1.000000 -60.708740 114.000000 118.000000 0.449710 0.257631 0.855212
16660.00000000 -5540.00000000 -600.00000000 227 237 23 97.000000 1.000000 4.000000 1.000000 -60.708740 114.000000 118.000000 0.805639 -0.220280 0.549930
16650.00000000 -5530.00000000 -590.00000000 227 237 23 97.000000 1.000000 4.000000 1.000000 -60.708740 114.000000 118.000000 0.639481 -0.315693 0.701001
16660.00000000 -5530.00000000 -600.00000000 227 237 23 97.000000 1.000000 4.000000 1.000000 -60.708740 114.000000 118.000000 0.897297 -0.087103 0.432749
16630.00000000 -5560.00000000 -590.00000000 227 237 23 97.000000 1.000000 4.000000 1.000000 -60.708740 114.000000 118.000000 0.433580 0.067020 0.898619
16650.00000000 -5590.00000000 -590.00000000 227 237 23 97.000000 1.000000 4.000000 1.000000 -60.708740 114.000000 118.000000 0.556889 0.301582 0.773901
16600.00000000 -5530.00000000 -540.00000000 227 237 23 97.000000 1.000000 4.000000 1.000000 -60.708740 114.000000 118.000000 0.752138 -0.139618 0.644046
16620.00000000 -5580.00000000 -560.00000000 227 237 23 97.000000 1.000000 4.000000 1.000000 -60.708740 114.000000 118.000000 0.776178 -0.055543 0.628063
16610.00000000 -5570.00000000 -550.00000000 227 237 23 97.000000 1.000000 4.000000 1.000000 -60.708740 114.000000 118.000000 0.628768 0.233632 0.741665
16620.00000000 -5580.00000000 -560.00000000 227 237 23 97.000000 1.000000 4.000000 1.000000 -60.708740 114.000000 118.000000 0.776178 -0.055543 0.628063
16600.00000000 -5570.00000000 -530.00000000 227 237 23 97.000000 1.000000 4.000000 1.000000 -60.708740 114.000000 118.000000 0.960925 0.189013 0.202230
16650.00000000 -5570.00000000 -640.00000000 227 237 23 97.000000 1.000000 4.000000 1.000000 -60.708740 114.000000 118.000000 0.495140 -0.223956 0.839452
16570.00000000 -5500.00000000 -560.00000000 227 237 23 97.000000 1.000000 4.000000 1.000000 -60.708740 114.000000 118.000000 0.634012 -0.185752 0.750683
16580.00000000 -5570.00000000 -570.00000000 227 237 23 97.000000 1.000000 4.000000 1.000000 -60.708740 114.000000 118.000000 0.713859 -0.026752 0.699779
16590.00000000 -5680.00000000 -460.00000000 227 237 23 97.000000 1.000000 4.000000 1.000000 -60.708740 114.000000 118.000000 0.975916 -0.183218 0.118406
16540.00000000 -5670.00000000 -430.00000000 227 237 23 97.000000 1.000000 4.000000 1.000000 -60.708740 114.000000 118.000000 0.795656 0.380951 0.470964
16530.00000000 -5750.00000000 -420.00000000 227 237 23 97.000000 1.000000 4.000000 1.000000 -60.708740 114.000000 118.000000 0.878157 0.173878 0.445654
16530.00000000 -5710.00000000 -390.00000000 227 237 23 97.000000 1.000000 4.000000 1.000000 -60.708740 114.000000 118.000000 0.885976 -0.235963 0.399209
16550.00000000 -5720.00000000 -440.00000000 227 237 23 97.000000 1.000000 4.000000 1.000000 -60.708740 114.000000 118.000000 0.887170 0.139023 0.440002
16550.00000000 -5680.00000000 -480.00000000 227 237 23 97.000000 1.000000 4.000000 1.000000 -60.708740 114.000000 118.000000 0.799887 0.026431 0.599568
16650.00000000 -5650.00000000 -600.00000000 227 237 23 97.000000 1.000000 4.000000 1.000000 -60.708740 114.000000 118.000000 0.602080 -0.125741 0.788473
16660.00000000 -5670.00000000 -580.00000000 227 237 23 97.000000 1.000000 4.000000 1.000000 -60.708740 114.000000 118.000000 0.689308 0.127096 0.713232
16650.00000000 -5620.00000000 -660.00000000 227 237 23 97.000000 1.000000 4.000000 1.000000 -60.708740 114.000000 118.000000 0.706749 0.133547 0.694745
16610.00000000 -5740.00000000 -590.00000000 227 237 23 97.000000 1.000000 4.000000 1.000000 -60.708740 114.000000 118.000000 0.657596 0.133317 0.741481
16610.00000000 -5740.00000000 -570.00000000 227 237 23 97.000000 1.000000 4.000000 1.000000 -60.708740 114.000000 118.000000 0.635565 -0.250757 0.730190
16600.00000000 -5730.00000000 -570.00000000 227 237 23 97.000000 1.000000 4.000000 1.000000 -60.708740 114.000000 118.000000 0.648501 -0.085981 0.756342
16660.00000000 -5680.00000000 -610.00000000 227 237 23 97.000000 1.000000 4.000000 1.000000 -60.708740 114.000000 118.000000 0.424155 0.179282 0.887666
16580.00000000 -5720.00000000 -550.00000000 227 237 23 97.000000 1.000000 4.000000 1.000000 -60.708740 114.000000 118.000000 0.868719 -0.200474 0.452922
16910.00000000 -5410.00000000 -710.00000000 227 237 23 97.000000 1.000000 4.000000 1.000000 -60.708740 114.000000 118.000000 -0.120723 0.245341 0.961891
16910.00000000 -5390.00000000 -710.00000000 227 237 23 97.000000 1.000000 4.000000 1.000000 -60.708740 114.000000 118.000000 -0.323013 -0.137655 0.936330
16900.00000000 -5390.00000000 -710.00000000 227 237 23 97.000000 1.000000 4.000000 1.000000 -60.708740 114.000000 118.000000 -0.167828 -0.287900 0.942840
16920.00000000 -5420.00000000 -770.00000000 227 237 23 97.000000 1.000000 4.000000 1.000000 -60.708740 114.000000 118.000000 -0.097838 0.090932 0.991039
16840.00000000 -5350.00000000 -700.00000000 227 237 23 97.000000 1.000000 4.000000 1.000000 -60.708740 114.000000 118.000000 0.438907 -0.170605 0.882188
16850.00000000 -5420.00000000 -760.00000000 227 237 23 97.000000 1.000000 4.000000 1.000000 -60.708740 114.000000 118.000000 0.410374 -0.107115 0.905605
16870.00000000 -5390.00000000 -740.00000000 227 237 23 97.000000 1.000000 4.000000 1.000000 -60.708740 114.000000 118.000000 0.506050 0.051298 0.860978
16900.00000000 -5450.00000000 -760.00000000 227 237 23 97.000000 1.000000 4.000000 1.000000 -60.708740 114.000000 118.000000 0.096273 0.364751 0.926115
16880.00000000 -5530.00000000 -770.00000000 227 237 23 97.000000 1.000000 4.000000 1.000000 -60.708740 114.000000 118.000000 -0.049732 0.423392 0.904581
16870.00000000 -5540.00000000 -760.00000000 227 237 23 97.000000 1.000000 4.000000 1.000000 -60.708740 114.000000 118.000000 -0.157251 0.157251 0.974958
16890.00000000 -5550.00000000 -830.00000000 227 237 23 97.000000 1.000000 4.000000 1.000000 -60.708740 114.000000 118.000000 0.358205 -0.021826 0.933388
16770.00000000 -5100.00000000 -780.00000000 227 237 23 97.000000 1.000000 4.000000 1.000000 -60.708740 114.000000 118.000000 0.499184 -0.036926 0.865709
16830.00000000 -5570.00000000 -750.00000000 227 237 23 97.000000 1.000000 4.000000 1.000000 -60.708740 114.000000 118.000000 0.425186 -0.027816 0.904679
16830.00000000 -5590.00000000 -780.00000000 227 237 23 97.000000 1.000000 4.000000 1.000000 -60.708740 114.000000 118.000000 0.346478 0.247067 0.904937
16760.00000000 -5580.00000000 -700.00000000 227 237 23 97.000000 1.000000 4.000000 1.000000 -60.708740 114.000000 118.000000 0.607996 0.243512 0.755674
16820.00000000 -5540.00000000 -750.00000000 227 237 23 97.000000 1.000000 4.000000 1.000000 -60.708740 114.000000 118.000000 0.579888 0.118914 0.805971
16680.00000000 -5820.00000000 -660.00000000 227 237 23 97.000000 1.000000 4.000000 1.000000 -60.708740 114.000000 118.000000 0.399694 -0.085941 0.912611
16550.00000000 -5780.00000000 -410.00000000 227 237 23 97.000000 1.000000 4.000000 1.000000 -60.708740 114.000000 118.000000 0.912770 0.097454 0.396678
16600.00000000 -5800.00000000 -430.00000000 227 237 23 97.000000 1.000000 4.000000 1.000000 -60.708740 114.000000 118.000000 0.777398 0.404117 0.482019
16630.00000000 -5830.00000000 -660.00000000 227 237 23 97.000000 1.000000 4.000000 1.000000 -60.708740 114.000000 118.000000 0.327703 0.143970 0.933747
16640.00000000 -5770.00000000 -650.00000000 227 237 23 97.000000 1.000000 4.000000 1.000000 -60.708740 114.000000 118.000000 0.819284 -0.112451 0.562254
16580.00000000 -5780.00000000 -580.00000000 227 237 23 97.000000 1.000000 4.000000 1.000000 -60.708740 114.000000 118.000000 0.684623 0.073818 0.725150
16660.00000000 -5840.00000000 -680.00000000 227 237 23 97.000000 1.000000 4.000000 1.000000 -60.708740 114.000000 118.000000 0.763393 0.055649 0.643533
16620.00000000 -5770.00000000 -600.00000000 227 237 23 97.000000 1.000000 4.000000 1.000000 -60.708740 114.000000 118.000000 0.723009 0.282500 0.630438
16760.00000000 -5920.00000000 -810.00000000 227 237 23 97.000000 1.000000 4.000000 1.000000 -60.708740 114.000000 118.000000 0.408325 0.024946 0.912495
16690.00000000 -5830.00000000 -710.00000000 227 237 23 97.000000 1.000000 4.000000 1.000000 -60.708740 114.000000 118.000000 0.500119 -0.203976 0.841590
16710.00000000 -5790.00000000 -710.00000000 227 237 23 97.000000 1.000000 4.000000 1.000000 -60.708740 114.000000 118.000000 0.308664 -0.018745 0.950986
16750.00000000 -5790.00000000 -720.00000000 227 237 23 97.000000 1.000000 4.000000 1.000000 -60.708740 114.000000 118.000000 0.434515 0.219497 0.873509
16710.00000000 -5920.00000000 -810.00000000 227 237 23 97.000000 1.000000 4.000000 1.000000 -60.708740 114.000000 118.000000 0.546309 0.258284 0.796766
16700.00000000 -5860.00000000 -810.00000000 227 237 23 97.000000 1.000000 4.000000 1.000000 -60.708740 114.000000 118.000000 0.458290 -0.308134 0.833681
16700.00000000 -5920.00000000 -800.00000000 227 237 23 97.000000 1.000000 4.000000 1.000000 -60.708740 114.000000 118.000000 0.636072 -0.052650 0.769832
16710.00000000 -5920.00000000 -820.00000000 227 237 23 97.000000 1.000000 4.000000 1.000000 -60.708740 114.000000 118.000000 0.702846 0.142977 0.696825
16710.00000000 -5940.00000000 -800.00000000 227 237 23 97.000000 1.000000 4.000000 1.000000 -60.708740 114.000000 118.000000 0.269787 -0.310620 0.911444
16640.00000000 -5880.00000000 -720.00000000 227 237 23 97.000000 1.000000 4.000000 1.000000 -60.708740 114.000000 118.000000 0.786192 -0.082528 0.612448
16490.00000000 -5190.00000000 -80.00000000 227 237 23 97.000000 1.000000 4.000000 1.000000 -60.708740 114.000000 118.000000 -0.620536 -0.052540 0.782416
16490.00000000 -5190.00000000 -80.00000000 227 237 23 97.000000 1.000000 4.000000 1.000000 -60.708740 114.000000 118.000000 -0.620536 -0.052540 0.782416
16430.00000000 -5330.00000000 -70.00000000 227 237 23 97.000000 1.000000 4.000000 1.000000 -60.708740 114.000000 118.000000 0.807486 0.339240 -0.482580
16440.00000000 -5360.00000000 -100.00000000 227 237 23 97.000000 1.000000 4.000000 1.000000 -60.708740 114.000000 118.000000 0.865873 0.140686 -0.480074
16450.00000000 -5360.00000000 -80.00000000 227 237 23 97.000000 1.000000 4.000000 1.000000 -60.708740 114.000000 118.000000 0.747738 0.098425 -0.656658
16460.00000000 -5380.00000000 -90.00000000 227 237 23 97.000000 1.000000 4.000000 1.000000 -60.708740 114.000000 118.000000 0.997689 -0.030813 -0.060563
16430.00000000 -5400.00000000 -140.00000000 227 237 23 97.000000 1.000000 4.000000 1.000000 -60.708740 114.000000 118.000000 -0.760584 -0.168513 0.626989
16380.00000000 -5400.00000000 -120.00000000 227 237 23 97.000000 1.000000 4.000000 1.000000 -60.708740 114.000000 118.000000 0.786712 0.135332 -0.602303
16380.00000000 -5410.00000000 -140.00000000 227 237 23 97.000000 1.000000 4.000000 1.000000 -60.708740 114.000000 118.000000 0.856669 -0.154289 -0.492254
16350.00000000 -5560.00000000 -120.00000000 227 237 23 97.000000 1.000000 4.000000 1.000000 -60.708740 114.000000 118.000000 0.988987 0.082902 -0.122602
16420.00000000 -5510.00000000 -200.00000000 227 237 23 97.000000 1.000000 4.000000 1.000000 -60.708740 114.000000 118.000000 0.962804 0.008478 -0.270069
16380.00000000 -5440.00000000 -210.00000000 227 237 23 97.000000 1.000000 4.000000 1.000000 -60.708740 114.000000 118.000000 0.983092 -0.182821 0.010348
16380.00000000 -5590.00000000 -190.00000000 227 237 23 97.000000 1.000000 4.000000 1.000000 -60.708740 114.000000 118.000000 0.956545 0.222794 0.188107
16370.00000000 -5560.00000000 -190.00000000 227 237 23 97.000000 1.000000 4.000000 1.000000 -60.708740 114.000000 118.000000 0.991220 -0.046552 -0.123761
16400.00000000 -5580.00000000 -250.00000000 227 237 23 97.000000 1.000000 4.000000 1.000000 -60.708740 114.000000 118.000000 0.988571 -0.147088 0.033066
16370.00000000 -5580.00000000 -200.00000000 227 237 23 97.000000 1.000000 4.000000 1.000000 -60.708740 114.000000 118.000000 0.989833 -0.089562 -0.110498
16380.00000000 -5580.00000000 -200.00000000 227 237 23 97.000000 1.000000 4.000000 1.000000 -60.708740 114.000000 118.000000 0.935850 0.325572 0.134860
16380.00000000 -5630.00000000 -140.00000000 227 237 23 97.000000 1.000000 4.000000 1.000000 -60.708740 114.000000 118.000000 0.942123 0.039844 -0.332892
16380.00000000 -5620.00000000 -130.00000000 227 237 23 97.000000 1.000000 4.000000 1.000000 -60.708740 114.000000 118.000000 0.994304 0.105638 -0.014158
16420.00000000 -5740.00000000 -290.00000000 227 237 23 97.000000 1.000000 4.000000 1.000000 -60.708740 114.000000 118.000000 0.963205 0.013361 -0.268434
16420.00000000 -5730.00000000 -290.00000000 227 237 23 97.000000 1.000000 4.000000 1.000000 -60.708740 114.000000 118.000000 0.914105 0.057719 0.401347
16420.00000000 -5700.00000000 -320.00000000 227 237 23 97.000000 1.000000 4.000000 1.000000 -60.708740 114.000000 118.000000 0.899366 0.392477 0.192618
16480.00000000 -5750.00000000 -320.00000000 227 237 23 97.000000 1.000000 4.000000 1.000000 -60.708740 114.000000 118.000000 0.938551 -0.334913 -0.083397
16390.00000000 -5610.00000000 -200.00000000 227 237 23 97.000000 1.000000 4.000000 1.000000 -60.708740 114.000000 118.000000 0.934471 0.199745 -0.294729
16390.00000000 -5610.00000000 -210.00000000 227 237 23 97.000000 1.000000 4.000000 1.000000 -60.708740 114.000000 118.000000 0.969271 0.110520 -0.219769
16380.00000000 -5630.00000000 -260.00000000 227 237 23 97.000000 1.000000 4.000000 1.000000 -60.708740 114.000000 118.000000 0.908180 -0.342572 -0.240529
16390.00000000 -5620.00000000 -240.00000000 227 237 23 97.000000 1.000000 4.000000 1.000000 -60.708740 114.000000 118.000000 0.992034 -0.048530 0.116245
16390.00000000 -5620.00000000 -260.00000000 227 237 23 97.000000 1.000000 4.000000 1.000000 -60.708740 114.000000 118.000000 0.940783 0.236928 -0.242470
16390.00000000 -5610.00000000 -250.00000000 227 237 23 97.000000 1.000000 4.000000 1.000000 -60.708740 114.000000 118.000000 0.913748 0.400862 0.066135
16400.00000000 -5650.00000000 -260.00000000 227 237 23 97.000000 1.000000 4.000000 1.000000 -60.708740 114.000000 118.000000 0.984110 0.116840 -0.133704
16390.00000000 -5640.00000000 -260.00000000 227 237 23 97.000000 1.000000 4.000000 1.000000 -60.708740 114.000000 118.000000 0.907239 0.069369 -0.414855
16400.00000000 -5650.00000000 -290.00000000 227 237 23 97.000000 1.000000 4.000000 1.000000 -60.708740 114.000000 118.000000 0.909146 0.319587 -0.267053
16380.00000000 -5630.00000000 -330.00000000 227 237 23 97.000000 1.000000 4.000000 1.000000 -60.708740 114.000000 118.000000 0.942821 -0.110999 0.314274
16400.00000000 -5640.00000000 -280.00000000 227 237 23 97.000000 1.000000 4.000000 1.000000 -60.708740 114.000000 118.000000 0.936710 -0.163684 0.309486
16380.00000000 -5630.00000000 -350.00000000 227 237 23 97.000000 1.000000 4.000000 1.000000 -60.708740 114.000000 118.000000 0.996645 0.029091 0.076499
16360.00000000 -5700.00000000 -220.00000000 227 237 23 97.000000 1.000000 4.000000 1.000000 -60.708740 114.000000 118.000000 0.993234 -0.093574 -0.068771
16390.00000000 -5700.00000000 -280.00000000 227 237 23 97.000000 1.000000 4.000000 1.000000 -60.708740 114.000000 118.000000 0.996391 -0.074811 -0.040116
16390.00000000 -5680.00000000 -280.00000000 227 237 23 97.000000 1.000000 4.000000 1.000000 -60.708740 114.000000 118.000000 0.937920 0.080696 0.337334
16410.00000000 -5690.00000000 -340.00000000 227 237 23 97.000000 1.000000 4.000000 1.000000 -60.708740 114.000000 118.000000 0.914122 0.344055 0.214495
16380.00000000 -5720.00000000 -320.00000000 227 237 23 97.000000 1.000000 4.000000 1.000000 -60.708740 114.000000 118.000000 0.930392 0.331392 -0.156683
16380.00000000 -5720.00000000 -330.00000000 227 237 23 97.000000 1.000000 4.000000 1.000000 -60.708740 114.000000 118.000000 0.946297 0.320541 -0.042143
16500.00000000 -5570.00000000 -410.00000000 227 237 23 97.000000 1.000000 4.000000 1.000000 -60.708740 114.000000 118.000000 0.922738 0.351453 0.158224
16500.00000000 -5590.00000000 -460.00000000 227 237 23 97.000000 1.000000 4.000000 1.000000 -60.708740 114.000000 118.000000 0.747407 -0.145872 0.648154
16410.00000000 -5530.00000000 -390.00000000 227 237 23 97.000000 1.000000 4.000000 1.000000 -60.708740 114.000000 118.000000 0.946938 0.267643 -0.177975
16370.00000000 -5590.00000000 -400.00000000 227 237 23 97.000000 1.000000 4.000000 1.000000 -60.708740 114.000000 118.000000 0.919879 -0.082640 0.383396
16390.00000000 -5590.00000000 -360.00000000 227 237 23 97.000000 1.000000 4.000000 1.000000 -60.708740 114.000000 118.000000 0.922813 0.383079 0.040809
16410.00000000 -5600.00000000 -410.00000000 227 237 23 97.000000 1.000000 4.000000 1.000000 -60.708740 114.000000 118.000000 0.989624 0.091869 0.110475
16410.00000000 -5600.00000000 -410.00000000 227 237 23 97.000000 1.000000 4.000000 1.000000 -60.708740 114.000000 118.000000 0.989624 0.091869 0.110475
16400.00000000 -5870.00000000 -190.00000000 227 237 23 97.000000 1.000000 4.000000 1.000000 -60.708740 114.000000 118.000000 0.961097 0.101915 -0.256722
16410.00000000 -5920.00000000 -260.00000000 227 237 23 97.000000 1.000000 4.000000 1.000000 -60.708740 114.000000 118.000000 0.970715 0.010746 0.239992
16430.00000000 -5950.00000000 -250.00000000 227 237 23 97.000000 1.000000 4.000000 1.000000 -60.708740 114.000000 118.000000 0.974332 0.180245 0.134869
16390.00000000 -5950.00000000 -200.00000000 227 237 23 97.000000 1.000000 4.000000 1.000000 -60.708740 114.000000 118.000000 0.921583 0.253686 -0.293817
16410.00000000 -5940.00000000 -230.00000000 227 237 23 97.000000 1.000000 4.000000 1.000000 -60.708740 114.000000 118.000000 0.923484 -0.322014 -0.208529
16410.00000000 -5940.00000000 -230.00000000 227 237 23 97.000000 1.000000 4.000000 1.000000 -60.708740 114.000000 118.000000 0.923484 -0.322014 -0.208529
16270.00000000 -5870.00000000 -180.00000000 227 237 23 97.000000 1.000000 4.000000 1.000000 -60.708740 114.000000 118.000000 0.966005 0.198922 -0.165118
16300.00000000 -5920.00000000 -150.00000000 227 237 23 97.000000 1.000000 4.000000 1.000000 -60.708740 114.000000 118.000000 0.911833 0.337770 -0.233394
16320.00000000 -5830.00000000 -220.00000000 227 237 23 97.000000 1.000000 4.000000 1.000000 -60.708740 114.000000 118.000000 0.959044 -0.038661 -0.280605
16330.00000000 -5800.00000000 -270.00000000 227 237 23 97.000000 1.000000 4.000000 1.000000 -60.708740 114.000000 118.000000 0.950937 0.171304 0.257630
16310.00000000 -5840.00000000 -240.00000000 227 237 23 97.000000 1.000000 4.000000 1.000000 -60.708740 114.000000 118.000000 0.934942 0.354281 0.019185
16330.00000000 -5820.00000000 -270.00000000 227 237 23 97.000000 1.000000 4.000000 1.000000 -60.708740 114.000000 118.000000 0.991258 -0.086146 -0.099930
16270.00000000 -5800.00000000 -210.00000000 227 237 23 97.000000 1.000000 4.000000 1.000000 -60.708740 114.000000 118.000000 0.964748 -0.077129 0.251618
16330.00000000 -5880.00000000 -190.00000000 227 237 23 97.000000 1.000000 4.000000 1.000000 -60.708740 114.000000 118.000000 0.957492 0.287865 0.018532
16320.00000000 -5900.00000000 -200.00000000 227 237 23 97.000000 1.000000 4.000000 1.000000 -60.708740 114.000000 118.000000 0.926145 -0.101998 -0.363114
16260.00000000 -5850.00000000 -230.00000000 227 237 23 97.000000 1.000000 4.000000 1.000000 -60.708740 114.000000 118.000000 0.991573 0.110682 0.067322
16310.00000000 -5950.00000000 -100.00000000 227 237 23 97.000000 1.000000 4.000000 1.000000 -60.708740 114.000000 118.000000 0.986876 -0.161284 0.007895
16320.00000000 -5990.00000000 -100.00000000 227 237 23 97.000000 1.000000 4.000000 1.000000 -60.708740 114.000000 118.000000 0.995489 -0.093833 -0.014021
16310.00000000 -5960.00000000 -120.00000000 227 237 23 97.000000 1.000000 4.000000 1.000000 -60.708740 114.000000 118.000000 0.961563 0.003629 -0.274560
16310.00000000 -5960.00000000 -120.00000000 227 237 23 97.000000 1.000000 4.000000 1.000000 -60.708740 114.000000 118.000000 0.961563 0.003629 -0.274560
16310.00000000 -5970.00000000 -120.00000000 227 237 23 97.000000 1.000000 4.000000 1.000000 -60.708740 114.000000 118.000000 0.990781 0.037367 -0.130217
16310.00000000 -5950.00000000 -120.00000000 227 237 23 97.000000 1.000000 4.000000 1.000000 -60.708740 114.000000 118.000000 0.986620 -0.078977 -0.142630
16330.00000000 -5940.00000000 -170.00000000 227 237 23 97.000000 1.000000 4.000000 1.000000 -60.708740 114.000000 118.000000 0.979836 0.015146 -0.199229
16330.00000000 -5990.00000000 -130.00000000 227 237 23 97.000000 1.000000 4.000000 1.000000 -60.708740 114.000000 118.000000 0.995977 0.085431 -0.027035
16850.00000000 -1690.00000000 40.00000000 227 237 23 97.000000 1.000000 4.000000 1.000000 -60.708740 114.000000 118.000000 0.107132 0.173628 0.978967
16910.00000000 -1700.00000000 30.00000000 227 237 23 97.000000 1.000000 4.000000 1.000000 -60.708740 114.000000 118.000000 -0.011031 0.015043 0.999826
16800.00000000 -1640.00000000 -10.00000000 227 237 23 97.000000 1.000000 4.000000 1.000000 -60.708740 114.000000 118.000000 0.332132 0.106229 0.937232
16930.00000000 -1730.00000000 30.00000000 227 237 23 97.000000 1.000000 4.000000 1.000000 -60.708740 114.000000 118.000000 0.312787 -0.107812 0.943685
16900.00000000 -1770.00000000 60.00000000 227 237 23 97.000000 1.000000 4.000000 1.000000 -60.708740 114.000000 118.000000 0.545521 0.060613 0.835902
16840.00000000 -1760.00000000 30.00000000 227 237 23 97.000000 1.000000 4.000000 1.000000 -60.708740 114.000000 118.000000 -0.297873 0.084549 0.950854
16860.00000000 -1830.00000000 30.00000000 227 237 23 97.000000 1.000000 4.000000 1.000000 -60.708740 114.000000 118.000000 0.035030 -0.230716 0.972390
16880.00000000 -1720.00000000 0.00000000 227 237 23 97.000000 1.000000 4.000000 1.000000 -60.708740 114.000000 118.000000 0.166817 0.078008 0.982897
16840.00000000 -1900.00000000 0.00000000 227 237 23 97.000000 1.000000 4.000000 1.000000 -60.708740 114.000000 118.000000 0.390095 -0.241770 0.888467
16840.00000000 -1920.00000000 10.00000000 227 237 23 97.000000 1.000000 4.000000 1.000000 -60.708740 114.000000 118.000000 -0.019065 -0.137941 0.990257
16840.00000000 -1970.00000000 0.00000000 227 237 23 97.000000 1.000000 4.000000 1.000000 -60.708740 114.000000 118.000000 -0.304252 -0.013660 0.952494
16780.00000000 -1730.00000000 20.00000000 227 237 23 97.000000 1.000000 4.000000 1.000000 -60.708740 114.000000 118.000000 0.080923 -0.278736 0.956952
16780.00000000 -1750.00000000 10.00000000 227 237 23 97.000000 1.000000 4.000000 1.000000 -60.708740 114.000000 118.000000 -0.009664 -0.095565 0.995376
16820.00000000 -1730.00000000 50.00000000 227 237 23 97.000000 1.000000 4.000000 1.000000 -60.708740 114.000000 118.000000 -0.129518 -0.214153 0.968176
16820.00000000 -1840.00000000 20.00000000 227 237 23 97.000000 1.000000 4.000000 1.000000 -60.708740 114.000000 118.000000 0.073582 -0.020262 0.997083
16710.00000000 -1990.00000000 -10.00000000 227 237 23 97.000000 1.000000 4.000000 1.000000 -60.708740 114.000000 118.000000 -0.079448 -0.150596 0.985398
16800.00000000 -1970.00000000 20.00000000 227 237 23 97.000000 1.000000 4.000000 1.000000 -60.708740 114.000000 118.000000 -0.019576 0.173883 0.984572
16750.00000000 -1970.00000000 0.00000000 227 237 23 97.000000 1.000000 4.000000 1.000000 -60.708740 114.000000 118.000000 0.243955 0.163970 0.955824
16810.00000000 -1890.00000000 0.00000000 227 237 23 97.000000 1.000000 4.000000 1.000000 -60.708740 114.000000 118.000000 -0.113653 0.155203 0.981323
16700.00000000 -1910.00000000 -10.00000000 227 237 23 97.000000 1.000000 4.000000 1.000000 -60.708740 114.000000 118.000000 -0.103308 -0.331390 0.937821
16810.00000000 -1940.00000000 0.00000000 227 237 23 97.000000 1.000000 4.000000 1.000000 -60.708740 114.000000 118.000000 -0.270074 -0.006055 0.962820
16640.00000000 -1930.00000000 0.00000000 227 237 23 97.000000 1.000000 4.000000 1.000000 -60.708740 114.000000 118.000000 -0.375162 -0.076646 0.923785
16650.00000000 -1950.00000000 0.00000000 227 237 23 97.000000 1.000000 4.000000 1.000000 -60.708740 114.000000 118.000000 -0.447771 0.230670 0.863882
17350.00000000 -3250.00000000 80.00000000 227 237 23 97.000000 1.000000 4.000000 1.000000 -60.708740 114.000000 118.000000 0.790405 0.330533 0.515759
17360.00000000 -3240.00000000 80.00000000 227 237 23 97.000000 1.000000 4.000000 1.000000 -60.708740 114.000000 118.000000 0.861382 0.185323 0.472945
17340.00000000 -3150.00000000 0.00000000 227 237 23 97.000000 1.000000 4.000000 1.000000 -60.708740 114.000000 118.000000 0.844099 0.389946 0.368021
17380.00000000 -3880.00000000 110.00000000 227 237 23 97.000000 1.000000 4.000000 1.000000 -60.708740 114.000000 118.000000 0.811065 0.385536 0.439927
17210.00000000 -3850.00000000 -10.00000000 227 237 23 97.000000 1.000000 4.000000 1.000000 -60.708740 114.000000 118.000000 0.410025 0.299457 0.861513
17180.00000000 -4750.00000000 0.00000000 227 237 23 97.000000 1.000000 4.000000 1.000000 -60.708740 114.000000 118.000000 0.635138 -0.094906 0.766546
17170.00000000 -3960.00000000 10.00000000 227 237 23 97.000000 1.000000 4.000000 1.000000 -60.708740 114.000000 118.000000 0.619857 0.040947 0.783646
17160.00000000 -3990.00000000 -10.00000000 227 237 23 97.000000 1.000000 4.000000 1.000000 -60.708740 114.000000 118.000000 0.333776 0.103216 0.936985
16900.00000000 -4390.00000000 350.00000000 227 237 23 97.000000 1.000000 4.000000 1.000000 -60.708740 114.000000 118.000000 -0.116769 0.229689 0.966234
17040.00000000 -4140.00000000 190.00000000 227 237 23 97.000000 1.000000 4.000000 1.000000 -60.708740 114.000000 118.000000 0.567184 -0.190075 0.801357
17030.00000000 -4120.00000000 160.00000000 227 237 23 97.000000 1.000000 4.000000 1.000000 -60.708740 114.000000 118.000000 0.280871 0.049121 0.958488
17090.00000000 -4240.00000000 60.00000000 227 237 23 97.000000 1.000000 4.000000 1.000000 -60.708740 114.000000 118.000000 0.409861 0.236974 0.880828
17030.00000000 -4240.00000000 50.00000000 227 237 23 97.000000 1.000000 4.000000 1.000000 -60.708740 114.000000 118.000000 0.300905 0.124374 0.945509
17050.00000000 -4380.00000000 300.00000000 227 237 23 97.000000 1.000000 4.000000 1.000000 -60.708740 114.000000 118.000000 0.550845 -0.057761 0.832607
17040.00000000 -4270.00000000 50.00000000 227 237 23 97.000000 1.000000 4.000000 1.000000 -60.708740 114.000000 118.000000 0.117485 0.034686 0.992469
17020.00000000 -4290.00000000 50.00000000 227 237 23 97.000000 1.000000 4.000000 1.000000 -60.708740 114.000000 118.000000 0.166474 0.429937 0.887378
17020.00000000 -4280.00000000 50.00000000 227 237 23 97.000000 1.000000 4.000000 1.000000 -60.708740 114.000000 118.000000 0.248537 0.175991 0.952500
17070.00000000 -4290.00000000 50.00000000 227 237 23 97.000000 1.000000 4.000000 1.000000 -60.708740 114.000000 118.000000 0.108483 0.020820 0.993880
17060.00000000 -4280.00000000 50.00000000 227 237 23 97.000000 1.000000 4.000000 1.000000 -60.708740 114.000000 118.000000 0.144144 0.286941 0.947041
17070.00000000 -4330.00000000 50.00000000 227 237 23 97.000000 1.000000 4.000000 1.000000 -60.708740 114.000000 118.000000 0.054456 0.087796 0.994649
17020.00000000 -4250.00000000 40.00000000 227 237 23 97.000000 1.000000 4.000000 1.000000 -60.708740 114.000000 118.000000 0.294515 0.274204 0.915463
16970.00000000 -4240.00000000 300.00000000 227 237 23 97.000000 1.000000 4.000000 1.000000 -60.708740 114.000000 118.000000 -0.050794 0.114005 0.992181
16890.00000000 -4230.00000000 310.00000000 227 237 23 97.000000 1.000000 4.000000 1.000000 -60.708740 114.000000 118.000000 0.317414 0.170489 0.932836
16900.00000000 -4320.00000000 300.00000000 227 237 23 97.000000 1.000000 4.000000 1.000000 -60.708740 114.000000 118.000000 0.063496 0.245267 0.967374
16990.00000000 -4250.00000000 290.00000000 227 237 23 97.000000 1.000000 4.000000 1.000000 -60.708740 114.000000 118.000000 0.158233 -0.057433 0.985730
16980.00000000 -4410.00000000 280.00000000 227 237 23 97.000000 1.000000 4.000000 1.000000 -60.708740 114.000000 118.000000 -0.163800 -0.098280 0.981586
16970.00000000 -4260.00000000 290.00000000 227 237 23 97.000000 1.000000 4.000000 1.000000 -60.708740 114.000000 118.000000 0.279364 -0.083680 0.956532
16880.00000000 -4270.00000000 310.00000000 227 237 23 97.000000 1.000000 4.000000 1.000000 -60.708740 114.000000 118.000000 -0.154342 -0.132117 0.979144
16830.00000000 -4370.00000000 340.00000000 227 237 23 97.000000 1.000000 4.000000 1.000000 -60.708740 114.000000 118.000000 0.107887 -0.224659 0.968446
16930.00000000 -4420.00000000 330.00000000 227 237 23 97.000000 1.000000 4.000000 1.000000 -60.708740 114.000000 118.000000 -0.101200 -0.206149 0.973273
16950.00000000 -4520.00000000 340.00000000 227 237 23 97.000000 1.000000 4.000000 1.000000 -60.708740 114.000000 118.000000 -0.036368 0.448533 0.893026
16940.00000000 -4540.00000000 350.00000000 227 237 23 97.000000 1.000000 4.000000 1.000000 -60.708740 114.000000 118.000000 -0.159307 0.370776 0.914957
16860.00000000 -4440.00000000 350.00000000 227 237 23 97.000000 1.000000 4.000000 1.000000 -60.708740 114.000000 118.000000 -0.107158 -0.251757 0.961840
16880.00000000 -4460.00000000 350.00000000 227 237 23 97.000000 1.000000 4.000000 1.000000 -60.708740 114.000000 118.000000 -0.032265 0.213906 0.976321
