//X Y Z R G B PointSourceId ScanDirectionFlag NumberOfReturns ReturnNumber GpsTime Intensity Classification Nx Ny Nz
14770.00000000 9520.00000000 -100.00000000 133 151 113 0.000000 0.000000 0.000000 0.000000 -60.708740 0.000000 71.000000 0.972232 -0.226813 0.057623
14760.00000000 9500.00000000 -70.00000000 133 151 113 0.000000 0.000000 0.000000 0.000000 -60.708740 0.000000 71.000000 0.759926 -0.607005 -0.232503
14760.00000000 9490.00000000 -80.00000000 133 151 113 0.000000 0.000000 0.000000 0.000000 -60.708740 0.000000 71.000000 0.997710 0.001040 -0.067624
14760.00000000 9510.00000000 -80.00000000 133 151 113 0.000000 0.000000 0.000000 0.000000 -60.708740 0.000000 71.000000 0.930432 -0.238608 -0.278141
14790.00000000 9520.00000000 -140.00000000 133 151 113 0.000000 0.000000 0.000000 0.000000 -60.708740 0.000000 71.000000 0.806941 -0.536406 -0.247213
14770.00000000 9530.00000000 -110.00000000 133 151 113 0.000000 0.000000 0.000000 0.000000 -60.708740 0.000000 71.000000 0.986742 -0.021674 0.160845
14740.00000000 9550.00000000 -130.00000000 133 151 113 0.000000 0.000000 0.000000 0.000000 -60.708740 0.000000 71.000000 0.952144 -0.220141 0.212038
14750.00000000 9560.00000000 -120.00000000 133 151 113 0.000000 0.000000 0.000000 0.000000 -60.708740 0.000000 71.000000 0.916144 -0.324618 -0.235168
14740.00000000 9530.00000000 -140.00000000 133 151 113 0.000000 0.000000 0.000000 0.000000 -60.708740 0.000000 71.000000 0.954512 -0.205401 0.216141
14740.00000000 9540.00000000 -130.00000000 133 151 113 0.000000 0.000000 0.000000 0.000000 -60.708740 0.000000 71.000000 0.906863 -0.151853 0.393116
14770.00000000 9530.00000000 -130.00000000 133 151 113 0.000000 0.000000 0.000000 0.000000 -60.708740 0.000000 71.000000 0.984195 -0.107213 -0.140943
14740.00000000 9500.00000000 -120.00000000 133 151 113 0.000000 0.000000 0.000000 0.000000 -60.708740 0.000000 71.000000 0.993712 -0.070899 -0.086654
14740.00000000 9510.00000000 -110.00000000 133 151 113 0.000000 0.000000 0.000000 0.000000 -60.708740 0.000000 71.000000 0.942348 -0.188470 -0.276514
14760.00000000 9500.00000000 -120.00000000 133 151 113 0.000000 0.000000 0.000000 0.000000 -60.708740 0.000000 71.000000 0.988312 -0.021559 -0.150913
14810.00000000 9460.00000000 -20.00000000 133 151 113 0.000000 0.000000 0.000000 0.000000 -60.708740 0.000000 71.000000 -0.672338 0.736232 0.076963
14800.00000000 9450.00000000 -20.00000000 133 151 113 0.000000 0.000000 0.000000 0.000000 -60.708740 0.000000 71.000000 0.887824 -0.455612 0.064694
14810.00000000 9450.00000000 -50.00000000 133 151 113 0.000000 0.000000 0.000000 0.000000 -60.708740 0.000000 71.000000 0.789072 -0.593683 -0.157814
14810.00000000 9470.00000000 -90.00000000 133 151 113 0.000000 0.000000 0.000000 0.000000 -60.708740 0.000000 71.000000 0.967893 -0.142677 -0.206947
14810.00000000 9480.00000000 -80.00000000 133 151 113 0.000000 0.000000 0.000000 0.000000 -60.708740 0.000000 71.000000 0.990111 -0.139531 -0.014511
14780.00000000 9460.00000000 -70.00000000 133 151 113 0.000000 0.000000 0.000000 0.000000 -60.708740 0.000000 71.000000 0.813713 -0.575483 -0.081802
14780.00000000 9460.00000000 -100.00000000 133 151 113 0.000000 0.000000 0.000000 0.000000 -60.708740 0.000000 71.000000 0.950961 -0.076544 0.299689
14800.00000000 9410.00000000 -20.00000000 133 151 113 0.000000 0.000000 0.000000 0.000000 -60.708740 0.000000 71.000000 0.995634 -0.093040 0.007486
14760.00000000 9470.00000000 -30.00000000 133 151 113 0.000000 0.000000 0.000000 0.000000 -60.708740 0.000000 71.000000 0.960433 -0.167318 0.222652
14760.00000000 9480.00000000 -70.00000000 133 151 113 0.000000 0.000000 0.000000 0.000000 -60.708740 0.000000 71.000000 0.986954 -0.086285 -0.135928
14770.00000000 9450.00000000 -110.00000000 133 151 113 0.000000 0.000000 0.000000 0.000000 -60.708740 0.000000 71.000000 0.956312 -0.083887 -0.280054
14720.00000000 9540.00000000 -70.00000000 133 151 113 0.000000 0.000000 0.000000 0.000000 -60.708740 0.000000 71.000000 0.911935 -0.400595 -0.088869
14720.00000000 9500.00000000 -50.00000000 133 151 113 0.000000 0.000000 0.000000 0.000000 -60.708740 0.000000 71.000000 0.789638 -0.605730 0.097793
14720.00000000 9500.00000000 -50.00000000 133 151 113 0.000000 0.000000 0.000000 0.000000 -60.708740 0.000000 71.000000 0.789638 -0.605730 0.097793
14730.00000000 9510.00000000 -60.00000000 133 151 113 0.000000 0.000000 0.000000 0.000000 -60.708740 0.000000 71.000000 0.969007 -0.240709 0.055548
14730.00000000 9510.00000000 -70.00000000 133 151 113 0.000000 0.000000 0.000000 0.000000 -60.708740 0.000000 71.000000 0.930500 -0.294212 -0.218196
14680.00000000 9490.00000000 -40.00000000 133 151 113 0.000000 0.000000 0.000000 0.000000 -60.708740 0.000000 71.000000 0.804334 -0.593906 0.017997
14680.00000000 9490.00000000 -40.00000000 133 151 113 0.000000 0.000000 0.000000 0.000000 -60.708740 0.000000 71.000000 0.804334 -0.593906 0.017997
14660.00000000 9510.00000000 -40.00000000 133 151 113 0.000000 0.000000 0.000000 0.000000 -60.708740 0.000000 71.000000 0.950984 -0.247554 0.185327
14690.00000000 9530.00000000 -130.00000000 133 151 113 0.000000 0.000000 0.000000 0.000000 -60.708740 0.000000 71.000000 0.998239 0.005183 0.059086
14710.00000000 9510.00000000 -140.00000000 133 151 113 0.000000 0.000000 0.000000 0.000000 -60.708740 0.000000 71.000000 0.966528 -0.233652 0.105973
14690.00000000 9510.00000000 -140.00000000 133 151 113 0.000000 0.000000 0.000000 0.000000 -60.708740 0.000000 71.000000 0.893934 -0.128919 0.429258
14690.00000000 9510.00000000 -130.00000000 133 151 113 0.000000 0.000000 0.000000 0.000000 -60.708740 0.000000 71.000000 0.962008 0.006066 0.272953
14660.00000000 9510.00000000 -120.00000000 133 151 113 0.000000 0.000000 0.000000 0.000000 -60.708740 0.000000 71.000000 0.952632 -0.065566 -0.296974
14660.00000000 9520.00000000 -150.00000000 133 151 113 0.000000 0.000000 0.000000 0.000000 -60.708740 0.000000 71.000000 0.882937 -0.268329 0.385255
14660.00000000 9520.00000000 -150.00000000 133 151 113 0.000000 0.000000 0.000000 0.000000 -60.708740 0.000000 71.000000 0.882937 -0.268329 0.385255
14730.00000000 9480.00000000 -60.00000000 133 151 113 0.000000 0.000000 0.000000 0.000000 -60.708740 0.000000 71.000000 0.986131 -0.136797 0.093974
14730.00000000 9460.00000000 -90.00000000 133 151 113 0.000000 0.000000 0.000000 0.000000 -60.708740 0.000000 71.000000 0.957306 -0.240322 -0.160657
14700.00000000 9440.00000000 -50.00000000 133 151 113 0.000000 0.000000 0.000000 0.000000 -60.708740 0.000000 71.000000 0.991551 -0.009949 -0.129333
14700.00000000 9430.00000000 -60.00000000 133 151 113 0.000000 0.000000 0.000000 0.000000 -60.708740 0.000000 71.000000 0.923547 -0.287803 -0.253438
14700.00000000 9440.00000000 -100.00000000 133 151 113 0.000000 0.000000 0.000000 0.000000 -60.708740 0.000000 71.000000 0.880247 -0.392725 -0.266331
14680.00000000 9480.00000000 -40.00000000 133 151 113 0.000000 0.000000 0.000000 0.000000 -60.708740 0.000000 71.000000 0.941344 -0.289117 -0.174018
14670.00000000 9470.00000000 -20.00000000 133 151 113 0.000000 0.000000 0.000000 0.000000 -60.708740 0.000000 71.000000 0.858822 -0.502760 0.098273
14670.00000000 9470.00000000 -20.00000000 133 151 113 0.000000 0.000000 0.000000 0.000000 -60.708740 0.000000 71.000000 0.858822 -0.502760 0.098273
14690.00000000 9470.00000000 -140.00000000 133 151 113 0.000000 0.000000 0.000000 0.000000 -60.708740 0.000000 71.000000 0.771485 -0.636234 -0.004140
14670.00000000 9470.00000000 -120.00000000 133 151 113 0.000000 0.000000 0.000000 0.000000 -60.708740 0.000000 71.000000 0.846941 -0.531547 -0.012235
14650.00000000 9530.00000000 -190.00000000 133 151 113 0.000000 0.000000 0.000000 0.000000 -60.708740 0.000000 71.000000 0.878333 -0.477501 -0.022866
14640.00000000 9660.00000000 -100.00000000 133 151 113 0.000000 0.000000 0.000000 0.000000 -60.708740 0.000000 71.000000 0.915709 -0.400705 -0.030217
14640.00000000 9660.00000000 -110.00000000 133 151 113 0.000000 0.000000 0.000000 0.000000 -60.708740 0.000000 71.000000 0.760612 -0.519561 -0.389264
14630.00000000 9640.00000000 -90.00000000 133 151 113 0.000000 0.000000 0.000000 0.000000 -60.708740 0.000000 71.000000 0.735722 -0.676639 0.029541
14640.00000000 9620.00000000 -120.00000000 133 151 113 0.000000 0.000000 0.000000 0.000000 -60.708740 0.000000 71.000000 0.934436 -0.348591 -0.072899
14620.00000000 9610.00000000 -140.00000000 133 151 113 0.000000 0.000000 0.000000 0.000000 -60.708740 0.000000 71.000000 0.953942 -0.268586 -0.133631
14640.00000000 9650.00000000 -120.00000000 133 151 113 0.000000 0.000000 0.000000 0.000000 -60.708740 0.000000 71.000000 0.743572 -0.599655 -0.295830
14640.00000000 9570.00000000 -140.00000000 133 151 113 0.000000 0.000000 0.000000 0.000000 -60.708740 0.000000 71.000000 0.750700 -0.569887 0.334183
14630.00000000 9570.00000000 -170.00000000 133 151 113 0.000000 0.000000 0.000000 0.000000 -60.708740 0.000000 71.000000 0.875980 -0.478685 -0.059318
14610.00000000 9490.00000000 -30.00000000 133 151 113 0.000000 0.000000 0.000000 0.000000 -60.708740 0.000000 71.000000 0.898271 -0.414258 -0.146627
14610.00000000 9490.00000000 -40.00000000 133 151 113 0.000000 0.000000 0.000000 0.000000 -60.708740 0.000000 71.000000 0.892213 -0.159993 -0.422324
14610.00000000 9490.00000000 -30.00000000 133 151 113 0.000000 0.000000 0.000000 0.000000 -60.708740 0.000000 71.000000 0.898271 -0.414258 -0.146627
14610.00000000 9500.00000000 -70.00000000 133 151 113 0.000000 0.000000 0.000000 0.000000 -60.708740 0.000000 71.000000 0.993231 -0.001085 -0.116148
14630.00000000 9500.00000000 -100.00000000 133 151 113 0.000000 0.000000 0.000000 0.000000 -60.708740 0.000000 71.000000 0.995895 0.055875 -0.071214
14580.00000000 9490.00000000 -30.00000000 133 151 113 0.000000 0.000000 0.000000 0.000000 -60.708740 0.000000 71.000000 0.974392 -0.200867 0.101057
14640.00000000 9560.00000000 -130.00000000 133 151 113 0.000000 0.000000 0.000000 0.000000 -60.708740 0.000000 71.000000 0.935714 -0.264350 -0.233579
14620.00000000 9510.00000000 -140.00000000 133 151 113 0.000000 0.000000 0.000000 0.000000 -60.708740 0.000000 71.000000 0.997077 0.052933 -0.055093
14590.00000000 9540.00000000 -140.00000000 133 151 113 0.000000 0.000000 0.000000 0.000000 -60.708740 0.000000 71.000000 0.899866 -0.368460 0.233407
14590.00000000 9520.00000000 -160.00000000 133 151 113 0.000000 0.000000 0.000000 0.000000 -60.708740 0.000000 71.000000 0.815719 -0.545331 0.192917
14640.00000000 9480.00000000 -30.00000000 133 151 113 0.000000 0.000000 0.000000 0.000000 -60.708740 0.000000 71.000000 0.806200 -0.574584 -0.141048
14640.00000000 9470.00000000 -20.00000000 133 151 113 0.000000 0.000000 0.000000 0.000000 -60.708740 0.000000 71.000000 0.921233 -0.333574 -0.200145
14620.00000000 9480.00000000 -100.00000000 133 151 113 0.000000 0.000000 0.000000 0.000000 -60.708740 0.000000 71.000000 0.829815 -0.529701 0.175567
14620.00000000 9470.00000000 -90.00000000 133 151 113 0.000000 0.000000 0.000000 0.000000 -60.708740 0.000000 71.000000 0.958232 -0.192710 0.211316
14620.00000000 9480.00000000 -100.00000000 133 151 113 0.000000 0.000000 0.000000 0.000000 -60.708740 0.000000 71.000000 0.829815 -0.529701 0.175567
14570.00000000 9480.00000000 -20.00000000 133 151 113 0.000000 0.000000 0.000000 0.000000 -60.708740 0.000000 71.000000 0.986887 -0.093594 0.131506
14570.00000000 9450.00000000 -30.00000000 133 151 113 0.000000 0.000000 0.000000 0.000000 -60.708740 0.000000 71.000000 0.769550 -0.602324 -0.212129
14580.00000000 9470.00000000 -60.00000000 133 151 113 0.000000 0.000000 0.000000 0.000000 -60.708740 0.000000 71.000000 0.855657 -0.511703 -0.077531
14570.00000000 9470.00000000 -20.00000000 133 151 113 0.000000 0.000000 0.000000 0.000000 -60.708740 0.000000 71.000000 0.993934 -0.109713 -0.007604
14570.00000000 9480.00000000 -40.00000000 133 151 113 0.000000 0.000000 0.000000 0.000000 -60.708740 0.000000 71.000000 0.904262 -0.426389 -0.022442
14570.00000000 9480.00000000 -50.00000000 133 151 113 0.000000 0.000000 0.000000 0.000000 -60.708740 0.000000 71.000000 0.899005 -0.300656 -0.318428
14600.00000000 9410.00000000 -50.00000000 133 151 113 0.000000 0.000000 0.000000 0.000000 -60.708740 0.000000 71.000000 0.929331 -0.192034 0.315384
14600.00000000 9480.00000000 -120.00000000 133 151 113 0.000000 0.000000 0.000000 0.000000 -60.708740 0.000000 71.000000 0.992695 -0.113291 -0.041502
14610.00000000 9520.00000000 -210.00000000 133 151 113 0.000000 0.000000 0.000000 0.000000 -60.708740 0.000000 71.000000 0.853585 -0.442883 0.274312
14630.00000000 9380.00000000 -30.00000000 133 151 113 0.000000 0.000000 0.000000 0.000000 -60.708740 0.000000 71.000000 0.837828 -0.488605 0.243537
14640.00000000 9390.00000000 -50.00000000 133 151 113 0.000000 0.000000 0.000000 0.000000 -60.708740 0.000000 71.000000 0.792524 -0.587223 -0.164543
14620.00000000 9360.00000000 -30.00000000 133 151 113 0.000000 0.000000 0.000000 0.000000 -60.708740 0.000000 71.000000 0.813222 -0.473983 -0.337654
14630.00000000 9370.00000000 -30.00000000 133 151 113 0.000000 0.000000 0.000000 0.000000 -60.708740 0.000000 71.000000 0.958281 -0.265829 -0.105035
14620.00000000 9360.00000000 -30.00000000 133 151 113 0.000000 0.000000 0.000000 0.000000 -60.708740 0.000000 71.000000 0.813222 -0.473983 -0.337654
14630.00000000 9370.00000000 -50.00000000 133 151 113 0.000000 0.000000 0.000000 0.000000 -60.708740 0.000000 71.000000 0.829431 -0.399707 -0.390228
14570.00000000 9380.00000000 -40.00000000 133 151 113 0.000000 0.000000 0.000000 0.000000 -60.708740 0.000000 71.000000 0.930443 -0.345671 0.121600
14570.00000000 9300.00000000 -30.00000000 133 151 113 0.000000 0.000000 0.000000 0.000000 -60.708740 0.000000 71.000000 0.985898 -0.115918 0.120698
15100.00000000 9820.00000000 20.00000000 133 151 113 0.000000 0.000000 0.000000 0.000000 -60.708740 0.000000 71.000000 0.830452 -0.387544 -0.400199
15100.00000000 9820.00000000 20.00000000 133 151 113 0.000000 0.000000 0.000000 0.000000 -60.708740 0.000000 71.000000 0.830452 -0.387544 -0.400199
15100.00000000 9840.00000000 10.00000000 133 151 113 0.000000 0.000000 0.000000 0.000000 -60.708740 0.000000 71.000000 0.894263 -0.290152 -0.340742
15150.00000000 9850.00000000 20.00000000 133 151 113 0.000000 0.000000 0.000000 0.000000 -60.708740 0.000000 71.000000 -0.318517 0.539397 0.779485
15110.00000000 9750.00000000 30.00000000 133 151 113 0.000000 0.000000 0.000000 0.000000 -60.708740 0.000000 71.000000 -0.555924 0.733032 0.391934
15110.00000000 9740.00000000 0.00000000 133 151 113 0.000000 0.000000 0.000000 0.000000 -60.708740 0.000000 71.000000 0.800388 -0.541393 -0.257435
15030.00000000 9820.00000000 -10.00000000 133 151 113 0.000000 0.000000 0.000000 0.000000 -60.708740 0.000000 71.000000 0.842337 -0.207182 -0.497538
15060.00000000 9850.00000000 -10.00000000 133 151 113 0.000000 0.000000 0.000000 0.000000 -60.708740 0.000000 71.000000 0.524619 -0.477986 -0.704488
15060.00000000 9850.00000000 -10.00000000 133 151 113 0.000000 0.000000 0.000000 0.000000 -60.708740 0.000000 71.000000 0.524619 -0.477986 -0.704488
15040.00000000 9820.00000000 10.00000000 133 151 113 0.000000 0.000000 0.000000 0.000000 -60.708740 0.000000 71.000000 -0.459620 0.763852 0.453077
15040.00000000 9780.00000000 30.00000000 133 151 113 0.000000 0.000000 0.000000 0.000000 -60.708740 0.000000 71.000000 -0.602478 0.260916 0.754283
15030.00000000 9810.00000000 0.00000000 133 151 113 0.000000 0.000000 0.000000 0.000000 -60.708740 0.000000 71.000000 0.870706 -0.271054 -0.410367
15030.00000000 9810.00000000 -10.00000000 133 151 113 0.000000 0.000000 0.000000 0.000000 -60.708740 0.000000 71.000000 0.871324 -0.034089 -0.489523
15040.00000000 9800.00000000 0.00000000 133 151 113 0.000000 0.000000 0.000000 0.000000 -60.708740 0.000000 71.000000 0.496184 -0.613922 -0.613922
15030.00000000 9750.00000000 60.00000000 133 151 113 0.000000 0.000000 0.000000 0.000000 -60.708740 0.000000 71.000000 -0.380477 0.660481 0.647304
15050.00000000 9770.00000000 20.00000000 133 151 113 0.000000 0.000000 0.000000 0.000000 -60.708740 0.000000 71.000000 0.877621 -0.421675 -0.227973
15590.00000000 9720.00000000 200.00000000 133 151 113 0.000000 0.000000 0.000000 0.000000 -60.708740 0.000000 71.000000 0.411185 -0.033053 0.910953
15590.00000000 9730.00000000 210.00000000 133 151 113 0.000000 0.000000 0.000000 0.000000 -60.708740 0.000000 71.000000 0.509320 0.051348 0.859044
15610.00000000 9700.00000000 160.00000000 133 151 113 0.000000 0.000000 0.000000 0.000000 -60.708740 0.000000 71.000000 0.359246 0.149569 0.921179
15590.00000000 9660.00000000 180.00000000 133 151 113 0.000000 0.000000 0.000000 0.000000 -60.708740 0.000000 71.000000 0.281277 0.038754 0.958844
15500.00000000 9730.00000000 240.00000000 133 151 113 0.000000 0.000000 0.000000 0.000000 -60.708740 0.000000 71.000000 0.098319 0.161437 0.981973
15560.00000000 9720.00000000 240.00000000 133 151 113 0.000000 0.000000 0.000000 0.000000 -60.708740 0.000000 71.000000 0.610008 -0.061429 0.790010
15550.00000000 9670.00000000 200.00000000 133 151 113 0.000000 0.000000 0.000000 0.000000 -60.708740 0.000000 71.000000 0.587089 -0.135253 0.798144
15570.00000000 9680.00000000 170.00000000 133 151 113 0.000000 0.000000 0.000000 0.000000 -60.708740 0.000000 71.000000 0.409837 0.403459 0.818080
15540.00000000 9670.00000000 170.00000000 133 151 113 0.000000 0.000000 0.000000 0.000000 -60.708740 0.000000 71.000000 0.332922 0.423577 0.842464
15560.00000000 9670.00000000 180.00000000 133 151 113 0.000000 0.000000 0.000000 0.000000 -60.708740 0.000000 71.000000 0.404078 -0.130938 0.905304
15550.00000000 9650.00000000 150.00000000 133 151 113 0.000000 0.000000 0.000000 0.000000 -60.708740 0.000000 71.000000 0.210549 -0.163470 0.963819
15560.00000000 9650.00000000 190.00000000 133 151 113 0.000000 0.000000 0.000000 0.000000 -60.708740 0.000000 71.000000 0.236810 0.285023 0.928807
15550.00000000 9640.00000000 150.00000000 133 151 113 0.000000 0.000000 0.000000 0.000000 -60.708740 0.000000 71.000000 0.341768 -0.207349 0.916625
15560.00000000 9650.00000000 190.00000000 133 151 113 0.000000 0.000000 0.000000 0.000000 -60.708740 0.000000 71.000000 0.236810 0.285023 0.928807
15540.00000000 9630.00000000 150.00000000 133 151 113 0.000000 0.000000 0.000000 0.000000 -60.708740 0.000000 71.000000 0.306169 -0.068468 0.949512
15520.00000000 9650.00000000 200.00000000 133 151 113 0.000000 0.000000 0.000000 0.000000 -60.708740 0.000000 71.000000 0.430763 0.379898 0.818609
15500.00000000 9630.00000000 200.00000000 133 151 113 0.000000 0.000000 0.000000 0.000000 -60.708740 0.000000 71.000000 0.476052 -0.192510 0.858088
15520.00000000 9630.00000000 220.00000000 133 151 113 0.000000 0.000000 0.000000 0.000000 -60.708740 0.000000 71.000000 0.447792 -0.099665 0.888566
15520.00000000 9650.00000000 200.00000000 133 151 113 0.000000 0.000000 0.000000 0.000000 -60.708740 0.000000 71.000000 0.430763 0.379898 0.818609
15520.00000000 9630.00000000 220.00000000 133 151 113 0.000000 0.000000 0.000000 0.000000 -60.708740 0.000000 71.000000 0.447792 -0.099665 0.888566
15490.00000000 9620.00000000 200.00000000 133 151 113 0.000000 0.000000 0.000000 0.000000 -60.708740 0.000000 71.000000 0.593491 0.037882 0.803949
15490.00000000 9610.00000000 160.00000000 133 151 113 0.000000 0.000000 0.000000 0.000000 -60.708740 0.000000 71.000000 0.096322 0.370365 0.923878
15490.00000000 9650.00000000 160.00000000 133 151 113 0.000000 0.000000 0.000000 0.000000 -60.708740 0.000000 71.000000 0.048647 0.372084 0.926923
15490.00000000 9610.00000000 160.00000000 133 151 113 0.000000 0.000000 0.000000 0.000000 -60.708740 0.000000 71.000000 0.096322 0.370365 0.923878
15530.00000000 9630.00000000 150.00000000 133 151 113 0.000000 0.000000 0.000000 0.000000 -60.708740 0.000000 71.000000 0.079907 0.077656 0.993773
15500.00000000 9580.00000000 160.00000000 133 151 113 0.000000 0.000000 0.000000 0.000000 -60.708740 0.000000 71.000000 0.434696 -0.132547 0.890770
15510.00000000 9600.00000000 160.00000000 133 151 113 0.000000 0.000000 0.000000 0.000000 -60.708740 0.000000 71.000000 0.140135 0.409080 0.901674
15510.00000000 9600.00000000 160.00000000 133 151 113 0.000000 0.000000 0.000000 0.000000 -60.708740 0.000000 71.000000 0.140135 0.409080 0.901674
15550.00000000 9710.00000000 130.00000000 133 151 113 0.000000 0.000000 0.000000 0.000000 -60.708740 0.000000 71.000000 0.066561 -0.055649 0.996229
15490.00000000 9560.00000000 190.00000000 133 151 113 0.000000 0.000000 0.000000 0.000000 -60.708740 0.000000 71.000000 0.095537 -0.093235 0.991050
15490.00000000 9550.00000000 210.00000000 133 151 113 0.000000 0.000000 0.000000 0.000000 -60.708740 0.000000 71.000000 0.549190 -0.048910 0.834265
15170.00000000 9600.00000000 340.00000000 133 151 113 0.000000 0.000000 0.000000 0.000000 -60.708740 0.000000 71.000000 -0.371561 0.365343 0.853503
15190.00000000 9570.00000000 330.00000000 133 151 113 0.000000 0.000000 0.000000 0.000000 -60.708740 0.000000 71.000000 -0.560892 0.234612 0.793950
15240.00000000 9530.00000000 330.00000000 133 151 113 0.000000 0.000000 0.000000 0.000000 -60.708740 0.000000 71.000000 -0.225942 0.474629 0.850693
15280.00000000 9500.00000000 350.00000000 133 151 113 0.000000 0.000000 0.000000 0.000000 -60.708740 0.000000 71.000000 -0.211128 0.514908 0.830840
15280.00000000 9440.00000000 320.00000000 133 151 113 0.000000 0.000000 0.000000 0.000000 -60.708740 0.000000 71.000000 0.086201 0.685225 0.723212
15230.00000000 9550.00000000 320.00000000 133 151 113 0.000000 0.000000 0.000000 0.000000 -60.708740 0.000000 71.000000 0.262487 0.510996 0.818525
15220.00000000 9530.00000000 320.00000000 133 151 113 0.000000 0.000000 0.000000 0.000000 -60.708740 0.000000 71.000000 -0.022866 0.477501 0.878333
15230.00000000 9520.00000000 330.00000000 133 151 113 0.000000 0.000000 0.000000 0.000000 -60.708740 0.000000 71.000000 0.063974 0.426039 0.902440
15220.00000000 9520.00000000 340.00000000 133 151 113 0.000000 0.000000 0.000000 0.000000 -60.708740 0.000000 71.000000 -0.140206 0.469762 0.871588
15180.00000000 9560.00000000 330.00000000 133 151 113 0.000000 0.000000 0.000000 0.000000 -60.708740 0.000000 71.000000 -0.148439 0.610248 0.778179
15190.00000000 9560.00000000 330.00000000 133 151 113 0.000000 0.000000 0.000000 0.000000 -60.708740 0.000000 71.000000 -0.185486 0.529314 0.827902
15190.00000000 9460.00000000 330.00000000 133 151 113 0.000000 0.000000 0.000000 0.000000 -60.708740 0.000000 71.000000 0.050002 0.092226 0.994482
15180.00000000 9420.00000000 320.00000000 133 151 113 0.000000 0.000000 0.000000 0.000000 -60.708740 0.000000 71.000000 0.393517 -0.568047 -0.722819
15160.00000000 9420.00000000 340.00000000 133 151 113 0.000000 0.000000 0.000000 0.000000 -60.708740 0.000000 71.000000 0.087757 0.452717 0.887325
15170.00000000 9440.00000000 340.00000000 133 151 113 0.000000 0.000000 0.000000 0.000000 -60.708740 0.000000 71.000000 0.172767 0.276155 0.945457
15430.00000000 9640.00000000 250.00000000 133 151 113 0.000000 0.000000 0.000000 0.000000 -60.708740 0.000000 71.000000 0.378228 -0.016781 0.925561
15440.00000000 9630.00000000 240.00000000 133 151 113 0.000000 0.000000 0.000000 0.000000 -60.708740 0.000000 71.000000 0.434482 -0.072642 0.897746
15430.00000000 9570.00000000 250.00000000 133 151 113 0.000000 0.000000 0.000000 0.000000 -60.708740 0.000000 71.000000 0.576176 0.052123 0.815662
15410.00000000 9590.00000000 260.00000000 133 151 113 0.000000 0.000000 0.000000 0.000000 -60.708740 0.000000 71.000000 0.426015 0.125964 0.895904
15430.00000000 9580.00000000 250.00000000 133 151 113 0.000000 0.000000 0.000000 0.000000 -60.708740 0.000000 71.000000 0.332776 0.111823 0.936352
15470.00000000 9630.00000000 230.00000000 133 151 113 0.000000 0.000000 0.000000 0.000000 -60.708740 0.000000 71.000000 -0.047247 0.028348 0.998481
15470.00000000 9640.00000000 170.00000000 133 151 113 0.000000 0.000000 0.000000 0.000000 -60.708740 0.000000 71.000000 -0.056984 0.372386 0.926327
15460.00000000 9580.00000000 220.00000000 133 151 113 0.000000 0.000000 0.000000 0.000000 -60.708740 0.000000 71.000000 0.587518 0.383450 0.712592
15460.00000000 9570.00000000 200.00000000 133 151 113 0.000000 0.000000 0.000000 0.000000 -60.708740 0.000000 71.000000 0.381775 -0.163212 0.909731
15440.00000000 9620.00000000 190.00000000 133 151 113 0.000000 0.000000 0.000000 0.000000 -60.708740 0.000000 71.000000 0.537833 0.257224 0.802852
15410.00000000 9600.00000000 230.00000000 133 151 113 0.000000 0.000000 0.000000 0.000000 -60.708740 0.000000 71.000000 0.302950 -0.001227 0.953006
15370.00000000 9570.00000000 240.00000000 133 151 113 0.000000 0.000000 0.000000 0.000000 -60.708740 0.000000 71.000000 -0.237150 0.488069 0.839969
15400.00000000 9570.00000000 240.00000000 133 151 113 0.000000 0.000000 0.000000 0.000000 -60.708740 0.000000 71.000000 0.332967 0.456054 0.825316
15400.00000000 9590.00000000 260.00000000 133 151 113 0.000000 0.000000 0.000000 0.000000 -60.708740 0.000000 71.000000 0.094686 0.231035 0.968327
15340.00000000 9630.00000000 270.00000000 133 151 113 0.000000 0.000000 0.000000 0.000000 -60.708740 0.000000 71.000000 0.294515 0.274204 0.915463
15360.00000000 9630.00000000 270.00000000 133 151 113 0.000000 0.000000 0.000000 0.000000 -60.708740 0.000000 71.000000 -0.041697 0.296936 0.953986
15400.00000000 9630.00000000 230.00000000 133 151 113 0.000000 0.000000 0.000000 0.000000 -60.708740 0.000000 71.000000 -0.113266 0.494644 0.861683
15400.00000000 9610.00000000 230.00000000 133 151 113 0.000000 0.000000 0.000000 0.000000 -60.708740 0.000000 71.000000 -0.021739 0.040372 0.998948
15370.00000000 9590.00000000 230.00000000 133 151 113 0.000000 0.000000 0.000000 0.000000 -60.708740 0.000000 71.000000 0.295575 0.062698 0.953260
15390.00000000 9590.00000000 230.00000000 133 151 113 0.000000 0.000000 0.000000 0.000000 -60.708740 0.000000 71.000000 0.148478 0.388870 0.909249
15410.00000000 9540.00000000 230.00000000 133 151 113 0.000000 0.000000 0.000000 0.000000 -60.708740 0.000000 71.000000 0.354774 0.053674 0.933410
15350.00000000 9540.00000000 270.00000000 133 151 113 0.000000 0.000000 0.000000 0.000000 -60.708740 0.000000 71.000000 -0.119828 0.625770 0.770748
15350.00000000 9540.00000000 270.00000000 133 151 113 0.000000 0.000000 0.000000 0.000000 -60.708740 0.000000 71.000000 -0.119828 0.625770 0.770748
15340.00000000 9450.00000000 250.00000000 133 151 113 0.000000 0.000000 0.000000 0.000000 -60.708740 0.000000 71.000000 -0.098321 0.294963 0.950437
15330.00000000 9440.00000000 260.00000000 133 151 113 0.000000 0.000000 0.000000 0.000000 -60.708740 0.000000 71.000000 0.147713 0.016914 0.988886
15330.00000000 9460.00000000 230.00000000 133 151 113 0.000000 0.000000 0.000000 0.000000 -60.708740 0.000000 71.000000 0.407489 0.226712 0.884621
15290.00000000 9600.00000000 270.00000000 133 151 113 0.000000 0.000000 0.000000 0.000000 -60.708740 0.000000 71.000000 -0.291910 0.156138 0.943615
15260.00000000 9570.00000000 280.00000000 133 151 113 0.000000 0.000000 0.000000 0.000000 -60.708740 0.000000 71.000000 -0.133967 0.543228 0.828828
15260.00000000 9580.00000000 270.00000000 133 151 113 0.000000 0.000000 0.000000 0.000000 -60.708740 0.000000 71.000000 -0.271860 0.330641 0.903752
15190.00000000 9660.00000000 310.00000000 133 151 113 0.000000 0.000000 0.000000 0.000000 -60.708740 0.000000 71.000000 0.067479 0.276280 0.958705
15160.00000000 9660.00000000 160.00000000 133 151 113 0.000000 0.000000 0.000000 0.000000 -60.708740 0.000000 71.000000 -0.315693 0.701001 0.639481
15220.00000000 9620.00000000 290.00000000 133 151 113 0.000000 0.000000 0.000000 0.000000 -60.708740 0.000000 71.000000 -0.358443 0.685789 0.633413
15210.00000000 9590.00000000 310.00000000 133 151 113 0.000000 0.000000 0.000000 0.000000 -60.708740 0.000000 71.000000 0.151302 0.582736 0.798453
15210.00000000 9590.00000000 310.00000000 133 151 113 0.000000 0.000000 0.000000 0.000000 -60.708740 0.000000 71.000000 0.151302 0.582736 0.798453
15230.00000000 9600.00000000 260.00000000 133 151 113 0.000000 0.000000 0.000000 0.000000 -60.708740 0.000000 71.000000 -0.201253 0.374997 0.904917
15210.00000000 9570.00000000 210.00000000 133 151 113 0.000000 0.000000 0.000000 0.000000 -60.708740 0.000000 71.000000 0.113305 0.489078 0.864850
15270.00000000 9600.00000000 100.00000000 133 151 113 0.000000 0.000000 0.000000 0.000000 -60.708740 0.000000 71.000000 0.019641 0.181392 0.983215
15170.00000000 9700.00000000 80.00000000 133 151 113 0.000000 0.000000 0.000000 0.000000 -60.708740 0.000000 71.000000 -0.519720 0.650911 0.553359
15180.00000000 9710.00000000 70.00000000 133 151 113 0.000000 0.000000 0.000000 0.000000 -60.708740 0.000000 71.000000 0.662629 -0.609218 -0.435633
15160.00000000 9680.00000000 80.00000000 133 151 113 0.000000 0.000000 0.000000 0.000000 -60.708740 0.000000 71.000000 -0.359187 0.687211 0.631447
15160.00000000 9680.00000000 80.00000000 133 151 113 0.000000 0.000000 0.000000 0.000000 -60.708740 0.000000 71.000000 -0.359187 0.687211 0.631447
15160.00000000 9700.00000000 60.00000000 133 151 113 0.000000 0.000000 0.000000 0.000000 -60.708740 0.000000 71.000000 -0.493809 0.741539 0.454172
15220.00000000 9610.00000000 100.00000000 133 151 113 0.000000 0.000000 0.000000 0.000000 -60.708740 0.000000 71.000000 -0.169208 0.469368 0.866639
15210.00000000 9580.00000000 110.00000000 133 151 113 0.000000 0.000000 0.000000 0.000000 -60.708740 0.000000 71.000000 -0.058486 0.626232 0.777440
15160.00000000 9650.00000000 120.00000000 133 151 113 0.000000 0.000000 0.000000 0.000000 -60.708740 0.000000 71.000000 -0.335192 0.341259 0.878173
15160.00000000 9650.00000000 120.00000000 133 151 113 0.000000 0.000000 0.000000 0.000000 -60.708740 0.000000 71.000000 -0.335192 0.341259 0.878173
15190.00000000 9600.00000000 130.00000000 133 151 113 0.000000 0.000000 0.000000 0.000000 -60.708740 0.000000 71.000000 -0.137761 0.421806 0.896159
15300.00000000 9550.00000000 300.00000000 133 151 113 0.000000 0.000000 0.000000 0.000000 -60.708740 0.000000 71.000000 -0.184039 0.330146 0.925815
15280.00000000 9540.00000000 290.00000000 133 151 113 0.000000 0.000000 0.000000 0.000000 -60.708740 0.000000 71.000000 0.285988 0.330442 0.899455
15290.00000000 9560.00000000 240.00000000 133 151 113 0.000000 0.000000 0.000000 0.000000 -60.708740 0.000000 71.000000 0.304102 0.124588 0.944457
15300.00000000 9540.00000000 240.00000000 133 151 113 0.000000 0.000000 0.000000 0.000000 -60.708740 0.000000 71.000000 0.001266 0.360674 0.932691
15310.00000000 9530.00000000 240.00000000 133 151 113 0.000000 0.000000 0.000000 0.000000 -60.708740 0.000000 71.000000 -0.109835 0.477853 0.871546
15280.00000000 9500.00000000 300.00000000 133 151 113 0.000000 0.000000 0.000000 0.000000 -60.708740 0.000000 71.000000 0.284739 0.302261 0.909704
15320.00000000 9520.00000000 250.00000000 133 151 113 0.000000 0.000000 0.000000 0.000000 -60.708740 0.000000 71.000000 0.172906 0.677853 0.714576
15290.00000000 9510.00000000 250.00000000 133 151 113 0.000000 0.000000 0.000000 0.000000 -60.708740 0.000000 71.000000 0.195518 0.635819 0.746664
15250.00000000 9540.00000000 250.00000000 133 151 113 0.000000 0.000000 0.000000 0.000000 -60.708740 0.000000 71.000000 -0.091700 0.275099 0.957033
15270.00000000 9490.00000000 280.00000000 133 151 113 0.000000 0.000000 0.000000 0.000000 -60.708740 0.000000 71.000000 -0.124946 0.568870 0.812881
15270.00000000 9490.00000000 300.00000000 133 151 113 0.000000 0.000000 0.000000 0.000000 -60.708740 0.000000 71.000000 -0.021610 -0.033958 0.999190
15270.00000000 9490.00000000 280.00000000 133 151 113 0.000000 0.000000 0.000000 0.000000 -60.708740 0.000000 71.000000 -0.124946 0.568870 0.812881
15310.00000000 9550.00000000 220.00000000 133 151 113 0.000000 0.000000 0.000000 0.000000 -60.708740 0.000000 71.000000 -0.350063 0.319755 0.880462
15280.00000000 9470.00000000 290.00000000 133 151 113 0.000000 0.000000 0.000000 0.000000 -60.708740 0.000000 71.000000 -0.032481 -0.676454 -0.735768
15320.00000000 9410.00000000 280.00000000 133 151 113 0.000000 0.000000 0.000000 0.000000 -60.708740 0.000000 71.000000 -0.110098 0.213869 0.970638
15310.00000000 9440.00000000 260.00000000 133 151 113 0.000000 0.000000 0.000000 0.000000 -60.708740 0.000000 71.000000 0.162707 0.535888 0.828462
15310.00000000 9410.00000000 250.00000000 133 151 113 0.000000 0.000000 0.000000 0.000000 -60.708740 0.000000 71.000000 0.240451 0.027791 0.970263
15260.00000000 9470.00000000 300.00000000 133 151 113 0.000000 0.000000 0.000000 0.000000 -60.708740 0.000000 71.000000 -0.398607 0.200034 0.895041
15270.00000000 9480.00000000 250.00000000 133 151 113 0.000000 0.000000 0.000000 0.000000 -60.708740 0.000000 71.000000 -0.236064 0.105910 0.965949
15270.00000000 9440.00000000 300.00000000 133 151 113 0.000000 0.000000 0.000000 0.000000 -60.708740 0.000000 71.000000 -0.096368 0.545129 0.832795
15290.00000000 9410.00000000 210.00000000 133 151 113 0.000000 0.000000 0.000000 0.000000 -60.708740 0.000000 71.000000 -0.123256 0.643012 0.755873
15290.00000000 9480.00000000 160.00000000 133 151 113 0.000000 0.000000 0.000000 0.000000 -60.708740 0.000000 71.000000 0.286796 0.457324 0.841786
15200.00000000 9560.00000000 300.00000000 133 151 113 0.000000 0.000000 0.000000 0.000000 -60.708740 0.000000 71.000000 0.170920 0.591413 0.788046
15220.00000000 9550.00000000 290.00000000 133 151 113 0.000000 0.000000 0.000000 0.000000 -60.708740 0.000000 71.000000 0.261220 0.409194 0.874256
15180.00000000 9560.00000000 240.00000000 133 151 113 0.000000 0.000000 0.000000 0.000000 -60.708740 0.000000 71.000000 -0.441193 0.371112 0.817083
15160.00000000 9490.00000000 270.00000000 133 151 113 0.000000 0.000000 0.000000 0.000000 -60.708740 0.000000 71.000000 -0.444805 0.247451 0.860765
15190.00000000 9510.00000000 270.00000000 133 151 113 0.000000 0.000000 0.000000 0.000000 -60.708740 0.000000 71.000000 0.181851 0.306787 0.934244
15170.00000000 9510.00000000 270.00000000 133 151 113 0.000000 0.000000 0.000000 0.000000 -60.708740 0.000000 71.000000 -0.306975 0.148713 0.940027
15200.00000000 9550.00000000 210.00000000 133 151 113 0.000000 0.000000 0.000000 0.000000 -60.708740 0.000000 71.000000 -0.392492 0.094362 0.914902
15220.00000000 9470.00000000 290.00000000 133 151 113 0.000000 0.000000 0.000000 0.000000 -60.708740 0.000000 71.000000 0.197599 0.414227 0.888465
15220.00000000 9460.00000000 310.00000000 133 151 113 0.000000 0.000000 0.000000 0.000000 -60.708740 0.000000 71.000000 0.194664 0.373466 0.906989
15200.00000000 9470.00000000 310.00000000 133 151 113 0.000000 0.000000 0.000000 0.000000 -60.708740 0.000000 71.000000 -0.337190 0.091961 0.936934
15210.00000000 9410.00000000 310.00000000 133 151 113 0.000000 0.000000 0.000000 0.000000 -60.708740 0.000000 71.000000 -0.085793 0.629635 0.772139
15190.00000000 9410.00000000 290.00000000 133 151 113 0.000000 0.000000 0.000000 0.000000 -60.708740 0.000000 71.000000 -0.145504 0.625518 0.766522
15180.00000000 9410.00000000 290.00000000 133 151 113 0.000000 0.000000 0.000000 0.000000 -60.708740 0.000000 71.000000 0.144493 0.582442 0.799927
15180.00000000 9420.00000000 310.00000000 133 151 113 0.000000 0.000000 0.000000 0.000000 -60.708740 0.000000 71.000000 -0.295951 0.587102 0.753475
15180.00000000 9400.00000000 290.00000000 133 151 113 0.000000 0.000000 0.000000 0.000000 -60.708740 0.000000 71.000000 -0.189695 0.439682 0.877893
15230.00000000 9460.00000000 170.00000000 133 151 113 0.000000 0.000000 0.000000 0.000000 -60.708740 0.000000 71.000000 -0.368340 0.159473 0.915911
15220.00000000 9460.00000000 170.00000000 133 151 113 0.000000 0.000000 0.000000 0.000000 -60.708740 0.000000 71.000000 0.150186 0.225932 0.962496
15220.00000000 9440.00000000 160.00000000 133 151 113 0.000000 0.000000 0.000000 0.000000 -60.708740 0.000000 71.000000 -0.212896 0.725713 0.654229
15220.00000000 9440.00000000 150.00000000 133 151 113 0.000000 0.000000 0.000000 0.000000 -60.708740 0.000000 71.000000 -0.378429 0.561909 0.735561
15290.00000000 9490.00000000 110.00000000 133 151 113 0.000000 0.000000 0.000000 0.000000 -60.708740 0.000000 71.000000 -0.138624 -0.005545 0.990330
15310.00000000 9520.00000000 80.00000000 133 151 113 0.000000 0.000000 0.000000 0.000000 -60.708740 0.000000 71.000000 0.176323 0.547052 0.818318
15260.00000000 9530.00000000 110.00000000 133 151 113 0.000000 0.000000 0.000000 0.000000 -60.708740 0.000000 71.000000 -0.294301 0.555196 0.777910
15270.00000000 9510.00000000 90.00000000 133 151 113 0.000000 0.000000 0.000000 0.000000 -60.708740 0.000000 71.000000 0.272147 0.415063 0.868135
15270.00000000 9560.00000000 -10.00000000 133 151 113 0.000000 0.000000 0.000000 0.000000 -60.708740 0.000000 71.000000 -0.129988 0.258662 0.957182
15290.00000000 9470.00000000 80.00000000 133 151 113 0.000000 0.000000 0.000000 0.000000 -60.708740 0.000000 71.000000 0.184225 0.455404 0.871016
15290.00000000 9480.00000000 80.00000000 133 151 113 0.000000 0.000000 0.000000 0.000000 -60.708740 0.000000 71.000000 0.201673 0.256550 0.945257
15310.00000000 9420.00000000 70.00000000 133 151 113 0.000000 0.000000 0.000000 0.000000 -60.708740 0.000000 71.000000 0.195583 0.639110 0.743832
15240.00000000 9440.00000000 110.00000000 133 151 113 0.000000 0.000000 0.000000 0.000000 -60.708740 0.000000 71.000000 -0.030507 0.049442 0.998311
15230.00000000 9540.00000000 110.00000000 133 151 113 0.000000 0.000000 0.000000 0.000000 -60.708740 0.000000 71.000000 -0.249427 0.307098 0.918410
15230.00000000 9550.00000000 80.00000000 133 151 113 0.000000 0.000000 0.000000 0.000000 -60.708740 0.000000 71.000000 -0.387642 0.501178 0.773663
15220.00000000 9550.00000000 100.00000000 133 151 113 0.000000 0.000000 0.000000 0.000000 -60.708740 0.000000 71.000000 -0.536294 0.185814 0.823324
15220.00000000 9550.00000000 100.00000000 133 151 113 0.000000 0.000000 0.000000 0.000000 -60.708740 0.000000 71.000000 -0.536294 0.185814 0.823324
15190.00000000 9550.00000000 120.00000000 133 151 113 0.000000 0.000000 0.000000 0.000000 -60.708740 0.000000 71.000000 -0.527104 0.537208 0.658459
15160.00000000 9520.00000000 50.00000000 133 151 113 0.000000 0.000000 0.000000 0.000000 -60.708740 0.000000 71.000000 -0.518077 0.139426 0.843894
15190.00000000 9420.00000000 120.00000000 133 151 113 0.000000 0.000000 0.000000 0.000000 -60.708740 0.000000 71.000000 -0.332485 0.086102 0.939170
15200.00000000 9400.00000000 130.00000000 133 151 113 0.000000 0.000000 0.000000 0.000000 -60.708740 0.000000 71.000000 -0.125617 0.142691 0.981764
15330.00000000 9280.00000000 320.00000000 133 151 113 0.000000 0.000000 0.000000 0.000000 -60.708740 0.000000 71.000000 0.242862 0.175773 0.954003
15260.00000000 9340.00000000 320.00000000 133 151 113 0.000000 0.000000 0.000000 0.000000 -60.708740 0.000000 71.000000 0.318905 0.189657 0.928617
15240.00000000 9330.00000000 350.00000000 133 151 113 0.000000 0.000000 0.000000 0.000000 -60.708740 0.000000 71.000000 -0.279262 0.070134 0.957650
15280.00000000 9300.00000000 330.00000000 133 151 113 0.000000 0.000000 0.000000 0.000000 -60.708740 0.000000 71.000000 0.176986 0.258049 0.949782
15290.00000000 9280.00000000 320.00000000 133 151 113 0.000000 0.000000 0.000000 0.000000 -60.708740 0.000000 71.000000 0.035492 0.149982 0.988051
15290.00000000 9250.00000000 330.00000000 133 151 113 0.000000 0.000000 0.000000 0.000000 -60.708740 0.000000 71.000000 0.181969 -0.126751 0.975101
15280.00000000 9230.00000000 320.00000000 133 151 113 0.000000 0.000000 0.000000 0.000000 -60.708740 0.000000 71.000000 0.225176 0.582352 0.781128
15300.00000000 9230.00000000 330.00000000 133 151 113 0.000000 0.000000 0.000000 0.000000 -60.708740 0.000000 71.000000 0.177166 0.010287 0.984127
15310.00000000 9230.00000000 330.00000000 133 151 113 0.000000 0.000000 0.000000 0.000000 -60.708740 0.000000 71.000000 0.398044 -0.161215 0.903089
15300.00000000 9230.00000000 330.00000000 133 151 113 0.000000 0.000000 0.000000 0.000000 -60.708740 0.000000 71.000000 0.177166 0.010287 0.984127
15270.00000000 9300.00000000 330.00000000 133 151 113 0.000000 0.000000 0.000000 0.000000 -60.708740 0.000000 71.000000 0.214263 0.233369 0.948488
15210.00000000 9340.00000000 390.00000000 133 151 113 0.000000 0.000000 0.000000 0.000000 -60.708740 0.000000 71.000000 0.254869 0.176655 0.950702
15200.00000000 9340.00000000 360.00000000 133 151 113 0.000000 0.000000 0.000000 0.000000 -60.708740 0.000000 71.000000 -0.320241 0.580939 0.748302
15160.00000000 9270.00000000 340.00000000 133 151 113 0.000000 0.000000 0.000000 0.000000 -60.708740 0.000000 71.000000 0.085892 0.217842 0.972197
15180.00000000 9240.00000000 330.00000000 133 151 113 0.000000 0.000000 0.000000 0.000000 -60.708740 0.000000 71.000000 -0.018335 0.272576 0.961960
15280.00000000 9220.00000000 330.00000000 133 151 113 0.000000 0.000000 0.000000 0.000000 -60.708740 0.000000 71.000000 0.181433 0.514311 0.838192
15290.00000000 9220.00000000 330.00000000 133 151 113 0.000000 0.000000 0.000000 0.000000 -60.708740 0.000000 71.000000 0.117199 0.519436 0.846434
15330.00000000 9370.00000000 230.00000000 133 151 113 0.000000 0.000000 0.000000 0.000000 -60.708740 0.000000 71.000000 0.451484 0.053196 0.890692
15280.00000000 9360.00000000 310.00000000 133 151 113 0.000000 0.000000 0.000000 0.000000 -60.708740 0.000000 71.000000 -0.104547 0.143001 0.984185
15280.00000000 9380.00000000 260.00000000 133 151 113 0.000000 0.000000 0.000000 0.000000 -60.708740 0.000000 71.000000 0.264576 0.533849 0.803122
15290.00000000 9320.00000000 310.00000000 133 151 113 0.000000 0.000000 0.000000 0.000000 -60.708740 0.000000 71.000000 0.473430 0.106628 0.874354
15290.00000000 9340.00000000 260.00000000 133 151 113 0.000000 0.000000 0.000000 0.000000 -60.708740 0.000000 71.000000 0.172451 0.666913 0.724905
15320.00000000 9350.00000000 240.00000000 133 151 113 0.000000 0.000000 0.000000 0.000000 -60.708740 0.000000 71.000000 0.243537 0.488605 0.837828
15250.00000000 9380.00000000 290.00000000 133 151 113 0.000000 0.000000 0.000000 0.000000 -60.708740 0.000000 71.000000 -0.030721 0.261745 0.964648
15270.00000000 9340.00000000 310.00000000 133 151 113 0.000000 0.000000 0.000000 0.000000 -60.708740 0.000000 71.000000 0.298780 0.380679 0.875108
15250.00000000 9320.00000000 310.00000000 133 151 113 0.000000 0.000000 0.000000 0.000000 -60.708740 0.000000 71.000000 0.258795 0.419218 0.870219
15320.00000000 9390.00000000 230.00000000 133 151 113 0.000000 0.000000 0.000000 0.000000 -60.708740 0.000000 71.000000 0.051977 0.563316 0.824605
15320.00000000 9380.00000000 230.00000000 133 151 113 0.000000 0.000000 0.000000 0.000000 -60.708740 0.000000 71.000000 0.253384 0.164901 0.953207
15320.00000000 9390.00000000 230.00000000 133 151 113 0.000000 0.000000 0.000000 0.000000 -60.708740 0.000000 71.000000 0.051977 0.563316 0.824605
15300.00000000 9280.00000000 310.00000000 133 151 113 0.000000 0.000000 0.000000 0.000000 -60.708740 0.000000 71.000000 0.372663 -0.040535 0.927081
15310.00000000 9280.00000000 310.00000000 133 151 113 0.000000 0.000000 0.000000 0.000000 -60.708740 0.000000 71.000000 0.429143 0.038770 0.902404
15280.00000000 9310.00000000 270.00000000 133 151 113 0.000000 0.000000 0.000000 0.000000 -60.708740 0.000000 71.000000 0.489899 0.364613 0.791869
15220.00000000 9360.00000000 310.00000000 133 151 113 0.000000 0.000000 0.000000 0.000000 -60.708740 0.000000 71.000000 0.238918 0.431254 0.870022
15190.00000000 9370.00000000 300.00000000 133 151 113 0.000000 0.000000 0.000000 0.000000 -60.708740 0.000000 71.000000 -0.202909 0.686174 0.698565
15180.00000000 9370.00000000 300.00000000 133 151 113 0.000000 0.000000 0.000000 0.000000 -60.708740 0.000000 71.000000 -0.068271 0.491827 0.868012
15190.00000000 9330.00000000 300.00000000 133 151 113 0.000000 0.000000 0.000000 0.000000 -60.708740 0.000000 71.000000 0.286885 0.289797 0.913080
15190.00000000 9340.00000000 120.00000000 133 151 113 0.000000 0.000000 0.000000 0.000000 -60.708740 0.000000 71.000000 0.062860 0.512656 0.856290
15560.00000000 8430.00000000 440.00000000 133 151 113 0.000000 0.000000 0.000000 0.000000 -60.708740 0.000000 71.000000 -0.873700 0.424112 -0.238282
15520.00000000 8450.00000000 450.00000000 133 151 113 0.000000 0.000000 0.000000 0.000000 -60.708740 0.000000 71.000000 0.628338 -0.261148 0.732798
15520.00000000 8410.00000000 420.00000000 133 151 113 0.000000 0.000000 0.000000 0.000000 -60.708740 0.000000 71.000000 0.991552 0.021144 0.127978
15330.00000000 9010.00000000 420.00000000 133 151 113 0.000000 0.000000 0.000000 0.000000 -60.708740 0.000000 71.000000 0.112092 0.168754 0.979264
15340.00000000 9000.00000000 420.00000000 133 151 113 0.000000 0.000000 0.000000 0.000000 -60.708740 0.000000 71.000000 0.123874 0.097920 0.987455
15340.00000000 8910.00000000 430.00000000 133 151 113 0.000000 0.000000 0.000000 0.000000 -60.708740 0.000000 71.000000 0.333988 -0.091814 0.938095
15330.00000000 8920.00000000 420.00000000 133 151 113 0.000000 0.000000 0.000000 0.000000 -60.708740 0.000000 71.000000 0.442760 0.436273 0.783345
15380.00000000 8960.00000000 390.00000000 133 151 113 0.000000 0.000000 0.000000 0.000000 -60.708740 0.000000 71.000000 0.389457 -0.289441 0.874384
15350.00000000 8970.00000000 370.00000000 133 151 113 0.000000 0.000000 0.000000 0.000000 -60.708740 0.000000 71.000000 0.475973 0.324168 0.817536
15360.00000000 8960.00000000 400.00000000 133 151 113 0.000000 0.000000 0.000000 0.000000 -60.708740 0.000000 71.000000 0.703100 0.223927 0.674913
15340.00000000 8910.00000000 400.00000000 133 151 113 0.000000 0.000000 0.000000 0.000000 -60.708740 0.000000 71.000000 0.558042 0.075642 0.826358
15390.00000000 8740.00000000 500.00000000 133 151 113 0.000000 0.000000 0.000000 0.000000 -60.708740 0.000000 71.000000 0.852769 -0.086554 0.515067
15370.00000000 8740.00000000 510.00000000 133 151 113 0.000000 0.000000 0.000000 0.000000 -60.708740 0.000000 71.000000 0.490666 -0.343626 0.800729
15330.00000000 8860.00000000 440.00000000 133 151 113 0.000000 0.000000 0.000000 0.000000 -60.708740 0.000000 71.000000 0.635064 -0.261311 0.726919
15220.00000000 8980.00000000 500.00000000 133 151 113 0.000000 0.000000 0.000000 0.000000 -60.708740 0.000000 71.000000 0.391367 0.231867 0.890545
15200.00000000 8900.00000000 490.00000000 133 151 113 0.000000 0.000000 0.000000 0.000000 -60.708740 0.000000 71.000000 -0.132112 0.286910 0.948804
15170.00000000 8970.00000000 490.00000000 133 151 113 0.000000 0.000000 0.000000 0.000000 -60.708740 0.000000 71.000000 0.447763 0.477286 0.756113
15160.00000000 8960.00000000 500.00000000 133 151 113 0.000000 0.000000 0.000000 0.000000 -60.708740 0.000000 71.000000 0.259253 0.198898 0.945107
15190.00000000 8920.00000000 490.00000000 133 151 113 0.000000 0.000000 0.000000 0.000000 -60.708740 0.000000 71.000000 0.261115 -0.159347 0.952065
15310.00000000 8960.00000000 420.00000000 133 151 113 0.000000 0.000000 0.000000 0.000000 -60.708740 0.000000 71.000000 0.117352 0.278217 0.953322
15300.00000000 8910.00000000 470.00000000 133 151 113 0.000000 0.000000 0.000000 0.000000 -60.708740 0.000000 71.000000 0.447371 0.386439 0.806551
15290.00000000 8900.00000000 470.00000000 133 151 113 0.000000 0.000000 0.000000 0.000000 -60.708740 0.000000 71.000000 0.232044 -0.150763 0.960951
15310.00000000 8930.00000000 440.00000000 133 151 113 0.000000 0.000000 0.000000 0.000000 -60.708740 0.000000 71.000000 0.374900 -0.172482 0.910879
15310.00000000 8900.00000000 440.00000000 133 151 113 0.000000 0.000000 0.000000 0.000000 -60.708740 0.000000 71.000000 0.566927 -0.231430 0.790591
15270.00000000 8940.00000000 470.00000000 133 151 113 0.000000 0.000000 0.000000 0.000000 -60.708740 0.000000 71.000000 0.526542 0.361289 0.769561
15250.00000000 8970.00000000 430.00000000 133 151 113 0.000000 0.000000 0.000000 0.000000 -60.708740 0.000000 71.000000 0.547977 0.484298 0.682039
15260.00000000 8930.00000000 470.00000000 133 151 113 0.000000 0.000000 0.000000 0.000000 -60.708740 0.000000 71.000000 0.290419 0.076154 0.953865
15290.00000000 8970.00000000 360.00000000 133 151 113 0.000000 0.000000 0.000000 0.000000 -60.708740 0.000000 71.000000 0.424615 -0.072362 0.902478
