//X Y Z R G B PointSourceId ScanDirectionFlag NumberOfReturns ReturnNumber GpsTime Intensity Classification Nx Ny Nz
-15870.00000000 -4180.00000000 -40.00000000 209 36 133 97.000000 1.000000 4.000000 1.000000 -60.708740 114.000000 172.000000 0.763871 0.126567 0.632837
-15850.00000000 -4230.00000000 -40.00000000 209 36 133 97.000000 1.000000 4.000000 1.000000 -60.708740 114.000000 172.000000 0.733972 0.389153 0.556637
-17110.00000000 -750.00000000 -350.00000000 209 36 133 97.000000 1.000000 4.000000 1.000000 -60.708740 114.000000 189.000000 -0.161464 -0.252205 0.954108
-17100.00000000 -990.00000000 -310.00000000 209 36 133 97.000000 1.000000 4.000000 1.000000 -60.708740 114.000000 189.000000 0.477695 0.520970 0.707388
-17010.00000000 -820.00000000 -560.00000000 209 36 133 97.000000 1.000000 4.000000 1.000000 -60.708740 114.000000 189.000000 -0.106983 -0.350740 0.930342
-16970.00000000 -860.00000000 -570.00000000 209 36 133 97.000000 1.000000 4.000000 1.000000 -60.708740 114.000000 189.000000 -0.033005 0.060687 0.997611
-16960.00000000 -870.00000000 -560.00000000 209 36 133 97.000000 1.000000 4.000000 1.000000 -60.708740 114.000000 189.000000 -0.212090 0.296364 0.931228
-16960.00000000 -840.00000000 -570.00000000 209 36 133 97.000000 1.000000 4.000000 1.000000 -60.708740 114.000000 189.000000 -0.091514 -0.073437 0.993092
-17150.00000000 -750.00000000 -370.00000000 209 36 133 97.000000 1.000000 4.000000 1.000000 -60.708740 114.000000 189.000000 0.324783 -0.189808 0.926547
-17160.00000000 -780.00000000 -390.00000000 209 36 133 97.000000 1.000000 4.000000 1.000000 -60.708740 114.000000 189.000000 0.175977 -0.145592 0.973568
-17150.00000000 -790.00000000 -370.00000000 209 36 133 97.000000 1.000000 4.000000 1.000000 -60.708740 114.000000 189.000000 0.420858 0.224556 0.878893
-17170.00000000 -850.00000000 -380.00000000 209 36 133 97.000000 1.000000 4.000000 1.000000 -60.708740 114.000000 189.000000 0.621345 0.139241 0.771066
-17150.00000000 -820.00000000 -450.00000000 209 36 133 97.000000 1.000000 4.000000 1.000000 -60.708740 114.000000 189.000000 0.352949 0.295876 0.887629
-17080.00000000 -780.00000000 -610.00000000 209 36 133 97.000000 1.000000 4.000000 1.000000 -60.708740 114.000000 189.000000 -0.426958 0.038814 0.903438
-17150.00000000 -730.00000000 -530.00000000 209 36 133 97.000000 1.000000 4.000000 1.000000 -60.708740 114.000000 189.000000 -0.060256 -0.166590 0.984183
-17300.00000000 -630.00000000 -530.00000000 209 36 133 97.000000 1.000000 4.000000 1.000000 -60.708740 114.000000 189.000000 -0.001139 0.183394 0.983039
-17240.00000000 -630.00000000 -540.00000000 209 36 133 97.000000 1.000000 4.000000 1.000000 -60.708740 114.000000 189.000000 -0.034511 0.036603 0.998734
-17300.00000000 -700.00000000 -530.00000000 209 36 133 97.000000 1.000000 4.000000 1.000000 -60.708740 114.000000 189.000000 0.152579 0.092508 0.983952
-17200.00000000 -850.00000000 -320.00000000 209 36 133 97.000000 1.000000 4.000000 1.000000 -60.708740 114.000000 189.000000 0.617632 0.708891 0.340594
-17190.00000000 -850.00000000 -270.00000000 209 36 133 97.000000 1.000000 4.000000 1.000000 -60.708740 114.000000 189.000000 0.973382 0.197188 -0.116806
-17220.00000000 -800.00000000 -500.00000000 209 36 133 97.000000 1.000000 4.000000 1.000000 -60.708740 114.000000 189.000000 0.123355 0.092810 0.988013
-17230.00000000 -740.00000000 -500.00000000 209 36 133 97.000000 1.000000 4.000000 1.000000 -60.708740 114.000000 189.000000 0.034609 0.117225 0.992502
-17230.00000000 -820.00000000 -500.00000000 209 36 133 97.000000 1.000000 4.000000 1.000000 -60.708740 114.000000 189.000000 0.056389 0.350134 0.935001
-17220.00000000 -750.00000000 -520.00000000 209 36 133 97.000000 1.000000 4.000000 1.000000 -60.708740 114.000000 189.000000 -0.057210 0.152949 0.986577
-17200.00000000 -810.00000000 -500.00000000 209 36 133 97.000000 1.000000 4.000000 1.000000 -60.708740 114.000000 189.000000 -0.108497 0.233588 0.966263
-17190.00000000 -750.00000000 -530.00000000 209 36 133 97.000000 1.000000 4.000000 1.000000 -60.708740 114.000000 189.000000 0.319521 -0.060800 0.945627
-17200.00000000 -760.00000000 -530.00000000 209 36 133 97.000000 1.000000 4.000000 1.000000 -60.708740 114.000000 189.000000 0.432842 0.173428 0.884630
-15660.00000000 -3960.00000000 190.00000000 209 36 133 97.000000 1.000000 4.000000 1.000000 -60.708740 114.000000 172.000000 0.651042 0.182292 0.736827
-15630.00000000 -4070.00000000 60.00000000 209 36 133 97.000000 1.000000 4.000000 1.000000 -60.708740 114.000000 172.000000 0.937430 0.342195 0.064243
-15700.00000000 -3940.00000000 180.00000000 209 36 133 97.000000 1.000000 4.000000 1.000000 -60.708740 114.000000 172.000000 0.717947 0.076871 0.691840
-15680.00000000 -4010.00000000 140.00000000 209 36 133 97.000000 1.000000 4.000000 1.000000 -60.708740 114.000000 172.000000 0.249479 0.334098 0.908922
-15600.00000000 -4300.00000000 330.00000000 209 36 133 97.000000 1.000000 4.000000 1.000000 -60.708740 114.000000 172.000000 -0.068911 -0.096023 0.992991
-15580.00000000 -4240.00000000 130.00000000 209 36 133 97.000000 1.000000 4.000000 1.000000 -60.708740 114.000000 172.000000 0.587327 0.587327 0.556861
-15580.00000000 -4250.00000000 240.00000000 209 36 133 97.000000 1.000000 4.000000 1.000000 -60.708740 114.000000 172.000000 0.140706 0.212995 0.966869
-15600.00000000 -4250.00000000 290.00000000 209 36 133 97.000000 1.000000 4.000000 1.000000 -60.708740 114.000000 172.000000 0.174325 0.114980 0.977952
-15610.00000000 -4270.00000000 300.00000000 209 36 133 97.000000 1.000000 4.000000 1.000000 -60.708740 114.000000 172.000000 0.308567 0.113542 0.944402
-15620.00000000 -4280.00000000 210.00000000 209 36 133 97.000000 1.000000 4.000000 1.000000 -60.708740 114.000000 172.000000 0.451424 0.158216 0.878171
-15670.00000000 -4330.00000000 240.00000000 209 36 133 97.000000 1.000000 4.000000 1.000000 -60.708740 114.000000 172.000000 0.036058 0.088506 0.995423
-15640.00000000 -4340.00000000 230.00000000 209 36 133 97.000000 1.000000 4.000000 1.000000 -60.708740 114.000000 172.000000 0.207611 -0.254358 0.944563
-15580.00000000 -4250.00000000 90.00000000 209 36 133 97.000000 1.000000 4.000000 1.000000 -60.708740 114.000000 172.000000 0.566455 0.505944 0.650499
-15580.00000000 -4290.00000000 40.00000000 209 36 133 97.000000 1.000000 4.000000 1.000000 -60.708740 114.000000 172.000000 0.988507 0.066210 0.135905
-15280.00000000 -4730.00000000 210.00000000 209 36 133 97.000000 1.000000 4.000000 1.000000 -60.708740 114.000000 172.000000 0.843368 0.309080 0.439545
-15290.00000000 -4660.00000000 130.00000000 209 36 133 97.000000 1.000000 4.000000 1.000000 -60.708740 114.000000 172.000000 0.902988 0.421944 -0.081090
-15330.00000000 -4650.00000000 70.00000000 209 36 133 97.000000 1.000000 4.000000 1.000000 -60.708740 114.000000 172.000000 0.976031 0.113434 -0.185733
-15320.00000000 -4660.00000000 60.00000000 209 36 133 97.000000 1.000000 4.000000 1.000000 -60.708740 114.000000 172.000000 0.916745 0.276617 -0.288203
-15360.00000000 -4580.00000000 40.00000000 209 36 133 97.000000 1.000000 4.000000 1.000000 -60.708740 114.000000 172.000000 0.886141 0.457586 0.073269
-15370.00000000 -4540.00000000 -10.00000000 209 36 133 97.000000 1.000000 4.000000 1.000000 -60.708740 114.000000 172.000000 0.774013 0.507895 -0.378082
-15640.00000000 -4560.00000000 350.00000000 209 36 133 97.000000 1.000000 4.000000 1.000000 -60.708740 114.000000 172.000000 -0.170258 0.196251 0.965659
-15650.00000000 -4550.00000000 350.00000000 209 36 133 97.000000 1.000000 4.000000 1.000000 -60.708740 114.000000 172.000000 -0.159677 0.087642 0.983271
-16460.00000000 -2200.00000000 150.00000000 209 36 133 97.000000 1.000000 4.000000 1.000000 -60.708740 114.000000 189.000000 0.071067 -0.053574 0.996032
-16750.00000000 -1670.00000000 50.00000000 209 36 133 97.000000 1.000000 4.000000 1.000000 -60.708740 114.000000 189.000000 -0.053908 -0.075912 0.995656
-16750.00000000 -1690.00000000 50.00000000 209 36 133 97.000000 1.000000 4.000000 1.000000 -60.708740 114.000000 189.000000 -0.437259 0.108260 0.892796
-16740.00000000 -1670.00000000 50.00000000 209 36 133 97.000000 1.000000 4.000000 1.000000 -60.708740 114.000000 189.000000 -0.104097 -0.074355 0.991784
-16830.00000000 -1570.00000000 0.00000000 209 36 133 97.000000 1.000000 4.000000 1.000000 -60.708740 114.000000 189.000000 -0.135733 0.021313 0.990516
-16800.00000000 -1690.00000000 50.00000000 209 36 133 97.000000 1.000000 4.000000 1.000000 -60.708740 114.000000 189.000000 -0.417323 -0.003900 0.908750
-16780.00000000 -1650.00000000 20.00000000 209 36 133 97.000000 1.000000 4.000000 1.000000 -60.708740 114.000000 189.000000 -0.021446 0.326732 0.944874
-16800.00000000 -1710.00000000 40.00000000 209 36 133 97.000000 1.000000 4.000000 1.000000 -60.708740 114.000000 189.000000 -0.455720 0.058847 0.888176
-16780.00000000 -1640.00000000 50.00000000 209 36 133 97.000000 1.000000 4.000000 1.000000 -60.708740 114.000000 189.000000 -0.149670 -0.052210 0.987357
-16830.00000000 -1660.00000000 10.00000000 209 36 133 97.000000 1.000000 4.000000 1.000000 -60.708740 114.000000 189.000000 0.001167 -0.215818 0.976433
-16850.00000000 -1700.00000000 20.00000000 209 36 133 97.000000 1.000000 4.000000 1.000000 -60.708740 114.000000 189.000000 -0.297412 -0.023644 0.954456
-16840.00000000 -1660.00000000 0.00000000 209 36 133 97.000000 1.000000 4.000000 1.000000 -60.708740 114.000000 189.000000 -0.348673 -0.224250 0.910022
-16840.00000000 -1710.00000000 0.00000000 209 36 133 97.000000 1.000000 4.000000 1.000000 -60.708740 114.000000 189.000000 -0.640246 -0.015277 0.768018
-17030.00000000 -1120.00000000 20.00000000 209 36 133 97.000000 1.000000 4.000000 1.000000 -60.708740 114.000000 189.000000 -0.034810 -0.346810 0.937289
-17100.00000000 -1070.00000000 20.00000000 209 36 133 97.000000 1.000000 4.000000 1.000000 -60.708740 114.000000 189.000000 -0.284011 -0.402476 0.870259
-17050.00000000 -1170.00000000 10.00000000 209 36 133 97.000000 1.000000 4.000000 1.000000 -60.708740 114.000000 189.000000 -0.261947 -0.416390 0.870634
-16880.00000000 -1450.00000000 0.00000000 209 36 133 97.000000 1.000000 4.000000 1.000000 -60.708740 114.000000 189.000000 -0.066061 -0.314760 0.946870
-16900.00000000 -1550.00000000 40.00000000 209 36 133 97.000000 1.000000 4.000000 1.000000 -60.708740 114.000000 189.000000 -0.604055 0.165018 0.779671
-16700.00000000 -1810.00000000 90.00000000 209 36 133 97.000000 1.000000 4.000000 1.000000 -60.708740 114.000000 189.000000 -0.149562 -0.190467 0.970234
-16750.00000000 -1870.00000000 50.00000000 209 36 133 97.000000 1.000000 4.000000 1.000000 -60.708740 114.000000 189.000000 -0.221150 -0.215723 0.951082
-16770.00000000 -1790.00000000 70.00000000 209 36 133 97.000000 1.000000 4.000000 1.000000 -60.708740 114.000000 189.000000 -0.085390 0.056557 0.994741
-16790.00000000 -1760.00000000 80.00000000 209 36 133 97.000000 1.000000 4.000000 1.000000 -60.708740 114.000000 189.000000 -0.454246 -0.167969 0.874898
-16820.00000000 -1780.00000000 70.00000000 209 36 133 97.000000 1.000000 4.000000 1.000000 -60.708740 114.000000 189.000000 -0.379343 0.153712 0.912399
-16850.00000000 -1740.00000000 0.00000000 209 36 133 97.000000 1.000000 4.000000 1.000000 -60.708740 114.000000 189.000000 -0.521491 -0.291468 0.801931
-16810.00000000 -1720.00000000 30.00000000 209 36 133 97.000000 1.000000 4.000000 1.000000 -60.708740 114.000000 189.000000 -0.579051 -0.163939 0.798639
-16850.00000000 -1730.00000000 0.00000000 209 36 133 97.000000 1.000000 4.000000 1.000000 -60.708740 114.000000 189.000000 -0.247089 -0.164281 0.954965
-16830.00000000 -1830.00000000 40.00000000 209 36 133 97.000000 1.000000 4.000000 1.000000 -60.708740 114.000000 189.000000 0.776757 0.104253 -0.621112
-16830.00000000 -1860.00000000 0.00000000 209 36 133 97.000000 1.000000 4.000000 1.000000 -60.708740 114.000000 189.000000 -0.389796 -0.016835 0.920747
-16760.00000000 -2030.00000000 80.00000000 209 36 133 97.000000 1.000000 4.000000 1.000000 -60.708740 114.000000 189.000000 -0.175838 -0.339015 0.924202
-16710.00000000 -2010.00000000 70.00000000 209 36 133 97.000000 1.000000 4.000000 1.000000 -60.708740 114.000000 189.000000 -0.225168 0.124807 0.966293
-16740.00000000 -2040.00000000 0.00000000 209 36 133 97.000000 1.000000 4.000000 1.000000 -60.708740 114.000000 189.000000 -0.562831 -0.241659 0.790457
-16810.00000000 -1950.00000000 -10.00000000 209 36 133 97.000000 1.000000 4.000000 1.000000 -60.708740 114.000000 189.000000 -0.432900 -0.199459 0.879098
-16780.00000000 -1890.00000000 40.00000000 209 36 133 97.000000 1.000000 4.000000 1.000000 -60.708740 114.000000 189.000000 -0.426912 -0.041487 0.903341
-16810.00000000 -1930.00000000 50.00000000 209 36 133 97.000000 1.000000 4.000000 1.000000 -60.708740 114.000000 189.000000 -0.390235 -0.258661 0.883635
-16820.00000000 -1890.00000000 10.00000000 209 36 133 97.000000 1.000000 4.000000 1.000000 -60.708740 114.000000 189.000000 0.708218 -0.220439 -0.670697
-16550.00000000 -2120.00000000 110.00000000 209 36 133 97.000000 1.000000 4.000000 1.000000 -60.708740 114.000000 189.000000 -0.331533 0.206319 0.920608
-16540.00000000 -2210.00000000 120.00000000 209 36 133 97.000000 1.000000 4.000000 1.000000 -60.708740 114.000000 189.000000 -0.211711 0.293030 0.932369
-16530.00000000 -2150.00000000 140.00000000 209 36 133 97.000000 1.000000 4.000000 1.000000 -60.708740 114.000000 189.000000 0.001340 0.507781 0.861485
-16670.00000000 -2130.00000000 130.00000000 209 36 133 97.000000 1.000000 4.000000 1.000000 -60.708740 114.000000 189.000000 -0.366360 0.256600 0.894392
-16670.00000000 -2090.00000000 100.00000000 209 36 133 97.000000 1.000000 4.000000 1.000000 -60.708740 114.000000 189.000000 -0.248719 0.277144 0.928078
-16670.00000000 -2070.00000000 90.00000000 209 36 133 97.000000 1.000000 4.000000 1.000000 -60.708740 114.000000 189.000000 -0.261117 0.272532 0.926037
-16620.00000000 -2130.00000000 90.00000000 209 36 133 97.000000 1.000000 4.000000 1.000000 -60.708740 114.000000 189.000000 -0.137635 -0.019023 0.990300
-16640.00000000 -2140.00000000 100.00000000 209 36 133 97.000000 1.000000 4.000000 1.000000 -60.708740 114.000000 189.000000 -0.075871 0.129565 0.988664
-16600.00000000 -2190.00000000 110.00000000 209 36 133 97.000000 1.000000 4.000000 1.000000 -60.708740 114.000000 189.000000 -0.396639 0.024872 0.917638
-16610.00000000 -2200.00000000 110.00000000 209 36 133 97.000000 1.000000 4.000000 1.000000 -60.708740 114.000000 189.000000 -0.384798 -0.218003 0.896886
-16670.00000000 -2220.00000000 90.00000000 209 36 133 97.000000 1.000000 4.000000 1.000000 -60.708740 114.000000 189.000000 -0.539651 -0.264351 0.799309
-16620.00000000 -2160.00000000 110.00000000 209 36 133 97.000000 1.000000 4.000000 1.000000 -60.708740 114.000000 189.000000 -0.159945 0.236613 0.958349
-16650.00000000 -2170.00000000 60.00000000 209 36 133 97.000000 1.000000 4.000000 1.000000 -60.708740 114.000000 189.000000 -0.150978 -0.297875 0.942590
-16680.00000000 -2160.00000000 50.00000000 209 36 133 97.000000 1.000000 4.000000 1.000000 -60.708740 114.000000 189.000000 -0.649195 0.041017 0.759515
-16620.00000000 -2200.00000000 60.00000000 209 36 133 97.000000 1.000000 4.000000 1.000000 -60.708740 114.000000 189.000000 -0.508496 -0.074654 0.857822
-16560.00000000 -2240.00000000 110.00000000 209 36 133 97.000000 1.000000 4.000000 1.000000 -60.708740 114.000000 189.000000 -0.312526 -0.306601 0.899068
-16550.00000000 -2300.00000000 130.00000000 209 36 133 97.000000 1.000000 4.000000 1.000000 -60.708740 114.000000 189.000000 -0.093379 -0.251996 0.963213
-16550.00000000 -2340.00000000 120.00000000 209 36 133 97.000000 1.000000 4.000000 1.000000 -60.708740 114.000000 189.000000 0.050030 -0.314292 0.948007
-16560.00000000 -2330.00000000 120.00000000 209 36 133 97.000000 1.000000 4.000000 1.000000 -60.708740 114.000000 189.000000 0.041113 0.041113 0.998308
-16530.00000000 -2310.00000000 130.00000000 209 36 133 97.000000 1.000000 4.000000 1.000000 -60.708740 114.000000 189.000000 -0.441013 0.036193 0.896771
-16560.00000000 -2390.00000000 100.00000000 209 36 133 97.000000 1.000000 4.000000 1.000000 -60.708740 114.000000 189.000000 -0.530974 0.218816 0.818649
-16590.00000000 -2350.00000000 140.00000000 209 36 133 97.000000 1.000000 4.000000 1.000000 -60.708740 114.000000 189.000000 -0.110113 -0.036704 0.993241
-16610.00000000 -2300.00000000 80.00000000 209 36 133 97.000000 1.000000 4.000000 1.000000 -60.708740 114.000000 189.000000 -0.050875 -0.059534 0.996929
-16630.00000000 -2240.00000000 90.00000000 209 36 133 97.000000 1.000000 4.000000 1.000000 -60.708740 114.000000 189.000000 -0.104150 -0.106491 0.988844
-16680.00000000 -2280.00000000 40.00000000 209 36 133 97.000000 1.000000 4.000000 1.000000 -60.708740 114.000000 189.000000 -0.687818 -0.362787 0.628722
-16620.00000000 -2380.00000000 30.00000000 209 36 133 97.000000 1.000000 4.000000 1.000000 -60.708740 114.000000 189.000000 -0.340480 -0.089459 0.935986
-16600.00000000 -2390.00000000 60.00000000 209 36 133 97.000000 1.000000 4.000000 1.000000 -60.708740 114.000000 189.000000 -0.513975 -0.316659 0.797218
-16640.00000000 -2390.00000000 20.00000000 209 36 133 97.000000 1.000000 4.000000 1.000000 -60.708740 114.000000 189.000000 -0.621919 -0.070379 0.779912
-16600.00000000 -2310.00000000 60.00000000 209 36 133 97.000000 1.000000 4.000000 1.000000 -60.708740 114.000000 189.000000 -0.380452 0.014186 0.924692
-16680.00000000 -2340.00000000 40.00000000 209 36 133 97.000000 1.000000 4.000000 1.000000 -60.708740 114.000000 189.000000 0.775730 0.091690 -0.624368
-16700.00000000 -2160.00000000 90.00000000 209 36 133 97.000000 1.000000 4.000000 1.000000 -60.708740 114.000000 189.000000 -0.554612 -0.323121 0.766811
-16700.00000000 -2190.00000000 50.00000000 209 36 133 97.000000 1.000000 4.000000 1.000000 -60.708740 114.000000 189.000000 -0.622911 0.104063 0.775341
-16740.00000000 -2170.00000000 50.00000000 209 36 133 97.000000 1.000000 4.000000 1.000000 -60.708740 114.000000 189.000000 -0.494045 -0.163698 0.853887
-16720.00000000 -2280.00000000 10.00000000 209 36 133 97.000000 1.000000 4.000000 1.000000 -60.708740 114.000000 189.000000 0.691204 0.152761 -0.706329
-16870.00000000 -1750.00000000 -10.00000000 209 36 133 97.000000 1.000000 4.000000 1.000000 -60.708740 114.000000 189.000000 -0.507777 -0.139017 0.850198
-16870.00000000 -1780.00000000 0.00000000 209 36 133 97.000000 1.000000 4.000000 1.000000 -60.708740 114.000000 189.000000 0.760720 0.023816 -0.648643
-16170.00000000 -2690.00000000 150.00000000 209 36 133 97.000000 1.000000 4.000000 1.000000 -60.708740 114.000000 189.000000 0.135332 0.502038 0.854192
-16140.00000000 -2770.00000000 160.00000000 209 36 133 97.000000 1.000000 4.000000 1.000000 -60.708740 114.000000 189.000000 0.096698 0.219768 0.970748
-16140.00000000 -2800.00000000 160.00000000 209 36 133 97.000000 1.000000 4.000000 1.000000 -60.708740 114.000000 189.000000 0.167134 0.028816 0.985513
-16120.00000000 -2800.00000000 210.00000000 209 36 133 97.000000 1.000000 4.000000 1.000000 -60.708740 114.000000 189.000000 -0.001044 0.072063 0.997400
-16120.00000000 -2860.00000000 210.00000000 209 36 133 97.000000 1.000000 4.000000 1.000000 -60.708740 114.000000 189.000000 0.290524 0.031172 0.956360
-16170.00000000 -2940.00000000 190.00000000 209 36 133 97.000000 1.000000 4.000000 1.000000 -60.708740 114.000000 189.000000 0.042380 0.327478 0.943908
-16320.00000000 -2530.00000000 180.00000000 209 36 133 97.000000 1.000000 4.000000 1.000000 -60.708740 114.000000 189.000000 0.296307 0.419128 0.858215
-16340.00000000 -2720.00000000 130.00000000 209 36 133 97.000000 1.000000 4.000000 1.000000 -60.708740 114.000000 189.000000 -0.255350 0.255350 0.932520
-16280.00000000 -2720.00000000 140.00000000 209 36 133 97.000000 1.000000 4.000000 1.000000 -60.708740 114.000000 189.000000 -0.139883 0.204050 0.968915
-16350.00000000 -2460.00000000 180.00000000 209 36 133 97.000000 1.000000 4.000000 1.000000 -60.708740 114.000000 189.000000 -0.136767 -0.096331 0.985908
-16380.00000000 -2540.00000000 170.00000000 209 36 133 97.000000 1.000000 4.000000 1.000000 -60.708740 114.000000 189.000000 0.049097 0.073099 0.996115
-16390.00000000 -2510.00000000 170.00000000 209 36 133 97.000000 1.000000 4.000000 1.000000 -60.708740 114.000000 189.000000 0.065292 -0.165011 0.984128
-16370.00000000 -2500.00000000 170.00000000 209 36 133 97.000000 1.000000 4.000000 1.000000 -60.708740 114.000000 189.000000 -0.273860 0.099939 0.956563
-16400.00000000 -2540.00000000 200.00000000 209 36 133 97.000000 1.000000 4.000000 1.000000 -60.708740 114.000000 189.000000 -0.287593 0.256115 0.922873
-16420.00000000 -2480.00000000 150.00000000 209 36 133 97.000000 1.000000 4.000000 1.000000 -60.708740 114.000000 189.000000 -0.285389 -0.201861 0.936913
-16480.00000000 -2520.00000000 160.00000000 209 36 133 97.000000 1.000000 4.000000 1.000000 -60.708740 114.000000 189.000000 -0.126764 0.289556 0.948730
-16490.00000000 -2560.00000000 160.00000000 209 36 133 97.000000 1.000000 4.000000 1.000000 -60.708740 114.000000 189.000000 -0.603545 -0.064207 0.794739
-16470.00000000 -2550.00000000 160.00000000 209 36 133 97.000000 1.000000 4.000000 1.000000 -60.708740 114.000000 189.000000 -0.350182 -0.390648 0.851332
-16430.00000000 -2490.00000000 120.00000000 209 36 133 97.000000 1.000000 4.000000 1.000000 -60.708740 114.000000 189.000000 0.053724 0.352482 0.934275
-16480.00000000 -2510.00000000 130.00000000 209 36 133 97.000000 1.000000 4.000000 1.000000 -60.708740 114.000000 189.000000 -0.440613 -0.052874 0.896139
-16490.00000000 -2470.00000000 130.00000000 209 36 133 97.000000 1.000000 4.000000 1.000000 -60.708740 114.000000 189.000000 -0.236963 0.095039 0.966859
-16500.00000000 -2430.00000000 120.00000000 209 36 133 97.000000 1.000000 4.000000 1.000000 -60.708740 114.000000 189.000000 -0.420421 0.321133 0.848599
-16490.00000000 -2530.00000000 110.00000000 209 36 133 97.000000 1.000000 4.000000 1.000000 -60.708740 114.000000 189.000000 -0.276908 0.070184 0.958330
-16390.00000000 -2620.00000000 160.00000000 209 36 133 97.000000 1.000000 4.000000 1.000000 -60.708740 114.000000 189.000000 -0.376580 0.351785 0.856992
-16350.00000000 -2620.00000000 150.00000000 209 36 133 97.000000 1.000000 4.000000 1.000000 -60.708740 114.000000 189.000000 -0.244199 0.055782 0.968119
-16410.00000000 -2670.00000000 150.00000000 209 36 133 97.000000 1.000000 4.000000 1.000000 -60.708740 114.000000 189.000000 -0.352153 -0.405367 0.843603
-16380.00000000 -2720.00000000 130.00000000 209 36 133 97.000000 1.000000 4.000000 1.000000 -60.708740 114.000000 189.000000 -0.196137 0.390822 0.899327
-16350.00000000 -2670.00000000 130.00000000 209 36 133 97.000000 1.000000 4.000000 1.000000 -60.708740 114.000000 189.000000 -0.108595 -0.045901 0.993026
-16460.00000000 -2600.00000000 120.00000000 209 36 133 97.000000 1.000000 4.000000 1.000000 -60.708740 114.000000 189.000000 -0.227790 -0.222334 0.947987
-16230.00000000 -2790.00000000 150.00000000 209 36 133 97.000000 1.000000 4.000000 1.000000 -60.708740 114.000000 189.000000 -0.011294 -0.042098 0.999050
-16200.00000000 -2770.00000000 160.00000000 209 36 133 97.000000 1.000000 4.000000 1.000000 -60.708740 114.000000 189.000000 0.114490 -0.055545 0.991870
-16220.00000000 -2770.00000000 190.00000000 209 36 133 97.000000 1.000000 4.000000 1.000000 -60.708740 114.000000 189.000000 0.557554 0.227037 0.798491
-16210.00000000 -2750.00000000 190.00000000 209 36 133 97.000000 1.000000 4.000000 1.000000 -60.708740 114.000000 189.000000 0.274993 -0.235507 0.932156
-16230.00000000 -2730.00000000 150.00000000 209 36 133 97.000000 1.000000 4.000000 1.000000 -60.708740 114.000000 189.000000 -0.101928 0.050404 0.993514
-16230.00000000 -2840.00000000 150.00000000 209 36 133 97.000000 1.000000 4.000000 1.000000 -60.708740 114.000000 189.000000 0.102881 0.327347 0.939287
-16240.00000000 -2880.00000000 190.00000000 209 36 133 97.000000 1.000000 4.000000 1.000000 -60.708740 114.000000 189.000000 -0.221066 0.173411 0.959718
-16330.00000000 -2820.00000000 120.00000000 209 36 133 97.000000 1.000000 4.000000 1.000000 -60.708740 114.000000 189.000000 -0.112045 0.171146 0.978854
-16320.00000000 -2810.00000000 100.00000000 209 36 133 97.000000 1.000000 4.000000 1.000000 -60.708740 114.000000 189.000000 -0.250303 0.313963 0.915847
-16290.00000000 -2810.00000000 130.00000000 209 36 133 97.000000 1.000000 4.000000 1.000000 -60.708740 114.000000 189.000000 -0.231551 -0.147826 0.961526
-16330.00000000 -2890.00000000 100.00000000 209 36 133 97.000000 1.000000 4.000000 1.000000 -60.708740 114.000000 189.000000 -0.087587 -0.117950 0.989149
-16340.00000000 -2840.00000000 120.00000000 209 36 133 97.000000 1.000000 4.000000 1.000000 -60.708740 114.000000 189.000000 -0.078385 -0.222713 0.971728
-16250.00000000 -2760.00000000 130.00000000 209 36 133 97.000000 1.000000 4.000000 1.000000 -60.708740 114.000000 189.000000 -0.093947 -0.176913 0.979732
-16260.00000000 -2960.00000000 180.00000000 209 36 133 97.000000 1.000000 4.000000 1.000000 -60.708740 114.000000 189.000000 -0.054545 0.389798 0.919284
-16230.00000000 -2990.00000000 200.00000000 209 36 133 97.000000 1.000000 4.000000 1.000000 -60.708740 114.000000 189.000000 -0.299962 0.090381 0.949660
-16320.00000000 -2910.00000000 160.00000000 209 36 133 97.000000 1.000000 4.000000 1.000000 -60.708740 114.000000 189.000000 -0.202364 0.240393 0.949347
-16270.00000000 -2960.00000000 180.00000000 209 36 133 97.000000 1.000000 4.000000 1.000000 -60.708740 114.000000 189.000000 -0.185643 0.428295 0.884364
-16410.00000000 -2730.00000000 120.00000000 209 36 133 97.000000 1.000000 4.000000 1.000000 -60.708740 114.000000 189.000000 -0.448034 -0.310657 0.838307
-16380.00000000 -2770.00000000 110.00000000 209 36 133 97.000000 1.000000 4.000000 1.000000 -60.708740 114.000000 189.000000 -0.252184 0.079837 0.964380
-16400.00000000 -2740.00000000 110.00000000 209 36 133 97.000000 1.000000 4.000000 1.000000 -60.708740 114.000000 189.000000 -0.202649 -0.354995 0.912640
-16400.00000000 -2790.00000000 100.00000000 209 36 133 97.000000 1.000000 4.000000 1.000000 -60.708740 114.000000 189.000000 -0.131082 0.199805 0.971028
-16370.00000000 -2760.00000000 110.00000000 209 36 133 97.000000 1.000000 4.000000 1.000000 -60.708740 114.000000 189.000000 -0.246662 0.342992 0.906374
-16380.00000000 -2840.00000000 120.00000000 209 36 133 97.000000 1.000000 4.000000 1.000000 -60.708740 114.000000 189.000000 -0.107071 0.212882 0.971194
-16420.00000000 -2830.00000000 130.00000000 209 36 133 97.000000 1.000000 4.000000 1.000000 -60.708740 114.000000 189.000000 -0.329768 0.021479 0.943818
-16410.00000000 -2830.00000000 100.00000000 209 36 133 97.000000 1.000000 4.000000 1.000000 -60.708740 114.000000 189.000000 -0.342512 -0.112366 0.932770
-16490.00000000 -2810.00000000 70.00000000 209 36 133 97.000000 1.000000 4.000000 1.000000 -60.708740 114.000000 189.000000 -0.445155 -0.454939 0.771276
-16470.00000000 -2750.00000000 90.00000000 209 36 133 97.000000 1.000000 4.000000 1.000000 -60.708740 114.000000 189.000000 -0.188191 -0.110920 0.975849
-16460.00000000 -2770.00000000 100.00000000 209 36 133 97.000000 1.000000 4.000000 1.000000 -60.708740 114.000000 189.000000 -0.574901 0.235258 0.783673
-16410.00000000 -2920.00000000 100.00000000 209 36 133 97.000000 1.000000 4.000000 1.000000 -60.708740 114.000000 189.000000 -0.265963 -0.168758 0.949097
-16380.00000000 -2960.00000000 130.00000000 209 36 133 97.000000 1.000000 4.000000 1.000000 -60.708740 114.000000 189.000000 -0.184063 -0.163468 0.969226
-16490.00000000 -3000.00000000 110.00000000 209 36 133 97.000000 1.000000 4.000000 1.000000 -60.708740 114.000000 189.000000 0.868461 0.091789 -0.487186
-16550.00000000 -2550.00000000 150.00000000 209 36 133 97.000000 1.000000 4.000000 1.000000 -60.708740 114.000000 189.000000 0.743204 -0.073886 -0.664972
-16520.00000000 -2460.00000000 150.00000000 209 36 133 97.000000 1.000000 4.000000 1.000000 -60.708740 114.000000 189.000000 -0.379122 -0.268233 0.885617
-16550.00000000 -2460.00000000 70.00000000 209 36 133 97.000000 1.000000 4.000000 1.000000 -60.708740 114.000000 189.000000 -0.533986 -0.299476 0.790679
-16560.00000000 -2480.00000000 140.00000000 209 36 133 97.000000 1.000000 4.000000 1.000000 -60.708740 114.000000 189.000000 -0.432644 0.202294 0.878577
-16630.00000000 -2470.00000000 0.00000000 209 36 133 97.000000 1.000000 4.000000 1.000000 -60.708740 114.000000 189.000000 -0.650600 0.015325 0.759266
-16540.00000000 -2710.00000000 40.00000000 209 36 133 97.000000 1.000000 4.000000 1.000000 -60.708740 114.000000 189.000000 0.916268 0.009072 -0.400462
-16520.00000000 -2630.00000000 140.00000000 209 36 133 97.000000 1.000000 4.000000 1.000000 -60.708740 114.000000 189.000000 -0.214890 -0.381539 0.899028
-16530.00000000 -2750.00000000 50.00000000 209 36 133 97.000000 1.000000 4.000000 1.000000 -60.708740 114.000000 189.000000 -0.461585 -0.504600 0.729602
-16570.00000000 -2750.00000000 30.00000000 209 36 133 97.000000 1.000000 4.000000 1.000000 -60.708740 114.000000 189.000000 0.815100 0.465545 -0.344789
-16580.00000000 -2780.00000000 40.00000000 209 36 133 97.000000 1.000000 4.000000 1.000000 -60.708740 114.000000 189.000000 0.685073 0.330332 -0.649273
-15850.00000000 -4130.00000000 250.00000000 209 36 133 97.000000 1.000000 4.000000 1.000000 -60.708740 114.000000 172.000000 -0.254624 -0.417341 0.872349
-15870.00000000 -4240.00000000 190.00000000 209 36 133 97.000000 1.000000 4.000000 1.000000 -60.708740 114.000000 172.000000 0.797034 -0.170901 -0.579249
-15870.00000000 -4160.00000000 130.00000000 209 36 133 97.000000 1.000000 4.000000 1.000000 -60.708740 114.000000 172.000000 -0.476307 -0.469715 0.743303
-15880.00000000 -4210.00000000 70.00000000 209 36 133 97.000000 1.000000 4.000000 1.000000 -60.708740 114.000000 172.000000 0.968892 0.215735 -0.121271
-15880.00000000 -4200.00000000 50.00000000 209 36 133 97.000000 1.000000 4.000000 1.000000 -60.708740 114.000000 172.000000 0.987514 0.037937 -0.152898
-15650.00000000 -4040.00000000 -90.00000000 209 36 133 97.000000 1.000000 4.000000 1.000000 -60.708740 114.000000 172.000000 0.817536 0.324168 -0.475973
-15640.00000000 -4050.00000000 -60.00000000 209 36 133 97.000000 1.000000 4.000000 1.000000 -60.708740 114.000000 172.000000 0.972248 0.104125 -0.209504
-15620.00000000 -4120.00000000 -70.00000000 209 36 133 97.000000 1.000000 4.000000 1.000000 -60.708740 114.000000 172.000000 0.927129 -0.006394 -0.374688
-15600.00000000 -4240.00000000 -80.00000000 209 36 133 97.000000 1.000000 4.000000 1.000000 -60.708740 114.000000 172.000000 -0.668950 0.169142 0.723807
-15630.00000000 -4120.00000000 -50.00000000 209 36 133 97.000000 1.000000 4.000000 1.000000 -60.708740 114.000000 172.000000 0.823445 0.366505 -0.433142
-15650.00000000 -4110.00000000 -220.00000000 209 36 133 97.000000 1.000000 4.000000 1.000000 -60.708740 114.000000 172.000000 0.040445 -0.081982 0.995813
-15640.00000000 -4140.00000000 -290.00000000 209 36 133 97.000000 1.000000 4.000000 1.000000 -60.708740 114.000000 172.000000 -0.508460 -0.329941 0.795366
-15630.00000000 -4140.00000000 -290.00000000 209 36 133 97.000000 1.000000 4.000000 1.000000 -60.708740 114.000000 172.000000 -0.453070 0.336250 0.825629
-15580.00000000 -4410.00000000 -140.00000000 209 36 133 97.000000 1.000000 4.000000 1.000000 -60.708740 114.000000 172.000000 -0.388969 -0.082673 0.917534
-15540.00000000 -4400.00000000 -130.00000000 209 36 133 97.000000 1.000000 4.000000 1.000000 -60.708740 114.000000 172.000000 -0.645419 0.129680 0.752740
-15620.00000000 -4280.00000000 -20.00000000 209 36 133 97.000000 1.000000 4.000000 1.000000 -60.708740 114.000000 172.000000 0.716470 0.457144 -0.526963
-15590.00000000 -4260.00000000 -50.00000000 209 36 133 97.000000 1.000000 4.000000 1.000000 -60.708740 114.000000 172.000000 0.705835 0.340691 -0.621069
-15600.00000000 -4250.00000000 -20.00000000 209 36 133 97.000000 1.000000 4.000000 1.000000 -60.708740 114.000000 172.000000 0.686791 0.590341 -0.424048
-15610.00000000 -4260.00000000 -180.00000000 209 36 133 97.000000 1.000000 4.000000 1.000000 -60.708740 114.000000 172.000000 -0.022123 0.189794 0.981575
-15600.00000000 -4290.00000000 -130.00000000 209 36 133 97.000000 1.000000 4.000000 1.000000 -60.708740 114.000000 172.000000 0.684429 0.114319 -0.720061
-15560.00000000 -4400.00000000 -270.00000000 209 36 133 97.000000 1.000000 4.000000 1.000000 -60.708740 114.000000 172.000000 -0.483518 -0.219781 0.847294
-15580.00000000 -4390.00000000 -280.00000000 209 36 133 97.000000 1.000000 4.000000 1.000000 -60.708740 114.000000 172.000000 -0.006385 0.371603 0.928370
-15600.00000000 -4280.00000000 -210.00000000 209 36 133 97.000000 1.000000 4.000000 1.000000 -60.708740 114.000000 172.000000 -0.278943 -0.448466 0.849158
-15770.00000000 -4360.00000000 -160.00000000 209 36 133 97.000000 1.000000 4.000000 1.000000 -60.708740 114.000000 172.000000 0.132168 0.249941 0.959198
-15760.00000000 -4360.00000000 -170.00000000 209 36 133 97.000000 1.000000 4.000000 1.000000 -60.708740 114.000000 172.000000 0.491682 0.285644 0.822591
-15780.00000000 -4250.00000000 -150.00000000 209 36 133 97.000000 1.000000 4.000000 1.000000 -60.708740 114.000000 172.000000 0.652717 -0.055702 0.755552
-15470.00000000 -4480.00000000 -90.00000000 209 36 133 97.000000 1.000000 4.000000 1.000000 -60.708740 114.000000 172.000000 -0.450556 0.200743 0.869886
-15460.00000000 -4500.00000000 -80.00000000 209 36 133 97.000000 1.000000 4.000000 1.000000 -60.708740 114.000000 172.000000 -0.380188 -0.499906 0.778172
-15520.00000000 -4470.00000000 -120.00000000 209 36 133 97.000000 1.000000 4.000000 1.000000 -60.708740 114.000000 172.000000 -0.110113 -0.036704 0.993241
-15600.00000000 -4530.00000000 -140.00000000 209 36 133 97.000000 1.000000 4.000000 1.000000 -60.708740 114.000000 172.000000 0.416768 0.218024 0.882479
-15570.00000000 -4450.00000000 -130.00000000 209 36 133 97.000000 1.000000 4.000000 1.000000 -60.708740 114.000000 172.000000 -0.378658 0.011552 0.925465
-15550.00000000 -4440.00000000 -150.00000000 209 36 133 97.000000 1.000000 4.000000 1.000000 -60.708740 114.000000 172.000000 -0.421432 -0.346232 0.838164
-16830.00000000 -1550.00000000 -20.00000000 209 36 133 97.000000 1.000000 4.000000 1.000000 -60.708740 114.000000 189.000000 -0.350574 0.026967 0.936147
-16960.00000000 -1380.00000000 -100.00000000 209 36 133 97.000000 1.000000 4.000000 1.000000 -60.708740 114.000000 189.000000 0.681415 0.052856 -0.729986
-16980.00000000 -1250.00000000 -80.00000000 209 36 133 97.000000 1.000000 4.000000 1.000000 -60.708740 114.000000 189.000000 -0.346901 0.343844 0.872600
-17010.00000000 -1240.00000000 -100.00000000 209 36 133 97.000000 1.000000 4.000000 1.000000 -60.708740 114.000000 189.000000 -0.274638 0.321635 0.906159
-16970.00000000 -1340.00000000 -110.00000000 209 36 133 97.000000 1.000000 4.000000 1.000000 -60.708740 114.000000 189.000000 -0.556345 -0.337032 0.759532
-16940.00000000 -1350.00000000 -100.00000000 209 36 133 97.000000 1.000000 4.000000 1.000000 -60.708740 114.000000 189.000000 -0.675050 0.032414 0.737059
-17010.00000000 -1300.00000000 -150.00000000 209 36 133 97.000000 1.000000 4.000000 1.000000 -60.708740 114.000000 189.000000 -0.295164 -0.205636 0.933055
-17100.00000000 -1100.00000000 -290.00000000 209 36 133 97.000000 1.000000 4.000000 1.000000 -60.708740 114.000000 189.000000 0.982869 0.184216 -0.005721
-17090.00000000 -1230.00000000 -80.00000000 209 36 133 97.000000 1.000000 4.000000 1.000000 -60.708740 114.000000 189.000000 0.810765 0.179667 -0.557118
-17060.00000000 -1240.00000000 -170.00000000 209 36 133 97.000000 1.000000 4.000000 1.000000 -60.708740 114.000000 189.000000 0.854040 0.327046 -0.404545
-17120.00000000 -1220.00000000 -190.00000000 209 36 133 97.000000 1.000000 4.000000 1.000000 -60.708740 114.000000 189.000000 0.787860 0.201189 -0.582065
-16920.00000000 -1450.00000000 -80.00000000 209 36 133 97.000000 1.000000 4.000000 1.000000 -60.708740 114.000000 189.000000 -0.119312 0.009851 0.992808
-16870.00000000 -1510.00000000 -40.00000000 209 36 133 97.000000 1.000000 4.000000 1.000000 -60.708740 114.000000 189.000000 -0.414848 0.254943 0.873444
-16880.00000000 -1530.00000000 -30.00000000 209 36 133 97.000000 1.000000 4.000000 1.000000 -60.708740 114.000000 189.000000 -0.132168 0.249941 0.959198
-16890.00000000 -1540.00000000 -30.00000000 209 36 133 97.000000 1.000000 4.000000 1.000000 -60.708740 114.000000 189.000000 -0.011631 0.075074 0.997110
-16900.00000000 -1580.00000000 -40.00000000 209 36 133 97.000000 1.000000 4.000000 1.000000 -60.708740 114.000000 189.000000 -0.383262 -0.327851 0.863495
-16920.00000000 -1620.00000000 -60.00000000 209 36 133 97.000000 1.000000 4.000000 1.000000 -60.708740 114.000000 189.000000 -0.383957 -0.292900 0.875664
-16890.00000000 -1660.00000000 -30.00000000 209 36 133 97.000000 1.000000 4.000000 1.000000 -60.708740 114.000000 189.000000 -0.382504 0.051618 0.922511
-16920.00000000 -1640.00000000 -60.00000000 209 36 133 97.000000 1.000000 4.000000 1.000000 -60.708740 114.000000 189.000000 -0.574005 0.103176 0.812326
-16930.00000000 -1640.00000000 -60.00000000 209 36 133 97.000000 1.000000 4.000000 1.000000 -60.708740 114.000000 189.000000 -0.341822 0.011352 0.939696
-16950.00000000 -1580.00000000 -70.00000000 209 36 133 97.000000 1.000000 4.000000 1.000000 -60.708740 114.000000 189.000000 -0.368323 -0.425231 0.826751
-16970.00000000 -1700.00000000 -50.00000000 209 36 133 97.000000 1.000000 4.000000 1.000000 -60.708740 114.000000 189.000000 0.567676 0.523879 -0.635056
-16780.00000000 -2080.00000000 -50.00000000 209 36 133 97.000000 1.000000 4.000000 1.000000 -60.708740 114.000000 189.000000 0.763075 0.333946 -0.553350
-16750.00000000 -2210.00000000 -40.00000000 209 36 133 97.000000 1.000000 4.000000 1.000000 -60.708740 114.000000 189.000000 0.702488 0.146541 -0.696445
-16810.00000000 -2160.00000000 -30.00000000 209 36 133 97.000000 1.000000 4.000000 1.000000 -60.708740 114.000000 189.000000 0.739011 0.491020 -0.461262
-16840.00000000 -2200.00000000 -70.00000000 209 36 133 97.000000 1.000000 4.000000 1.000000 -60.708740 114.000000 189.000000 0.815189 0.245949 -0.524382
-16710.00000000 -2290.00000000 -80.00000000 209 36 133 97.000000 1.000000 4.000000 1.000000 -60.708740 114.000000 189.000000 0.790221 0.418542 -0.447630
-16750.00000000 -2240.00000000 -30.00000000 209 36 133 97.000000 1.000000 4.000000 1.000000 -60.708740 114.000000 189.000000 0.796020 0.437569 -0.418193
-16830.00000000 -2290.00000000 -100.00000000 209 36 133 97.000000 1.000000 4.000000 1.000000 -60.708740 114.000000 189.000000 0.874128 0.461062 0.152718
-16800.00000000 -2370.00000000 -70.00000000 209 36 133 97.000000 1.000000 4.000000 1.000000 -60.708740 114.000000 189.000000 0.996140 -0.013910 -0.086667
-16770.00000000 -2340.00000000 -60.00000000 209 36 133 97.000000 1.000000 4.000000 1.000000 -60.708740 114.000000 189.000000 0.660379 0.695557 -0.283020
-16800.00000000 -2390.00000000 -70.00000000 209 36 133 97.000000 1.000000 4.000000 1.000000 -60.708740 114.000000 189.000000 0.692141 0.448641 -0.565387
-16800.00000000 -2380.00000000 -110.00000000 209 36 133 97.000000 1.000000 4.000000 1.000000 -60.708740 114.000000 189.000000 0.948178 0.244207 0.203278
-16870.00000000 -1770.00000000 -20.00000000 209 36 133 97.000000 1.000000 4.000000 1.000000 -60.708740 114.000000 189.000000 -0.440632 0.108398 0.891119
-16870.00000000 -1760.00000000 -20.00000000 209 36 133 97.000000 1.000000 4.000000 1.000000 -60.708740 114.000000 189.000000 -0.468658 -0.073706 0.880299
-16860.00000000 -1720.00000000 -30.00000000 209 36 133 97.000000 1.000000 4.000000 1.000000 -60.708740 114.000000 189.000000 -0.384127 -0.258576 0.886332
-16970.00000000 -1830.00000000 -30.00000000 209 36 133 97.000000 1.000000 4.000000 1.000000 -60.708740 114.000000 189.000000 0.785941 -0.125810 -0.605367
-16890.00000000 -1850.00000000 -30.00000000 209 36 133 97.000000 1.000000 4.000000 1.000000 -60.708740 114.000000 189.000000 -0.478017 -0.353317 0.804156
-16860.00000000 -2200.00000000 -140.00000000 209 36 133 97.000000 1.000000 4.000000 1.000000 -60.708740 114.000000 189.000000 0.941544 0.191617 -0.277087
-16880.00000000 -2230.00000000 -60.00000000 209 36 133 97.000000 1.000000 4.000000 1.000000 -60.708740 114.000000 189.000000 0.911817 0.214630 -0.350034
-16630.00000000 -2440.00000000 -30.00000000 209 36 133 97.000000 1.000000 4.000000 1.000000 -60.708740 114.000000 189.000000 0.911706 0.202442 -0.357504
-16730.00000000 -2460.00000000 -40.00000000 209 36 133 97.000000 1.000000 4.000000 1.000000 -60.708740 114.000000 189.000000 0.670397 0.546063 -0.502378
-16740.00000000 -2530.00000000 -50.00000000 209 36 133 97.000000 1.000000 4.000000 1.000000 -60.708740 114.000000 189.000000 0.886054 0.461401 0.044915
-15880.00000000 -4210.00000000 -50.00000000 209 36 133 97.000000 1.000000 4.000000 1.000000 -60.708740 114.000000 172.000000 0.889908 0.440002 0.120258
-17180.00000000 -880.00000000 -310.00000000 209 36 133 97.000000 1.000000 4.000000 1.000000 -60.708740 114.000000 189.000000 0.750799 0.400753 0.525069
-17160.00000000 -860.00000000 -330.00000000 209 36 133 97.000000 1.000000 4.000000 1.000000 -60.708740 114.000000 189.000000 0.848510 0.020495 0.528782
-16980.00000000 -830.00000000 -570.00000000 209 36 133 97.000000 1.000000 4.000000 1.000000 -60.708740 114.000000 189.000000 -0.409129 0.092295 0.907797
-17000.00000000 -830.00000000 -560.00000000 209 36 133 97.000000 1.000000 4.000000 1.000000 -60.708740 114.000000 189.000000 -0.214952 -0.425457 0.879080
-16990.00000000 -820.00000000 -590.00000000 209 36 133 97.000000 1.000000 4.000000 1.000000 -60.708740 114.000000 189.000000 -0.153246 -0.038023 0.987456
-16960.00000000 -910.00000000 -560.00000000 209 36 133 97.000000 1.000000 4.000000 1.000000 -60.708740 114.000000 189.000000 -0.428796 0.135334 0.893207
-17150.00000000 -740.00000000 -370.00000000 209 36 133 97.000000 1.000000 4.000000 1.000000 -60.708740 114.000000 189.000000 0.444895 0.183537 0.876575
-17130.00000000 -790.00000000 -500.00000000 209 36 133 97.000000 1.000000 4.000000 1.000000 -60.708740 114.000000 189.000000 0.136488 0.071161 0.988083
-17160.00000000 -800.00000000 -370.00000000 209 36 133 97.000000 1.000000 4.000000 1.000000 -60.708740 114.000000 189.000000 0.063462 0.041949 0.997102
-17130.00000000 -840.00000000 -520.00000000 209 36 133 97.000000 1.000000 4.000000 1.000000 -60.708740 114.000000 189.000000 0.388722 -0.126787 0.912590
-17030.00000000 -790.00000000 -560.00000000 209 36 133 97.000000 1.000000 4.000000 1.000000 -60.708740 114.000000 189.000000 -0.187320 0.089375 0.978225
-17100.00000000 -790.00000000 -540.00000000 209 36 133 97.000000 1.000000 4.000000 1.000000 -60.708740 114.000000 189.000000 0.158648 -0.079920 0.984095
-17060.00000000 -720.00000000 -570.00000000 209 36 133 97.000000 1.000000 4.000000 1.000000 -60.708740 114.000000 189.000000 0.066998 0.151627 0.986165
-17160.00000000 -740.00000000 -530.00000000 209 36 133 97.000000 1.000000 4.000000 1.000000 -60.708740 114.000000 189.000000 0.008406 -0.255785 0.966697
-17110.00000000 -740.00000000 -590.00000000 209 36 133 97.000000 1.000000 4.000000 1.000000 -60.708740 114.000000 189.000000 -0.480863 0.039504 0.875906
-17150.00000000 -900.00000000 -380.00000000 209 36 133 97.000000 1.000000 4.000000 1.000000 -60.708740 114.000000 189.000000 0.472104 0.065070 0.879138
-17210.00000000 -680.00000000 -510.00000000 209 36 133 97.000000 1.000000 4.000000 1.000000 -60.708740 114.000000 189.000000 -0.042105 -0.215337 0.975632
-17200.00000000 -810.00000000 -180.00000000 209 36 133 97.000000 1.000000 4.000000 1.000000 -60.708740 114.000000 189.000000 0.557225 0.470211 -0.684399
-17200.00000000 -870.00000000 -320.00000000 209 36 133 97.000000 1.000000 4.000000 1.000000 -60.708740 114.000000 189.000000 0.766968 0.479150 0.426820
-17220.00000000 -820.00000000 -240.00000000 209 36 133 97.000000 1.000000 4.000000 1.000000 -60.708740 114.000000 189.000000 0.906858 0.109712 -0.406906
-17190.00000000 -830.00000000 -310.00000000 209 36 133 97.000000 1.000000 4.000000 1.000000 -60.708740 114.000000 189.000000 0.787392 0.464028 0.405822
-17210.00000000 -920.00000000 -160.00000000 209 36 133 97.000000 1.000000 4.000000 1.000000 -60.708740 114.000000 189.000000 -0.463515 -0.201204 0.862943
-17190.00000000 -800.00000000 -500.00000000 209 36 133 97.000000 1.000000 4.000000 1.000000 -60.708740 114.000000 189.000000 -0.119750 0.235636 0.964435
-17190.00000000 -810.00000000 -390.00000000 209 36 133 97.000000 1.000000 4.000000 1.000000 -60.708740 114.000000 189.000000 0.812017 0.147504 0.564687
-15660.00000000 -3890.00000000 290.00000000 209 36 133 97.000000 1.000000 4.000000 1.000000 -60.708740 114.000000 172.000000 0.451349 0.230958 0.861941
-15650.00000000 -4020.00000000 20.00000000 209 36 133 97.000000 1.000000 4.000000 1.000000 -60.708740 114.000000 172.000000 0.902893 0.361450 -0.232674
-15670.00000000 -4010.00000000 90.00000000 209 36 133 97.000000 1.000000 4.000000 1.000000 -60.708740 114.000000 172.000000 0.768194 0.511588 0.384909
-15630.00000000 -4190.00000000 360.00000000 209 36 133 97.000000 1.000000 4.000000 1.000000 -60.708740 114.000000 172.000000 0.465583 -0.001319 0.885003
-15580.00000000 -4250.00000000 240.00000000 209 36 133 97.000000 1.000000 4.000000 1.000000 -60.708740 114.000000 172.000000 0.140706 0.212995 0.966869
-15620.00000000 -4300.00000000 210.00000000 209 36 133 97.000000 1.000000 4.000000 1.000000 -60.708740 114.000000 172.000000 0.439849 0.075836 0.894864
-15300.00000000 -4610.00000000 100.00000000 209 36 133 97.000000 1.000000 4.000000 1.000000 -60.708740 114.000000 172.000000 0.777910 0.555196 0.294301
-15320.00000000 -4600.00000000 70.00000000 209 36 133 97.000000 1.000000 4.000000 1.000000 -60.708740 114.000000 172.000000 0.978349 0.092065 -0.185358
-15320.00000000 -4600.00000000 60.00000000 209 36 133 97.000000 1.000000 4.000000 1.000000 -60.708740 114.000000 172.000000 0.808734 0.460994 0.365286
-15380.00000000 -4550.00000000 -10.00000000 209 36 133 97.000000 1.000000 4.000000 1.000000 -60.708740 114.000000 172.000000 0.792407 0.055483 -0.607464
-15340.00000000 -4620.00000000 30.00000000 209 36 133 97.000000 1.000000 4.000000 1.000000 -60.708740 114.000000 172.000000 0.927445 0.201864 -0.314795
-15650.00000000 -4510.00000000 330.00000000 209 36 133 97.000000 1.000000 4.000000 1.000000 -60.708740 114.000000 172.000000 -0.052718 0.162840 0.985243
-16510.00000000 -2360.00000000 120.00000000 209 36 133 97.000000 1.000000 4.000000 1.000000 -60.708740 114.000000 189.000000 -0.164151 0.100923 0.981259
-16790.00000000 -1690.00000000 30.00000000 209 36 133 97.000000 1.000000 4.000000 1.000000 -60.708740 114.000000 189.000000 -0.043050 -0.032550 0.998543
-16850.00000000 -1680.00000000 20.00000000 209 36 133 97.000000 1.000000 4.000000 1.000000 -60.708740 114.000000 189.000000 -0.321118 -0.414195 0.851660
-16850.00000000 -1700.00000000 -10.00000000 209 36 133 97.000000 1.000000 4.000000 1.000000 -60.708740 114.000000 189.000000 -0.037573 -0.140046 0.989432
-17050.00000000 -1170.00000000 10.00000000 209 36 133 97.000000 1.000000 4.000000 1.000000 -60.708740 114.000000 189.000000 -0.261947 -0.416390 0.870634
-17050.00000000 -1110.00000000 -10.00000000 209 36 133 97.000000 1.000000 4.000000 1.000000 -60.708740 114.000000 189.000000 -0.579688 0.072998 0.811563
-17170.00000000 -1100.00000000 30.00000000 209 36 133 97.000000 1.000000 4.000000 1.000000 -60.708740 114.000000 189.000000 -0.451424 -0.158216 0.878171
-16760.00000000 -1840.00000000 60.00000000 209 36 133 97.000000 1.000000 4.000000 1.000000 -60.708740 114.000000 189.000000 -0.285611 0.097812 0.953341
-16780.00000000 -1800.00000000 70.00000000 209 36 133 97.000000 1.000000 4.000000 1.000000 -60.708740 114.000000 189.000000 -0.395952 -0.192900 0.897781
-16820.00000000 -1770.00000000 70.00000000 209 36 133 97.000000 1.000000 4.000000 1.000000 -60.708740 114.000000 189.000000 -0.024733 0.203751 0.978710
-16780.00000000 -1740.00000000 90.00000000 209 36 133 97.000000 1.000000 4.000000 1.000000 -60.708740 114.000000 189.000000 -0.571634 0.096961 0.814759
