//X Y Z R G B PointSourceId ScanDirectionFlag NumberOfReturns ReturnNumber GpsTime Intensity Classification Nx Ny Nz
17000.00000000 -12430.00000000 -90.00000000 250 137 62 0.000000 0.000000 0.000000 0.000000 -60.708740 0.000000 178.000000 0.040620 0.026038 0.998835
16990.00000000 -12440.00000000 -70.00000000 250 137 62 0.000000 0.000000 0.000000 0.000000 -60.708740 0.000000 178.000000 -0.073885 0.026770 0.996907
16690.00000000 -12480.00000000 -90.00000000 250 137 62 0.000000 0.000000 0.000000 0.000000 -60.708740 0.000000 178.000000 -0.159333 -0.085058 0.983554
16670.00000000 -12430.00000000 -150.00000000 250 137 62 0.000000 0.000000 0.000000 0.000000 -60.708740 0.000000 178.000000 -0.434363 0.099163 0.895263
16650.00000000 -12400.00000000 -130.00000000 250 137 62 0.000000 0.000000 0.000000 0.000000 -60.708740 0.000000 178.000000 -0.329721 0.667564 0.667564
16620.00000000 -12450.00000000 -90.00000000 250 137 62 0.000000 0.000000 0.000000 0.000000 -60.708740 0.000000 178.000000 -0.155955 -0.079763 0.984538
16610.00000000 -12430.00000000 -100.00000000 250 137 62 0.000000 0.000000 0.000000 0.000000 -60.708740 0.000000 178.000000 -0.302648 0.439228 0.845862
16650.00000000 -12450.00000000 -130.00000000 250 137 62 0.000000 0.000000 0.000000 0.000000 -60.708740 0.000000 178.000000 -0.406409 0.438536 0.801573
16640.00000000 -12470.00000000 -110.00000000 250 137 62 0.000000 0.000000 0.000000 0.000000 -60.708740 0.000000 178.000000 -0.164251 0.589196 0.791119
16550.00000000 -12400.00000000 -90.00000000 250 137 62 0.000000 0.000000 0.000000 0.000000 -60.708740 0.000000 178.000000 0.362631 -0.621888 -0.694085
16520.00000000 -12490.00000000 -140.00000000 250 137 62 0.000000 0.000000 0.000000 0.000000 -60.708740 0.000000 178.000000 -0.431952 0.387322 0.814493
16530.00000000 -12480.00000000 -140.00000000 250 137 62 0.000000 0.000000 0.000000 0.000000 -60.708740 0.000000 178.000000 0.012390 0.585094 0.810871
16570.00000000 -12450.00000000 -160.00000000 250 137 62 0.000000 0.000000 0.000000 0.000000 -60.708740 0.000000 178.000000 -0.304575 0.717120 0.626876
16560.00000000 -12370.00000000 -200.00000000 250 137 62 0.000000 0.000000 0.000000 0.000000 -60.708740 0.000000 178.000000 0.755561 -0.586239 -0.292321
16950.00000000 -12510.00000000 -100.00000000 250 137 62 0.000000 0.000000 0.000000 0.000000 -60.708740 0.000000 178.000000 0.290419 -0.076154 0.953865
16890.00000000 -12660.00000000 -40.00000000 250 137 62 0.000000 0.000000 0.000000 0.000000 -60.708740 0.000000 178.000000 0.069979 -0.344613 0.936133
16760.00000000 -12590.00000000 -30.00000000 250 137 62 0.000000 0.000000 0.000000 0.000000 -60.708740 0.000000 178.000000 -0.148530 -0.394665 0.906740
16740.00000000 -12580.00000000 -30.00000000 250 137 62 0.000000 0.000000 0.000000 0.000000 -60.708740 0.000000 178.000000 -0.119665 -0.616054 0.778562
16670.00000000 -12580.00000000 -20.00000000 250 137 62 0.000000 0.000000 0.000000 0.000000 -60.708740 0.000000 178.000000 -0.163195 -0.336153 0.927560
16730.00000000 -12540.00000000 -110.00000000 250 137 62 0.000000 0.000000 0.000000 0.000000 -60.708740 0.000000 178.000000 0.184394 0.126692 0.974653
16680.00000000 -12560.00000000 -120.00000000 250 137 62 0.000000 0.000000 0.000000 0.000000 -60.708740 0.000000 178.000000 -0.196153 0.188254 0.962333
16750.00000000 -12600.00000000 -40.00000000 250 137 62 0.000000 0.000000 0.000000 0.000000 -60.708740 0.000000 178.000000 0.130850 -0.306215 0.942927
16730.00000000 -12590.00000000 -40.00000000 250 137 62 0.000000 0.000000 0.000000 0.000000 -60.708740 0.000000 178.000000 0.287044 -0.252770 0.923966
16700.00000000 -12610.00000000 -40.00000000 250 137 62 0.000000 0.000000 0.000000 0.000000 -60.708740 0.000000 178.000000 -0.135408 -0.186028 0.973169
16710.00000000 -12640.00000000 -20.00000000 250 137 62 0.000000 0.000000 0.000000 0.000000 -60.708740 0.000000 178.000000 -0.312959 -0.377077 0.871705
16650.00000000 -12520.00000000 -110.00000000 250 137 62 0.000000 0.000000 0.000000 0.000000 -60.708740 0.000000 178.000000 -0.502004 -0.190312 0.843667
16650.00000000 -12530.00000000 -110.00000000 250 137 62 0.000000 0.000000 0.000000 0.000000 -60.708740 0.000000 178.000000 -0.398528 -0.051982 0.915682
16660.00000000 -12590.00000000 -30.00000000 250 137 62 0.000000 0.000000 0.000000 0.000000 -60.708740 0.000000 178.000000 -0.193555 -0.365603 0.910424
16570.00000000 -12510.00000000 -140.00000000 250 137 62 0.000000 0.000000 0.000000 0.000000 -60.708740 0.000000 178.000000 0.039782 0.329803 0.943211
16570.00000000 -12520.00000000 -140.00000000 250 137 62 0.000000 0.000000 0.000000 0.000000 -60.708740 0.000000 178.000000 0.053467 0.252415 0.966141
16520.00000000 -12500.00000000 -120.00000000 250 137 62 0.000000 0.000000 0.000000 0.000000 -60.708740 0.000000 178.000000 -0.271654 0.605263 0.748239
16580.00000000 -12500.00000000 -150.00000000 250 137 62 0.000000 0.000000 0.000000 0.000000 -60.708740 0.000000 178.000000 -0.276851 0.574267 0.770436
16520.00000000 -12590.00000000 -90.00000000 250 137 62 0.000000 0.000000 0.000000 0.000000 -60.708740 0.000000 178.000000 -0.353646 -0.029578 0.934912
16190.00000000 -12130.00000000 -240.00000000 250 137 62 0.000000 0.000000 0.000000 0.000000 -60.708740 0.000000 177.000000 -0.421447 0.906829 0.006524
16220.00000000 -12160.00000000 -300.00000000 250 137 62 0.000000 0.000000 0.000000 0.000000 -60.708740 0.000000 177.000000 -0.569452 0.821932 -0.012350
16180.00000000 -12150.00000000 -280.00000000 250 137 62 0.000000 0.000000 0.000000 0.000000 -60.708740 0.000000 177.000000 -0.273878 0.959209 -0.070062
16210.00000000 -12140.00000000 -340.00000000 250 137 62 0.000000 0.000000 0.000000 0.000000 -60.708740 0.000000 177.000000 -0.286532 0.957975 0.013527
16340.00000000 -12150.00000000 -630.00000000 250 137 62 0.000000 0.000000 0.000000 0.000000 -60.708740 0.000000 177.000000 0.525142 -0.786915 0.324024
16280.00000000 -12150.00000000 -520.00000000 250 137 62 0.000000 0.000000 0.000000 0.000000 -60.708740 0.000000 177.000000 -0.173923 0.984006 -0.038520
16260.00000000 -12150.00000000 -520.00000000 250 137 62 0.000000 0.000000 0.000000 0.000000 -60.708740 0.000000 177.000000 -0.589132 0.789044 -0.174165
16240.00000000 -12130.00000000 -370.00000000 250 137 62 0.000000 0.000000 0.000000 0.000000 -60.708740 0.000000 177.000000 -0.253843 0.945392 0.204446
16300.00000000 -12140.00000000 -630.00000000 250 137 62 0.000000 0.000000 0.000000 0.000000 -60.708740 0.000000 177.000000 -0.162832 0.940046 -0.299665
16300.00000000 -12140.00000000 -650.00000000 250 137 62 0.000000 0.000000 0.000000 0.000000 -60.708740 0.000000 177.000000 0.313996 -0.603838 0.732657
16290.00000000 -12130.00000000 -610.00000000 250 137 62 0.000000 0.000000 0.000000 0.000000 -60.708740 0.000000 177.000000 -0.512112 0.792895 -0.330240
16180.00000000 -12140.00000000 -550.00000000 250 137 62 0.000000 0.000000 0.000000 0.000000 -60.708740 0.000000 177.000000 0.678027 -0.628536 0.381081
16220.00000000 -12130.00000000 -610.00000000 250 137 62 0.000000 0.000000 0.000000 0.000000 -60.708740 0.000000 177.000000 -0.336720 0.691333 -0.639280
16460.00000000 -12470.00000000 -50.00000000 250 137 62 0.000000 0.000000 0.000000 0.000000 -60.708740 0.000000 178.000000 0.622995 -0.518319 -0.585852
16470.00000000 -12490.00000000 -130.00000000 250 137 62 0.000000 0.000000 0.000000 0.000000 -60.708740 0.000000 178.000000 -0.409595 0.645070 0.645070
16430.00000000 -12480.00000000 -140.00000000 250 137 62 0.000000 0.000000 0.000000 0.000000 -60.708740 0.000000 178.000000 -0.142411 0.634102 0.760023
16420.00000000 -12440.00000000 -160.00000000 250 137 62 0.000000 0.000000 0.000000 0.000000 -60.708740 0.000000 178.000000 -0.539238 0.307000 0.784202
16420.00000000 -12480.00000000 -150.00000000 250 137 62 0.000000 0.000000 0.000000 0.000000 -60.708740 0.000000 178.000000 -0.228570 0.826840 0.513899
16360.00000000 -12470.00000000 -170.00000000 250 137 62 0.000000 0.000000 0.000000 0.000000 -60.708740 0.000000 178.000000 -0.497981 0.413080 0.762483
16340.00000000 -12460.00000000 -110.00000000 250 137 62 0.000000 0.000000 0.000000 0.000000 -60.708740 0.000000 178.000000 0.594469 -0.437942 -0.674398
16380.00000000 -12410.00000000 -190.00000000 250 137 62 0.000000 0.000000 0.000000 0.000000 -60.708740 0.000000 178.000000 -0.258195 0.628855 0.733401
16400.00000000 -12470.00000000 -200.00000000 250 137 62 0.000000 0.000000 0.000000 0.000000 -60.708740 0.000000 178.000000 -0.349265 0.783835 0.513436
16190.00000000 -12180.00000000 -320.00000000 250 137 62 0.000000 0.000000 0.000000 0.000000 -60.708740 0.000000 177.000000 -0.262950 0.939107 0.221212
16200.00000000 -12190.00000000 -290.00000000 250 137 62 0.000000 0.000000 0.000000 0.000000 -60.708740 0.000000 177.000000 -0.474252 0.877988 0.064985
16370.00000000 -12260.00000000 -580.00000000 250 137 62 0.000000 0.000000 0.000000 0.000000 -60.708740 0.000000 177.000000 -0.158453 0.780192 -0.605139
16390.00000000 -12190.00000000 -600.00000000 250 137 62 0.000000 0.000000 0.000000 0.000000 -60.708740 0.000000 177.000000 0.092045 -0.638472 0.764121
16280.00000000 -12190.00000000 -500.00000000 250 137 62 0.000000 0.000000 0.000000 0.000000 -60.708740 0.000000 177.000000 0.736693 -0.658032 0.155810
16240.00000000 -12170.00000000 -390.00000000 250 137 62 0.000000 0.000000 0.000000 0.000000 -60.708740 0.000000 177.000000 -0.448625 0.862507 -0.234131
16240.00000000 -12170.00000000 -410.00000000 250 137 62 0.000000 0.000000 0.000000 0.000000 -60.708740 0.000000 177.000000 -0.277605 0.936046 -0.216225
16220.00000000 -12200.00000000 -420.00000000 250 137 62 0.000000 0.000000 0.000000 0.000000 -60.708740 0.000000 177.000000 -0.217345 0.973756 -0.067537
16200.00000000 -12180.00000000 -360.00000000 250 137 62 0.000000 0.000000 0.000000 0.000000 -60.708740 0.000000 177.000000 -0.182486 0.976981 -0.110485
16170.00000000 -12220.00000000 -440.00000000 250 137 62 0.000000 0.000000 0.000000 0.000000 -60.708740 0.000000 177.000000 -0.290351 0.883088 -0.368580
16220.00000000 -12190.00000000 -450.00000000 250 137 62 0.000000 0.000000 0.000000 0.000000 -60.708740 0.000000 177.000000 -0.281584 0.924796 -0.255856
16230.00000000 -12170.00000000 -510.00000000 250 137 62 0.000000 0.000000 0.000000 0.000000 -60.708740 0.000000 177.000000 -0.079907 0.993773 -0.077656
16220.00000000 -12170.00000000 -500.00000000 250 137 62 0.000000 0.000000 0.000000 0.000000 -60.708740 0.000000 177.000000 -0.308766 0.951098 -0.008680
16230.00000000 -12170.00000000 -510.00000000 250 137 62 0.000000 0.000000 0.000000 0.000000 -60.708740 0.000000 177.000000 -0.079907 0.993773 -0.077656
16330.00000000 -12180.00000000 -650.00000000 250 137 62 0.000000 0.000000 0.000000 0.000000 -60.708740 0.000000 177.000000 0.232182 -0.584351 0.777577
16330.00000000 -12260.00000000 -560.00000000 250 137 62 0.000000 0.000000 0.000000 0.000000 -60.708740 0.000000 177.000000 0.489305 -0.516025 0.703063
16210.00000000 -12170.00000000 -650.00000000 250 137 62 0.000000 0.000000 0.000000 0.000000 -60.708740 0.000000 177.000000 -0.341605 0.879064 -0.332496
16130.00000000 -12130.00000000 -330.00000000 250 137 62 0.000000 0.000000 0.000000 0.000000 -60.708740 0.000000 177.000000 -0.229285 0.958226 -0.170970
16040.00000000 -12320.00000000 -60.00000000 250 137 62 0.000000 0.000000 0.000000 0.000000 -60.708740 0.000000 178.000000 -0.336250 0.453070 0.825629
16130.00000000 -12180.00000000 -300.00000000 250 137 62 0.000000 0.000000 0.000000 0.000000 -60.708740 0.000000 177.000000 -0.285700 0.948308 0.138155
16140.00000000 -12170.00000000 -300.00000000 250 137 62 0.000000 0.000000 0.000000 0.000000 -60.708740 0.000000 177.000000 0.554421 -0.771716 -0.311562
16130.00000000 -12170.00000000 -320.00000000 250 137 62 0.000000 0.000000 0.000000 0.000000 -60.708740 0.000000 177.000000 -0.541019 0.832674 0.118120
16130.00000000 -12210.00000000 -330.00000000 250 137 62 0.000000 0.000000 0.000000 0.000000 -60.708740 0.000000 177.000000 -0.649251 0.760471 -0.012512
15950.00000000 -12250.00000000 -20.00000000 250 137 62 0.000000 0.000000 0.000000 0.000000 -60.708740 0.000000 178.000000 -0.307807 0.614003 0.726812
15920.00000000 -12310.00000000 -50.00000000 250 137 62 0.000000 0.000000 0.000000 0.000000 -60.708740 0.000000 178.000000 -0.379822 0.884250 0.271730
15930.00000000 -12300.00000000 -50.00000000 250 137 62 0.000000 0.000000 0.000000 0.000000 -60.708740 0.000000 178.000000 -0.280096 0.568104 0.773824
15840.00000000 -12270.00000000 -60.00000000 250 137 62 0.000000 0.000000 0.000000 0.000000 -60.708740 0.000000 178.000000 0.526352 -0.543169 -0.654157
15860.00000000 -12260.00000000 -40.00000000 250 137 62 0.000000 0.000000 0.000000 0.000000 -60.708740 0.000000 178.000000 -0.532461 0.394841 0.748723
15860.00000000 -12330.00000000 -30.00000000 250 137 62 0.000000 0.000000 0.000000 0.000000 -60.708740 0.000000 178.000000 -0.184948 0.907534 0.377064
15980.00000000 -12350.00000000 -40.00000000 250 137 62 0.000000 0.000000 0.000000 0.000000 -60.708740 0.000000 178.000000 -0.609304 0.716541 0.339585
16340.00000000 -12160.00000000 -780.00000000 250 137 62 0.000000 0.000000 0.000000 0.000000 -60.708740 0.000000 177.000000 -0.623251 0.579337 -0.525288
16420.00000000 -12200.00000000 -760.00000000 250 137 62 0.000000 0.000000 0.000000 0.000000 -60.708740 0.000000 177.000000 -0.077643 0.856891 -0.509617
16440.00000000 -12520.00000000 -100.00000000 250 137 62 0.000000 0.000000 0.000000 0.000000 -60.708740 0.000000 178.000000 -0.494540 0.432106 0.754132
16500.00000000 -12530.00000000 -140.00000000 250 137 62 0.000000 0.000000 0.000000 0.000000 -60.708740 0.000000 178.000000 -0.592689 0.295546 0.749248
16460.00000000 -12540.00000000 -130.00000000 250 137 62 0.000000 0.000000 0.000000 0.000000 -60.708740 0.000000 178.000000 -0.552900 0.173252 0.815037
16470.00000000 -12500.00000000 -110.00000000 250 137 62 0.000000 0.000000 0.000000 0.000000 -60.708740 0.000000 178.000000 -0.266886 0.589044 0.762757
16490.00000000 -12510.00000000 -160.00000000 250 137 62 0.000000 0.000000 0.000000 0.000000 -60.708740 0.000000 178.000000 0.653981 -0.427667 -0.624027
16450.00000000 -12510.00000000 -140.00000000 250 137 62 0.000000 0.000000 0.000000 0.000000 -60.708740 0.000000 178.000000 -0.267301 0.316963 0.909992
16440.00000000 -12550.00000000 -150.00000000 250 137 62 0.000000 0.000000 0.000000 0.000000 -60.708740 0.000000 178.000000 -0.018007 0.597018 0.802026
16390.00000000 -12530.00000000 -130.00000000 250 137 62 0.000000 0.000000 0.000000 0.000000 -60.708740 0.000000 178.000000 -0.392692 0.506752 0.767460
16320.00000000 -12590.00000000 -110.00000000 250 137 62 0.000000 0.000000 0.000000 0.000000 -60.708740 0.000000 178.000000 -0.248344 0.422938 0.871463
17480.00000000 -12670.00000000 380.00000000 250 137 62 0.000000 0.000000 0.000000 0.000000 -60.708740 0.000000 178.000000 0.303680 -0.392190 0.868312
17460.00000000 -12670.00000000 330.00000000 250 137 62 0.000000 0.000000 0.000000 0.000000 -60.708740 0.000000 178.000000 -0.484298 0.547977 -0.682039
17390.00000000 -12690.00000000 390.00000000 250 137 62 0.000000 0.000000 0.000000 0.000000 -60.708740 0.000000 178.000000 -0.202899 0.701629 -0.683043
17380.00000000 -12680.00000000 340.00000000 250 137 62 0.000000 0.000000 0.000000 0.000000 -60.708740 0.000000 178.000000 -0.282047 0.824325 -0.490855
17320.00000000 -12580.00000000 340.00000000 250 137 62 0.000000 0.000000 0.000000 0.000000 -60.708740 0.000000 178.000000 0.419669 -0.245183 0.873935
17280.00000000 -12600.00000000 390.00000000 250 137 62 0.000000 0.000000 0.000000 0.000000 -60.708740 0.000000 178.000000 0.195341 -0.427400 0.882707
17310.00000000 -12620.00000000 390.00000000 250 137 62 0.000000 0.000000 0.000000 0.000000 -60.708740 0.000000 178.000000 0.337020 -0.269322 0.902155
17340.00000000 -12650.00000000 360.00000000 250 137 62 0.000000 0.000000 0.000000 0.000000 -60.708740 0.000000 178.000000 0.321643 -0.615810 0.719253
17330.00000000 -12720.00000000 380.00000000 250 137 62 0.000000 0.000000 0.000000 0.000000 -60.708740 0.000000 178.000000 0.391380 -0.658905 0.642391
17420.00000000 -12580.00000000 270.00000000 250 137 62 0.000000 0.000000 0.000000 0.000000 -60.708740 0.000000 178.000000 -0.113272 0.792905 -0.598724
17410.00000000 -12560.00000000 190.00000000 250 137 62 0.000000 0.000000 0.000000 0.000000 -60.708740 0.000000 178.000000 -0.394571 0.704944 -0.589379
17350.00000000 -12620.00000000 160.00000000 250 137 62 0.000000 0.000000 0.000000 0.000000 -60.708740 0.000000 178.000000 -0.001383 -0.731560 0.681775
17380.00000000 -12610.00000000 210.00000000 250 137 62 0.000000 0.000000 0.000000 0.000000 -60.708740 0.000000 178.000000 -0.470005 0.687446 -0.553636
17390.00000000 -12550.00000000 100.00000000 250 137 62 0.000000 0.000000 0.000000 0.000000 -60.708740 0.000000 178.000000 0.596929 -0.596929 0.536052
16740.00000000 -12480.00000000 140.00000000 250 137 62 0.000000 0.000000 0.000000 0.000000 -60.708740 0.000000 178.000000 -0.451813 -0.082021 0.888334
16690.00000000 -12460.00000000 110.00000000 250 137 62 0.000000 0.000000 0.000000 0.000000 -60.708740 0.000000 178.000000 -0.025262 0.106538 0.993988
16650.00000000 -12440.00000000 90.00000000 250 137 62 0.000000 0.000000 0.000000 0.000000 -60.708740 0.000000 178.000000 0.031773 0.019474 0.999305
16610.00000000 -12440.00000000 100.00000000 250 137 62 0.000000 0.000000 0.000000 0.000000 -60.708740 0.000000 178.000000 -0.303591 0.542014 0.783615
16610.00000000 -12440.00000000 110.00000000 250 137 62 0.000000 0.000000 0.000000 0.000000 -60.708740 0.000000 178.000000 -0.306721 0.383020 0.871331
17100.00000000 -12530.00000000 30.00000000 250 137 62 0.000000 0.000000 0.000000 0.000000 -60.708740 0.000000 178.000000 0.297098 -0.426405 0.854349
17040.00000000 -12540.00000000 40.00000000 250 137 62 0.000000 0.000000 0.000000 0.000000 -60.708740 0.000000 178.000000 -0.260419 -0.604487 0.752847
16960.00000000 -12520.00000000 180.00000000 250 137 62 0.000000 0.000000 0.000000 0.000000 -60.708740 0.000000 178.000000 -0.234361 -0.317753 0.918753
16930.00000000 -12520.00000000 140.00000000 250 137 62 0.000000 0.000000 0.000000 0.000000 -60.708740 0.000000 178.000000 -0.240527 -0.550884 0.799170
16950.00000000 -12540.00000000 140.00000000 250 137 62 0.000000 0.000000 0.000000 0.000000 -60.708740 0.000000 178.000000 0.142128 0.094354 0.985341
16860.00000000 -12950.00000000 230.00000000 250 137 62 0.000000 0.000000 0.000000 0.000000 -60.708740 0.000000 178.000000 -0.006877 -0.601086 0.799155
16780.00000000 -12510.00000000 150.00000000 250 137 62 0.000000 0.000000 0.000000 0.000000 -60.708740 0.000000 178.000000 -0.314722 -0.426347 0.848044
16780.00000000 -12530.00000000 130.00000000 250 137 62 0.000000 0.000000 0.000000 0.000000 -60.708740 0.000000 178.000000 0.085942 0.005305 0.996286
16690.00000000 -12530.00000000 -10.00000000 250 137 62 0.000000 0.000000 0.000000 0.000000 -60.708740 0.000000 178.000000 -0.374628 0.024630 0.926848
16790.00000000 -13000.00000000 250.00000000 250 137 62 0.000000 0.000000 0.000000 0.000000 -60.708740 0.000000 178.000000 0.237303 -0.445889 0.863059
16700.00000000 -12890.00000000 190.00000000 250 137 62 0.000000 0.000000 0.000000 0.000000 -60.708740 0.000000 178.000000 0.033390 -0.431404 0.901541
16700.00000000 -12900.00000000 180.00000000 250 137 62 0.000000 0.000000 0.000000 0.000000 -60.708740 0.000000 178.000000 -0.175561 -0.305504 0.935866
16740.00000000 -12870.00000000 220.00000000 250 137 62 0.000000 0.000000 0.000000 0.000000 -60.708740 0.000000 178.000000 0.087325 -0.439396 0.894039
16830.00000000 -13040.00000000 250.00000000 250 137 62 0.000000 0.000000 0.000000 0.000000 -60.708740 0.000000 178.000000 0.482803 -0.526239 0.699981
16820.00000000 -13020.00000000 240.00000000 250 137 62 0.000000 0.000000 0.000000 0.000000 -60.708740 0.000000 178.000000 -0.371687 0.790036 -0.487537
16800.00000000 -13020.00000000 240.00000000 250 137 62 0.000000 0.000000 0.000000 0.000000 -60.708740 0.000000 178.000000 0.093451 -0.309310 0.946358
16810.00000000 -13070.00000000 240.00000000 250 137 62 0.000000 0.000000 0.000000 0.000000 -60.708740 0.000000 178.000000 0.348730 -0.254559 0.901991
16800.00000000 -13070.00000000 250.00000000 250 137 62 0.000000 0.000000 0.000000 0.000000 -60.708740 0.000000 178.000000 0.310038 -0.266370 0.912646
16550.00000000 -12910.00000000 170.00000000 250 137 62 0.000000 0.000000 0.000000 0.000000 -60.708740 0.000000 178.000000 0.290662 -0.162389 0.942945
16580.00000000 -12920.00000000 150.00000000 250 137 62 0.000000 0.000000 0.000000 0.000000 -60.708740 0.000000 178.000000 -0.181725 -0.621529 0.762022
16550.00000000 -12910.00000000 170.00000000 250 137 62 0.000000 0.000000 0.000000 0.000000 -60.708740 0.000000 178.000000 0.290662 -0.162389 0.942945
16520.00000000 -12910.00000000 160.00000000 250 137 62 0.000000 0.000000 0.000000 0.000000 -60.708740 0.000000 178.000000 -0.048333 -0.354003 0.933994
16510.00000000 -12910.00000000 140.00000000 250 137 62 0.000000 0.000000 0.000000 0.000000 -60.708740 0.000000 178.000000 0.438072 -0.219783 0.871658
16430.00000000 -12360.00000000 40.00000000 250 137 62 0.000000 0.000000 0.000000 0.000000 -60.708740 0.000000 178.000000 -0.275633 0.715372 0.642082
16500.00000000 -12410.00000000 10.00000000 250 137 62 0.000000 0.000000 0.000000 0.000000 -60.708740 0.000000 178.000000 0.023449 0.282623 0.958944
16370.00000000 -12370.00000000 10.00000000 250 137 62 0.000000 0.000000 0.000000 0.000000 -60.708740 0.000000 178.000000 -0.539707 0.354942 0.763369
16340.00000000 -12490.00000000 30.00000000 250 137 62 0.000000 0.000000 0.000000 0.000000 -60.708740 0.000000 178.000000 -0.698176 0.244283 0.672960
16310.00000000 -12400.00000000 20.00000000 250 137 62 0.000000 0.000000 0.000000 0.000000 -60.708740 0.000000 178.000000 0.700263 -0.513080 -0.496368
16290.00000000 -12440.00000000 90.00000000 250 137 62 0.000000 0.000000 0.000000 0.000000 -60.708740 0.000000 178.000000 -0.161255 0.448899 0.878912
16280.00000000 -12480.00000000 50.00000000 250 137 62 0.000000 0.000000 0.000000 0.000000 -60.708740 0.000000 178.000000 -0.035301 0.239806 0.970179
16310.00000000 -12460.00000000 40.00000000 250 137 62 0.000000 0.000000 0.000000 0.000000 -60.708740 0.000000 178.000000 -0.101897 0.365472 0.925228
16200.00000000 -12490.00000000 70.00000000 250 137 62 0.000000 0.000000 0.000000 0.000000 -60.708740 0.000000 178.000000 -0.448770 -0.011914 0.893568
16060.00000000 -12480.00000000 50.00000000 250 137 62 0.000000 0.000000 0.000000 0.000000 -60.708740 0.000000 178.000000 0.664068 -0.230775 -0.711165
15880.00000000 -12250.00000000 50.00000000 250 137 62 0.000000 0.000000 0.000000 0.000000 -60.708740 0.000000 178.000000 -0.265953 0.502356 0.822744
15960.00000000 -12390.00000000 60.00000000 250 137 62 0.000000 0.000000 0.000000 0.000000 -60.708740 0.000000 178.000000 -0.213610 0.681368 0.700078
15940.00000000 -12410.00000000 -10.00000000 250 137 62 0.000000 0.000000 0.000000 0.000000 -60.708740 0.000000 178.000000 -0.302731 0.578232 0.757629
15960.00000000 -12460.00000000 30.00000000 250 137 62 0.000000 0.000000 0.000000 0.000000 -60.708740 0.000000 178.000000 0.333079 -0.638537 -0.693779
16410.00000000 -12830.00000000 190.00000000 250 137 62 0.000000 0.000000 0.000000 0.000000 -60.708740 0.000000 178.000000 0.027162 -0.201945 0.979020
16500.00000000 -12750.00000000 160.00000000 250 137 62 0.000000 0.000000 0.000000 0.000000 -60.708740 0.000000 178.000000 -0.205300 -0.093318 0.974240
16470.00000000 -12780.00000000 130.00000000 250 137 62 0.000000 0.000000 0.000000 0.000000 -60.708740 0.000000 178.000000 -0.387003 -0.167082 0.906814
16390.00000000 -12820.00000000 90.00000000 250 137 62 0.000000 0.000000 0.000000 0.000000 -60.708740 0.000000 178.000000 -0.137022 0.054118 0.989089
16260.00000000 -12620.00000000 50.00000000 250 137 62 0.000000 0.000000 0.000000 0.000000 -60.708740 0.000000 178.000000 -0.079980 0.389055 0.917736
16210.00000000 -12520.00000000 50.00000000 250 137 62 0.000000 0.000000 0.000000 0.000000 -60.708740 0.000000 178.000000 -0.248201 0.497943 0.830933
16170.00000000 -12570.00000000 50.00000000 250 137 62 0.000000 0.000000 0.000000 0.000000 -60.708740 0.000000 178.000000 -0.334163 0.506841 0.794637
16200.00000000 -12510.00000000 20.00000000 250 137 62 0.000000 0.000000 0.000000 0.000000 -60.708740 0.000000 178.000000 -0.107975 0.678909 0.726240
16170.00000000 -12520.00000000 20.00000000 250 137 62 0.000000 0.000000 0.000000 0.000000 -60.708740 0.000000 178.000000 -0.373242 0.029911 0.927252
16190.00000000 -12650.00000000 70.00000000 250 137 62 0.000000 0.000000 0.000000 0.000000 -60.708740 0.000000 178.000000 -0.384545 -0.157507 0.909570
16220.00000000 -12610.00000000 60.00000000 250 137 62 0.000000 0.000000 0.000000 0.000000 -60.708740 0.000000 178.000000 -0.554421 0.311562 0.771716
16250.00000000 -12680.00000000 140.00000000 250 137 62 0.000000 0.000000 0.000000 0.000000 -60.708740 0.000000 178.000000 0.019802 0.426413 0.904312
16300.00000000 -12760.00000000 50.00000000 250 137 62 0.000000 0.000000 0.000000 0.000000 -60.708740 0.000000 178.000000 0.066652 -0.255289 0.964565
16300.00000000 -12760.00000000 50.00000000 250 137 62 0.000000 0.000000 0.000000 0.000000 -60.708740 0.000000 178.000000 0.066652 -0.255289 0.964565
16210.00000000 -12750.00000000 90.00000000 250 137 62 0.000000 0.000000 0.000000 0.000000 -60.708740 0.000000 178.000000 -0.315228 0.128526 0.940272
16200.00000000 -12730.00000000 80.00000000 250 137 62 0.000000 0.000000 0.000000 0.000000 -60.708740 0.000000 178.000000 -0.153903 0.300996 0.941124
16210.00000000 -12740.00000000 80.00000000 250 137 62 0.000000 0.000000 0.000000 0.000000 -60.708740 0.000000 178.000000 -0.282619 -0.173395 0.943430
16190.00000000 -12700.00000000 80.00000000 250 137 62 0.000000 0.000000 0.000000 0.000000 -60.708740 0.000000 178.000000 0.145387 0.347544 0.926324
16240.00000000 -12730.00000000 90.00000000 250 137 62 0.000000 0.000000 0.000000 0.000000 -60.708740 0.000000 178.000000 -0.183331 0.396977 0.899333
16440.00000000 -12870.00000000 170.00000000 250 137 62 0.000000 0.000000 0.000000 0.000000 -60.708740 0.000000 178.000000 0.125430 -0.087918 0.988199
16450.00000000 -12910.00000000 180.00000000 250 137 62 0.000000 0.000000 0.000000 0.000000 -60.708740 0.000000 178.000000 -0.178491 -0.102171 0.978623
16470.00000000 -12920.00000000 160.00000000 250 137 62 0.000000 0.000000 0.000000 0.000000 -60.708740 0.000000 178.000000 -0.284648 -0.441589 0.850867
16390.00000000 -12880.00000000 170.00000000 250 137 62 0.000000 0.000000 0.000000 0.000000 -60.708740 0.000000 178.000000 -0.240451 0.027791 0.970263
16440.00000000 -12880.00000000 120.00000000 250 137 62 0.000000 0.000000 0.000000 0.000000 -60.708740 0.000000 178.000000 -0.206029 -0.020014 0.978341
16430.00000000 -12880.00000000 140.00000000 250 137 62 0.000000 0.000000 0.000000 0.000000 -60.708740 0.000000 178.000000 0.175594 -0.538787 0.823939
16450.00000000 -12980.00000000 130.00000000 250 137 62 0.000000 0.000000 0.000000 0.000000 -60.708740 0.000000 178.000000 0.063750 -0.135614 0.988709
16420.00000000 -12950.00000000 130.00000000 250 137 62 0.000000 0.000000 0.000000 0.000000 -60.708740 0.000000 178.000000 0.483188 -0.274998 0.831207
16230.00000000 -12930.00000000 140.00000000 250 137 62 0.000000 0.000000 0.000000 0.000000 -60.708740 0.000000 178.000000 -0.210874 -0.112382 0.971032
16190.00000000 -12980.00000000 100.00000000 250 137 62 0.000000 0.000000 0.000000 0.000000 -60.708740 0.000000 178.000000 0.211274 -0.590642 0.778784
16210.00000000 -12930.00000000 60.00000000 250 137 62 0.000000 0.000000 0.000000 0.000000 -60.708740 0.000000 178.000000 -0.013723 -0.068614 0.997549
16190.00000000 -13060.00000000 100.00000000 250 137 62 0.000000 0.000000 0.000000 0.000000 -60.708740 0.000000 178.000000 0.294614 -0.348452 0.889823
16200.00000000 -13040.00000000 140.00000000 250 137 62 0.000000 0.000000 0.000000 0.000000 -60.708740 0.000000 178.000000 0.219146 -0.623246 0.750693
16150.00000000 -12580.00000000 140.00000000 250 137 62 0.000000 0.000000 0.000000 0.000000 -60.708740 0.000000 178.000000 -0.161268 0.246567 0.955614
16130.00000000 -12510.00000000 10.00000000 250 137 62 0.000000 0.000000 0.000000 0.000000 -60.708740 0.000000 178.000000 -0.226790 0.633448 0.739804
16120.00000000 -12530.00000000 40.00000000 250 137 62 0.000000 0.000000 0.000000 0.000000 -60.708740 0.000000 178.000000 -0.208277 0.286556 0.935151
16110.00000000 -12610.00000000 70.00000000 250 137 62 0.000000 0.000000 0.000000 0.000000 -60.708740 0.000000 178.000000 -0.342109 -0.029470 0.939198
16060.00000000 -12560.00000000 40.00000000 250 137 62 0.000000 0.000000 0.000000 0.000000 -60.708740 0.000000 178.000000 -0.348673 0.224250 0.910022
16020.00000000 -12540.00000000 20.00000000 250 137 62 0.000000 0.000000 0.000000 0.000000 -60.708740 0.000000 178.000000 -0.215663 0.360404 0.907523
16010.00000000 -12600.00000000 70.00000000 250 137 62 0.000000 0.000000 0.000000 0.000000 -60.708740 0.000000 178.000000 -0.379606 0.138675 0.914696
16140.00000000 -12700.00000000 70.00000000 250 137 62 0.000000 0.000000 0.000000 0.000000 -60.708740 0.000000 178.000000 -0.031380 0.173169 0.984392
16150.00000000 -12680.00000000 80.00000000 250 137 62 0.000000 0.000000 0.000000 0.000000 -60.708740 0.000000 178.000000 -0.282430 -0.083826 0.955618
16140.00000000 -12700.00000000 70.00000000 250 137 62 0.000000 0.000000 0.000000 0.000000 -60.708740 0.000000 178.000000 -0.031380 0.173169 0.984392
16140.00000000 -12700.00000000 70.00000000 250 137 62 0.000000 0.000000 0.000000 0.000000 -60.708740 0.000000 178.000000 -0.031380 0.173169 0.984392
16090.00000000 -12720.00000000 80.00000000 250 137 62 0.000000 0.000000 0.000000 0.000000 -60.708740 0.000000 178.000000 0.159052 0.257958 0.952974
16130.00000000 -12690.00000000 70.00000000 250 137 62 0.000000 0.000000 0.000000 0.000000 -60.708740 0.000000 178.000000 -0.188136 0.094683 0.977569
16120.00000000 -12700.00000000 50.00000000 250 137 62 0.000000 0.000000 0.000000 0.000000 -60.708740 0.000000 178.000000 -0.169633 0.544928 0.821145
16160.00000000 -12690.00000000 60.00000000 250 137 62 0.000000 0.000000 0.000000 0.000000 -60.708740 0.000000 178.000000 -0.273774 0.468664 0.839882
16120.00000000 -12820.00000000 60.00000000 250 137 62 0.000000 0.000000 0.000000 0.000000 -60.708740 0.000000 178.000000 0.114632 0.082211 0.990000
16000.00000000 -12730.00000000 90.00000000 250 137 62 0.000000 0.000000 0.000000 0.000000 -60.708740 0.000000 178.000000 -0.109593 0.294448 0.949363
16070.00000000 -12780.00000000 70.00000000 250 137 62 0.000000 0.000000 0.000000 0.000000 -60.708740 0.000000 178.000000 0.006200 0.316222 0.948665
16000.00000000 -12800.00000000 80.00000000 250 137 62 0.000000 0.000000 0.000000 0.000000 -60.708740 0.000000 178.000000 -0.027248 0.209694 0.977387
16010.00000000 -12760.00000000 70.00000000 250 137 62 0.000000 0.000000 0.000000 0.000000 -60.708740 0.000000 178.000000 -0.372063 0.135169 0.918313
16030.00000000 -12760.00000000 30.00000000 250 137 62 0.000000 0.000000 0.000000 0.000000 -60.708740 0.000000 178.000000 -0.130503 0.137821 0.981822
15980.00000000 -12580.00000000 160.00000000 250 137 62 0.000000 0.000000 0.000000 0.000000 -60.708740 0.000000 178.000000 -0.078558 0.350184 0.933381
15960.00000000 -12580.00000000 140.00000000 250 137 62 0.000000 0.000000 0.000000 0.000000 -60.708740 0.000000 178.000000 0.682071 -0.237858 -0.691522
15990.00000000 -12530.00000000 50.00000000 250 137 62 0.000000 0.000000 0.000000 0.000000 -60.708740 0.000000 178.000000 0.451856 -0.733232 -0.508131
15950.00000000 -12500.00000000 20.00000000 250 137 62 0.000000 0.000000 0.000000 0.000000 -60.708740 0.000000 178.000000 -0.360533 0.585662 0.725959
15940.00000000 -12580.00000000 50.00000000 250 137 62 0.000000 0.000000 0.000000 0.000000 -60.708740 0.000000 178.000000 -0.433608 0.559869 0.706067
15940.00000000 -12680.00000000 80.00000000 250 137 62 0.000000 0.000000 0.000000 0.000000 -60.708740 0.000000 178.000000 -0.595329 0.064244 0.800910
15950.00000000 -12770.00000000 70.00000000 250 137 62 0.000000 0.000000 0.000000 0.000000 -60.708740 0.000000 178.000000 -0.053528 0.257681 0.964746
15950.00000000 -12830.00000000 90.00000000 250 137 62 0.000000 0.000000 0.000000 0.000000 -60.708740 0.000000 178.000000 0.100367 0.088830 0.990977
15980.00000000 -12760.00000000 60.00000000 250 137 62 0.000000 0.000000 0.000000 0.000000 -60.708740 0.000000 178.000000 -0.195091 0.034289 0.980186
15880.00000000 -12730.00000000 70.00000000 250 137 62 0.000000 0.000000 0.000000 0.000000 -60.708740 0.000000 178.000000 -0.196223 0.092558 0.976181
15900.00000000 -12710.00000000 70.00000000 250 137 62 0.000000 0.000000 0.000000 0.000000 -60.708740 0.000000 178.000000 -0.078585 0.060876 0.995047
15900.00000000 -12730.00000000 60.00000000 250 137 62 0.000000 0.000000 0.000000 0.000000 -60.708740 0.000000 178.000000 -0.314308 0.422690 0.850025
15840.00000000 -12710.00000000 50.00000000 250 137 62 0.000000 0.000000 0.000000 0.000000 -60.708740 0.000000 178.000000 0.642737 -0.247936 -0.724856
15910.00000000 -12750.00000000 60.00000000 250 137 62 0.000000 0.000000 0.000000 0.000000 -60.708740 0.000000 178.000000 -0.043137 -0.034720 0.998466
15870.00000000 -12770.00000000 70.00000000 250 137 62 0.000000 0.000000 0.000000 0.000000 -60.708740 0.000000 178.000000 -0.050964 0.178966 0.982534
15900.00000000 -12770.00000000 100.00000000 250 137 62 0.000000 0.000000 0.000000 0.000000 -60.708740 0.000000 178.000000 0.058262 0.424095 0.903742
15870.00000000 -12760.00000000 70.00000000 250 137 62 0.000000 0.000000 0.000000 0.000000 -60.708740 0.000000 178.000000 -0.347043 0.185562 0.919309
16110.00000000 -12910.00000000 100.00000000 250 137 62 0.000000 0.000000 0.000000 0.000000 -60.708740 0.000000 178.000000 -0.285899 -0.036206 0.957575
16120.00000000 -12980.00000000 70.00000000 250 137 62 0.000000 0.000000 0.000000 0.000000 -60.708740 0.000000 178.000000 -0.180539 -0.397185 0.899805
16030.00000000 -12910.00000000 90.00000000 250 137 62 0.000000 0.000000 0.000000 0.000000 -60.708740 0.000000 178.000000 -0.011768 -0.088793 0.995981
16030.00000000 -12980.00000000 100.00000000 250 137 62 0.000000 0.000000 0.000000 0.000000 -60.708740 0.000000 178.000000 -0.107408 -0.417076 0.902503
16060.00000000 -12980.00000000 90.00000000 250 137 62 0.000000 0.000000 0.000000 0.000000 -60.708740 0.000000 178.000000 0.031627 -0.523912 0.851185
16150.00000000 -13010.00000000 150.00000000 250 137 62 0.000000 0.000000 0.000000 0.000000 -60.708740 0.000000 178.000000 -0.101925 -0.178062 0.978726
16000.00000000 -13010.00000000 70.00000000 250 137 62 0.000000 0.000000 0.000000 0.000000 -60.708740 0.000000 178.000000 0.192666 -0.286920 0.938380
16070.00000000 -13080.00000000 80.00000000 250 137 62 0.000000 0.000000 0.000000 0.000000 -60.708740 0.000000 178.000000 -0.017707 -0.524395 0.851291
16160.00000000 -13020.00000000 120.00000000 250 137 62 0.000000 0.000000 0.000000 0.000000 -60.708740 0.000000 178.000000 0.165921 -0.300302 0.939302
16020.00000000 -13020.00000000 100.00000000 250 137 62 0.000000 0.000000 0.000000 0.000000 -60.708740 0.000000 178.000000 -0.219858 -0.149607 0.963992
15990.00000000 -12890.00000000 100.00000000 250 137 62 0.000000 0.000000 0.000000 0.000000 -60.708740 0.000000 178.000000 0.147635 0.001110 0.989041
15980.00000000 -12980.00000000 90.00000000 250 137 62 0.000000 0.000000 0.000000 0.000000 -60.708740 0.000000 178.000000 -0.166843 0.166843 0.971765
15970.00000000 -12910.00000000 110.00000000 250 137 62 0.000000 0.000000 0.000000 0.000000 -60.708740 0.000000 178.000000 0.158934 0.195114 0.967817
15970.00000000 -13010.00000000 90.00000000 250 137 62 0.000000 0.000000 0.000000 0.000000 -60.708740 0.000000 178.000000 0.338406 -0.317350 0.885873
15950.00000000 -13010.00000000 70.00000000 250 137 62 0.000000 0.000000 0.000000 0.000000 -60.708740 0.000000 178.000000 -0.045262 0.238543 0.970077
15790.00000000 -12290.00000000 0.00000000 250 137 62 0.000000 0.000000 0.000000 0.000000 -60.708740 0.000000 178.000000 -0.146061 0.754399 0.639959
15820.00000000 -12730.00000000 60.00000000 250 137 62 0.000000 0.000000 0.000000 0.000000 -60.708740 0.000000 178.000000 -0.428924 0.435399 0.791487
17590.00000000 -12230.00000000 -70.00000000 250 137 62 0.000000 0.000000 0.000000 0.000000 -60.708740 0.000000 178.000000 -0.270565 0.915870 -0.296609
17460.00000000 -12300.00000000 -40.00000000 250 137 62 0.000000 0.000000 0.000000 0.000000 -60.708740 0.000000 178.000000 0.507679 -0.517732 0.688634
17430.00000000 -12290.00000000 -40.00000000 250 137 62 0.000000 0.000000 0.000000 0.000000 -60.708740 0.000000 178.000000 0.495042 -0.498376 0.711727
17380.00000000 -12290.00000000 -30.00000000 250 137 62 0.000000 0.000000 0.000000 0.000000 -60.708740 0.000000 178.000000 -0.159265 -0.325455 0.932048
17390.00000000 -12380.00000000 -40.00000000 250 137 62 0.000000 0.000000 0.000000 0.000000 -60.708740 0.000000 178.000000 -0.001331 -0.493986 0.869469
17440.00000000 -12340.00000000 -40.00000000 250 137 62 0.000000 0.000000 0.000000 0.000000 -60.708740 0.000000 178.000000 0.157800 -0.581606 0.798018
17360.00000000 -12340.00000000 -30.00000000 250 137 62 0.000000 0.000000 0.000000 0.000000 -60.708740 0.000000 178.000000 -0.037455 -0.542410 0.839279
17400.00000000 -12360.00000000 -30.00000000 250 137 62 0.000000 0.000000 0.000000 0.000000 -60.708740 0.000000 178.000000 0.218299 -0.354193 0.909337
17290.00000000 -12330.00000000 -20.00000000 250 137 62 0.000000 0.000000 0.000000 0.000000 -60.708740 0.000000 178.000000 0.197648 -0.589878 0.782930
17300.00000000 -12340.00000000 -60.00000000 250 137 62 0.000000 0.000000 0.000000 0.000000 -60.708740 0.000000 178.000000 0.182921 -0.671736 0.717851
17340.00000000 -12350.00000000 -80.00000000 250 137 62 0.000000 0.000000 0.000000 0.000000 -60.708740 0.000000 178.000000 0.507183 -0.571213 0.645353
17130.00000000 -12430.00000000 -50.00000000 250 137 62 0.000000 0.000000 0.000000 0.000000 -60.708740 0.000000 178.000000 0.020720 -0.573247 0.819121
17030.00000000 -12460.00000000 -90.00000000 250 137 62 0.000000 0.000000 0.000000 0.000000 -60.708740 0.000000 178.000000 0.152639 -0.642294 0.751106
17010.00000000 -12420.00000000 -50.00000000 250 137 62 0.000000 0.000000 0.000000 0.000000 -60.708740 0.000000 178.000000 0.156815 -0.485100 0.860283
16970.00000000 -12460.00000000 -60.00000000 250 137 62 0.000000 0.000000 0.000000 0.000000 -60.708740 0.000000 178.000000 0.347566 -0.432491 0.831955
16990.00000000 -12440.00000000 -70.00000000 250 137 62 0.000000 0.000000 0.000000 0.000000 -60.708740 0.000000 178.000000 -0.073885 0.026770 0.996907
16670.00000000 -12440.00000000 -140.00000000 250 137 62 0.000000 0.000000 0.000000 0.000000 -60.708740 0.000000 178.000000 -0.132692 0.381314 0.914873
16580.00000000 -12330.00000000 -160.00000000 250 137 62 0.000000 0.000000 0.000000 0.000000 -60.708740 0.000000 178.000000 -0.550251 0.781769 0.293362
17070.00000000 -12510.00000000 -40.00000000 250 137 62 0.000000 0.000000 0.000000 0.000000 -60.708740 0.000000 178.000000 0.240818 -0.678382 0.694122
17010.00000000 -12500.00000000 -50.00000000 250 137 62 0.000000 0.000000 0.000000 0.000000 -60.708740 0.000000 178.000000 -0.001375 -0.622848 0.782341
16810.00000000 -12510.00000000 -70.00000000 250 137 62 0.000000 0.000000 0.000000 0.000000 -60.708740 0.000000 178.000000 -0.144808 -0.094544 0.984933
16800.00000000 -12510.00000000 -70.00000000 250 137 62 0.000000 0.000000 0.000000 0.000000 -60.708740 0.000000 178.000000 -0.250154 0.020544 0.967988
16720.00000000 -12560.00000000 -30.00000000 250 137 62 0.000000 0.000000 0.000000 0.000000 -60.708740 0.000000 178.000000 -0.336277 -0.348450 0.874929
16710.00000000 -12500.00000000 -20.00000000 250 137 62 0.000000 0.000000 0.000000 0.000000 -60.708740 0.000000 178.000000 0.169504 -0.269850 0.947866
16670.00000000 -12520.00000000 -100.00000000 250 137 62 0.000000 0.000000 0.000000 0.000000 -60.708740 0.000000 178.000000 -0.299641 -0.054828 0.952475
16690.00000000 -12560.00000000 -100.00000000 250 137 62 0.000000 0.000000 0.000000 0.000000 -60.708740 0.000000 178.000000 -0.305790 -0.011142 0.952034
16520.00000000 -12540.00000000 -120.00000000 250 137 62 0.000000 0.000000 0.000000 0.000000 -60.708740 0.000000 178.000000 0.030813 0.060563 0.997689
16510.00000000 -12540.00000000 -120.00000000 250 137 62 0.000000 0.000000 0.000000 0.000000 -60.708740 0.000000 178.000000 -0.150614 -0.123675 0.980826
16580.00000000 -12530.00000000 -140.00000000 250 137 62 0.000000 0.000000 0.000000 0.000000 -60.708740 0.000000 178.000000 0.010777 0.247871 0.968733
16580.00000000 -12500.00000000 -140.00000000 250 137 62 0.000000 0.000000 0.000000 0.000000 -60.708740 0.000000 178.000000 -0.179850 0.252872 0.950636
16580.00000000 -12530.00000000 -140.00000000 250 137 62 0.000000 0.000000 0.000000 0.000000 -60.708740 0.000000 178.000000 0.010777 0.247871 0.968733
16560.00000000 -12510.00000000 -140.00000000 250 137 62 0.000000 0.000000 0.000000 0.000000 -60.708740 0.000000 178.000000 -0.081205 0.226124 0.970708
16240.00000000 -12100.00000000 -320.00000000 250 137 62 0.000000 0.000000 0.000000 0.000000 -60.708740 0.000000 177.000000 -0.235501 0.937822 -0.255009
16180.00000000 -12150.00000000 -310.00000000 250 137 62 0.000000 0.000000 0.000000 0.000000 -60.708740 0.000000 177.000000 -0.495607 0.730980 0.469087
16400.00000000 -12140.00000000 -660.00000000 250 137 62 0.000000 0.000000 0.000000 0.000000 -60.708740 0.000000 177.000000 -0.434993 0.681656 -0.588324
16370.00000000 -12150.00000000 -660.00000000 250 137 62 0.000000 0.000000 0.000000 0.000000 -60.708740 0.000000 177.000000 -0.188118 0.909000 -0.371929
16220.00000000 -12160.00000000 -370.00000000 250 137 62 0.000000 0.000000 0.000000 0.000000 -60.708740 0.000000 177.000000 -0.285453 0.958392 -0.001215
16260.00000000 -12110.00000000 -450.00000000 250 137 62 0.000000 0.000000 0.000000 0.000000 -60.708740 0.000000 177.000000 -0.614274 0.660886 -0.431157
16320.00000000 -12120.00000000 -630.00000000 250 137 62 0.000000 0.000000 0.000000 0.000000 -60.708740 0.000000 177.000000 0.415543 -0.584409 0.696986
16330.00000000 -12140.00000000 -680.00000000 250 137 62 0.000000 0.000000 0.000000 0.000000 -60.708740 0.000000 177.000000 0.708067 -0.599639 0.372926
16430.00000000 -12450.00000000 -150.00000000 250 137 62 0.000000 0.000000 0.000000 0.000000 -60.708740 0.000000 178.000000 -0.531161 0.267931 0.803792
16470.00000000 -12490.00000000 -130.00000000 250 137 62 0.000000 0.000000 0.000000 0.000000 -60.708740 0.000000 178.000000 -0.409595 0.645070 0.645070
16480.00000000 -12470.00000000 -160.00000000 250 137 62 0.000000 0.000000 0.000000 0.000000 -60.708740 0.000000 178.000000 -0.233874 0.689064 0.685925
16320.00000000 -12170.00000000 -450.00000000 250 137 62 0.000000 0.000000 0.000000 0.000000 -60.708740 0.000000 177.000000 -0.378117 0.923247 -0.068141
16300.00000000 -12180.00000000 -530.00000000 250 137 62 0.000000 0.000000 0.000000 0.000000 -60.708740 0.000000 177.000000 -0.482432 0.731108 -0.482432
16330.00000000 -12190.00000000 -670.00000000 250 137 62 0.000000 0.000000 0.000000 0.000000 -60.708740 0.000000 177.000000 0.487185 -0.503813 0.713319
16220.00000000 -12170.00000000 -530.00000000 250 137 62 0.000000 0.000000 0.000000 0.000000 -60.708740 0.000000 177.000000 -0.597084 0.790652 -0.135498
16130.00000000 -12120.00000000 -200.00000000 250 137 62 0.000000 0.000000 0.000000 0.000000 -60.708740 0.000000 177.000000 -0.373527 0.926610 -0.043251
16070.00000000 -12330.00000000 -40.00000000 250 137 62 0.000000 0.000000 0.000000 0.000000 -60.708740 0.000000 178.000000 -0.287023 0.707135 0.646203
16090.00000000 -12190.00000000 -220.00000000 250 137 62 0.000000 0.000000 0.000000 0.000000 -60.708740 0.000000 177.000000 -0.591894 0.671925 0.445171
16060.00000000 -12340.00000000 -40.00000000 250 137 62 0.000000 0.000000 0.000000 0.000000 -60.708740 0.000000 178.000000 -0.711158 0.524625 0.467999
15890.00000000 -12320.00000000 -40.00000000 250 137 62 0.000000 0.000000 0.000000 0.000000 -60.708740 0.000000 178.000000 -0.584488 0.759675 0.285077
15890.00000000 -12330.00000000 -20.00000000 250 137 62 0.000000 0.000000 0.000000 0.000000 -60.708740 0.000000 178.000000 0.491454 -0.565256 -0.662540
15940.00000000 -12200.00000000 -50.00000000 250 137 62 0.000000 0.000000 0.000000 0.000000 -60.708740 0.000000 177.000000 0.680147 -0.600325 -0.420726
16370.00000000 -12190.00000000 -740.00000000 250 137 62 0.000000 0.000000 0.000000 0.000000 -60.708740 0.000000 177.000000 0.581147 -0.473961 0.661536
16490.00000000 -12500.00000000 -100.00000000 250 137 62 0.000000 0.000000 0.000000 0.000000 -60.708740 0.000000 178.000000 -0.583141 0.532433 0.613565
16480.00000000 -12530.00000000 -130.00000000 250 137 62 0.000000 0.000000 0.000000 0.000000 -60.708740 0.000000 178.000000 -0.287743 -0.067779 0.955306
16440.00000000 -12520.00000000 -110.00000000 250 137 62 0.000000 0.000000 0.000000 0.000000 -60.708740 0.000000 178.000000 -0.482045 0.488671 0.727209
16460.00000000 -12510.00000000 -130.00000000 250 137 62 0.000000 0.000000 0.000000 0.000000 -60.708740 0.000000 178.000000 -0.427050 0.318346 0.846336
16390.00000000 -12500.00000000 -130.00000000 250 137 62 0.000000 0.000000 0.000000 0.000000 -60.708740 0.000000 178.000000 -0.633328 0.542128 0.552262
16400.00000000 -12550.00000000 -110.00000000 250 137 62 0.000000 0.000000 0.000000 0.000000 -60.708740 0.000000 178.000000 0.083463 0.406371 0.909888
16310.00000000 -12610.00000000 -140.00000000 250 137 62 0.000000 0.000000 0.000000 0.000000 -60.708740 0.000000 178.000000 -0.494348 0.438508 0.750554
16330.00000000 -12550.00000000 -130.00000000 250 137 62 0.000000 0.000000 0.000000 0.000000 -60.708740 0.000000 178.000000 0.484903 -0.558729 -0.672824
17200.00000000 -12410.00000000 0.00000000 250 137 62 0.000000 0.000000 0.000000 0.000000 -60.708740 0.000000 178.000000 0.136438 -0.679189 0.721170
17330.00000000 -12360.00000000 -10.00000000 250 137 62 0.000000 0.000000 0.000000 0.000000 -60.708740 0.000000 178.000000 0.537868 -0.490951 0.685321
17280.00000000 -12610.00000000 390.00000000 250 137 62 0.000000 0.000000 0.000000 0.000000 -60.708740 0.000000 178.000000 -0.096017 -0.205750 0.973883
17340.00000000 -12650.00000000 360.00000000 250 137 62 0.000000 0.000000 0.000000 0.000000 -60.708740 0.000000 178.000000 0.321643 -0.615810 0.719253
17350.00000000 -12610.00000000 170.00000000 250 137 62 0.000000 0.000000 0.000000 0.000000 -60.708740 0.000000 178.000000 0.297711 -0.642091 0.706461
17380.00000000 -12540.00000000 210.00000000 250 137 62 0.000000 0.000000 0.000000 0.000000 -60.708740 0.000000 178.000000 0.210536 -0.560918 0.800653
17290.00000000 -12640.00000000 190.00000000 250 137 62 0.000000 0.000000 0.000000 0.000000 -60.708740 0.000000 178.000000 0.604492 -0.453787 0.654727
17330.00000000 -12620.00000000 210.00000000 250 137 62 0.000000 0.000000 0.000000 0.000000 -60.708740 0.000000 178.000000 0.105184 -0.523038 0.845794
17330.00000000 -12630.00000000 200.00000000 250 137 62 0.000000 0.000000 0.000000 0.000000 -60.708740 0.000000 178.000000 0.450373 -0.644586 0.617798
17320.00000000 -12550.00000000 90.00000000 250 137 62 0.000000 0.000000 0.000000 0.000000 -60.708740 0.000000 178.000000 0.079871 -0.486231 0.870172
16620.00000000 -12480.00000000 90.00000000 250 137 62 0.000000 0.000000 0.000000 0.000000 -60.708740 0.000000 178.000000 -0.334257 -0.203399 0.920273
17040.00000000 -12550.00000000 180.00000000 250 137 62 0.000000 0.000000 0.000000 0.000000 -60.708740 0.000000 178.000000 0.369023 -0.497940 0.784779
17070.00000000 -12550.00000000 -10.00000000 250 137 62 0.000000 0.000000 0.000000 0.000000 -60.708740 0.000000 178.000000 -0.032510 0.705318 -0.708145
17080.00000000 -12620.00000000 20.00000000 250 137 62 0.000000 0.000000 0.000000 0.000000 -60.708740 0.000000 178.000000 0.132684 0.776720 -0.615711
16980.00000000 -12550.00000000 170.00000000 250 137 62 0.000000 0.000000 0.000000 0.000000 -60.708740 0.000000 178.000000 -0.211512 -0.597482 0.773484
16850.00000000 -12900.00000000 240.00000000 250 137 62 0.000000 0.000000 0.000000 0.000000 -60.708740 0.000000 178.000000 0.503875 -0.428376 0.750069
