//X Y Z R G B PointSourceId ScanDirectionFlag NumberOfReturns ReturnNumber GpsTime Intensity Classification Nx Ny Nz
15330.00000000 15790.00000000 -900.00000000 9 30 236 97.000000 1.000000 4.000000 1.000000 -60.708740 114.000000 224.000000 0.765338 -0.095118 -0.636562
15340.00000000 15780.00000000 -940.00000000 9 30 236 97.000000 1.000000 4.000000 1.000000 -60.708740 114.000000 224.000000 -0.500743 0.451164 0.738720
15340.00000000 15760.00000000 -930.00000000 9 30 236 97.000000 1.000000 4.000000 1.000000 -60.708740 114.000000 224.000000 0.807539 -0.311321 -0.500959
15340.00000000 15760.00000000 -930.00000000 9 30 236 97.000000 1.000000 4.000000 1.000000 -60.708740 114.000000 224.000000 0.807539 -0.311321 -0.500959
15360.00000000 15740.00000000 -870.00000000 9 30 236 97.000000 1.000000 4.000000 1.000000 -60.708740 114.000000 224.000000 0.785247 0.012464 -0.619057
15360.00000000 15720.00000000 -940.00000000 9 30 236 97.000000 1.000000 4.000000 1.000000 -60.708740 114.000000 224.000000 -0.665847 0.156224 0.729550
15370.00000000 15750.00000000 -950.00000000 9 30 236 97.000000 1.000000 4.000000 1.000000 -60.708740 114.000000 224.000000 0.809733 -0.525781 -0.260550
15380.00000000 15750.00000000 -970.00000000 9 30 236 97.000000 1.000000 4.000000 1.000000 -60.708740 114.000000 224.000000 0.534022 -0.638468 -0.554237
15380.00000000 15750.00000000 -980.00000000 9 30 236 97.000000 1.000000 4.000000 1.000000 -60.708740 114.000000 224.000000 0.855388 -0.513793 -0.065799
15360.00000000 15740.00000000 -970.00000000 9 30 236 97.000000 1.000000 4.000000 1.000000 -60.708740 114.000000 224.000000 -0.539140 0.692704 0.479050
15390.00000000 15680.00000000 -900.00000000 9 30 236 97.000000 1.000000 4.000000 1.000000 -60.708740 114.000000 224.000000 0.750730 -0.092195 -0.654145
15400.00000000 15670.00000000 -880.00000000 9 30 236 97.000000 1.000000 4.000000 1.000000 -60.708740 114.000000 224.000000 -0.280525 0.472708 0.835376
15400.00000000 15640.00000000 -930.00000000 9 30 236 97.000000 1.000000 4.000000 1.000000 -60.708740 114.000000 224.000000 -0.510854 0.444724 0.735696
15380.00000000 15690.00000000 -1020.00000000 9 30 236 97.000000 1.000000 4.000000 1.000000 -60.708740 114.000000 224.000000 -0.487694 0.801098 0.346982
15390.00000000 15690.00000000 -1010.00000000 9 30 236 97.000000 1.000000 4.000000 1.000000 -60.708740 114.000000 224.000000 -0.629792 0.572385 0.525108
15380.00000000 15700.00000000 -1020.00000000 9 30 236 97.000000 1.000000 4.000000 1.000000 -60.708740 114.000000 224.000000 0.703926 -0.537513 -0.464292
15450.00000000 15550.00000000 -940.00000000 9 30 236 97.000000 1.000000 4.000000 1.000000 -60.708740 114.000000 224.000000 -0.411721 -0.149587 0.898949
15470.00000000 15600.00000000 -980.00000000 9 30 236 97.000000 1.000000 4.000000 1.000000 -60.708740 114.000000 224.000000 0.535236 -0.445754 -0.717514
15470.00000000 15600.00000000 -980.00000000 9 30 236 97.000000 1.000000 4.000000 1.000000 -60.708740 114.000000 224.000000 0.535236 -0.445754 -0.717514
15480.00000000 15560.00000000 -970.00000000 9 30 236 97.000000 1.000000 4.000000 1.000000 -60.708740 114.000000 224.000000 -0.294858 0.003670 0.955534
15480.00000000 15560.00000000 -950.00000000 9 30 236 97.000000 1.000000 4.000000 1.000000 -60.708740 114.000000 224.000000 -0.504806 0.120054 0.854844
15430.00000000 15610.00000000 -970.00000000 9 30 236 97.000000 1.000000 4.000000 1.000000 -60.708740 114.000000 224.000000 -0.434442 0.358612 0.826231
15420.00000000 15610.00000000 -990.00000000 9 30 236 97.000000 1.000000 4.000000 1.000000 -60.708740 114.000000 224.000000 -0.648785 0.428632 0.628771
15430.00000000 15610.00000000 -990.00000000 9 30 236 97.000000 1.000000 4.000000 1.000000 -60.708740 114.000000 224.000000 -0.390541 0.713521 0.581692
15420.00000000 15610.00000000 -1000.00000000 9 30 236 97.000000 1.000000 4.000000 1.000000 -60.708740 114.000000 224.000000 -0.648450 0.470839 0.598183
15410.00000000 15610.00000000 -1020.00000000 9 30 236 97.000000 1.000000 4.000000 1.000000 -60.708740 114.000000 224.000000 -0.594430 0.390249 0.703107
15420.00000000 15580.00000000 -970.00000000 9 30 236 97.000000 1.000000 4.000000 1.000000 -60.708740 114.000000 224.000000 -0.410909 0.410909 0.813823
15470.00000000 15520.00000000 -950.00000000 9 30 236 97.000000 1.000000 4.000000 1.000000 -60.708740 114.000000 224.000000 -0.262840 0.023228 0.964560
15480.00000000 15510.00000000 -950.00000000 9 30 236 97.000000 1.000000 4.000000 1.000000 -60.708740 114.000000 224.000000 -0.101069 -0.041094 0.994030
15460.00000000 15520.00000000 -980.00000000 9 30 236 97.000000 1.000000 4.000000 1.000000 -60.708740 114.000000 224.000000 -0.366399 0.037813 0.929689
15460.00000000 15530.00000000 -950.00000000 9 30 236 97.000000 1.000000 4.000000 1.000000 -60.708740 114.000000 224.000000 -0.416497 -0.220847 0.881905
15450.00000000 15510.00000000 -950.00000000 9 30 236 97.000000 1.000000 4.000000 1.000000 -60.708740 114.000000 224.000000 -0.300726 -0.232315 0.924983
15480.00000000 15510.00000000 -960.00000000 9 30 236 97.000000 1.000000 4.000000 1.000000 -60.708740 114.000000 224.000000 -0.110889 -0.020860 0.993614
15480.00000000 15470.00000000 -960.00000000 9 30 236 97.000000 1.000000 4.000000 1.000000 -60.708740 114.000000 224.000000 0.046919 -0.073107 0.996220
15450.00000000 15470.00000000 -960.00000000 9 30 236 97.000000 1.000000 4.000000 1.000000 -60.708740 114.000000 224.000000 -0.121805 -0.100519 0.987451
15470.00000000 15480.00000000 -960.00000000 9 30 236 97.000000 1.000000 4.000000 1.000000 -60.708740 114.000000 224.000000 0.050355 -0.050355 0.997461
15450.00000000 15490.00000000 -970.00000000 9 30 236 97.000000 1.000000 4.000000 1.000000 -60.708740 114.000000 224.000000 -0.411062 0.003890 0.911599
15410.00000000 15540.00000000 -980.00000000 9 30 236 97.000000 1.000000 4.000000 1.000000 -60.708740 114.000000 224.000000 -0.575664 0.134667 0.806521
15410.00000000 15520.00000000 -970.00000000 9 30 236 97.000000 1.000000 4.000000 1.000000 -60.708740 114.000000 224.000000 -0.453258 0.070262 0.888606
15430.00000000 15530.00000000 -970.00000000 9 30 236 97.000000 1.000000 4.000000 1.000000 -60.708740 114.000000 224.000000 -0.489850 0.483208 0.725642
15440.00000000 15540.00000000 -980.00000000 9 30 236 97.000000 1.000000 4.000000 1.000000 -60.708740 114.000000 224.000000 -0.274849 0.254912 0.927080
15410.00000000 15520.00000000 -980.00000000 9 30 236 97.000000 1.000000 4.000000 1.000000 -60.708740 114.000000 224.000000 -0.469020 0.103439 0.877109
15410.00000000 15540.00000000 -980.00000000 9 30 236 97.000000 1.000000 4.000000 1.000000 -60.708740 114.000000 224.000000 -0.575664 0.134667 0.806521
15410.00000000 15540.00000000 -980.00000000 9 30 236 97.000000 1.000000 4.000000 1.000000 -60.708740 114.000000 224.000000 -0.575664 0.134667 0.806521
15410.00000000 15470.00000000 -960.00000000 9 30 236 97.000000 1.000000 4.000000 1.000000 -60.708740 114.000000 224.000000 -0.588100 -0.128878 0.798454
15440.00000000 15480.00000000 -960.00000000 9 30 236 97.000000 1.000000 4.000000 1.000000 -60.708740 114.000000 224.000000 -0.054846 0.220603 0.973821
15410.00000000 15500.00000000 -970.00000000 9 30 236 97.000000 1.000000 4.000000 1.000000 -60.708740 114.000000 224.000000 -0.153527 0.171291 0.973185
15440.00000000 15480.00000000 -960.00000000 9 30 236 97.000000 1.000000 4.000000 1.000000 -60.708740 114.000000 224.000000 -0.054846 0.220603 0.973821
15410.00000000 15500.00000000 -970.00000000 9 30 236 97.000000 1.000000 4.000000 1.000000 -60.708740 114.000000 224.000000 -0.153527 0.171291 0.973185
15440.00000000 15500.00000000 -970.00000000 9 30 236 97.000000 1.000000 4.000000 1.000000 -60.708740 114.000000 224.000000 -0.475818 -0.134502 0.869199
15430.00000000 15470.00000000 -960.00000000 9 30 236 97.000000 1.000000 4.000000 1.000000 -60.708740 114.000000 224.000000 0.667777 -0.095397 -0.738223
15420.00000000 15490.00000000 -960.00000000 9 30 236 97.000000 1.000000 4.000000 1.000000 -60.708740 114.000000 224.000000 -0.555428 0.102964 0.825166
15370.00000000 15620.00000000 -1030.00000000 9 30 236 97.000000 1.000000 4.000000 1.000000 -60.708740 114.000000 224.000000 0.820759 -0.564001 -0.090875
15370.00000000 15610.00000000 -1020.00000000 9 30 236 97.000000 1.000000 4.000000 1.000000 -60.708740 114.000000 224.000000 0.857541 -0.341471 -0.384735
15370.00000000 15610.00000000 -1020.00000000 9 30 236 97.000000 1.000000 4.000000 1.000000 -60.708740 114.000000 224.000000 0.857541 -0.341471 -0.384735
15380.00000000 15570.00000000 -970.00000000 9 30 236 97.000000 1.000000 4.000000 1.000000 -60.708740 114.000000 224.000000 -0.457609 0.615174 0.641993
15350.00000000 15550.00000000 -990.00000000 9 30 236 97.000000 1.000000 4.000000 1.000000 -60.708740 114.000000 224.000000 0.874639 -0.400310 -0.273419
15350.00000000 15550.00000000 -990.00000000 9 30 236 97.000000 1.000000 4.000000 1.000000 -60.708740 114.000000 224.000000 0.874639 -0.400310 -0.273419
15400.00000000 15510.00000000 -980.00000000 9 30 236 97.000000 1.000000 4.000000 1.000000 -60.708740 114.000000 224.000000 -0.517966 -0.048603 0.854019
15400.00000000 15510.00000000 -980.00000000 9 30 236 97.000000 1.000000 4.000000 1.000000 -60.708740 114.000000 224.000000 -0.517966 -0.048603 0.854019
15390.00000000 15510.00000000 -1000.00000000 9 30 236 97.000000 1.000000 4.000000 1.000000 -60.708740 114.000000 224.000000 0.758394 -0.368641 -0.537534
15380.00000000 15510.00000000 -1010.00000000 9 30 236 97.000000 1.000000 4.000000 1.000000 -60.708740 114.000000 224.000000 0.764258 -0.158905 -0.625027
15400.00000000 15490.00000000 -1010.00000000 9 30 236 97.000000 1.000000 4.000000 1.000000 -60.708740 114.000000 224.000000 -0.634562 0.009677 0.772811
15380.00000000 15480.00000000 -1010.00000000 9 30 236 97.000000 1.000000 4.000000 1.000000 -60.708740 114.000000 224.000000 0.738510 -0.089206 -0.668315
15390.00000000 15500.00000000 -990.00000000 9 30 236 97.000000 1.000000 4.000000 1.000000 -60.708740 114.000000 224.000000 0.655302 -0.234149 -0.718160
15390.00000000 15470.00000000 -1000.00000000 9 30 236 97.000000 1.000000 4.000000 1.000000 -60.708740 114.000000 224.000000 -0.381568 0.175778 0.907474
15370.00000000 15470.00000000 -1010.00000000 9 30 236 97.000000 1.000000 4.000000 1.000000 -60.708740 114.000000 224.000000 -0.297873 0.433690 0.850403
15370.00000000 15470.00000000 -1000.00000000 9 30 236 97.000000 1.000000 4.000000 1.000000 -60.708740 114.000000 224.000000 0.851488 -0.196037 -0.486351
15340.00000000 15540.00000000 -990.00000000 9 30 236 97.000000 1.000000 4.000000 1.000000 -60.708740 114.000000 224.000000 0.872113 -0.053732 -0.486344
15360.00000000 15510.00000000 -1030.00000000 9 30 236 97.000000 1.000000 4.000000 1.000000 -60.708740 114.000000 224.000000 0.646437 -0.585990 -0.488605
15330.00000000 15490.00000000 -1030.00000000 9 30 236 97.000000 1.000000 4.000000 1.000000 -60.708740 114.000000 224.000000 0.922690 -0.194176 -0.333075
15350.00000000 15500.00000000 -1010.00000000 9 30 236 97.000000 1.000000 4.000000 1.000000 -60.708740 114.000000 224.000000 0.740030 -0.392167 -0.546408
15350.00000000 15500.00000000 -1030.00000000 9 30 236 97.000000 1.000000 4.000000 1.000000 -60.708740 114.000000 224.000000 -0.446983 0.702876 0.553328
15290.00000000 15750.00000000 -930.00000000 9 30 236 97.000000 1.000000 4.000000 1.000000 -60.708740 114.000000 224.000000 0.764524 -0.228890 -0.602588
15320.00000000 15760.00000000 -900.00000000 9 30 236 97.000000 1.000000 4.000000 1.000000 -60.708740 114.000000 224.000000 0.788233 -0.324567 -0.522824
15310.00000000 15770.00000000 -930.00000000 9 30 236 97.000000 1.000000 4.000000 1.000000 -60.708740 114.000000 224.000000 -0.534024 0.769576 0.350101
15290.00000000 15760.00000000 -950.00000000 9 30 236 97.000000 1.000000 4.000000 1.000000 -60.708740 114.000000 224.000000 0.702062 -0.562646 -0.436507
15280.00000000 15750.00000000 -950.00000000 9 30 236 97.000000 1.000000 4.000000 1.000000 -60.708740 114.000000 224.000000 0.719880 -0.551081 -0.421999
15260.00000000 15760.00000000 -980.00000000 9 30 236 97.000000 1.000000 4.000000 1.000000 -60.708740 114.000000 224.000000 0.644983 -0.628317 -0.434989
15260.00000000 15750.00000000 -970.00000000 9 30 236 97.000000 1.000000 4.000000 1.000000 -60.708740 114.000000 224.000000 0.633865 -0.633865 -0.443204
15250.00000000 15740.00000000 -1000.00000000 9 30 236 97.000000 1.000000 4.000000 1.000000 -60.708740 114.000000 224.000000 0.867706 -0.230085 -0.440620
15170.00000000 15660.00000000 -890.00000000 9 30 236 97.000000 1.000000 4.000000 1.000000 -60.708740 114.000000 226.000000 -0.599624 0.250237 0.760153
15410.00000000 15670.00000000 -1090.00000000 9 30 236 97.000000 1.000000 4.000000 1.000000 -60.708740 114.000000 224.000000 0.795340 -0.590187 -0.138255
15360.00000000 15640.00000000 -1070.00000000 9 30 236 97.000000 1.000000 4.000000 1.000000 -60.708740 114.000000 224.000000 0.868858 -0.278461 -0.409322
15350.00000000 15640.00000000 -1050.00000000 9 30 236 97.000000 1.000000 4.000000 1.000000 -60.708740 114.000000 224.000000 0.951597 -0.307325 0.003703
15330.00000000 15670.00000000 -1100.00000000 9 30 236 97.000000 1.000000 4.000000 1.000000 -60.708740 114.000000 224.000000 0.883632 -0.284509 -0.371818
15340.00000000 15670.00000000 -1080.00000000 9 30 236 97.000000 1.000000 4.000000 1.000000 -60.708740 114.000000 224.000000 0.824311 -0.564883 -0.037659
15390.00000000 15630.00000000 -1050.00000000 9 30 236 97.000000 1.000000 4.000000 1.000000 -60.708740 114.000000 224.000000 0.716316 -0.696378 0.044147
15380.00000000 15630.00000000 -1080.00000000 9 30 236 97.000000 1.000000 4.000000 1.000000 -60.708740 114.000000 224.000000 -0.575436 0.815790 -0.057968
15370.00000000 15560.00000000 -1110.00000000 9 30 236 97.000000 1.000000 4.000000 1.000000 -60.708740 114.000000 224.000000 -0.671443 0.740951 0.012511
15350.00000000 15590.00000000 -1060.00000000 9 30 236 97.000000 1.000000 4.000000 1.000000 -60.708740 114.000000 224.000000 0.911411 -0.409936 -0.035820
15350.00000000 15590.00000000 -1060.00000000 9 30 236 97.000000 1.000000 4.000000 1.000000 -60.708740 114.000000 224.000000 0.911411 -0.409936 -0.035820
15340.00000000 15620.00000000 -1060.00000000 9 30 236 97.000000 1.000000 4.000000 1.000000 -60.708740 114.000000 224.000000 0.575027 -0.622244 -0.531184
15350.00000000 15590.00000000 -1060.00000000 9 30 236 97.000000 1.000000 4.000000 1.000000 -60.708740 114.000000 224.000000 0.911411 -0.409936 -0.035820
15340.00000000 15620.00000000 -1060.00000000 9 30 236 97.000000 1.000000 4.000000 1.000000 -60.708740 114.000000 224.000000 0.575027 -0.622244 -0.531184
15360.00000000 15610.00000000 -1050.00000000 9 30 236 97.000000 1.000000 4.000000 1.000000 -60.708740 114.000000 224.000000 0.786295 -0.545818 -0.289521
15350.00000000 15570.00000000 -1070.00000000 9 30 236 97.000000 1.000000 4.000000 1.000000 -60.708740 114.000000 224.000000 0.956317 -0.188588 -0.223364
15350.00000000 15570.00000000 -1070.00000000 9 30 236 97.000000 1.000000 4.000000 1.000000 -60.708740 114.000000 224.000000 0.956317 -0.188588 -0.223364
15340.00000000 15550.00000000 -1110.00000000 9 30 236 97.000000 1.000000 4.000000 1.000000 -60.708740 114.000000 224.000000 0.795399 -0.519153 0.312762
15340.00000000 15570.00000000 -1080.00000000 9 30 236 97.000000 1.000000 4.000000 1.000000 -60.708740 114.000000 224.000000 0.973394 -0.181008 -0.140503
15350.00000000 15550.00000000 -1130.00000000 9 30 236 97.000000 1.000000 4.000000 1.000000 -60.708740 114.000000 224.000000 0.953663 -0.300571 0.013606
15350.00000000 15570.00000000 -1140.00000000 9 30 236 97.000000 1.000000 4.000000 1.000000 -60.708740 114.000000 224.000000 0.906967 -0.382560 -0.176235
15350.00000000 15550.00000000 -1130.00000000 9 30 236 97.000000 1.000000 4.000000 1.000000 -60.708740 114.000000 224.000000 0.953663 -0.300571 0.013606
15350.00000000 15560.00000000 -1130.00000000 9 30 236 97.000000 1.000000 4.000000 1.000000 -60.708740 114.000000 224.000000 0.939201 -0.323816 -0.114209
15330.00000000 15530.00000000 -1040.00000000 9 30 236 97.000000 1.000000 4.000000 1.000000 -60.708740 114.000000 224.000000 0.797924 -0.497303 -0.340597
15330.00000000 15530.00000000 -1040.00000000 9 30 236 97.000000 1.000000 4.000000 1.000000 -60.708740 114.000000 224.000000 0.797924 -0.497303 -0.340597
15360.00000000 15540.00000000 -1110.00000000 9 30 236 97.000000 1.000000 4.000000 1.000000 -60.708740 114.000000 224.000000 0.841495 -0.467841 0.270205
15340.00000000 15510.00000000 -1080.00000000 9 30 236 97.000000 1.000000 4.000000 1.000000 -60.708740 114.000000 224.000000 0.916862 -0.301770 -0.261342
15340.00000000 15510.00000000 -1080.00000000 9 30 236 97.000000 1.000000 4.000000 1.000000 -60.708740 114.000000 224.000000 0.916862 -0.301770 -0.261342
15350.00000000 15530.00000000 -1090.00000000 9 30 236 97.000000 1.000000 4.000000 1.000000 -60.708740 114.000000 224.000000 0.746307 -0.635056 -0.199324
15350.00000000 15520.00000000 -1080.00000000 9 30 236 97.000000 1.000000 4.000000 1.000000 -60.708740 114.000000 224.000000 0.881974 -0.284945 -0.375404
15360.00000000 15470.00000000 -1050.00000000 9 30 236 97.000000 1.000000 4.000000 1.000000 -60.708740 114.000000 224.000000 -0.623721 0.188495 0.758579
15360.00000000 15480.00000000 -1050.00000000 9 30 236 97.000000 1.000000 4.000000 1.000000 -60.708740 114.000000 224.000000 0.506585 -0.557076 -0.658056
15350.00000000 15500.00000000 -1070.00000000 9 30 236 97.000000 1.000000 4.000000 1.000000 -60.708740 114.000000 224.000000 0.828852 -0.421531 -0.367853
15340.00000000 15530.00000000 -1120.00000000 9 30 236 97.000000 1.000000 4.000000 1.000000 -60.708740 114.000000 224.000000 0.717967 -0.651693 0.244582
15340.00000000 15530.00000000 -1130.00000000 9 30 236 97.000000 1.000000 4.000000 1.000000 -60.708740 114.000000 224.000000 0.841481 -0.520215 0.145896
15340.00000000 15520.00000000 -1120.00000000 9 30 236 97.000000 1.000000 4.000000 1.000000 -60.708740 114.000000 224.000000 0.901246 -0.380008 -0.208204
15350.00000000 15540.00000000 -1120.00000000 9 30 236 97.000000 1.000000 4.000000 1.000000 -60.708740 114.000000 224.000000 0.804320 -0.586150 0.097449
15360.00000000 15530.00000000 -1130.00000000 9 30 236 97.000000 1.000000 4.000000 1.000000 -60.708740 114.000000 224.000000 0.836997 -0.542419 0.072228
15360.00000000 15540.00000000 -1120.00000000 9 30 236 97.000000 1.000000 4.000000 1.000000 -60.708740 114.000000 224.000000 0.854788 -0.518834 0.012192
15330.00000000 15490.00000000 -1130.00000000 9 30 236 97.000000 1.000000 4.000000 1.000000 -60.708740 114.000000 224.000000 0.894962 -0.409167 -0.177836
15240.00000000 15720.00000000 -1040.00000000 9 30 236 97.000000 1.000000 4.000000 1.000000 -60.708740 114.000000 224.000000 0.928008 -0.309336 -0.207636
15240.00000000 15730.00000000 -1050.00000000 9 30 236 97.000000 1.000000 4.000000 1.000000 -60.708740 114.000000 224.000000 -0.653579 0.756703 0.015329
15310.00000000 15650.00000000 -1100.00000000 9 30 236 97.000000 1.000000 4.000000 1.000000 -60.708740 114.000000 224.000000 0.823527 -0.565385 -0.046297
15320.00000000 15650.00000000 -1100.00000000 9 30 236 97.000000 1.000000 4.000000 1.000000 -60.708740 114.000000 224.000000 0.827079 -0.515204 0.224733
15310.00000000 15520.00000000 -1100.00000000 9 30 236 97.000000 1.000000 4.000000 1.000000 -60.708740 114.000000 224.000000 -0.533990 0.840354 0.093055
15320.00000000 15530.00000000 -1110.00000000 9 30 236 97.000000 1.000000 4.000000 1.000000 -60.708740 114.000000 224.000000 -0.624332 0.723840 0.293709
15290.00000000 15510.00000000 -1110.00000000 9 30 236 97.000000 1.000000 4.000000 1.000000 -60.708740 114.000000 224.000000 0.979345 -0.190058 -0.069002
15300.00000000 15510.00000000 -1110.00000000 9 30 236 97.000000 1.000000 4.000000 1.000000 -60.708740 114.000000 224.000000 0.926341 -0.367041 0.084702
15320.00000000 15490.00000000 -1130.00000000 9 30 236 97.000000 1.000000 4.000000 1.000000 -60.708740 114.000000 224.000000 0.935464 -0.349327 -0.053642
15310.00000000 15490.00000000 -1120.00000000 9 30 236 97.000000 1.000000 4.000000 1.000000 -60.708740 114.000000 224.000000 0.973842 -0.225836 0.025093
15480.00000000 15440.00000000 -930.00000000 9 30 236 97.000000 1.000000 4.000000 1.000000 -60.708740 114.000000 224.000000 -0.264131 0.094056 0.959890
15460.00000000 15460.00000000 -940.00000000 9 30 236 97.000000 1.000000 4.000000 1.000000 -60.708740 114.000000 224.000000 -0.359865 0.155428 0.919967
15450.00000000 15450.00000000 -950.00000000 9 30 236 97.000000 1.000000 4.000000 1.000000 -60.708740 114.000000 224.000000 -0.291218 -0.031247 0.956146
15450.00000000 15440.00000000 -950.00000000 9 30 236 97.000000 1.000000 4.000000 1.000000 -60.708740 114.000000 224.000000 -0.304208 -0.343170 0.888646
15460.00000000 15450.00000000 -950.00000000 9 30 236 97.000000 1.000000 4.000000 1.000000 -60.708740 114.000000 224.000000 -0.239178 0.122821 0.963176
15480.00000000 15460.00000000 -950.00000000 9 30 236 97.000000 1.000000 4.000000 1.000000 -60.708740 114.000000 224.000000 0.101998 0.363114 0.926145
15470.00000000 15390.00000000 -990.00000000 9 30 236 97.000000 1.000000 4.000000 1.000000 -60.708740 114.000000 224.000000 0.223293 0.010633 0.974693
15480.00000000 15380.00000000 -990.00000000 9 30 236 97.000000 1.000000 4.000000 1.000000 -60.708740 114.000000 224.000000 -0.028458 -0.053755 0.998149
15470.00000000 15400.00000000 -990.00000000 9 30 236 97.000000 1.000000 4.000000 1.000000 -60.708740 114.000000 224.000000 -0.275332 -0.386668 0.880159
15460.00000000 15390.00000000 -1030.00000000 9 30 236 97.000000 1.000000 4.000000 1.000000 -60.708740 114.000000 224.000000 0.324394 0.042312 0.944975
15470.00000000 15380.00000000 -990.00000000 9 30 236 97.000000 1.000000 4.000000 1.000000 -60.708740 114.000000 224.000000 -0.180865 -0.262458 0.947841
15460.00000000 15410.00000000 -1010.00000000 9 30 236 97.000000 1.000000 4.000000 1.000000 -60.708740 114.000000 224.000000 -0.195685 -0.290058 0.936789
15450.00000000 15410.00000000 -1010.00000000 9 30 236 97.000000 1.000000 4.000000 1.000000 -60.708740 114.000000 224.000000 -0.126701 -0.249484 0.960055
15440.00000000 15460.00000000 -950.00000000 9 30 236 97.000000 1.000000 4.000000 1.000000 -60.708740 114.000000 224.000000 -0.193037 -0.056352 0.979572
15430.00000000 15420.00000000 -1030.00000000 9 30 236 97.000000 1.000000 4.000000 1.000000 -60.708740 114.000000 224.000000 -0.640289 0.073713 0.764589
15420.00000000 15380.00000000 -970.00000000 9 30 236 97.000000 1.000000 4.000000 1.000000 -60.708740 114.000000 224.000000 -0.291545 0.186533 0.938193
15420.00000000 15380.00000000 -1020.00000000 9 30 236 97.000000 1.000000 4.000000 1.000000 -60.708740 114.000000 224.000000 -0.101925 0.178062 0.978726
15430.00000000 15380.00000000 -1010.00000000 9 30 236 97.000000 1.000000 4.000000 1.000000 -60.708740 114.000000 224.000000 0.048530 -0.260069 0.964370
15410.00000000 15400.00000000 -1020.00000000 9 30 236 97.000000 1.000000 4.000000 1.000000 -60.708740 114.000000 224.000000 0.022826 0.234266 0.971904
15440.00000000 15380.00000000 -1010.00000000 9 30 236 97.000000 1.000000 4.000000 1.000000 -60.708740 114.000000 224.000000 0.110385 -0.258431 0.959702
15480.00000000 15340.00000000 -980.00000000 9 30 236 97.000000 1.000000 4.000000 1.000000 -60.708740 114.000000 224.000000 0.427127 -0.221749 0.876578
15480.00000000 15370.00000000 -980.00000000 9 30 236 97.000000 1.000000 4.000000 1.000000 -60.708740 114.000000 224.000000 -0.161085 -0.166159 0.972853
15470.00000000 15350.00000000 -1020.00000000 9 30 236 97.000000 1.000000 4.000000 1.000000 -60.708740 114.000000 224.000000 0.126325 -0.027948 0.991595
15460.00000000 15350.00000000 -1010.00000000 9 30 236 97.000000 1.000000 4.000000 1.000000 -60.708740 114.000000 224.000000 0.347095 0.008835 0.937788
15460.00000000 15360.00000000 -1010.00000000 9 30 236 97.000000 1.000000 4.000000 1.000000 -60.708740 114.000000 224.000000 -0.016247 -0.316186 0.948558
15450.00000000 15320.00000000 -980.00000000 9 30 236 97.000000 1.000000 4.000000 1.000000 -60.708740 114.000000 224.000000 -0.005033 0.027180 0.999618
15470.00000000 15320.00000000 -990.00000000 9 30 236 97.000000 1.000000 4.000000 1.000000 -60.708740 114.000000 224.000000 0.532805 -0.185652 0.825622
15450.00000000 15300.00000000 -990.00000000 9 30 236 97.000000 1.000000 4.000000 1.000000 -60.708740 114.000000 224.000000 0.110436 -0.304697 0.946025
15460.00000000 15320.00000000 -990.00000000 9 30 236 97.000000 1.000000 4.000000 1.000000 -60.708740 114.000000 224.000000 0.266018 -0.459766 0.847260
15450.00000000 15310.00000000 -990.00000000 9 30 236 97.000000 1.000000 4.000000 1.000000 -60.708740 114.000000 224.000000 0.185952 -0.483475 0.855379
15460.00000000 15300.00000000 -990.00000000 9 30 236 97.000000 1.000000 4.000000 1.000000 -60.708740 114.000000 224.000000 0.108303 0.154545 0.982032
15460.00000000 15320.00000000 -990.00000000 9 30 236 97.000000 1.000000 4.000000 1.000000 -60.708740 114.000000 224.000000 0.266018 -0.459766 0.847260
15420.00000000 15350.00000000 -980.00000000 9 30 236 97.000000 1.000000 4.000000 1.000000 -60.708740 114.000000 224.000000 0.001160 0.207706 0.978191
15420.00000000 15340.00000000 -1020.00000000 9 30 236 97.000000 1.000000 4.000000 1.000000 -60.708740 114.000000 224.000000 0.048149 -0.003073 0.998835
15420.00000000 15370.00000000 -1000.00000000 9 30 236 97.000000 1.000000 4.000000 1.000000 -60.708740 114.000000 224.000000 -0.205363 0.168738 0.964030
15410.00000000 15370.00000000 -1010.00000000 9 30 236 97.000000 1.000000 4.000000 1.000000 -60.708740 114.000000 224.000000 0.035901 0.165607 0.985538
15420.00000000 15360.00000000 -1000.00000000 9 30 236 97.000000 1.000000 4.000000 1.000000 -60.708740 114.000000 224.000000 -0.464493 0.217966 0.858334
15440.00000000 15360.00000000 -990.00000000 9 30 236 97.000000 1.000000 4.000000 1.000000 -60.708740 114.000000 224.000000 -0.121641 0.303434 0.945056
15430.00000000 15370.00000000 -1010.00000000 9 30 236 97.000000 1.000000 4.000000 1.000000 -60.708740 114.000000 224.000000 -0.015927 0.075388 0.997027
15420.00000000 15350.00000000 -1010.00000000 9 30 236 97.000000 1.000000 4.000000 1.000000 -60.708740 114.000000 224.000000 -0.486966 -0.107104 0.866829
15420.00000000 15300.00000000 -1000.00000000 9 30 236 97.000000 1.000000 4.000000 1.000000 -60.708740 114.000000 224.000000 0.045992 -0.111053 0.992750
15420.00000000 15320.00000000 -990.00000000 9 30 236 97.000000 1.000000 4.000000 1.000000 -60.708740 114.000000 224.000000 -0.311403 -0.039402 0.949461
15440.00000000 15330.00000000 -990.00000000 9 30 236 97.000000 1.000000 4.000000 1.000000 -60.708740 114.000000 224.000000 -0.149594 0.012372 0.988670
15430.00000000 15310.00000000 -990.00000000 9 30 236 97.000000 1.000000 4.000000 1.000000 -60.708740 114.000000 224.000000 -0.167305 -0.247611 0.954305
15440.00000000 15300.00000000 -1000.00000000 9 30 236 97.000000 1.000000 4.000000 1.000000 -60.708740 114.000000 224.000000 -0.084256 -0.435095 0.896434
15420.00000000 15310.00000000 -1000.00000000 9 30 236 97.000000 1.000000 4.000000 1.000000 -60.708740 114.000000 224.000000 -0.088606 -0.009608 0.996020
15420.00000000 15300.00000000 -990.00000000 9 30 236 97.000000 1.000000 4.000000 1.000000 -60.708740 114.000000 224.000000 -0.037148 -0.122702 0.991748
15410.00000000 15300.00000000 -1000.00000000 9 30 236 97.000000 1.000000 4.000000 1.000000 -60.708740 114.000000 224.000000 -0.134356 0.278023 0.951132
15400.00000000 15440.00000000 -970.00000000 9 30 236 97.000000 1.000000 4.000000 1.000000 -60.708740 114.000000 224.000000 -0.413213 0.207342 0.886716
15390.00000000 15450.00000000 -980.00000000 9 30 236 97.000000 1.000000 4.000000 1.000000 -60.708740 114.000000 224.000000 -0.485786 0.260628 0.834317
15400.00000000 15450.00000000 -980.00000000 9 30 236 97.000000 1.000000 4.000000 1.000000 -60.708740 114.000000 224.000000 -0.560092 0.290360 0.775879
15400.00000000 15460.00000000 -970.00000000 9 30 236 97.000000 1.000000 4.000000 1.000000 -60.708740 114.000000 224.000000 -0.625480 -0.049641 0.778659
15370.00000000 15460.00000000 -1000.00000000 9 30 236 97.000000 1.000000 4.000000 1.000000 -60.708740 114.000000 224.000000 0.746307 -0.199324 -0.635056
15380.00000000 15440.00000000 -1030.00000000 9 30 236 97.000000 1.000000 4.000000 1.000000 -60.708740 114.000000 224.000000 -0.670198 -0.041090 0.741044
15370.00000000 15420.00000000 -1010.00000000 9 30 236 97.000000 1.000000 4.000000 1.000000 -60.708740 114.000000 224.000000 -0.445968 -0.055917 0.893300
15390.00000000 15380.00000000 -1010.00000000 9 30 236 97.000000 1.000000 4.000000 1.000000 -60.708740 114.000000 224.000000 -0.403721 0.439107 0.802617
15400.00000000 15380.00000000 -1010.00000000 9 30 236 97.000000 1.000000 4.000000 1.000000 -60.708740 114.000000 224.000000 -0.088410 0.215422 0.972511
15380.00000000 15380.00000000 -1020.00000000 9 30 236 97.000000 1.000000 4.000000 1.000000 -60.708740 114.000000 224.000000 -0.510358 0.440989 0.738284
15370.00000000 15390.00000000 -1020.00000000 9 30 236 97.000000 1.000000 4.000000 1.000000 -60.708740 114.000000 224.000000 -0.573161 0.009575 0.819387
15400.00000000 15390.00000000 -1010.00000000 9 30 236 97.000000 1.000000 4.000000 1.000000 -60.708740 114.000000 224.000000 -0.170159 0.167600 0.971059
15390.00000000 15390.00000000 -1010.00000000 9 30 236 97.000000 1.000000 4.000000 1.000000 -60.708740 114.000000 224.000000 -0.353197 0.113187 0.928677
15400.00000000 15390.00000000 -1020.00000000 9 30 236 97.000000 1.000000 4.000000 1.000000 -60.708740 114.000000 224.000000 -0.272778 0.151842 0.950019
15390.00000000 15410.00000000 -1010.00000000 9 30 236 97.000000 1.000000 4.000000 1.000000 -60.708740 114.000000 224.000000 -0.352813 -0.136974 0.925614
15400.00000000 15390.00000000 -1010.00000000 9 30 236 97.000000 1.000000 4.000000 1.000000 -60.708740 114.000000 224.000000 -0.170159 0.167600 0.971059
15400.00000000 15380.00000000 -1000.00000000 9 30 236 97.000000 1.000000 4.000000 1.000000 -60.708740 114.000000 224.000000 -0.063566 0.415207 0.907504
15390.00000000 15410.00000000 -1020.00000000 9 30 236 97.000000 1.000000 4.000000 1.000000 -60.708740 114.000000 224.000000 -0.458928 0.149115 0.875871
15380.00000000 15390.00000000 -1030.00000000 9 30 236 97.000000 1.000000 4.000000 1.000000 -60.708740 114.000000 224.000000 -0.472718 0.205595 0.856895
15360.00000000 15420.00000000 -1030.00000000 9 30 236 97.000000 1.000000 4.000000 1.000000 -60.708740 114.000000 224.000000 0.859123 -0.387145 -0.334703
15360.00000000 15410.00000000 -1020.00000000 9 30 236 97.000000 1.000000 4.000000 1.000000 -60.708740 114.000000 224.000000 -0.574738 0.128540 0.808179
15390.00000000 15340.00000000 -980.00000000 9 30 236 97.000000 1.000000 4.000000 1.000000 -60.708740 114.000000 224.000000 -0.431706 -0.255994 0.864926
15380.00000000 15340.00000000 -1010.00000000 9 30 236 97.000000 1.000000 4.000000 1.000000 -60.708740 114.000000 224.000000 -0.314998 0.279835 0.906901
15390.00000000 15360.00000000 -1000.00000000 9 30 236 97.000000 1.000000 4.000000 1.000000 -60.708740 114.000000 224.000000 0.086519 0.038331 0.995513
15380.00000000 15350.00000000 -1010.00000000 9 30 236 97.000000 1.000000 4.000000 1.000000 -60.708740 114.000000 224.000000 -0.328544 0.144339 0.933394
15400.00000000 15340.00000000 -990.00000000 9 30 236 97.000000 1.000000 4.000000 1.000000 -60.708740 114.000000 224.000000 -0.418310 0.122535 0.900001
15370.00000000 15320.00000000 -1010.00000000 9 30 236 97.000000 1.000000 4.000000 1.000000 -60.708740 114.000000 224.000000 -0.191189 0.015063 0.981438
15380.00000000 15330.00000000 -1000.00000000 9 30 236 97.000000 1.000000 4.000000 1.000000 -60.708740 114.000000 224.000000 -0.525790 -0.145807 0.838024
15370.00000000 15330.00000000 -1010.00000000 9 30 236 97.000000 1.000000 4.000000 1.000000 -60.708740 114.000000 224.000000 -0.366100 -0.070557 0.927897
15390.00000000 15300.00000000 -1000.00000000 9 30 236 97.000000 1.000000 4.000000 1.000000 -60.708740 114.000000 224.000000 -0.352213 -0.032254 0.935364
15340.00000000 15360.00000000 -1030.00000000 9 30 236 97.000000 1.000000 4.000000 1.000000 -60.708740 114.000000 224.000000 -0.359458 0.654902 0.664750
15340.00000000 15350.00000000 -1020.00000000 9 30 236 97.000000 1.000000 4.000000 1.000000 -60.708740 114.000000 224.000000 -0.409702 0.284811 0.866618
15360.00000000 15350.00000000 -1020.00000000 9 30 236 97.000000 1.000000 4.000000 1.000000 -60.708740 114.000000 224.000000 -0.414300 0.546348 0.727914
15360.00000000 15350.00000000 -1010.00000000 9 30 236 97.000000 1.000000 4.000000 1.000000 -60.708740 114.000000 224.000000 -0.398152 0.171047 0.901231
15360.00000000 15340.00000000 -1010.00000000 9 30 236 97.000000 1.000000 4.000000 1.000000 -60.708740 114.000000 224.000000 -0.255355 -0.028101 0.966439
15340.00000000 15360.00000000 -1030.00000000 9 30 236 97.000000 1.000000 4.000000 1.000000 -60.708740 114.000000 224.000000 -0.359458 0.654902 0.664750
15340.00000000 15370.00000000 -1030.00000000 9 30 236 97.000000 1.000000 4.000000 1.000000 -60.708740 114.000000 224.000000 -0.410600 0.465780 0.783873
15360.00000000 15360.00000000 -1020.00000000 9 30 236 97.000000 1.000000 4.000000 1.000000 -60.708740 114.000000 224.000000 0.470590 -0.564374 -0.678253
15360.00000000 15360.00000000 -1030.00000000 9 30 236 97.000000 1.000000 4.000000 1.000000 -60.708740 114.000000 224.000000 -0.407052 0.384878 0.828359
15340.00000000 15340.00000000 -1030.00000000 9 30 236 97.000000 1.000000 4.000000 1.000000 -60.708740 114.000000 224.000000 0.774191 -0.245552 -0.583380
15350.00000000 15370.00000000 -1030.00000000 9 30 236 97.000000 1.000000 4.000000 1.000000 -60.708740 114.000000 224.000000 -0.329447 0.344629 0.879031
15330.00000000 15360.00000000 -1030.00000000 9 30 236 97.000000 1.000000 4.000000 1.000000 -60.708740 114.000000 224.000000 0.467519 -0.631737 -0.618332
15340.00000000 15310.00000000 -1010.00000000 9 30 236 97.000000 1.000000 4.000000 1.000000 -60.708740 114.000000 224.000000 -0.525047 -0.198217 0.827669
15350.00000000 15330.00000000 -1020.00000000 9 30 236 97.000000 1.000000 4.000000 1.000000 -60.708740 114.000000 224.000000 -0.383697 0.132550 0.913897
15350.00000000 15300.00000000 -1010.00000000 9 30 236 97.000000 1.000000 4.000000 1.000000 -60.708740 114.000000 224.000000 -0.561221 0.248563 0.789461
15340.00000000 15320.00000000 -1020.00000000 9 30 236 97.000000 1.000000 4.000000 1.000000 -60.708740 114.000000 224.000000 -0.023987 0.324457 0.945596
15360.00000000 15330.00000000 -1010.00000000 9 30 236 97.000000 1.000000 4.000000 1.000000 -60.708740 114.000000 224.000000 -0.269019 0.061887 0.961144
15350.00000000 15300.00000000 -1000.00000000 9 30 236 97.000000 1.000000 4.000000 1.000000 -60.708740 114.000000 224.000000 -0.493581 0.110162 0.862694
15330.00000000 15300.00000000 -1010.00000000 9 30 236 97.000000 1.000000 4.000000 1.000000 -60.708740 114.000000 224.000000 -0.175069 -0.063120 0.982531
15470.00000000 15170.00000000 -770.00000000 9 30 236 97.000000 1.000000 4.000000 1.000000 -60.708740 114.000000 224.000000 0.372140 0.123124 0.919974
15460.00000000 15170.00000000 -770.00000000 9 30 236 97.000000 1.000000 4.000000 1.000000 -60.708740 114.000000 224.000000 0.342861 -0.136318 0.929443
15470.00000000 15150.00000000 -770.00000000 9 30 236 97.000000 1.000000 4.000000 1.000000 -60.708740 114.000000 224.000000 0.061135 -0.081142 0.994826
15440.00000000 15130.00000000 -740.00000000 9 30 236 97.000000 1.000000 4.000000 1.000000 -60.708740 114.000000 224.000000 -0.107982 -0.184934 0.976801
15430.00000000 15150.00000000 -780.00000000 9 30 236 97.000000 1.000000 4.000000 1.000000 -60.708740 114.000000 224.000000 0.343956 -0.284397 0.894881
15480.00000000 15140.00000000 -800.00000000 9 30 236 97.000000 1.000000 4.000000 1.000000 -60.708740 114.000000 224.000000 0.203706 -0.408877 0.889564
15460.00000000 15270.00000000 -970.00000000 9 30 236 97.000000 1.000000 4.000000 1.000000 -60.708740 114.000000 224.000000 0.565509 -0.407232 0.717190
15450.00000000 15270.00000000 -960.00000000 9 30 236 97.000000 1.000000 4.000000 1.000000 -60.708740 114.000000 224.000000 -0.122718 -0.427396 0.895697
15470.00000000 15270.00000000 -990.00000000 9 30 236 97.000000 1.000000 4.000000 1.000000 -60.708740 114.000000 224.000000 0.231980 0.025241 0.972393
15480.00000000 15290.00000000 -1010.00000000 9 30 236 97.000000 1.000000 4.000000 1.000000 -60.708740 114.000000 224.000000 0.155732 -0.410046 0.898671
15470.00000000 15240.00000000 -980.00000000 9 30 236 97.000000 1.000000 4.000000 1.000000 -60.708740 114.000000 224.000000 0.601260 -0.094629 0.793430
15470.00000000 15240.00000000 -1010.00000000 9 30 236 97.000000 1.000000 4.000000 1.000000 -60.708740 114.000000 224.000000 0.345322 -0.163573 0.924120
15470.00000000 15210.00000000 -1000.00000000 9 30 236 97.000000 1.000000 4.000000 1.000000 -60.708740 114.000000 224.000000 0.380322 -0.154108 0.911924
15470.00000000 15220.00000000 -990.00000000 9 30 236 97.000000 1.000000 4.000000 1.000000 -60.708740 114.000000 224.000000 0.431874 -0.359104 0.827363
15470.00000000 15240.00000000 -990.00000000 9 30 236 97.000000 1.000000 4.000000 1.000000 -60.708740 114.000000 224.000000 0.729720 -0.285820 0.621140
15480.00000000 15220.00000000 -1000.00000000 9 30 236 97.000000 1.000000 4.000000 1.000000 -60.708740 114.000000 224.000000 0.595704 -0.122688 0.793779
15450.00000000 15210.00000000 -990.00000000 9 30 236 97.000000 1.000000 4.000000 1.000000 -60.708740 114.000000 224.000000 0.341412 0.061480 0.937901
15480.00000000 15230.00000000 -1010.00000000 9 30 236 97.000000 1.000000 4.000000 1.000000 -60.708740 114.000000 224.000000 0.517966 -0.048603 0.854019
15420.00000000 15260.00000000 -980.00000000 9 30 236 97.000000 1.000000 4.000000 1.000000 -60.708740 114.000000 224.000000 0.013179 -0.245614 0.969278
15410.00000000 15290.00000000 -1000.00000000 9 30 236 97.000000 1.000000 4.000000 1.000000 -60.708740 114.000000 224.000000 0.001214 0.280326 0.959904
15410.00000000 15290.00000000 -1000.00000000 9 30 236 97.000000 1.000000 4.000000 1.000000 -60.708740 114.000000 224.000000 0.001214 0.280326 0.959904
15440.00000000 15290.00000000 -1010.00000000 9 30 236 97.000000 1.000000 4.000000 1.000000 -60.708740 114.000000 224.000000 0.561221 -0.248563 0.789461
15410.00000000 15270.00000000 -990.00000000 9 30 236 97.000000 1.000000 4.000000 1.000000 -60.708740 114.000000 224.000000 -0.311526 -0.031531 0.949714
15420.00000000 15290.00000000 -990.00000000 9 30 236 97.000000 1.000000 4.000000 1.000000 -60.708740 114.000000 224.000000 0.060630 0.172380 0.983163
15430.00000000 15270.00000000 -1010.00000000 9 30 236 97.000000 1.000000 4.000000 1.000000 -60.708740 114.000000 224.000000 0.496178 -0.095255 0.862980
15420.00000000 15260.00000000 -990.00000000 9 30 236 97.000000 1.000000 4.000000 1.000000 -60.708740 114.000000 224.000000 -0.049792 -0.089625 0.994730
15440.00000000 15290.00000000 -1000.00000000 9 30 236 97.000000 1.000000 4.000000 1.000000 -60.708740 114.000000 224.000000 0.236586 -0.175101 0.955702
15430.00000000 15260.00000000 -990.00000000 9 30 236 97.000000 1.000000 4.000000 1.000000 -60.708740 114.000000 224.000000 0.219270 0.020149 0.975456
15430.00000000 15280.00000000 -1000.00000000 9 30 236 97.000000 1.000000 4.000000 1.000000 -60.708740 114.000000 224.000000 0.231239 -0.037531 0.972173
15410.00000000 15220.00000000 -990.00000000 9 30 236 97.000000 1.000000 4.000000 1.000000 -60.708740 114.000000 224.000000 0.043665 -0.047925 0.997896
15420.00000000 15250.00000000 -990.00000000 9 30 236 97.000000 1.000000 4.000000 1.000000 -60.708740 114.000000 224.000000 -0.039466 -0.314453 0.948452
15410.00000000 15250.00000000 -1000.00000000 9 30 236 97.000000 1.000000 4.000000 1.000000 -60.708740 114.000000 224.000000 0.154816 0.033257 0.987383
15420.00000000 15240.00000000 -1000.00000000 9 30 236 97.000000 1.000000 4.000000 1.000000 -60.708740 114.000000 224.000000 0.139540 0.146950 0.979252
15410.00000000 15240.00000000 -990.00000000 9 30 236 97.000000 1.000000 4.000000 1.000000 -60.708740 114.000000 224.000000 0.292594 0.115184 0.949274
15460.00000000 15190.00000000 -990.00000000 9 30 236 97.000000 1.000000 4.000000 1.000000 -60.708740 114.000000 224.000000 0.471165 -0.422255 0.774406
15430.00000000 15180.00000000 -970.00000000 9 30 236 97.000000 1.000000 4.000000 1.000000 -60.708740 114.000000 224.000000 0.444381 -0.441125 0.779701
15450.00000000 15190.00000000 -1000.00000000 9 30 236 97.000000 1.000000 4.000000 1.000000 -60.708740 114.000000 224.000000 0.256592 -0.183280 0.948983
15470.00000000 15200.00000000 -1000.00000000 9 30 236 97.000000 1.000000 4.000000 1.000000 -60.708740 114.000000 224.000000 0.426775 -0.189189 0.884348
15450.00000000 15190.00000000 -990.00000000 9 30 236 97.000000 1.000000 4.000000 1.000000 -60.708740 114.000000 224.000000 0.442838 -0.404190 0.800328
15400.00000000 15270.00000000 -1000.00000000 9 30 236 97.000000 1.000000 4.000000 1.000000 -60.708740 114.000000 224.000000 -0.237293 -0.081609 0.968004
15380.00000000 15280.00000000 -1000.00000000 9 30 236 97.000000 1.000000 4.000000 1.000000 -60.708740 114.000000 224.000000 -0.229054 0.363277 0.903086
15400.00000000 15280.00000000 -990.00000000 9 30 236 97.000000 1.000000 4.000000 1.000000 -60.708740 114.000000 224.000000 -0.005014 -0.023063 0.999721
15400.00000000 15290.00000000 -990.00000000 9 30 236 97.000000 1.000000 4.000000 1.000000 -60.708740 114.000000 224.000000 0.077028 0.199294 0.976908
15400.00000000 15270.00000000 -1000.00000000 9 30 236 97.000000 1.000000 4.000000 1.000000 -60.708740 114.000000 224.000000 -0.237293 -0.081609 0.968004
15400.00000000 15280.00000000 -990.00000000 9 30 236 97.000000 1.000000 4.000000 1.000000 -60.708740 114.000000 224.000000 -0.005014 -0.023063 0.999721
15370.00000000 15260.00000000 -990.00000000 9 30 236 97.000000 1.000000 4.000000 1.000000 -60.708740 114.000000 224.000000 -0.177792 0.063242 0.982034
15380.00000000 15270.00000000 -990.00000000 9 30 236 97.000000 1.000000 4.000000 1.000000 -60.708740 114.000000 224.000000 0.052738 0.160558 0.985616
15370.00000000 15290.00000000 -1000.00000000 9 30 236 97.000000 1.000000 4.000000 1.000000 -60.708740 114.000000 224.000000 0.105881 0.325686 0.939531
15400.00000000 15220.00000000 -950.00000000 9 30 236 97.000000 1.000000 4.000000 1.000000 -60.708740 114.000000 224.000000 0.233115 -0.139348 0.962413
15370.00000000 15220.00000000 -990.00000000 9 30 236 97.000000 1.000000 4.000000 1.000000 -60.708740 114.000000 224.000000 0.164789 0.195930 0.966673
15370.00000000 15250.00000000 -990.00000000 9 30 236 97.000000 1.000000 4.000000 1.000000 -60.708740 114.000000 224.000000 -0.197434 -0.017524 0.980160
15390.00000000 15230.00000000 -990.00000000 9 30 236 97.000000 1.000000 4.000000 1.000000 -60.708740 114.000000 224.000000 -0.116493 -0.050895 0.991887
15360.00000000 15290.00000000 -980.00000000 9 30 236 97.000000 1.000000 4.000000 1.000000 -60.708740 114.000000 224.000000 -0.208806 0.067160 0.975648
15330.00000000 15260.00000000 -1000.00000000 9 30 236 97.000000 1.000000 4.000000 1.000000 -60.708740 114.000000 224.000000 -0.057723 0.059901 0.996534
15350.00000000 15290.00000000 -1000.00000000 9 30 236 97.000000 1.000000 4.000000 1.000000 -60.708740 114.000000 224.000000 -0.455891 0.207767 0.865446
15340.00000000 15280.00000000 -1000.00000000 9 30 236 97.000000 1.000000 4.000000 1.000000 -60.708740 114.000000 224.000000 -0.329663 0.262265 0.906940
15340.00000000 15270.00000000 -1000.00000000 9 30 236 97.000000 1.000000 4.000000 1.000000 -60.708740 114.000000 224.000000 -0.134462 0.076000 0.988000
15340.00000000 15260.00000000 -1000.00000000 9 30 236 97.000000 1.000000 4.000000 1.000000 -60.708740 114.000000 224.000000 0.005786 0.197893 0.980207
15350.00000000 15280.00000000 -990.00000000 9 30 236 97.000000 1.000000 4.000000 1.000000 -60.708740 114.000000 224.000000 -0.379982 0.024640 0.924666
15360.00000000 15270.00000000 -990.00000000 9 30 236 97.000000 1.000000 4.000000 1.000000 -60.708740 114.000000 224.000000 -0.206149 0.101200 0.973273
15340.00000000 15210.00000000 -1000.00000000 9 30 236 97.000000 1.000000 4.000000 1.000000 -60.708740 114.000000 224.000000 -0.148842 -0.312705 0.938116
15330.00000000 15250.00000000 -1000.00000000 9 30 236 97.000000 1.000000 4.000000 1.000000 -60.708740 114.000000 224.000000 -0.104179 0.207103 0.972756
15340.00000000 15240.00000000 -990.00000000 9 30 236 97.000000 1.000000 4.000000 1.000000 -60.708740 114.000000 224.000000 -0.038490 0.269430 0.962250
15340.00000000 15220.00000000 -990.00000000 9 30 236 97.000000 1.000000 4.000000 1.000000 -60.708740 114.000000 224.000000 -0.258187 0.298574 0.918800
15330.00000000 15230.00000000 -1000.00000000 9 30 236 97.000000 1.000000 4.000000 1.000000 -60.708740 114.000000 224.000000 -0.245499 0.173057 0.953825
15340.00000000 15220.00000000 -990.00000000 9 30 236 97.000000 1.000000 4.000000 1.000000 -60.708740 114.000000 224.000000 -0.258187 0.298574 0.918800
15330.00000000 15250.00000000 -1000.00000000 9 30 236 97.000000 1.000000 4.000000 1.000000 -60.708740 114.000000 224.000000 -0.104179 0.207103 0.972756
15350.00000000 15250.00000000 -1000.00000000 9 30 236 97.000000 1.000000 4.000000 1.000000 -60.708740 114.000000 224.000000 -0.202643 0.192047 0.960236
15340.00000000 15240.00000000 -990.00000000 9 30 236 97.000000 1.000000 4.000000 1.000000 -60.708740 114.000000 224.000000 -0.038490 0.269430 0.962250
15370.00000000 15190.00000000 -980.00000000 9 30 236 97.000000 1.000000 4.000000 1.000000 -60.708740 114.000000 224.000000 -0.271133 -0.231798 0.934215
15390.00000000 15190.00000000 -970.00000000 9 30 236 97.000000 1.000000 4.000000 1.000000 -60.708740 114.000000 224.000000 0.167142 -0.392856 0.904283
15370.00000000 15180.00000000 -970.00000000 9 30 236 97.000000 1.000000 4.000000 1.000000 -60.708740 114.000000 224.000000 -0.003002 -0.023017 0.999731
15370.00000000 15180.00000000 -970.00000000 9 30 236 97.000000 1.000000 4.000000 1.000000 -60.708740 114.000000 224.000000 -0.003002 -0.023017 0.999731
15380.00000000 15150.00000000 -970.00000000 9 30 236 97.000000 1.000000 4.000000 1.000000 -60.708740 114.000000 224.000000 0.108198 0.064919 0.992007
15390.00000000 15150.00000000 -980.00000000 9 30 236 97.000000 1.000000 4.000000 1.000000 -60.708740 114.000000 224.000000 0.287137 -0.062532 0.955846
15330.00000000 15200.00000000 -970.00000000 9 30 236 97.000000 1.000000 4.000000 1.000000 -60.708740 114.000000 224.000000 0.030774 0.264659 0.963851
15360.00000000 15190.00000000 -960.00000000 9 30 236 97.000000 1.000000 4.000000 1.000000 -60.708740 114.000000 224.000000 0.257630 0.171304 0.950937
15340.00000000 15190.00000000 -980.00000000 9 30 236 97.000000 1.000000 4.000000 1.000000 -60.708740 114.000000 224.000000 0.144400 -0.290150 0.946024
15360.00000000 15200.00000000 -960.00000000 9 30 236 97.000000 1.000000 4.000000 1.000000 -60.708740 114.000000 224.000000 -0.096150 0.211031 0.972739
15350.00000000 15170.00000000 -970.00000000 9 30 236 97.000000 1.000000 4.000000 1.000000 -60.708740 114.000000 224.000000 -0.182944 0.094542 0.978567
15340.00000000 15190.00000000 -970.00000000 9 30 236 97.000000 1.000000 4.000000 1.000000 -60.708740 114.000000 224.000000 -0.081536 -0.140620 0.986701
15330.00000000 15180.00000000 -980.00000000 9 30 236 97.000000 1.000000 4.000000 1.000000 -60.708740 114.000000 224.000000 0.210373 -0.145841 0.966682
15360.00000000 15200.00000000 -980.00000000 9 30 236 97.000000 1.000000 4.000000 1.000000 -60.708740 114.000000 224.000000 0.109172 0.240179 0.964570
15360.00000000 15190.00000000 -990.00000000 9 30 236 97.000000 1.000000 4.000000 1.000000 -60.708740 114.000000 224.000000 -0.242016 -0.256006 0.935890
15340.00000000 15160.00000000 -980.00000000 9 30 236 97.000000 1.000000 4.000000 1.000000 -60.708740 114.000000 224.000000 0.062103 0.275028 0.959428
15330.00000000 15160.00000000 -970.00000000 9 30 236 97.000000 1.000000 4.000000 1.000000 -60.708740 114.000000 224.000000 0.145307 0.265285 0.953158
15320.00000000 15320.00000000 -1030.00000000 9 30 236 97.000000 1.000000 4.000000 1.000000 -60.708740 114.000000 224.000000 0.779249 -0.393675 -0.487638
