//X Y Z R G B PointSourceId ScanDirectionFlag NumberOfReturns ReturnNumber GpsTime Intensity Classification Nx Ny Nz
9070.00000000 17070.00000000 -190.00000000 192 163 78 97.000000 1.000000 4.000000 1.000000 -60.708740 114.000000 245.000000 0.279493 -0.108910 0.953951
9080.00000000 17070.00000000 -200.00000000 192 163 78 97.000000 1.000000 4.000000 1.000000 -60.708740 114.000000 245.000000 0.311559 0.185817 0.931882
9040.00000000 17070.00000000 -190.00000000 192 163 78 97.000000 1.000000 4.000000 1.000000 -60.708740 114.000000 245.000000 0.045434 -0.349196 0.935948
9010.00000000 17080.00000000 -190.00000000 192 163 78 97.000000 1.000000 4.000000 1.000000 -60.708740 114.000000 245.000000 -0.054346 0.085401 0.994863
9040.00000000 17070.00000000 -190.00000000 192 163 78 97.000000 1.000000 4.000000 1.000000 -60.708740 114.000000 245.000000 0.045434 -0.349196 0.935948
9030.00000000 17080.00000000 -190.00000000 192 163 78 97.000000 1.000000 4.000000 1.000000 -60.708740 114.000000 245.000000 0.089235 -0.502829 0.859767
9030.00000000 17070.00000000 -190.00000000 192 163 78 97.000000 1.000000 4.000000 1.000000 -60.708740 114.000000 245.000000 0.387746 -0.359716 0.848680
9010.00000000 17070.00000000 -220.00000000 192 163 78 97.000000 1.000000 4.000000 1.000000 -60.708740 114.000000 245.000000 0.500453 0.048253 0.864418
9070.00000000 17060.00000000 -200.00000000 192 163 78 97.000000 1.000000 4.000000 1.000000 -60.708740 114.000000 245.000000 0.134755 -0.365367 0.921058
9070.00000000 17060.00000000 -190.00000000 192 163 78 97.000000 1.000000 4.000000 1.000000 -60.708740 114.000000 245.000000 0.205353 -0.148525 0.967352
9080.00000000 17060.00000000 -190.00000000 192 163 78 97.000000 1.000000 4.000000 1.000000 -60.708740 114.000000 245.000000 0.280319 -0.318478 0.905535
9050.00000000 17020.00000000 -220.00000000 192 163 78 97.000000 1.000000 4.000000 1.000000 -60.708740 114.000000 245.000000 0.093517 -0.442460 0.891899
9070.00000000 17060.00000000 -200.00000000 192 163 78 97.000000 1.000000 4.000000 1.000000 -60.708740 114.000000 245.000000 0.134755 -0.365367 0.921058
9040.00000000 17020.00000000 -220.00000000 192 163 78 97.000000 1.000000 4.000000 1.000000 -60.708740 114.000000 245.000000 -0.131978 -0.281286 0.950505
9030.00000000 17020.00000000 -230.00000000 192 163 78 97.000000 1.000000 4.000000 1.000000 -60.708740 114.000000 245.000000 0.097591 -0.399987 0.911310
9020.00000000 17030.00000000 -220.00000000 192 163 78 97.000000 1.000000 4.000000 1.000000 -60.708740 114.000000 245.000000 0.383262 -0.327851 0.863495
9010.00000000 17030.00000000 -220.00000000 192 163 78 97.000000 1.000000 4.000000 1.000000 -60.708740 114.000000 245.000000 0.422412 -0.481126 0.768170
9040.00000000 17040.00000000 -220.00000000 192 163 78 97.000000 1.000000 4.000000 1.000000 -60.708740 114.000000 245.000000 -0.063878 -0.251753 0.965681
9010.00000000 17010.00000000 -220.00000000 192 163 78 97.000000 1.000000 4.000000 1.000000 -60.708740 114.000000 245.000000 0.278718 -0.222695 0.934197
9040.00000000 17000.00000000 -220.00000000 192 163 78 97.000000 1.000000 4.000000 1.000000 -60.708740 114.000000 245.000000 0.093978 -0.455863 0.885075
9010.00000000 16990.00000000 -240.00000000 192 163 78 97.000000 1.000000 4.000000 1.000000 -60.708740 114.000000 245.000000 0.263164 -0.584633 0.767430
9040.00000000 17000.00000000 -250.00000000 192 163 78 97.000000 1.000000 4.000000 1.000000 -60.708740 114.000000 245.000000 0.351660 -0.469410 0.809932
8990.00000000 17070.00000000 -200.00000000 192 163 78 97.000000 1.000000 4.000000 1.000000 -60.708740 114.000000 245.000000 0.385810 0.237990 0.891354
9000.00000000 17090.00000000 -190.00000000 192 163 78 97.000000 1.000000 4.000000 1.000000 -60.708740 114.000000 245.000000 -0.022042 -0.055631 0.998208
8980.00000000 17080.00000000 -190.00000000 192 163 78 97.000000 1.000000 4.000000 1.000000 -60.708740 114.000000 245.000000 0.210666 -0.376293 0.902232
8960.00000000 17110.00000000 -220.00000000 192 163 78 97.000000 1.000000 4.000000 1.000000 -60.708740 114.000000 245.000000 0.337243 0.310263 0.888822
8950.00000000 17120.00000000 -220.00000000 192 163 78 97.000000 1.000000 4.000000 1.000000 -60.708740 114.000000 245.000000 0.326127 -0.196241 0.924733
8980.00000000 17040.00000000 -190.00000000 192 163 78 97.000000 1.000000 4.000000 1.000000 -60.708740 114.000000 245.000000 0.194772 -0.116863 0.973862
8980.00000000 17020.00000000 -210.00000000 192 163 78 97.000000 1.000000 4.000000 1.000000 -60.708740 114.000000 245.000000 -0.067317 -0.602984 0.794908
8970.00000000 17050.00000000 -190.00000000 192 163 78 97.000000 1.000000 4.000000 1.000000 -60.708740 114.000000 245.000000 0.208590 0.134368 0.968729
8980.00000000 17020.00000000 -220.00000000 192 163 78 97.000000 1.000000 4.000000 1.000000 -60.708740 114.000000 245.000000 -0.014456 -0.134553 0.990801
8990.00000000 17050.00000000 -200.00000000 192 163 78 97.000000 1.000000 4.000000 1.000000 -60.708740 114.000000 245.000000 0.134058 -0.171645 0.975995
8970.00000000 17020.00000000 -210.00000000 192 163 78 97.000000 1.000000 4.000000 1.000000 -60.708740 114.000000 245.000000 0.188534 -0.132860 0.973038
8970.00000000 17010.00000000 -210.00000000 192 163 78 97.000000 1.000000 4.000000 1.000000 -60.708740 114.000000 245.000000 0.322216 -0.244190 0.914630
8990.00000000 17010.00000000 -220.00000000 192 163 78 97.000000 1.000000 4.000000 1.000000 -60.708740 114.000000 245.000000 0.289268 -0.283453 0.914319
8970.00000000 17010.00000000 -210.00000000 192 163 78 97.000000 1.000000 4.000000 1.000000 -60.708740 114.000000 245.000000 0.322216 -0.244190 0.914630
8990.00000000 17000.00000000 -220.00000000 192 163 78 97.000000 1.000000 4.000000 1.000000 -60.708740 114.000000 245.000000 0.033062 -0.255921 0.966132
8990.00000000 17010.00000000 -220.00000000 192 163 78 97.000000 1.000000 4.000000 1.000000 -60.708740 114.000000 245.000000 0.289268 -0.283453 0.914319
8980.00000000 17010.00000000 -220.00000000 192 163 78 97.000000 1.000000 4.000000 1.000000 -60.708740 114.000000 245.000000 0.044656 -0.315147 0.947992
9000.00000000 17010.00000000 -220.00000000 192 163 78 97.000000 1.000000 4.000000 1.000000 -60.708740 114.000000 245.000000 0.426050 -0.231711 0.874523
8950.00000000 17060.00000000 -190.00000000 192 163 78 97.000000 1.000000 4.000000 1.000000 -60.708740 114.000000 245.000000 -0.130207 -0.108705 0.985510
8940.00000000 17050.00000000 -190.00000000 192 163 78 97.000000 1.000000 4.000000 1.000000 -60.708740 114.000000 245.000000 0.158810 -0.040572 0.986475
8960.00000000 17020.00000000 -200.00000000 192 163 78 97.000000 1.000000 4.000000 1.000000 -60.708740 114.000000 245.000000 0.001186 -0.245605 0.969369
8940.00000000 17030.00000000 -200.00000000 192 163 78 97.000000 1.000000 4.000000 1.000000 -60.708740 114.000000 245.000000 0.182958 -0.314240 0.931547
8950.00000000 17040.00000000 -200.00000000 192 163 78 97.000000 1.000000 4.000000 1.000000 -60.708740 114.000000 245.000000 0.082305 -0.467325 0.880246
8940.00000000 17050.00000000 -190.00000000 192 163 78 97.000000 1.000000 4.000000 1.000000 -60.708740 114.000000 245.000000 0.158810 -0.040572 0.986475
8940.00000000 17030.00000000 -210.00000000 192 163 78 97.000000 1.000000 4.000000 1.000000 -60.708740 114.000000 245.000000 0.259470 -0.288141 0.921765
8940.00000000 17000.00000000 -200.00000000 192 163 78 97.000000 1.000000 4.000000 1.000000 -60.708740 114.000000 245.000000 0.159365 -0.082678 0.983751
8960.00000000 16990.00000000 -200.00000000 192 163 78 97.000000 1.000000 4.000000 1.000000 -60.708740 114.000000 245.000000 0.419825 -0.491702 0.762873
8950.00000000 16980.00000000 -220.00000000 192 163 78 97.000000 1.000000 4.000000 1.000000 -60.708740 114.000000 245.000000 0.458334 -0.350490 0.816754
8950.00000000 16990.00000000 -200.00000000 192 163 78 97.000000 1.000000 4.000000 1.000000 -60.708740 114.000000 245.000000 0.229045 -0.530338 0.816260
8930.00000000 16990.00000000 -200.00000000 192 163 78 97.000000 1.000000 4.000000 1.000000 -60.708740 114.000000 245.000000 0.045978 -0.374393 0.926130
9060.00000000 16850.00000000 -260.00000000 192 163 78 97.000000 1.000000 4.000000 1.000000 -60.708740 114.000000 245.000000 0.022740 0.886856 -0.461486
9060.00000000 16850.00000000 -260.00000000 192 163 78 97.000000 1.000000 4.000000 1.000000 -60.708740 114.000000 245.000000 0.022740 0.886856 -0.461486
9010.00000000 16810.00000000 -220.00000000 192 163 78 97.000000 1.000000 4.000000 1.000000 -60.708740 114.000000 245.000000 -0.382580 0.847921 -0.366964
9010.00000000 16820.00000000 -250.00000000 192 163 78 97.000000 1.000000 4.000000 1.000000 -60.708740 114.000000 245.000000 -0.380053 0.871526 -0.309842
9050.00000000 16820.00000000 -310.00000000 192 163 78 97.000000 1.000000 4.000000 1.000000 -60.708740 114.000000 245.000000 0.005327 0.996069 -0.088421
9050.00000000 16820.00000000 -310.00000000 192 163 78 97.000000 1.000000 4.000000 1.000000 -60.708740 114.000000 245.000000 0.005327 0.996069 -0.088421
9080.00000000 16840.00000000 -310.00000000 192 163 78 97.000000 1.000000 4.000000 1.000000 -60.708740 114.000000 245.000000 -0.269020 0.951608 -0.148563
9050.00000000 16830.00000000 -340.00000000 192 163 78 97.000000 1.000000 4.000000 1.000000 -60.708740 114.000000 245.000000 -0.005173 0.998482 -0.054839
9060.00000000 16830.00000000 -350.00000000 192 163 78 97.000000 1.000000 4.000000 1.000000 -60.708740 114.000000 245.000000 0.141851 0.929605 -0.340167
9020.00000000 16860.00000000 -330.00000000 192 163 78 97.000000 1.000000 4.000000 1.000000 -60.708740 114.000000 245.000000 -0.078066 0.938117 -0.337405
8960.00000000 16970.00000000 -220.00000000 192 163 78 97.000000 1.000000 4.000000 1.000000 -60.708740 114.000000 245.000000 0.505259 -0.213938 0.836029
8940.00000000 16930.00000000 -230.00000000 192 163 78 97.000000 1.000000 4.000000 1.000000 -60.708740 114.000000 245.000000 0.477098 -0.374289 0.795164
8940.00000000 16940.00000000 -230.00000000 192 163 78 97.000000 1.000000 4.000000 1.000000 -60.708740 114.000000 245.000000 0.159121 -0.327928 0.931205
8960.00000000 16940.00000000 -210.00000000 192 163 78 97.000000 1.000000 4.000000 1.000000 -60.708740 114.000000 245.000000 0.349112 -0.358340 0.865860
8970.00000000 16850.00000000 -250.00000000 192 163 78 97.000000 1.000000 4.000000 1.000000 -60.708740 114.000000 245.000000 -0.518378 0.589296 -0.619689
8970.00000000 16850.00000000 -250.00000000 192 163 78 97.000000 1.000000 4.000000 1.000000 -60.708740 114.000000 245.000000 -0.518378 0.589296 -0.619689
8930.00000000 16810.00000000 -190.00000000 192 163 78 97.000000 1.000000 4.000000 1.000000 -60.708740 114.000000 245.000000 0.160654 0.856330 -0.490805
8950.00000000 16850.00000000 -240.00000000 192 163 78 97.000000 1.000000 4.000000 1.000000 -60.708740 114.000000 245.000000 0.168962 -0.653015 0.738257
8880.00000000 17100.00000000 -170.00000000 192 163 78 97.000000 1.000000 4.000000 1.000000 -60.708740 114.000000 245.000000 0.095582 0.123903 0.987680
8860.00000000 17100.00000000 -170.00000000 192 163 78 97.000000 1.000000 4.000000 1.000000 -60.708740 114.000000 245.000000 0.294858 0.003670 0.955534
8870.00000000 17080.00000000 -170.00000000 192 163 78 97.000000 1.000000 4.000000 1.000000 -60.708740 114.000000 245.000000 0.329869 -0.303002 0.894079
8840.00000000 17110.00000000 -160.00000000 192 163 78 97.000000 1.000000 4.000000 1.000000 -60.708740 114.000000 245.000000 0.364097 -0.187046 0.912385
8890.00000000 17040.00000000 -180.00000000 192 163 78 97.000000 1.000000 4.000000 1.000000 -60.708740 114.000000 245.000000 0.505704 -0.034262 0.862026
8880.00000000 17040.00000000 -180.00000000 192 163 78 97.000000 1.000000 4.000000 1.000000 -60.708740 114.000000 245.000000 0.319496 -0.122675 0.939613
8900.00000000 17040.00000000 -180.00000000 192 163 78 97.000000 1.000000 4.000000 1.000000 -60.708740 114.000000 245.000000 0.466523 -0.109186 0.877744
8890.00000000 16980.00000000 -180.00000000 192 163 78 97.000000 1.000000 4.000000 1.000000 -60.708740 114.000000 245.000000 0.130429 -0.165210 0.977596
8860.00000000 17050.00000000 -170.00000000 192 163 78 97.000000 1.000000 4.000000 1.000000 -60.708740 114.000000 245.000000 0.421696 -0.122701 0.898397
8840.00000000 17040.00000000 -160.00000000 192 163 78 97.000000 1.000000 4.000000 1.000000 -60.708740 114.000000 245.000000 0.304322 -0.136607 0.942723
8860.00000000 17030.00000000 -180.00000000 192 163 78 97.000000 1.000000 4.000000 1.000000 -60.708740 114.000000 245.000000 0.045545 -0.350046 0.935625
8850.00000000 17030.00000000 -180.00000000 192 163 78 97.000000 1.000000 4.000000 1.000000 -60.708740 114.000000 245.000000 0.102243 -0.081564 0.991410
8870.00000000 17060.00000000 -170.00000000 192 163 78 97.000000 1.000000 4.000000 1.000000 -60.708740 114.000000 245.000000 0.466610 -0.061939 0.882292
8840.00000000 17040.00000000 -170.00000000 192 163 78 97.000000 1.000000 4.000000 1.000000 -60.708740 114.000000 245.000000 0.481708 -0.445539 0.754621
8850.00000000 17040.00000000 -170.00000000 192 163 78 97.000000 1.000000 4.000000 1.000000 -60.708740 114.000000 245.000000 0.502517 -0.318631 0.803711
8850.00000000 17010.00000000 -180.00000000 192 163 78 97.000000 1.000000 4.000000 1.000000 -60.708740 114.000000 245.000000 0.248541 -0.158163 0.955621
8840.00000000 17010.00000000 -180.00000000 192 163 78 97.000000 1.000000 4.000000 1.000000 -60.708740 114.000000 245.000000 0.178855 -0.342219 0.922441
8870.00000000 17010.00000000 -180.00000000 192 163 78 97.000000 1.000000 4.000000 1.000000 -60.708740 114.000000 245.000000 0.052578 -0.228654 0.972087
8840.00000000 17010.00000000 -180.00000000 192 163 78 97.000000 1.000000 4.000000 1.000000 -60.708740 114.000000 245.000000 0.178855 -0.342219 0.922441
8850.00000000 17010.00000000 -180.00000000 192 163 78 97.000000 1.000000 4.000000 1.000000 -60.708740 114.000000 245.000000 0.248541 -0.158163 0.955621
8810.00000000 17110.00000000 -160.00000000 192 163 78 97.000000 1.000000 4.000000 1.000000 -60.708740 114.000000 245.000000 -0.095954 0.095954 0.990750
8800.00000000 17070.00000000 -140.00000000 192 163 78 97.000000 1.000000 4.000000 1.000000 -60.708740 114.000000 245.000000 0.391267 -0.148314 0.908247
8830.00000000 17080.00000000 -140.00000000 192 163 78 97.000000 1.000000 4.000000 1.000000 -60.708740 114.000000 245.000000 0.191090 -0.369249 0.909472
8800.00000000 17100.00000000 -160.00000000 192 163 78 97.000000 1.000000 4.000000 1.000000 -60.708740 114.000000 245.000000 0.151627 -0.066998 0.986165
8800.00000000 17090.00000000 -150.00000000 192 163 78 97.000000 1.000000 4.000000 1.000000 -60.708740 114.000000 245.000000 0.135307 0.332118 0.933483
8820.00000000 17100.00000000 -160.00000000 192 163 78 97.000000 1.000000 4.000000 1.000000 -60.708740 114.000000 245.000000 -0.065566 -0.296974 0.952632
8810.00000000 17070.00000000 -160.00000000 192 163 78 97.000000 1.000000 4.000000 1.000000 -60.708740 114.000000 245.000000 0.375571 -0.008973 0.926750
8810.00000000 17080.00000000 -160.00000000 192 163 78 97.000000 1.000000 4.000000 1.000000 -60.708740 114.000000 245.000000 0.470018 0.249553 0.846644
8820.00000000 17090.00000000 -160.00000000 192 163 78 97.000000 1.000000 4.000000 1.000000 -60.708740 114.000000 245.000000 0.141586 -0.047195 0.988800
8790.00000000 17100.00000000 -150.00000000 192 163 78 97.000000 1.000000 4.000000 1.000000 -60.708740 114.000000 245.000000 -0.143533 -0.156014 0.977271
8800.00000000 17030.00000000 -140.00000000 192 163 78 97.000000 1.000000 4.000000 1.000000 -60.708740 114.000000 245.000000 0.181202 -0.265672 0.946881
8810.00000000 17020.00000000 -160.00000000 192 163 78 97.000000 1.000000 4.000000 1.000000 -60.708740 114.000000 245.000000 0.310909 -0.182641 0.932726
8800.00000000 17030.00000000 -150.00000000 192 163 78 97.000000 1.000000 4.000000 1.000000 -60.708740 114.000000 245.000000 0.557725 -0.305231 0.771866
8820.00000000 17030.00000000 -160.00000000 192 163 78 97.000000 1.000000 4.000000 1.000000 -60.708740 114.000000 245.000000 0.191470 -0.113881 0.974869
8800.00000000 17030.00000000 -150.00000000 192 163 78 97.000000 1.000000 4.000000 1.000000 -60.708740 114.000000 245.000000 0.557725 -0.305231 0.771866
8800.00000000 17040.00000000 -150.00000000 192 163 78 97.000000 1.000000 4.000000 1.000000 -60.708740 114.000000 245.000000 0.447479 0.078967 0.890801
8830.00000000 17050.00000000 -160.00000000 192 163 78 97.000000 1.000000 4.000000 1.000000 -60.708740 114.000000 245.000000 0.174946 0.012578 0.984498
8830.00000000 17040.00000000 -160.00000000 192 163 78 97.000000 1.000000 4.000000 1.000000 -60.708740 114.000000 245.000000 0.071585 -0.144344 0.986935
8820.00000000 17030.00000000 -170.00000000 192 163 78 97.000000 1.000000 4.000000 1.000000 -60.708740 114.000000 245.000000 0.000997 -0.020933 0.999780
8810.00000000 17050.00000000 -150.00000000 192 163 78 97.000000 1.000000 4.000000 1.000000 -60.708740 114.000000 245.000000 0.478764 -0.039556 0.877052
8810.00000000 17060.00000000 -160.00000000 192 163 78 97.000000 1.000000 4.000000 1.000000 -60.708740 114.000000 245.000000 0.234612 -0.114101 0.965370
8830.00000000 17030.00000000 -160.00000000 192 163 78 97.000000 1.000000 4.000000 1.000000 -60.708740 114.000000 245.000000 0.557999 -0.311776 0.769047
8820.00000000 17020.00000000 -160.00000000 192 163 78 97.000000 1.000000 4.000000 1.000000 -60.708740 114.000000 245.000000 0.156533 0.010135 0.987621
8820.00000000 17000.00000000 -180.00000000 192 163 78 97.000000 1.000000 4.000000 1.000000 -60.708740 114.000000 245.000000 0.090804 -0.207729 0.973963
8800.00000000 16980.00000000 -180.00000000 192 163 78 97.000000 1.000000 4.000000 1.000000 -60.708740 114.000000 245.000000 0.283711 -0.684433 0.671610
8800.00000000 17010.00000000 -160.00000000 192 163 78 97.000000 1.000000 4.000000 1.000000 -60.708740 114.000000 245.000000 0.177317 -0.261238 0.948848
8830.00000000 17000.00000000 -180.00000000 192 163 78 97.000000 1.000000 4.000000 1.000000 -60.708740 114.000000 245.000000 0.218248 -0.382301 0.897894
8780.00000000 17020.00000000 -150.00000000 192 163 78 97.000000 1.000000 4.000000 1.000000 -60.708740 114.000000 245.000000 -0.014508 -0.433929 0.900830
8780.00000000 17050.00000000 -150.00000000 192 163 78 97.000000 1.000000 4.000000 1.000000 -60.708740 114.000000 245.000000 0.132674 -0.514657 0.847069
8790.00000000 17030.00000000 -160.00000000 192 163 78 97.000000 1.000000 4.000000 1.000000 -60.708740 114.000000 245.000000 0.026511 -0.316874 0.948097
8780.00000000 17050.00000000 -150.00000000 192 163 78 97.000000 1.000000 4.000000 1.000000 -60.708740 114.000000 245.000000 0.132674 -0.514657 0.847069
8770.00000000 17010.00000000 -160.00000000 192 163 78 97.000000 1.000000 4.000000 1.000000 -60.708740 114.000000 245.000000 0.308092 -0.662963 0.682319
8770.00000000 17000.00000000 -180.00000000 192 163 78 97.000000 1.000000 4.000000 1.000000 -60.708740 114.000000 245.000000 0.081619 -0.444061 0.892272
8770.00000000 16980.00000000 -180.00000000 192 163 78 97.000000 1.000000 4.000000 1.000000 -60.708740 114.000000 245.000000 0.132404 -0.328962 0.935015
8790.00000000 17000.00000000 -180.00000000 192 163 78 97.000000 1.000000 4.000000 1.000000 -60.708740 114.000000 245.000000 0.243119 -0.398238 0.884477
8790.00000000 17010.00000000 -160.00000000 192 163 78 97.000000 1.000000 4.000000 1.000000 -60.708740 114.000000 245.000000 -0.061330 -0.600467 0.797294
8780.00000000 17010.00000000 -160.00000000 192 163 78 97.000000 1.000000 4.000000 1.000000 -60.708740 114.000000 245.000000 0.146242 -0.652811 0.743270
8910.00000000 17110.00000000 -220.00000000 192 163 78 97.000000 1.000000 4.000000 1.000000 -60.708740 114.000000 245.000000 0.273749 0.397768 0.875695
8910.00000000 17070.00000000 -210.00000000 192 163 78 97.000000 1.000000 4.000000 1.000000 -60.708740 114.000000 245.000000 -0.027509 0.015283 0.999505
8900.00000000 17070.00000000 -210.00000000 192 163 78 97.000000 1.000000 4.000000 1.000000 -60.708740 114.000000 245.000000 -0.026413 0.161920 0.986450
8920.00000000 17100.00000000 -220.00000000 192 163 78 97.000000 1.000000 4.000000 1.000000 -60.708740 114.000000 245.000000 -0.059103 0.199020 0.978212
8910.00000000 17030.00000000 -210.00000000 192 163 78 97.000000 1.000000 4.000000 1.000000 -60.708740 114.000000 245.000000 0.291892 -0.033824 0.955853
8910.00000000 17040.00000000 -190.00000000 192 163 78 97.000000 1.000000 4.000000 1.000000 -60.708740 114.000000 245.000000 0.234889 -0.274272 0.932525
8900.00000000 17030.00000000 -200.00000000 192 163 78 97.000000 1.000000 4.000000 1.000000 -60.708740 114.000000 245.000000 0.434079 -0.266540 0.860542
8900.00000000 17030.00000000 -190.00000000 192 163 78 97.000000 1.000000 4.000000 1.000000 -60.708740 114.000000 245.000000 0.387394 -0.261752 0.883975
8920.00000000 17060.00000000 -190.00000000 192 163 78 97.000000 1.000000 4.000000 1.000000 -60.708740 114.000000 245.000000 0.314088 -0.527732 0.789207
8920.00000000 17020.00000000 -190.00000000 192 163 78 97.000000 1.000000 4.000000 1.000000 -60.708740 114.000000 245.000000 0.102939 -0.232566 0.967118
8920.00000000 17040.00000000 -200.00000000 192 163 78 97.000000 1.000000 4.000000 1.000000 -60.708740 114.000000 245.000000 -0.006924 -0.004945 0.999964
8890.00000000 17050.00000000 -190.00000000 192 163 78 97.000000 1.000000 4.000000 1.000000 -60.708740 114.000000 245.000000 0.416028 -0.107138 0.903018
8910.00000000 17040.00000000 -200.00000000 192 163 78 97.000000 1.000000 4.000000 1.000000 -60.708740 114.000000 245.000000 0.420463 -0.401279 0.813748
8920.00000000 17040.00000000 -210.00000000 192 163 78 97.000000 1.000000 4.000000 1.000000 -60.708740 114.000000 245.000000 -0.058077 -0.066843 0.996072
8900.00000000 17040.00000000 -190.00000000 192 163 78 97.000000 1.000000 4.000000 1.000000 -60.708740 114.000000 245.000000 0.513297 -0.178082 0.839532
8910.00000000 17030.00000000 -210.00000000 192 163 78 97.000000 1.000000 4.000000 1.000000 -60.708740 114.000000 245.000000 0.291892 -0.033824 0.955853
8920.00000000 17050.00000000 -210.00000000 192 163 78 97.000000 1.000000 4.000000 1.000000 -60.708740 114.000000 245.000000 0.033754 -0.015343 0.999312
8890.00000000 17000.00000000 -190.00000000 192 163 78 97.000000 1.000000 4.000000 1.000000 -60.708740 114.000000 245.000000 0.104973 -0.084209 0.990903
8920.00000000 16980.00000000 -190.00000000 192 163 78 97.000000 1.000000 4.000000 1.000000 -60.708740 114.000000 245.000000 0.226366 -0.191541 0.955024
8890.00000000 17010.00000000 -200.00000000 192 163 78 97.000000 1.000000 4.000000 1.000000 -60.708740 114.000000 245.000000 0.134504 -0.560188 0.817372
8880.00000000 16980.00000000 -210.00000000 192 163 78 97.000000 1.000000 4.000000 1.000000 -60.708740 114.000000 245.000000 0.387571 -0.406554 0.827346
8900.00000000 17010.00000000 -190.00000000 192 163 78 97.000000 1.000000 4.000000 1.000000 -60.708740 114.000000 245.000000 0.269002 -0.077768 0.959995
8900.00000000 17010.00000000 -200.00000000 192 163 78 97.000000 1.000000 4.000000 1.000000 -60.708740 114.000000 245.000000 0.163873 -0.433611 0.886074
8840.00000000 17020.00000000 -210.00000000 192 163 78 97.000000 1.000000 4.000000 1.000000 -60.708740 114.000000 245.000000 0.343615 -0.454458 0.821825
8850.00000000 17060.00000000 -190.00000000 192 163 78 97.000000 1.000000 4.000000 1.000000 -60.708740 114.000000 245.000000 -0.006482 -0.405769 0.913953
8860.00000000 17040.00000000 -210.00000000 192 163 78 97.000000 1.000000 4.000000 1.000000 -60.708740 114.000000 245.000000 0.429405 -0.186124 0.883725
8870.00000000 17060.00000000 -210.00000000 192 163 78 97.000000 1.000000 4.000000 1.000000 -60.708740 114.000000 245.000000 0.430741 -0.519859 0.737705
8860.00000000 17020.00000000 -190.00000000 192 163 78 97.000000 1.000000 4.000000 1.000000 -60.708740 114.000000 245.000000 0.065032 -0.367628 0.927696
8870.00000000 17010.00000000 -190.00000000 192 163 78 97.000000 1.000000 4.000000 1.000000 -60.708740 114.000000 245.000000 0.506091 -0.330476 0.796654
8860.00000000 16990.00000000 -200.00000000 192 163 78 97.000000 1.000000 4.000000 1.000000 -60.708740 114.000000 245.000000 0.354680 -0.040275 0.934120
8870.00000000 17000.00000000 -190.00000000 192 163 78 97.000000 1.000000 4.000000 1.000000 -60.708740 114.000000 245.000000 0.563483 -0.473192 0.677183
8860.00000000 16990.00000000 -200.00000000 192 163 78 97.000000 1.000000 4.000000 1.000000 -60.708740 114.000000 245.000000 0.354680 -0.040275 0.934120
8840.00000000 17000.00000000 -190.00000000 192 163 78 97.000000 1.000000 4.000000 1.000000 -60.708740 114.000000 245.000000 0.139739 -0.310682 0.940186
8840.00000000 16980.00000000 -210.00000000 192 163 78 97.000000 1.000000 4.000000 1.000000 -60.708740 114.000000 245.000000 -0.095000 -0.403407 0.910076
8830.00000000 17080.00000000 -190.00000000 192 163 78 97.000000 1.000000 4.000000 1.000000 -60.708740 114.000000 245.000000 -0.061727 -0.345411 0.936419
8810.00000000 17070.00000000 -190.00000000 192 163 78 97.000000 1.000000 4.000000 1.000000 -60.708740 114.000000 245.000000 0.313503 -0.195412 0.929263
8820.00000000 16970.00000000 -170.00000000 192 163 78 97.000000 1.000000 4.000000 1.000000 -60.708740 114.000000 245.000000 0.283984 -0.516192 0.808021
8880.00000000 16950.00000000 -210.00000000 192 163 78 97.000000 1.000000 4.000000 1.000000 -60.708740 114.000000 245.000000 0.154598 -0.437787 0.885687
8880.00000000 16950.00000000 -210.00000000 192 163 78 97.000000 1.000000 4.000000 1.000000 -60.708740 114.000000 245.000000 0.154598 -0.437787 0.885687
8890.00000000 16970.00000000 -210.00000000 192 163 78 97.000000 1.000000 4.000000 1.000000 -60.708740 114.000000 245.000000 -0.051581 -0.275518 0.959911
8920.00000000 16920.00000000 -210.00000000 192 163 78 97.000000 1.000000 4.000000 1.000000 -60.708740 114.000000 245.000000 0.321188 -0.482574 0.814838
8860.00000000 16970.00000000 -230.00000000 192 163 78 97.000000 1.000000 4.000000 1.000000 -60.708740 114.000000 245.000000 -0.006795 -0.544928 0.838455
8860.00000000 16970.00000000 -230.00000000 192 163 78 97.000000 1.000000 4.000000 1.000000 -60.708740 114.000000 245.000000 -0.006795 -0.544928 0.838455
8860.00000000 16970.00000000 -190.00000000 192 163 78 97.000000 1.000000 4.000000 1.000000 -60.708740 114.000000 245.000000 0.530310 -0.331644 0.780245
8870.00000000 16960.00000000 -200.00000000 192 163 78 97.000000 1.000000 4.000000 1.000000 -60.708740 114.000000 245.000000 0.297162 -0.273969 0.914678
8850.00000000 16900.00000000 -220.00000000 192 163 78 97.000000 1.000000 4.000000 1.000000 -60.708740 114.000000 245.000000 -0.117095 0.760379 -0.638837
8880.00000000 16880.00000000 -220.00000000 192 163 78 97.000000 1.000000 4.000000 1.000000 -60.708740 114.000000 245.000000 0.313897 -0.384332 0.868192
8900.00000000 16840.00000000 -230.00000000 192 163 78 97.000000 1.000000 4.000000 1.000000 -60.708740 114.000000 245.000000 0.023713 -0.629102 0.776961
8840.00000000 16870.00000000 -230.00000000 192 163 78 97.000000 1.000000 4.000000 1.000000 -60.708740 114.000000 245.000000 0.155299 -0.625719 0.764433
8880.00000000 16830.00000000 -290.00000000 192 163 78 97.000000 1.000000 4.000000 1.000000 -60.708740 114.000000 245.000000 0.233213 0.883834 -0.405524
8920.00000000 16820.00000000 -280.00000000 192 163 78 97.000000 1.000000 4.000000 1.000000 -60.708740 114.000000 245.000000 0.234612 0.793950 -0.560892
8800.00000000 16960.00000000 -190.00000000 192 163 78 97.000000 1.000000 4.000000 1.000000 -60.708740 114.000000 245.000000 0.033518 -0.279318 0.959613
8820.00000000 16960.00000000 -190.00000000 192 163 78 97.000000 1.000000 4.000000 1.000000 -60.708740 114.000000 245.000000 -0.015095 -0.561270 0.827495
8820.00000000 16970.00000000 -220.00000000 192 163 78 97.000000 1.000000 4.000000 1.000000 -60.708740 114.000000 245.000000 -0.019852 -0.432775 0.901283
8810.00000000 16960.00000000 -190.00000000 192 163 78 97.000000 1.000000 4.000000 1.000000 -60.708740 114.000000 245.000000 0.019878 -0.441285 0.897147
8830.00000000 16950.00000000 -230.00000000 192 163 78 97.000000 1.000000 4.000000 1.000000 -60.708740 114.000000 245.000000 0.119154 -0.416339 0.901368
8820.00000000 16970.00000000 -190.00000000 192 163 78 97.000000 1.000000 4.000000 1.000000 -60.708740 114.000000 245.000000 0.536915 -0.253673 0.804594
8810.00000000 16970.00000000 -210.00000000 192 163 78 97.000000 1.000000 4.000000 1.000000 -60.708740 114.000000 245.000000 0.074353 0.495219 -0.865581
8820.00000000 16950.00000000 -200.00000000 192 163 78 97.000000 1.000000 4.000000 1.000000 -60.708740 114.000000 245.000000 0.561855 -0.384944 0.732213
8810.00000000 16960.00000000 -220.00000000 192 163 78 97.000000 1.000000 4.000000 1.000000 -60.708740 114.000000 245.000000 0.276436 -0.423054 0.862907
8820.00000000 16900.00000000 -200.00000000 192 163 78 97.000000 1.000000 4.000000 1.000000 -60.708740 114.000000 245.000000 0.295274 -0.572992 0.764521
8830.00000000 16930.00000000 -190.00000000 192 163 78 97.000000 1.000000 4.000000 1.000000 -60.708740 114.000000 245.000000 0.150179 -0.416209 0.896781
8830.00000000 16930.00000000 -200.00000000 192 163 78 97.000000 1.000000 4.000000 1.000000 -60.708740 114.000000 245.000000 -0.052097 -0.564624 0.823703
8760.00000000 16970.00000000 -190.00000000 192 163 78 97.000000 1.000000 4.000000 1.000000 -60.708740 114.000000 245.000000 0.053058 -0.327405 0.943393
8770.00000000 16970.00000000 -190.00000000 192 163 78 97.000000 1.000000 4.000000 1.000000 -60.708740 114.000000 245.000000 0.244417 -0.319622 0.915479
8760.00000000 16950.00000000 -200.00000000 192 163 78 97.000000 1.000000 4.000000 1.000000 -60.708740 114.000000 245.000000 0.086078 0.745520 -0.660901
8780.00000000 16970.00000000 -190.00000000 192 163 78 97.000000 1.000000 4.000000 1.000000 -60.708740 114.000000 245.000000 -0.099939 -0.273860 0.956563
8790.00000000 16910.00000000 -190.00000000 192 163 78 97.000000 1.000000 4.000000 1.000000 -60.708740 114.000000 245.000000 -0.079783 -0.639712 0.764463
8760.00000000 16900.00000000 -200.00000000 192 163 78 97.000000 1.000000 4.000000 1.000000 -60.708740 114.000000 245.000000 -0.157369 -0.568026 0.807825
8780.00000000 16900.00000000 -210.00000000 192 163 78 97.000000 1.000000 4.000000 1.000000 -60.708740 114.000000 245.000000 -0.038188 -0.739720 0.671830
8790.00000000 16910.00000000 -190.00000000 192 163 78 97.000000 1.000000 4.000000 1.000000 -60.708740 114.000000 245.000000 -0.079783 -0.639712 0.764463
8790.00000000 16910.00000000 -190.00000000 192 163 78 97.000000 1.000000 4.000000 1.000000 -60.708740 114.000000 245.000000 -0.079783 -0.639712 0.764463
8800.00000000 16880.00000000 -210.00000000 192 163 78 97.000000 1.000000 4.000000 1.000000 -60.708740 114.000000 245.000000 -0.124473 -0.552075 0.824451
8830.00000000 16810.00000000 -230.00000000 192 163 78 97.000000 1.000000 4.000000 1.000000 -60.708740 114.000000 245.000000 0.212630 0.818396 -0.533870
8790.00000000 16890.00000000 -230.00000000 192 163 78 97.000000 1.000000 4.000000 1.000000 -60.708740 114.000000 245.000000 -0.303226 0.749242 -0.588804
8780.00000000 16890.00000000 -230.00000000 192 163 78 97.000000 1.000000 4.000000 1.000000 -60.708740 114.000000 245.000000 0.302610 -0.445380 0.842653
8770.00000000 16890.00000000 -220.00000000 192 163 78 97.000000 1.000000 4.000000 1.000000 -60.708740 114.000000 245.000000 0.067759 -0.463251 0.883633
8790.00000000 16890.00000000 -230.00000000 192 163 78 97.000000 1.000000 4.000000 1.000000 -60.708740 114.000000 245.000000 -0.303226 0.749242 -0.588804
8770.00000000 16880.00000000 -230.00000000 192 163 78 97.000000 1.000000 4.000000 1.000000 -60.708740 114.000000 245.000000 0.536892 -0.540258 0.647973
8760.00000000 16870.00000000 -240.00000000 192 163 78 97.000000 1.000000 4.000000 1.000000 -60.708740 114.000000 245.000000 -0.531069 0.778152 -0.335328
9030.00000000 16920.00000000 -370.00000000 192 163 78 97.000000 1.000000 4.000000 1.000000 -60.708740 114.000000 245.000000 0.089049 0.734286 -0.672974
9070.00000000 16880.00000000 -400.00000000 192 163 78 97.000000 1.000000 4.000000 1.000000 -60.708740 114.000000 245.000000 -0.272124 0.904628 -0.328020
9060.00000000 16830.00000000 -360.00000000 192 163 78 97.000000 1.000000 4.000000 1.000000 -60.708740 114.000000 245.000000 0.207386 0.967370 -0.145556
9050.00000000 16830.00000000 -370.00000000 192 163 78 97.000000 1.000000 4.000000 1.000000 -60.708740 114.000000 245.000000 0.107137 0.788116 -0.606131
9040.00000000 16830.00000000 -360.00000000 192 163 78 97.000000 1.000000 4.000000 1.000000 -60.708740 114.000000 245.000000 -0.099082 0.989656 -0.103745
9010.00000000 16810.00000000 -370.00000000 192 163 78 97.000000 1.000000 4.000000 1.000000 -60.708740 114.000000 245.000000 -0.432538 0.785696 -0.442258
8990.00000000 16850.00000000 -360.00000000 192 163 78 97.000000 1.000000 4.000000 1.000000 -60.708740 114.000000 245.000000 0.124164 0.987396 -0.098148
8970.00000000 16750.00000000 -270.00000000 192 163 78 97.000000 1.000000 4.000000 1.000000 -60.708740 114.000000 245.000000 -0.329988 0.915032 -0.232000
8960.00000000 16770.00000000 -230.00000000 192 163 78 97.000000 1.000000 4.000000 1.000000 -60.708740 114.000000 245.000000 -0.342582 0.729001 -0.592618
8950.00000000 16740.00000000 -270.00000000 192 163 78 97.000000 1.000000 4.000000 1.000000 -60.708740 114.000000 245.000000 -0.365450 0.926436 -0.090351
8940.00000000 16740.00000000 -290.00000000 192 163 78 97.000000 1.000000 4.000000 1.000000 -60.708740 114.000000 245.000000 -0.023879 0.729022 -0.684073
8930.00000000 16740.00000000 -280.00000000 192 163 78 97.000000 1.000000 4.000000 1.000000 -60.708740 114.000000 245.000000 -0.271049 0.914609 -0.300038
8910.00000000 16780.00000000 -250.00000000 192 163 78 97.000000 1.000000 4.000000 1.000000 -60.708740 114.000000 245.000000 0.344932 -0.665343 0.662073
8890.00000000 16770.00000000 -260.00000000 192 163 78 97.000000 1.000000 4.000000 1.000000 -60.708740 114.000000 245.000000 -0.188183 0.981157 -0.043791
8880.00000000 16770.00000000 -250.00000000 192 163 78 97.000000 1.000000 4.000000 1.000000 -60.708740 114.000000 245.000000 0.180992 0.792409 -0.582520
8920.00000000 16790.00000000 -260.00000000 192 163 78 97.000000 1.000000 4.000000 1.000000 -60.708740 114.000000 245.000000 0.049135 0.917622 -0.394405
8900.00000000 16750.00000000 -250.00000000 192 163 78 97.000000 1.000000 4.000000 1.000000 -60.708740 114.000000 245.000000 -0.131039 0.989171 -0.066099
8920.00000000 16750.00000000 -240.00000000 192 163 78 97.000000 1.000000 4.000000 1.000000 -60.708740 114.000000 245.000000 0.032222 0.794343 -0.606615
8920.00000000 16730.00000000 -280.00000000 192 163 78 97.000000 1.000000 4.000000 1.000000 -60.708740 114.000000 245.000000 -0.359860 0.928626 -0.090302
8900.00000000 16690.00000000 -240.00000000 192 163 78 97.000000 1.000000 4.000000 1.000000 -60.708740 114.000000 245.000000 0.217287 0.947044 -0.236419
9080.00000000 16800.00000000 -370.00000000 192 163 78 97.000000 1.000000 4.000000 1.000000 -60.708740 114.000000 245.000000 0.045409 0.868277 -0.493996
8720.00000000 16990.00000000 -220.00000000 192 163 78 97.000000 1.000000 4.000000 1.000000 -60.708740 114.000000 245.000000 0.441021 -0.349340 0.826718
8750.00000000 17010.00000000 -200.00000000 192 163 78 97.000000 1.000000 4.000000 1.000000 -60.708740 114.000000 245.000000 -0.022891 -0.480707 0.876583
8720.00000000 16990.00000000 -210.00000000 192 163 78 97.000000 1.000000 4.000000 1.000000 -60.708740 114.000000 245.000000 -0.001383 -0.681775 0.731560
8740.00000000 17080.00000000 -190.00000000 192 163 78 97.000000 1.000000 4.000000 1.000000 -60.708740 114.000000 245.000000 0.111068 -0.368856 0.922827
8740.00000000 16970.00000000 -170.00000000 192 163 78 97.000000 1.000000 4.000000 1.000000 -60.708740 114.000000 245.000000 0.127219 -0.530809 0.837889
8750.00000000 16970.00000000 -180.00000000 192 163 78 97.000000 1.000000 4.000000 1.000000 -60.708740 114.000000 245.000000 0.255491 -0.559573 0.788418
8750.00000000 16970.00000000 -190.00000000 192 163 78 97.000000 1.000000 4.000000 1.000000 -60.708740 114.000000 245.000000 0.235066 -0.357709 0.903763
8720.00000000 16960.00000000 -250.00000000 192 163 78 97.000000 1.000000 4.000000 1.000000 -60.708740 114.000000 245.000000 0.506047 -0.411061 0.758252
9850.00000000 17040.00000000 -520.00000000 192 163 78 97.000000 1.000000 4.000000 1.000000 -60.708740 114.000000 245.000000 -0.085757 -0.626462 0.774720
9870.00000000 17050.00000000 -520.00000000 192 163 78 97.000000 1.000000 4.000000 1.000000 -60.708740 114.000000 245.000000 0.372965 -0.329989 0.867182
9810.00000000 17070.00000000 -520.00000000 192 163 78 97.000000 1.000000 4.000000 1.000000 -60.708740 114.000000 245.000000 -0.058082 -0.585071 0.808900
9770.00000000 17090.00000000 -490.00000000 192 163 78 97.000000 1.000000 4.000000 1.000000 -60.708740 114.000000 245.000000 0.168650 -0.327542 0.929663
9800.00000000 17060.00000000 -510.00000000 192 163 78 97.000000 1.000000 4.000000 1.000000 -60.708740 114.000000 245.000000 0.477899 -0.474592 0.739172
9900.00000000 17070.00000000 -530.00000000 192 163 78 97.000000 1.000000 4.000000 1.000000 -60.708740 114.000000 245.000000 -0.083820 -0.421849 0.902783
9900.00000000 17070.00000000 -540.00000000 192 163 78 97.000000 1.000000 4.000000 1.000000 -60.708740 114.000000 245.000000 -0.130146 -0.662696 0.737493
9880.00000000 17060.00000000 -540.00000000 192 163 78 97.000000 1.000000 4.000000 1.000000 -60.708740 114.000000 245.000000 0.098690 -0.252494 0.962552
9820.00000000 17030.00000000 -570.00000000 192 163 78 97.000000 1.000000 4.000000 1.000000 -60.708740 114.000000 245.000000 0.096782 0.942627 -0.319512
9790.00000000 17060.00000000 -550.00000000 192 163 78 97.000000 1.000000 4.000000 1.000000 -60.708740 114.000000 245.000000 0.149409 -0.674606 0.722900
9890.00000000 16950.00000000 -550.00000000 192 163 78 97.000000 1.000000 4.000000 1.000000 -60.708740 114.000000 245.000000 -0.386366 0.818841 -0.424525
9650.00000000 17590.00000000 -350.00000000 192 163 78 97.000000 1.000000 4.000000 1.000000 -60.708740 114.000000 245.000000 -0.110037 0.605937 0.787865
9530.00000000 17550.00000000 -350.00000000 192 163 78 97.000000 1.000000 4.000000 1.000000 -60.708740 114.000000 245.000000 -0.162852 0.668150 0.725985
9490.00000000 17520.00000000 -340.00000000 192 163 78 97.000000 1.000000 4.000000 1.000000 -60.708740 114.000000 245.000000 0.289837 0.712582 0.638922
9720.00000000 17630.00000000 -380.00000000 192 163 78 97.000000 1.000000 4.000000 1.000000 -60.708740 114.000000 245.000000 0.458154 0.819604 0.344012
9650.00000000 17600.00000000 -360.00000000 192 163 78 97.000000 1.000000 4.000000 1.000000 -60.708740 114.000000 245.000000 -0.162626 0.743217 0.648985
9640.00000000 17560.00000000 -400.00000000 192 163 78 97.000000 1.000000 4.000000 1.000000 -60.708740 114.000000 245.000000 0.012355 0.814042 0.580674
9620.00000000 17550.00000000 -460.00000000 192 163 78 97.000000 1.000000 4.000000 1.000000 -60.708740 114.000000 245.000000 -0.037003 0.992355 0.117737
9620.00000000 17550.00000000 -460.00000000 192 163 78 97.000000 1.000000 4.000000 1.000000 -60.708740 114.000000 245.000000 -0.037003 0.992355 0.117737
9570.00000000 17580.00000000 -400.00000000 192 163 78 97.000000 1.000000 4.000000 1.000000 -60.708740 114.000000 245.000000 0.323663 0.906550 0.270940
9560.00000000 17560.00000000 -390.00000000 192 163 78 97.000000 1.000000 4.000000 1.000000 -60.708740 114.000000 245.000000 0.309624 0.937129 0.161005
9510.00000000 17550.00000000 -360.00000000 192 163 78 97.000000 1.000000 4.000000 1.000000 -60.708740 114.000000 245.000000 -0.125998 0.950956 0.282502
9510.00000000 17550.00000000 -370.00000000 192 163 78 97.000000 1.000000 4.000000 1.000000 -60.708740 114.000000 245.000000 -0.251124 0.948843 0.191398
9530.00000000 17530.00000000 -380.00000000 192 163 78 97.000000 1.000000 4.000000 1.000000 -60.708740 114.000000 245.000000 0.179931 0.940860 0.287065
9540.00000000 17530.00000000 -400.00000000 192 163 78 97.000000 1.000000 4.000000 1.000000 -60.708740 114.000000 245.000000 0.190727 0.980023 0.056378
9550.00000000 17530.00000000 -410.00000000 192 163 78 97.000000 1.000000 4.000000 1.000000 -60.708740 114.000000 245.000000 0.106172 0.965777 0.236647
9520.00000000 17510.00000000 -380.00000000 192 163 78 97.000000 1.000000 4.000000 1.000000 -60.708740 114.000000 245.000000 0.336659 0.694461 0.635912
9430.00000000 17590.00000000 -360.00000000 192 163 78 97.000000 1.000000 4.000000 1.000000 -60.708740 114.000000 245.000000 -0.354031 0.832367 0.426411
9470.00000000 17460.00000000 -330.00000000 192 163 78 97.000000 1.000000 4.000000 1.000000 -60.708740 114.000000 245.000000 0.051777 0.547156 0.835428
9430.00000000 17470.00000000 -350.00000000 192 163 78 97.000000 1.000000 4.000000 1.000000 -60.708740 114.000000 245.000000 0.240213 0.897482 0.369898
9470.00000000 17240.00000000 -350.00000000 192 163 78 97.000000 1.000000 4.000000 1.000000 -60.708740 114.000000 245.000000 0.227120 0.136272 0.964285
9600.00000000 17470.00000000 -390.00000000 192 163 78 97.000000 1.000000 4.000000 1.000000 -60.708740 114.000000 245.000000 0.009413 0.861931 0.506939
9580.00000000 17480.00000000 -410.00000000 192 163 78 97.000000 1.000000 4.000000 1.000000 -60.708740 114.000000 245.000000 0.186853 0.875414 0.445799
9570.00000000 17470.00000000 -400.00000000 192 163 78 97.000000 1.000000 4.000000 1.000000 -60.708740 114.000000 245.000000 -0.103993 0.789468 0.604917
9540.00000000 17450.00000000 -370.00000000 192 163 78 97.000000 1.000000 4.000000 1.000000 -60.708740 114.000000 245.000000 -0.095022 0.863703 0.494963
9540.00000000 17460.00000000 -380.00000000 192 163 78 97.000000 1.000000 4.000000 1.000000 -60.708740 114.000000 245.000000 0.058635 0.893161 0.445899
9540.00000000 17460.00000000 -370.00000000 192 163 78 97.000000 1.000000 4.000000 1.000000 -60.708740 114.000000 245.000000 0.280450 0.575160 0.768465
9520.00000000 17430.00000000 -380.00000000 192 163 78 97.000000 1.000000 4.000000 1.000000 -60.708740 114.000000 245.000000 -0.049418 0.954144 0.295240
9520.00000000 17440.00000000 -410.00000000 192 163 78 97.000000 1.000000 4.000000 1.000000 -60.708740 114.000000 245.000000 -0.052994 0.706113 0.706113
9550.00000000 17440.00000000 -410.00000000 192 163 78 97.000000 1.000000 4.000000 1.000000 -60.708740 114.000000 245.000000 0.455823 0.817940 0.350999
9580.00000000 17420.00000000 -450.00000000 192 163 78 97.000000 1.000000 4.000000 1.000000 -60.708740 114.000000 245.000000 0.136291 0.738366 0.660485
9570.00000000 17320.00000000 -410.00000000 192 163 78 97.000000 1.000000 4.000000 1.000000 -60.708740 114.000000 245.000000 -0.009549 0.552469 0.833478
9560.00000000 17330.00000000 -430.00000000 192 163 78 97.000000 1.000000 4.000000 1.000000 -60.708740 114.000000 245.000000 0.254805 0.634637 0.729596
9530.00000000 17380.00000000 -420.00000000 192 163 78 97.000000 1.000000 4.000000 1.000000 -60.708740 114.000000 245.000000 -0.020990 0.754228 0.656277
9520.00000000 17360.00000000 -400.00000000 192 163 78 97.000000 1.000000 4.000000 1.000000 -60.708740 114.000000 245.000000 0.394265 0.525142 0.754176
9430.00000000 17470.00000000 -380.00000000 192 163 78 97.000000 1.000000 4.000000 1.000000 -60.708740 114.000000 245.000000 0.033789 0.882559 0.468986
9490.00000000 17330.00000000 -390.00000000 192 163 78 97.000000 1.000000 4.000000 1.000000 -60.708740 114.000000 245.000000 -0.035001 0.592215 0.805020
9510.00000000 17260.00000000 -400.00000000 192 163 78 97.000000 1.000000 4.000000 1.000000 -60.708740 114.000000 245.000000 -0.228020 0.463590 0.856207
9520.00000000 17190.00000000 -400.00000000 192 163 78 97.000000 1.000000 4.000000 1.000000 -60.708740 114.000000 245.000000 0.044036 0.415009 0.908751
9500.00000000 17270.00000000 -400.00000000 192 163 78 97.000000 1.000000 4.000000 1.000000 -60.708740 114.000000 245.000000 0.299100 0.209229 0.931001
9500.00000000 17250.00000000 -410.00000000 192 163 78 97.000000 1.000000 4.000000 1.000000 -60.708740 114.000000 245.000000 0.133620 0.533011 0.835491
9500.00000000 17250.00000000 -400.00000000 192 163 78 97.000000 1.000000 4.000000 1.000000 -60.708740 114.000000 245.000000 -0.250110 0.526629 0.812469
9500.00000000 17250.00000000 -400.00000000 192 163 78 97.000000 1.000000 4.000000 1.000000 -60.708740 114.000000 245.000000 -0.250110 0.526629 0.812469
9450.00000000 17300.00000000 -390.00000000 192 163 78 97.000000 1.000000 4.000000 1.000000 -60.708740 114.000000 245.000000 0.370333 0.512645 0.774628
9430.00000000 17240.00000000 -370.00000000 192 163 78 97.000000 1.000000 4.000000 1.000000 -60.708740 114.000000 245.000000 0.113567 0.629783 0.768424
9440.00000000 17240.00000000 -360.00000000 192 163 78 97.000000 1.000000 4.000000 1.000000 -60.708740 114.000000 245.000000 0.038180 0.646232 0.762186
9490.00000000 17210.00000000 -370.00000000 192 163 78 97.000000 1.000000 4.000000 1.000000 -60.708740 114.000000 245.000000 0.228127 -0.020304 0.973420
9470.00000000 17170.00000000 -370.00000000 192 163 78 97.000000 1.000000 4.000000 1.000000 -60.708740 114.000000 245.000000 0.205497 0.240880 0.948550
9470.00000000 17150.00000000 -370.00000000 192 163 78 97.000000 1.000000 4.000000 1.000000 -60.708740 114.000000 245.000000 0.129988 -0.258662 0.957182
9470.00000000 17160.00000000 -440.00000000 192 163 78 97.000000 1.000000 4.000000 1.000000 -60.708740 114.000000 245.000000 0.005255 -0.072516 0.997353
9440.00000000 17190.00000000 -360.00000000 192 163 78 97.000000 1.000000 4.000000 1.000000 -60.708740 114.000000 245.000000 -0.024577 0.073731 0.996975
9450.00000000 17230.00000000 -360.00000000 192 163 78 97.000000 1.000000 4.000000 1.000000 -60.708740 114.000000 245.000000 0.356215 0.127907 0.925608
9440.00000000 17220.00000000 -390.00000000 192 163 78 97.000000 1.000000 4.000000 1.000000 -60.708740 114.000000 245.000000 0.048466 0.180859 0.982314
9450.00000000 17190.00000000 -400.00000000 192 163 78 97.000000 1.000000 4.000000 1.000000 -60.708740 114.000000 245.000000 0.247791 0.045613 0.967739
9440.00000000 17160.00000000 -390.00000000 192 163 78 97.000000 1.000000 4.000000 1.000000 -60.708740 114.000000 245.000000 0.072704 0.077178 0.994363
9430.00000000 17150.00000000 -390.00000000 192 163 78 97.000000 1.000000 4.000000 1.000000 -60.708740 114.000000 245.000000 0.124373 0.077879 0.989175
9440.00000000 17180.00000000 -400.00000000 192 163 78 97.000000 1.000000 4.000000 1.000000 -60.708740 114.000000 245.000000 0.033005 0.060687 0.997611
9360.00000000 17400.00000000 -320.00000000 192 163 78 97.000000 1.000000 4.000000 1.000000 -60.708740 114.000000 245.000000 0.043971 0.767362 0.639705
9360.00000000 17280.00000000 -340.00000000 192 163 78 97.000000 1.000000 4.000000 1.000000 -60.708740 114.000000 245.000000 0.293555 0.646462 0.704211
9340.00000000 17290.00000000 -330.00000000 192 163 78 97.000000 1.000000 4.000000 1.000000 -60.708740 114.000000 245.000000 -0.062548 0.496215 0.865944
9330.00000000 17290.00000000 -340.00000000 192 163 78 97.000000 1.000000 4.000000 1.000000 -60.708740 114.000000 245.000000 0.118508 0.554500 0.823703
9300.00000000 17300.00000000 -320.00000000 192 163 78 97.000000 1.000000 4.000000 1.000000 -60.708740 114.000000 245.000000 0.152973 0.416029 0.896392
9330.00000000 17270.00000000 -320.00000000 192 163 78 97.000000 1.000000 4.000000 1.000000 -60.708740 114.000000 245.000000 0.119958 0.169425 0.978215
9310.00000000 17280.00000000 -340.00000000 192 163 78 97.000000 1.000000 4.000000 1.000000 -60.708740 114.000000 245.000000 0.260681 0.321846 0.910198
9300.00000000 17150.00000000 -330.00000000 192 163 78 97.000000 1.000000 4.000000 1.000000 -60.708740 114.000000 245.000000 0.500795 0.170894 0.848528
9210.00000000 17170.00000000 -350.00000000 192 163 78 97.000000 1.000000 4.000000 1.000000 -60.708740 114.000000 245.000000 -0.142272 0.304869 0.941708
9240.00000000 17220.00000000 -350.00000000 192 163 78 97.000000 1.000000 4.000000 1.000000 -60.708740 114.000000 245.000000 -0.137416 0.276165 0.951236
9390.00000000 17270.00000000 -370.00000000 192 163 78 97.000000 1.000000 4.000000 1.000000 -60.708740 114.000000 245.000000 0.536163 0.512633 0.670624
9360.00000000 17290.00000000 -380.00000000 192 163 78 97.000000 1.000000 4.000000 1.000000 -60.708740 114.000000 245.000000 -0.138245 0.496225 0.857117
