//X Y Z R G B PointSourceId ScanDirectionFlag NumberOfReturns ReturnNumber GpsTime Intensity Classification Nx Ny Nz
-1130.00000000 100.00000000 -570.00000000 185 153 86 97.000000 1.000000 4.000000 1.000000 -60.708740 114.000000 149.000000 0.685206 -0.487518 0.541128
-1180.00000000 130.00000000 -580.00000000 185 153 86 97.000000 1.000000 4.000000 1.000000 -60.708740 114.000000 149.000000 0.605972 -0.201991 0.769414
-1150.00000000 70.00000000 -570.00000000 185 153 86 97.000000 1.000000 4.000000 1.000000 -60.708740 114.000000 149.000000 0.452611 -0.663050 0.596244
-1160.00000000 90.00000000 -590.00000000 185 153 86 97.000000 1.000000 4.000000 1.000000 -60.708740 114.000000 149.000000 0.244507 -0.412512 0.877525
-1170.00000000 60.00000000 -570.00000000 185 153 86 97.000000 1.000000 4.000000 1.000000 -60.708740 114.000000 149.000000 0.312202 -0.511885 0.800315
-1280.00000000 140.00000000 -490.00000000 185 153 86 97.000000 1.000000 4.000000 1.000000 -60.708740 114.000000 149.000000 0.357026 -0.478703 0.802107
-1240.00000000 240.00000000 -630.00000000 185 153 86 97.000000 1.000000 4.000000 1.000000 -60.708740 114.000000 149.000000 0.153281 -0.059674 0.986379
-1260.00000000 220.00000000 -640.00000000 185 153 86 97.000000 1.000000 4.000000 1.000000 -60.708740 114.000000 149.000000 0.198098 0.119868 0.972825
-1270.00000000 240.00000000 -610.00000000 185 153 86 97.000000 1.000000 4.000000 1.000000 -60.708740 114.000000 149.000000 0.428590 0.017144 0.903336
-1270.00000000 240.00000000 -610.00000000 185 153 86 97.000000 1.000000 4.000000 1.000000 -60.708740 114.000000 149.000000 0.428590 0.017144 0.903336
-1250.00000000 240.00000000 -640.00000000 185 153 86 97.000000 1.000000 4.000000 1.000000 -60.708740 114.000000 149.000000 0.594998 0.320880 0.736895
-1190.00000000 160.00000000 -550.00000000 185 153 86 97.000000 1.000000 4.000000 1.000000 -60.708740 114.000000 149.000000 0.656224 -0.169004 0.735397
-1190.00000000 140.00000000 -560.00000000 185 153 86 97.000000 1.000000 4.000000 1.000000 -60.708740 114.000000 149.000000 0.332878 -0.212870 0.918629
-1210.00000000 140.00000000 -600.00000000 185 153 86 97.000000 1.000000 4.000000 1.000000 -60.708740 114.000000 149.000000 -0.770327 0.395749 -0.499979
-1230.00000000 160.00000000 -620.00000000 185 153 86 97.000000 1.000000 4.000000 1.000000 -60.708740 114.000000 149.000000 0.385136 -0.088459 0.918611
-1290.00000000 270.00000000 -590.00000000 185 153 86 97.000000 1.000000 4.000000 1.000000 -60.708740 114.000000 149.000000 0.020990 0.687088 0.726271
-1280.00000000 270.00000000 -600.00000000 185 153 86 97.000000 1.000000 4.000000 1.000000 -60.708740 114.000000 149.000000 0.436385 0.465804 0.769802
-1300.00000000 220.00000000 -570.00000000 185 153 86 97.000000 1.000000 4.000000 1.000000 -60.708740 114.000000 149.000000 0.262571 0.282658 0.922584
-1310.00000000 240.00000000 -580.00000000 185 153 86 97.000000 1.000000 4.000000 1.000000 -60.708740 114.000000 149.000000 0.491739 0.092112 0.865857
-1310.00000000 230.00000000 -580.00000000 185 153 86 97.000000 1.000000 4.000000 1.000000 -60.708740 114.000000 149.000000 0.188360 0.061187 0.980192
-1290.00000000 220.00000000 -580.00000000 185 153 86 97.000000 1.000000 4.000000 1.000000 -60.708740 114.000000 149.000000 0.618561 0.225923 0.752557
-1330.00000000 270.00000000 -590.00000000 185 153 86 97.000000 1.000000 4.000000 1.000000 -60.708740 114.000000 149.000000 -0.026319 0.577625 0.815878
-1320.00000000 270.00000000 -600.00000000 185 153 86 97.000000 1.000000 4.000000 1.000000 -60.708740 114.000000 149.000000 0.551288 0.359394 0.752939
-1350.00000000 220.00000000 -580.00000000 185 153 86 97.000000 1.000000 4.000000 1.000000 -60.708740 114.000000 149.000000 0.303379 0.592312 0.746410
-1320.00000000 240.00000000 -580.00000000 185 153 86 97.000000 1.000000 4.000000 1.000000 -60.708740 114.000000 149.000000 0.103908 0.482531 0.869694
-1330.00000000 220.00000000 -580.00000000 185 153 86 97.000000 1.000000 4.000000 1.000000 -60.708740 114.000000 149.000000 -0.025862 0.502263 0.864328
-1350.00000000 240.00000000 -630.00000000 185 153 86 97.000000 1.000000 4.000000 1.000000 -60.708740 114.000000 149.000000 0.441724 0.668420 0.598411
-1350.00000000 260.00000000 -610.00000000 185 153 86 97.000000 1.000000 4.000000 1.000000 -60.708740 114.000000 149.000000 -0.171476 0.772402 0.611548
-1290.00000000 160.00000000 -560.00000000 185 153 86 97.000000 1.000000 4.000000 1.000000 -60.708740 114.000000 149.000000 0.552261 0.072404 0.830521
-1310.00000000 170.00000000 -600.00000000 185 153 86 97.000000 1.000000 4.000000 1.000000 -60.708740 114.000000 149.000000 0.537116 0.020501 0.843259
-1330.00000000 180.00000000 -580.00000000 185 153 86 97.000000 1.000000 4.000000 1.000000 -60.708740 114.000000 149.000000 0.542951 -0.189050 0.818208
-1330.00000000 210.00000000 -590.00000000 185 153 86 97.000000 1.000000 4.000000 1.000000 -60.708740 114.000000 149.000000 0.266547 0.519065 0.812111
-1340.00000000 180.00000000 -570.00000000 185 153 86 97.000000 1.000000 4.000000 1.000000 -60.708740 114.000000 149.000000 0.521766 -0.104928 0.846611
-1340.00000000 210.00000000 -570.00000000 185 153 86 97.000000 1.000000 4.000000 1.000000 -60.708740 114.000000 149.000000 0.303214 0.604823 0.736376
-1340.00000000 200.00000000 -630.00000000 185 153 86 97.000000 1.000000 4.000000 1.000000 -60.708740 114.000000 149.000000 -0.076154 0.290419 0.953865
-1310.00000000 200.00000000 -620.00000000 185 153 86 97.000000 1.000000 4.000000 1.000000 -60.708740 114.000000 149.000000 0.423792 0.107696 0.899334
-1340.00000000 200.00000000 -630.00000000 185 153 86 97.000000 1.000000 4.000000 1.000000 -60.708740 114.000000 149.000000 -0.076154 0.290419 0.953865
-1300.00000000 150.00000000 -610.00000000 185 153 86 97.000000 1.000000 4.000000 1.000000 -60.708740 114.000000 149.000000 0.103176 -0.192678 0.975823
-1200.00000000 110.00000000 -510.00000000 185 153 86 97.000000 1.000000 4.000000 1.000000 -60.708740 114.000000 149.000000 0.450867 0.017290 0.892424
-1220.00000000 90.00000000 -510.00000000 185 153 86 97.000000 1.000000 4.000000 1.000000 -60.708740 114.000000 149.000000 0.397014 -0.106516 0.911611
-1190.00000000 -10.00000000 -520.00000000 185 153 86 97.000000 1.000000 4.000000 1.000000 -60.708740 114.000000 149.000000 0.661362 -0.634842 0.399470
-1340.00000000 60.00000000 -390.00000000 185 153 86 97.000000 1.000000 4.000000 1.000000 -60.708740 114.000000 149.000000 0.417819 -0.208171 0.884359
-1310.00000000 90.00000000 -520.00000000 185 153 86 97.000000 1.000000 4.000000 1.000000 -60.708740 114.000000 149.000000 0.313202 -0.013726 0.949587
-1340.00000000 120.00000000 -500.00000000 185 153 86 97.000000 1.000000 4.000000 1.000000 -60.708740 114.000000 149.000000 0.577495 0.190467 0.793865
-1350.00000000 80.00000000 -510.00000000 185 153 86 97.000000 1.000000 4.000000 1.000000 -60.708740 114.000000 149.000000 0.388209 -0.189053 0.901972
-1310.00000000 10.00000000 -420.00000000 185 153 86 97.000000 1.000000 4.000000 1.000000 -60.708740 114.000000 149.000000 0.358515 -0.549940 0.754342
-1290.00000000 0.00000000 -440.00000000 185 153 86 97.000000 1.000000 4.000000 1.000000 -60.708740 114.000000 149.000000 0.580723 -0.313687 0.751240
-1300.00000000 0.00000000 -480.00000000 185 153 86 97.000000 1.000000 4.000000 1.000000 -60.708740 114.000000 149.000000 0.220389 -0.500056 0.837480
-1350.00000000 -20.00000000 -470.00000000 185 153 86 97.000000 1.000000 4.000000 1.000000 -60.708740 114.000000 149.000000 0.366474 -0.472095 0.801762
-1190.00000000 120.00000000 -540.00000000 185 153 86 97.000000 1.000000 4.000000 1.000000 -60.708740 114.000000 149.000000 0.648790 -0.046849 0.759524
-1200.00000000 110.00000000 -590.00000000 185 153 86 97.000000 1.000000 4.000000 1.000000 -60.708740 114.000000 149.000000 0.181723 -0.606252 0.774232
-1270.00000000 130.00000000 -560.00000000 185 153 86 97.000000 1.000000 4.000000 1.000000 -60.708740 114.000000 149.000000 0.595119 -0.103817 0.796904
-1240.00000000 110.00000000 -550.00000000 185 153 86 97.000000 1.000000 4.000000 1.000000 -60.708740 114.000000 149.000000 0.225953 -0.536447 0.813124
-1260.00000000 120.00000000 -580.00000000 185 153 86 97.000000 1.000000 4.000000 1.000000 -60.708740 114.000000 149.000000 0.742104 -0.123436 0.658821
-1270.00000000 120.00000000 -570.00000000 185 153 86 97.000000 1.000000 4.000000 1.000000 -60.708740 114.000000 149.000000 0.665362 -0.290194 0.687808
-1260.00000000 110.00000000 -580.00000000 185 153 86 97.000000 1.000000 4.000000 1.000000 -60.708740 114.000000 149.000000 0.531087 -0.004054 0.847307
-1210.00000000 130.00000000 -610.00000000 185 153 86 97.000000 1.000000 4.000000 1.000000 -60.708740 114.000000 149.000000 0.260916 -0.602478 0.754283
-1320.00000000 70.00000000 -530.00000000 185 153 86 97.000000 1.000000 4.000000 1.000000 -60.708740 114.000000 149.000000 0.219925 -0.542893 0.810494
-1330.00000000 120.00000000 -530.00000000 185 153 86 97.000000 1.000000 4.000000 1.000000 -60.708740 114.000000 149.000000 0.424562 -0.283552 0.859852
-1320.00000000 110.00000000 -560.00000000 185 153 86 97.000000 1.000000 4.000000 1.000000 -60.708740 114.000000 149.000000 0.262835 -0.288687 0.920640
-1330.00000000 -100.00000000 -430.00000000 185 153 86 97.000000 1.000000 4.000000 1.000000 -60.708740 114.000000 149.000000 0.235151 -0.426867 0.873206
-1300.00000000 -90.00000000 -420.00000000 185 153 86 97.000000 1.000000 4.000000 1.000000 -60.708740 114.000000 149.000000 -0.590830 0.627862 -0.506666
-1350.00000000 -50.00000000 -460.00000000 185 153 86 97.000000 1.000000 4.000000 1.000000 -60.708740 114.000000 149.000000 -0.617006 0.676556 -0.401964
-1320.00000000 -60.00000000 -470.00000000 185 153 86 97.000000 1.000000 4.000000 1.000000 -60.708740 114.000000 149.000000 0.645247 -0.226540 0.729614
-1340.00000000 -90.00000000 -460.00000000 185 153 86 97.000000 1.000000 4.000000 1.000000 -60.708740 114.000000 149.000000 -0.511315 0.814664 -0.273640
-1340.00000000 -120.00000000 -470.00000000 185 153 86 97.000000 1.000000 4.000000 1.000000 -60.708740 114.000000 149.000000 0.720750 -0.346546 0.600354
-1340.00000000 -130.00000000 -470.00000000 185 153 86 97.000000 1.000000 4.000000 1.000000 -60.708740 114.000000 149.000000 0.805047 -0.493826 0.328688
-1420.00000000 140.00000000 -500.00000000 185 153 86 97.000000 1.000000 4.000000 1.000000 -60.708740 114.000000 149.000000 0.290090 -0.132345 0.947804
-1430.00000000 170.00000000 -510.00000000 185 153 86 97.000000 1.000000 4.000000 1.000000 -60.708740 114.000000 149.000000 0.315047 0.456113 0.832289
-1510.00000000 220.00000000 -520.00000000 185 153 86 97.000000 1.000000 4.000000 1.000000 -60.708740 114.000000 149.000000 0.221859 0.322054 0.920358
-1510.00000000 170.00000000 -520.00000000 185 153 86 97.000000 1.000000 4.000000 1.000000 -60.708740 114.000000 149.000000 0.245847 0.426839 0.870269
-1480.00000000 150.00000000 -470.00000000 185 153 86 97.000000 1.000000 4.000000 1.000000 -60.708740 114.000000 149.000000 0.388334 0.363380 0.846848
-1440.00000000 180.00000000 -510.00000000 185 153 86 97.000000 1.000000 4.000000 1.000000 -60.708740 114.000000 149.000000 -0.006432 0.392358 0.919790
-1440.00000000 150.00000000 -520.00000000 185 153 86 97.000000 1.000000 4.000000 1.000000 -60.708740 114.000000 149.000000 0.267202 -0.006045 0.963621
-1410.00000000 250.00000000 -570.00000000 185 153 86 97.000000 1.000000 4.000000 1.000000 -60.708740 114.000000 149.000000 0.257812 0.744967 0.615270
-1430.00000000 260.00000000 -570.00000000 185 153 86 97.000000 1.000000 4.000000 1.000000 -60.708740 114.000000 149.000000 0.106624 0.579857 0.807711
-1390.00000000 220.00000000 -560.00000000 185 153 86 97.000000 1.000000 4.000000 1.000000 -60.708740 114.000000 149.000000 -0.047046 0.301346 0.952354
-1390.00000000 250.00000000 -580.00000000 185 153 86 97.000000 1.000000 4.000000 1.000000 -60.708740 114.000000 149.000000 0.145012 0.602471 0.784857
-1430.00000000 230.00000000 -530.00000000 185 153 86 97.000000 1.000000 4.000000 1.000000 -60.708740 114.000000 149.000000 0.440771 0.216650 0.871082
-1360.00000000 280.00000000 -650.00000000 185 153 86 97.000000 1.000000 4.000000 1.000000 -60.708740 114.000000 149.000000 0.169193 0.675246 0.717925
-1360.00000000 280.00000000 -620.00000000 185 153 86 97.000000 1.000000 4.000000 1.000000 -60.708740 114.000000 149.000000 0.324752 0.414875 0.849950
-1360.00000000 280.00000000 -620.00000000 185 153 86 97.000000 1.000000 4.000000 1.000000 -60.708740 114.000000 149.000000 0.324752 0.414875 0.849950
-1360.00000000 230.00000000 -610.00000000 185 153 86 97.000000 1.000000 4.000000 1.000000 -60.708740 114.000000 149.000000 -0.198918 0.539051 0.818447
-1370.00000000 260.00000000 -660.00000000 185 153 86 97.000000 1.000000 4.000000 1.000000 -60.708740 114.000000 149.000000 0.033220 0.418574 0.907575
-1430.00000000 290.00000000 -640.00000000 185 153 86 97.000000 1.000000 4.000000 1.000000 -60.708740 114.000000 149.000000 -0.268333 0.946657 0.178435
-1400.00000000 290.00000000 -630.00000000 185 153 86 97.000000 1.000000 4.000000 1.000000 -60.708740 114.000000 149.000000 -0.396536 0.820144 0.412461
-1420.00000000 280.00000000 -620.00000000 185 153 86 97.000000 1.000000 4.000000 1.000000 -60.708740 114.000000 149.000000 0.177809 0.515496 0.838241
-1400.00000000 260.00000000 -640.00000000 185 153 86 97.000000 1.000000 4.000000 1.000000 -60.708740 114.000000 149.000000 -0.188880 0.858142 0.477406
-1430.00000000 240.00000000 -620.00000000 185 153 86 97.000000 1.000000 4.000000 1.000000 -60.708740 114.000000 149.000000 -0.015167 0.583256 0.812147
-1380.00000000 190.00000000 -540.00000000 185 153 86 97.000000 1.000000 4.000000 1.000000 -60.708740 114.000000 149.000000 0.627914 0.377408 0.680652
-1380.00000000 190.00000000 -550.00000000 185 153 86 97.000000 1.000000 4.000000 1.000000 -60.708740 114.000000 149.000000 0.276908 0.125867 0.952617
-1380.00000000 190.00000000 -550.00000000 185 153 86 97.000000 1.000000 4.000000 1.000000 -60.708740 114.000000 149.000000 0.276908 0.125867 0.952617
-1370.00000000 180.00000000 -550.00000000 185 153 86 97.000000 1.000000 4.000000 1.000000 -60.708740 114.000000 149.000000 0.276857 0.072723 0.958155
-1390.00000000 190.00000000 -570.00000000 185 153 86 97.000000 1.000000 4.000000 1.000000 -60.708740 114.000000 149.000000 0.638612 0.120018 0.760112
-1400.00000000 180.00000000 -540.00000000 185 153 86 97.000000 1.000000 4.000000 1.000000 -60.708740 114.000000 149.000000 0.499725 -0.012123 0.866099
-1400.00000000 200.00000000 -560.00000000 185 153 86 97.000000 1.000000 4.000000 1.000000 -60.708740 114.000000 149.000000 0.125405 0.488648 0.863422
-1430.00000000 210.00000000 -570.00000000 185 153 86 97.000000 1.000000 4.000000 1.000000 -60.708740 114.000000 149.000000 0.528278 0.468285 0.708260
-1410.00000000 160.00000000 -530.00000000 185 153 86 97.000000 1.000000 4.000000 1.000000 -60.708740 114.000000 149.000000 0.071041 0.131601 0.988754
-1480.00000000 270.00000000 -570.00000000 185 153 86 97.000000 1.000000 4.000000 1.000000 -60.708740 114.000000 149.000000 0.237899 0.498821 0.833415
-1440.00000000 270.00000000 -580.00000000 185 153 86 97.000000 1.000000 4.000000 1.000000 -60.708740 114.000000 149.000000 0.037659 0.824311 0.564883
-1450.00000000 280.00000000 -590.00000000 185 153 86 97.000000 1.000000 4.000000 1.000000 -60.708740 114.000000 149.000000 0.037922 0.790747 0.610968
-1460.00000000 260.00000000 -560.00000000 185 153 86 97.000000 1.000000 4.000000 1.000000 -60.708740 114.000000 149.000000 -0.179683 0.548109 0.816879
-1450.00000000 250.00000000 -600.00000000 185 153 86 97.000000 1.000000 4.000000 1.000000 -60.708740 114.000000 149.000000 0.117811 0.530876 0.839221
-1520.00000000 280.00000000 -550.00000000 185 153 86 97.000000 1.000000 4.000000 1.000000 -60.708740 114.000000 149.000000 -0.284444 0.513885 0.809329
-1490.00000000 280.00000000 -580.00000000 185 153 86 97.000000 1.000000 4.000000 1.000000 -60.708740 114.000000 149.000000 0.265723 0.711247 0.650783
-1500.00000000 280.00000000 -610.00000000 185 153 86 97.000000 1.000000 4.000000 1.000000 -60.708740 114.000000 149.000000 -0.094747 0.776929 0.622418
-1460.00000000 260.00000000 -640.00000000 185 153 86 97.000000 1.000000 4.000000 1.000000 -60.708740 114.000000 149.000000 0.212463 0.814696 0.539564
-1490.00000000 280.00000000 -620.00000000 185 153 86 97.000000 1.000000 4.000000 1.000000 -60.708740 114.000000 149.000000 -0.279629 0.940822 0.191470
-1480.00000000 200.00000000 -550.00000000 185 153 86 97.000000 1.000000 4.000000 1.000000 -60.708740 114.000000 149.000000 0.362296 0.667214 0.650820
-1510.00000000 210.00000000 -540.00000000 185 153 86 97.000000 1.000000 4.000000 1.000000 -60.708740 114.000000 149.000000 0.053560 0.346178 0.936639
-1510.00000000 180.00000000 -530.00000000 185 153 86 97.000000 1.000000 4.000000 1.000000 -60.708740 114.000000 149.000000 -0.212983 0.550079 0.807497
-1510.00000000 190.00000000 -560.00000000 185 153 86 97.000000 1.000000 4.000000 1.000000 -60.708740 114.000000 149.000000 0.097051 0.818415 0.566372
-1500.00000000 140.00000000 -530.00000000 185 153 86 97.000000 1.000000 4.000000 1.000000 -60.708740 114.000000 149.000000 0.130816 0.138152 0.981734
-1380.00000000 60.00000000 -420.00000000 185 153 86 97.000000 1.000000 4.000000 1.000000 -60.708740 114.000000 149.000000 0.511631 -0.068685 0.856456
-1360.00000000 60.00000000 -490.00000000 185 153 86 97.000000 1.000000 4.000000 1.000000 -60.708740 114.000000 149.000000 0.288794 -0.095393 0.952627
-1410.00000000 70.00000000 -500.00000000 185 153 86 97.000000 1.000000 4.000000 1.000000 -60.708740 114.000000 149.000000 0.178352 -0.017260 0.983815
-1390.00000000 -20.00000000 -430.00000000 185 153 86 97.000000 1.000000 4.000000 1.000000 -60.708740 114.000000 149.000000 0.675693 -0.612606 0.410064
-1420.00000000 -30.00000000 -440.00000000 185 153 86 97.000000 1.000000 4.000000 1.000000 -60.708740 114.000000 149.000000 0.237547 -0.243104 0.940464
-1460.00000000 90.00000000 -500.00000000 185 153 86 97.000000 1.000000 4.000000 1.000000 -60.708740 114.000000 149.000000 0.610045 -0.343252 0.714159
-1520.00000000 90.00000000 -490.00000000 185 153 86 97.000000 1.000000 4.000000 1.000000 -60.708740 114.000000 149.000000 0.550024 0.134188 0.824298
-1490.00000000 50.00000000 -510.00000000 185 153 86 97.000000 1.000000 4.000000 1.000000 -60.708740 114.000000 149.000000 0.691292 -0.394317 0.605499
-1500.00000000 10.00000000 -460.00000000 185 153 86 97.000000 1.000000 4.000000 1.000000 -60.708740 114.000000 149.000000 0.470796 -0.454392 0.756227
-1510.00000000 10.00000000 -460.00000000 185 153 86 97.000000 1.000000 4.000000 1.000000 -60.708740 114.000000 149.000000 0.167777 -0.597043 0.784469
-1380.00000000 80.00000000 -560.00000000 185 153 86 97.000000 1.000000 4.000000 1.000000 -60.708740 114.000000 149.000000 0.772214 -0.116644 0.624563
-1420.00000000 110.00000000 -550.00000000 185 153 86 97.000000 1.000000 4.000000 1.000000 -60.708740 114.000000 149.000000 0.206437 -0.492737 0.845337
-1420.00000000 120.00000000 -540.00000000 185 153 86 97.000000 1.000000 4.000000 1.000000 -60.708740 114.000000 149.000000 0.451419 -0.412587 0.791197
-1420.00000000 80.00000000 -560.00000000 185 153 86 97.000000 1.000000 4.000000 1.000000 -60.708740 114.000000 149.000000 0.296838 -0.458467 0.837673
-1410.00000000 70.00000000 -590.00000000 185 153 86 97.000000 1.000000 4.000000 1.000000 -60.708740 114.000000 149.000000 0.802243 -0.237414 0.547760
-1390.00000000 110.00000000 -660.00000000 185 153 86 97.000000 1.000000 4.000000 1.000000 -60.708740 114.000000 149.000000 -0.610605 0.692896 -0.383480
-1370.00000000 110.00000000 -620.00000000 185 153 86 97.000000 1.000000 4.000000 1.000000 -60.708740 114.000000 149.000000 0.658161 -0.510032 0.553797
-1570.00000000 220.00000000 -520.00000000 185 153 86 97.000000 1.000000 4.000000 1.000000 -60.708740 114.000000 149.000000 0.038192 0.759601 0.649267
-1570.00000000 190.00000000 -500.00000000 185 153 86 97.000000 1.000000 4.000000 1.000000 -60.708740 114.000000 149.000000 0.296772 0.547520 0.782399
-1530.00000000 150.00000000 -500.00000000 185 153 86 97.000000 1.000000 4.000000 1.000000 -60.708740 114.000000 149.000000 0.270729 0.317557 0.908770
-1560.00000000 160.00000000 -520.00000000 185 153 86 97.000000 1.000000 4.000000 1.000000 -60.708740 114.000000 149.000000 0.025985 0.518339 0.854780
-1590.00000000 190.00000000 -520.00000000 185 153 86 97.000000 1.000000 4.000000 1.000000 -60.708740 114.000000 149.000000 0.255192 0.389504 0.884965
-1590.00000000 190.00000000 -520.00000000 185 153 86 97.000000 1.000000 4.000000 1.000000 -60.708740 114.000000 149.000000 0.255192 0.389504 0.884965
-1620.00000000 210.00000000 -510.00000000 185 153 86 97.000000 1.000000 4.000000 1.000000 -60.708740 114.000000 149.000000 0.271048 0.524862 0.806878
-1620.00000000 200.00000000 -510.00000000 185 153 86 97.000000 1.000000 4.000000 1.000000 -60.708740 114.000000 149.000000 0.023816 0.951380 0.307099
-1640.00000000 160.00000000 -520.00000000 185 153 86 97.000000 1.000000 4.000000 1.000000 -60.708740 114.000000 149.000000 0.045266 0.484213 0.873778
-1630.00000000 160.00000000 -520.00000000 185 153 86 97.000000 1.000000 4.000000 1.000000 -60.708740 114.000000 149.000000 0.183753 0.566446 0.803351
-1560.00000000 280.00000000 -560.00000000 185 153 86 97.000000 1.000000 4.000000 1.000000 -60.708740 114.000000 149.000000 -0.152777 0.742710 0.651951
-1530.00000000 290.00000000 -570.00000000 185 153 86 97.000000 1.000000 4.000000 1.000000 -60.708740 114.000000 149.000000 0.026753 0.705444 0.708260
-1550.00000000 240.00000000 -530.00000000 185 153 86 97.000000 1.000000 4.000000 1.000000 -60.708740 114.000000 149.000000 0.046978 0.656264 0.753067
-1550.00000000 240.00000000 -530.00000000 185 153 86 97.000000 1.000000 4.000000 1.000000 -60.708740 114.000000 149.000000 0.046978 0.656264 0.753067
-1560.00000000 230.00000000 -570.00000000 185 153 86 97.000000 1.000000 4.000000 1.000000 -60.708740 114.000000 149.000000 0.041695 0.897119 0.439817
-1600.00000000 260.00000000 -530.00000000 185 153 86 97.000000 1.000000 4.000000 1.000000 -60.708740 114.000000 149.000000 -0.232320 0.587816 0.774919
-1580.00000000 240.00000000 -530.00000000 185 153 86 97.000000 1.000000 4.000000 1.000000 -60.708740 114.000000 149.000000 -0.160845 0.885374 0.436166
-1530.00000000 260.00000000 -610.00000000 185 153 86 97.000000 1.000000 4.000000 1.000000 -60.708740 114.000000 149.000000 -0.108987 0.973367 0.201689
-1590.00000000 160.00000000 -530.00000000 185 153 86 97.000000 1.000000 4.000000 1.000000 -60.708740 114.000000 149.000000 -0.269251 0.456958 0.847758
-1550.00000000 180.00000000 -550.00000000 185 153 86 97.000000 1.000000 4.000000 1.000000 -60.708740 114.000000 149.000000 0.129155 0.857647 0.497755
-1630.00000000 240.00000000 -550.00000000 185 153 86 97.000000 1.000000 4.000000 1.000000 -60.708740 114.000000 149.000000 -0.417562 0.663774 0.620521
-1540.00000000 90.00000000 -480.00000000 185 153 86 97.000000 1.000000 4.000000 1.000000 -60.708740 114.000000 149.000000 0.166398 -0.024099 0.985764
-1540.00000000 80.00000000 -480.00000000 185 153 86 97.000000 1.000000 4.000000 1.000000 -60.708740 114.000000 149.000000 0.038552 -0.095830 0.994651
-1530.00000000 20.00000000 -460.00000000 185 153 86 97.000000 1.000000 4.000000 1.000000 -60.708740 114.000000 149.000000 0.345998 -0.450272 0.823128
-1570.00000000 40.00000000 -480.00000000 185 153 86 97.000000 1.000000 4.000000 1.000000 -60.708740 114.000000 149.000000 0.382707 -0.479595 0.789636
-1570.00000000 40.00000000 -480.00000000 185 153 86 97.000000 1.000000 4.000000 1.000000 -60.708740 114.000000 149.000000 0.382707 -0.479595 0.789636
-1580.00000000 -10.00000000 -480.00000000 185 153 86 97.000000 1.000000 4.000000 1.000000 -60.708740 114.000000 149.000000 0.567808 -0.131259 0.812629
-1390.00000000 -110.00000000 -420.00000000 185 153 86 97.000000 1.000000 4.000000 1.000000 -60.708740 114.000000 149.000000 0.443610 -0.712767 0.543298
-1380.00000000 -100.00000000 -430.00000000 185 153 86 97.000000 1.000000 4.000000 1.000000 -60.708740 114.000000 149.000000 0.221420 -0.586840 0.778840
-1400.00000000 -50.00000000 -460.00000000 185 153 86 97.000000 1.000000 4.000000 1.000000 -60.708740 114.000000 149.000000 0.748377 -0.404484 0.525665
-1380.00000000 -60.00000000 -490.00000000 185 153 86 97.000000 1.000000 4.000000 1.000000 -60.708740 114.000000 149.000000 0.589996 -0.532518 0.606901
-1380.00000000 -150.00000000 -420.00000000 185 153 86 97.000000 1.000000 4.000000 1.000000 -60.708740 114.000000 149.000000 0.539808 -0.453439 0.709225
-1380.00000000 -160.00000000 -450.00000000 185 153 86 97.000000 1.000000 4.000000 1.000000 -60.708740 114.000000 149.000000 0.667434 -0.421099 0.614172
-1400.00000000 -100.00000000 -680.00000000 185 153 86 97.000000 1.000000 4.000000 1.000000 -60.708740 114.000000 149.000000 -0.269124 0.879538 -0.392409
-1390.00000000 -160.00000000 -680.00000000 185 153 86 97.000000 1.000000 4.000000 1.000000 -60.708740 114.000000 149.000000 -0.180735 0.947162 0.264988
-1480.00000000 -170.00000000 -660.00000000 185 153 86 97.000000 1.000000 4.000000 1.000000 -60.708740 114.000000 149.000000 -0.343121 0.910647 0.230195
-1500.00000000 -150.00000000 -670.00000000 185 153 86 97.000000 1.000000 4.000000 1.000000 -60.708740 114.000000 149.000000 -0.295754 0.948270 0.115384
-1490.00000000 -180.00000000 -640.00000000 185 153 86 97.000000 1.000000 4.000000 1.000000 -60.708740 114.000000 149.000000 -0.624332 0.723840 0.293709
-1440.00000000 -230.00000000 -650.00000000 185 153 86 0.000000 0.000000 0.000000 0.000000 -60.708740 0.000000 149.000000 -0.453908 0.890306 -0.036367
-1440.00000000 -230.00000000 -670.00000000 185 153 86 0.000000 0.000000 0.000000 0.000000 -60.708740 0.000000 149.000000 -0.330298 0.885319 -0.327282
-1600.00000000 -60.00000000 -500.00000000 185 153 86 97.000000 1.000000 4.000000 1.000000 -60.708740 114.000000 149.000000 -0.715090 0.671844 -0.193059
-1530.00000000 -160.00000000 -680.00000000 185 153 86 97.000000 1.000000 4.000000 1.000000 -60.708740 114.000000 149.000000 -0.577755 0.742828 0.338238
-1600.00000000 -120.00000000 -690.00000000 185 153 86 97.000000 1.000000 4.000000 1.000000 -60.708740 114.000000 149.000000 -0.142373 0.774811 0.615952
-1540.00000000 -170.00000000 -670.00000000 185 153 86 97.000000 1.000000 4.000000 1.000000 -60.708740 114.000000 149.000000 -0.230061 0.938369 0.257947
-1540.00000000 -170.00000000 -670.00000000 185 153 86 97.000000 1.000000 4.000000 1.000000 -60.708740 114.000000 149.000000 -0.230061 0.938369 0.257947
-1690.00000000 -120.00000000 -640.00000000 185 153 86 97.000000 1.000000 4.000000 1.000000 -60.708740 114.000000 149.000000 -0.210166 0.845199 0.491395
-1680.00000000 -140.00000000 -680.00000000 185 153 86 97.000000 1.000000 4.000000 1.000000 -60.708740 114.000000 149.000000 -0.473723 0.848436 0.236100
-1690.00000000 -120.00000000 -660.00000000 185 153 86 97.000000 1.000000 4.000000 1.000000 -60.708740 114.000000 149.000000 -0.096906 0.822981 0.559743
-1520.00000000 170.00000000 -820.00000000 185 153 86 97.000000 1.000000 4.000000 1.000000 -60.708740 114.000000 149.000000 0.719354 -0.029562 0.694015
-1380.00000000 0.00000000 -770.00000000 185 153 86 97.000000 1.000000 4.000000 1.000000 -60.708740 114.000000 149.000000 -0.471082 0.668903 0.575022
-1380.00000000 0.00000000 -760.00000000 185 153 86 97.000000 1.000000 4.000000 1.000000 -60.708740 114.000000 149.000000 -0.036622 0.882997 0.467948
-1420.00000000 40.00000000 -750.00000000 185 153 86 97.000000 1.000000 4.000000 1.000000 -60.708740 114.000000 149.000000 -0.034132 0.949387 0.312248
-1420.00000000 40.00000000 -760.00000000 185 153 86 97.000000 1.000000 4.000000 1.000000 -60.708740 114.000000 149.000000 -0.202213 0.926218 0.318167
-1420.00000000 -30.00000000 -790.00000000 185 153 86 97.000000 1.000000 4.000000 1.000000 -60.708740 114.000000 149.000000 -0.243571 0.918074 0.312751
-1400.00000000 -30.00000000 -790.00000000 185 153 86 97.000000 1.000000 4.000000 1.000000 -60.708740 114.000000 149.000000 -0.120473 0.991934 0.039407
-1450.00000000 70.00000000 -760.00000000 185 153 86 97.000000 1.000000 4.000000 1.000000 -60.708740 114.000000 149.000000 -0.061539 0.768522 0.636857
-1500.00000000 90.00000000 -770.00000000 185 153 86 97.000000 1.000000 4.000000 1.000000 -60.708740 114.000000 149.000000 0.065952 0.311657 0.947903
-1500.00000000 100.00000000 -770.00000000 185 153 86 97.000000 1.000000 4.000000 1.000000 -60.708740 114.000000 149.000000 0.387374 0.425633 0.817789
-1520.00000000 110.00000000 -790.00000000 185 153 86 97.000000 1.000000 4.000000 1.000000 -60.708740 114.000000 149.000000 0.356989 0.518523 0.776977
-1440.00000000 -30.00000000 -770.00000000 185 153 86 97.000000 1.000000 4.000000 1.000000 -60.708740 114.000000 149.000000 0.070013 0.958538 0.276232
-1460.00000000 0.00000000 -740.00000000 185 153 86 97.000000 1.000000 4.000000 1.000000 -60.708740 114.000000 149.000000 -0.210055 0.808021 0.550435
-1500.00000000 30.00000000 -740.00000000 185 153 86 97.000000 1.000000 4.000000 1.000000 -60.708740 114.000000 149.000000 -0.140200 0.547518 0.824966
-1600.00000000 100.00000000 -770.00000000 185 153 86 97.000000 1.000000 4.000000 1.000000 -60.708740 114.000000 149.000000 0.626473 -0.038011 0.778516
-1570.00000000 110.00000000 -800.00000000 185 153 86 97.000000 1.000000 4.000000 1.000000 -60.708740 114.000000 149.000000 0.470623 0.352568 0.808833
-1570.00000000 100.00000000 -800.00000000 185 153 86 97.000000 1.000000 4.000000 1.000000 -60.708740 114.000000 149.000000 0.152118 0.275966 0.949054
-1590.00000000 90.00000000 -780.00000000 185 153 86 97.000000 1.000000 4.000000 1.000000 -60.708740 114.000000 149.000000 0.495063 0.347666 0.796267
-1590.00000000 10.00000000 -700.00000000 185 153 86 97.000000 1.000000 4.000000 1.000000 -60.708740 114.000000 149.000000 0.095004 0.773184 0.627025
-1580.00000000 10.00000000 -750.00000000 185 153 86 97.000000 1.000000 4.000000 1.000000 -60.708740 114.000000 149.000000 0.319834 0.409449 0.854434
-1600.00000000 -20.00000000 -720.00000000 185 153 86 97.000000 1.000000 4.000000 1.000000 -60.708740 114.000000 149.000000 0.104781 0.854037 0.509551
-1640.00000000 110.00000000 -770.00000000 185 153 86 97.000000 1.000000 4.000000 1.000000 -60.708740 114.000000 149.000000 0.438260 0.148003 0.886579
-1640.00000000 110.00000000 -770.00000000 185 153 86 97.000000 1.000000 4.000000 1.000000 -60.708740 114.000000 149.000000 0.438260 0.148003 0.886579
-1640.00000000 110.00000000 -770.00000000 185 153 86 97.000000 1.000000 4.000000 1.000000 -60.708740 114.000000 149.000000 0.438260 0.148003 0.886579
-1610.00000000 60.00000000 -760.00000000 185 153 86 97.000000 1.000000 4.000000 1.000000 -60.708740 114.000000 149.000000 -0.001356 0.551880 0.833922
-1650.00000000 50.00000000 -760.00000000 185 153 86 97.000000 1.000000 4.000000 1.000000 -60.708740 114.000000 149.000000 0.095380 0.345250 0.933652
-1610.00000000 130.00000000 -790.00000000 185 153 86 97.000000 1.000000 4.000000 1.000000 -60.708740 114.000000 149.000000 0.335375 0.279233 0.899751
-1640.00000000 110.00000000 -800.00000000 185 153 86 97.000000 1.000000 4.000000 1.000000 -60.708740 114.000000 149.000000 0.251902 -0.300843 0.919803
-1640.00000000 110.00000000 -800.00000000 185 153 86 97.000000 1.000000 4.000000 1.000000 -60.708740 114.000000 149.000000 0.251902 -0.300843 0.919803
-1650.00000000 100.00000000 -800.00000000 185 153 86 97.000000 1.000000 4.000000 1.000000 -60.708740 114.000000 149.000000 0.341259 0.335192 0.878173
-1610.00000000 10.00000000 -710.00000000 185 153 86 97.000000 1.000000 4.000000 1.000000 -60.708740 114.000000 149.000000 -0.106573 0.338605 0.934874
-1640.00000000 -10.00000000 -750.00000000 185 153 86 97.000000 1.000000 4.000000 1.000000 -60.708740 114.000000 149.000000 0.193856 0.369045 0.908970
-1580.00000000 -10.00000000 -1030.00000000 185 153 86 97.000000 1.000000 4.000000 1.000000 -60.708740 114.000000 149.000000 -0.003420 0.178985 0.983846
-1560.00000000 -30.00000000 -1050.00000000 185 153 86 97.000000 1.000000 4.000000 1.000000 -60.708740 114.000000 149.000000 0.439476 0.650023 0.619945
-1590.00000000 30.00000000 -1050.00000000 185 153 86 97.000000 1.000000 4.000000 1.000000 -60.708740 114.000000 149.000000 -0.081619 0.444061 0.892272
-1430.00000000 -50.00000000 -760.00000000 185 153 86 97.000000 1.000000 4.000000 1.000000 -60.708740 114.000000 149.000000 -0.283216 0.950701 0.126317
-1410.00000000 -40.00000000 -730.00000000 185 153 86 97.000000 1.000000 4.000000 1.000000 -60.708740 114.000000 149.000000 -0.329304 0.940303 0.085963
-1410.00000000 -40.00000000 -730.00000000 185 153 86 97.000000 1.000000 4.000000 1.000000 -60.708740 114.000000 149.000000 -0.329304 0.940303 0.085963
-1460.00000000 -40.00000000 -750.00000000 185 153 86 97.000000 1.000000 4.000000 1.000000 -60.708740 114.000000 149.000000 -0.175397 0.868143 0.464287
-1520.00000000 -70.00000000 -750.00000000 185 153 86 97.000000 1.000000 4.000000 1.000000 -60.708740 114.000000 149.000000 0.200976 0.838660 0.506218
-1490.00000000 -80.00000000 -760.00000000 185 153 86 97.000000 1.000000 4.000000 1.000000 -60.708740 114.000000 149.000000 -0.189843 0.938128 0.289614
-1460.00000000 -40.00000000 -780.00000000 185 153 86 97.000000 1.000000 4.000000 1.000000 -60.708740 114.000000 149.000000 -0.024194 0.941033 0.337448
-1510.00000000 -40.00000000 -850.00000000 185 153 86 97.000000 1.000000 4.000000 1.000000 -60.708740 114.000000 149.000000 0.031480 0.860908 0.507785
-1500.00000000 -160.00000000 -700.00000000 185 153 86 97.000000 1.000000 4.000000 1.000000 -60.708740 114.000000 149.000000 -0.307506 0.936308 -0.169611
-1410.00000000 -70.00000000 -910.00000000 185 153 86 97.000000 1.000000 4.000000 1.000000 -60.708740 114.000000 149.000000 -0.096368 0.832795 0.545129
-1440.00000000 -70.00000000 -1010.00000000 185 153 86 97.000000 1.000000 4.000000 1.000000 -60.708740 114.000000 149.000000 0.192181 -0.619590 -0.761035
-1480.00000000 -80.00000000 -1000.00000000 185 153 86 97.000000 1.000000 4.000000 1.000000 -60.708740 114.000000 149.000000 -0.041222 0.697926 0.714983
-1440.00000000 -80.00000000 -1030.00000000 185 153 86 97.000000 1.000000 4.000000 1.000000 -60.708740 114.000000 149.000000 -0.123492 0.641265 0.757317
-1490.00000000 -50.00000000 -970.00000000 185 153 86 97.000000 1.000000 4.000000 1.000000 -60.708740 114.000000 149.000000 0.031540 0.857066 0.514240
-1490.00000000 -120.00000000 -1030.00000000 185 153 86 97.000000 1.000000 4.000000 1.000000 -60.708740 114.000000 149.000000 0.384909 0.511588 0.768194
-1520.00000000 -170.00000000 -1020.00000000 185 153 86 97.000000 1.000000 4.000000 1.000000 -60.708740 114.000000 149.000000 0.194736 0.866651 0.459340
-1560.00000000 -70.00000000 -720.00000000 185 153 86 97.000000 1.000000 4.000000 1.000000 -60.708740 114.000000 149.000000 -0.212113 0.975722 0.054543
-1530.00000000 -140.00000000 -720.00000000 185 153 86 97.000000 1.000000 4.000000 1.000000 -60.708740 114.000000 149.000000 0.099805 0.920118 0.378711
-1580.00000000 -40.00000000 -1010.00000000 185 153 86 97.000000 1.000000 4.000000 1.000000 -60.708740 114.000000 149.000000 0.181419 0.168552 0.968854
-1560.00000000 -50.00000000 -1030.00000000 185 153 86 97.000000 1.000000 4.000000 1.000000 -60.708740 114.000000 149.000000 -0.016646 0.364928 0.930887
-1540.00000000 -160.00000000 -1030.00000000 185 153 86 97.000000 1.000000 4.000000 1.000000 -60.708740 114.000000 149.000000 0.346407 0.596860 0.723713
-1540.00000000 -140.00000000 -1030.00000000 185 153 86 97.000000 1.000000 4.000000 1.000000 -60.708740 114.000000 149.000000 0.052563 0.779928 0.623658
-1560.00000000 -180.00000000 -1010.00000000 185 153 86 97.000000 1.000000 4.000000 1.000000 -60.708740 114.000000 149.000000 -0.137209 0.873808 0.466512
-1600.00000000 -170.00000000 -980.00000000 185 153 86 97.000000 1.000000 4.000000 1.000000 -60.708740 114.000000 149.000000 0.091376 0.268979 0.958802
-1430.00000000 -100.00000000 -1040.00000000 185 153 86 97.000000 1.000000 4.000000 1.000000 -60.708740 114.000000 149.000000 -0.058189 0.801869 0.594660
-1490.00000000 -120.00000000 -1050.00000000 185 153 86 97.000000 1.000000 4.000000 1.000000 -60.708740 114.000000 149.000000 0.358464 0.327956 0.874041
-1560.00000000 -70.00000000 -1060.00000000 185 153 86 97.000000 1.000000 4.000000 1.000000 -60.708740 114.000000 149.000000 0.123375 0.207320 0.970462
-1530.00000000 -90.00000000 -1070.00000000 185 153 86 97.000000 1.000000 4.000000 1.000000 -60.708740 114.000000 149.000000 0.052409 0.794631 0.604826
-1580.00000000 -70.00000000 -1050.00000000 185 153 86 97.000000 1.000000 4.000000 1.000000 -60.708740 114.000000 149.000000 0.409837 0.403459 0.818080
-1540.00000000 -120.00000000 -1060.00000000 185 153 86 97.000000 1.000000 4.000000 1.000000 -60.708740 114.000000 149.000000 0.034635 0.832615 0.552768
-1760.00000000 -30.00000000 -650.00000000 185 153 86 97.000000 1.000000 4.000000 1.000000 -60.708740 114.000000 149.000000 0.169090 0.751005 0.638278
-1770.00000000 -20.00000000 -640.00000000 185 153 86 97.000000 1.000000 4.000000 1.000000 -60.708740 114.000000 149.000000 0.296269 0.177762 0.938416
-1730.00000000 -70.00000000 -600.00000000 185 153 86 97.000000 1.000000 4.000000 1.000000 -60.708740 114.000000 149.000000 0.021273 0.990856 0.133234
-1700.00000000 -50.00000000 -650.00000000 185 153 86 97.000000 1.000000 4.000000 1.000000 -60.708740 114.000000 149.000000 0.139817 0.837429 0.528360
-1710.00000000 -70.00000000 -630.00000000 185 153 86 97.000000 1.000000 4.000000 1.000000 -60.708740 114.000000 149.000000 0.336038 -0.715906 -0.612011
-1720.00000000 -50.00000000 -660.00000000 185 153 86 97.000000 1.000000 4.000000 1.000000 -60.708740 114.000000 149.000000 0.091133 0.577176 0.811518
-1730.00000000 -80.00000000 -630.00000000 185 153 86 97.000000 1.000000 4.000000 1.000000 -60.708740 114.000000 149.000000 -0.262386 0.824420 0.501483
-1710.00000000 -150.00000000 -630.00000000 185 153 86 97.000000 1.000000 4.000000 1.000000 -60.708740 114.000000 149.000000 0.128393 0.985150 0.113994
-1760.00000000 -180.00000000 -630.00000000 185 153 86 97.000000 1.000000 4.000000 1.000000 -60.708740 114.000000 149.000000 -0.309891 0.842468 0.440699
-1760.00000000 -180.00000000 -630.00000000 185 153 86 97.000000 1.000000 4.000000 1.000000 -60.708740 114.000000 149.000000 -0.309891 0.842468 0.440699
-1790.00000000 -60.00000000 -650.00000000 185 153 86 97.000000 1.000000 4.000000 1.000000 -60.708740 114.000000 149.000000 0.285509 0.259684 0.922523
-1780.00000000 -60.00000000 -640.00000000 185 153 86 97.000000 1.000000 4.000000 1.000000 -60.708740 114.000000 149.000000 0.388552 0.663018 0.639871
-1790.00000000 -70.00000000 -650.00000000 185 153 86 97.000000 1.000000 4.000000 1.000000 -60.708740 114.000000 149.000000 -0.301192 0.710298 0.636208
-1830.00000000 -60.00000000 -630.00000000 185 153 86 97.000000 1.000000 4.000000 1.000000 -60.708740 114.000000 149.000000 0.047278 0.310502 0.949396
-1850.00000000 -90.00000000 -630.00000000 185 153 86 97.000000 1.000000 4.000000 1.000000 -60.708740 114.000000 149.000000 0.145154 0.344221 0.927600
-1840.00000000 -90.00000000 -650.00000000 185 153 86 97.000000 1.000000 4.000000 1.000000 -60.708740 114.000000 149.000000 0.323903 0.746104 0.581735
-1790.00000000 -150.00000000 -650.00000000 185 153 86 97.000000 1.000000 4.000000 1.000000 -60.708740 114.000000 149.000000 -0.014323 0.915375 0.402348
-1790.00000000 -200.00000000 -630.00000000 185 153 86 97.000000 1.000000 4.000000 1.000000 -60.708740 114.000000 149.000000 -0.211941 0.611069 0.762676
-1780.00000000 -170.00000000 -610.00000000 185 153 86 97.000000 1.000000 4.000000 1.000000 -60.708740 114.000000 149.000000 -0.300030 0.742855 0.598455
-1840.00000000 -130.00000000 -640.00000000 185 153 86 97.000000 1.000000 4.000000 1.000000 -60.708740 114.000000 149.000000 0.096403 0.445689 0.889982
-1840.00000000 -160.00000000 -610.00000000 185 153 86 97.000000 1.000000 4.000000 1.000000 -60.708740 114.000000 149.000000 0.011983 0.885403 0.464670
-1830.00000000 -160.00000000 -630.00000000 185 153 86 97.000000 1.000000 4.000000 1.000000 -60.708740 114.000000 149.000000 -0.092066 0.661996 0.743832
-1740.00000000 -310.00000000 -660.00000000 185 153 86 0.000000 0.000000 0.000000 0.000000 -60.708740 0.000000 149.000000 0.147818 0.942511 0.299705
-1740.00000000 -330.00000000 -620.00000000 185 153 86 0.000000 0.000000 0.000000 0.000000 -60.708740 0.000000 149.000000 -0.006524 0.906829 0.421447
-1790.00000000 -340.00000000 -600.00000000 185 153 86 0.000000 0.000000 0.000000 0.000000 -60.708740 0.000000 149.000000 -0.231145 0.962450 0.142343
-1800.00000000 -320.00000000 -640.00000000 185 153 86 0.000000 0.000000 0.000000 0.000000 -60.708740 0.000000 149.000000 -0.255012 0.644657 0.720685
-1840.00000000 -350.00000000 -630.00000000 185 153 86 0.000000 0.000000 0.000000 0.000000 -60.708740 0.000000 149.000000 -0.466363 0.673635 0.573342
-1860.00000000 -160.00000000 -650.00000000 185 153 86 97.000000 1.000000 4.000000 1.000000 -60.708740 114.000000 149.000000 -0.192015 0.426536 0.883854
-1870.00000000 -140.00000000 -630.00000000 185 153 86 97.000000 1.000000 4.000000 1.000000 -60.708740 114.000000 149.000000 0.025643 0.875899 0.481812
-1860.00000000 -140.00000000 -630.00000000 185 153 86 97.000000 1.000000 4.000000 1.000000 -60.708740 114.000000 149.000000 0.223469 0.679785 0.698537
-1980.00000000 -280.00000000 -580.00000000 185 153 86 0.000000 0.000000 0.000000 0.000000 -60.708740 0.000000 149.000000 -0.142956 0.534980 0.832682
-1980.00000000 -310.00000000 -600.00000000 185 153 86 0.000000 0.000000 0.000000 0.000000 -60.708740 0.000000 149.000000 0.019524 0.917618 0.396984
-1950.00000000 -340.00000000 -600.00000000 185 153 86 0.000000 0.000000 0.000000 0.000000 -60.708740 0.000000 149.000000 -0.453796 0.744225 0.490100
-1970.00000000 -290.00000000 -570.00000000 185 153 86 0.000000 0.000000 0.000000 0.000000 -60.708740 0.000000 149.000000 0.409231 -0.614674 -0.674319
-2020.00000000 -300.00000000 -600.00000000 185 153 86 0.000000 0.000000 0.000000 0.000000 -60.708740 0.000000 149.000000 0.090521 0.547439 0.831935
-1700.00000000 -20.00000000 -730.00000000 185 153 86 97.000000 1.000000 4.000000 1.000000 -60.708740 114.000000 149.000000 -0.041141 0.710751 0.702239
-1770.00000000 -330.00000000 -830.00000000 185 153 86 0.000000 0.000000 0.000000 0.000000 -60.708740 0.000000 149.000000 -0.149912 0.946742 0.284968
-1800.00000000 -360.00000000 -810.00000000 185 153 86 0.000000 0.000000 0.000000 0.000000 -60.708740 0.000000 149.000000 -0.079184 0.951506 0.297264
-1850.00000000 -390.00000000 -570.00000000 185 153 86 0.000000 0.000000 0.000000 0.000000 -60.708740 0.000000 149.000000 -0.206947 0.977974 -0.027199
-1820.00000000 -390.00000000 -690.00000000 185 153 86 0.000000 0.000000 0.000000 0.000000 -60.708740 0.000000 149.000000 0.026353 0.811384 0.583919
-1850.00000000 -420.00000000 -620.00000000 185 153 86 0.000000 0.000000 0.000000 0.000000 -60.708740 0.000000 149.000000 0.050867 0.983029 0.176259
-1900.00000000 -380.00000000 -640.00000000 185 153 86 0.000000 0.000000 0.000000 0.000000 -60.708740 0.000000 149.000000 -0.284968 0.933515 0.217586
-1870.00000000 -410.00000000 -690.00000000 185 153 86 0.000000 0.000000 0.000000 0.000000 -60.708740 0.000000 149.000000 0.142096 0.851110 0.505392
-1880.00000000 -380.00000000 -680.00000000 185 153 86 0.000000 0.000000 0.000000 0.000000 -60.708740 0.000000 149.000000 0.192660 0.952520 0.235772
-1900.00000000 -460.00000000 -540.00000000 185 153 86 0.000000 0.000000 0.000000 0.000000 -60.708740 0.000000 149.000000 -0.101624 0.989376 -0.103960
-1950.00000000 -410.00000000 -560.00000000 185 153 86 0.000000 0.000000 0.000000 0.000000 -60.708740 0.000000 149.000000 0.079205 0.793494 0.603401
-1950.00000000 -410.00000000 -560.00000000 185 153 86 0.000000 0.000000 0.000000 0.000000 -60.708740 0.000000 149.000000 0.079205 0.793494 0.603401
-1980.00000000 -420.00000000 -590.00000000 185 153 86 0.000000 0.000000 0.000000 0.000000 -60.708740 0.000000 149.000000 -0.095293 0.719831 0.687578
-2020.00000000 -430.00000000 -580.00000000 185 153 86 0.000000 0.000000 0.000000 0.000000 -60.708740 0.000000 149.000000 -0.041029 0.652222 0.756917
-2020.00000000 -430.00000000 -580.00000000 185 153 86 0.000000 0.000000 0.000000 0.000000 -60.708740 0.000000 149.000000 -0.041029 0.652222 0.756917
-1390.00000000 360.00000000 -690.00000000 185 153 86 97.000000 1.000000 4.000000 1.000000 -60.708740 114.000000 149.000000 0.052059 0.825910 0.561394
-1240.00000000 310.00000000 -620.00000000 185 153 86 97.000000 1.000000 4.000000 1.000000 -60.708740 114.000000 149.000000 -0.061671 0.347721 0.935567
-1390.00000000 310.00000000 -670.00000000 185 153 86 97.000000 1.000000 4.000000 1.000000 -60.708740 114.000000 149.000000 -0.023836 0.688443 0.724899
-1180.00000000 170.00000000 -570.00000000 185 153 86 97.000000 1.000000 4.000000 1.000000 -60.708740 114.000000 149.000000 0.080550 -0.169516 0.982230
-1120.00000000 140.00000000 -540.00000000 185 153 86 97.000000 1.000000 4.000000 1.000000 -60.708740 114.000000 149.000000 0.768656 -0.046887 0.637942
-1160.00000000 60.00000000 -520.00000000 185 153 86 97.000000 1.000000 4.000000 1.000000 -60.708740 114.000000 149.000000 0.537411 -0.102295 0.837093
-1150.00000000 130.00000000 -550.00000000 185 153 86 97.000000 1.000000 4.000000 1.000000 -60.708740 114.000000 149.000000 0.317075 -0.590693 0.741988
-1270.00000000 150.00000000 -490.00000000 185 153 86 97.000000 1.000000 4.000000 1.000000 -60.708740 114.000000 149.000000 0.625291 0.226103 0.746919
-1330.00000000 140.00000000 -520.00000000 185 153 86 97.000000 1.000000 4.000000 1.000000 -60.708740 114.000000 149.000000 0.258100 0.127085 0.957723
-1270.00000000 250.00000000 -630.00000000 185 153 86 97.000000 1.000000 4.000000 1.000000 -60.708740 114.000000 149.000000 0.344364 0.188479 0.919722
-1220.00000000 200.00000000 -600.00000000 185 153 86 97.000000 1.000000 4.000000 1.000000 -60.708740 114.000000 149.000000 0.299891 0.308755 0.902627
-1220.00000000 160.00000000 -590.00000000 185 153 86 97.000000 1.000000 4.000000 1.000000 -60.708740 114.000000 149.000000 0.688018 0.108011 0.717610
-1290.00000000 220.00000000 -580.00000000 185 153 86 97.000000 1.000000 4.000000 1.000000 -60.708740 114.000000 149.000000 0.618561 0.225923 0.752557
-1310.00000000 280.00000000 -600.00000000 185 153 86 97.000000 1.000000 4.000000 1.000000 -60.708740 114.000000 149.000000 0.143792 0.218926 0.965088
-1290.00000000 250.00000000 -630.00000000 185 153 86 97.000000 1.000000 4.000000 1.000000 -60.708740 114.000000 149.000000 0.136029 0.023608 0.990424
-1310.00000000 230.00000000 -610.00000000 185 153 86 97.000000 1.000000 4.000000 1.000000 -60.708740 114.000000 149.000000 0.537513 0.464292 0.703926
-1350.00000000 200.00000000 -560.00000000 185 153 86 97.000000 1.000000 4.000000 1.000000 -60.708740 114.000000 149.000000 0.154399 0.389538 0.907977
-1300.00000000 150.00000000 -600.00000000 185 153 86 97.000000 1.000000 4.000000 1.000000 -60.708740 114.000000 149.000000 0.124429 -0.158924 0.979418
-1290.00000000 190.00000000 -610.00000000 185 153 86 97.000000 1.000000 4.000000 1.000000 -60.708740 114.000000 149.000000 0.259111 -0.201530 0.944588
-1280.00000000 50.00000000 -430.00000000 185 153 86 97.000000 1.000000 4.000000 1.000000 -60.708740 114.000000 149.000000 0.642724 -0.202884 0.738745
-1310.00000000 100.00000000 -520.00000000 185 153 86 97.000000 1.000000 4.000000 1.000000 -60.708740 114.000000 149.000000 0.399773 0.155072 0.903401
-1290.00000000 80.00000000 -460.00000000 185 153 86 97.000000 1.000000 4.000000 1.000000 -60.708740 114.000000 149.000000 -0.717162 0.343132 -0.606579
-1330.00000000 -30.00000000 -440.00000000 185 153 86 97.000000 1.000000 4.000000 1.000000 -60.708740 114.000000 149.000000 0.732116 -0.185715 0.655374
-1340.00000000 -10.00000000 -470.00000000 185 153 86 97.000000 1.000000 4.000000 1.000000 -60.708740 114.000000 149.000000 -0.524619 0.704488 -0.477986
-1280.00000000 -10.00000000 -450.00000000 185 153 86 97.000000 1.000000 4.000000 1.000000 -60.708740 114.000000 149.000000 0.795989 -0.217088 0.565044
