//X Y Z R G B PointSourceId ScanDirectionFlag NumberOfReturns ReturnNumber GpsTime Intensity Classification Nx Ny Nz
11830.00000000 -7050.00000000 160.00000000 80 19 206 97.000000 1.000000 4.000000 1.000000 -60.708740 114.000000 96.000000 -0.212441 0.612514 0.761378
11830.00000000 -7050.00000000 160.00000000 80 19 206 97.000000 1.000000 4.000000 1.000000 -60.708740 114.000000 96.000000 -0.212441 0.612514 0.761378
11850.00000000 -7070.00000000 170.00000000 80 19 206 97.000000 1.000000 4.000000 1.000000 -60.708740 114.000000 96.000000 -0.344380 0.507761 0.789672
11860.00000000 -7070.00000000 170.00000000 80 19 206 97.000000 1.000000 4.000000 1.000000 -60.708740 114.000000 96.000000 -0.356989 0.518523 0.776977
11790.00000000 -7060.00000000 170.00000000 80 19 206 97.000000 1.000000 4.000000 1.000000 -60.708740 114.000000 96.000000 0.745331 -0.569959 -0.345873
11810.00000000 -7050.00000000 160.00000000 80 19 206 97.000000 1.000000 4.000000 1.000000 -60.708740 114.000000 96.000000 -0.234115 0.961308 0.145177
11790.00000000 -7030.00000000 170.00000000 80 19 206 97.000000 1.000000 4.000000 1.000000 -60.708740 114.000000 96.000000 -0.276262 0.713811 0.643547
11810.00000000 -7050.00000000 160.00000000 80 19 206 97.000000 1.000000 4.000000 1.000000 -60.708740 114.000000 96.000000 -0.234115 0.961308 0.145177
11930.00000000 -7020.00000000 80.00000000 80 19 206 97.000000 1.000000 4.000000 1.000000 -60.708740 114.000000 96.000000 -0.545865 0.796119 0.261202
11880.00000000 -6970.00000000 120.00000000 80 19 206 97.000000 1.000000 4.000000 1.000000 -60.708740 114.000000 96.000000 -0.265246 0.907111 0.326794
11880.00000000 -6960.00000000 130.00000000 80 19 206 97.000000 1.000000 4.000000 1.000000 -60.708740 114.000000 96.000000 0.018304 0.962777 0.269675
11880.00000000 -7020.00000000 120.00000000 80 19 206 97.000000 1.000000 4.000000 1.000000 -60.708740 114.000000 96.000000 -0.190192 0.913780 0.358934
11910.00000000 -7000.00000000 100.00000000 80 19 206 97.000000 1.000000 4.000000 1.000000 -60.708740 114.000000 96.000000 -0.201082 0.966491 -0.159568
11950.00000000 -7090.00000000 130.00000000 80 19 206 97.000000 1.000000 4.000000 1.000000 -60.708740 114.000000 96.000000 -0.696771 0.714082 0.067802
11900.00000000 -7090.00000000 130.00000000 80 19 206 97.000000 1.000000 4.000000 1.000000 -60.708740 114.000000 96.000000 -0.588068 0.794566 0.151132
11900.00000000 -7090.00000000 60.00000000 80 19 206 97.000000 1.000000 4.000000 1.000000 -60.708740 114.000000 96.000000 0.699115 -0.670708 -0.247768
11850.00000000 -6950.00000000 110.00000000 80 19 206 97.000000 1.000000 4.000000 1.000000 -60.708740 114.000000 96.000000 -0.217764 0.974465 -0.054745
11850.00000000 -6950.00000000 100.00000000 80 19 206 97.000000 1.000000 4.000000 1.000000 -60.708740 114.000000 96.000000 -0.608082 0.770441 0.191461
11790.00000000 -7000.00000000 100.00000000 80 19 206 97.000000 1.000000 4.000000 1.000000 -60.708740 114.000000 96.000000 -0.441440 0.895181 -0.061501
11840.00000000 -7030.00000000 110.00000000 80 19 206 97.000000 1.000000 4.000000 1.000000 -60.708740 114.000000 96.000000 -0.255009 0.937822 0.235501
11790.00000000 -7100.00000000 130.00000000 80 19 206 97.000000 1.000000 4.000000 1.000000 -60.708740 114.000000 96.000000 -0.289902 0.709540 0.642270
12290.00000000 -7420.00000000 660.00000000 80 19 206 97.000000 1.000000 4.000000 1.000000 -60.708740 114.000000 96.000000 0.101628 -0.667208 0.737906
12350.00000000 -7390.00000000 660.00000000 80 19 206 97.000000 1.000000 4.000000 1.000000 -60.708740 114.000000 96.000000 0.040939 -0.394864 0.917827
12260.00000000 -7370.00000000 670.00000000 80 19 206 97.000000 1.000000 4.000000 1.000000 -60.708740 114.000000 96.000000 -0.308848 -0.465623 0.829342
12410.00000000 -7270.00000000 500.00000000 80 19 206 97.000000 1.000000 4.000000 1.000000 -60.708740 114.000000 96.000000 -0.426347 -0.314722 0.848044
12330.00000000 -7160.00000000 600.00000000 80 19 206 97.000000 1.000000 4.000000 1.000000 -60.708740 114.000000 96.000000 -0.005014 -0.023063 0.999721
12340.00000000 -7220.00000000 590.00000000 80 19 206 97.000000 1.000000 4.000000 1.000000 -60.708740 114.000000 96.000000 -0.347938 -0.160694 0.923643
12340.00000000 -7270.00000000 570.00000000 80 19 206 97.000000 1.000000 4.000000 1.000000 -60.708740 114.000000 96.000000 -0.296212 -0.610036 0.734925
12300.00000000 -7200.00000000 610.00000000 80 19 206 97.000000 1.000000 4.000000 1.000000 -60.708740 114.000000 96.000000 0.003044 0.037537 0.999291
12300.00000000 -7240.00000000 610.00000000 80 19 206 97.000000 1.000000 4.000000 1.000000 -60.708740 114.000000 96.000000 -0.196552 -0.191276 0.961655
12310.00000000 -7240.00000000 610.00000000 80 19 206 97.000000 1.000000 4.000000 1.000000 -60.708740 114.000000 96.000000 -0.221769 -0.005867 0.975082
12300.00000000 -7260.00000000 560.00000000 80 19 206 97.000000 1.000000 4.000000 1.000000 -60.708740 114.000000 96.000000 0.276465 0.656805 -0.701551
12290.00000000 -7240.00000000 520.00000000 80 19 206 97.000000 1.000000 4.000000 1.000000 -60.708740 114.000000 96.000000 0.037145 -0.212084 0.976545
12290.00000000 -7240.00000000 520.00000000 80 19 206 97.000000 1.000000 4.000000 1.000000 -60.708740 114.000000 96.000000 0.037145 -0.212084 0.976545
12450.00000000 -7150.00000000 470.00000000 80 19 206 97.000000 1.000000 4.000000 1.000000 -60.708740 114.000000 96.000000 0.071899 -0.031120 0.996926
12430.00000000 -7210.00000000 460.00000000 80 19 206 97.000000 1.000000 4.000000 1.000000 -60.708740 114.000000 96.000000 -0.039083 -0.045421 0.998203
12430.00000000 -7260.00000000 480.00000000 80 19 206 97.000000 1.000000 4.000000 1.000000 -60.708740 114.000000 96.000000 -0.324168 -0.475973 0.817536
12310.00000000 -7230.00000000 480.00000000 80 19 206 97.000000 1.000000 4.000000 1.000000 -60.708740 114.000000 96.000000 0.439889 0.542807 -0.715443
12420.00000000 -7320.00000000 550.00000000 80 19 206 97.000000 1.000000 4.000000 1.000000 -60.708740 114.000000 96.000000 0.128032 -0.353810 0.926513
12410.00000000 -7280.00000000 550.00000000 80 19 206 97.000000 1.000000 4.000000 1.000000 -60.708740 114.000000 96.000000 -0.527678 -0.497525 0.688494
12410.00000000 -7280.00000000 490.00000000 80 19 206 97.000000 1.000000 4.000000 1.000000 -60.708740 114.000000 96.000000 0.414001 0.660074 -0.626821
12390.00000000 -7320.00000000 540.00000000 80 19 206 97.000000 1.000000 4.000000 1.000000 -60.708740 114.000000 96.000000 -0.003979 -0.476151 0.879354
12390.00000000 -7410.00000000 620.00000000 80 19 206 97.000000 1.000000 4.000000 1.000000 -60.708740 114.000000 96.000000 0.081114 -0.539335 0.838175
12340.00000000 -7290.00000000 600.00000000 80 19 206 97.000000 1.000000 4.000000 1.000000 -60.708740 114.000000 96.000000 -0.313070 -0.328049 0.891275
12290.00000000 -7280.00000000 620.00000000 80 19 206 97.000000 1.000000 4.000000 1.000000 -60.708740 114.000000 96.000000 -0.131628 -0.321607 0.937680
12330.00000000 -7280.00000000 610.00000000 80 19 206 97.000000 1.000000 4.000000 1.000000 -60.708740 114.000000 96.000000 0.034405 -0.327486 0.944229
12290.00000000 -7300.00000000 610.00000000 80 19 206 97.000000 1.000000 4.000000 1.000000 -60.708740 114.000000 96.000000 -0.501122 -0.237535 0.832138
12330.00000000 -7310.00000000 600.00000000 80 19 206 97.000000 1.000000 4.000000 1.000000 -60.708740 114.000000 96.000000 -0.020338 -0.080282 0.996565
12330.00000000 -7310.00000000 600.00000000 80 19 206 97.000000 1.000000 4.000000 1.000000 -60.708740 114.000000 96.000000 -0.020338 -0.080282 0.996565
12360.00000000 -7300.00000000 510.00000000 80 19 206 97.000000 1.000000 4.000000 1.000000 -60.708740 114.000000 96.000000 0.055058 -0.406893 0.911815
12360.00000000 -7310.00000000 510.00000000 80 19 206 97.000000 1.000000 4.000000 1.000000 -60.708740 114.000000 96.000000 -0.542520 -0.333239 0.771119
12350.00000000 -7310.00000000 500.00000000 80 19 206 97.000000 1.000000 4.000000 1.000000 -60.708740 114.000000 96.000000 -0.276312 -0.365926 0.888679
12370.00000000 -7300.00000000 520.00000000 80 19 206 97.000000 1.000000 4.000000 1.000000 -60.708740 114.000000 96.000000 -0.398238 -0.243119 0.884477
12320.00000000 -7280.00000000 490.00000000 80 19 206 97.000000 1.000000 4.000000 1.000000 -60.708740 114.000000 96.000000 -0.526815 -0.212253 0.823052
12320.00000000 -7280.00000000 490.00000000 80 19 206 97.000000 1.000000 4.000000 1.000000 -60.708740 114.000000 96.000000 -0.526815 -0.212253 0.823052
12320.00000000 -7280.00000000 490.00000000 80 19 206 97.000000 1.000000 4.000000 1.000000 -60.708740 114.000000 96.000000 -0.526815 -0.212253 0.823052
12330.00000000 -7280.00000000 490.00000000 80 19 206 97.000000 1.000000 4.000000 1.000000 -60.708740 114.000000 96.000000 -0.075160 -0.540303 0.838107
12340.00000000 -7410.00000000 620.00000000 80 19 206 97.000000 1.000000 4.000000 1.000000 -60.708740 114.000000 96.000000 -0.038221 0.723373 -0.689399
12360.00000000 -7430.00000000 650.00000000 80 19 206 97.000000 1.000000 4.000000 1.000000 -60.708740 114.000000 96.000000 -0.177828 -0.600360 0.779708
12360.00000000 -7420.00000000 610.00000000 80 19 206 97.000000 1.000000 4.000000 1.000000 -60.708740 114.000000 96.000000 0.009339 -0.476305 0.879230
12330.00000000 -7390.00000000 650.00000000 80 19 206 97.000000 1.000000 4.000000 1.000000 -60.708740 114.000000 96.000000 -0.534508 -0.431909 0.726468
12320.00000000 -7370.00000000 600.00000000 80 19 206 97.000000 1.000000 4.000000 1.000000 -60.708740 114.000000 96.000000 -0.090069 -0.433718 0.896536
12330.00000000 -7410.00000000 620.00000000 80 19 206 97.000000 1.000000 4.000000 1.000000 -60.708740 114.000000 96.000000 0.169563 -0.676726 0.716443
12440.00000000 -7310.00000000 480.00000000 80 19 206 97.000000 1.000000 4.000000 1.000000 -60.708740 114.000000 96.000000 -0.184891 -0.417825 0.889515
12270.00000000 -7230.00000000 580.00000000 80 19 206 97.000000 1.000000 4.000000 1.000000 -60.708740 114.000000 96.000000 -0.524199 -0.232123 0.819350
12220.00000000 -7260.00000000 530.00000000 80 19 206 97.000000 1.000000 4.000000 1.000000 -60.708740 114.000000 96.000000 -0.329907 -0.097503 0.938965
12190.00000000 -7230.00000000 490.00000000 80 19 206 97.000000 1.000000 4.000000 1.000000 -60.708740 114.000000 96.000000 -0.174836 -0.162074 0.971167
12160.00000000 -7250.00000000 500.00000000 80 19 206 97.000000 1.000000 4.000000 1.000000 -60.708740 114.000000 96.000000 -0.232596 0.055380 0.970995
12280.00000000 -7280.00000000 620.00000000 80 19 206 97.000000 1.000000 4.000000 1.000000 -60.708740 114.000000 96.000000 -0.602730 -0.142083 0.785194
12270.00000000 -7300.00000000 600.00000000 80 19 206 97.000000 1.000000 4.000000 1.000000 -60.708740 114.000000 96.000000 -0.074112 -0.384036 0.920339
12270.00000000 -7300.00000000 600.00000000 80 19 206 97.000000 1.000000 4.000000 1.000000 -60.708740 114.000000 96.000000 -0.074112 -0.384036 0.920339
12260.00000000 -7360.00000000 630.00000000 80 19 206 97.000000 1.000000 4.000000 1.000000 -60.708740 114.000000 96.000000 0.514678 0.582177 -0.629426
12280.00000000 -7300.00000000 530.00000000 80 19 206 97.000000 1.000000 4.000000 1.000000 -60.708740 114.000000 96.000000 -0.273457 -0.465032 0.842001
12260.00000000 -7390.00000000 600.00000000 80 19 206 97.000000 1.000000 4.000000 1.000000 -60.708740 114.000000 96.000000 -0.352517 -0.078485 0.932508
12180.00000000 -7330.00000000 580.00000000 80 19 206 97.000000 1.000000 4.000000 1.000000 -60.708740 114.000000 96.000000 -0.203296 -0.560974 0.802483
12160.00000000 -7310.00000000 600.00000000 80 19 206 97.000000 1.000000 4.000000 1.000000 -60.708740 114.000000 96.000000 -0.449089 -0.353876 0.820421
12150.00000000 -7340.00000000 610.00000000 80 19 206 97.000000 1.000000 4.000000 1.000000 -60.708740 114.000000 96.000000 -0.197560 -0.176626 0.964248
12200.00000000 -7340.00000000 510.00000000 80 19 206 97.000000 1.000000 4.000000 1.000000 -60.708740 114.000000 96.000000 -0.353293 -0.362549 0.862405
12170.00000000 -7350.00000000 520.00000000 80 19 206 97.000000 1.000000 4.000000 1.000000 -60.708740 114.000000 96.000000 0.104650 0.717809 -0.688330
12180.00000000 -7400.00000000 550.00000000 80 19 206 97.000000 1.000000 4.000000 1.000000 -60.708740 114.000000 96.000000 -0.328415 -0.393173 0.858813
12280.00000000 -7390.00000000 330.00000000 80 19 206 97.000000 1.000000 4.000000 1.000000 -60.708740 114.000000 96.000000 0.294292 0.807336 -0.511470
12150.00000000 -7310.00000000 470.00000000 80 19 206 97.000000 1.000000 4.000000 1.000000 -60.708740 114.000000 96.000000 0.422666 0.561897 -0.711073
12300.00000000 -7240.00000000 150.00000000 80 19 206 97.000000 1.000000 4.000000 1.000000 -60.708740 114.000000 96.000000 -0.293767 0.872168 -0.391182
12310.00000000 -7240.00000000 80.00000000 80 19 206 97.000000 1.000000 4.000000 1.000000 -60.708740 114.000000 96.000000 -0.552956 0.617214 0.559720
12420.00000000 -7420.00000000 290.00000000 80 19 206 97.000000 1.000000 4.000000 1.000000 -60.708740 114.000000 96.000000 -0.237496 0.725070 -0.646429
12380.00000000 -7390.00000000 290.00000000 80 19 206 97.000000 1.000000 4.000000 1.000000 -60.708740 114.000000 96.000000 -0.345598 0.921124 -0.179147
12290.00000000 -7350.00000000 270.00000000 80 19 206 97.000000 1.000000 4.000000 1.000000 -60.708740 114.000000 96.000000 -0.314891 0.861725 -0.397837
12300.00000000 -7330.00000000 250.00000000 80 19 206 97.000000 1.000000 4.000000 1.000000 -60.708740 114.000000 96.000000 -0.445285 0.668762 -0.595381
12350.00000000 -7440.00000000 280.00000000 80 19 206 97.000000 1.000000 4.000000 1.000000 -60.708740 114.000000 96.000000 -0.431957 0.877273 -0.209299
12310.00000000 -7440.00000000 210.00000000 80 19 206 97.000000 1.000000 4.000000 1.000000 -60.708740 114.000000 96.000000 -0.188104 0.979355 0.074028
12280.00000000 -7250.00000000 170.00000000 80 19 206 97.000000 1.000000 4.000000 1.000000 -60.708740 114.000000 96.000000 0.083534 0.957433 -0.276306
12240.00000000 -7240.00000000 210.00000000 80 19 206 97.000000 1.000000 4.000000 1.000000 -60.708740 114.000000 96.000000 0.330506 0.752910 -0.569116
12280.00000000 -7210.00000000 40.00000000 80 19 206 97.000000 1.000000 4.000000 1.000000 -60.708740 114.000000 96.000000 -0.568658 0.397236 0.720300
12270.00000000 -7230.00000000 0.00000000 80 19 206 97.000000 1.000000 4.000000 1.000000 -60.708740 114.000000 96.000000 -0.581814 0.252485 0.773139
12210.00000000 -7270.00000000 40.00000000 80 19 206 97.000000 1.000000 4.000000 1.000000 -60.708740 114.000000 96.000000 -0.180467 0.441631 0.878860
12150.00000000 -7220.00000000 30.00000000 80 19 206 97.000000 1.000000 4.000000 1.000000 -60.708740 114.000000 96.000000 -0.650814 -0.123610 0.749107
12260.00000000 -7360.00000000 200.00000000 80 19 206 97.000000 1.000000 4.000000 1.000000 -60.708740 114.000000 96.000000 -0.174740 0.870761 -0.459609
12280.00000000 -7360.00000000 230.00000000 80 19 206 97.000000 1.000000 4.000000 1.000000 -60.708740 114.000000 96.000000 -0.138113 0.916566 -0.375276
12220.00000000 -7360.00000000 160.00000000 80 19 206 97.000000 1.000000 4.000000 1.000000 -60.708740 114.000000 96.000000 0.156988 0.975839 -0.151965
12280.00000000 -7420.00000000 150.00000000 80 19 206 97.000000 1.000000 4.000000 1.000000 -60.708740 114.000000 96.000000 -0.603278 0.797530 -0.001368
12180.00000000 -7300.00000000 280.00000000 80 19 206 97.000000 1.000000 4.000000 1.000000 -60.708740 114.000000 96.000000 -0.391315 -0.465392 0.793903
12170.00000000 -7330.00000000 280.00000000 80 19 206 97.000000 1.000000 4.000000 1.000000 -60.708740 114.000000 96.000000 -0.530123 -0.546953 0.647929
12250.00000000 -7360.00000000 120.00000000 80 19 206 97.000000 1.000000 4.000000 1.000000 -60.708740 114.000000 96.000000 -0.364434 0.921478 0.134411
12270.00000000 -7360.00000000 130.00000000 80 19 206 97.000000 1.000000 4.000000 1.000000 -60.708740 114.000000 96.000000 -0.456452 0.860179 -0.227473
12220.00000000 -7360.00000000 70.00000000 80 19 206 97.000000 1.000000 4.000000 1.000000 -60.708740 114.000000 96.000000 -0.439927 0.821091 0.363694
12150.00000000 -7290.00000000 80.00000000 80 19 206 97.000000 1.000000 4.000000 1.000000 -60.708740 114.000000 96.000000 0.020699 0.994639 0.101316
12150.00000000 -7280.00000000 70.00000000 80 19 206 97.000000 1.000000 4.000000 1.000000 -60.708740 114.000000 96.000000 -0.190209 0.798878 0.570627
12150.00000000 -7320.00000000 80.00000000 80 19 206 97.000000 1.000000 4.000000 1.000000 -60.708740 114.000000 96.000000 -0.200578 0.963559 0.176980
12140.00000000 -7280.00000000 50.00000000 80 19 206 97.000000 1.000000 4.000000 1.000000 -60.708740 114.000000 96.000000 -0.559030 0.569163 0.602942
12170.00000000 -7280.00000000 60.00000000 80 19 206 97.000000 1.000000 4.000000 1.000000 -60.708740 114.000000 96.000000 0.445483 -0.662386 -0.602320
12180.00000000 -7320.00000000 50.00000000 80 19 206 97.000000 1.000000 4.000000 1.000000 -60.708740 114.000000 96.000000 -0.017079 0.907789 0.419080
12200.00000000 -7360.00000000 60.00000000 80 19 206 97.000000 1.000000 4.000000 1.000000 -60.708740 114.000000 96.000000 0.588136 -0.655160 -0.474195
12200.00000000 -7370.00000000 130.00000000 80 19 206 97.000000 1.000000 4.000000 1.000000 -60.708740 114.000000 96.000000 0.045155 0.940518 -0.336729
12200.00000000 -7380.00000000 90.00000000 80 19 206 97.000000 1.000000 4.000000 1.000000 -60.708740 114.000000 96.000000 -0.012485 0.986286 0.164570
12150.00000000 -7370.00000000 140.00000000 80 19 206 97.000000 1.000000 4.000000 1.000000 -60.708740 114.000000 96.000000 -0.088070 0.922704 -0.375314
12150.00000000 -7410.00000000 30.00000000 80 19 206 97.000000 1.000000 4.000000 1.000000 -60.708740 114.000000 96.000000 -0.464038 0.808479 0.361982
12440.00000000 -7450.00000000 270.00000000 80 19 206 97.000000 1.000000 4.000000 1.000000 -60.708740 114.000000 96.000000 -0.247429 0.950504 -0.187938
12440.00000000 -7450.00000000 260.00000000 80 19 206 97.000000 1.000000 4.000000 1.000000 -60.708740 114.000000 96.000000 -0.469049 0.802025 -0.369796
12440.00000000 -7480.00000000 150.00000000 80 19 206 97.000000 1.000000 4.000000 1.000000 -60.708740 114.000000 96.000000 -0.399914 0.905813 0.139899
12430.00000000 -7530.00000000 280.00000000 80 19 206 97.000000 1.000000 4.000000 1.000000 -60.708740 114.000000 96.000000 -0.419692 0.735696 -0.531610
12430.00000000 -7550.00000000 250.00000000 80 19 206 97.000000 1.000000 4.000000 1.000000 -60.708740 114.000000 96.000000 -0.228380 0.947710 -0.222910
12440.00000000 -7550.00000000 240.00000000 80 19 206 97.000000 1.000000 4.000000 1.000000 -60.708740 114.000000 96.000000 -0.268379 0.958126 -0.099832
12450.00000000 -7540.00000000 250.00000000 80 19 206 97.000000 1.000000 4.000000 1.000000 -60.708740 114.000000 96.000000 -0.469987 0.881054 -0.053439
12450.00000000 -7540.00000000 250.00000000 80 19 206 97.000000 1.000000 4.000000 1.000000 -60.708740 114.000000 96.000000 -0.469987 0.881054 -0.053439
12440.00000000 -7550.00000000 230.00000000 80 19 206 97.000000 1.000000 4.000000 1.000000 -60.708740 114.000000 96.000000 -0.223282 0.951319 -0.212457
12440.00000000 -7550.00000000 230.00000000 80 19 206 97.000000 1.000000 4.000000 1.000000 -60.708740 114.000000 96.000000 -0.223282 0.951319 -0.212457
12290.00000000 -7490.00000000 260.00000000 80 19 206 97.000000 1.000000 4.000000 1.000000 -60.708740 114.000000 96.000000 -0.061491 0.773638 -0.630637
12300.00000000 -7490.00000000 250.00000000 80 19 206 97.000000 1.000000 4.000000 1.000000 -60.708740 114.000000 96.000000 -0.511395 0.823486 -0.245655
12320.00000000 -7510.00000000 220.00000000 80 19 206 97.000000 1.000000 4.000000 1.000000 -60.708740 114.000000 96.000000 -0.056339 0.995326 0.078433
12310.00000000 -7460.00000000 180.00000000 80 19 206 97.000000 1.000000 4.000000 1.000000 -60.708740 114.000000 96.000000 -0.183620 0.805802 -0.562999
12290.00000000 -7490.00000000 230.00000000 80 19 206 97.000000 1.000000 4.000000 1.000000 -60.708740 114.000000 96.000000 -0.041113 0.998308 0.041113
12390.00000000 -7520.00000000 0.00000000 80 19 206 97.000000 1.000000 4.000000 1.000000 -60.708740 114.000000 96.000000 -0.097566 0.875270 0.473692
12420.00000000 -7530.00000000 80.00000000 80 19 206 97.000000 1.000000 4.000000 1.000000 -60.708740 114.000000 96.000000 -0.198163 0.978808 0.051643
12320.00000000 -7510.00000000 20.00000000 80 19 206 97.000000 1.000000 4.000000 1.000000 -60.708740 114.000000 96.000000 -0.491481 0.870584 -0.023017
12260.00000000 -7490.00000000 160.00000000 80 19 206 97.000000 1.000000 4.000000 1.000000 -60.708740 114.000000 96.000000 -0.296563 0.926582 0.231291
12260.00000000 -7560.00000000 0.00000000 80 19 206 97.000000 1.000000 4.000000 1.000000 -60.708740 114.000000 96.000000 -0.150978 0.942590 0.297875
12250.00000000 -7560.00000000 0.00000000 80 19 206 97.000000 1.000000 4.000000 1.000000 -60.708740 114.000000 96.000000 -0.323440 0.937841 0.125857
12250.00000000 -7540.00000000 -10.00000000 80 19 206 97.000000 1.000000 4.000000 1.000000 -60.708740 114.000000 96.000000 -0.716541 0.609304 0.339585
12250.00000000 -7550.00000000 20.00000000 80 19 206 97.000000 1.000000 4.000000 1.000000 -60.708740 114.000000 96.000000 -0.121954 0.979329 -0.161374
12270.00000000 -7550.00000000 20.00000000 80 19 206 97.000000 1.000000 4.000000 1.000000 -60.708740 114.000000 96.000000 -0.430160 0.767091 0.475956
12240.00000000 -7550.00000000 10.00000000 80 19 206 97.000000 1.000000 4.000000 1.000000 -60.708740 114.000000 96.000000 -0.567003 0.819642 -0.081821
12180.00000000 -7490.00000000 60.00000000 80 19 206 97.000000 1.000000 4.000000 1.000000 -60.708740 114.000000 96.000000 -0.074325 0.917578 0.390545
12130.00000000 -7450.00000000 10.00000000 80 19 206 97.000000 1.000000 4.000000 1.000000 -60.708740 114.000000 96.000000 -0.560302 0.677380 0.476675
12060.00000000 -7250.00000000 450.00000000 80 19 206 97.000000 1.000000 4.000000 1.000000 -60.708740 114.000000 96.000000 -0.376078 0.288478 0.880537
12010.00000000 -7270.00000000 460.00000000 80 19 206 97.000000 1.000000 4.000000 1.000000 -60.708740 114.000000 96.000000 -0.556783 0.124872 0.821218
12050.00000000 -7260.00000000 450.00000000 80 19 206 97.000000 1.000000 4.000000 1.000000 -60.708740 114.000000 96.000000 -0.174346 0.203186 0.963493
12100.00000000 -7290.00000000 590.00000000 80 19 206 97.000000 1.000000 4.000000 1.000000 -60.708740 114.000000 96.000000 -0.046549 -0.397662 0.916351
12100.00000000 -7360.00000000 610.00000000 80 19 206 97.000000 1.000000 4.000000 1.000000 -60.708740 114.000000 96.000000 -0.325592 -0.108531 0.939261
12050.00000000 -7310.00000000 570.00000000 80 19 206 97.000000 1.000000 4.000000 1.000000 -60.708740 114.000000 96.000000 -0.534696 -0.335590 0.775551
12060.00000000 -7280.00000000 580.00000000 80 19 206 97.000000 1.000000 4.000000 1.000000 -60.708740 114.000000 96.000000 0.031531 -0.311526 0.949714
12050.00000000 -7290.00000000 570.00000000 80 19 206 97.000000 1.000000 4.000000 1.000000 -60.708740 114.000000 96.000000 -0.379186 0.082314 0.921652
12070.00000000 -7360.00000000 570.00000000 80 19 206 97.000000 1.000000 4.000000 1.000000 -60.708740 114.000000 96.000000 -0.240710 -0.554410 0.796673
12080.00000000 -7320.00000000 540.00000000 80 19 206 97.000000 1.000000 4.000000 1.000000 -60.708740 114.000000 96.000000 -0.063201 0.037492 0.997296
12120.00000000 -7320.00000000 490.00000000 80 19 206 97.000000 1.000000 4.000000 1.000000 -60.708740 114.000000 96.000000 -0.381568 -0.175778 0.907474
12070.00000000 -7280.00000000 530.00000000 80 19 206 97.000000 1.000000 4.000000 1.000000 -60.708740 114.000000 96.000000 -0.511909 -0.252088 0.821219
12070.00000000 -7280.00000000 530.00000000 80 19 206 97.000000 1.000000 4.000000 1.000000 -60.708740 114.000000 96.000000 -0.511909 -0.252088 0.821219
12060.00000000 -7370.00000000 600.00000000 80 19 206 97.000000 1.000000 4.000000 1.000000 -60.708740 114.000000 96.000000 -0.082325 -0.045005 0.995589
12070.00000000 -7380.00000000 570.00000000 80 19 206 97.000000 1.000000 4.000000 1.000000 -60.708740 114.000000 96.000000 -0.286482 -0.059843 0.956215
12040.00000000 -7370.00000000 560.00000000 80 19 206 97.000000 1.000000 4.000000 1.000000 -60.708740 114.000000 96.000000 0.076176 -0.134773 0.987944
12100.00000000 -7390.00000000 540.00000000 80 19 206 97.000000 1.000000 4.000000 1.000000 -60.708740 114.000000 96.000000 -0.188171 -0.340972 0.921048
12010.00000000 -7280.00000000 580.00000000 80 19 206 97.000000 1.000000 4.000000 1.000000 -60.708740 114.000000 96.000000 -0.387596 0.016852 0.921675
12020.00000000 -7310.00000000 580.00000000 80 19 206 97.000000 1.000000 4.000000 1.000000 -60.708740 114.000000 96.000000 -0.433891 -0.058487 0.899065
12010.00000000 -7280.00000000 580.00000000 80 19 206 97.000000 1.000000 4.000000 1.000000 -60.708740 114.000000 96.000000 -0.387596 0.016852 0.921675
12030.00000000 -7350.00000000 530.00000000 80 19 206 97.000000 1.000000 4.000000 1.000000 -60.708740 114.000000 96.000000 -0.586462 -0.197529 0.785522
12030.00000000 -7350.00000000 530.00000000 80 19 206 97.000000 1.000000 4.000000 1.000000 -60.708740 114.000000 96.000000 -0.586462 -0.197529 0.785522
11990.00000000 -7340.00000000 560.00000000 80 19 206 97.000000 1.000000 4.000000 1.000000 -60.708740 114.000000 96.000000 -0.214518 0.080599 0.973389
11970.00000000 -7360.00000000 500.00000000 80 19 206 97.000000 1.000000 4.000000 1.000000 -60.708740 114.000000 96.000000 -0.377974 -0.409604 0.830278
12030.00000000 -7370.00000000 590.00000000 80 19 206 97.000000 1.000000 4.000000 1.000000 -60.708740 114.000000 96.000000 0.048822 -0.534248 0.843917
12030.00000000 -7370.00000000 590.00000000 80 19 206 97.000000 1.000000 4.000000 1.000000 -60.708740 114.000000 96.000000 0.048822 -0.534248 0.843917
11980.00000000 -7370.00000000 550.00000000 80 19 206 97.000000 1.000000 4.000000 1.000000 -60.708740 114.000000 96.000000 -0.122749 -0.365489 0.922687
11990.00000000 -7380.00000000 510.00000000 80 19 206 97.000000 1.000000 4.000000 1.000000 -60.708740 114.000000 96.000000 -0.456092 -0.254740 0.852694
12020.00000000 -7300.00000000 450.00000000 80 19 206 97.000000 1.000000 4.000000 1.000000 -60.708740 114.000000 96.000000 -0.086213 -0.501731 0.860717
12000.00000000 -7300.00000000 430.00000000 80 19 206 97.000000 1.000000 4.000000 1.000000 -60.708740 114.000000 96.000000 0.540108 0.275565 -0.795203
12030.00000000 -7300.00000000 420.00000000 80 19 206 97.000000 1.000000 4.000000 1.000000 -60.708740 114.000000 96.000000 0.024054 -0.163794 0.986201
11960.00000000 -7440.00000000 330.00000000 80 19 206 97.000000 1.000000 4.000000 1.000000 -60.708740 114.000000 96.000000 -0.018769 -0.120343 0.992555
11960.00000000 -7370.00000000 360.00000000 80 19 206 97.000000 1.000000 4.000000 1.000000 -60.708740 114.000000 96.000000 0.626597 0.219231 -0.747873
11900.00000000 -7340.00000000 570.00000000 80 19 206 97.000000 1.000000 4.000000 1.000000 -60.708740 114.000000 96.000000 -0.024772 0.082931 0.996247
11950.00000000 -7340.00000000 500.00000000 80 19 206 97.000000 1.000000 4.000000 1.000000 -60.708740 114.000000 96.000000 -0.101177 -0.069346 0.992449
11940.00000000 -7340.00000000 550.00000000 80 19 206 97.000000 1.000000 4.000000 1.000000 -60.708740 114.000000 96.000000 -0.226519 -0.537790 0.812078
11950.00000000 -7380.00000000 520.00000000 80 19 206 97.000000 1.000000 4.000000 1.000000 -60.708740 114.000000 96.000000 -0.442140 -0.299414 0.845496
11920.00000000 -7430.00000000 490.00000000 80 19 206 97.000000 1.000000 4.000000 1.000000 -60.708740 114.000000 96.000000 -0.398444 -0.071585 0.914395
11830.00000000 -7340.00000000 530.00000000 80 19 206 97.000000 1.000000 4.000000 1.000000 -60.708740 114.000000 96.000000 -0.504623 -0.207607 0.838007
11840.00000000 -7330.00000000 540.00000000 80 19 206 97.000000 1.000000 4.000000 1.000000 -60.708740 114.000000 96.000000 -0.296214 0.190523 0.935926
11790.00000000 -7300.00000000 520.00000000 80 19 206 97.000000 1.000000 4.000000 1.000000 -60.708740 114.000000 96.000000 -0.500875 0.014851 0.865392
11820.00000000 -7340.00000000 540.00000000 80 19 206 97.000000 1.000000 4.000000 1.000000 -60.708740 114.000000 96.000000 -0.264788 0.072215 0.961599
11820.00000000 -7320.00000000 510.00000000 80 19 206 97.000000 1.000000 4.000000 1.000000 -60.708740 114.000000 96.000000 -0.342417 -0.280159 0.896806
11900.00000000 -7330.00000000 440.00000000 80 19 206 97.000000 1.000000 4.000000 1.000000 -60.708740 114.000000 96.000000 -0.472590 -0.469297 0.745935
11890.00000000 -7320.00000000 440.00000000 80 19 206 97.000000 1.000000 4.000000 1.000000 -60.708740 114.000000 96.000000 -0.377071 -0.496827 0.781653
11890.00000000 -7360.00000000 420.00000000 80 19 206 97.000000 1.000000 4.000000 1.000000 -60.708740 114.000000 96.000000 0.011633 -0.072971 0.997266
11900.00000000 -7330.00000000 440.00000000 80 19 206 97.000000 1.000000 4.000000 1.000000 -60.708740 114.000000 96.000000 -0.472590 -0.469297 0.745935
11880.00000000 -7350.00000000 430.00000000 80 19 206 97.000000 1.000000 4.000000 1.000000 -60.708740 114.000000 96.000000 -0.361371 -0.303914 0.881503
11870.00000000 -7360.00000000 430.00000000 80 19 206 97.000000 1.000000 4.000000 1.000000 -60.708740 114.000000 96.000000 -0.597578 0.085368 0.797253
11940.00000000 -7360.00000000 400.00000000 80 19 206 97.000000 1.000000 4.000000 1.000000 -60.708740 114.000000 96.000000 -0.493275 -0.217041 0.842362
11900.00000000 -7380.00000000 430.00000000 80 19 206 97.000000 1.000000 4.000000 1.000000 -60.708740 114.000000 96.000000 -0.189020 -0.048741 0.980763
11880.00000000 -7440.00000000 460.00000000 80 19 206 97.000000 1.000000 4.000000 1.000000 -60.708740 114.000000 96.000000 0.448950 0.595819 -0.665915
11870.00000000 -7430.00000000 460.00000000 80 19 206 97.000000 1.000000 4.000000 1.000000 -60.708740 114.000000 96.000000 -0.519561 -0.389264 0.760612
11930.00000000 -7380.00000000 400.00000000 80 19 206 97.000000 1.000000 4.000000 1.000000 -60.708740 114.000000 96.000000 -0.129583 -0.437166 0.889997
11930.00000000 -7380.00000000 400.00000000 80 19 206 97.000000 1.000000 4.000000 1.000000 -60.708740 114.000000 96.000000 -0.129583 -0.437166 0.889997
11920.00000000 -7420.00000000 320.00000000 80 19 206 97.000000 1.000000 4.000000 1.000000 -60.708740 114.000000 96.000000 -0.519181 -0.324288 0.790752
11870.00000000 -7380.00000000 370.00000000 80 19 206 97.000000 1.000000 4.000000 1.000000 -60.708740 114.000000 96.000000 -0.112591 -0.112591 0.987242
11870.00000000 -7400.00000000 370.00000000 80 19 206 97.000000 1.000000 4.000000 1.000000 -60.708740 114.000000 96.000000 -0.150341 -0.375150 0.914691
11870.00000000 -7380.00000000 400.00000000 80 19 206 97.000000 1.000000 4.000000 1.000000 -60.708740 114.000000 96.000000 -0.057901 -0.166614 0.984321
11870.00000000 -7400.00000000 400.00000000 80 19 206 97.000000 1.000000 4.000000 1.000000 -60.708740 114.000000 96.000000 -0.301634 -0.569753 0.764459
11880.00000000 -7400.00000000 370.00000000 80 19 206 97.000000 1.000000 4.000000 1.000000 -60.708740 114.000000 96.000000 -0.236008 0.017970 0.971585
11890.00000000 -7400.00000000 340.00000000 80 19 206 97.000000 1.000000 4.000000 1.000000 -60.708740 114.000000 96.000000 -0.290376 0.006126 0.956893
11850.00000000 -7330.00000000 410.00000000 80 19 206 97.000000 1.000000 4.000000 1.000000 -60.708740 114.000000 96.000000 -0.325165 -0.457116 0.827836
11850.00000000 -7360.00000000 410.00000000 80 19 206 97.000000 1.000000 4.000000 1.000000 -60.708740 114.000000 96.000000 -0.433279 -0.098916 0.895815
11860.00000000 -7350.00000000 400.00000000 80 19 206 97.000000 1.000000 4.000000 1.000000 -60.708740 114.000000 96.000000 -0.544897 -0.350869 0.761563
11830.00000000 -7380.00000000 410.00000000 80 19 206 97.000000 1.000000 4.000000 1.000000 -60.708740 114.000000 96.000000 -0.246531 -0.221740 0.943427
11850.00000000 -7370.00000000 410.00000000 80 19 206 97.000000 1.000000 4.000000 1.000000 -60.708740 114.000000 96.000000 -0.500517 -0.045502 0.864530
11850.00000000 -7380.00000000 430.00000000 80 19 206 97.000000 1.000000 4.000000 1.000000 -60.708740 114.000000 96.000000 0.050590 -0.463515 0.884644
11850.00000000 -7380.00000000 360.00000000 80 19 206 97.000000 1.000000 4.000000 1.000000 -60.708740 114.000000 96.000000 -0.351356 -0.186347 0.917509
11850.00000000 -7370.00000000 360.00000000 80 19 206 97.000000 1.000000 4.000000 1.000000 -60.708740 114.000000 96.000000 -0.382140 -0.369662 0.846947
11790.00000000 -7380.00000000 380.00000000 80 19 206 97.000000 1.000000 4.000000 1.000000 -60.708740 114.000000 96.000000 -0.221172 -0.455886 0.862120
11820.00000000 -7380.00000000 370.00000000 80 19 206 97.000000 1.000000 4.000000 1.000000 -60.708740 114.000000 96.000000 -0.627386 -0.175546 0.758664
11790.00000000 -7380.00000000 360.00000000 80 19 206 97.000000 1.000000 4.000000 1.000000 -60.708740 114.000000 96.000000 -0.176563 -0.391884 0.902913
11820.00000000 -7410.00000000 390.00000000 80 19 206 97.000000 1.000000 4.000000 1.000000 -60.708740 114.000000 96.000000 -0.038459 -0.404484 0.913736
11980.00000000 -7270.00000000 150.00000000 80 19 206 97.000000 1.000000 4.000000 1.000000 -60.708740 114.000000 96.000000 -0.418164 0.125308 0.899687
11960.00000000 -7150.00000000 60.00000000 80 19 206 97.000000 1.000000 4.000000 1.000000 -60.708740 114.000000 96.000000 -0.359355 0.902055 0.239081
11960.00000000 -7150.00000000 60.00000000 80 19 206 97.000000 1.000000 4.000000 1.000000 -60.708740 114.000000 96.000000 -0.359355 0.902055 0.239081
11970.00000000 -7260.00000000 140.00000000 80 19 206 97.000000 1.000000 4.000000 1.000000 -60.708740 114.000000 96.000000 -0.129420 0.377128 0.917074
11960.00000000 -7220.00000000 130.00000000 80 19 206 97.000000 1.000000 4.000000 1.000000 -60.708740 114.000000 96.000000 -0.319980 0.108445 0.941197
11970.00000000 -7270.00000000 140.00000000 80 19 206 97.000000 1.000000 4.000000 1.000000 -60.708740 114.000000 96.000000 -0.266998 0.154295 0.951265
11970.00000000 -7410.00000000 310.00000000 80 19 206 97.000000 1.000000 4.000000 1.000000 -60.708740 114.000000 96.000000 -0.248787 -0.577373 0.777654
12120.00000000 -7360.00000000 90.00000000 80 19 206 97.000000 1.000000 4.000000 1.000000 -60.708740 114.000000 96.000000 -0.329989 0.867182 -0.372965
12120.00000000 -7290.00000000 90.00000000 80 19 206 97.000000 1.000000 4.000000 1.000000 -60.708740 114.000000 96.000000 -0.505085 0.857070 -0.101589
12100.00000000 -7390.00000000 120.00000000 80 19 206 97.000000 1.000000 4.000000 1.000000 -60.708740 114.000000 96.000000 -0.495574 0.824921 -0.271867
12120.00000000 -7430.00000000 60.00000000 80 19 206 97.000000 1.000000 4.000000 1.000000 -60.708740 114.000000 96.000000 -0.565116 0.802739 -0.190403
12120.00000000 -7400.00000000 30.00000000 80 19 206 97.000000 1.000000 4.000000 1.000000 -60.708740 114.000000 96.000000 -0.077615 0.995875 -0.047006
12110.00000000 -7440.00000000 -10.00000000 80 19 206 97.000000 1.000000 4.000000 1.000000 -60.708740 114.000000 96.000000 -0.449990 0.859072 0.243934
12100.00000000 -7390.00000000 30.00000000 80 19 206 97.000000 1.000000 4.000000 1.000000 -60.708740 114.000000 96.000000 -0.461423 0.886312 -0.039241
12120.00000000 -7380.00000000 40.00000000 80 19 206 97.000000 1.000000 4.000000 1.000000 -60.708740 114.000000 96.000000 -0.275784 0.792682 0.543689
11960.00000000 -7290.00000000 140.00000000 80 19 206 97.000000 1.000000 4.000000 1.000000 -60.708740 114.000000 96.000000 -0.376760 -0.156631 0.912973
11920.00000000 -7200.00000000 180.00000000 80 19 206 97.000000 1.000000 4.000000 1.000000 -60.708740 114.000000 96.000000 0.643626 -0.414116 -0.643626
11940.00000000 -7240.00000000 220.00000000 80 19 206 97.000000 1.000000 4.000000 1.000000 -60.708740 114.000000 96.000000 0.680675 -0.315277 -0.661273
11920.00000000 -7270.00000000 220.00000000 80 19 206 97.000000 1.000000 4.000000 1.000000 -60.708740 114.000000 96.000000 -0.338406 0.317350 0.885873
11920.00000000 -7260.00000000 220.00000000 80 19 206 97.000000 1.000000 4.000000 1.000000 -60.708740 114.000000 96.000000 -0.383719 0.374322 0.844182
11870.00000000 -7230.00000000 180.00000000 80 19 206 97.000000 1.000000 4.000000 1.000000 -60.708740 114.000000 96.000000 0.728442 -0.402863 -0.554142
11880.00000000 -7260.00000000 220.00000000 80 19 206 97.000000 1.000000 4.000000 1.000000 -60.708740 114.000000 96.000000 0.576345 -0.342560 -0.741943
11870.00000000 -7240.00000000 200.00000000 80 19 206 97.000000 1.000000 4.000000 1.000000 -60.708740 114.000000 96.000000 -0.262011 0.332271 0.906061
11880.00000000 -7260.00000000 220.00000000 80 19 206 97.000000 1.000000 4.000000 1.000000 -60.708740 114.000000 96.000000 0.576345 -0.342560 -0.741943
11900.00000000 -7240.00000000 200.00000000 80 19 206 97.000000 1.000000 4.000000 1.000000 -60.708740 114.000000 96.000000 -0.132745 0.387058 0.912450
11890.00000000 -7260.00000000 190.00000000 80 19 206 97.000000 1.000000 4.000000 1.000000 -60.708740 114.000000 96.000000 -0.509612 0.417849 0.752129
11890.00000000 -7240.00000000 170.00000000 80 19 206 97.000000 1.000000 4.000000 1.000000 -60.708740 114.000000 96.000000 -0.484290 0.419066 0.768015
11860.00000000 -7110.00000000 180.00000000 80 19 206 97.000000 1.000000 4.000000 1.000000 -60.708740 114.000000 96.000000 -0.538096 0.296826 0.788890
11830.00000000 -7170.00000000 190.00000000 80 19 206 97.000000 1.000000 4.000000 1.000000 -60.708740 114.000000 96.000000 -0.593182 0.663361 0.456165
11850.00000000 -7190.00000000 190.00000000 80 19 206 97.000000 1.000000 4.000000 1.000000 -60.708740 114.000000 96.000000 -0.261512 0.448088 0.854885
11860.00000000 -7250.00000000 160.00000000 80 19 206 97.000000 1.000000 4.000000 1.000000 -60.708740 114.000000 96.000000 -0.060057 0.388371 0.919544
11940.00000000 -7140.00000000 80.00000000 80 19 206 97.000000 1.000000 4.000000 1.000000 -60.708740 114.000000 96.000000 -0.106369 0.965014 0.239652
11920.00000000 -7180.00000000 110.00000000 80 19 206 97.000000 1.000000 4.000000 1.000000 -60.708740 114.000000 96.000000 -0.258177 0.708007 0.657321
11940.00000000 -7180.00000000 100.00000000 80 19 206 97.000000 1.000000 4.000000 1.000000 -60.708740 114.000000 96.000000 0.591614 -0.651948 -0.474296
11900.00000000 -7130.00000000 120.00000000 80 19 206 97.000000 1.000000 4.000000 1.000000 -60.708740 114.000000 96.000000 -0.495047 0.867367 0.051022
11910.00000000 -7120.00000000 120.00000000 80 19 206 97.000000 1.000000 4.000000 1.000000 -60.708740 114.000000 96.000000 -0.158605 0.762813 0.626866
11890.00000000 -7150.00000000 140.00000000 80 19 206 97.000000 1.000000 4.000000 1.000000 -60.708740 114.000000 96.000000 -0.422738 0.451893 0.785548
11900.00000000 -7170.00000000 120.00000000 80 19 206 97.000000 1.000000 4.000000 1.000000 -60.708740 114.000000 96.000000 -0.217621 0.566432 0.794856
11880.00000000 -7170.00000000 90.00000000 80 19 206 97.000000 1.000000 4.000000 1.000000 -60.708740 114.000000 96.000000 -0.158972 0.836462 0.524460
11920.00000000 -7200.00000000 120.00000000 80 19 206 97.000000 1.000000 4.000000 1.000000 -60.708740 114.000000 96.000000 -0.254740 0.852694 0.456092
11940.00000000 -7270.00000000 140.00000000 80 19 206 97.000000 1.000000 4.000000 1.000000 -60.708740 114.000000 96.000000 -0.411974 0.486878 0.770212
11910.00000000 -7210.00000000 140.00000000 80 19 206 97.000000 1.000000 4.000000 1.000000 -60.708740 114.000000 96.000000 -0.102051 0.431971 0.896095
11900.00000000 -7230.00000000 130.00000000 80 19 206 97.000000 1.000000 4.000000 1.000000 -60.708740 114.000000 96.000000 -0.169738 0.485598 0.857545
11910.00000000 -7210.00000000 120.00000000 80 19 206 97.000000 1.000000 4.000000 1.000000 -60.708740 114.000000 96.000000 0.455439 -0.695670 -0.555535
11860.00000000 -7150.00000000 110.00000000 80 19 206 97.000000 1.000000 4.000000 1.000000 -60.708740 114.000000 96.000000 -0.461208 0.871170 0.168377
11860.00000000 -7150.00000000 110.00000000 80 19 206 97.000000 1.000000 4.000000 1.000000 -60.708740 114.000000 96.000000 -0.461208 0.871170 0.168377
11920.00000000 -7310.00000000 260.00000000 80 19 206 97.000000 1.000000 4.000000 1.000000 -60.708740 114.000000 96.000000 -0.284975 0.137805 0.948578
11950.00000000 -7360.00000000 260.00000000 80 19 206 97.000000 1.000000 4.000000 1.000000 -60.708740 114.000000 96.000000 -0.225703 -0.273367 0.935055
11880.00000000 -7330.00000000 280.00000000 80 19 206 97.000000 1.000000 4.000000 1.000000 -60.708740 114.000000 96.000000 0.633415 0.123123 -0.763955
11880.00000000 -7320.00000000 280.00000000 80 19 206 97.000000 1.000000 4.000000 1.000000 -60.708740 114.000000 96.000000 -0.390709 -0.019471 0.920308
11870.00000000 -7340.00000000 260.00000000 80 19 206 97.000000 1.000000 4.000000 1.000000 -60.708740 114.000000 96.000000 -0.307409 -0.122158 0.943704
11920.00000000 -7290.00000000 220.00000000 80 19 206 97.000000 1.000000 4.000000 1.000000 -60.708740 114.000000 96.000000 -0.301078 0.166349 0.938978
11930.00000000 -7310.00000000 190.00000000 80 19 206 97.000000 1.000000 4.000000 1.000000 -60.708740 114.000000 96.000000 -0.472439 0.156505 0.867357
11910.00000000 -7300.00000000 170.00000000 80 19 206 97.000000 1.000000 4.000000 1.000000 -60.708740 114.000000 96.000000 -0.634772 0.049703 0.771099
11890.00000000 -7330.00000000 230.00000000 80 19 206 97.000000 1.000000 4.000000 1.000000 -60.708740 114.000000 96.000000 -0.595092 -0.168079 0.785885
11950.00000000 -7370.00000000 260.00000000 80 19 206 97.000000 1.000000 4.000000 1.000000 -60.708740 114.000000 96.000000 -0.249833 -0.371054 0.894373
11910.00000000 -7440.00000000 270.00000000 80 19 206 97.000000 1.000000 4.000000 1.000000 -60.708740 114.000000 96.000000 -0.220053 -0.447591 0.866740
11820.00000000 -7350.00000000 250.00000000 80 19 206 97.000000 1.000000 4.000000 1.000000 -60.708740 114.000000 96.000000 -0.031531 -0.311526 0.949714
11820.00000000 -7350.00000000 250.00000000 80 19 206 97.000000 1.000000 4.000000 1.000000 -60.708740 114.000000 96.000000 -0.031531 -0.311526 0.949714
11850.00000000 -7310.00000000 230.00000000 80 19 206 97.000000 1.000000 4.000000 1.000000 -60.708740 114.000000 96.000000 -0.674631 -0.206267 0.708750
11830.00000000 -7280.00000000 220.00000000 80 19 206 97.000000 1.000000 4.000000 1.000000 -60.708740 114.000000 96.000000 0.683470 -0.199926 -0.702067
11810.00000000 -7350.00000000 200.00000000 80 19 206 97.000000 1.000000 4.000000 1.000000 -60.708740 114.000000 96.000000 -0.552291 -0.131077 0.823282
11810.00000000 -7340.00000000 200.00000000 80 19 206 97.000000 1.000000 4.000000 1.000000 -60.708740 114.000000 96.000000 -0.646193 -0.123297 0.753149
11820.00000000 -7410.00000000 290.00000000 80 19 206 97.000000 1.000000 4.000000 1.000000 -60.708740 114.000000 96.000000 -0.230575 -0.549357 0.803145
11800.00000000 -7420.00000000 290.00000000 80 19 206 97.000000 1.000000 4.000000 1.000000 -60.708740 114.000000 96.000000 -0.017014 -0.009007 0.999815
11820.00000000 -7410.00000000 290.00000000 80 19 206 97.000000 1.000000 4.000000 1.000000 -60.708740 114.000000 96.000000 -0.230575 -0.549357 0.803145
11850.00000000 -7420.00000000 220.00000000 80 19 206 97.000000 1.000000 4.000000 1.000000 -60.708740 114.000000 96.000000 -0.484042 -0.464218 0.741758
11950.00000000 -7290.00000000 140.00000000 80 19 206 97.000000 1.000000 4.000000 1.000000 -60.708740 114.000000 96.000000 0.032000 -0.102621 0.994206
11950.00000000 -7280.00000000 130.00000000 80 19 206 97.000000 1.000000 4.000000 1.000000 -60.708740 114.000000 96.000000 -0.161644 0.007913 0.986817
11870.00000000 -7300.00000000 130.00000000 80 19 206 97.000000 1.000000 4.000000 1.000000 -60.708740 114.000000 96.000000 0.026143 -0.044965 0.998646
12000.00000000 -7450.00000000 540.00000000 80 19 206 97.000000 1.000000 4.000000 1.000000 -60.708740 114.000000 96.000000 -0.379861 -0.453589 0.806203
12000.00000000 -7460.00000000 320.00000000 80 19 206 97.000000 1.000000 4.000000 1.000000 -60.708740 114.000000 96.000000 0.161369 -0.352205 0.921907
11850.00000000 -7470.00000000 400.00000000 80 19 206 97.000000 1.000000 4.000000 1.000000 -60.708740 114.000000 96.000000 -0.463162 -0.070511 0.883464
11940.00000000 -7450.00000000 330.00000000 80 19 206 97.000000 1.000000 4.000000 1.000000 -60.708740 114.000000 96.000000 0.010249 -0.171957 0.985051
11970.00000000 -7450.00000000 250.00000000 80 19 206 97.000000 1.000000 4.000000 1.000000 -60.708740 114.000000 96.000000 -0.204594 -0.510726 0.835045
11980.00000000 -7530.00000000 310.00000000 80 19 206 97.000000 1.000000 4.000000 1.000000 -60.708740 114.000000 96.000000 -0.261180 -0.492997 0.829903
11950.00000000 -7460.00000000 290.00000000 80 19 206 97.000000 1.000000 4.000000 1.000000 -60.708740 114.000000 96.000000 0.190700 -0.409059 0.892359
11920.00000000 -7450.00000000 300.00000000 80 19 206 97.000000 1.000000 4.000000 1.000000 -60.708740 114.000000 96.000000 -0.030458 -0.419787 0.907111
11910.00000000 -7490.00000000 210.00000000 80 19 206 97.000000 1.000000 4.000000 1.000000 -60.708740 114.000000 96.000000 -0.123823 -0.445479 0.886688
11860.00000000 -7460.00000000 210.00000000 80 19 206 97.000000 1.000000 4.000000 1.000000 -60.708740 114.000000 96.000000 0.232320 0.774919 -0.587816
11750.00000000 -7010.00000000 150.00000000 80 19 206 97.000000 1.000000 4.000000 1.000000 -60.708740 114.000000 96.000000 -0.279233 0.865163 0.416560
11730.00000000 -7020.00000000 190.00000000 80 19 206 97.000000 1.000000 4.000000 1.000000 -60.708740 114.000000 96.000000 -0.405092 0.900364 0.158888
11700.00000000 -6990.00000000 160.00000000 80 19 206 97.000000 1.000000 4.000000 1.000000 -60.708740 114.000000 96.000000 -0.159682 0.819302 0.550678
11700.00000000 -6990.00000000 150.00000000 80 19 206 97.000000 1.000000 4.000000 1.000000 -60.708740 114.000000 96.000000 -0.357076 0.857910 0.369442
11750.00000000 -7070.00000000 240.00000000 80 19 206 97.000000 1.000000 4.000000 1.000000 -60.708740 114.000000 96.000000 -0.352979 0.733611 0.580707
11710.00000000 -7100.00000000 250.00000000 80 19 206 97.000000 1.000000 4.000000 1.000000 -60.708740 114.000000 96.000000 0.709640 -0.408580 -0.573998
11750.00000000 -7050.00000000 180.00000000 80 19 206 97.000000 1.000000 4.000000 1.000000 -60.708740 114.000000 96.000000 0.611230 -0.424696 -0.667856
11750.00000000 -7050.00000000 170.00000000 80 19 206 97.000000 1.000000 4.000000 1.000000 -60.708740 114.000000 96.000000 0.511887 -0.525313 -0.679719
11780.00000000 -7100.00000000 210.00000000 80 19 206 97.000000 1.000000 4.000000 1.000000 -60.708740 114.000000 96.000000 -0.386385 0.373871 0.843165
11770.00000000 -7090.00000000 200.00000000 80 19 206 97.000000 1.000000 4.000000 1.000000 -60.708740 114.000000 96.000000 0.678985 -0.484510 -0.551570
11740.00000000 -7050.00000000 210.00000000 80 19 206 97.000000 1.000000 4.000000 1.000000 -60.708740 114.000000 96.000000 -0.305831 0.568429 0.763777
11720.00000000 -7050.00000000 160.00000000 80 19 206 97.000000 1.000000 4.000000 1.000000 -60.708740 114.000000 96.000000 -0.068992 0.913134 0.401779
11710.00000000 -7060.00000000 150.00000000 80 19 206 97.000000 1.000000 4.000000 1.000000 -60.708740 114.000000 96.000000 -0.413891 0.666548 0.620006
11740.00000000 -7050.00000000 170.00000000 80 19 206 97.000000 1.000000 4.000000 1.000000 -60.708740 114.000000 96.000000 0.725872 -0.441476 -0.527456
11730.00000000 -7100.00000000 210.00000000 80 19 206 97.000000 1.000000 4.000000 1.000000 -60.708740 114.000000 96.000000 -0.406507 0.337977 0.848837
11710.00000000 -7070.00000000 200.00000000 80 19 206 97.000000 1.000000 4.000000 1.000000 -60.708740 114.000000 96.000000 -0.164787 0.509208 0.844720
11730.00000000 -7100.00000000 210.00000000 80 19 206 97.000000 1.000000 4.000000 1.000000 -60.708740 114.000000 96.000000 -0.406507 0.337977 0.848837
11740.00000000 -7070.00000000 230.00000000 80 19 206 97.000000 1.000000 4.000000 1.000000 -60.708740 114.000000 96.000000 -0.248195 0.890231 0.381952
11740.00000000 -7090.00000000 150.00000000 80 19 206 97.000000 1.000000 4.000000 1.000000 -60.708740 114.000000 96.000000 0.145991 -0.738986 -0.657713
11740.00000000 -7100.00000000 190.00000000 80 19 206 97.000000 1.000000 4.000000 1.000000 -60.708740 114.000000 96.000000 -0.275479 0.613061 0.740451
11720.00000000 -7080.00000000 180.00000000 80 19 206 97.000000 1.000000 4.000000 1.000000 -60.708740 114.000000 96.000000 -0.520309 0.543883 0.658384
