//X Y Z R G B PointSourceId ScanDirectionFlag NumberOfReturns ReturnNumber GpsTime Intensity Classification Nx Ny Nz
1230.00000000 4910.00000000 -590.00000000 94 118 149 97.000000 1.000000 4.000000 1.000000 -60.708740 114.000000 149.000000 -0.517258 0.554326 0.652049
1230.00000000 4870.00000000 -560.00000000 94 118 149 97.000000 1.000000 4.000000 1.000000 -60.708740 114.000000 149.000000 -0.334337 0.066867 0.940078
1240.00000000 4910.00000000 -640.00000000 94 118 149 97.000000 1.000000 4.000000 1.000000 -60.708740 114.000000 149.000000 -0.332001 0.600841 0.727163
1230.00000000 4880.00000000 -610.00000000 94 118 149 97.000000 1.000000 4.000000 1.000000 -60.708740 114.000000 149.000000 -0.202759 0.719719 0.663998
1250.00000000 4890.00000000 -620.00000000 94 118 149 97.000000 1.000000 4.000000 1.000000 -60.708740 114.000000 149.000000 -0.318941 0.623311 0.713975
1240.00000000 4910.00000000 -640.00000000 94 118 149 97.000000 1.000000 4.000000 1.000000 -60.708740 114.000000 149.000000 -0.332001 0.600841 0.727163
1240.00000000 4890.00000000 -640.00000000 94 118 149 97.000000 1.000000 4.000000 1.000000 -60.708740 114.000000 149.000000 0.144287 0.292619 0.945281
1180.00000000 4870.00000000 -630.00000000 94 118 149 97.000000 1.000000 4.000000 1.000000 -60.708740 114.000000 149.000000 0.067197 0.272593 0.959780
1250.00000000 4860.00000000 -640.00000000 94 118 149 97.000000 1.000000 4.000000 1.000000 -60.708740 114.000000 149.000000 0.076525 0.242120 0.967224
1290.00000000 4830.00000000 -470.00000000 94 118 149 97.000000 1.000000 4.000000 1.000000 -60.708740 114.000000 149.000000 0.852531 -0.371138 -0.368032
1260.00000000 4810.00000000 -490.00000000 94 118 149 97.000000 1.000000 4.000000 1.000000 -60.708740 114.000000 149.000000 0.665939 -0.394937 -0.632890
1270.00000000 4700.00000000 -510.00000000 94 118 149 97.000000 1.000000 4.000000 1.000000 -60.708740 114.000000 149.000000 0.446544 -0.532865 -0.718786
1260.00000000 4750.00000000 -500.00000000 94 118 149 97.000000 1.000000 4.000000 1.000000 -60.708740 114.000000 149.000000 -0.327214 0.749529 0.575445
1180.00000000 4830.00000000 -500.00000000 94 118 149 97.000000 1.000000 4.000000 1.000000 -60.708740 114.000000 149.000000 0.717295 -0.500942 -0.484299
1260.00000000 4810.00000000 -580.00000000 94 118 149 97.000000 1.000000 4.000000 1.000000 -60.708740 114.000000 149.000000 -0.500205 0.645045 0.577678
1250.00000000 4830.00000000 -640.00000000 94 118 149 97.000000 1.000000 4.000000 1.000000 -60.708740 114.000000 149.000000 -0.039924 0.507999 0.860432
1010.00000000 4860.00000000 -460.00000000 94 118 149 97.000000 1.000000 4.000000 1.000000 -60.708740 114.000000 149.000000 0.332174 -0.317143 0.888302
1050.00000000 4960.00000000 -590.00000000 94 118 149 97.000000 1.000000 4.000000 1.000000 -60.708740 114.000000 149.000000 0.574738 -0.128540 0.808179
1050.00000000 4960.00000000 -610.00000000 94 118 149 97.000000 1.000000 4.000000 1.000000 -60.708740 114.000000 149.000000 0.243910 -0.018023 0.969630
1050.00000000 4880.00000000 -670.00000000 94 118 149 97.000000 1.000000 4.000000 1.000000 -60.708740 114.000000 149.000000 0.541149 0.037368 0.840096
1020.00000000 4870.00000000 -650.00000000 94 118 149 97.000000 1.000000 4.000000 1.000000 -60.708740 114.000000 149.000000 0.477314 0.082585 0.874843
1030.00000000 4860.00000000 -650.00000000 94 118 149 97.000000 1.000000 4.000000 1.000000 -60.708740 114.000000 149.000000 0.240355 0.291555 0.925865
1170.00000000 4700.00000000 -490.00000000 94 118 149 97.000000 1.000000 4.000000 1.000000 -60.708740 114.000000 149.000000 0.716963 -0.422230 -0.554694
1150.00000000 4830.00000000 -670.00000000 94 118 149 97.000000 1.000000 4.000000 1.000000 -60.708740 114.000000 149.000000 0.217016 0.258484 0.941324
1050.00000000 4790.00000000 -680.00000000 94 118 149 97.000000 1.000000 4.000000 1.000000 -60.708740 114.000000 149.000000 -0.132032 -0.101105 0.986076
1070.00000000 4770.00000000 -690.00000000 94 118 149 97.000000 1.000000 4.000000 1.000000 -60.708740 114.000000 149.000000 0.364831 0.216573 0.905536
1040.00000000 4830.00000000 -660.00000000 94 118 149 97.000000 1.000000 4.000000 1.000000 -60.708740 114.000000 149.000000 0.282187 0.285082 0.916023
1040.00000000 4790.00000000 -680.00000000 94 118 149 97.000000 1.000000 4.000000 1.000000 -60.708740 114.000000 149.000000 0.105182 0.151123 0.982903
1040.00000000 4750.00000000 -690.00000000 94 118 149 97.000000 1.000000 4.000000 1.000000 -60.708740 114.000000 149.000000 0.165715 0.232001 0.958496
1330.00000000 4640.00000000 -180.00000000 94 118 149 97.000000 1.000000 4.000000 1.000000 -60.708740 114.000000 149.000000 0.908420 -0.228195 0.350287
1200.00000000 4650.00000000 -150.00000000 94 118 149 97.000000 1.000000 4.000000 1.000000 -60.708740 114.000000 149.000000 0.474252 -0.064985 0.877988
1240.00000000 4520.00000000 -140.00000000 94 118 149 97.000000 1.000000 4.000000 1.000000 -60.708740 114.000000 149.000000 0.580485 -0.154496 0.799480
1250.00000000 4520.00000000 -160.00000000 94 118 149 97.000000 1.000000 4.000000 1.000000 -60.708740 114.000000 149.000000 0.894121 -0.287130 0.343664
1340.00000000 4640.00000000 -340.00000000 94 118 149 97.000000 1.000000 4.000000 1.000000 -60.708740 114.000000 149.000000 0.959035 -0.273828 -0.072596
1340.00000000 4650.00000000 -310.00000000 94 118 149 97.000000 1.000000 4.000000 1.000000 -60.708740 114.000000 149.000000 0.706113 -0.706113 -0.052994
1320.00000000 4560.00000000 -190.00000000 94 118 149 97.000000 1.000000 4.000000 1.000000 -60.708740 114.000000 149.000000 0.638678 -0.312063 0.703354
1320.00000000 4560.00000000 -190.00000000 94 118 149 97.000000 1.000000 4.000000 1.000000 -60.708740 114.000000 149.000000 0.638678 -0.312063 0.703354
1320.00000000 4580.00000000 -200.00000000 94 118 149 97.000000 1.000000 4.000000 1.000000 -60.708740 114.000000 149.000000 0.787576 -0.491229 0.372045
1220.00000000 4640.00000000 -350.00000000 94 118 149 97.000000 1.000000 4.000000 1.000000 -60.708740 114.000000 149.000000 0.797582 -0.591944 0.116039
1240.00000000 4550.00000000 -200.00000000 94 118 149 97.000000 1.000000 4.000000 1.000000 -60.708740 114.000000 149.000000 0.715617 -0.133522 0.685612
1240.00000000 4580.00000000 -330.00000000 94 118 149 97.000000 1.000000 4.000000 1.000000 -60.708740 114.000000 149.000000 -0.586519 0.801135 0.119068
1230.00000000 4570.00000000 -340.00000000 94 118 149 97.000000 1.000000 4.000000 1.000000 -60.708740 114.000000 149.000000 0.866799 -0.497074 -0.039711
1210.00000000 4560.00000000 -290.00000000 94 118 149 97.000000 1.000000 4.000000 1.000000 -60.708740 114.000000 149.000000 0.842610 -0.520220 0.139214
1230.00000000 4570.00000000 -310.00000000 94 118 149 97.000000 1.000000 4.000000 1.000000 -60.708740 114.000000 149.000000 0.851332 -0.390648 0.350182
1320.00000000 4470.00000000 -160.00000000 94 118 149 97.000000 1.000000 4.000000 1.000000 -60.708740 114.000000 149.000000 0.862722 -0.453193 0.224338
1320.00000000 4470.00000000 -160.00000000 94 118 149 97.000000 1.000000 4.000000 1.000000 -60.708740 114.000000 149.000000 0.862722 -0.453193 0.224338
1230.00000000 4430.00000000 -140.00000000 94 118 149 97.000000 1.000000 4.000000 1.000000 -60.708740 114.000000 149.000000 -0.597445 0.463564 -0.654345
1240.00000000 4500.00000000 -140.00000000 94 118 149 97.000000 1.000000 4.000000 1.000000 -60.708740 114.000000 149.000000 0.607388 -0.566782 0.556631
1330.00000000 4480.00000000 -210.00000000 94 118 149 97.000000 1.000000 4.000000 1.000000 -60.708740 114.000000 149.000000 0.573861 -0.753896 0.319883
1290.00000000 4360.00000000 -270.00000000 94 118 149 97.000000 1.000000 4.000000 1.000000 -60.708740 114.000000 149.000000 0.657312 -0.573257 0.489201
1110.00000000 4670.00000000 -130.00000000 94 118 149 97.000000 1.000000 4.000000 1.000000 -60.708740 114.000000 149.000000 0.733055 0.015359 0.679996
1120.00000000 4680.00000000 -140.00000000 94 118 149 97.000000 1.000000 4.000000 1.000000 -60.708740 114.000000 149.000000 0.164365 -0.166913 0.972175
1120.00000000 4680.00000000 -130.00000000 94 118 149 97.000000 1.000000 4.000000 1.000000 -60.708740 114.000000 149.000000 0.385206 0.204959 0.899782
1040.00000000 4660.00000000 -90.00000000 94 118 149 97.000000 1.000000 4.000000 1.000000 -60.708740 114.000000 149.000000 0.284463 -0.233515 0.929813
1040.00000000 4600.00000000 -110.00000000 94 118 149 97.000000 1.000000 4.000000 1.000000 -60.708740 114.000000 149.000000 0.492084 0.200144 0.847228
1030.00000000 4630.00000000 -110.00000000 94 118 149 97.000000 1.000000 4.000000 1.000000 -60.708740 114.000000 149.000000 0.153956 -0.205706 0.966428
1070.00000000 4550.00000000 -50.00000000 94 118 149 97.000000 1.000000 4.000000 1.000000 -60.708740 114.000000 149.000000 0.057901 -0.166614 0.984321
1020.00000000 4560.00000000 -160.00000000 94 118 149 97.000000 1.000000 4.000000 1.000000 -60.708740 114.000000 149.000000 0.661268 -0.082840 0.745562
1020.00000000 4530.00000000 -160.00000000 94 118 149 97.000000 1.000000 4.000000 1.000000 -60.708740 114.000000 149.000000 0.772122 -0.029428 0.634793
1270.00000000 4620.00000000 -460.00000000 94 118 149 97.000000 1.000000 4.000000 1.000000 -60.708740 114.000000 149.000000 -0.685051 0.717886 0.123876
1300.00000000 4610.00000000 -500.00000000 94 118 149 97.000000 1.000000 4.000000 1.000000 -60.708740 114.000000 149.000000 0.685079 -0.694442 -0.220037
1300.00000000 4590.00000000 -370.00000000 94 118 149 97.000000 1.000000 4.000000 1.000000 -60.708740 114.000000 149.000000 0.878571 -0.451629 -0.155384
1280.00000000 4590.00000000 -450.00000000 94 118 149 97.000000 1.000000 4.000000 1.000000 -60.708740 114.000000 149.000000 0.789415 -0.493585 -0.364964
1280.00000000 4550.00000000 -450.00000000 94 118 149 97.000000 1.000000 4.000000 1.000000 -60.708740 114.000000 149.000000 -0.538740 0.822446 0.182598
1220.00000000 4640.00000000 -370.00000000 94 118 149 97.000000 1.000000 4.000000 1.000000 -60.708740 114.000000 149.000000 0.883869 -0.459388 0.087968
1180.00000000 4650.00000000 -370.00000000 94 118 149 97.000000 1.000000 4.000000 1.000000 -60.708740 114.000000 149.000000 0.772933 -0.584795 -0.246147
1190.00000000 4610.00000000 -510.00000000 94 118 149 97.000000 1.000000 4.000000 1.000000 -60.708740 114.000000 149.000000 0.775263 -0.411198 -0.479461
1220.00000000 4530.00000000 -360.00000000 94 118 149 97.000000 1.000000 4.000000 1.000000 -60.708740 114.000000 149.000000 0.902494 -0.429186 -0.036100
1320.00000000 4650.00000000 -680.00000000 94 118 149 97.000000 1.000000 4.000000 1.000000 -60.708740 114.000000 149.000000 0.787763 -0.454541 -0.415719
1160.00000000 4680.00000000 -460.00000000 94 118 149 97.000000 1.000000 4.000000 1.000000 -60.708740 114.000000 149.000000 -0.547508 0.822008 0.156644
1090.00000000 4650.00000000 -590.00000000 94 118 149 97.000000 1.000000 4.000000 1.000000 -60.708740 114.000000 149.000000 0.582688 -0.445781 -0.679524
1090.00000000 4620.00000000 -580.00000000 94 118 149 97.000000 1.000000 4.000000 1.000000 -60.708740 114.000000 149.000000 -0.366766 0.153170 0.917617
1110.00000000 4630.00000000 -620.00000000 94 118 149 97.000000 1.000000 4.000000 1.000000 -60.708740 114.000000 149.000000 -0.301582 0.556889 0.773901
1110.00000000 4570.00000000 -570.00000000 94 118 149 97.000000 1.000000 4.000000 1.000000 -60.708740 114.000000 149.000000 -0.195222 0.757831 0.622559
1110.00000000 4550.00000000 -530.00000000 94 118 149 97.000000 1.000000 4.000000 1.000000 -60.708740 114.000000 149.000000 -0.448691 0.785614 0.426013
1050.00000000 4600.00000000 -630.00000000 94 118 149 97.000000 1.000000 4.000000 1.000000 -60.708740 114.000000 149.000000 -0.006268 0.337203 0.941411
1060.00000000 4650.00000000 -660.00000000 94 118 149 97.000000 1.000000 4.000000 1.000000 -60.708740 114.000000 149.000000 -0.152151 0.616135 0.772805
1060.00000000 4660.00000000 -620.00000000 94 118 149 97.000000 1.000000 4.000000 1.000000 -60.708740 114.000000 149.000000 0.389793 -0.583867 -0.712153
1020.00000000 4670.00000000 -610.00000000 94 118 149 97.000000 1.000000 4.000000 1.000000 -60.708740 114.000000 149.000000 0.185775 0.157588 0.969873
1050.00000000 4530.00000000 -600.00000000 94 118 149 97.000000 1.000000 4.000000 1.000000 -60.708740 114.000000 149.000000 -0.173907 0.202674 0.963680
1080.00000000 4550.00000000 -590.00000000 94 118 149 97.000000 1.000000 4.000000 1.000000 -60.708740 114.000000 149.000000 -0.383441 0.051745 0.922115
1050.00000000 4560.00000000 -580.00000000 94 118 149 97.000000 1.000000 4.000000 1.000000 -60.708740 114.000000 149.000000 0.060403 0.307156 0.949740
1070.00000000 4550.00000000 -610.00000000 94 118 149 97.000000 1.000000 4.000000 1.000000 -60.708740 114.000000 149.000000 -0.679524 0.445781 0.582688
1450.00000000 4950.00000000 -700.00000000 94 118 149 97.000000 1.000000 4.000000 1.000000 -60.708740 114.000000 149.000000 -0.524530 0.356680 0.773077
1430.00000000 4980.00000000 -720.00000000 94 118 149 97.000000 1.000000 4.000000 1.000000 -60.708740 114.000000 149.000000 -0.449468 0.535713 0.714836
1440.00000000 4910.00000000 -830.00000000 94 118 149 97.000000 1.000000 4.000000 1.000000 -60.708740 114.000000 149.000000 0.437251 -0.509852 -0.740852
1380.00000000 5010.00000000 -850.00000000 94 118 149 97.000000 1.000000 4.000000 1.000000 -60.708740 114.000000 149.000000 -0.185116 0.415417 0.890596
1400.00000000 4890.00000000 -820.00000000 94 118 149 97.000000 1.000000 4.000000 1.000000 -60.708740 114.000000 149.000000 -0.514730 0.288060 0.807512
1430.00000000 4980.00000000 -890.00000000 94 118 149 97.000000 1.000000 4.000000 1.000000 -60.708740 114.000000 149.000000 -0.177647 0.264436 0.947901
1460.00000000 4960.00000000 -950.00000000 94 118 149 97.000000 1.000000 4.000000 1.000000 -60.708740 114.000000 149.000000 -0.192550 0.386548 0.901945
1390.00000000 5000.00000000 -880.00000000 94 118 149 97.000000 1.000000 4.000000 1.000000 -60.708740 114.000000 149.000000 -0.324108 -0.066384 0.943688
1390.00000000 4950.00000000 -970.00000000 94 118 149 97.000000 1.000000 4.000000 1.000000 -60.708740 114.000000 149.000000 -0.506297 0.336999 0.793785
1360.00000000 4980.00000000 -1010.00000000 94 118 149 97.000000 1.000000 4.000000 1.000000 -60.708740 114.000000 149.000000 -0.294106 0.081624 0.952281
1420.00000000 4930.00000000 -880.00000000 94 118 149 97.000000 1.000000 4.000000 1.000000 -60.708740 114.000000 149.000000 -0.316692 0.353058 0.880373
1410.00000000 4870.00000000 -920.00000000 94 118 149 97.000000 1.000000 4.000000 1.000000 -60.708740 114.000000 149.000000 -0.573367 0.273257 0.772387
1360.00000000 4890.00000000 -940.00000000 94 118 149 97.000000 1.000000 4.000000 1.000000 -60.708740 114.000000 149.000000 -0.061041 0.427288 0.902053
1360.00000000 4830.00000000 -920.00000000 94 118 149 97.000000 1.000000 4.000000 1.000000 -60.708740 114.000000 149.000000 0.100148 0.329819 0.938717
1350.00000000 4820.00000000 -910.00000000 94 118 149 97.000000 1.000000 4.000000 1.000000 -60.708740 114.000000 149.000000 -0.362626 0.311039 0.878497
1370.00000000 4830.00000000 -910.00000000 94 118 149 97.000000 1.000000 4.000000 1.000000 -60.708740 114.000000 149.000000 -0.052409 0.593495 0.803130
1380.00000000 4810.00000000 -920.00000000 94 118 149 97.000000 1.000000 4.000000 1.000000 -60.708740 114.000000 149.000000 -0.098567 0.295700 0.950182
1410.00000000 4830.00000000 -900.00000000 94 118 149 97.000000 1.000000 4.000000 1.000000 -60.708740 114.000000 149.000000 -0.409215 0.527542 0.744475
1380.00000000 4820.00000000 -960.00000000 94 118 149 97.000000 1.000000 4.000000 1.000000 -60.708740 114.000000 149.000000 -0.268465 0.259942 0.927554
1370.00000000 4830.00000000 -970.00000000 94 118 149 97.000000 1.000000 4.000000 1.000000 -60.708740 114.000000 149.000000 -0.219384 0.614586 0.757730
1330.00000000 4960.00000000 -720.00000000 94 118 149 97.000000 1.000000 4.000000 1.000000 -60.708740 114.000000 149.000000 -0.086532 0.416179 0.905156
1340.00000000 5010.00000000 -700.00000000 94 118 149 97.000000 1.000000 4.000000 1.000000 -60.708740 114.000000 149.000000 -0.238464 0.568884 0.787087
1290.00000000 4980.00000000 -1020.00000000 94 118 149 97.000000 1.000000 4.000000 1.000000 -60.708740 114.000000 149.000000 -0.320361 0.445380 0.836065
1300.00000000 5010.00000000 -970.00000000 94 118 149 97.000000 1.000000 4.000000 1.000000 -60.708740 114.000000 149.000000 0.371295 0.174978 0.911879
1300.00000000 4940.00000000 -980.00000000 94 118 149 97.000000 1.000000 4.000000 1.000000 -60.708740 114.000000 149.000000 0.172954 0.191160 0.966201
1320.00000000 4980.00000000 -970.00000000 94 118 149 97.000000 1.000000 4.000000 1.000000 -60.708740 114.000000 149.000000 0.191939 -0.031794 0.980892
1310.00000000 4960.00000000 -960.00000000 94 118 149 97.000000 1.000000 4.000000 1.000000 -60.708740 114.000000 149.000000 0.144069 0.221945 0.964357
1260.00000000 4800.00000000 -810.00000000 94 118 149 97.000000 1.000000 4.000000 1.000000 -60.708740 114.000000 149.000000 0.517151 -0.513804 -0.684514
1300.00000000 4710.00000000 -750.00000000 94 118 149 97.000000 1.000000 4.000000 1.000000 -60.708740 114.000000 149.000000 0.681618 -0.448302 -0.578292
1260.00000000 4700.00000000 -750.00000000 94 118 149 97.000000 1.000000 4.000000 1.000000 -60.708740 114.000000 149.000000 -0.059800 0.378731 0.923573
1180.00000000 4850.00000000 -740.00000000 94 118 149 97.000000 1.000000 4.000000 1.000000 -60.708740 114.000000 149.000000 0.054155 0.373804 0.925925
1200.00000000 4800.00000000 -810.00000000 94 118 149 97.000000 1.000000 4.000000 1.000000 -60.708740 114.000000 149.000000 -0.243363 0.373157 0.895281
1200.00000000 4750.00000000 -760.00000000 94 118 149 97.000000 1.000000 4.000000 1.000000 -60.708740 114.000000 149.000000 -0.429612 0.232021 0.872697
1220.00000000 4760.00000000 -750.00000000 94 118 149 97.000000 1.000000 4.000000 1.000000 -60.708740 114.000000 149.000000 -0.160845 0.436166 0.885374
1220.00000000 4750.00000000 -740.00000000 94 118 149 97.000000 1.000000 4.000000 1.000000 -60.708740 114.000000 149.000000 -0.070833 0.660629 0.747364
1290.00000000 4800.00000000 -870.00000000 94 118 149 97.000000 1.000000 4.000000 1.000000 -60.708740 114.000000 149.000000 -0.268905 0.673059 0.688971
1340.00000000 4820.00000000 -910.00000000 94 118 149 97.000000 1.000000 4.000000 1.000000 -60.708740 114.000000 149.000000 -0.227628 0.047473 0.972590
1140.00000000 4840.00000000 -770.00000000 94 118 149 97.000000 1.000000 4.000000 1.000000 -60.708740 114.000000 149.000000 0.384266 0.085543 0.919251
1120.00000000 4820.00000000 -730.00000000 94 118 149 97.000000 1.000000 4.000000 1.000000 -60.708740 114.000000 149.000000 0.256837 0.317782 0.912715
1120.00000000 4850.00000000 -740.00000000 94 118 149 97.000000 1.000000 4.000000 1.000000 -60.708740 114.000000 149.000000 -0.037145 -0.212084 0.976545
1100.00000000 4800.00000000 -720.00000000 94 118 149 97.000000 1.000000 4.000000 1.000000 -60.708740 114.000000 149.000000 0.035637 -0.072353 0.996742
1100.00000000 4800.00000000 -720.00000000 94 118 149 97.000000 1.000000 4.000000 1.000000 -60.708740 114.000000 149.000000 0.035637 -0.072353 0.996742
1140.00000000 4790.00000000 -790.00000000 94 118 149 97.000000 1.000000 4.000000 1.000000 -60.708740 114.000000 149.000000 0.259411 0.035654 0.965109
1170.00000000 4740.00000000 -720.00000000 94 118 149 97.000000 1.000000 4.000000 1.000000 -60.708740 114.000000 149.000000 -0.352010 0.295089 0.888263
1080.00000000 4820.00000000 -700.00000000 94 118 149 97.000000 1.000000 4.000000 1.000000 -60.708740 114.000000 149.000000 -0.043225 0.098643 0.994184
1070.00000000 4830.00000000 -760.00000000 94 118 149 97.000000 1.000000 4.000000 1.000000 -60.708740 114.000000 149.000000 0.389087 0.385937 0.836459
1250.00000000 4680.00000000 -740.00000000 94 118 149 97.000000 1.000000 4.000000 1.000000 -60.708740 114.000000 149.000000 0.132544 -0.511241 -0.849155
970.00000000 5530.00000000 -230.00000000 94 118 149 97.000000 1.000000 4.000000 1.000000 -60.708740 114.000000 149.000000 -0.641401 0.286311 0.711780
1000.00000000 5600.00000000 -340.00000000 94 118 149 97.000000 1.000000 4.000000 1.000000 -60.708740 114.000000 149.000000 -0.592106 0.740535 0.317833
970.00000000 5510.00000000 -320.00000000 94 118 149 97.000000 1.000000 4.000000 1.000000 -60.708740 114.000000 149.000000 -0.714707 0.691032 -0.108020
940.00000000 5510.00000000 -380.00000000 94 118 149 97.000000 1.000000 4.000000 1.000000 -60.708740 114.000000 149.000000 0.762686 -0.494848 -0.416456
990.00000000 5360.00000000 -460.00000000 94 118 149 97.000000 1.000000 4.000000 1.000000 -60.708740 114.000000 149.000000 -0.570051 0.806450 0.157101
940.00000000 5380.00000000 -520.00000000 94 118 149 97.000000 1.000000 4.000000 1.000000 -60.708740 114.000000 149.000000 0.744209 -0.603973 0.285254
980.00000000 5280.00000000 -70.00000000 94 118 149 97.000000 1.000000 4.000000 1.000000 -60.708740 114.000000 149.000000 0.393830 -0.419341 -0.817955
950.00000000 5280.00000000 -110.00000000 94 118 149 97.000000 1.000000 4.000000 1.000000 -60.708740 114.000000 149.000000 -0.402256 0.793205 0.457183
990.00000000 5190.00000000 -40.00000000 94 118 149 97.000000 1.000000 4.000000 1.000000 -60.708740 114.000000 149.000000 -0.405897 0.377468 0.832325
980.00000000 5190.00000000 -50.00000000 94 118 149 97.000000 1.000000 4.000000 1.000000 -60.708740 114.000000 149.000000 -0.353137 0.484165 0.800549
950.00000000 5200.00000000 -60.00000000 94 118 149 97.000000 1.000000 4.000000 1.000000 -60.708740 114.000000 149.000000 -0.308694 0.654560 0.690116
920.00000000 5190.00000000 -80.00000000 94 118 149 97.000000 1.000000 4.000000 1.000000 -60.708740 114.000000 149.000000 0.647709 -0.583779 -0.489567
940.00000000 5240.00000000 -150.00000000 94 118 149 97.000000 1.000000 4.000000 1.000000 -60.708740 114.000000 149.000000 0.699997 -0.631784 -0.332945
920.00000000 5170.00000000 -70.00000000 94 118 149 97.000000 1.000000 4.000000 1.000000 -60.708740 114.000000 149.000000 -0.644791 0.169200 0.745396
880.00000000 5080.00000000 -100.00000000 94 118 149 97.000000 1.000000 4.000000 1.000000 -60.708740 114.000000 149.000000 -0.586239 0.292321 0.755561
840.00000000 5080.00000000 -100.00000000 94 118 149 97.000000 1.000000 4.000000 1.000000 -60.708740 114.000000 149.000000 -0.496972 0.635113 0.591312
880.00000000 5050.00000000 -160.00000000 94 118 149 97.000000 1.000000 4.000000 1.000000 -60.708740 114.000000 149.000000 0.591835 -0.435124 -0.678527
870.00000000 5030.00000000 -120.00000000 94 118 149 97.000000 1.000000 4.000000 1.000000 -60.708740 114.000000 149.000000 0.655359 -0.460930 -0.598371
870.00000000 5050.00000000 -130.00000000 94 118 149 97.000000 1.000000 4.000000 1.000000 -60.708740 114.000000 149.000000 0.654045 -0.460006 -0.600517
870.00000000 5040.00000000 -130.00000000 94 118 149 97.000000 1.000000 4.000000 1.000000 -60.708740 114.000000 149.000000 0.761546 -0.273903 -0.587388
990.00000000 5130.00000000 -300.00000000 94 118 149 97.000000 1.000000 4.000000 1.000000 -60.708740 114.000000 149.000000 0.801951 -0.528879 -0.277779
960.00000000 5120.00000000 -280.00000000 94 118 149 97.000000 1.000000 4.000000 1.000000 -60.708740 114.000000 149.000000 0.597448 -0.624375 -0.503202
990.00000000 5130.00000000 -300.00000000 94 118 149 97.000000 1.000000 4.000000 1.000000 -60.708740 114.000000 149.000000 0.801951 -0.528879 -0.277779
930.00000000 5120.00000000 -330.00000000 94 118 149 97.000000 1.000000 4.000000 1.000000 -60.708740 114.000000 149.000000 0.907111 -0.417943 -0.049723
920.00000000 5080.00000000 -310.00000000 94 118 149 97.000000 1.000000 4.000000 1.000000 -60.708740 114.000000 149.000000 -0.495884 0.855729 0.147741
900.00000000 5040.00000000 -200.00000000 94 118 149 97.000000 1.000000 4.000000 1.000000 -60.708740 114.000000 149.000000 0.635398 -0.678086 -0.369417
890.00000000 5040.00000000 -310.00000000 94 118 149 97.000000 1.000000 4.000000 1.000000 -60.708740 114.000000 149.000000 -0.611546 0.638354 0.467456
840.00000000 5030.00000000 -340.00000000 94 118 149 97.000000 1.000000 4.000000 1.000000 -60.708740 114.000000 149.000000 -0.549137 0.835405 0.023397
870.00000000 5060.00000000 -320.00000000 94 118 149 97.000000 1.000000 4.000000 1.000000 -60.708740 114.000000 149.000000 0.874152 -0.372465 -0.311654
790.00000000 5080.00000000 -50.00000000 94 118 149 97.000000 1.000000 4.000000 1.000000 -60.708740 114.000000 149.000000 -0.217934 0.507498 0.833637
1000.00000000 5340.00000000 -490.00000000 94 118 149 97.000000 1.000000 4.000000 1.000000 -60.708740 114.000000 149.000000 -0.670988 0.725515 0.152979
990.00000000 5300.00000000 -470.00000000 94 118 149 97.000000 1.000000 4.000000 1.000000 -60.708740 114.000000 149.000000 0.812404 -0.432537 0.391039
960.00000000 5350.00000000 -490.00000000 94 118 149 97.000000 1.000000 4.000000 1.000000 -60.708740 114.000000 149.000000 -0.526243 0.843431 -0.108132
930.00000000 5190.00000000 -400.00000000 94 118 149 97.000000 1.000000 4.000000 1.000000 -60.708740 114.000000 149.000000 0.913121 -0.338995 0.226477
960.00000000 5210.00000000 -430.00000000 94 118 149 97.000000 1.000000 4.000000 1.000000 -60.708740 114.000000 149.000000 0.787454 -0.570011 -0.234528
960.00000000 5190.00000000 -410.00000000 94 118 149 97.000000 1.000000 4.000000 1.000000 -60.708740 114.000000 149.000000 -0.561624 0.806862 0.183171
980.00000000 5260.00000000 -480.00000000 94 118 149 97.000000 1.000000 4.000000 1.000000 -60.708740 114.000000 149.000000 0.790828 -0.563989 0.237714
970.00000000 5260.00000000 -490.00000000 94 118 149 97.000000 1.000000 4.000000 1.000000 -60.708740 114.000000 149.000000 0.751427 -0.613378 0.243155
970.00000000 5240.00000000 -500.00000000 94 118 149 97.000000 1.000000 4.000000 1.000000 -60.708740 114.000000 149.000000 0.684591 -0.473690 0.554033
990.00000000 5190.00000000 -480.00000000 94 118 149 97.000000 1.000000 4.000000 1.000000 -60.708740 114.000000 149.000000 -0.643272 0.765536 0.012504
980.00000000 5140.00000000 -390.00000000 94 118 149 97.000000 1.000000 4.000000 1.000000 -60.708740 114.000000 149.000000 0.710132 -0.676096 -0.196485
990.00000000 5090.00000000 -420.00000000 94 118 149 97.000000 1.000000 4.000000 1.000000 -60.708740 114.000000 149.000000 0.663977 -0.647501 -0.374002
940.00000000 5100.00000000 -430.00000000 94 118 149 97.000000 1.000000 4.000000 1.000000 -60.708740 114.000000 149.000000 0.904000 -0.384957 0.185990
890.00000000 5110.00000000 -380.00000000 94 118 149 97.000000 1.000000 4.000000 1.000000 -60.708740 114.000000 149.000000 0.620430 -0.673373 -0.402039
880.00000000 5100.00000000 -400.00000000 94 118 149 97.000000 1.000000 4.000000 1.000000 -60.708740 114.000000 149.000000 -0.551924 0.827162 -0.105749
910.00000000 5030.00000000 -440.00000000 94 118 149 97.000000 1.000000 4.000000 1.000000 -60.708740 114.000000 149.000000 0.735986 -0.451515 0.504440
900.00000000 5080.00000000 -370.00000000 94 118 149 97.000000 1.000000 4.000000 1.000000 -60.708740 114.000000 149.000000 -0.501298 0.845472 0.184059
890.00000000 5070.00000000 -360.00000000 94 118 149 97.000000 1.000000 4.000000 1.000000 -60.708740 114.000000 149.000000 0.704371 -0.527862 -0.474576
1000.00000000 5020.00000000 -650.00000000 94 118 149 97.000000 1.000000 4.000000 1.000000 -60.708740 114.000000 149.000000 0.603892 0.088339 0.792156
890.00000000 4940.00000000 -60.00000000 94 118 149 97.000000 1.000000 4.000000 1.000000 -60.708740 114.000000 149.000000 -0.369362 0.632019 0.681267
860.00000000 5010.00000000 -120.00000000 94 118 149 97.000000 1.000000 4.000000 1.000000 -60.708740 114.000000 149.000000 -0.257073 0.315169 0.913554
880.00000000 4920.00000000 -20.00000000 94 118 149 97.000000 1.000000 4.000000 1.000000 -60.708740 114.000000 149.000000 -0.404444 0.312175 0.859635
950.00000000 4970.00000000 -220.00000000 94 118 149 97.000000 1.000000 4.000000 1.000000 -60.708740 114.000000 149.000000 0.675503 -0.531351 -0.511236
960.00000000 4990.00000000 -220.00000000 94 118 149 97.000000 1.000000 4.000000 1.000000 -60.708740 114.000000 149.000000 -0.175826 0.720124 0.671198
960.00000000 4980.00000000 -340.00000000 94 118 149 97.000000 1.000000 4.000000 1.000000 -60.708740 114.000000 149.000000 -0.412197 0.868505 0.275305
930.00000000 5010.00000000 -300.00000000 94 118 149 97.000000 1.000000 4.000000 1.000000 -60.708740 114.000000 149.000000 0.711606 -0.593279 -0.376346
920.00000000 4980.00000000 -300.00000000 94 118 149 97.000000 1.000000 4.000000 1.000000 -60.708740 114.000000 149.000000 0.894686 -0.252878 -0.368226
970.00000000 4910.00000000 -350.00000000 94 118 149 97.000000 1.000000 4.000000 1.000000 -60.708740 114.000000 149.000000 0.827143 -0.561910 0.009570
890.00000000 4970.00000000 -270.00000000 94 118 149 97.000000 1.000000 4.000000 1.000000 -60.708740 114.000000 149.000000 0.877034 -0.446570 -0.177164
880.00000000 4960.00000000 -260.00000000 94 118 149 97.000000 1.000000 4.000000 1.000000 -60.708740 114.000000 149.000000 0.883572 -0.396187 -0.249673
850.00000000 4940.00000000 -270.00000000 94 118 149 97.000000 1.000000 4.000000 1.000000 -60.708740 114.000000 149.000000 -0.674455 0.690324 0.261847
880.00000000 5000.00000000 -290.00000000 94 118 149 97.000000 1.000000 4.000000 1.000000 -60.708740 114.000000 149.000000 -0.678984 0.659538 0.322477
860.00000000 5000.00000000 -290.00000000 94 118 149 97.000000 1.000000 4.000000 1.000000 -60.708740 114.000000 149.000000 0.879886 -0.452224 -0.145925
840.00000000 4940.00000000 -290.00000000 94 118 149 97.000000 1.000000 4.000000 1.000000 -60.708740 114.000000 149.000000 -0.565848 0.666593 0.485253
880.00000000 4860.00000000 -190.00000000 94 118 149 97.000000 1.000000 4.000000 1.000000 -60.708740 114.000000 149.000000 0.589774 -0.650264 -0.478877
890.00000000 4930.00000000 -250.00000000 94 118 149 97.000000 1.000000 4.000000 1.000000 -60.708740 114.000000 149.000000 0.742846 -0.648661 -0.165583
850.00000000 4900.00000000 -280.00000000 94 118 149 97.000000 1.000000 4.000000 1.000000 -60.708740 114.000000 149.000000 -0.414461 0.758479 0.502923
860.00000000 4890.00000000 -290.00000000 94 118 149 97.000000 1.000000 4.000000 1.000000 -60.708740 114.000000 149.000000 -0.707216 0.672870 0.217005
990.00000000 4700.00000000 -40.00000000 94 118 149 97.000000 1.000000 4.000000 1.000000 -60.708740 114.000000 149.000000 0.370471 0.277478 0.886430
850.00000000 4780.00000000 -70.00000000 94 118 149 97.000000 1.000000 4.000000 1.000000 -60.708740 114.000000 149.000000 -0.365118 0.422019 0.829813
870.00000000 4820.00000000 -20.00000000 94 118 149 97.000000 1.000000 4.000000 1.000000 -60.708740 114.000000 149.000000 -0.409590 0.641747 0.648380
870.00000000 4830.00000000 -30.00000000 94 118 149 97.000000 1.000000 4.000000 1.000000 -60.708740 114.000000 149.000000 -0.098425 0.706605 0.700729
840.00000000 4840.00000000 -180.00000000 94 118 149 97.000000 1.000000 4.000000 1.000000 -60.708740 114.000000 149.000000 -0.299798 0.817773 0.491292
870.00000000 4780.00000000 -140.00000000 94 118 149 97.000000 1.000000 4.000000 1.000000 -60.708740 114.000000 149.000000 -0.179607 0.283807 0.941910
850.00000000 4700.00000000 -20.00000000 94 118 149 97.000000 1.000000 4.000000 1.000000 -60.708740 114.000000 149.000000 -0.192535 0.316207 0.928947
840.00000000 4740.00000000 -90.00000000 94 118 149 97.000000 1.000000 4.000000 1.000000 -60.708740 114.000000 149.000000 0.280383 -0.515340 -0.809821
850.00000000 4850.00000000 -190.00000000 94 118 149 97.000000 1.000000 4.000000 1.000000 -60.708740 114.000000 149.000000 -0.298866 0.586544 0.752758
910.00000000 4810.00000000 -220.00000000 94 118 149 97.000000 1.000000 4.000000 1.000000 -60.708740 114.000000 149.000000 -0.480984 0.661982 0.574835
890.00000000 4790.00000000 -260.00000000 94 118 149 97.000000 1.000000 4.000000 1.000000 -60.708740 114.000000 149.000000 0.840311 -0.375391 -0.391098
890.00000000 4840.00000000 -300.00000000 94 118 149 97.000000 1.000000 4.000000 1.000000 -60.708740 114.000000 149.000000 -0.616330 0.783764 0.076500
800.00000000 4950.00000000 -20.00000000 94 118 149 97.000000 1.000000 4.000000 1.000000 -60.708740 114.000000 149.000000 -0.121163 0.454719 0.882355
790.00000000 4960.00000000 -20.00000000 94 118 149 97.000000 1.000000 4.000000 1.000000 -60.708740 114.000000 149.000000 -0.243875 0.289513 0.925585
800.00000000 5000.00000000 -110.00000000 94 118 149 97.000000 1.000000 4.000000 1.000000 -60.708740 114.000000 149.000000 -0.638915 0.648873 0.413221
800.00000000 4960.00000000 -220.00000000 94 118 149 97.000000 1.000000 4.000000 1.000000 -60.708740 114.000000 149.000000 -0.544033 0.766813 0.340626
780.00000000 4980.00000000 -240.00000000 94 118 149 97.000000 1.000000 4.000000 1.000000 -60.708740 114.000000 149.000000 -0.551178 0.831726 0.066595
820.00000000 4970.00000000 -330.00000000 94 118 149 97.000000 1.000000 4.000000 1.000000 -60.708740 114.000000 149.000000 -0.486764 0.873508 0.006668
790.00000000 4870.00000000 -260.00000000 94 118 149 97.000000 1.000000 4.000000 1.000000 -60.708740 114.000000 149.000000 0.404875 -0.752379 -0.519617
810.00000000 4880.00000000 -260.00000000 94 118 149 97.000000 1.000000 4.000000 1.000000 -60.708740 114.000000 149.000000 0.589841 -0.610122 -0.528998
830.00000000 4880.00000000 -260.00000000 94 118 149 97.000000 1.000000 4.000000 1.000000 -60.708740 114.000000 149.000000 0.746418 -0.550422 -0.374026
790.00000000 4910.00000000 -320.00000000 94 118 149 97.000000 1.000000 4.000000 1.000000 -60.708740 114.000000 149.000000 0.859696 -0.356535 -0.365795
830.00000000 4830.00000000 -20.00000000 94 118 149 97.000000 1.000000 4.000000 1.000000 -60.708740 114.000000 149.000000 -0.531092 0.471157 0.704238
800.00000000 4810.00000000 -20.00000000 94 118 149 97.000000 1.000000 4.000000 1.000000 -60.708740 114.000000 149.000000 -0.371146 0.280989 0.885040
800.00000000 4800.00000000 -140.00000000 94 118 149 97.000000 1.000000 4.000000 1.000000 -60.708740 114.000000 149.000000 -0.502413 0.499075 0.706049
830.00000000 4800.00000000 -110.00000000 94 118 149 97.000000 1.000000 4.000000 1.000000 -60.708740 114.000000 149.000000 -0.428192 0.719164 0.547226
830.00000000 4790.00000000 -180.00000000 94 118 149 97.000000 1.000000 4.000000 1.000000 -60.708740 114.000000 149.000000 -0.566534 0.702767 0.430300
770.00000000 4800.00000000 -160.00000000 94 118 149 97.000000 1.000000 4.000000 1.000000 -60.708740 114.000000 149.000000 -0.590884 0.657839 0.467016
800.00000000 4760.00000000 -90.00000000 94 118 149 97.000000 1.000000 4.000000 1.000000 -60.708740 114.000000 149.000000 -0.129101 0.503348 0.854385
830.00000000 4710.00000000 -20.00000000 94 118 149 97.000000 1.000000 4.000000 1.000000 -60.708740 114.000000 149.000000 -0.209861 0.556056 0.804214
810.00000000 4710.00000000 -80.00000000 94 118 149 97.000000 1.000000 4.000000 1.000000 -60.708740 114.000000 149.000000 -0.167981 0.591716 0.788451
780.00000000 4730.00000000 -40.00000000 94 118 149 97.000000 1.000000 4.000000 1.000000 -60.708740 114.000000 149.000000 0.289837 -0.712582 -0.638922
780.00000000 4760.00000000 -70.00000000 94 118 149 97.000000 1.000000 4.000000 1.000000 -60.708740 114.000000 149.000000 -0.560500 0.060709 0.825926
770.00000000 4720.00000000 -100.00000000 94 118 149 97.000000 1.000000 4.000000 1.000000 -60.708740 114.000000 149.000000 -0.471606 0.218476 0.854316
830.00000000 4690.00000000 -180.00000000 94 118 149 97.000000 1.000000 4.000000 1.000000 -60.708740 114.000000 149.000000 0.629196 -0.272386 -0.727955
750.00000000 4760.00000000 -40.00000000 94 118 149 97.000000 1.000000 4.000000 1.000000 -60.708740 114.000000 149.000000 0.634699 -0.377522 -0.674265
740.00000000 4710.00000000 -50.00000000 94 118 149 97.000000 1.000000 4.000000 1.000000 -60.708740 114.000000 149.000000 -0.237764 0.706994 0.666054
740.00000000 4740.00000000 -140.00000000 94 118 149 97.000000 1.000000 4.000000 1.000000 -60.708740 114.000000 149.000000 0.741184 -0.321341 -0.589395
750.00000000 4690.00000000 -160.00000000 94 118 149 97.000000 1.000000 4.000000 1.000000 -60.708740 114.000000 149.000000 -0.608872 0.300420 0.734181
800.00000000 4830.00000000 -230.00000000 94 118 149 97.000000 1.000000 4.000000 1.000000 -60.708740 114.000000 149.000000 -0.460591 0.706683 0.537079
820.00000000 4850.00000000 -220.00000000 94 118 149 97.000000 1.000000 4.000000 1.000000 -60.708740 114.000000 149.000000 -0.719024 0.591270 0.365245
820.00000000 4850.00000000 -230.00000000 94 118 149 97.000000 1.000000 4.000000 1.000000 -60.708740 114.000000 149.000000 0.815686 -0.286508 -0.502563
830.00000000 4850.00000000 -190.00000000 94 118 149 97.000000 1.000000 4.000000 1.000000 -60.708740 114.000000 149.000000 -0.546953 0.647929 0.530123
800.00000000 4820.00000000 -240.00000000 94 118 149 97.000000 1.000000 4.000000 1.000000 -60.708740 114.000000 149.000000 0.840318 -0.502380 -0.203668
800.00000000 4790.00000000 -220.00000000 94 118 149 97.000000 1.000000 4.000000 1.000000 -60.708740 114.000000 149.000000 -0.518928 0.385536 0.762939
770.00000000 4850.00000000 -300.00000000 94 118 149 97.000000 1.000000 4.000000 1.000000 -60.708740 114.000000 149.000000 0.822253 -0.408741 -0.396018
790.00000000 4820.00000000 -350.00000000 94 118 149 97.000000 1.000000 4.000000 1.000000 -60.708740 114.000000 149.000000 -0.578087 0.805773 -0.128628
800.00000000 4750.00000000 -190.00000000 94 118 149 97.000000 1.000000 4.000000 1.000000 -60.708740 114.000000 149.000000 -0.344751 0.439203 0.829607
790.00000000 4750.00000000 -270.00000000 94 118 149 97.000000 1.000000 4.000000 1.000000 -60.708740 114.000000 149.000000 -0.671783 0.726130 0.146434
730.00000000 4770.00000000 -270.00000000 94 118 149 97.000000 1.000000 4.000000 1.000000 -60.708740 114.000000 149.000000 0.801766 -0.596040 0.043681
740.00000000 4780.00000000 -190.00000000 94 118 149 97.000000 1.000000 4.000000 1.000000 -60.708740 114.000000 149.000000 -0.577495 0.793865 0.190467
680.00000000 4730.00000000 -250.00000000 94 118 149 97.000000 1.000000 4.000000 1.000000 -60.708740 114.000000 149.000000 0.688649 -0.514392 -0.511041
700.00000000 4760.00000000 -250.00000000 94 118 149 97.000000 1.000000 4.000000 1.000000 -60.708740 114.000000 149.000000 0.728131 -0.636522 -0.254293
680.00000000 4730.00000000 -250.00000000 94 118 149 97.000000 1.000000 4.000000 1.000000 -60.708740 114.000000 149.000000 0.688649 -0.514392 -0.511041
940.00000000 4950.00000000 -520.00000000 94 118 149 97.000000 1.000000 4.000000 1.000000 -60.708740 114.000000 149.000000 0.806908 -0.458579 0.372296
920.00000000 4950.00000000 -480.00000000 94 118 149 97.000000 1.000000 4.000000 1.000000 -60.708740 114.000000 149.000000 0.911817 -0.214630 0.350034
920.00000000 4940.00000000 -500.00000000 94 118 149 97.000000 1.000000 4.000000 1.000000 -60.708740 114.000000 149.000000 0.899318 -0.158703 0.407481
960.00000000 4880.00000000 -400.00000000 94 118 149 97.000000 1.000000 4.000000 1.000000 -60.708740 114.000000 149.000000 -0.593332 0.686404 -0.420485
1000.00000000 4900.00000000 -520.00000000 94 118 149 97.000000 1.000000 4.000000 1.000000 -60.708740 114.000000 149.000000 0.634842 -0.399470 0.661362
890.00000000 4880.00000000 -410.00000000 94 118 149 97.000000 1.000000 4.000000 1.000000 -60.708740 114.000000 149.000000 0.697996 -0.701011 0.146233
850.00000000 4870.00000000 -430.00000000 94 118 149 97.000000 1.000000 4.000000 1.000000 -60.708740 114.000000 149.000000 0.885937 -0.217417 0.409690
870.00000000 4900.00000000 -380.00000000 94 118 149 97.000000 1.000000 4.000000 1.000000 -60.708740 114.000000 149.000000 -0.684258 0.690550 0.234378
1000.00000000 4960.00000000 -590.00000000 94 118 149 97.000000 1.000000 4.000000 1.000000 -60.708740 114.000000 149.000000 0.826397 -0.081637 0.557138
950.00000000 4950.00000000 -560.00000000 94 118 149 97.000000 1.000000 4.000000 1.000000 -60.708740 114.000000 149.000000 0.658493 -0.333311 0.674752
990.00000000 4880.00000000 -560.00000000 94 118 149 97.000000 1.000000 4.000000 1.000000 -60.708740 114.000000 149.000000 0.444585 -0.003934 0.895728
950.00000000 4790.00000000 -430.00000000 94 118 149 97.000000 1.000000 4.000000 1.000000 -60.708740 114.000000 149.000000 -0.579063 0.720138 -0.382214
920.00000000 4770.00000000 -420.00000000 94 118 149 97.000000 1.000000 4.000000 1.000000 -60.708740 114.000000 149.000000 0.783014 -0.544775 0.300182
890.00000000 4850.00000000 -390.00000000 94 118 149 97.000000 1.000000 4.000000 1.000000 -60.708740 114.000000 149.000000 0.813427 -0.463224 0.351795
860.00000000 4820.00000000 -400.00000000 94 118 149 97.000000 1.000000 4.000000 1.000000 -60.708740 114.000000 149.000000 -0.765454 0.487998 -0.419449
850.00000000 4810.00000000 -410.00000000 94 118 149 97.000000 1.000000 4.000000 1.000000 -60.708740 114.000000 149.000000 0.879719 -0.328570 0.343711
840.00000000 4780.00000000 -510.00000000 94 118 149 97.000000 1.000000 4.000000 1.000000 -60.708740 114.000000 149.000000 -0.744869 0.508090 -0.432452
1000.00000000 4790.00000000 -660.00000000 94 118 149 97.000000 1.000000 4.000000 1.000000 -60.708740 114.000000 149.000000 0.312089 0.044584 0.949006
970.00000000 4820.00000000 -640.00000000 94 118 149 97.000000 1.000000 4.000000 1.000000 -60.708740 114.000000 149.000000 0.387510 -0.381234 0.839343
930.00000000 4760.00000000 -640.00000000 94 118 149 97.000000 1.000000 4.000000 1.000000 -60.708740 114.000000 149.000000 0.446332 -0.039105 0.894013
940.00000000 4740.00000000 -650.00000000 94 118 149 97.000000 1.000000 4.000000 1.000000 -60.708740 114.000000 149.000000 0.075405 0.218799 0.972852
960.00000000 4690.00000000 -620.00000000 94 118 149 97.000000 1.000000 4.000000 1.000000 -60.708740 114.000000 149.000000 0.054774 0.097251 0.993752
960.00000000 4740.00000000 -640.00000000 94 118 149 97.000000 1.000000 4.000000 1.000000 -60.708740 114.000000 149.000000 0.405836 -0.250091 0.879063
980.00000000 4760.00000000 -670.00000000 94 118 149 97.000000 1.000000 4.000000 1.000000 -60.708740 114.000000 149.000000 0.383402 -0.272140 0.882577
860.00000000 4740.00000000 -540.00000000 94 118 149 97.000000 1.000000 4.000000 1.000000 -60.708740 114.000000 149.000000 0.493986 0.001331 0.869469
840.00000000 4760.00000000 -570.00000000 94 118 149 97.000000 1.000000 4.000000 1.000000 -60.708740 114.000000 149.000000 0.422467 -0.128577 0.897212
850.00000000 4720.00000000 -580.00000000 94 118 149 97.000000 1.000000 4.000000 1.000000 -60.708740 114.000000 149.000000 0.689297 0.156039 0.707476
890.00000000 4760.00000000 -570.00000000 94 118 149 97.000000 1.000000 4.000000 1.000000 -60.708740 114.000000 149.000000 0.560782 -0.251493 0.788844
800.00000000 4820.00000000 -370.00000000 94 118 149 97.000000 1.000000 4.000000 1.000000 -60.708740 114.000000 149.000000 0.853695 -0.499331 -0.147896
830.00000000 4830.00000000 -390.00000000 94 118 149 97.000000 1.000000 4.000000 1.000000 -60.708740 114.000000 149.000000 0.614594 -0.638039 0.463876
830.00000000 4840.00000000 -400.00000000 94 118 149 97.000000 1.000000 4.000000 1.000000 -60.708740 114.000000 149.000000 0.905999 -0.418466 -0.063650
810.00000000 4770.00000000 -390.00000000 94 118 149 97.000000 1.000000 4.000000 1.000000 -60.708740 114.000000 149.000000 0.918357 -0.388172 -0.077093
810.00000000 4800.00000000 -380.00000000 94 118 149 97.000000 1.000000 4.000000 1.000000 -60.708740 114.000000 149.000000 0.749928 -0.632896 -0.192487
810.00000000 4800.00000000 -390.00000000 94 118 149 97.000000 1.000000 4.000000 1.000000 -60.708740 114.000000 149.000000 0.811342 -0.581957 -0.055222
830.00000000 4780.00000000 -410.00000000 94 118 149 97.000000 1.000000 4.000000 1.000000 -60.708740 114.000000 149.000000 0.894006 -0.190431 0.405573
790.00000000 4770.00000000 -400.00000000 94 118 149 97.000000 1.000000 4.000000 1.000000 -60.708740 114.000000 149.000000 0.965418 -0.211794 0.152024
830.00000000 4800.00000000 -450.00000000 94 118 149 97.000000 1.000000 4.000000 1.000000 -60.708740 114.000000 149.000000 0.805494 -0.483297 0.342933
830.00000000 4760.00000000 -360.00000000 94 118 149 97.000000 1.000000 4.000000 1.000000 -60.708740 114.000000 149.000000 0.949375 -0.277964 -0.146368
800.00000000 4710.00000000 -410.00000000 94 118 149 97.000000 1.000000 4.000000 1.000000 -60.708740 114.000000 149.000000 -0.626629 0.528666 -0.572580
770.00000000 4740.00000000 -430.00000000 94 118 149 97.000000 1.000000 4.000000 1.000000 -60.708740 114.000000 149.000000 -0.727235 0.349789 -0.590573
770.00000000 4730.00000000 -410.00000000 94 118 149 97.000000 1.000000 4.000000 1.000000 -60.708740 114.000000 149.000000 0.852601 -0.517197 0.074691
790.00000000 4700.00000000 -390.00000000 94 118 149 97.000000 1.000000 4.000000 1.000000 -60.708740 114.000000 149.000000 0.750363 -0.659924 -0.038154
760.00000000 4710.00000000 -410.00000000 94 118 149 97.000000 1.000000 4.000000 1.000000 -60.708740 114.000000 149.000000 0.958544 -0.282951 0.033655
760.00000000 4720.00000000 -400.00000000 94 118 149 97.000000 1.000000 4.000000 1.000000 -60.708740 114.000000 149.000000 0.799938 -0.572252 0.180631
770.00000000 4720.00000000 -430.00000000 94 118 149 97.000000 1.000000 4.000000 1.000000 -60.708740 114.000000 149.000000 0.808661 -0.446765 0.382713
800.00000000 4750.00000000 -450.00000000 94 118 149 97.000000 1.000000 4.000000 1.000000 -60.708740 114.000000 149.000000 0.765493 -0.615156 0.188689
820.00000000 4730.00000000 -450.00000000 94 118 149 97.000000 1.000000 4.000000 1.000000 -60.708740 114.000000 149.000000 0.628725 -0.618665 0.471125
800.00000000 4690.00000000 -500.00000000 94 118 149 97.000000 1.000000 4.000000 1.000000 -60.708740 114.000000 149.000000 -0.524093 0.628574 -0.574648
770.00000000 4700.00000000 -480.00000000 94 118 149 97.000000 1.000000 4.000000 1.000000 -60.708740 114.000000 149.000000 0.816891 -0.310072 0.486357
810.00000000 4760.00000000 -540.00000000 94 118 149 97.000000 1.000000 4.000000 1.000000 -60.708740 114.000000 149.000000 0.621150 -0.614416 0.486483
830.00000000 4730.00000000 -570.00000000 94 118 149 97.000000 1.000000 4.000000 1.000000 -60.708740 114.000000 149.000000 0.565656 -0.004089 0.824631
830.00000000 4750.00000000 -610.00000000 94 118 149 97.000000 1.000000 4.000000 1.000000 -60.708740 114.000000 149.000000 0.502469 0.123083 0.855790
970.00000000 4640.00000000 -50.00000000 94 118 149 97.000000 1.000000 4.000000 1.000000 -60.708740 114.000000 149.000000 0.398710 -0.229740 0.887834
1000.00000000 4650.00000000 -50.00000000 94 118 149 97.000000 1.000000 4.000000 1.000000 -60.708740 114.000000 149.000000 0.063479 0.003122 0.997978
980.00000000 4680.00000000 -90.00000000 94 118 149 97.000000 1.000000 4.000000 1.000000 -60.708740 114.000000 149.000000 0.157295 0.108521 0.981571
970.00000000 4610.00000000 -100.00000000 94 118 149 97.000000 1.000000 4.000000 1.000000 -60.708740 114.000000 149.000000 -0.038538 -0.028122 0.998861
940.00000000 4610.00000000 -60.00000000 94 118 149 97.000000 1.000000 4.000000 1.000000 -60.708740 114.000000 149.000000 0.483092 -0.068218 0.872908
990.00000000 4650.00000000 -170.00000000 94 118 149 97.000000 1.000000 4.000000 1.000000 -60.708740 114.000000 149.000000 0.224067 -0.379303 0.897732
910.00000000 4670.00000000 -30.00000000 94 118 149 97.000000 1.000000 4.000000 1.000000 -60.708740 114.000000 149.000000 0.206908 0.302620 0.930382
970.00000000 4620.00000000 -250.00000000 94 118 149 97.000000 1.000000 4.000000 1.000000 -60.708740 114.000000 149.000000 0.580200 0.029219 0.813950
930.00000000 4670.00000000 -260.00000000 94 118 149 97.000000 1.000000 4.000000 1.000000 -60.708740 114.000000 149.000000 -0.067919 0.170392 0.983033
930.00000000 4660.00000000 -320.00000000 94 118 149 97.000000 1.000000 4.000000 1.000000 -60.708740 114.000000 149.000000 -0.421229 0.339802 0.840893
950.00000000 4550.00000000 -230.00000000 94 118 149 97.000000 1.000000 4.000000 1.000000 -60.708740 114.000000 149.000000 0.631744 -0.135907 0.763170
880.00000000 4600.00000000 -230.00000000 94 118 149 97.000000 1.000000 4.000000 1.000000 -60.708740 114.000000 149.000000 -0.149976 0.072036 0.986062
880.00000000 4640.00000000 -190.00000000 94 118 149 97.000000 1.000000 4.000000 1.000000 -60.708740 114.000000 149.000000 0.245265 0.193773 0.949893
860.00000000 4610.00000000 -190.00000000 94 118 149 97.000000 1.000000 4.000000 1.000000 -60.708740 114.000000 149.000000 -0.194512 0.410961 0.890660
