//X Y Z R G B PointSourceId ScanDirectionFlag NumberOfReturns ReturnNumber GpsTime Intensity Classification Nx Ny Nz
9040.00000000 3380.00000000 -1080.00000000 2 170 169 97.000000 1.000000 4.000000 1.000000 -60.708740 114.000000 149.000000 0.669154 0.740798 0.058748
9050.00000000 3390.00000000 -1120.00000000 2 170 169 97.000000 1.000000 4.000000 1.000000 -60.708740 114.000000 149.000000 0.215817 0.976427 0.003500
9040.00000000 3360.00000000 -1130.00000000 2 170 169 97.000000 1.000000 4.000000 1.000000 -60.708740 114.000000 149.000000 0.199029 0.936687 0.288104
9030.00000000 3370.00000000 -1120.00000000 2 170 169 97.000000 1.000000 4.000000 1.000000 -60.708740 114.000000 149.000000 0.532397 0.776882 0.336166
9030.00000000 3360.00000000 -1120.00000000 2 170 169 97.000000 1.000000 4.000000 1.000000 -60.708740 114.000000 149.000000 0.161225 0.947030 0.277741
8970.00000000 3500.00000000 -1040.00000000 2 170 169 97.000000 1.000000 4.000000 1.000000 -60.708740 114.000000 149.000000 0.378612 0.866056 0.326496
8990.00000000 3500.00000000 -1040.00000000 2 170 169 97.000000 1.000000 4.000000 1.000000 -60.708740 114.000000 149.000000 0.283873 0.925796 0.249637
8980.00000000 3490.00000000 -1090.00000000 2 170 169 97.000000 1.000000 4.000000 1.000000 -60.708740 114.000000 149.000000 0.721991 0.680136 -0.127058
8980.00000000 3500.00000000 -1080.00000000 2 170 169 97.000000 1.000000 4.000000 1.000000 -60.708740 114.000000 149.000000 0.628153 0.756535 -0.181874
8950.00000000 3490.00000000 -1050.00000000 2 170 169 97.000000 1.000000 4.000000 1.000000 -60.708740 114.000000 149.000000 0.741999 0.640186 0.198998
8940.00000000 3500.00000000 -1040.00000000 2 170 169 97.000000 1.000000 4.000000 1.000000 -60.708740 114.000000 149.000000 0.491753 0.818540 0.296937
8940.00000000 3500.00000000 -1040.00000000 2 170 169 97.000000 1.000000 4.000000 1.000000 -60.708740 114.000000 149.000000 0.491753 0.818540 0.296937
8950.00000000 3490.00000000 -1050.00000000 2 170 169 97.000000 1.000000 4.000000 1.000000 -60.708740 114.000000 149.000000 0.741999 0.640186 0.198998
8940.00000000 3500.00000000 -1060.00000000 2 170 169 97.000000 1.000000 4.000000 1.000000 -60.708740 114.000000 149.000000 0.509680 0.644249 0.570236
8960.00000000 3430.00000000 -1060.00000000 2 170 169 97.000000 1.000000 4.000000 1.000000 -60.708740 114.000000 149.000000 0.240747 0.803009 0.545176
8950.00000000 3420.00000000 -1080.00000000 2 170 169 97.000000 1.000000 4.000000 1.000000 -60.708740 114.000000 149.000000 0.334824 0.937774 -0.092043
8950.00000000 3420.00000000 -1080.00000000 2 170 169 97.000000 1.000000 4.000000 1.000000 -60.708740 114.000000 149.000000 0.334824 0.937774 -0.092043
8950.00000000 3420.00000000 -1080.00000000 2 170 169 97.000000 1.000000 4.000000 1.000000 -60.708740 114.000000 149.000000 0.334824 0.937774 -0.092043
8970.00000000 3420.00000000 -1130.00000000 2 170 169 97.000000 1.000000 4.000000 1.000000 -60.708740 114.000000 149.000000 0.155584 0.945677 0.285462
8990.00000000 3500.00000000 -1120.00000000 2 170 169 97.000000 1.000000 4.000000 1.000000 -60.708740 114.000000 149.000000 0.776516 0.620919 -0.107156
8960.00000000 3420.00000000 -1130.00000000 2 170 169 97.000000 1.000000 4.000000 1.000000 -60.708740 114.000000 149.000000 0.410517 0.887245 0.210408
8970.00000000 3410.00000000 -1070.00000000 2 170 169 97.000000 1.000000 4.000000 1.000000 -60.708740 114.000000 149.000000 0.087282 0.977308 0.193003
8980.00000000 3410.00000000 -1070.00000000 2 170 169 97.000000 1.000000 4.000000 1.000000 -60.708740 114.000000 149.000000 0.548414 0.831928 -0.084482
8990.00000000 3410.00000000 -1050.00000000 2 170 169 97.000000 1.000000 4.000000 1.000000 -60.708740 114.000000 149.000000 0.646472 0.757379 0.091936
8990.00000000 3410.00000000 -1050.00000000 2 170 169 97.000000 1.000000 4.000000 1.000000 -60.708740 114.000000 149.000000 0.646472 0.757379 0.091936
8990.00000000 3410.00000000 -1050.00000000 2 170 169 97.000000 1.000000 4.000000 1.000000 -60.708740 114.000000 149.000000 0.646472 0.757379 0.091936
8970.00000000 3410.00000000 -1070.00000000 2 170 169 97.000000 1.000000 4.000000 1.000000 -60.708740 114.000000 149.000000 0.087282 0.977308 0.193003
8970.00000000 3390.00000000 -1110.00000000 2 170 169 97.000000 1.000000 4.000000 1.000000 -60.708740 114.000000 149.000000 0.625948 0.697859 0.348112
8970.00000000 3400.00000000 -1100.00000000 2 170 169 97.000000 1.000000 4.000000 1.000000 -60.708740 114.000000 149.000000 0.704983 0.637227 0.311354
8970.00000000 3390.00000000 -1090.00000000 2 170 169 97.000000 1.000000 4.000000 1.000000 -60.708740 114.000000 149.000000 0.397512 0.893301 0.209757
8980.00000000 3410.00000000 -1080.00000000 2 170 169 97.000000 1.000000 4.000000 1.000000 -60.708740 114.000000 149.000000 0.356030 0.872502 0.334638
8970.00000000 3400.00000000 -1100.00000000 2 170 169 97.000000 1.000000 4.000000 1.000000 -60.708740 114.000000 149.000000 0.704983 0.637227 0.311354
8960.00000000 3410.00000000 -1070.00000000 2 170 169 97.000000 1.000000 4.000000 1.000000 -60.708740 114.000000 149.000000 0.384272 0.898582 0.211861
8960.00000000 3400.00000000 -1110.00000000 2 170 169 97.000000 1.000000 4.000000 1.000000 -60.708740 114.000000 149.000000 0.501752 0.861551 0.077301
8960.00000000 3400.00000000 -1100.00000000 2 170 169 97.000000 1.000000 4.000000 1.000000 -60.708740 114.000000 149.000000 0.498545 0.760077 0.416816
8970.00000000 3400.00000000 -1120.00000000 2 170 169 97.000000 1.000000 4.000000 1.000000 -60.708740 114.000000 149.000000 0.428456 0.803956 0.412409
8910.00000000 3520.00000000 -1060.00000000 2 170 169 97.000000 1.000000 4.000000 1.000000 -60.708740 114.000000 149.000000 0.390181 0.832492 0.393340
8920.00000000 3520.00000000 -1060.00000000 2 170 169 97.000000 1.000000 4.000000 1.000000 -60.708740 114.000000 149.000000 0.298297 0.938879 0.171830
8920.00000000 3520.00000000 -1070.00000000 2 170 169 97.000000 1.000000 4.000000 1.000000 -60.708740 114.000000 149.000000 0.111301 0.992717 0.046094
8890.00000000 3530.00000000 -1080.00000000 2 170 169 97.000000 1.000000 4.000000 1.000000 -60.708740 114.000000 149.000000 0.532243 0.813021 -0.236038
8880.00000000 3540.00000000 -1080.00000000 2 170 169 97.000000 1.000000 4.000000 1.000000 -60.708740 114.000000 149.000000 0.466466 0.881718 -0.070593
8900.00000000 3530.00000000 -1100.00000000 2 170 169 97.000000 1.000000 4.000000 1.000000 -60.708740 114.000000 149.000000 0.555643 0.822468 -0.121684
8850.00000000 3550.00000000 -1050.00000000 2 170 169 97.000000 1.000000 4.000000 1.000000 -60.708740 114.000000 149.000000 0.227115 0.972831 -0.044937
8840.00000000 3560.00000000 -1050.00000000 2 170 169 97.000000 1.000000 4.000000 1.000000 -60.708740 114.000000 149.000000 0.356243 0.914214 -0.193144
8840.00000000 3520.00000000 -1050.00000000 2 170 169 97.000000 1.000000 4.000000 1.000000 -60.708740 114.000000 149.000000 0.544957 0.788213 0.285905
8820.00000000 3550.00000000 -1060.00000000 2 170 169 97.000000 1.000000 4.000000 1.000000 -60.708740 114.000000 149.000000 0.402173 0.906640 -0.127518
8800.00000000 3560.00000000 -1060.00000000 2 170 169 97.000000 1.000000 4.000000 1.000000 -60.708740 114.000000 149.000000 0.121734 0.992514 -0.009870
8810.00000000 3540.00000000 -1080.00000000 2 170 169 97.000000 1.000000 4.000000 1.000000 -60.708740 114.000000 149.000000 0.294030 0.922250 -0.251001
8780.00000000 3570.00000000 -1060.00000000 2 170 169 97.000000 1.000000 4.000000 1.000000 -60.708740 114.000000 149.000000 0.459239 0.887320 -0.041995
8790.00000000 3560.00000000 -1060.00000000 2 170 169 97.000000 1.000000 4.000000 1.000000 -60.708740 114.000000 149.000000 0.125240 0.991947 0.018841
8760.00000000 3580.00000000 -1060.00000000 2 170 169 97.000000 1.000000 4.000000 1.000000 -60.708740 114.000000 149.000000 0.687767 0.720029 0.092387
8790.00000000 3560.00000000 -1050.00000000 2 170 169 97.000000 1.000000 4.000000 1.000000 -60.708740 114.000000 149.000000 0.135252 0.985068 0.106526
8780.00000000 3560.00000000 -1070.00000000 2 170 169 97.000000 1.000000 4.000000 1.000000 -60.708740 114.000000 149.000000 0.321775 0.944482 -0.066439
8770.00000000 3570.00000000 -1080.00000000 2 170 169 97.000000 1.000000 4.000000 1.000000 -60.708740 114.000000 149.000000 0.654976 0.708896 -0.261673
8900.00000000 3500.00000000 -1110.00000000 2 170 169 97.000000 1.000000 4.000000 1.000000 -60.708740 114.000000 149.000000 0.470136 0.850504 -0.235829
8900.00000000 3500.00000000 -1110.00000000 2 170 169 97.000000 1.000000 4.000000 1.000000 -60.708740 114.000000 149.000000 0.470136 0.850504 -0.235829
8900.00000000 3430.00000000 -1080.00000000 2 170 169 97.000000 1.000000 4.000000 1.000000 -60.708740 114.000000 149.000000 0.690967 0.635428 0.344667
8880.00000000 3450.00000000 -1080.00000000 2 170 169 97.000000 1.000000 4.000000 1.000000 -60.708740 114.000000 149.000000 0.302484 0.952638 -0.031378
8880.00000000 3450.00000000 -1080.00000000 2 170 169 97.000000 1.000000 4.000000 1.000000 -60.708740 114.000000 149.000000 0.302484 0.952638 -0.031378
8870.00000000 3470.00000000 -1040.00000000 2 170 169 97.000000 1.000000 4.000000 1.000000 -60.708740 114.000000 149.000000 0.431535 0.899825 0.063981
8870.00000000 3470.00000000 -1110.00000000 2 170 169 97.000000 1.000000 4.000000 1.000000 -60.708740 114.000000 149.000000 0.306011 0.932005 0.194226
8850.00000000 3440.00000000 -1090.00000000 2 170 169 97.000000 1.000000 4.000000 1.000000 -60.708740 114.000000 149.000000 0.389812 0.920784 0.014246
8860.00000000 3470.00000000 -1120.00000000 2 170 169 97.000000 1.000000 4.000000 1.000000 -60.708740 114.000000 149.000000 0.441974 0.851609 0.281816
8900.00000000 3400.00000000 -1110.00000000 2 170 169 97.000000 1.000000 4.000000 1.000000 -60.708740 114.000000 149.000000 0.713232 0.689308 -0.127096
8920.00000000 3370.00000000 -1100.00000000 2 170 169 97.000000 1.000000 4.000000 1.000000 -60.708740 114.000000 149.000000 0.462712 0.822775 0.330058
8920.00000000 3370.00000000 -1090.00000000 2 170 169 97.000000 1.000000 4.000000 1.000000 -60.708740 114.000000 149.000000 0.638744 0.581442 0.503916
8900.00000000 3400.00000000 -1120.00000000 2 170 169 97.000000 1.000000 4.000000 1.000000 -60.708740 114.000000 149.000000 0.782598 0.622490 -0.006901
8810.00000000 3470.00000000 -1060.00000000 2 170 169 97.000000 1.000000 4.000000 1.000000 -60.708740 114.000000 149.000000 0.502538 0.845517 -0.180437
8830.00000000 3440.00000000 -1070.00000000 2 170 169 97.000000 1.000000 4.000000 1.000000 -60.708740 114.000000 149.000000 0.397326 0.840195 0.369058
8830.00000000 3450.00000000 -1090.00000000 2 170 169 97.000000 1.000000 4.000000 1.000000 -60.708740 114.000000 149.000000 0.226747 0.973953 -0.001175
8830.00000000 3450.00000000 -1080.00000000 2 170 169 97.000000 1.000000 4.000000 1.000000 -60.708740 114.000000 149.000000 0.131299 0.984144 0.119254
8780.00000000 3490.00000000 -1060.00000000 2 170 169 97.000000 1.000000 4.000000 1.000000 -60.708740 114.000000 149.000000 0.306215 0.942927 -0.130850
8760.00000000 3500.00000000 -1050.00000000 2 170 169 97.000000 1.000000 4.000000 1.000000 -60.708740 114.000000 149.000000 0.408172 0.904712 -0.122031
8760.00000000 3500.00000000 -1050.00000000 2 170 169 97.000000 1.000000 4.000000 1.000000 -60.708740 114.000000 149.000000 0.408172 0.904712 -0.122031
8760.00000000 3490.00000000 -1080.00000000 2 170 169 97.000000 1.000000 4.000000 1.000000 -60.708740 114.000000 149.000000 0.230098 0.967430 0.105515
8760.00000000 3460.00000000 -1080.00000000 2 170 169 97.000000 1.000000 4.000000 1.000000 -60.708740 114.000000 149.000000 0.686910 0.708234 0.162970
8770.00000000 3460.00000000 -1090.00000000 2 170 169 97.000000 1.000000 4.000000 1.000000 -60.708740 114.000000 149.000000 0.637783 0.696206 0.329440
8740.00000000 3590.00000000 -1030.00000000 2 170 169 97.000000 1.000000 4.000000 1.000000 -60.708740 114.000000 149.000000 0.224097 0.931623 0.286111
8710.00000000 3610.00000000 -1010.00000000 2 170 169 97.000000 1.000000 4.000000 1.000000 -60.708740 114.000000 149.000000 0.762216 0.645826 0.044001
8750.00000000 3590.00000000 -1020.00000000 2 170 169 97.000000 1.000000 4.000000 1.000000 -60.708740 114.000000 149.000000 0.294229 0.954015 0.057317
8670.00000000 3630.00000000 -1020.00000000 2 170 169 97.000000 1.000000 4.000000 1.000000 -60.708740 114.000000 149.000000 0.278113 0.867774 0.411851
8690.00000000 3610.00000000 -980.00000000 2 170 169 97.000000 1.000000 4.000000 1.000000 -60.708740 114.000000 149.000000 0.678864 0.609152 0.409974
8700.00000000 3590.00000000 -1020.00000000 2 170 169 97.000000 1.000000 4.000000 1.000000 -60.708740 114.000000 149.000000 0.447125 0.782062 0.434118
8670.00000000 3570.00000000 -940.00000000 2 170 169 97.000000 1.000000 4.000000 1.000000 -60.708740 114.000000 149.000000 0.118668 0.813099 0.569902
8710.00000000 3580.00000000 -1020.00000000 2 170 169 97.000000 1.000000 4.000000 1.000000 -60.708740 114.000000 149.000000 0.594565 0.706561 0.383750
8660.00000000 3630.00000000 -1010.00000000 2 170 169 97.000000 1.000000 4.000000 1.000000 -60.708740 114.000000 149.000000 0.192250 0.963865 0.184403
8650.00000000 3630.00000000 -1020.00000000 2 170 169 97.000000 1.000000 4.000000 1.000000 -60.708740 114.000000 149.000000 0.461019 0.867190 0.188262
8650.00000000 3630.00000000 -1020.00000000 2 170 169 97.000000 1.000000 4.000000 1.000000 -60.708740 114.000000 149.000000 0.461019 0.867190 0.188262
8640.00000000 3600.00000000 -990.00000000 2 170 169 97.000000 1.000000 4.000000 1.000000 -60.708740 114.000000 149.000000 0.532117 0.569280 0.626715
8640.00000000 3610.00000000 -990.00000000 2 170 169 97.000000 1.000000 4.000000 1.000000 -60.708740 114.000000 149.000000 0.267707 0.799991 0.536980
8630.00000000 3610.00000000 -1000.00000000 2 170 169 97.000000 1.000000 4.000000 1.000000 -60.708740 114.000000 149.000000 0.405903 0.657729 0.634535
8640.00000000 3610.00000000 -1010.00000000 2 170 169 97.000000 1.000000 4.000000 1.000000 -60.708740 114.000000 149.000000 0.357656 0.907896 0.218648
8600.00000000 3630.00000000 -980.00000000 2 170 169 97.000000 1.000000 4.000000 1.000000 -60.708740 114.000000 149.000000 0.106248 0.819420 0.563260
8620.00000000 3640.00000000 -1000.00000000 2 170 169 97.000000 1.000000 4.000000 1.000000 -60.708740 114.000000 149.000000 0.366570 0.783201 0.502218
8590.00000000 3650.00000000 -1000.00000000 2 170 169 97.000000 1.000000 4.000000 1.000000 -60.708740 114.000000 149.000000 0.602324 0.769550 0.212129
8620.00000000 3630.00000000 -990.00000000 2 170 169 97.000000 1.000000 4.000000 1.000000 -60.708740 114.000000 149.000000 0.176715 0.972566 0.151288
8610.00000000 3600.00000000 -970.00000000 2 170 169 97.000000 1.000000 4.000000 1.000000 -60.708740 114.000000 149.000000 0.379794 0.539535 0.751437
8620.00000000 3590.00000000 -970.00000000 2 170 169 97.000000 1.000000 4.000000 1.000000 -60.708740 114.000000 149.000000 0.592618 0.729001 0.342582
8650.00000000 3540.00000000 -1030.00000000 2 170 169 97.000000 1.000000 4.000000 1.000000 -60.708740 114.000000 149.000000 0.643533 0.763393 -0.055649
8590.00000000 3550.00000000 -1010.00000000 2 170 169 97.000000 1.000000 4.000000 1.000000 -60.708740 114.000000 149.000000 0.479691 0.874567 0.070911
8730.00000000 3500.00000000 -960.00000000 2 170 169 97.000000 1.000000 4.000000 1.000000 -60.708740 114.000000 149.000000 0.143203 0.828213 0.541808
8750.00000000 3500.00000000 -1030.00000000 2 170 169 97.000000 1.000000 4.000000 1.000000 -60.708740 114.000000 149.000000 0.401085 0.915831 0.019597
8710.00000000 3450.00000000 -1000.00000000 2 170 169 97.000000 1.000000 4.000000 1.000000 -60.708740 114.000000 149.000000 0.641168 0.513271 0.570488
8690.00000000 3470.00000000 -990.00000000 2 170 169 97.000000 1.000000 4.000000 1.000000 -60.708740 114.000000 149.000000 0.748344 0.452296 0.485190
8700.00000000 3450.00000000 -1000.00000000 2 170 169 97.000000 1.000000 4.000000 1.000000 -60.708740 114.000000 149.000000 0.699700 0.617768 0.358863
8530.00000000 3590.00000000 -940.00000000 2 170 169 97.000000 1.000000 4.000000 1.000000 -60.708740 114.000000 149.000000 0.375041 0.790322 0.484495
8580.00000000 3630.00000000 -980.00000000 2 170 169 97.000000 1.000000 4.000000 1.000000 -60.708740 114.000000 149.000000 0.227112 0.725193 0.650011
8560.00000000 3640.00000000 -1010.00000000 2 170 169 97.000000 1.000000 4.000000 1.000000 -60.708740 114.000000 149.000000 0.450407 0.816462 0.361280
8550.00000000 3590.00000000 -990.00000000 2 170 169 97.000000 1.000000 4.000000 1.000000 -60.708740 114.000000 149.000000 0.562264 0.452147 0.692403
8580.00000000 3610.00000000 -1000.00000000 2 170 169 97.000000 1.000000 4.000000 1.000000 -60.708740 114.000000 149.000000 0.482599 0.775083 0.407853
8550.00000000 3590.00000000 -990.00000000 2 170 169 97.000000 1.000000 4.000000 1.000000 -60.708740 114.000000 149.000000 0.562264 0.452147 0.692403
8510.00000000 3650.00000000 -1010.00000000 2 170 169 97.000000 1.000000 4.000000 1.000000 -60.708740 114.000000 149.000000 0.623475 0.753430 0.208856
8510.00000000 3660.00000000 -1020.00000000 2 170 169 97.000000 1.000000 4.000000 1.000000 -60.708740 114.000000 149.000000 0.474195 0.655160 0.588136
8510.00000000 3610.00000000 -960.00000000 2 170 169 97.000000 1.000000 4.000000 1.000000 -60.708740 114.000000 149.000000 0.549555 0.617193 0.563083
8530.00000000 3590.00000000 -970.00000000 2 170 169 97.000000 1.000000 4.000000 1.000000 -60.708740 114.000000 149.000000 0.308125 0.771110 0.557179
8520.00000000 3620.00000000 -970.00000000 2 170 169 97.000000 1.000000 4.000000 1.000000 -60.708740 114.000000 149.000000 0.240618 0.715562 0.655801
8510.00000000 3610.00000000 -960.00000000 2 170 169 97.000000 1.000000 4.000000 1.000000 -60.708740 114.000000 149.000000 0.549555 0.617193 0.563083
8500.00000000 3590.00000000 -1030.00000000 2 170 169 97.000000 1.000000 4.000000 1.000000 -60.708740 114.000000 149.000000 0.642758 0.758011 -0.110820
8570.00000000 3570.00000000 -970.00000000 2 170 169 97.000000 1.000000 4.000000 1.000000 -60.708740 114.000000 149.000000 0.388773 0.847805 0.360669
8570.00000000 3580.00000000 -980.00000000 2 170 169 97.000000 1.000000 4.000000 1.000000 -60.708740 114.000000 149.000000 0.405263 0.603760 0.686466
8520.00000000 3560.00000000 -980.00000000 2 170 169 97.000000 1.000000 4.000000 1.000000 -60.708740 114.000000 149.000000 0.451931 0.840189 0.299735
8540.00000000 3580.00000000 -1010.00000000 2 170 169 97.000000 1.000000 4.000000 1.000000 -60.708740 114.000000 149.000000 0.308332 0.768434 0.560749
8470.00000000 3650.00000000 -980.00000000 2 170 169 97.000000 1.000000 4.000000 1.000000 -60.708740 114.000000 149.000000 0.094285 0.807947 0.581664
8470.00000000 3650.00000000 -980.00000000 2 170 169 97.000000 1.000000 4.000000 1.000000 -60.708740 114.000000 149.000000 0.094285 0.807947 0.581664
8460.00000000 3670.00000000 -980.00000000 2 170 169 97.000000 1.000000 4.000000 1.000000 -60.708740 114.000000 149.000000 0.528307 0.518244 0.672543
8480.00000000 3650.00000000 -970.00000000 2 170 169 97.000000 1.000000 4.000000 1.000000 -60.708740 114.000000 149.000000 0.101259 0.903008 0.417520
8470.00000000 3670.00000000 -1000.00000000 2 170 169 97.000000 1.000000 4.000000 1.000000 -60.708740 114.000000 149.000000 0.635717 0.618944 0.461272
8480.00000000 3650.00000000 -1020.00000000 2 170 169 97.000000 1.000000 4.000000 1.000000 -60.708740 114.000000 149.000000 0.691223 0.672155 0.265366
8480.00000000 3660.00000000 -1030.00000000 2 170 169 97.000000 1.000000 4.000000 1.000000 -60.708740 114.000000 149.000000 0.543688 0.839260 0.006779
8470.00000000 3620.00000000 -990.00000000 2 170 169 97.000000 1.000000 4.000000 1.000000 -60.708740 114.000000 149.000000 0.227891 0.918731 0.322488
8470.00000000 3620.00000000 -990.00000000 2 170 169 97.000000 1.000000 4.000000 1.000000 -60.708740 114.000000 149.000000 0.227891 0.918731 0.322488
8490.00000000 3590.00000000 -1030.00000000 2 170 169 97.000000 1.000000 4.000000 1.000000 -60.708740 114.000000 149.000000 0.759816 0.642696 0.098088
8450.00000000 3670.00000000 -960.00000000 2 170 169 97.000000 1.000000 4.000000 1.000000 -60.708740 114.000000 149.000000 0.122285 0.955928 0.266923
8440.00000000 3670.00000000 -970.00000000 2 170 169 97.000000 1.000000 4.000000 1.000000 -60.708740 114.000000 149.000000 0.339334 0.602359 0.722506
8450.00000000 3670.00000000 -960.00000000 2 170 169 97.000000 1.000000 4.000000 1.000000 -60.708740 114.000000 149.000000 0.122285 0.955928 0.266923
8450.00000000 3670.00000000 -990.00000000 2 170 169 97.000000 1.000000 4.000000 1.000000 -60.708740 114.000000 149.000000 0.702792 0.587038 0.401832
8450.00000000 3670.00000000 -990.00000000 2 170 169 97.000000 1.000000 4.000000 1.000000 -60.708740 114.000000 149.000000 0.702792 0.587038 0.401832
8450.00000000 3670.00000000 -1010.00000000 2 170 169 97.000000 1.000000 4.000000 1.000000 -60.708740 114.000000 149.000000 0.196409 0.913231 0.356977
8450.00000000 3670.00000000 -990.00000000 2 170 169 97.000000 1.000000 4.000000 1.000000 -60.708740 114.000000 149.000000 0.702792 0.587038 0.401832
8430.00000000 3600.00000000 -990.00000000 2 170 169 97.000000 1.000000 4.000000 1.000000 -60.708740 114.000000 149.000000 0.608711 0.745393 0.271774
8430.00000000 3600.00000000 -1010.00000000 2 170 169 97.000000 1.000000 4.000000 1.000000 -60.708740 114.000000 149.000000 0.605905 0.795508 0.006870
8420.00000000 3590.00000000 -1030.00000000 2 170 169 97.000000 1.000000 4.000000 1.000000 -60.708740 114.000000 149.000000 0.319776 0.867525 0.380977
8430.00000000 3590.00000000 -1000.00000000 2 170 169 97.000000 1.000000 4.000000 1.000000 -60.708740 114.000000 149.000000 0.218196 0.930500 0.294212
8430.00000000 3590.00000000 -1000.00000000 2 170 169 97.000000 1.000000 4.000000 1.000000 -60.708740 114.000000 149.000000 0.218196 0.930500 0.294212
8440.00000000 3580.00000000 -1030.00000000 2 170 169 97.000000 1.000000 4.000000 1.000000 -60.708740 114.000000 149.000000 0.431846 0.895836 -0.104817
8440.00000000 3570.00000000 -980.00000000 2 170 169 97.000000 1.000000 4.000000 1.000000 -60.708740 114.000000 149.000000 0.220944 0.563947 0.795706
8720.00000000 3600.00000000 -1050.00000000 2 170 169 97.000000 1.000000 4.000000 1.000000 -60.708740 114.000000 149.000000 0.654738 0.654738 0.377670
8710.00000000 3610.00000000 -1050.00000000 2 170 169 97.000000 1.000000 4.000000 1.000000 -60.708740 114.000000 149.000000 0.649522 0.691635 0.315852
8680.00000000 3600.00000000 -1090.00000000 2 170 169 97.000000 1.000000 4.000000 1.000000 -60.708740 114.000000 149.000000 0.703443 0.700469 -0.120463
8740.00000000 3510.00000000 -1060.00000000 2 170 169 97.000000 1.000000 4.000000 1.000000 -60.708740 114.000000 149.000000 0.226392 0.945356 0.234624
8730.00000000 3510.00000000 -1090.00000000 2 170 169 97.000000 1.000000 4.000000 1.000000 -60.708740 114.000000 149.000000 0.429295 0.847742 -0.311510
8740.00000000 3510.00000000 -1080.00000000 2 170 169 97.000000 1.000000 4.000000 1.000000 -60.708740 114.000000 149.000000 0.710751 0.702239 -0.041141
8730.00000000 3510.00000000 -1090.00000000 2 170 169 97.000000 1.000000 4.000000 1.000000 -60.708740 114.000000 149.000000 0.429295 0.847742 -0.311510
8720.00000000 3520.00000000 -1080.00000000 2 170 169 97.000000 1.000000 4.000000 1.000000 -60.708740 114.000000 149.000000 0.428024 0.898989 -0.092808
8690.00000000 3520.00000000 -1090.00000000 2 170 169 97.000000 1.000000 4.000000 1.000000 -60.708740 114.000000 149.000000 0.122207 0.983703 0.131886
8680.00000000 3520.00000000 -1080.00000000 2 170 169 97.000000 1.000000 4.000000 1.000000 -60.708740 114.000000 149.000000 0.264066 0.959654 0.096609
8670.00000000 3530.00000000 -1080.00000000 2 170 169 97.000000 1.000000 4.000000 1.000000 -60.708740 114.000000 149.000000 0.436328 0.882871 -0.173656
8660.00000000 3620.00000000 -1090.00000000 2 170 169 97.000000 1.000000 4.000000 1.000000 -60.708740 114.000000 149.000000 0.714398 0.654471 -0.247595
8630.00000000 3530.00000000 -1070.00000000 2 170 169 97.000000 1.000000 4.000000 1.000000 -60.708740 114.000000 149.000000 0.334398 0.941220 -0.047771
8630.00000000 3520.00000000 -1040.00000000 2 170 169 97.000000 1.000000 4.000000 1.000000 -60.708740 114.000000 149.000000 0.692583 0.657231 0.297281
8660.00000000 3540.00000000 -1040.00000000 2 170 169 97.000000 1.000000 4.000000 1.000000 -60.708740 114.000000 149.000000 0.793095 0.589199 0.154421
8630.00000000 3540.00000000 -1100.00000000 2 170 169 97.000000 1.000000 4.000000 1.000000 -60.708740 114.000000 149.000000 0.306935 0.951119 0.034104
8660.00000000 3530.00000000 -1090.00000000 2 170 169 97.000000 1.000000 4.000000 1.000000 -60.708740 114.000000 149.000000 0.375959 0.894931 0.240319
8610.00000000 3530.00000000 -1040.00000000 2 170 169 97.000000 1.000000 4.000000 1.000000 -60.708740 114.000000 149.000000 0.704945 0.660589 0.258216
8610.00000000 3540.00000000 -1070.00000000 2 170 169 97.000000 1.000000 4.000000 1.000000 -60.708740 114.000000 149.000000 0.552657 0.829699 -0.078543
8620.00000000 3530.00000000 -1060.00000000 2 170 169 97.000000 1.000000 4.000000 1.000000 -60.708740 114.000000 149.000000 0.503958 0.860518 0.074400
8590.00000000 3540.00000000 -1050.00000000 2 170 169 97.000000 1.000000 4.000000 1.000000 -60.708740 114.000000 149.000000 0.187096 0.927038 0.324956
8610.00000000 3530.00000000 -1050.00000000 2 170 169 97.000000 1.000000 4.000000 1.000000 -60.708740 114.000000 149.000000 0.301788 0.771236 0.560463
8620.00000000 3540.00000000 -1070.00000000 2 170 169 97.000000 1.000000 4.000000 1.000000 -60.708740 114.000000 149.000000 0.516807 0.854880 -0.045723
8610.00000000 3530.00000000 -1060.00000000 2 170 169 97.000000 1.000000 4.000000 1.000000 -60.708740 114.000000 149.000000 0.361044 0.921429 0.143581
8620.00000000 3530.00000000 -1080.00000000 2 170 169 97.000000 1.000000 4.000000 1.000000 -60.708740 114.000000 149.000000 0.611753 0.787362 -0.076289
8610.00000000 3530.00000000 -1100.00000000 2 170 169 97.000000 1.000000 4.000000 1.000000 -60.708740 114.000000 149.000000 0.248645 0.940406 0.231976
8720.00000000 3480.00000000 -1080.00000000 2 170 169 97.000000 1.000000 4.000000 1.000000 -60.708740 114.000000 149.000000 0.118740 0.990266 0.072627
8740.00000000 3490.00000000 -1080.00000000 2 170 169 97.000000 1.000000 4.000000 1.000000 -60.708740 114.000000 149.000000 0.500039 0.820937 -0.275723
8750.00000000 3490.00000000 -1080.00000000 2 170 169 97.000000 1.000000 4.000000 1.000000 -60.708740 114.000000 149.000000 0.624493 0.778830 0.058591
8700.00000000 3430.00000000 -1050.00000000 2 170 169 97.000000 1.000000 4.000000 1.000000 -60.708740 114.000000 149.000000 0.407086 0.881274 0.240076
8690.00000000 3440.00000000 -1090.00000000 2 170 169 97.000000 1.000000 4.000000 1.000000 -60.708740 114.000000 149.000000 0.530057 0.832947 0.158869
8590.00000000 3500.00000000 -1070.00000000 2 170 169 97.000000 1.000000 4.000000 1.000000 -60.708740 114.000000 149.000000 0.517797 0.826338 0.221477
8520.00000000 3670.00000000 -1040.00000000 2 170 169 97.000000 1.000000 4.000000 1.000000 -60.708740 114.000000 149.000000 0.592720 0.803086 0.061120
8500.00000000 3660.00000000 -1090.00000000 2 170 169 97.000000 1.000000 4.000000 1.000000 -60.708740 114.000000 149.000000 0.146112 0.971963 -0.184228
8550.00000000 3570.00000000 -1070.00000000 2 170 169 97.000000 1.000000 4.000000 1.000000 -60.708740 114.000000 149.000000 0.385802 0.922002 0.032695
8560.00000000 3560.00000000 -1060.00000000 2 170 169 97.000000 1.000000 4.000000 1.000000 -60.708740 114.000000 149.000000 0.121641 0.945056 0.303434
8570.00000000 3550.00000000 -1040.00000000 2 170 169 97.000000 1.000000 4.000000 1.000000 -60.708740 114.000000 149.000000 0.192799 0.980553 0.036667
8570.00000000 3550.00000000 -1060.00000000 2 170 169 97.000000 1.000000 4.000000 1.000000 -60.708740 114.000000 149.000000 0.382055 0.897317 -0.221036
8580.00000000 3550.00000000 -1050.00000000 2 170 169 97.000000 1.000000 4.000000 1.000000 -60.708740 114.000000 149.000000 0.531799 0.837766 -0.123844
8550.00000000 3560.00000000 -1100.00000000 2 170 169 97.000000 1.000000 4.000000 1.000000 -60.708740 114.000000 149.000000 0.565550 0.755678 -0.330307
8580.00000000 3540.00000000 -1040.00000000 2 170 169 97.000000 1.000000 4.000000 1.000000 -60.708740 114.000000 149.000000 0.667619 0.717187 0.199821
8560.00000000 3530.00000000 -1100.00000000 2 170 169 97.000000 1.000000 4.000000 1.000000 -60.708740 114.000000 149.000000 0.531328 0.819194 -0.215900
8530.00000000 3550.00000000 -1040.00000000 2 170 169 97.000000 1.000000 4.000000 1.000000 -60.708740 114.000000 149.000000 0.103308 0.937821 0.331390
8530.00000000 3550.00000000 -1100.00000000 2 170 169 97.000000 1.000000 4.000000 1.000000 -60.708740 114.000000 149.000000 0.494251 0.869293 0.006697
8530.00000000 3550.00000000 -1080.00000000 2 170 169 97.000000 1.000000 4.000000 1.000000 -60.708740 114.000000 149.000000 0.648661 0.742846 0.165583
8530.00000000 3560.00000000 -1090.00000000 2 170 169 97.000000 1.000000 4.000000 1.000000 -60.708740 114.000000 149.000000 0.117298 0.986965 -0.110189
8510.00000000 3570.00000000 -1090.00000000 2 170 169 97.000000 1.000000 4.000000 1.000000 -60.708740 114.000000 149.000000 0.146124 0.988350 -0.042572
8540.00000000 3570.00000000 -1100.00000000 2 170 169 97.000000 1.000000 4.000000 1.000000 -60.708740 114.000000 149.000000 0.433611 0.886074 -0.163873
8530.00000000 3550.00000000 -1080.00000000 2 170 169 97.000000 1.000000 4.000000 1.000000 -60.708740 114.000000 149.000000 0.648661 0.742846 0.165583
8520.00000000 3560.00000000 -1110.00000000 2 170 169 97.000000 1.000000 4.000000 1.000000 -60.708740 114.000000 149.000000 0.161764 0.979228 0.122249
8430.00000000 3590.00000000 -1040.00000000 2 170 169 97.000000 1.000000 4.000000 1.000000 -60.708740 114.000000 149.000000 0.583826 0.810005 -0.055131
8420.00000000 3600.00000000 -1040.00000000 2 170 169 97.000000 1.000000 4.000000 1.000000 -60.708740 114.000000 149.000000 0.401287 0.915147 0.038407
8430.00000000 3600.00000000 -1060.00000000 2 170 169 97.000000 1.000000 4.000000 1.000000 -60.708740 114.000000 149.000000 0.154340 0.927432 0.340661
8420.00000000 3590.00000000 -1060.00000000 2 170 169 97.000000 1.000000 4.000000 1.000000 -60.708740 114.000000 149.000000 0.419226 0.899148 0.125627
8470.00000000 3670.00000000 -1040.00000000 2 170 169 97.000000 1.000000 4.000000 1.000000 -60.708740 114.000000 149.000000 0.671632 0.740873 -0.004154
8490.00000000 3670.00000000 -1070.00000000 2 170 169 97.000000 1.000000 4.000000 1.000000 -60.708740 114.000000 149.000000 0.272546 0.930610 -0.244303
8430.00000000 3600.00000000 -1060.00000000 2 170 169 97.000000 1.000000 4.000000 1.000000 -60.708740 114.000000 149.000000 0.154340 0.927432 0.340661
8420.00000000 3600.00000000 -1060.00000000 2 170 169 97.000000 1.000000 4.000000 1.000000 -60.708740 114.000000 149.000000 0.102752 0.982788 0.153523
8430.00000000 3600.00000000 -1040.00000000 2 170 169 97.000000 1.000000 4.000000 1.000000 -60.708740 114.000000 149.000000 0.433755 0.894181 0.110895
8450.00000000 3600.00000000 -1050.00000000 2 170 169 97.000000 1.000000 4.000000 1.000000 -60.708740 114.000000 149.000000 0.184519 0.925412 0.331007
8460.00000000 3590.00000000 -1070.00000000 2 170 169 97.000000 1.000000 4.000000 1.000000 -60.708740 114.000000 149.000000 0.777929 0.628167 -0.015254
8460.00000000 3580.00000000 -1040.00000000 2 170 169 97.000000 1.000000 4.000000 1.000000 -60.708740 114.000000 149.000000 0.491338 0.776735 0.394043
8460.00000000 3580.00000000 -1040.00000000 2 170 169 97.000000 1.000000 4.000000 1.000000 -60.708740 114.000000 149.000000 0.491338 0.776735 0.394043
8450.00000000 3570.00000000 -1040.00000000 2 170 169 97.000000 1.000000 4.000000 1.000000 -60.708740 114.000000 149.000000 0.632167 0.773591 -0.043842
8570.00000000 3480.00000000 -1040.00000000 2 170 169 97.000000 1.000000 4.000000 1.000000 -60.708740 114.000000 149.000000 0.149820 0.868376 0.472734
8390.00000000 3690.00000000 -890.00000000 2 170 169 97.000000 1.000000 4.000000 1.000000 -60.708740 114.000000 149.000000 0.379857 0.862751 0.333720
8350.00000000 3720.00000000 -940.00000000 2 170 169 97.000000 1.000000 4.000000 1.000000 -60.708740 114.000000 149.000000 0.093029 0.845845 0.525254
8400.00000000 3680.00000000 -960.00000000 2 170 169 97.000000 1.000000 4.000000 1.000000 -60.708740 114.000000 149.000000 0.513653 0.477082 0.713129
8390.00000000 3700.00000000 -980.00000000 2 170 169 97.000000 1.000000 4.000000 1.000000 -60.708740 114.000000 149.000000 0.474000 0.820446 0.319675
8410.00000000 3690.00000000 -980.00000000 2 170 169 97.000000 1.000000 4.000000 1.000000 -60.708740 114.000000 149.000000 0.492477 0.786349 0.372991
8390.00000000 3690.00000000 -970.00000000 2 170 169 97.000000 1.000000 4.000000 1.000000 -60.708740 114.000000 149.000000 0.557562 0.530611 0.638417
8410.00000000 3690.00000000 -970.00000000 2 170 169 97.000000 1.000000 4.000000 1.000000 -60.708740 114.000000 149.000000 0.539099 0.663377 0.518945
8390.00000000 3690.00000000 -960.00000000 2 170 169 97.000000 1.000000 4.000000 1.000000 -60.708740 114.000000 149.000000 0.607106 0.446549 0.657280
8410.00000000 3680.00000000 -960.00000000 2 170 169 97.000000 1.000000 4.000000 1.000000 -60.708740 114.000000 149.000000 0.406073 0.687838 0.601651
8390.00000000 3700.00000000 -990.00000000 2 170 169 97.000000 1.000000 4.000000 1.000000 -60.708740 114.000000 149.000000 0.411011 0.900243 0.143641
8390.00000000 3680.00000000 -1030.00000000 2 170 169 97.000000 1.000000 4.000000 1.000000 -60.708740 114.000000 149.000000 0.498471 0.865035 0.056928
8410.00000000 3690.00000000 -1000.00000000 2 170 169 97.000000 1.000000 4.000000 1.000000 -60.708740 114.000000 149.000000 0.591274 0.772244 0.232453
8350.00000000 3720.00000000 -980.00000000 2 170 169 97.000000 1.000000 4.000000 1.000000 -60.708740 114.000000 149.000000 0.587458 0.756213 0.288157
8350.00000000 3720.00000000 -960.00000000 2 170 169 97.000000 1.000000 4.000000 1.000000 -60.708740 114.000000 149.000000 0.396289 0.902739 0.167386
8340.00000000 3730.00000000 -1000.00000000 2 170 169 97.000000 1.000000 4.000000 1.000000 -60.708740 114.000000 149.000000 0.257063 0.966118 -0.023148
8340.00000000 3680.00000000 -960.00000000 2 170 169 97.000000 1.000000 4.000000 1.000000 -60.708740 114.000000 149.000000 0.351130 0.632033 0.690827
8370.00000000 3690.00000000 -950.00000000 2 170 169 97.000000 1.000000 4.000000 1.000000 -60.708740 114.000000 149.000000 0.268769 0.704526 0.656815
8360.00000000 3710.00000000 -1020.00000000 2 170 169 97.000000 1.000000 4.000000 1.000000 -60.708740 114.000000 149.000000 0.173793 0.980778 0.088720
8360.00000000 3700.00000000 -1030.00000000 2 170 169 97.000000 1.000000 4.000000 1.000000 -60.708740 114.000000 149.000000 0.415454 0.893154 -0.172261
8270.00000000 3740.00000000 -930.00000000 2 170 169 97.000000 1.000000 4.000000 1.000000 -60.708740 114.000000 149.000000 0.350353 0.715372 0.604563
8330.00000000 3720.00000000 -1020.00000000 2 170 169 97.000000 1.000000 4.000000 1.000000 -60.708740 114.000000 149.000000 0.178934 0.908982 0.376476
8310.00000000 3720.00000000 -1020.00000000 2 170 169 97.000000 1.000000 4.000000 1.000000 -60.708740 114.000000 149.000000 0.349105 0.936530 0.032205
8290.00000000 3750.00000000 -1010.00000000 2 170 169 97.000000 1.000000 4.000000 1.000000 -60.708740 114.000000 149.000000 0.579095 0.800558 0.154126
8320.00000000 3710.00000000 -970.00000000 2 170 169 97.000000 1.000000 4.000000 1.000000 -60.708740 114.000000 149.000000 0.601942 0.745642 0.285803
8330.00000000 3710.00000000 -970.00000000 2 170 169 97.000000 1.000000 4.000000 1.000000 -60.708740 114.000000 149.000000 0.587563 0.641437 0.493283
8330.00000000 3710.00000000 -970.00000000 2 170 169 97.000000 1.000000 4.000000 1.000000 -60.708740 114.000000 149.000000 0.587563 0.641437 0.493283
8320.00000000 3710.00000000 -1020.00000000 2 170 169 97.000000 1.000000 4.000000 1.000000 -60.708740 114.000000 149.000000 0.106573 0.934874 0.338605
8300.00000000 3700.00000000 -1010.00000000 2 170 169 97.000000 1.000000 4.000000 1.000000 -60.708740 114.000000 149.000000 0.439096 0.714153 0.545142
8250.00000000 3730.00000000 -970.00000000 2 170 169 97.000000 1.000000 4.000000 1.000000 -60.708740 114.000000 149.000000 0.243082 0.949242 0.199626
8260.00000000 3720.00000000 -960.00000000 2 170 169 97.000000 1.000000 4.000000 1.000000 -60.708740 114.000000 149.000000 0.081802 0.813713 0.575483
8250.00000000 3720.00000000 -960.00000000 2 170 169 97.000000 1.000000 4.000000 1.000000 -60.708740 114.000000 149.000000 0.382709 0.589667 0.711215
8260.00000000 3720.00000000 -980.00000000 2 170 169 97.000000 1.000000 4.000000 1.000000 -60.708740 114.000000 149.000000 0.452284 0.870461 0.194260
8270.00000000 3730.00000000 -990.00000000 2 170 169 97.000000 1.000000 4.000000 1.000000 -60.708740 114.000000 149.000000 0.260018 0.962700 0.074834
8270.00000000 3730.00000000 -990.00000000 2 170 169 97.000000 1.000000 4.000000 1.000000 -60.708740 114.000000 149.000000 0.260018 0.962700 0.074834
8280.00000000 3690.00000000 -970.00000000 2 170 169 97.000000 1.000000 4.000000 1.000000 -60.708740 114.000000 149.000000 0.339557 0.882849 0.324466
8280.00000000 3690.00000000 -970.00000000 2 170 169 97.000000 1.000000 4.000000 1.000000 -60.708740 114.000000 149.000000 0.339557 0.882849 0.324466
8170.00000000 3760.00000000 -920.00000000 2 170 169 97.000000 1.000000 4.000000 1.000000 -60.708740 114.000000 149.000000 0.513511 0.513511 0.687469
8170.00000000 3760.00000000 -970.00000000 2 170 169 97.000000 1.000000 4.000000 1.000000 -60.708740 114.000000 149.000000 0.381568 0.907474 0.175778
8230.00000000 3730.00000000 -920.00000000 2 170 169 97.000000 1.000000 4.000000 1.000000 -60.708740 114.000000 149.000000 0.183753 0.566446 0.803351
8240.00000000 3740.00000000 -940.00000000 2 170 169 97.000000 1.000000 4.000000 1.000000 -60.708740 114.000000 149.000000 0.255678 0.937485 0.236118
8210.00000000 3710.00000000 -930.00000000 2 170 169 97.000000 1.000000 4.000000 1.000000 -60.708740 114.000000 149.000000 0.385095 0.849703 0.360149
8180.00000000 3680.00000000 -940.00000000 2 170 169 97.000000 1.000000 4.000000 1.000000 -60.708740 114.000000 149.000000 0.605257 0.601885 0.520959
8240.00000000 3730.00000000 -1010.00000000 2 170 169 97.000000 1.000000 4.000000 1.000000 -60.708740 114.000000 149.000000 0.542218 0.820123 0.182753
8220.00000000 3710.00000000 -980.00000000 2 170 169 97.000000 1.000000 4.000000 1.000000 -60.708740 114.000000 149.000000 0.069303 0.835878 0.544523
8240.00000000 3700.00000000 -970.00000000 2 170 169 97.000000 1.000000 4.000000 1.000000 -60.708740 114.000000 149.000000 0.133235 0.684142 0.717076
8200.00000000 3730.00000000 -970.00000000 2 170 169 97.000000 1.000000 4.000000 1.000000 -60.708740 114.000000 149.000000 0.706641 0.669037 0.230324
8170.00000000 3750.00000000 -970.00000000 2 170 169 97.000000 1.000000 4.000000 1.000000 -60.708740 114.000000 149.000000 0.527460 0.844794 0.090054
8180.00000000 3750.00000000 -970.00000000 2 170 169 97.000000 1.000000 4.000000 1.000000 -60.708740 114.000000 149.000000 0.537903 0.818283 0.202666
8200.00000000 3730.00000000 -970.00000000 2 170 169 97.000000 1.000000 4.000000 1.000000 -60.708740 114.000000 149.000000 0.706641 0.669037 0.230324
8190.00000000 3740.00000000 -960.00000000 2 170 169 97.000000 1.000000 4.000000 1.000000 -60.708740 114.000000 149.000000 0.738339 0.635315 0.226341
8190.00000000 3740.00000000 -960.00000000 2 170 169 97.000000 1.000000 4.000000 1.000000 -60.708740 114.000000 149.000000 0.738339 0.635315 0.226341
8180.00000000 3750.00000000 -1000.00000000 2 170 169 97.000000 1.000000 4.000000 1.000000 -60.708740 114.000000 149.000000 0.457506 0.648552 0.608332
8180.00000000 3730.00000000 -990.00000000 2 170 169 97.000000 1.000000 4.000000 1.000000 -60.708740 114.000000 149.000000 0.193024 0.879660 0.434673
8190.00000000 3730.00000000 -1010.00000000 2 170 169 97.000000 1.000000 4.000000 1.000000 -60.708740 114.000000 149.000000 0.378105 0.924985 -0.037941
8150.00000000 3770.00000000 -920.00000000 2 170 169 97.000000 1.000000 4.000000 1.000000 -60.708740 114.000000 149.000000 0.298641 0.830252 0.470633
8160.00000000 3760.00000000 -920.00000000 2 170 169 97.000000 1.000000 4.000000 1.000000 -60.708740 114.000000 149.000000 0.397963 0.582909 0.708408
8090.00000000 3780.00000000 -940.00000000 2 170 169 97.000000 1.000000 4.000000 1.000000 -60.708740 114.000000 149.000000 0.353836 0.860639 0.366197
8130.00000000 3770.00000000 -920.00000000 2 170 169 97.000000 1.000000 4.000000 1.000000 -60.708740 114.000000 149.000000 0.525247 0.720765 0.452342
8160.00000000 3760.00000000 -970.00000000 2 170 169 97.000000 1.000000 4.000000 1.000000 -60.708740 114.000000 149.000000 0.324319 0.911874 0.251602
8160.00000000 3760.00000000 -970.00000000 2 170 169 97.000000 1.000000 4.000000 1.000000 -60.708740 114.000000 149.000000 0.324319 0.911874 0.251602
8140.00000000 3760.00000000 -970.00000000 2 170 169 97.000000 1.000000 4.000000 1.000000 -60.708740 114.000000 149.000000 0.100199 0.808853 0.579411
8130.00000000 3760.00000000 -1010.00000000 2 170 169 97.000000 1.000000 4.000000 1.000000 -60.708740 114.000000 149.000000 0.666108 0.715795 0.209614
8130.00000000 3770.00000000 -1000.00000000 2 170 169 97.000000 1.000000 4.000000 1.000000 -60.708740 114.000000 149.000000 0.199294 0.976908 -0.077028
8150.00000000 3770.00000000 -990.00000000 2 170 169 97.000000 1.000000 4.000000 1.000000 -60.708740 114.000000 149.000000 0.261008 0.900993 0.346536
8120.00000000 3770.00000000 -980.00000000 2 170 169 97.000000 1.000000 4.000000 1.000000 -60.708740 114.000000 149.000000 0.351537 0.936173 -0.001260
8100.00000000 3780.00000000 -980.00000000 2 170 169 97.000000 1.000000 4.000000 1.000000 -60.708740 114.000000 149.000000 0.218671 0.962415 0.161057
8120.00000000 3770.00000000 -970.00000000 2 170 169 97.000000 1.000000 4.000000 1.000000 -60.708740 114.000000 149.000000 0.283294 0.958745 0.023505
8080.00000000 3780.00000000 -950.00000000 2 170 169 97.000000 1.000000 4.000000 1.000000 -60.708740 114.000000 149.000000 0.415871 0.791288 0.448235
8120.00000000 3770.00000000 -1010.00000000 2 170 169 97.000000 1.000000 4.000000 1.000000 -60.708740 114.000000 149.000000 0.490162 0.871548 0.012086
8120.00000000 3770.00000000 -990.00000000 2 170 169 97.000000 1.000000 4.000000 1.000000 -60.708740 114.000000 149.000000 0.401703 0.912960 -0.071684
8110.00000000 3770.00000000 -990.00000000 2 170 169 97.000000 1.000000 4.000000 1.000000 -60.708740 114.000000 149.000000 0.456981 0.888043 0.050473
8090.00000000 3780.00000000 -990.00000000 2 170 169 97.000000 1.000000 4.000000 1.000000 -60.708740 114.000000 149.000000 0.081506 0.969300 0.231980
8160.00000000 3720.00000000 -900.00000000 2 170 169 97.000000 1.000000 4.000000 1.000000 -60.708740 114.000000 149.000000 0.293027 0.725363 0.622883
8160.00000000 3680.00000000 -930.00000000 2 170 169 97.000000 1.000000 4.000000 1.000000 -60.708740 114.000000 149.000000 0.267869 0.407100 0.873222
8140.00000000 3750.00000000 -1010.00000000 2 170 169 97.000000 1.000000 4.000000 1.000000 -60.708740 114.000000 149.000000 0.782819 0.611808 0.113516
8150.00000000 3740.00000000 -1020.00000000 2 170 169 97.000000 1.000000 4.000000 1.000000 -60.708740 114.000000 149.000000 0.630609 0.695788 0.343820
8150.00000000 3690.00000000 -990.00000000 2 170 169 97.000000 1.000000 4.000000 1.000000 -60.708740 114.000000 149.000000 0.462540 0.815405 0.348097
8140.00000000 3680.00000000 -1010.00000000 2 170 169 97.000000 1.000000 4.000000 1.000000 -60.708740 114.000000 149.000000 0.337672 0.660662 0.670450
8130.00000000 3680.00000000 -1000.00000000 2 170 169 97.000000 1.000000 4.000000 1.000000 -60.708740 114.000000 149.000000 0.731509 0.557262 0.392878
8120.00000000 3700.00000000 -980.00000000 2 170 169 97.000000 1.000000 4.000000 1.000000 -60.708740 114.000000 149.000000 0.600120 0.656956 0.456359
8080.00000000 3700.00000000 -950.00000000 2 170 169 97.000000 1.000000 4.000000 1.000000 -60.708740 114.000000 149.000000 0.501727 0.282905 0.817456
8120.00000000 3680.00000000 -950.00000000 2 170 169 97.000000 1.000000 4.000000 1.000000 -60.708740 114.000000 149.000000 0.521610 0.672558 0.524965
8410.00000000 3760.00000000 -1060.00000000 2 170 169 97.000000 1.000000 4.000000 1.000000 -60.708740 114.000000 149.000000 0.347615 0.860541 0.372335
8390.00000000 3690.00000000 -1050.00000000 2 170 169 97.000000 1.000000 4.000000 1.000000 -60.708740 114.000000 149.000000 0.150158 0.968966 -0.196360
8400.00000000 3680.00000000 -1050.00000000 2 170 169 97.000000 1.000000 4.000000 1.000000 -60.708740 114.000000 149.000000 0.416913 0.895431 0.156163
8050.00000000 3790.00000000 -910.00000000 2 170 169 97.000000 1.000000 4.000000 1.000000 -60.708740 114.000000 149.000000 0.473983 0.813222 0.337654
8060.00000000 3780.00000000 -940.00000000 2 170 169 97.000000 1.000000 4.000000 1.000000 -60.708740 114.000000 149.000000 0.146177 0.718828 0.679646
8070.00000000 3770.00000000 -940.00000000 2 170 169 97.000000 1.000000 4.000000 1.000000 -60.708740 114.000000 149.000000 0.107640 0.662058 0.741682
8070.00000000 3770.00000000 -930.00000000 2 170 169 97.000000 1.000000 4.000000 1.000000 -60.708740 114.000000 149.000000 0.041160 0.665649 0.745129
8010.00000000 3810.00000000 -910.00000000 2 170 169 97.000000 1.000000 4.000000 1.000000 -60.708740 114.000000 149.000000 0.626916 0.545805 0.555944
8020.00000000 3820.00000000 -910.00000000 2 170 169 97.000000 1.000000 4.000000 1.000000 -60.708740 114.000000 149.000000 0.460970 0.839679 0.287136
8020.00000000 3800.00000000 -910.00000000 2 170 169 97.000000 1.000000 4.000000 1.000000 -60.708740 114.000000 149.000000 0.512332 0.549287 0.660152
8020.00000000 3770.00000000 -900.00000000 2 170 169 97.000000 1.000000 4.000000 1.000000 -60.708740 114.000000 149.000000 0.203589 0.567906 0.797518
8010.00000000 3780.00000000 -900.00000000 2 170 169 97.000000 1.000000 4.000000 1.000000 -60.708740 114.000000 149.000000 0.306202 0.758290 0.575531
8060.00000000 3800.00000000 -990.00000000 2 170 169 97.000000 1.000000 4.000000 1.000000 -60.708740 114.000000 149.000000 0.267006 0.957314 0.110710
8000.00000000 3820.00000000 -960.00000000 2 170 169 97.000000 1.000000 4.000000 1.000000 -60.708740 114.000000 149.000000 0.305709 0.893267 0.329569
8020.00000000 3810.00000000 -950.00000000 2 170 169 97.000000 1.000000 4.000000 1.000000 -60.708740 114.000000 149.000000 0.436105 0.882420 0.176484
8030.00000000 3800.00000000 -950.00000000 2 170 169 97.000000 1.000000 4.000000 1.000000 -60.708740 114.000000 149.000000 0.491108 0.828842 0.268018
8020.00000000 3820.00000000 -970.00000000 2 170 169 97.000000 1.000000 4.000000 1.000000 -60.708740 114.000000 149.000000 0.469359 0.763730 0.443192
8040.00000000 3750.00000000 -940.00000000 2 170 169 97.000000 1.000000 4.000000 1.000000 -60.708740 114.000000 149.000000 0.308834 0.799801 0.514723
8050.00000000 3710.00000000 -880.00000000 2 170 169 97.000000 1.000000 4.000000 1.000000 -60.708740 114.000000 149.000000 0.538274 0.282554 0.793993
8070.00000000 3690.00000000 -940.00000000 2 170 169 97.000000 1.000000 4.000000 1.000000 -60.708740 114.000000 149.000000 0.548355 0.465019 0.695028
8030.00000000 3730.00000000 -890.00000000 2 170 169 97.000000 1.000000 4.000000 1.000000 -60.708740 114.000000 149.000000 0.309384 0.021294 0.950699
8020.00000000 3750.00000000 -920.00000000 2 170 169 97.000000 1.000000 4.000000 1.000000 -60.708740 114.000000 149.000000 0.598371 0.460930 0.655359
8020.00000000 3750.00000000 -920.00000000 2 170 169 97.000000 1.000000 4.000000 1.000000 -60.708740 114.000000 149.000000 0.598371 0.460930 0.655359
8060.00000000 3720.00000000 -990.00000000 2 170 169 97.000000 1.000000 4.000000 1.000000 -60.708740 114.000000 149.000000 0.519190 0.854415 0.020441
8060.00000000 3690.00000000 -980.00000000 2 170 169 97.000000 1.000000 4.000000 1.000000 -60.708740 114.000000 149.000000 0.585212 0.412798 0.697944
8060.00000000 3700.00000000 -1010.00000000 2 170 169 97.000000 1.000000 4.000000 1.000000 -60.708740 114.000000 149.000000 0.506597 0.587383 0.631142
