//X Y Z R G B PointSourceId ScanDirectionFlag NumberOfReturns ReturnNumber GpsTime Intensity Classification Nx Ny Nz
-10120.00000000 -18530.00000000 -540.00000000 113 75 161 0.000000 0.000000 0.000000 0.000000 -60.708740 0.000000 44.000000 -0.385197 -0.552388 0.739250
-10120.00000000 -18550.00000000 -560.00000000 113 75 161 0.000000 0.000000 0.000000 0.000000 -60.708740 0.000000 44.000000 0.068292 -0.126167 0.989656
-10130.00000000 -18530.00000000 -540.00000000 113 75 161 0.000000 0.000000 0.000000 0.000000 -60.708740 0.000000 44.000000 -0.310285 -0.164106 0.936372
-10150.00000000 -18540.00000000 -550.00000000 113 75 161 0.000000 0.000000 0.000000 0.000000 -60.708740 0.000000 44.000000 -0.352678 -0.139688 0.925260
-10130.00000000 -18530.00000000 -560.00000000 113 75 161 0.000000 0.000000 0.000000 0.000000 -60.708740 0.000000 44.000000 -0.265953 -0.465802 0.843977
-10190.00000000 -18490.00000000 -540.00000000 113 75 161 0.000000 0.000000 0.000000 0.000000 -60.708740 0.000000 44.000000 -0.422152 -0.052600 0.904998
-10280.00000000 -18460.00000000 -550.00000000 113 75 161 0.000000 0.000000 0.000000 0.000000 -60.708740 0.000000 44.000000 -0.166556 -0.098475 0.981102
-10200.00000000 -18480.00000000 -590.00000000 113 75 161 0.000000 0.000000 0.000000 0.000000 -60.708740 0.000000 44.000000 -0.419192 -0.046875 0.906687
-10220.00000000 -18560.00000000 -600.00000000 113 75 161 0.000000 0.000000 0.000000 0.000000 -60.708740 0.000000 44.000000 0.300491 -0.336370 0.892502
-10270.00000000 -18560.00000000 -540.00000000 113 75 161 0.000000 0.000000 0.000000 0.000000 -60.708740 0.000000 44.000000 -0.025472 -0.017321 0.999525
-10260.00000000 -18540.00000000 -600.00000000 113 75 161 0.000000 0.000000 0.000000 0.000000 -60.708740 0.000000 44.000000 -0.210198 0.074983 0.974779
-10210.00000000 -18510.00000000 -620.00000000 113 75 161 0.000000 0.000000 0.000000 0.000000 -60.708740 0.000000 44.000000 -0.441532 -0.132888 0.887350
-10310.00000000 -18240.00000000 -470.00000000 113 75 161 0.000000 0.000000 0.000000 0.000000 -60.708740 0.000000 44.000000 -0.184553 -0.086776 0.978984
-10300.00000000 -18390.00000000 -380.00000000 113 75 161 0.000000 0.000000 0.000000 0.000000 -60.708740 0.000000 44.000000 -0.083141 -0.689922 0.719094
-10300.00000000 -18390.00000000 -570.00000000 113 75 161 0.000000 0.000000 0.000000 0.000000 -60.708740 0.000000 44.000000 -0.119264 -0.075264 0.990006
-10350.00000000 -18370.00000000 -590.00000000 113 75 161 0.000000 0.000000 0.000000 0.000000 -60.708740 0.000000 44.000000 -0.394455 -0.046485 0.917739
-10320.00000000 -18550.00000000 -550.00000000 113 75 161 0.000000 0.000000 0.000000 0.000000 -60.708740 0.000000 44.000000 0.324394 0.042312 0.944975
-10300.00000000 -18540.00000000 -590.00000000 113 75 161 0.000000 0.000000 0.000000 0.000000 -60.708740 0.000000 44.000000 0.186435 -0.550210 0.813948
-10320.00000000 -18560.00000000 -610.00000000 113 75 161 0.000000 0.000000 0.000000 0.000000 -60.708740 0.000000 44.000000 0.194702 -0.465204 0.863526
-9640.00000000 -18880.00000000 -240.00000000 113 75 161 0.000000 0.000000 0.000000 0.000000 -60.708740 0.000000 44.000000 0.658459 0.527104 -0.537208
-9690.00000000 -18880.00000000 -230.00000000 113 75 161 0.000000 0.000000 0.000000 0.000000 -60.708740 0.000000 44.000000 0.580433 0.718553 -0.383119
-9680.00000000 -18870.00000000 -300.00000000 113 75 161 0.000000 0.000000 0.000000 0.000000 -60.708740 0.000000 44.000000 0.664941 0.745020 0.052909
-9670.00000000 -18880.00000000 -320.00000000 113 75 161 0.000000 0.000000 0.000000 0.000000 -60.708740 0.000000 44.000000 0.841585 0.423134 -0.335697
-9680.00000000 -18860.00000000 -280.00000000 113 75 161 0.000000 0.000000 0.000000 0.000000 -60.708740 0.000000 44.000000 0.523693 0.694354 -0.493577
-9720.00000000 -18870.00000000 -240.00000000 113 75 161 0.000000 0.000000 0.000000 0.000000 -60.708740 0.000000 44.000000 0.461414 0.707945 -0.534707
-9720.00000000 -18840.00000000 -210.00000000 113 75 161 0.000000 0.000000 0.000000 0.000000 -60.708740 0.000000 44.000000 0.737682 0.667006 0.104542
-9700.00000000 -18860.00000000 -280.00000000 113 75 161 0.000000 0.000000 0.000000 0.000000 -60.708740 0.000000 44.000000 0.688790 0.558704 -0.461973
-9750.00000000 -18820.00000000 -310.00000000 113 75 161 0.000000 0.000000 0.000000 0.000000 -60.708740 0.000000 44.000000 -0.594949 -0.415967 0.687755
-9750.00000000 -18840.00000000 -320.00000000 113 75 161 0.000000 0.000000 0.000000 0.000000 -60.708740 0.000000 44.000000 0.627949 0.634647 -0.450449
-9750.00000000 -18850.00000000 -330.00000000 113 75 161 0.000000 0.000000 0.000000 0.000000 -60.708740 0.000000 44.000000 0.455439 0.695670 -0.555535
-9510.00000000 -19050.00000000 -170.00000000 113 75 161 0.000000 0.000000 0.000000 0.000000 -60.708740 0.000000 44.000000 0.585548 0.749180 0.309618
-9580.00000000 -18970.00000000 -180.00000000 113 75 161 0.000000 0.000000 0.000000 0.000000 -60.708740 0.000000 44.000000 0.609151 0.691691 0.387941
-9530.00000000 -19030.00000000 -170.00000000 113 75 161 0.000000 0.000000 0.000000 0.000000 -60.708740 0.000000 44.000000 0.480437 0.850932 0.212356
-9580.00000000 -19010.00000000 -160.00000000 113 75 161 0.000000 0.000000 0.000000 0.000000 -60.708740 0.000000 44.000000 0.671194 0.735535 -0.092125
-9600.00000000 -18970.00000000 -220.00000000 113 75 161 0.000000 0.000000 0.000000 0.000000 -60.708740 0.000000 44.000000 0.489392 0.843937 0.219696
-9590.00000000 -18970.00000000 -230.00000000 113 75 161 0.000000 0.000000 0.000000 0.000000 -60.708740 0.000000 44.000000 0.856998 0.515275 -0.006727
-9540.00000000 -19060.00000000 -240.00000000 113 75 161 0.000000 0.000000 0.000000 0.000000 -60.708740 0.000000 44.000000 0.792378 0.609841 -0.015211
-9570.00000000 -19010.00000000 -220.00000000 113 75 161 0.000000 0.000000 0.000000 0.000000 -60.708740 0.000000 44.000000 0.517240 0.848620 0.110940
-9600.00000000 -19060.00000000 -190.00000000 113 75 161 0.000000 0.000000 0.000000 0.000000 -60.708740 0.000000 44.000000 0.694569 0.719425 -0.001381
-9460.00000000 -19120.00000000 -170.00000000 113 75 161 0.000000 0.000000 0.000000 0.000000 -60.708740 0.000000 44.000000 0.767655 0.640861 0.001378
-9470.00000000 -19160.00000000 -180.00000000 113 75 161 0.000000 0.000000 0.000000 0.000000 -60.708740 0.000000 44.000000 0.816230 0.499765 0.289832
-9540.00000000 -19070.00000000 -170.00000000 113 75 161 0.000000 0.000000 0.000000 0.000000 -60.708740 0.000000 44.000000 0.870607 0.449393 0.200225
-9610.00000000 -18990.00000000 -180.00000000 113 75 161 0.000000 0.000000 0.000000 0.000000 -60.708740 0.000000 44.000000 0.793114 0.487451 0.365186
-9650.00000000 -19010.00000000 -170.00000000 113 75 161 0.000000 0.000000 0.000000 0.000000 -60.708740 0.000000 44.000000 0.590217 0.805355 -0.055200
-9620.00000000 -19050.00000000 -180.00000000 113 75 161 0.000000 0.000000 0.000000 0.000000 -60.708740 0.000000 44.000000 0.804172 0.499633 0.321986
-9630.00000000 -18930.00000000 -230.00000000 113 75 161 0.000000 0.000000 0.000000 0.000000 -60.708740 0.000000 44.000000 0.793176 0.545014 0.271722
-9630.00000000 -18940.00000000 -210.00000000 113 75 161 0.000000 0.000000 0.000000 0.000000 -60.708740 0.000000 44.000000 0.637023 0.739819 -0.216494
-9640.00000000 -18920.00000000 -210.00000000 113 75 161 0.000000 0.000000 0.000000 0.000000 -60.708740 0.000000 44.000000 0.925070 0.378615 -0.029925
-9620.00000000 -18940.00000000 -240.00000000 113 75 161 0.000000 0.000000 0.000000 0.000000 -60.708740 0.000000 44.000000 0.823095 0.566835 0.034818
-9640.00000000 -18910.00000000 -260.00000000 113 75 161 0.000000 0.000000 0.000000 0.000000 -60.708740 0.000000 44.000000 0.455419 0.768825 -0.448889
-9640.00000000 -18960.00000000 -200.00000000 113 75 161 0.000000 0.000000 0.000000 0.000000 -60.708740 0.000000 44.000000 0.945071 0.317638 -0.077122
-9620.00000000 -18950.00000000 -220.00000000 113 75 161 0.000000 0.000000 0.000000 0.000000 -60.708740 0.000000 44.000000 0.595890 0.783907 0.174370
-9610.00000000 -18950.00000000 -230.00000000 113 75 161 0.000000 0.000000 0.000000 0.000000 -60.708740 0.000000 44.000000 0.735996 0.671870 0.083073
-9630.00000000 -18980.00000000 -190.00000000 113 75 161 0.000000 0.000000 0.000000 0.000000 -60.708740 0.000000 44.000000 0.639249 0.767384 0.049830
-9650.00000000 -18930.00000000 -260.00000000 113 75 161 0.000000 0.000000 0.000000 0.000000 -60.708740 0.000000 44.000000 0.509651 0.664397 -0.546656
-9670.00000000 -18900.00000000 -290.00000000 113 75 161 0.000000 0.000000 0.000000 0.000000 -60.708740 0.000000 44.000000 0.777500 0.628881 0.001376
-9620.00000000 -19050.00000000 -200.00000000 113 75 161 0.000000 0.000000 0.000000 0.000000 -60.708740 0.000000 44.000000 0.931793 0.350935 -0.092776
-9610.00000000 -19060.00000000 -210.00000000 113 75 161 0.000000 0.000000 0.000000 0.000000 -60.708740 0.000000 44.000000 0.905834 0.348622 0.240681
-9610.00000000 -19060.00000000 -210.00000000 113 75 161 0.000000 0.000000 0.000000 0.000000 -60.708740 0.000000 44.000000 0.905834 0.348622 0.240681
-9610.00000000 -19050.00000000 -190.00000000 113 75 161 0.000000 0.000000 0.000000 0.000000 -60.708740 0.000000 44.000000 0.657570 0.641007 0.395867
-9620.00000000 -19020.00000000 -220.00000000 113 75 161 0.000000 0.000000 0.000000 0.000000 -60.708740 0.000000 44.000000 0.587875 0.784345 0.198005
-9610.00000000 -19050.00000000 -190.00000000 113 75 161 0.000000 0.000000 0.000000 0.000000 -60.708740 0.000000 44.000000 0.657570 0.641007 0.395867
-9620.00000000 -19010.00000000 -210.00000000 113 75 161 0.000000 0.000000 0.000000 0.000000 -60.708740 0.000000 44.000000 0.951115 0.308835 -0.001230
-9130.00000000 -19340.00000000 -50.00000000 113 75 161 0.000000 0.000000 0.000000 0.000000 -60.708740 0.000000 44.000000 0.881027 0.154795 0.447024
-9230.00000000 -19240.00000000 -40.00000000 113 75 161 0.000000 0.000000 0.000000 0.000000 -60.708740 0.000000 44.000000 0.871483 0.457051 0.177824
-9350.00000000 -19290.00000000 -150.00000000 113 75 161 0.000000 0.000000 0.000000 0.000000 -60.708740 0.000000 44.000000 0.634974 0.760475 0.135959
-9410.00000000 -19300.00000000 -190.00000000 113 75 161 0.000000 0.000000 0.000000 0.000000 -60.708740 0.000000 44.000000 0.910714 0.379346 0.163389
-9460.00000000 -19300.00000000 -200.00000000 113 75 161 0.000000 0.000000 0.000000 0.000000 -60.708740 0.000000 44.000000 0.852021 0.285034 0.439107
-9490.00000000 -19260.00000000 -250.00000000 113 75 161 0.000000 0.000000 0.000000 0.000000 -60.708740 0.000000 44.000000 0.702227 0.702227 0.117285
-9590.00000000 -19300.00000000 -320.00000000 113 75 161 0.000000 0.000000 0.000000 0.000000 -60.708740 0.000000 44.000000 -0.375314 -0.588374 0.716210
-9660.00000000 -19330.00000000 -330.00000000 113 75 161 0.000000 0.000000 0.000000 0.000000 -60.708740 0.000000 44.000000 0.007575 0.104963 0.994447
-9770.00000000 -19540.00000000 -170.00000000 113 75 161 0.000000 0.000000 0.000000 0.000000 -60.708740 0.000000 44.000000 0.451660 0.571658 -0.684990
-9760.00000000 -19540.00000000 -130.00000000 113 75 161 0.000000 0.000000 0.000000 0.000000 -60.708740 0.000000 44.000000 0.425892 0.843983 -0.326049
-9770.00000000 -19530.00000000 -140.00000000 113 75 161 0.000000 0.000000 0.000000 0.000000 -60.708740 0.000000 44.000000 0.483993 0.671562 -0.561030
-9740.00000000 -19300.00000000 -440.00000000 113 75 161 0.000000 0.000000 0.000000 0.000000 -60.708740 0.000000 44.000000 0.122711 -0.137290 0.982901
-9750.00000000 -19300.00000000 -440.00000000 113 75 161 0.000000 0.000000 0.000000 0.000000 -60.708740 0.000000 44.000000 0.254171 0.025539 0.966822
-9720.00000000 -19300.00000000 -460.00000000 113 75 161 0.000000 0.000000 0.000000 0.000000 -60.708740 0.000000 44.000000 0.180786 -0.001137 0.983522
-9730.00000000 -19320.00000000 -450.00000000 113 75 161 0.000000 0.000000 0.000000 0.000000 -60.708740 0.000000 44.000000 0.602286 0.061225 0.795929
-9720.00000000 -19310.00000000 -460.00000000 113 75 161 0.000000 0.000000 0.000000 0.000000 -60.708740 0.000000 44.000000 0.386003 -0.166651 0.907320
-9750.00000000 -19310.00000000 -480.00000000 113 75 161 0.000000 0.000000 0.000000 0.000000 -60.708740 0.000000 44.000000 0.473622 -0.249839 0.844549
-9760.00000000 -19340.00000000 -480.00000000 113 75 161 0.000000 0.000000 0.000000 0.000000 -60.708740 0.000000 44.000000 0.028282 0.139147 0.989868
-9730.00000000 -19350.00000000 -680.00000000 113 75 161 0.000000 0.000000 0.000000 0.000000 -60.708740 0.000000 44.000000 0.064255 -0.146034 0.987191
-9730.00000000 -19380.00000000 -650.00000000 113 75 161 0.000000 0.000000 0.000000 0.000000 -60.708740 0.000000 44.000000 0.109589 -0.345002 0.932182
-9750.00000000 -19360.00000000 -680.00000000 113 75 161 0.000000 0.000000 0.000000 0.000000 -60.708740 0.000000 44.000000 -0.079161 -0.142962 0.986557
-9740.00000000 -19380.00000000 -650.00000000 113 75 161 0.000000 0.000000 0.000000 0.000000 -60.708740 0.000000 44.000000 0.384874 -0.009010 0.922925
-9690.00000000 -19430.00000000 -600.00000000 113 75 161 0.000000 0.000000 0.000000 0.000000 -60.708740 0.000000 44.000000 0.162623 0.033447 0.986121
-9730.00000000 -19350.00000000 -770.00000000 113 75 161 0.000000 0.000000 0.000000 0.000000 -60.708740 0.000000 44.000000 0.089953 -0.430392 0.898149
-9740.00000000 -19360.00000000 -730.00000000 113 75 161 0.000000 0.000000 0.000000 0.000000 -60.708740 0.000000 44.000000 0.215896 0.091101 0.972157
-9760.00000000 -19360.00000000 -770.00000000 113 75 161 0.000000 0.000000 0.000000 0.000000 -60.708740 0.000000 44.000000 0.281363 -0.103384 0.954016
-9760.00000000 -19430.00000000 -740.00000000 113 75 161 0.000000 0.000000 0.000000 0.000000 -60.708740 0.000000 44.000000 -0.059452 0.011473 0.998165
-9740.00000000 -19410.00000000 -760.00000000 113 75 161 0.000000 0.000000 0.000000 0.000000 -60.708740 0.000000 44.000000 0.170252 0.085730 0.981664
-9820.00000000 -18730.00000000 -350.00000000 113 75 161 0.000000 0.000000 0.000000 0.000000 -60.708740 0.000000 44.000000 0.613922 0.496184 -0.613922
-9910.00000000 -18720.00000000 -330.00000000 113 75 161 0.000000 0.000000 0.000000 0.000000 -60.708740 0.000000 44.000000 -0.237341 -0.680586 0.693161
-9860.00000000 -18760.00000000 -340.00000000 113 75 161 0.000000 0.000000 0.000000 0.000000 -60.708740 0.000000 44.000000 -0.547354 -0.240340 0.801649
-9850.00000000 -18860.00000000 -330.00000000 113 75 161 0.000000 0.000000 0.000000 0.000000 -60.708740 0.000000 44.000000 -0.296790 -0.608019 0.736361
-9900.00000000 -18780.00000000 -340.00000000 113 75 161 0.000000 0.000000 0.000000 0.000000 -60.708740 0.000000 44.000000 0.529740 0.539830 -0.654186
-9920.00000000 -18850.00000000 -340.00000000 113 75 161 0.000000 0.000000 0.000000 0.000000 -60.708740 0.000000 44.000000 0.279507 0.666026 -0.691581
-9950.00000000 -18770.00000000 -350.00000000 113 75 161 0.000000 0.000000 0.000000 0.000000 -60.708740 0.000000 44.000000 -0.070810 -0.692206 0.718218
-9990.00000000 -18790.00000000 -350.00000000 113 75 161 0.000000 0.000000 0.000000 0.000000 -60.708740 0.000000 44.000000 -0.246674 -0.367795 0.896593
-9950.00000000 -18840.00000000 -340.00000000 113 75 161 0.000000 0.000000 0.000000 0.000000 -60.708740 0.000000 44.000000 0.090993 -0.312541 0.945536
-9950.00000000 -18850.00000000 -330.00000000 113 75 161 0.000000 0.000000 0.000000 0.000000 -60.708740 0.000000 44.000000 -0.104769 -0.668456 0.736335
-9860.00000000 -18720.00000000 -360.00000000 113 75 161 0.000000 0.000000 0.000000 0.000000 -60.708740 0.000000 44.000000 -0.157211 -0.486326 0.859518
-9900.00000000 -18700.00000000 -440.00000000 113 75 161 0.000000 0.000000 0.000000 0.000000 -60.708740 0.000000 44.000000 -0.495044 -0.387920 0.777463
-9930.00000000 -18660.00000000 -420.00000000 113 75 161 0.000000 0.000000 0.000000 0.000000 -60.708740 0.000000 44.000000 0.582090 0.612460 -0.534848
-9920.00000000 -18710.00000000 -380.00000000 113 75 161 0.000000 0.000000 0.000000 0.000000 -60.708740 0.000000 44.000000 0.729136 0.409831 -0.548087
-9920.00000000 -18710.00000000 -380.00000000 113 75 161 0.000000 0.000000 0.000000 0.000000 -60.708740 0.000000 44.000000 0.729136 0.409831 -0.548087
-9830.00000000 -18820.00000000 -360.00000000 113 75 161 0.000000 0.000000 0.000000 0.000000 -60.708740 0.000000 44.000000 0.672407 0.508078 -0.538261
-9870.00000000 -18760.00000000 -360.00000000 113 75 161 0.000000 0.000000 0.000000 0.000000 -60.708740 0.000000 44.000000 0.473265 0.815156 -0.333977
-9930.00000000 -18770.00000000 -410.00000000 113 75 161 0.000000 0.000000 0.000000 0.000000 -60.708740 0.000000 44.000000 0.129720 0.749992 -0.648602
-9980.00000000 -18590.00000000 -440.00000000 113 75 161 0.000000 0.000000 0.000000 0.000000 -60.708740 0.000000 44.000000 -0.058407 -0.784927 0.616830
-10020.00000000 -18610.00000000 -460.00000000 113 75 161 0.000000 0.000000 0.000000 0.000000 -60.708740 0.000000 44.000000 0.050035 -0.701919 0.710497
-10000.00000000 -18640.00000000 -470.00000000 113 75 161 0.000000 0.000000 0.000000 0.000000 -60.708740 0.000000 44.000000 0.041223 -0.700797 0.712169
-10010.00000000 -18590.00000000 -490.00000000 113 75 161 0.000000 0.000000 0.000000 0.000000 -60.708740 0.000000 44.000000 -0.112225 -0.205535 0.972194
-10020.00000000 -18620.00000000 -460.00000000 113 75 161 0.000000 0.000000 0.000000 0.000000 -60.708740 0.000000 44.000000 -0.458334 -0.350490 0.816754
-9990.00000000 -18650.00000000 -430.00000000 113 75 161 0.000000 0.000000 0.000000 0.000000 -60.708740 0.000000 44.000000 -0.124363 -0.539883 0.832502
-9990.00000000 -18660.00000000 -440.00000000 113 75 161 0.000000 0.000000 0.000000 0.000000 -60.708740 0.000000 44.000000 -0.031743 -0.545150 0.837737
-10000.00000000 -18650.00000000 -430.00000000 113 75 161 0.000000 0.000000 0.000000 0.000000 -60.708740 0.000000 44.000000 0.273391 0.779086 -0.564166
-10000.00000000 -18730.00000000 -430.00000000 113 75 161 0.000000 0.000000 0.000000 0.000000 -60.708740 0.000000 44.000000 -0.556412 -0.206930 0.804727
-10000.00000000 -18730.00000000 -430.00000000 113 75 161 0.000000 0.000000 0.000000 0.000000 -60.708740 0.000000 44.000000 -0.556412 -0.206930 0.804727
-9980.00000000 -18690.00000000 -450.00000000 113 75 161 0.000000 0.000000 0.000000 0.000000 -60.708740 0.000000 44.000000 -0.227832 -0.062808 0.971673
-9980.00000000 -18680.00000000 -450.00000000 113 75 161 0.000000 0.000000 0.000000 0.000000 -60.708740 0.000000 44.000000 0.639889 0.420498 -0.643213
-10050.00000000 -18570.00000000 -470.00000000 113 75 161 0.000000 0.000000 0.000000 0.000000 -60.708740 0.000000 44.000000 -0.444502 -0.157820 0.881765
-10050.00000000 -18590.00000000 -480.00000000 113 75 161 0.000000 0.000000 0.000000 0.000000 -60.708740 0.000000 44.000000 -0.456411 -0.489365 0.743109
-10050.00000000 -18570.00000000 -470.00000000 113 75 161 0.000000 0.000000 0.000000 0.000000 -60.708740 0.000000 44.000000 -0.444502 -0.157820 0.881765
-10040.00000000 -18600.00000000 -450.00000000 113 75 161 0.000000 0.000000 0.000000 0.000000 -60.708740 0.000000 44.000000 0.051298 -0.506050 0.860978
-10030.00000000 -18590.00000000 -490.00000000 113 75 161 0.000000 0.000000 0.000000 0.000000 -60.708740 0.000000 44.000000 -0.488822 -0.122566 0.863730
-10070.00000000 -18590.00000000 -490.00000000 113 75 161 0.000000 0.000000 0.000000 0.000000 -60.708740 0.000000 44.000000 -0.318796 -0.093919 0.943159
-10080.00000000 -18570.00000000 -500.00000000 113 75 161 0.000000 0.000000 0.000000 0.000000 -60.708740 0.000000 44.000000 0.056379 -0.468912 0.881444
-10090.00000000 -18700.00000000 -410.00000000 113 75 161 0.000000 0.000000 0.000000 0.000000 -60.708740 0.000000 44.000000 0.077321 -0.204961 0.975711
-10060.00000000 -18650.00000000 -480.00000000 113 75 161 0.000000 0.000000 0.000000 0.000000 -60.708740 0.000000 44.000000 -0.431561 -0.434793 0.790386
-10070.00000000 -18660.00000000 -490.00000000 113 75 161 0.000000 0.000000 0.000000 0.000000 -60.708740 0.000000 44.000000 -0.383354 -0.402285 0.831389
-10070.00000000 -18690.00000000 -450.00000000 113 75 161 0.000000 0.000000 0.000000 0.000000 -60.708740 0.000000 44.000000 -0.278331 -0.377627 0.883136
-10090.00000000 -18660.00000000 -510.00000000 113 75 161 0.000000 0.000000 0.000000 0.000000 -60.708740 0.000000 44.000000 0.273026 -0.396717 0.876398
-10110.00000000 -18700.00000000 -450.00000000 113 75 161 0.000000 0.000000 0.000000 0.000000 -60.708740 0.000000 44.000000 -0.306770 -0.526119 0.793152
-10020.00000000 -18580.00000000 -540.00000000 113 75 161 0.000000 0.000000 0.000000 0.000000 -60.708740 0.000000 44.000000 0.403095 0.661872 -0.632013
-10010.00000000 -18660.00000000 -540.00000000 113 75 161 0.000000 0.000000 0.000000 0.000000 -60.708740 0.000000 44.000000 0.068076 -0.226507 0.971628
-10070.00000000 -18600.00000000 -540.00000000 113 75 161 0.000000 0.000000 0.000000 0.000000 -60.708740 0.000000 44.000000 -0.427044 -0.144252 0.892650
-10110.00000000 -18590.00000000 -600.00000000 113 75 161 0.000000 0.000000 0.000000 0.000000 -60.708740 0.000000 44.000000 -0.285043 -0.092411 0.954049
-10110.00000000 -18640.00000000 -560.00000000 113 75 161 0.000000 0.000000 0.000000 0.000000 -60.708740 0.000000 44.000000 0.110708 -0.154504 0.981770
-10100.00000000 -18610.00000000 -530.00000000 113 75 161 0.000000 0.000000 0.000000 0.000000 -60.708740 0.000000 44.000000 0.027666 -0.407083 0.912972
-10100.00000000 -18610.00000000 -530.00000000 113 75 161 0.000000 0.000000 0.000000 0.000000 -60.708740 0.000000 44.000000 0.027666 -0.407083 0.912972
-10100.00000000 -18620.00000000 -560.00000000 113 75 161 0.000000 0.000000 0.000000 0.000000 -60.708740 0.000000 44.000000 0.111987 -0.240707 0.964116
-10100.00000000 -18610.00000000 -560.00000000 113 75 161 0.000000 0.000000 0.000000 0.000000 -60.708740 0.000000 44.000000 -0.083380 -0.132703 0.987642
-9950.00000000 -18770.00000000 -360.00000000 113 75 161 0.000000 0.000000 0.000000 0.000000 -60.708740 0.000000 44.000000 0.061904 0.727015 -0.683826
-9980.00000000 -18740.00000000 -400.00000000 113 75 161 0.000000 0.000000 0.000000 0.000000 -60.708740 0.000000 44.000000 0.450460 0.703117 -0.550193
-9950.00000000 -18790.00000000 -380.00000000 113 75 161 0.000000 0.000000 0.000000 0.000000 -60.708740 0.000000 44.000000 0.395885 0.644348 -0.654287
-9850.00000000 -19170.00000000 -40.00000000 113 75 161 0.000000 0.000000 0.000000 0.000000 -60.708740 0.000000 44.000000 -0.139754 -0.032950 0.989638
-9900.00000000 -19130.00000000 -80.00000000 113 75 161 0.000000 0.000000 0.000000 0.000000 -60.708740 0.000000 44.000000 0.312125 0.642039 -0.700260
-9930.00000000 -19090.00000000 -70.00000000 113 75 161 0.000000 0.000000 0.000000 0.000000 -60.708740 0.000000 44.000000 -0.168777 -0.468173 0.867368
-9910.00000000 -19140.00000000 -20.00000000 113 75 161 0.000000 0.000000 0.000000 0.000000 -60.708740 0.000000 44.000000 -0.011518 0.063873 0.997892
-9920.00000000 -19140.00000000 -90.00000000 113 75 161 0.000000 0.000000 0.000000 0.000000 -60.708740 0.000000 44.000000 -0.015361 0.730365 -0.682884
-9900.00000000 -19220.00000000 -90.00000000 113 75 161 0.000000 0.000000 0.000000 0.000000 -60.708740 0.000000 44.000000 -0.361106 -0.483080 0.797644
-9910.00000000 -19210.00000000 -80.00000000 113 75 161 0.000000 0.000000 0.000000 0.000000 -60.708740 0.000000 44.000000 0.327697 0.784875 -0.525914
-9930.00000000 -19230.00000000 -100.00000000 113 75 161 0.000000 0.000000 0.000000 0.000000 -60.708740 0.000000 44.000000 0.403175 0.642093 -0.652048
-9930.00000000 -19200.00000000 -180.00000000 113 75 161 0.000000 0.000000 0.000000 0.000000 -60.708740 0.000000 44.000000 0.771943 0.629475 0.088679
-9920.00000000 -19220.00000000 -220.00000000 113 75 161 0.000000 0.000000 0.000000 0.000000 -60.708740 0.000000 44.000000 0.668719 0.743483 0.006923
-9910.00000000 -19210.00000000 -250.00000000 113 75 161 0.000000 0.000000 0.000000 0.000000 -60.708740 0.000000 44.000000 0.539368 0.812893 0.219742
-9930.00000000 -19210.00000000 -240.00000000 113 75 161 0.000000 0.000000 0.000000 0.000000 -60.708740 0.000000 44.000000 0.609192 0.785344 0.110095
-9870.00000000 -19230.00000000 -330.00000000 113 75 161 0.000000 0.000000 0.000000 0.000000 -60.708740 0.000000 44.000000 0.710394 0.182585 0.679708
-9870.00000000 -19210.00000000 -340.00000000 113 75 161 0.000000 0.000000 0.000000 0.000000 -60.708740 0.000000 44.000000 0.274781 -0.146103 0.950342
-9980.00000000 -19050.00000000 -40.00000000 113 75 161 0.000000 0.000000 0.000000 0.000000 -60.708740 0.000000 44.000000 0.028320 -0.467948 0.883302
-9960.00000000 -19040.00000000 -40.00000000 113 75 161 0.000000 0.000000 0.000000 0.000000 -60.708740 0.000000 44.000000 0.085793 -0.629635 0.772139
-10000.00000000 -19050.00000000 -50.00000000 113 75 161 0.000000 0.000000 0.000000 0.000000 -60.708740 0.000000 44.000000 -0.093517 -0.442460 0.891899
-9990.00000000 -19040.00000000 -40.00000000 113 75 161 0.000000 0.000000 0.000000 0.000000 -60.708740 0.000000 44.000000 -0.103449 -0.587180 0.802819
-9980.00000000 -19050.00000000 -50.00000000 113 75 161 0.000000 0.000000 0.000000 0.000000 -60.708740 0.000000 44.000000 -0.020896 -0.633858 0.773167
-10010.00000000 -19060.00000000 -160.00000000 113 75 161 0.000000 0.000000 0.000000 0.000000 -60.708740 0.000000 44.000000 0.475377 0.863920 0.166308
-10110.00000000 -18950.00000000 -140.00000000 113 75 161 0.000000 0.000000 0.000000 0.000000 -60.708740 0.000000 44.000000 0.633787 0.762036 -0.132722
-10110.00000000 -18960.00000000 -130.00000000 113 75 161 0.000000 0.000000 0.000000 0.000000 -60.708740 0.000000 44.000000 0.708583 0.657856 0.255217
-10110.00000000 -18950.00000000 -130.00000000 113 75 161 0.000000 0.000000 0.000000 0.000000 -60.708740 0.000000 44.000000 0.422425 0.901635 0.092795
-10080.00000000 -18980.00000000 -130.00000000 113 75 161 0.000000 0.000000 0.000000 0.000000 -60.708740 0.000000 44.000000 0.534528 0.810313 -0.240150
-10110.00000000 -18960.00000000 -180.00000000 113 75 161 0.000000 0.000000 0.000000 0.000000 -60.708740 0.000000 44.000000 0.814500 0.518602 0.260079
-10110.00000000 -18970.00000000 -160.00000000 113 75 161 0.000000 0.000000 0.000000 0.000000 -60.708740 0.000000 44.000000 0.517186 0.846436 0.126747
-10040.00000000 -19000.00000000 -90.00000000 113 75 161 0.000000 0.000000 0.000000 0.000000 -60.708740 0.000000 44.000000 0.237193 0.798394 -0.553450
-10060.00000000 -19050.00000000 -40.00000000 113 75 161 0.000000 0.000000 0.000000 0.000000 -60.708740 0.000000 44.000000 0.306257 0.791825 -0.528412
-10070.00000000 -19050.00000000 -60.00000000 113 75 161 0.000000 0.000000 0.000000 0.000000 -60.708740 0.000000 44.000000 0.528028 0.675541 -0.514618
-10070.00000000 -19060.00000000 -60.00000000 113 75 161 0.000000 0.000000 0.000000 0.000000 -60.708740 0.000000 44.000000 -0.528640 -0.508502 0.679680
-10080.00000000 -19050.00000000 -40.00000000 113 75 161 0.000000 0.000000 0.000000 0.000000 -60.708740 0.000000 44.000000 0.601878 0.622109 -0.500722
-10090.00000000 -19040.00000000 -40.00000000 113 75 161 0.000000 0.000000 0.000000 0.000000 -60.708740 0.000000 44.000000 0.401964 0.676556 -0.617006
-10100.00000000 -19060.00000000 -70.00000000 113 75 161 0.000000 0.000000 0.000000 0.000000 -60.708740 0.000000 44.000000 0.577291 0.567133 -0.587448
-10060.00000000 -18990.00000000 -110.00000000 113 75 161 0.000000 0.000000 0.000000 0.000000 -60.708740 0.000000 44.000000 0.417341 0.872349 -0.254624
-10040.00000000 -19010.00000000 -130.00000000 113 75 161 0.000000 0.000000 0.000000 0.000000 -60.708740 0.000000 44.000000 0.605980 0.710516 -0.357708
-10030.00000000 -18990.00000000 -110.00000000 113 75 161 0.000000 0.000000 0.000000 0.000000 -60.708740 0.000000 44.000000 0.537920 0.738612 -0.406319
-10040.00000000 -19020.00000000 -160.00000000 113 75 161 0.000000 0.000000 0.000000 0.000000 -60.708740 0.000000 44.000000 0.589606 0.780496 0.207824
-10040.00000000 -19040.00000000 -140.00000000 113 75 161 0.000000 0.000000 0.000000 0.000000 -60.708740 0.000000 44.000000 0.807258 0.548935 -0.216806
-10110.00000000 -18920.00000000 -270.00000000 113 75 161 0.000000 0.000000 0.000000 0.000000 -60.708740 0.000000 44.000000 0.119399 -0.192296 0.974046
-9950.00000000 -19070.00000000 -80.00000000 113 75 161 0.000000 0.000000 0.000000 0.000000 -60.708740 0.000000 44.000000 0.365952 0.658057 -0.658057
-9960.00000000 -19130.00000000 -90.00000000 113 75 161 0.000000 0.000000 0.000000 0.000000 -60.708740 0.000000 44.000000 0.512575 0.777756 -0.363815
-9950.00000000 -19120.00000000 -70.00000000 113 75 161 0.000000 0.000000 0.000000 0.000000 -60.708740 0.000000 44.000000 0.259057 0.786590 -0.560504
-10010.00000000 -19080.00000000 -60.00000000 113 75 161 0.000000 0.000000 0.000000 0.000000 -60.708740 0.000000 44.000000 0.269504 0.677746 -0.684125
-10010.00000000 -19080.00000000 -60.00000000 113 75 161 0.000000 0.000000 0.000000 0.000000 -60.708740 0.000000 44.000000 0.269504 0.677746 -0.684125
-10000.00000000 -19090.00000000 -60.00000000 113 75 161 0.000000 0.000000 0.000000 0.000000 -60.708740 0.000000 44.000000 -0.228192 -0.293390 0.928359
-10000.00000000 -19150.00000000 -90.00000000 113 75 161 0.000000 0.000000 0.000000 0.000000 -60.708740 0.000000 44.000000 -0.205721 -0.617163 0.759466
-9960.00000000 -19090.00000000 -120.00000000 113 75 161 0.000000 0.000000 0.000000 0.000000 -60.708740 0.000000 44.000000 0.626939 0.653547 -0.424057
-10010.00000000 -19090.00000000 -110.00000000 113 75 161 0.000000 0.000000 0.000000 0.000000 -60.708740 0.000000 44.000000 0.608777 0.658814 -0.441989
-9970.00000000 -19180.00000000 -100.00000000 113 75 161 0.000000 0.000000 0.000000 0.000000 -60.708740 0.000000 44.000000 -0.301821 -0.473843 0.827271
-9980.00000000 -19210.00000000 -150.00000000 113 75 161 0.000000 0.000000 0.000000 0.000000 -60.708740 0.000000 44.000000 0.633212 0.767751 0.097980
-10030.00000000 -19070.00000000 -30.00000000 113 75 161 0.000000 0.000000 0.000000 0.000000 -60.708740 0.000000 44.000000 0.375247 0.793978 -0.478319
-10100.00000000 -19070.00000000 -90.00000000 113 75 161 0.000000 0.000000 0.000000 0.000000 -60.708740 0.000000 44.000000 0.861504 0.458567 -0.218007
-10090.00000000 -19080.00000000 -80.00000000 113 75 161 0.000000 0.000000 0.000000 0.000000 -60.708740 0.000000 44.000000 0.425169 0.713026 -0.557517
-10110.00000000 -19140.00000000 -30.00000000 113 75 161 0.000000 0.000000 0.000000 0.000000 -60.708740 0.000000 44.000000 0.601785 0.778512 -0.178250
-10100.00000000 -19150.00000000 -20.00000000 113 75 161 0.000000 0.000000 0.000000 0.000000 -60.708740 0.000000 44.000000 0.658098 0.638206 -0.399500
-10040.00000000 -19070.00000000 -110.00000000 113 75 161 0.000000 0.000000 0.000000 0.000000 -60.708740 0.000000 44.000000 0.322385 0.688511 -0.649631
-10100.00000000 -19080.00000000 -140.00000000 113 75 161 0.000000 0.000000 0.000000 0.000000 -60.708740 0.000000 44.000000 0.558538 0.744174 -0.366388
-10090.00000000 -19130.00000000 -140.00000000 113 75 161 0.000000 0.000000 0.000000 0.000000 -60.708740 0.000000 44.000000 0.364171 0.918161 -0.156073
-10090.00000000 -19190.00000000 -20.00000000 113 75 161 0.000000 0.000000 0.000000 0.000000 -60.708740 0.000000 44.000000 0.737490 0.626945 -0.251094
-10110.00000000 -19180.00000000 -60.00000000 113 75 161 0.000000 0.000000 0.000000 0.000000 -60.708740 0.000000 44.000000 0.490131 0.863838 -0.116424
-10080.00000000 -19220.00000000 -100.00000000 113 75 161 0.000000 0.000000 0.000000 0.000000 -60.708740 0.000000 44.000000 0.475217 0.783378 -0.400609
-10080.00000000 -19160.00000000 -130.00000000 113 75 161 0.000000 0.000000 0.000000 0.000000 -60.708740 0.000000 44.000000 0.490804 0.868346 0.071313
-10110.00000000 -19180.00000000 -140.00000000 113 75 161 0.000000 0.000000 0.000000 0.000000 -60.708740 0.000000 44.000000 0.713208 0.510385 -0.480460
-10070.00000000 -19150.00000000 -190.00000000 113 75 161 0.000000 0.000000 0.000000 0.000000 -60.708740 0.000000 44.000000 0.796463 0.594047 0.112942
-10090.00000000 -19080.00000000 -260.00000000 113 75 161 0.000000 0.000000 0.000000 0.000000 -60.708740 0.000000 44.000000 0.822291 0.473250 0.316024
-10050.00000000 -19210.00000000 -210.00000000 113 75 161 0.000000 0.000000 0.000000 0.000000 -60.708740 0.000000 44.000000 0.414398 0.906751 0.077956
-10070.00000000 -19150.00000000 -600.00000000 113 75 161 0.000000 0.000000 0.000000 0.000000 -60.708740 0.000000 44.000000 0.205630 -0.134106 0.969398
-10030.00000000 -19170.00000000 -600.00000000 113 75 161 0.000000 0.000000 0.000000 0.000000 -60.708740 0.000000 44.000000 0.485660 -0.205992 0.849530
-10080.00000000 -19180.00000000 -560.00000000 113 75 161 0.000000 0.000000 0.000000 0.000000 -60.708740 0.000000 44.000000 0.498603 0.372742 0.782597
-10090.00000000 -19180.00000000 -540.00000000 113 75 161 0.000000 0.000000 0.000000 0.000000 -60.708740 0.000000 44.000000 0.531081 0.282088 0.798986
-10100.00000000 -19180.00000000 -540.00000000 113 75 161 0.000000 0.000000 0.000000 0.000000 -60.708740 0.000000 44.000000 0.249763 0.222165 0.942476
-10080.00000000 -19160.00000000 -550.00000000 113 75 161 0.000000 0.000000 0.000000 0.000000 -60.708740 0.000000 44.000000 0.512744 -0.060076 0.856437
-10080.00000000 -19190.00000000 -560.00000000 113 75 161 0.000000 0.000000 0.000000 0.000000 -60.708740 0.000000 44.000000 0.612209 0.442058 0.655580
-10160.00000000 -18870.00000000 -220.00000000 113 75 161 0.000000 0.000000 0.000000 0.000000 -60.708740 0.000000 44.000000 0.391097 0.009035 0.920305
-10150.00000000 -18880.00000000 -210.00000000 113 75 161 0.000000 0.000000 0.000000 0.000000 -60.708740 0.000000 44.000000 0.547636 0.399626 0.735115
-10160.00000000 -18870.00000000 -210.00000000 113 75 161 0.000000 0.000000 0.000000 0.000000 -60.708740 0.000000 44.000000 0.430470 -0.144443 0.890972
-10170.00000000 -18870.00000000 -190.00000000 113 75 161 0.000000 0.000000 0.000000 0.000000 -60.708740 0.000000 44.000000 0.517412 0.504017 0.691558
-10210.00000000 -18890.00000000 -320.00000000 113 75 161 0.000000 0.000000 0.000000 0.000000 -60.708740 0.000000 44.000000 0.491466 -0.189715 0.849982
-10130.00000000 -18630.00000000 -520.00000000 113 75 161 0.000000 0.000000 0.000000 0.000000 -60.708740 0.000000 44.000000 -0.230634 -0.238920 0.943252
-10120.00000000 -18640.00000000 -520.00000000 113 75 161 0.000000 0.000000 0.000000 0.000000 -60.708740 0.000000 44.000000 -0.303077 -0.416924 0.856924
-10130.00000000 -18630.00000000 -520.00000000 113 75 161 0.000000 0.000000 0.000000 0.000000 -60.708740 0.000000 44.000000 -0.230634 -0.238920 0.943252
-10160.00000000 -18610.00000000 -520.00000000 113 75 161 0.000000 0.000000 0.000000 0.000000 -60.708740 0.000000 44.000000 0.126646 -0.153696 0.979968
-10160.00000000 -18610.00000000 -520.00000000 113 75 161 0.000000 0.000000 0.000000 0.000000 -60.708740 0.000000 44.000000 0.126646 -0.153696 0.979968
-10180.00000000 -18620.00000000 -520.00000000 113 75 161 0.000000 0.000000 0.000000 0.000000 -60.708740 0.000000 44.000000 -0.300996 -0.153903 0.941124
-10130.00000000 -18710.00000000 -410.00000000 113 75 161 0.000000 0.000000 0.000000 0.000000 -60.708740 0.000000 44.000000 -0.110833 -0.513864 0.850682
-10140.00000000 -18670.00000000 -510.00000000 113 75 161 0.000000 0.000000 0.000000 0.000000 -60.708740 0.000000 44.000000 0.234454 -0.270955 0.933603
-10180.00000000 -18650.00000000 -520.00000000 113 75 161 0.000000 0.000000 0.000000 0.000000 -60.708740 0.000000 44.000000 0.038691 -0.034509 0.998655
-10200.00000000 -18660.00000000 -510.00000000 113 75 161 0.000000 0.000000 0.000000 0.000000 -60.708740 0.000000 44.000000 -0.070737 0.128718 0.989155
-10230.00000000 -18720.00000000 -490.00000000 113 75 161 0.000000 0.000000 0.000000 0.000000 -60.708740 0.000000 44.000000 0.448583 -0.356648 0.819497
-10120.00000000 -18600.00000000 -540.00000000 113 75 161 0.000000 0.000000 0.000000 0.000000 -60.708740 0.000000 44.000000 -0.297770 -0.645437 0.703381
-10150.00000000 -18570.00000000 -550.00000000 113 75 161 0.000000 0.000000 0.000000 0.000000 -60.708740 0.000000 44.000000 -0.087456 -0.364626 0.927038
-10130.00000000 -18620.00000000 -550.00000000 113 75 161 0.000000 0.000000 0.000000 0.000000 -60.708740 0.000000 44.000000 -0.127518 -0.402173 0.906640
-10120.00000000 -18610.00000000 -600.00000000 113 75 161 0.000000 0.000000 0.000000 0.000000 -60.708740 0.000000 44.000000 0.180189 -0.010329 0.983578
-10190.00000000 -18630.00000000 -540.00000000 113 75 161 0.000000 0.000000 0.000000 0.000000 -60.708740 0.000000 44.000000 -0.226501 -0.150564 0.962303
-10170.00000000 -18640.00000000 -550.00000000 113 75 161 0.000000 0.000000 0.000000 0.000000 -60.708740 0.000000 44.000000 0.186548 -0.163390 0.968764
-10190.00000000 -18620.00000000 -540.00000000 113 75 161 0.000000 0.000000 0.000000 0.000000 -60.708740 0.000000 44.000000 -0.267098 -0.040997 0.962797
-10180.00000000 -18630.00000000 -570.00000000 113 75 161 0.000000 0.000000 0.000000 0.000000 -60.708740 0.000000 44.000000 -0.398615 -0.354846 0.845689
-10150.00000000 -18570.00000000 -610.00000000 113 75 161 0.000000 0.000000 0.000000 0.000000 -60.708740 0.000000 44.000000 -0.009097 -0.025269 0.999639
-10190.00000000 -18660.00000000 -560.00000000 113 75 161 0.000000 0.000000 0.000000 0.000000 -60.708740 0.000000 44.000000 0.076246 -0.236238 0.968699
-10180.00000000 -18670.00000000 -540.00000000 113 75 161 0.000000 0.000000 0.000000 0.000000 -60.708740 0.000000 44.000000 0.061288 -0.335126 0.940178
-10220.00000000 -18580.00000000 -560.00000000 113 75 161 0.000000 0.000000 0.000000 0.000000 -60.708740 0.000000 44.000000 0.020220 -0.483940 0.874867
-10210.00000000 -18580.00000000 -560.00000000 113 75 161 0.000000 0.000000 0.000000 0.000000 -60.708740 0.000000 44.000000 -0.256666 -0.432839 0.864160
-10200.00000000 -18580.00000000 -560.00000000 113 75 161 0.000000 0.000000 0.000000 0.000000 -60.708740 0.000000 44.000000 -0.075305 -0.213569 0.974021
-10220.00000000 -18580.00000000 -560.00000000 113 75 161 0.000000 0.000000 0.000000 0.000000 -60.708740 0.000000 44.000000 0.020220 -0.483940 0.874867
-10230.00000000 -18590.00000000 -570.00000000 113 75 161 0.000000 0.000000 0.000000 0.000000 -60.708740 0.000000 44.000000 -0.161532 -0.192546 0.967901
-10220.00000000 -18590.00000000 -570.00000000 113 75 161 0.000000 0.000000 0.000000 0.000000 -60.708740 0.000000 44.000000 -0.138444 -0.494027 0.858353
-10220.00000000 -18620.00000000 -560.00000000 113 75 161 0.000000 0.000000 0.000000 0.000000 -60.708740 0.000000 44.000000 0.403506 -0.038366 0.914172
-10200.00000000 -18630.00000000 -570.00000000 113 75 161 0.000000 0.000000 0.000000 0.000000 -60.708740 0.000000 44.000000 0.271969 -0.116933 0.955175
-10220.00000000 -18610.00000000 -600.00000000 113 75 161 0.000000 0.000000 0.000000 0.000000 -60.708740 0.000000 44.000000 0.029381 0.088142 0.995675
-10260.00000000 -18580.00000000 -560.00000000 113 75 161 0.000000 0.000000 0.000000 0.000000 -60.708740 0.000000 44.000000 0.216520 -0.017748 0.976117
-10280.00000000 -18590.00000000 -620.00000000 113 75 161 0.000000 0.000000 0.000000 0.000000 -60.708740 0.000000 44.000000 0.312915 0.161282 0.935987
-10280.00000000 -18690.00000000 -560.00000000 113 75 161 0.000000 0.000000 0.000000 0.000000 -60.708740 0.000000 44.000000 -0.080638 -0.331805 0.939895
-10270.00000000 -18690.00000000 -550.00000000 113 75 161 0.000000 0.000000 0.000000 0.000000 -60.708740 0.000000 44.000000 0.072691 0.079401 0.994189
-10210.00000000 -18670.00000000 -620.00000000 113 75 161 0.000000 0.000000 0.000000 0.000000 -60.708740 0.000000 44.000000 -0.022001 0.051336 0.998439
-10210.00000000 -18650.00000000 -610.00000000 113 75 161 0.000000 0.000000 0.000000 0.000000 -60.708740 0.000000 44.000000 0.036257 -0.176606 0.983614
-10300.00000000 -18670.00000000 -520.00000000 113 75 161 0.000000 0.000000 0.000000 0.000000 -60.708740 0.000000 44.000000 0.322014 -0.208529 0.923484
-10330.00000000 -18640.00000000 -520.00000000 113 75 161 0.000000 0.000000 0.000000 0.000000 -60.708740 0.000000 44.000000 0.258505 0.162068 0.952318
-10290.00000000 -18650.00000000 -510.00000000 113 75 161 0.000000 0.000000 0.000000 0.000000 -60.708740 0.000000 44.000000 0.165474 0.155369 0.973899
-10320.00000000 -18570.00000000 -580.00000000 113 75 161 0.000000 0.000000 0.000000 0.000000 -60.708740 0.000000 44.000000 0.280058 0.126092 0.951666
-10330.00000000 -18610.00000000 -530.00000000 113 75 161 0.000000 0.000000 0.000000 0.000000 -60.708740 0.000000 44.000000 0.370894 0.062480 0.926571
-10350.00000000 -18630.00000000 -540.00000000 113 75 161 0.000000 0.000000 0.000000 0.000000 -60.708740 0.000000 44.000000 0.025331 -0.237630 0.971025
-10340.00000000 -18640.00000000 -550.00000000 113 75 161 0.000000 0.000000 0.000000 0.000000 -60.708740 0.000000 44.000000 0.370367 0.043188 0.927881
-10360.00000000 -18630.00000000 -530.00000000 113 75 161 0.000000 0.000000 0.000000 0.000000 -60.708740 0.000000 44.000000 0.262695 -0.360649 0.894943
-10320.00000000 -18650.00000000 -530.00000000 113 75 161 0.000000 0.000000 0.000000 0.000000 -60.708740 0.000000 44.000000 -0.183014 -0.029142 0.982678
-10300.00000000 -18730.00000000 -580.00000000 113 75 161 0.000000 0.000000 0.000000 0.000000 -60.708740 0.000000 44.000000 0.205598 -0.194986 0.959015
-10360.00000000 -18700.00000000 -590.00000000 113 75 161 0.000000 0.000000 0.000000 0.000000 -60.708740 0.000000 44.000000 -0.074187 -0.103862 0.991821
-10340.00000000 -18690.00000000 -600.00000000 113 75 161 0.000000 0.000000 0.000000 0.000000 -60.708740 0.000000 44.000000 0.419582 -0.178576 0.889978
-10320.00000000 -18720.00000000 -610.00000000 113 75 161 0.000000 0.000000 0.000000 0.000000 -60.708740 0.000000 44.000000 -0.057677 -0.161261 0.985225
-10340.00000000 -18710.00000000 -650.00000000 113 75 161 0.000000 0.000000 0.000000 0.000000 -60.708740 0.000000 44.000000 0.255837 0.258664 0.931472
-10370.00000000 -18710.00000000 -590.00000000 113 75 161 0.000000 0.000000 0.000000 0.000000 -60.708740 0.000000 44.000000 0.259638 0.204688 0.943764
-10410.00000000 -18650.00000000 -540.00000000 113 75 161 0.000000 0.000000 0.000000 0.000000 -60.708740 0.000000 44.000000 0.475164 -0.218726 0.852278
-10380.00000000 -18730.00000000 -620.00000000 113 75 161 0.000000 0.000000 0.000000 0.000000 -60.708740 0.000000 44.000000 -0.023859 0.038382 0.998978
-10370.00000000 -18730.00000000 -620.00000000 113 75 161 0.000000 0.000000 0.000000 0.000000 -60.708740 0.000000 44.000000 0.565057 0.060896 0.822802
-10380.00000000 -18730.00000000 -620.00000000 113 75 161 0.000000 0.000000 0.000000 0.000000 -60.708740 0.000000 44.000000 -0.023859 0.038382 0.998978
-10340.00000000 -18750.00000000 -650.00000000 113 75 161 0.000000 0.000000 0.000000 0.000000 -60.708740 0.000000 44.000000 0.410227 0.152942 0.899068
-10320.00000000 -18770.00000000 -640.00000000 113 75 161 0.000000 0.000000 0.000000 0.000000 -60.708740 0.000000 44.000000 0.086053 0.220745 0.971528
-10300.00000000 -18880.00000000 -600.00000000 113 75 161 0.000000 0.000000 0.000000 0.000000 -60.708740 0.000000 44.000000 0.223706 0.194236 0.955106
-10350.00000000 -18850.00000000 -570.00000000 113 75 161 0.000000 0.000000 0.000000 0.000000 -60.708740 0.000000 44.000000 0.679322 0.035308 0.732990
-10340.00000000 -18890.00000000 -590.00000000 113 75 161 0.000000 0.000000 0.000000 0.000000 -60.708740 0.000000 44.000000 0.084311 0.186951 0.978745
-10350.00000000 -18890.00000000 -590.00000000 113 75 161 0.000000 0.000000 0.000000 0.000000 -60.708740 0.000000 44.000000 0.208826 0.172051 0.962699
-10340.00000000 -18870.00000000 -600.00000000 113 75 161 0.000000 0.000000 0.000000 0.000000 -60.708740 0.000000 44.000000 0.571217 -0.140950 0.808606
-10360.00000000 -18860.00000000 -580.00000000 113 75 161 0.000000 0.000000 0.000000 0.000000 -60.708740 0.000000 44.000000 0.248859 0.126384 0.960258
-10340.00000000 -18860.00000000 -590.00000000 113 75 161 0.000000 0.000000 0.000000 0.000000 -60.708740 0.000000 44.000000 0.448216 -0.053132 0.892345
-10340.00000000 -18890.00000000 -610.00000000 113 75 161 0.000000 0.000000 0.000000 0.000000 -60.708740 0.000000 44.000000 0.622042 -0.067520 0.780067
-10420.00000000 -18760.00000000 -600.00000000 113 75 161 0.000000 0.000000 0.000000 0.000000 -60.708740 0.000000 44.000000 0.299471 0.247888 0.921341
-10420.00000000 -18790.00000000 -600.00000000 113 75 161 0.000000 0.000000 0.000000 0.000000 -60.708740 0.000000 44.000000 0.423191 0.455620 0.783147
-10390.00000000 -18760.00000000 -620.00000000 113 75 161 0.000000 0.000000 0.000000 0.000000 -60.708740 0.000000 44.000000 0.296936 -0.041697 0.953986
-10390.00000000 -18750.00000000 -620.00000000 113 75 161 0.000000 0.000000 0.000000 0.000000 -60.708740 0.000000 44.000000 0.060269 -0.064652 0.996086
-10370.00000000 -18750.00000000 -640.00000000 113 75 161 0.000000 0.000000 0.000000 0.000000 -60.708740 0.000000 44.000000 0.528339 0.285461 0.799606
-10400.00000000 -18760.00000000 -610.00000000 113 75 161 0.000000 0.000000 0.000000 0.000000 -60.708740 0.000000 44.000000 0.074030 0.305212 0.949403
-10400.00000000 -18770.00000000 -620.00000000 113 75 161 0.000000 0.000000 0.000000 0.000000 -60.708740 0.000000 44.000000 0.154561 0.211710 0.965034
-10370.00000000 -18760.00000000 -630.00000000 113 75 161 0.000000 0.000000 0.000000 0.000000 -60.708740 0.000000 44.000000 0.186046 0.347949 0.918868
-10430.00000000 -18740.00000000 -610.00000000 113 75 161 0.000000 0.000000 0.000000 0.000000 -60.708740 0.000000 44.000000 0.207949 -0.112166 0.971687
-10430.00000000 -18790.00000000 -620.00000000 113 75 161 0.000000 0.000000 0.000000 0.000000 -60.708740 0.000000 44.000000 0.237978 0.224222 0.945035
-10370.00000000 -18880.00000000 -570.00000000 113 75 161 0.000000 0.000000 0.000000 0.000000 -60.708740 0.000000 44.000000 0.512468 -0.012169 0.858620
-10400.00000000 -18870.00000000 -610.00000000 113 75 161 0.000000 0.000000 0.000000 0.000000 -60.708740 0.000000 44.000000 0.383027 0.456748 0.802915
-10400.00000000 -18870.00000000 -610.00000000 113 75 161 0.000000 0.000000 0.000000 0.000000 -60.708740 0.000000 44.000000 0.383027 0.456748 0.802915
-10430.00000000 -18840.00000000 -610.00000000 113 75 161 0.000000 0.000000 0.000000 0.000000 -60.708740 0.000000 44.000000 0.170536 0.493814 0.852681
-10120.00000000 -18970.00000000 -80.00000000 113 75 161 0.000000 0.000000 0.000000 0.000000 -60.708740 0.000000 44.000000 0.783559 0.403947 -0.472082
-10140.00000000 -18980.00000000 -130.00000000 113 75 161 0.000000 0.000000 0.000000 0.000000 -60.708740 0.000000 44.000000 0.528182 0.753845 -0.390822
-10120.00000000 -18950.00000000 -130.00000000 113 75 161 0.000000 0.000000 0.000000 0.000000 -60.708740 0.000000 44.000000 0.511731 0.812197 0.280122
-10180.00000000 -18950.00000000 -180.00000000 113 75 161 0.000000 0.000000 0.000000 0.000000 -60.708740 0.000000 44.000000 0.910647 0.343121 0.230195
-10120.00000000 -19060.00000000 -100.00000000 113 75 161 0.000000 0.000000 0.000000 0.000000 -60.708740 0.000000 44.000000 0.631916 0.567882 -0.527439
-10130.00000000 -18990.00000000 -130.00000000 113 75 161 0.000000 0.000000 0.000000 0.000000 -60.708740 0.000000 44.000000 0.704478 0.692358 -0.156046
-10150.00000000 -19000.00000000 -160.00000000 113 75 161 0.000000 0.000000 0.000000 0.000000 -60.708740 0.000000 44.000000 0.574400 0.815047 -0.075918
-10130.00000000 -19050.00000000 -110.00000000 113 75 161 0.000000 0.000000 0.000000 0.000000 -60.708740 0.000000 44.000000 0.375536 0.903317 -0.207342
-10150.00000000 -19060.00000000 -170.00000000 113 75 161 0.000000 0.000000 0.000000 0.000000 -60.708740 0.000000 44.000000 0.650221 0.752965 -0.101276
-10150.00000000 -19060.00000000 -150.00000000 113 75 161 0.000000 0.000000 0.000000 0.000000 -60.708740 0.000000 44.000000 0.610301 0.746627 -0.264728
-10160.00000000 -19060.00000000 -160.00000000 113 75 161 0.000000 0.000000 0.000000 0.000000 -60.708740 0.000000 44.000000 0.658966 0.751699 0.026696
-10160.00000000 -19050.00000000 -170.00000000 113 75 161 0.000000 0.000000 0.000000 0.000000 -60.708740 0.000000 44.000000 0.756342 0.648501 -0.085981
-10160.00000000 -19060.00000000 -160.00000000 113 75 161 0.000000 0.000000 0.000000 0.000000 -60.708740 0.000000 44.000000 0.658966 0.751699 0.026696
-10160.00000000 -19060.00000000 -150.00000000 113 75 161 0.000000 0.000000 0.000000 0.000000 -60.708740 0.000000 44.000000 0.557404 0.829912 -0.023397
