//X Y Z R G B PointSourceId ScanDirectionFlag NumberOfReturns ReturnNumber GpsTime Intensity Classification Nx Ny Nz
-7570.00000000 530.00000000 170.00000000 73 94 172 97.000000 1.000000 4.000000 1.000000 -60.708740 114.000000 151.000000 0.359301 0.316852 0.877786
-7580.00000000 500.00000000 160.00000000 73 94 172 97.000000 1.000000 4.000000 1.000000 -60.708740 114.000000 151.000000 0.646876 0.370349 0.666628
-7550.00000000 500.00000000 170.00000000 73 94 172 97.000000 1.000000 4.000000 1.000000 -60.708740 114.000000 151.000000 0.353271 0.740729 0.571420
-7570.00000000 490.00000000 180.00000000 73 94 172 97.000000 1.000000 4.000000 1.000000 -60.708740 114.000000 151.000000 0.517387 0.594911 0.615135
-7430.00000000 580.00000000 10.00000000 73 94 172 97.000000 1.000000 4.000000 1.000000 -60.708740 114.000000 151.000000 0.100886 0.340323 0.934881
-7500.00000000 600.00000000 0.00000000 73 94 172 97.000000 1.000000 4.000000 1.000000 -60.708740 114.000000 151.000000 -0.166063 0.333522 0.928001
-7500.00000000 600.00000000 -10.00000000 73 94 172 97.000000 1.000000 4.000000 1.000000 -60.708740 114.000000 151.000000 0.065294 0.117988 0.990866
-7490.00000000 610.00000000 0.00000000 73 94 172 97.000000 1.000000 4.000000 1.000000 -60.708740 114.000000 151.000000 -0.228339 0.461214 0.857405
-7490.00000000 600.00000000 10.00000000 73 94 172 97.000000 1.000000 4.000000 1.000000 -60.708740 114.000000 151.000000 -0.424618 0.493475 0.759066
-7470.00000000 580.00000000 50.00000000 73 94 172 97.000000 1.000000 4.000000 1.000000 -60.708740 114.000000 151.000000 -0.125940 0.611920 0.780828
-7490.00000000 590.00000000 40.00000000 73 94 172 97.000000 1.000000 4.000000 1.000000 -60.708740 114.000000 151.000000 0.018148 0.255285 0.966695
-7420.00000000 530.00000000 80.00000000 73 94 172 97.000000 1.000000 4.000000 1.000000 -60.708740 114.000000 151.000000 -0.362222 0.550642 0.752057
-7420.00000000 490.00000000 110.00000000 73 94 172 97.000000 1.000000 4.000000 1.000000 -60.708740 114.000000 151.000000 -0.269716 0.425145 0.864005
-7450.00000000 510.00000000 90.00000000 73 94 172 97.000000 1.000000 4.000000 1.000000 -60.708740 114.000000 151.000000 0.170386 0.441257 0.881057
-7450.00000000 480.00000000 90.00000000 73 94 172 97.000000 1.000000 4.000000 1.000000 -60.708740 114.000000 151.000000 0.217109 0.406157 0.887637
-7470.00000000 530.00000000 80.00000000 73 94 172 97.000000 1.000000 4.000000 1.000000 -60.708740 114.000000 151.000000 0.138411 0.042324 0.989470
-7500.00000000 550.00000000 30.00000000 73 94 172 97.000000 1.000000 4.000000 1.000000 -60.708740 114.000000 151.000000 -0.044596 0.447309 0.893267
-7570.00000000 600.00000000 100.00000000 73 94 172 97.000000 1.000000 4.000000 1.000000 -60.708740 114.000000 151.000000 -0.111090 0.319886 0.940921
-7520.00000000 570.00000000 110.00000000 73 94 172 97.000000 1.000000 4.000000 1.000000 -60.708740 114.000000 151.000000 0.333481 0.546136 0.768457
-7580.00000000 560.00000000 80.00000000 73 94 172 97.000000 1.000000 4.000000 1.000000 -60.708740 114.000000 151.000000 0.220482 0.702102 0.677083
-7540.00000000 560.00000000 80.00000000 73 94 172 97.000000 1.000000 4.000000 1.000000 -60.708740 114.000000 151.000000 0.135551 0.293917 0.946171
-7580.00000000 560.00000000 80.00000000 73 94 172 97.000000 1.000000 4.000000 1.000000 -60.708740 114.000000 151.000000 0.220482 0.702102 0.677083
-7540.00000000 630.00000000 40.00000000 73 94 172 97.000000 1.000000 4.000000 1.000000 -60.708740 114.000000 151.000000 0.134234 0.408354 0.902900
-7510.00000000 600.00000000 -10.00000000 73 94 172 97.000000 1.000000 4.000000 1.000000 -60.708740 114.000000 151.000000 0.291393 0.279795 0.914770
-7540.00000000 610.00000000 20.00000000 73 94 172 97.000000 1.000000 4.000000 1.000000 -60.708740 114.000000 151.000000 -0.023021 0.104143 0.994296
-7540.00000000 580.00000000 60.00000000 73 94 172 97.000000 1.000000 4.000000 1.000000 -60.708740 114.000000 151.000000 0.041141 0.702239 0.710751
-7540.00000000 590.00000000 50.00000000 73 94 172 97.000000 1.000000 4.000000 1.000000 -60.708740 114.000000 151.000000 -0.085868 0.656381 0.749527
-7540.00000000 580.00000000 60.00000000 73 94 172 97.000000 1.000000 4.000000 1.000000 -60.708740 114.000000 151.000000 0.041141 0.702239 0.710751
-7520.00000000 570.00000000 30.00000000 73 94 172 97.000000 1.000000 4.000000 1.000000 -60.708740 114.000000 151.000000 -0.095308 0.693549 0.714077
-7560.00000000 620.00000000 50.00000000 73 94 172 97.000000 1.000000 4.000000 1.000000 -60.708740 114.000000 151.000000 0.384992 0.442502 0.809922
-7550.00000000 600.00000000 30.00000000 73 94 172 97.000000 1.000000 4.000000 1.000000 -60.708740 114.000000 151.000000 -0.204876 0.589980 0.780992
-7560.00000000 620.00000000 20.00000000 73 94 172 97.000000 1.000000 4.000000 1.000000 -60.708740 114.000000 151.000000 -0.210841 0.339927 0.916513
-7530.00000000 530.00000000 110.00000000 73 94 172 97.000000 1.000000 4.000000 1.000000 -60.708740 114.000000 151.000000 -0.102444 0.442052 0.891120
-7520.00000000 510.00000000 110.00000000 73 94 172 97.000000 1.000000 4.000000 1.000000 -60.708740 114.000000 151.000000 0.281655 0.412587 0.866281
-7570.00000000 540.00000000 110.00000000 73 94 172 97.000000 1.000000 4.000000 1.000000 -60.708740 114.000000 151.000000 -0.095096 0.653965 0.750524
-7500.00000000 310.00000000 290.00000000 73 94 172 97.000000 1.000000 4.000000 1.000000 -60.708740 114.000000 151.000000 0.253054 0.595698 0.762304
-7480.00000000 350.00000000 230.00000000 73 94 172 97.000000 1.000000 4.000000 1.000000 -60.708740 114.000000 151.000000 0.073362 0.455396 0.887261
-7570.00000000 390.00000000 250.00000000 73 94 172 97.000000 1.000000 4.000000 1.000000 -60.708740 114.000000 151.000000 0.346803 0.607312 0.714772
-7580.00000000 400.00000000 240.00000000 73 94 172 97.000000 1.000000 4.000000 1.000000 -60.708740 114.000000 151.000000 0.390606 0.422492 0.817880
-7550.00000000 460.00000000 240.00000000 73 94 172 97.000000 1.000000 4.000000 1.000000 -60.708740 114.000000 151.000000 0.772062 0.385218 0.505497
-7560.00000000 470.00000000 250.00000000 73 94 172 97.000000 1.000000 4.000000 1.000000 -60.708740 114.000000 151.000000 0.729401 0.363884 0.579278
-7560.00000000 390.00000000 230.00000000 73 94 172 97.000000 1.000000 4.000000 1.000000 -60.708740 114.000000 151.000000 0.577678 0.500205 0.645045
-7540.00000000 460.00000000 170.00000000 73 94 172 97.000000 1.000000 4.000000 1.000000 -60.708740 114.000000 151.000000 0.258332 0.676736 0.689415
-7540.00000000 470.00000000 160.00000000 73 94 172 97.000000 1.000000 4.000000 1.000000 -60.708740 114.000000 151.000000 0.365881 0.400427 0.840113
-7550.00000000 400.00000000 220.00000000 73 94 172 97.000000 1.000000 4.000000 1.000000 -60.708740 114.000000 151.000000 0.518931 0.482222 0.705813
-7520.00000000 360.00000000 270.00000000 73 94 172 97.000000 1.000000 4.000000 1.000000 -60.708740 114.000000 151.000000 0.432491 0.347566 0.831955
-7540.00000000 370.00000000 260.00000000 73 94 172 97.000000 1.000000 4.000000 1.000000 -60.708740 114.000000 151.000000 0.322169 0.610340 0.723666
-7540.00000000 340.00000000 290.00000000 73 94 172 97.000000 1.000000 4.000000 1.000000 -60.708740 114.000000 151.000000 0.683080 0.590008 0.430457
-7520.00000000 320.00000000 290.00000000 73 94 172 97.000000 1.000000 4.000000 1.000000 -60.708740 114.000000 151.000000 0.297869 0.697174 0.652091
-7540.00000000 320.00000000 300.00000000 73 94 172 97.000000 1.000000 4.000000 1.000000 -60.708740 114.000000 151.000000 0.468877 0.413715 0.780381
-7540.00000000 330.00000000 290.00000000 73 94 172 97.000000 1.000000 4.000000 1.000000 -60.708740 114.000000 151.000000 0.531052 0.507599 0.678474
-7510.00000000 330.00000000 260.00000000 73 94 172 97.000000 1.000000 4.000000 1.000000 -60.708740 114.000000 151.000000 0.342871 0.599618 0.723117
-7510.00000000 340.00000000 270.00000000 73 94 172 97.000000 1.000000 4.000000 1.000000 -60.708740 114.000000 151.000000 0.353316 0.587774 0.727798
-7550.00000000 380.00000000 240.00000000 73 94 172 97.000000 1.000000 4.000000 1.000000 -60.708740 114.000000 151.000000 0.758748 0.470326 0.450660
-7550.00000000 330.00000000 310.00000000 73 94 172 97.000000 1.000000 4.000000 1.000000 -60.708740 114.000000 151.000000 0.877302 0.237634 0.416980
-7550.00000000 320.00000000 300.00000000 73 94 172 97.000000 1.000000 4.000000 1.000000 -60.708740 114.000000 151.000000 0.796240 0.336687 0.502637
-7550.00000000 350.00000000 230.00000000 73 94 172 97.000000 1.000000 4.000000 1.000000 -60.708740 114.000000 151.000000 0.308125 0.771110 0.557179
-7420.00000000 440.00000000 90.00000000 73 94 172 97.000000 1.000000 4.000000 1.000000 -60.708740 114.000000 151.000000 0.038484 0.091262 0.995083
-7430.00000000 430.00000000 100.00000000 73 94 172 97.000000 1.000000 4.000000 1.000000 -60.708740 114.000000 151.000000 -0.280504 0.249179 0.926945
-7420.00000000 430.00000000 100.00000000 73 94 172 97.000000 1.000000 4.000000 1.000000 -60.708740 114.000000 151.000000 -0.246460 0.163863 0.955200
-7610.00000000 480.00000000 200.00000000 73 94 172 97.000000 1.000000 4.000000 1.000000 -60.708740 114.000000 151.000000 0.840345 0.378548 0.387972
-7620.00000000 490.00000000 210.00000000 73 94 172 97.000000 1.000000 4.000000 1.000000 -60.708740 114.000000 151.000000 0.627000 0.453112 0.633688
-7620.00000000 480.00000000 180.00000000 73 94 172 97.000000 1.000000 4.000000 1.000000 -60.708740 114.000000 151.000000 0.409782 0.534856 0.738924
-7640.00000000 500.00000000 160.00000000 73 94 172 97.000000 1.000000 4.000000 1.000000 -60.708740 114.000000 151.000000 0.650307 0.689228 0.319477
-7700.00000000 520.00000000 150.00000000 73 94 172 97.000000 1.000000 4.000000 1.000000 -60.708740 114.000000 151.000000 0.249765 0.758719 0.601634
-7680.00000000 490.00000000 190.00000000 73 94 172 97.000000 1.000000 4.000000 1.000000 -60.708740 114.000000 151.000000 0.377468 0.832325 0.405897
-7690.00000000 500.00000000 170.00000000 73 94 172 97.000000 1.000000 4.000000 1.000000 -60.708740 114.000000 151.000000 0.676116 0.707202 0.206720
-7730.00000000 550.00000000 170.00000000 73 94 172 97.000000 1.000000 4.000000 1.000000 -60.708740 114.000000 151.000000 0.758664 0.627386 0.175546
-7600.00000000 600.00000000 80.00000000 73 94 172 97.000000 1.000000 4.000000 1.000000 -60.708740 114.000000 151.000000 0.032379 -0.640541 -0.767241
-7600.00000000 600.00000000 90.00000000 73 94 172 97.000000 1.000000 4.000000 1.000000 -60.708740 114.000000 151.000000 -0.088110 0.380905 0.920407
-7620.00000000 610.00000000 20.00000000 73 94 172 97.000000 1.000000 4.000000 1.000000 -60.708740 114.000000 151.000000 -0.104671 0.656035 0.747437
-7620.00000000 610.00000000 20.00000000 73 94 172 97.000000 1.000000 4.000000 1.000000 -60.708740 114.000000 151.000000 -0.104671 0.656035 0.747437
-7660.00000000 600.00000000 60.00000000 73 94 172 97.000000 1.000000 4.000000 1.000000 -60.708740 114.000000 151.000000 0.321160 0.731084 0.601974
-7630.00000000 630.00000000 0.00000000 73 94 172 97.000000 1.000000 4.000000 1.000000 -60.708740 114.000000 151.000000 0.129915 0.733196 0.667492
-7650.00000000 590.00000000 60.00000000 73 94 172 97.000000 1.000000 4.000000 1.000000 -60.708740 114.000000 151.000000 0.422947 0.515107 0.745507
-7620.00000000 540.00000000 100.00000000 73 94 172 97.000000 1.000000 4.000000 1.000000 -60.708740 114.000000 151.000000 0.273903 0.587388 0.761546
-7600.00000000 540.00000000 80.00000000 73 94 172 97.000000 1.000000 4.000000 1.000000 -60.708740 114.000000 151.000000 0.201756 0.425603 0.882132
-7610.00000000 530.00000000 140.00000000 73 94 172 97.000000 1.000000 4.000000 1.000000 -60.708740 114.000000 151.000000 0.421356 0.651187 0.631201
-7630.00000000 480.00000000 140.00000000 73 94 172 97.000000 1.000000 4.000000 1.000000 -60.708740 114.000000 151.000000 0.682174 0.322453 0.656249
-7630.00000000 510.00000000 100.00000000 73 94 172 97.000000 1.000000 4.000000 1.000000 -60.708740 114.000000 151.000000 0.333227 0.648573 0.684334
-7710.00000000 630.00000000 40.00000000 73 94 172 97.000000 1.000000 4.000000 1.000000 -60.708740 114.000000 151.000000 0.294765 0.509140 0.808634
-7730.00000000 610.00000000 40.00000000 73 94 172 97.000000 1.000000 4.000000 1.000000 -60.708740 114.000000 151.000000 0.388799 0.436799 0.811198
-7730.00000000 610.00000000 60.00000000 73 94 172 97.000000 1.000000 4.000000 1.000000 -60.708740 114.000000 151.000000 0.192066 0.468998 0.862063
-7710.00000000 630.00000000 50.00000000 73 94 172 97.000000 1.000000 4.000000 1.000000 -60.708740 114.000000 151.000000 0.154126 0.579095 0.800558
-7700.00000000 610.00000000 30.00000000 73 94 172 97.000000 1.000000 4.000000 1.000000 -60.708740 114.000000 151.000000 0.213579 0.205520 0.955063
-7650.00000000 390.00000000 250.00000000 73 94 172 97.000000 1.000000 4.000000 1.000000 -60.708740 114.000000 151.000000 0.671318 0.387616 0.631732
-7590.00000000 450.00000000 210.00000000 73 94 172 97.000000 1.000000 4.000000 1.000000 -60.708740 114.000000 151.000000 0.472945 0.185323 0.861382
-7620.00000000 430.00000000 230.00000000 73 94 172 97.000000 1.000000 4.000000 1.000000 -60.708740 114.000000 151.000000 0.304660 0.630276 0.714097
-7610.00000000 450.00000000 180.00000000 73 94 172 97.000000 1.000000 4.000000 1.000000 -60.708740 114.000000 151.000000 0.248298 0.785497 0.566870
-7630.00000000 460.00000000 210.00000000 73 94 172 97.000000 1.000000 4.000000 1.000000 -60.708740 114.000000 151.000000 0.280122 0.511731 0.812197
-7630.00000000 470.00000000 160.00000000 73 94 172 97.000000 1.000000 4.000000 1.000000 -60.708740 114.000000 151.000000 0.326981 0.382246 0.864275
-7640.00000000 470.00000000 180.00000000 73 94 172 97.000000 1.000000 4.000000 1.000000 -60.708740 114.000000 151.000000 0.484875 0.652652 0.582186
-7630.00000000 380.00000000 310.00000000 73 94 172 97.000000 1.000000 4.000000 1.000000 -60.708740 114.000000 151.000000 0.586850 0.797819 0.138170
-7670.00000000 320.00000000 280.00000000 73 94 172 97.000000 1.000000 4.000000 1.000000 -60.708740 114.000000 151.000000 0.572524 0.459020 0.679350
-7640.00000000 310.00000000 310.00000000 73 94 172 97.000000 1.000000 4.000000 1.000000 -60.708740 114.000000 151.000000 0.741044 0.670198 -0.041090
-7680.00000000 390.00000000 280.00000000 73 94 172 97.000000 1.000000 4.000000 1.000000 -60.708740 114.000000 151.000000 0.606672 0.442887 0.660152
-7710.00000000 420.00000000 240.00000000 73 94 172 97.000000 1.000000 4.000000 1.000000 -60.708740 114.000000 151.000000 0.829144 0.556047 -0.057716
-7730.00000000 390.00000000 250.00000000 73 94 172 97.000000 1.000000 4.000000 1.000000 -60.708740 114.000000 151.000000 0.595277 0.625631 0.504214
-7740.00000000 400.00000000 250.00000000 73 94 172 97.000000 1.000000 4.000000 1.000000 -60.708740 114.000000 151.000000 0.872600 0.343844 0.346901
-7700.00000000 450.00000000 210.00000000 73 94 172 97.000000 1.000000 4.000000 1.000000 -60.708740 114.000000 151.000000 0.473983 0.813222 0.337654
-7700.00000000 470.00000000 230.00000000 73 94 172 97.000000 1.000000 4.000000 1.000000 -60.708740 114.000000 151.000000 0.761776 0.402910 0.507307
-7690.00000000 450.00000000 200.00000000 73 94 172 97.000000 1.000000 4.000000 1.000000 -60.708740 114.000000 151.000000 0.657729 0.634535 0.405903
-7730.00000000 460.00000000 220.00000000 73 94 172 97.000000 1.000000 4.000000 1.000000 -60.708740 114.000000 151.000000 0.709766 0.463758 0.530246
-7710.00000000 380.00000000 270.00000000 73 94 172 97.000000 1.000000 4.000000 1.000000 -60.708740 114.000000 151.000000 0.574975 0.639049 0.510902
-7710.00000000 370.00000000 270.00000000 73 94 172 97.000000 1.000000 4.000000 1.000000 -60.708740 114.000000 151.000000 0.589390 0.592768 0.548859
-7740.00000000 370.00000000 260.00000000 73 94 172 97.000000 1.000000 4.000000 1.000000 -60.708740 114.000000 151.000000 0.938193 0.263475 0.224442
-7720.00000000 360.00000000 260.00000000 73 94 172 97.000000 1.000000 4.000000 1.000000 -60.708740 114.000000 151.000000 0.743505 0.666146 0.058735
-7200.00000000 290.00000000 190.00000000 73 94 172 97.000000 1.000000 4.000000 1.000000 -60.708740 114.000000 151.000000 -0.107976 0.370397 0.922576
-7220.00000000 190.00000000 230.00000000 73 94 172 97.000000 1.000000 4.000000 1.000000 -60.708740 114.000000 151.000000 -0.259281 0.332525 0.906753
-7240.00000000 110.00000000 270.00000000 73 94 172 97.000000 1.000000 4.000000 1.000000 -60.708740 114.000000 151.000000 0.022945 0.481844 0.875957
-7220.00000000 120.00000000 280.00000000 73 94 172 97.000000 1.000000 4.000000 1.000000 -60.708740 114.000000 151.000000 -0.238316 0.352356 0.905014
-7230.00000000 60.00000000 310.00000000 73 94 172 97.000000 1.000000 4.000000 1.000000 -60.708740 114.000000 151.000000 0.165930 0.237611 0.957083
-7270.00000000 270.00000000 200.00000000 73 94 172 97.000000 1.000000 4.000000 1.000000 -60.708740 114.000000 151.000000 -0.169049 0.531083 0.830285
-7270.00000000 290.00000000 190.00000000 73 94 172 97.000000 1.000000 4.000000 1.000000 -60.708740 114.000000 151.000000 0.086377 0.338865 0.936862
-7260.00000000 290.00000000 170.00000000 73 94 172 97.000000 1.000000 4.000000 1.000000 -60.708740 114.000000 151.000000 -0.472256 0.106364 0.875021
-7280.00000000 270.00000000 190.00000000 73 94 172 97.000000 1.000000 4.000000 1.000000 -60.708740 114.000000 151.000000 -0.242942 0.240166 0.939840
-7250.00000000 240.00000000 200.00000000 73 94 172 97.000000 1.000000 4.000000 1.000000 -60.708740 114.000000 151.000000 -0.130717 0.461099 0.877668
-7260.00000000 260.00000000 200.00000000 73 94 172 97.000000 1.000000 4.000000 1.000000 -60.708740 114.000000 151.000000 -0.281079 0.440818 0.852452
-7280.00000000 260.00000000 190.00000000 73 94 172 97.000000 1.000000 4.000000 1.000000 -60.708740 114.000000 151.000000 -0.079414 -0.070466 0.994348
-7280.00000000 230.00000000 180.00000000 73 94 172 97.000000 1.000000 4.000000 1.000000 -60.708740 114.000000 151.000000 -0.239579 0.368922 0.898053
-7290.00000000 260.00000000 190.00000000 73 94 172 97.000000 1.000000 4.000000 1.000000 -60.708740 114.000000 151.000000 -0.177367 0.361830 0.915216
-7260.00000000 260.00000000 190.00000000 73 94 172 97.000000 1.000000 4.000000 1.000000 -60.708740 114.000000 151.000000 -0.563516 0.125062 0.816584
-7300.00000000 280.00000000 200.00000000 73 94 172 97.000000 1.000000 4.000000 1.000000 -60.708740 114.000000 151.000000 0.186251 0.259664 0.947568
-7320.00000000 270.00000000 200.00000000 73 94 172 97.000000 1.000000 4.000000 1.000000 -60.708740 114.000000 151.000000 -0.004110 0.590527 0.807008
-7310.00000000 280.00000000 190.00000000 73 94 172 97.000000 1.000000 4.000000 1.000000 -60.708740 114.000000 151.000000 -0.407152 0.341633 0.847062
-7310.00000000 280.00000000 150.00000000 73 94 172 97.000000 1.000000 4.000000 1.000000 -60.708740 114.000000 151.000000 -0.049500 0.298271 0.953197
-7330.00000000 290.00000000 190.00000000 73 94 172 97.000000 1.000000 4.000000 1.000000 -60.708740 114.000000 151.000000 0.137800 0.039860 0.989658
-7330.00000000 280.00000000 190.00000000 73 94 172 97.000000 1.000000 4.000000 1.000000 -60.708740 114.000000 151.000000 0.153182 0.419461 0.894756
-7300.00000000 250.00000000 210.00000000 73 94 172 97.000000 1.000000 4.000000 1.000000 -60.708740 114.000000 151.000000 -0.003939 0.447735 0.894158
-7330.00000000 260.00000000 220.00000000 73 94 172 97.000000 1.000000 4.000000 1.000000 -60.708740 114.000000 151.000000 0.239544 0.432384 0.869289
-7310.00000000 220.00000000 230.00000000 73 94 172 97.000000 1.000000 4.000000 1.000000 -60.708740 114.000000 151.000000 -0.294674 0.011097 0.955533
-7330.00000000 260.00000000 200.00000000 73 94 172 97.000000 1.000000 4.000000 1.000000 -60.708740 114.000000 151.000000 0.110151 0.612439 0.782806
-7320.00000000 240.00000000 220.00000000 73 94 172 97.000000 1.000000 4.000000 1.000000 -60.708740 114.000000 151.000000 0.151244 0.084554 0.984874
-7290.00000000 150.00000000 250.00000000 73 94 172 97.000000 1.000000 4.000000 1.000000 -60.708740 114.000000 151.000000 0.309190 0.285745 0.907056
-7280.00000000 150.00000000 270.00000000 73 94 172 97.000000 1.000000 4.000000 1.000000 -60.708740 114.000000 151.000000 0.073312 0.229877 0.970454
-7270.00000000 150.00000000 270.00000000 73 94 172 97.000000 1.000000 4.000000 1.000000 -60.708740 114.000000 151.000000 -0.266474 0.509574 0.818123
-7330.00000000 150.00000000 250.00000000 73 94 172 97.000000 1.000000 4.000000 1.000000 -60.708740 114.000000 151.000000 -0.054155 0.373804 0.925925
-7250.00000000 180.00000000 220.00000000 73 94 172 97.000000 1.000000 4.000000 1.000000 -60.708740 114.000000 151.000000 -0.082515 0.156659 0.984200
-7250.00000000 170.00000000 220.00000000 73 94 172 97.000000 1.000000 4.000000 1.000000 -60.708740 114.000000 151.000000 -0.316826 0.334844 0.887412
-7330.00000000 200.00000000 220.00000000 73 94 172 97.000000 1.000000 4.000000 1.000000 -60.708740 114.000000 151.000000 0.025140 0.427382 0.903721
-7310.00000000 210.00000000 220.00000000 73 94 172 97.000000 1.000000 4.000000 1.000000 -60.708740 114.000000 151.000000 -0.170419 -0.065546 0.983189
-7320.00000000 190.00000000 220.00000000 73 94 172 97.000000 1.000000 4.000000 1.000000 -60.708740 114.000000 151.000000 -0.278891 0.220030 0.934776
-7330.00000000 190.00000000 230.00000000 73 94 172 97.000000 1.000000 4.000000 1.000000 -60.708740 114.000000 151.000000 -0.235829 0.470136 0.850504
-7320.00000000 210.00000000 220.00000000 73 94 172 97.000000 1.000000 4.000000 1.000000 -60.708740 114.000000 151.000000 -0.380012 0.295229 0.876602
-7350.00000000 300.00000000 200.00000000 73 94 172 97.000000 1.000000 4.000000 1.000000 -60.708740 114.000000 151.000000 -0.304349 0.543366 0.782384
-7370.00000000 270.00000000 190.00000000 73 94 172 97.000000 1.000000 4.000000 1.000000 -60.708740 114.000000 151.000000 -0.197943 0.307443 0.930751
-7360.00000000 220.00000000 230.00000000 73 94 172 97.000000 1.000000 4.000000 1.000000 -60.708740 114.000000 151.000000 -0.077062 0.491794 0.867295
-7350.00000000 230.00000000 220.00000000 73 94 172 97.000000 1.000000 4.000000 1.000000 -60.708740 114.000000 151.000000 -0.213824 0.495890 0.841648
-7360.00000000 220.00000000 220.00000000 73 94 172 97.000000 1.000000 4.000000 1.000000 -60.708740 114.000000 151.000000 0.453903 0.321973 0.830846
-7360.00000000 200.00000000 290.00000000 73 94 172 97.000000 1.000000 4.000000 1.000000 -60.708740 114.000000 151.000000 0.230716 0.035030 0.972390
-7340.00000000 160.00000000 300.00000000 73 94 172 97.000000 1.000000 4.000000 1.000000 -60.708740 114.000000 151.000000 0.497468 0.265006 0.826013
-7380.00000000 210.00000000 280.00000000 73 94 172 97.000000 1.000000 4.000000 1.000000 -60.708740 114.000000 151.000000 0.533136 0.479655 0.696920
-7400.00000000 190.00000000 240.00000000 73 94 172 97.000000 1.000000 4.000000 1.000000 -60.708740 114.000000 151.000000 0.350115 0.142537 0.925798
-7360.00000000 180.00000000 230.00000000 73 94 172 97.000000 1.000000 4.000000 1.000000 -60.708740 114.000000 151.000000 0.456353 0.456353 0.763861
-7270.00000000 110.00000000 310.00000000 73 94 172 97.000000 1.000000 4.000000 1.000000 -60.708740 114.000000 151.000000 -0.150000 0.418570 0.895712
-7270.00000000 120.00000000 270.00000000 73 94 172 97.000000 1.000000 4.000000 1.000000 -60.708740 114.000000 151.000000 0.008281 0.228306 0.973554
-7290.00000000 120.00000000 270.00000000 73 94 172 97.000000 1.000000 4.000000 1.000000 -60.708740 114.000000 151.000000 0.236010 0.608000 0.758047
-7280.00000000 120.00000000 270.00000000 73 94 172 97.000000 1.000000 4.000000 1.000000 -60.708740 114.000000 151.000000 -0.111194 0.097148 0.989039
-7280.00000000 130.00000000 270.00000000 73 94 172 97.000000 1.000000 4.000000 1.000000 -60.708740 114.000000 151.000000 -0.157615 0.435250 0.886406
-7260.00000000 90.00000000 270.00000000 73 94 172 97.000000 1.000000 4.000000 1.000000 -60.708740 114.000000 151.000000 -0.291947 0.519192 0.803248
-7320.00000000 130.00000000 280.00000000 73 94 172 97.000000 1.000000 4.000000 1.000000 -60.708740 114.000000 151.000000 0.082948 0.726160 0.682503
-7330.00000000 70.00000000 310.00000000 73 94 172 97.000000 1.000000 4.000000 1.000000 -60.708740 114.000000 151.000000 0.138389 0.499657 0.855097
-7340.00000000 110.00000000 260.00000000 73 94 172 97.000000 1.000000 4.000000 1.000000 -60.708740 114.000000 151.000000 0.332945 0.631784 0.699997
-7720.00000000 300.00000000 320.00000000 73 94 172 97.000000 1.000000 4.000000 1.000000 -60.708740 114.000000 151.000000 0.695661 0.420053 0.582761
-7720.00000000 270.00000000 340.00000000 73 94 172 97.000000 1.000000 4.000000 1.000000 -60.708740 114.000000 151.000000 0.950480 0.226434 0.212875
-7720.00000000 260.00000000 370.00000000 73 94 172 97.000000 1.000000 4.000000 1.000000 -60.708740 114.000000 151.000000 0.955250 0.147473 0.256416
-7690.00000000 190.00000000 350.00000000 73 94 172 97.000000 1.000000 4.000000 1.000000 -60.708740 114.000000 151.000000 0.754329 0.512158 0.410708
-7420.00000000 280.00000000 280.00000000 73 94 172 97.000000 1.000000 4.000000 1.000000 -60.708740 114.000000 151.000000 0.155686 0.648440 0.745176
-7430.00000000 290.00000000 300.00000000 73 94 172 97.000000 1.000000 4.000000 1.000000 -60.708740 114.000000 151.000000 0.283722 0.512580 0.810410
-7460.00000000 300.00000000 250.00000000 73 94 172 97.000000 1.000000 4.000000 1.000000 -60.708740 114.000000 151.000000 0.368679 0.787266 0.494255
-7490.00000000 270.00000000 280.00000000 73 94 172 97.000000 1.000000 4.000000 1.000000 -60.708740 114.000000 151.000000 0.497718 0.753969 0.428728
-7420.00000000 270.00000000 210.00000000 73 94 172 97.000000 1.000000 4.000000 1.000000 -60.708740 114.000000 151.000000 0.428111 0.255656 0.866811
-7530.00000000 300.00000000 300.00000000 73 94 172 97.000000 1.000000 4.000000 1.000000 -60.708740 114.000000 151.000000 0.481659 0.484970 0.729937
-7530.00000000 300.00000000 300.00000000 73 94 172 97.000000 1.000000 4.000000 1.000000 -60.708740 114.000000 151.000000 0.481659 0.484970 0.729937
-7560.00000000 250.00000000 290.00000000 73 94 172 97.000000 1.000000 4.000000 1.000000 -60.708740 114.000000 151.000000 0.579898 0.342741 0.739085
-7670.00000000 300.00000000 310.00000000 73 94 172 97.000000 1.000000 4.000000 1.000000 -60.708740 114.000000 151.000000 0.531546 0.820927 0.208659
-7820.00000000 670.00000000 80.00000000 73 94 172 97.000000 1.000000 4.000000 1.000000 -60.708740 114.000000 151.000000 0.505464 0.555843 0.659958
-7760.00000000 660.00000000 20.00000000 73 94 172 97.000000 1.000000 4.000000 1.000000 -60.708740 114.000000 151.000000 0.626144 0.514754 0.585638
-7890.00000000 730.00000000 140.00000000 73 94 172 97.000000 1.000000 4.000000 1.000000 -60.708740 114.000000 151.000000 0.611227 0.784189 0.107001
-7870.00000000 730.00000000 80.00000000 73 94 172 97.000000 1.000000 4.000000 1.000000 -60.708740 114.000000 151.000000 0.923138 0.312469 0.224007
-7860.00000000 690.00000000 140.00000000 73 94 172 97.000000 1.000000 4.000000 1.000000 -60.708740 114.000000 151.000000 0.656364 0.420406 0.626454
-7840.00000000 690.00000000 70.00000000 73 94 172 97.000000 1.000000 4.000000 1.000000 -60.708740 114.000000 151.000000 0.603572 0.456441 0.653730
-7880.00000000 670.00000000 110.00000000 73 94 172 97.000000 1.000000 4.000000 1.000000 -60.708740 114.000000 151.000000 0.504017 0.691558 0.517412
-7860.00000000 660.00000000 110.00000000 73 94 172 97.000000 1.000000 4.000000 1.000000 -60.708740 114.000000 151.000000 0.811841 0.378009 0.444998
-7850.00000000 670.00000000 140.00000000 73 94 172 97.000000 1.000000 4.000000 1.000000 -60.708740 114.000000 151.000000 0.730063 0.420239 0.538895
-7860.00000000 670.00000000 130.00000000 73 94 172 97.000000 1.000000 4.000000 1.000000 -60.708740 114.000000 151.000000 0.889672 0.291573 0.351383
-7860.00000000 660.00000000 100.00000000 73 94 172 97.000000 1.000000 4.000000 1.000000 -60.708740 114.000000 151.000000 0.674957 0.551019 0.490725
-7870.00000000 670.00000000 90.00000000 73 94 172 97.000000 1.000000 4.000000 1.000000 -60.708740 114.000000 151.000000 0.531456 0.592194 0.605691
-7890.00000000 680.00000000 110.00000000 73 94 172 97.000000 1.000000 4.000000 1.000000 -60.708740 114.000000 151.000000 0.814967 0.548855 0.185976
-7890.00000000 670.00000000 120.00000000 73 94 172 97.000000 1.000000 4.000000 1.000000 -60.708740 114.000000 151.000000 0.944972 0.209841 0.250987
-7930.00000000 680.00000000 130.00000000 73 94 172 97.000000 1.000000 4.000000 1.000000 -60.708740 114.000000 151.000000 0.712712 0.662587 0.230261
-7970.00000000 430.00000000 330.00000000 73 94 172 97.000000 1.000000 4.000000 1.000000 -60.708740 114.000000 151.000000 0.958659 0.214069 -0.187477
-7760.00000000 510.00000000 260.00000000 73 94 172 97.000000 1.000000 4.000000 1.000000 -60.708740 114.000000 151.000000 0.954597 0.263474 0.139019
-7770.00000000 510.00000000 260.00000000 73 94 172 97.000000 1.000000 4.000000 1.000000 -60.708740 114.000000 151.000000 0.955415 0.130464 0.264881
-7920.00000000 610.00000000 200.00000000 73 94 172 97.000000 1.000000 4.000000 1.000000 -60.708740 114.000000 151.000000 0.597438 0.706063 0.380188
-7890.00000000 610.00000000 160.00000000 73 94 172 97.000000 1.000000 4.000000 1.000000 -60.708740 114.000000 151.000000 0.564925 0.665505 0.487814
-7870.00000000 500.00000000 240.00000000 73 94 172 97.000000 1.000000 4.000000 1.000000 -60.708740 114.000000 151.000000 0.777725 0.491964 0.391298
-7860.00000000 490.00000000 240.00000000 73 94 172 97.000000 1.000000 4.000000 1.000000 -60.708740 114.000000 151.000000 0.713366 0.497195 0.493869
-7890.00000000 530.00000000 270.00000000 73 94 172 97.000000 1.000000 4.000000 1.000000 -60.708740 114.000000 151.000000 0.849417 0.489875 -0.196250
-7870.00000000 490.00000000 230.00000000 73 94 172 97.000000 1.000000 4.000000 1.000000 -60.708740 114.000000 151.000000 0.705877 0.705877 0.058943
-7860.00000000 490.00000000 220.00000000 73 94 172 97.000000 1.000000 4.000000 1.000000 -60.708740 114.000000 151.000000 0.620406 0.770626 0.145713
-7850.00000000 480.00000000 220.00000000 73 94 172 97.000000 1.000000 4.000000 1.000000 -60.708740 114.000000 151.000000 0.556826 0.808688 0.189655
-7860.00000000 500.00000000 230.00000000 73 94 172 97.000000 1.000000 4.000000 1.000000 -60.708740 114.000000 151.000000 0.557616 0.737492 0.381011
-7910.00000000 510.00000000 230.00000000 73 94 172 97.000000 1.000000 4.000000 1.000000 -60.708740 114.000000 151.000000 0.856201 0.475334 0.202429
-7790.00000000 440.00000000 290.00000000 73 94 172 97.000000 1.000000 4.000000 1.000000 -60.708740 114.000000 151.000000 0.787144 0.355744 0.503836
-7830.00000000 470.00000000 280.00000000 73 94 172 97.000000 1.000000 4.000000 1.000000 -60.708740 114.000000 151.000000 0.800420 0.439667 0.407457
-7820.00000000 450.00000000 280.00000000 73 94 172 97.000000 1.000000 4.000000 1.000000 -60.708740 114.000000 151.000000 0.707513 0.588770 0.390864
-7820.00000000 440.00000000 260.00000000 73 94 172 97.000000 1.000000 4.000000 1.000000 -60.708740 114.000000 151.000000 0.840354 0.533990 0.093055
-7880.00000000 470.00000000 270.00000000 73 94 172 97.000000 1.000000 4.000000 1.000000 -60.708740 114.000000 151.000000 0.961991 0.272948 -0.008492
-7930.00000000 610.00000000 210.00000000 73 94 172 97.000000 1.000000 4.000000 1.000000 -60.708740 114.000000 151.000000 0.732085 0.662362 -0.159149
-7930.00000000 600.00000000 200.00000000 73 94 172 97.000000 1.000000 4.000000 1.000000 -60.708740 114.000000 151.000000 0.690514 0.711484 -0.130314
-7930.00000000 610.00000000 170.00000000 73 94 172 97.000000 1.000000 4.000000 1.000000 -60.708740 114.000000 151.000000 0.890265 0.222935 0.397150
-7950.00000000 560.00000000 210.00000000 73 94 172 97.000000 1.000000 4.000000 1.000000 -60.708740 114.000000 151.000000 0.843336 0.525096 -0.114277
-8000.00000000 600.00000000 200.00000000 73 94 172 97.000000 1.000000 4.000000 1.000000 -60.708740 114.000000 151.000000 0.951469 0.278122 0.131742
-7970.00000000 520.00000000 200.00000000 73 94 172 97.000000 1.000000 4.000000 1.000000 -60.708740 114.000000 151.000000 0.950048 0.205232 0.235134
-8000.00000000 550.00000000 210.00000000 73 94 172 97.000000 1.000000 4.000000 1.000000 -60.708740 114.000000 151.000000 0.905587 0.244318 0.346727
-7970.00000000 520.00000000 220.00000000 73 94 172 97.000000 1.000000 4.000000 1.000000 -60.708740 114.000000 151.000000 0.967003 0.108294 0.230603
-7950.00000000 420.00000000 290.00000000 73 94 172 97.000000 1.000000 4.000000 1.000000 -60.708740 114.000000 151.000000 0.982006 0.187548 0.022133
-7180.00000000 670.00000000 -190.00000000 73 94 172 97.000000 1.000000 4.000000 1.000000 -60.708740 114.000000 151.000000 0.723671 -0.254948 -0.641328
-7200.00000000 650.00000000 -200.00000000 73 94 172 97.000000 1.000000 4.000000 1.000000 -60.708740 114.000000 151.000000 0.743514 -0.061840 -0.665855
-7200.00000000 650.00000000 -200.00000000 73 94 172 97.000000 1.000000 4.000000 1.000000 -60.708740 114.000000 151.000000 0.743514 -0.061840 -0.665855
-7300.00000000 850.00000000 -170.00000000 73 94 172 97.000000 1.000000 4.000000 1.000000 -60.708740 114.000000 151.000000 0.624944 0.387498 -0.677710
-7310.00000000 880.00000000 -180.00000000 73 94 172 97.000000 1.000000 4.000000 1.000000 -60.708740 114.000000 151.000000 -0.553602 -0.307911 0.773767
-7310.00000000 850.00000000 -180.00000000 73 94 172 97.000000 1.000000 4.000000 1.000000 -60.708740 114.000000 151.000000 -0.582469 -0.154227 0.798088
-7400.00000000 850.00000000 -170.00000000 73 94 172 97.000000 1.000000 4.000000 1.000000 -60.708740 114.000000 151.000000 0.343369 -0.393087 -0.852983
-7400.00000000 890.00000000 -180.00000000 73 94 172 97.000000 1.000000 4.000000 1.000000 -60.708740 114.000000 151.000000 -0.217304 -0.049774 0.974834
-7350.00000000 820.00000000 -200.00000000 73 94 172 97.000000 1.000000 4.000000 1.000000 -60.708740 114.000000 151.000000 -0.624688 0.040894 0.779803
-7280.00000000 760.00000000 -190.00000000 73 94 172 97.000000 1.000000 4.000000 1.000000 -60.708740 114.000000 151.000000 -0.355809 -0.087274 0.930475
-7250.00000000 650.00000000 -190.00000000 73 94 172 97.000000 1.000000 4.000000 1.000000 -60.708740 114.000000 151.000000 -0.185529 0.281729 0.941386
-7270.00000000 790.00000000 -240.00000000 73 94 172 97.000000 1.000000 4.000000 1.000000 -60.708740 114.000000 151.000000 -0.653947 -0.162349 0.738915
-7250.00000000 750.00000000 -210.00000000 73 94 172 97.000000 1.000000 4.000000 1.000000 -60.708740 114.000000 151.000000 0.728578 -0.332647 -0.598765
-7320.00000000 740.00000000 -190.00000000 73 94 172 97.000000 1.000000 4.000000 1.000000 -60.708740 114.000000 151.000000 -0.371774 -0.150112 0.916106
-7320.00000000 630.00000000 -80.00000000 73 94 172 97.000000 1.000000 4.000000 1.000000 -60.708740 114.000000 151.000000 -0.501148 0.329326 0.800247
-7320.00000000 540.00000000 -40.00000000 73 94 172 97.000000 1.000000 4.000000 1.000000 -60.708740 114.000000 151.000000 -0.338746 0.528187 0.778634
-7410.00000000 630.00000000 -80.00000000 73 94 172 97.000000 1.000000 4.000000 1.000000 -60.708740 114.000000 151.000000 -0.312789 0.355099 0.880947
-7400.00000000 560.00000000 -40.00000000 73 94 172 97.000000 1.000000 4.000000 1.000000 -60.708740 114.000000 151.000000 -0.520064 0.225515 0.823818
-7400.00000000 570.00000000 -30.00000000 73 94 172 97.000000 1.000000 4.000000 1.000000 -60.708740 114.000000 151.000000 -0.476527 0.115912 0.871485
-7370.00000000 630.00000000 -160.00000000 73 94 172 97.000000 1.000000 4.000000 1.000000 -60.708740 114.000000 151.000000 -0.459475 0.522507 0.718240
-7390.00000000 550.00000000 -20.00000000 73 94 172 97.000000 1.000000 4.000000 1.000000 -60.708740 114.000000 151.000000 0.092421 0.412448 0.906281
-7400.00000000 550.00000000 -40.00000000 73 94 172 97.000000 1.000000 4.000000 1.000000 -60.708740 114.000000 151.000000 -0.419358 0.248008 0.873287
-7430.00000000 880.00000000 -180.00000000 73 94 172 97.000000 1.000000 4.000000 1.000000 -60.708740 114.000000 151.000000 -0.404123 0.366383 0.838122
-7440.00000000 670.00000000 -80.00000000 73 94 172 97.000000 1.000000 4.000000 1.000000 -60.708740 114.000000 151.000000 -0.216487 0.492016 0.843240
-7440.00000000 670.00000000 -80.00000000 73 94 172 97.000000 1.000000 4.000000 1.000000 -60.708740 114.000000 151.000000 -0.216487 0.492016 0.843240
-7470.00000000 640.00000000 -90.00000000 73 94 172 97.000000 1.000000 4.000000 1.000000 -60.708740 114.000000 151.000000 -0.137483 0.244851 0.959764
-7500.00000000 650.00000000 -110.00000000 73 94 172 97.000000 1.000000 4.000000 1.000000 -60.708740 114.000000 151.000000 0.037532 0.350734 0.935723
-7450.00000000 600.00000000 -80.00000000 73 94 172 97.000000 1.000000 4.000000 1.000000 -60.708740 114.000000 151.000000 -0.199463 0.438818 0.876158
-7430.00000000 630.00000000 -90.00000000 73 94 172 97.000000 1.000000 4.000000 1.000000 -60.708740 114.000000 151.000000 -0.233407 0.368460 0.899866
-7490.00000000 620.00000000 -80.00000000 73 94 172 97.000000 1.000000 4.000000 1.000000 -60.708740 114.000000 151.000000 -0.228772 0.599166 0.767244
-7420.00000000 550.00000000 -40.00000000 73 94 172 97.000000 1.000000 4.000000 1.000000 -60.708740 114.000000 151.000000 0.013966 0.089171 0.995918
-7530.00000000 630.00000000 -110.00000000 73 94 172 97.000000 1.000000 4.000000 1.000000 -60.708740 114.000000 151.000000 -0.076340 -0.026880 0.996719
-7080.00000000 350.00000000 210.00000000 73 94 172 97.000000 1.000000 4.000000 1.000000 -60.708740 114.000000 151.000000 0.679193 0.423458 -0.599483
-7160.00000000 350.00000000 160.00000000 73 94 172 97.000000 1.000000 4.000000 1.000000 -60.708740 114.000000 151.000000 -0.632142 0.091975 0.769374
-7090.00000000 360.00000000 210.00000000 73 94 172 97.000000 1.000000 4.000000 1.000000 -60.708740 114.000000 151.000000 -0.574738 -0.128540 0.808179
-7110.00000000 360.00000000 210.00000000 73 94 172 97.000000 1.000000 4.000000 1.000000 -60.708740 114.000000 151.000000 -0.351512 0.042804 0.935204
-7200.00000000 310.00000000 180.00000000 73 94 172 97.000000 1.000000 4.000000 1.000000 -60.708740 114.000000 151.000000 -0.254117 0.448889 0.856693
-7240.00000000 310.00000000 150.00000000 73 94 172 97.000000 1.000000 4.000000 1.000000 -60.708740 114.000000 151.000000 0.517604 -0.371572 -0.770727
-7160.00000000 390.00000000 130.00000000 73 94 172 97.000000 1.000000 4.000000 1.000000 -60.708740 114.000000 151.000000 0.602047 -0.088494 -0.793542
-7140.00000000 380.00000000 130.00000000 73 94 172 97.000000 1.000000 4.000000 1.000000 -60.708740 114.000000 151.000000 -0.348672 0.189279 0.917933
-7330.00000000 560.00000000 -10.00000000 73 94 172 97.000000 1.000000 4.000000 1.000000 -60.708740 114.000000 151.000000 -0.082069 -0.011724 0.996558
-7320.00000000 480.00000000 80.00000000 73 94 172 97.000000 1.000000 4.000000 1.000000 -60.708740 114.000000 151.000000 -0.365286 0.460994 0.808734
-7290.00000000 490.00000000 80.00000000 73 94 172 97.000000 1.000000 4.000000 1.000000 -60.708740 114.000000 151.000000 -0.383865 0.195554 0.902445
-7270.00000000 530.00000000 30.00000000 73 94 172 97.000000 1.000000 4.000000 1.000000 -60.708740 114.000000 151.000000 -0.190792 0.365805 0.910925
-7410.00000000 600.00000000 -10.00000000 73 94 172 97.000000 1.000000 4.000000 1.000000 -60.708740 114.000000 151.000000 -0.398661 0.546314 0.736621
-7350.00000000 560.00000000 0.00000000 73 94 172 97.000000 1.000000 4.000000 1.000000 -60.708740 114.000000 151.000000 -0.108629 0.096949 0.989344
-7350.00000000 540.00000000 0.00000000 73 94 172 97.000000 1.000000 4.000000 1.000000 -60.708740 114.000000 151.000000 0.016091 0.298307 0.954334
-7370.00000000 530.00000000 20.00000000 73 94 172 97.000000 1.000000 4.000000 1.000000 -60.708740 114.000000 151.000000 -0.386555 0.352402 0.852284
-7390.00000000 520.00000000 50.00000000 73 94 172 97.000000 1.000000 4.000000 1.000000 -60.708740 114.000000 151.000000 -0.320694 -0.111371 0.940613
-7390.00000000 500.00000000 10.00000000 73 94 172 97.000000 1.000000 4.000000 1.000000 -60.708740 114.000000 151.000000 -0.370970 0.032541 0.928075
-7300.00000000 320.00000000 180.00000000 73 94 172 97.000000 1.000000 4.000000 1.000000 -60.708740 114.000000 151.000000 -0.191892 0.251773 0.948572
-7300.00000000 360.00000000 160.00000000 73 94 172 97.000000 1.000000 4.000000 1.000000 -60.708740 114.000000 151.000000 -0.224192 0.570530 0.790084
-7300.00000000 380.00000000 150.00000000 73 94 172 97.000000 1.000000 4.000000 1.000000 -60.708740 114.000000 151.000000 -0.275518 0.051581 0.959911
-7250.00000000 340.00000000 160.00000000 73 94 172 97.000000 1.000000 4.000000 1.000000 -60.708740 114.000000 151.000000 -0.498547 0.442605 0.745353
-7300.00000000 350.00000000 160.00000000 73 94 172 97.000000 1.000000 4.000000 1.000000 -60.708740 114.000000 151.000000 0.586321 -0.345946 -0.732495
-7290.00000000 320.00000000 170.00000000 73 94 172 97.000000 1.000000 4.000000 1.000000 -60.708740 114.000000 151.000000 -0.178546 0.413705 0.892731
-7330.00000000 310.00000000 170.00000000 73 94 172 97.000000 1.000000 4.000000 1.000000 -60.708740 114.000000 151.000000 0.272653 0.206220 0.939752
-7360.00000000 330.00000000 150.00000000 73 94 172 97.000000 1.000000 4.000000 1.000000 -60.708740 114.000000 151.000000 0.255433 0.328413 0.909340
-7360.00000000 310.00000000 180.00000000 73 94 172 97.000000 1.000000 4.000000 1.000000 -60.708740 114.000000 151.000000 -0.160932 0.588080 0.792630
-7360.00000000 350.00000000 160.00000000 73 94 172 97.000000 1.000000 4.000000 1.000000 -60.708740 114.000000 151.000000 -0.121395 0.254538 0.959413
-7280.00000000 440.00000000 90.00000000 73 94 172 97.000000 1.000000 4.000000 1.000000 -60.708740 114.000000 151.000000 -0.138097 0.215535 0.966682
-7270.00000000 420.00000000 120.00000000 73 94 172 97.000000 1.000000 4.000000 1.000000 -60.708740 114.000000 151.000000 -0.219550 0.301705 0.927778
-7320.00000000 440.00000000 110.00000000 73 94 172 97.000000 1.000000 4.000000 1.000000 -60.708740 114.000000 151.000000 -0.439925 0.186858 0.878379
-7250.00000000 470.00000000 80.00000000 73 94 172 97.000000 1.000000 4.000000 1.000000 -60.708740 114.000000 151.000000 -0.356482 0.113364 0.927399
-7310.00000000 450.00000000 80.00000000 73 94 172 97.000000 1.000000 4.000000 1.000000 -60.708740 114.000000 151.000000 -0.032107 0.342907 0.938820
-7320.00000000 450.00000000 110.00000000 73 94 172 97.000000 1.000000 4.000000 1.000000 -60.708740 114.000000 151.000000 -0.278944 0.537401 0.795858
-7320.00000000 410.00000000 120.00000000 73 94 172 97.000000 1.000000 4.000000 1.000000 -60.708740 114.000000 151.000000 -0.181433 0.514311 0.838192
-7270.00000000 350.00000000 140.00000000 73 94 172 97.000000 1.000000 4.000000 1.000000 -60.708740 114.000000 151.000000 -0.484709 0.350335 0.801450
-7270.00000000 360.00000000 140.00000000 73 94 172 97.000000 1.000000 4.000000 1.000000 -60.708740 114.000000 151.000000 -0.013482 0.280680 0.959707
-7400.00000000 410.00000000 140.00000000 73 94 172 97.000000 1.000000 4.000000 1.000000 -60.708740 114.000000 151.000000 0.180243 0.561934 0.807306
-7370.00000000 400.00000000 140.00000000 73 94 172 97.000000 1.000000 4.000000 1.000000 -60.708740 114.000000 151.000000 -0.038462 0.169001 0.984865
-7370.00000000 430.00000000 90.00000000 73 94 172 97.000000 1.000000 4.000000 1.000000 -60.708740 114.000000 151.000000 -0.577478 0.224489 0.784936
-7390.00000000 420.00000000 120.00000000 73 94 172 97.000000 1.000000 4.000000 1.000000 -60.708740 114.000000 151.000000 -0.263017 -0.048615 0.963566
-7340.00000000 420.00000000 100.00000000 73 94 172 97.000000 1.000000 4.000000 1.000000 -60.708740 114.000000 151.000000 -0.367480 0.367480 0.854352
-7400.00000000 340.00000000 140.00000000 73 94 172 97.000000 1.000000 4.000000 1.000000 -60.708740 114.000000 151.000000 -0.137941 0.568080 0.811331
-7400.00000000 370.00000000 140.00000000 73 94 172 97.000000 1.000000 4.000000 1.000000 -60.708740 114.000000 151.000000 -0.176531 0.091309 0.980051
-7400.00000000 380.00000000 140.00000000 73 94 172 97.000000 1.000000 4.000000 1.000000 -60.708740 114.000000 151.000000 0.083605 0.335747 0.938235
-7570.00000000 680.00000000 60.00000000 73 94 172 97.000000 1.000000 4.000000 1.000000 -60.708740 114.000000 151.000000 0.339036 0.210288 0.916970
-7580.00000000 640.00000000 90.00000000 73 94 172 97.000000 1.000000 4.000000 1.000000 -60.708740 114.000000 151.000000 0.443192 0.469359 0.763730
-7570.00000000 720.00000000 20.00000000 73 94 172 97.000000 1.000000 4.000000 1.000000 -60.708740 114.000000 151.000000 -0.041118 0.681994 0.730201
-7580.00000000 740.00000000 50.00000000 73 94 172 97.000000 1.000000 4.000000 1.000000 -60.708740 114.000000 151.000000 -0.146688 0.066890 0.986919
-7580.00000000 710.00000000 50.00000000 73 94 172 97.000000 1.000000 4.000000 1.000000 -60.708740 114.000000 151.000000 -0.288786 0.141035 0.946949
-7580.00000000 750.00000000 50.00000000 73 94 172 97.000000 1.000000 4.000000 1.000000 -60.708740 114.000000 151.000000 -0.176992 0.075854 0.981285
-7540.00000000 740.00000000 50.00000000 73 94 172 97.000000 1.000000 4.000000 1.000000 -60.708740 114.000000 151.000000 0.096173 -0.016209 0.995233
-7720.00000000 640.00000000 40.00000000 73 94 172 97.000000 1.000000 4.000000 1.000000 -60.708740 114.000000 151.000000 0.211632 0.469793 0.857034
-7610.00000000 660.00000000 20.00000000 73 94 172 97.000000 1.000000 4.000000 1.000000 -60.708740 114.000000 151.000000 0.199850 0.714192 0.670813
-7570.00000000 320.00000000 330.00000000 73 94 172 97.000000 1.000000 4.000000 1.000000 -60.708740 114.000000 151.000000 0.881475 0.432671 0.189202
-7580.00000000 490.00000000 150.00000000 73 94 172 97.000000 1.000000 4.000000 1.000000 -60.708740 114.000000 151.000000 0.109438 0.473285 0.874085
-7530.00000000 490.00000000 210.00000000 73 94 172 97.000000 1.000000 4.000000 1.000000 -60.708740 114.000000 151.000000 0.435906 0.432665 0.789168
-7420.00000000 580.00000000 -10.00000000 73 94 172 97.000000 1.000000 4.000000 1.000000 -60.708740 114.000000 151.000000 -0.048741 0.189020 0.980763
-7460.00000000 570.00000000 60.00000000 73 94 172 97.000000 1.000000 4.000000 1.000000 -60.708740 114.000000 151.000000 0.208519 0.383500 0.899693
-7500.00000000 600.00000000 40.00000000 73 94 172 97.000000 1.000000 4.000000 1.000000 -60.708740 114.000000 151.000000 -0.020663 -0.096790 0.995090
-7490.00000000 590.00000000 40.00000000 73 94 172 97.000000 1.000000 4.000000 1.000000 -60.708740 114.000000 151.000000 0.018148 0.255285 0.966695
-7450.00000000 500.00000000 90.00000000 73 94 172 97.000000 1.000000 4.000000 1.000000 -60.708740 114.000000 151.000000 0.124270 0.461371 0.878461
-7480.00000000 530.00000000 60.00000000 73 94 172 97.000000 1.000000 4.000000 1.000000 -60.708740 114.000000 151.000000 0.142546 0.453556 0.879754
-7560.00000000 570.00000000 70.00000000 73 94 172 97.000000 1.000000 4.000000 1.000000 -60.708740 114.000000 151.000000 0.492758 0.486122 0.721717
-7580.00000000 600.00000000 70.00000000 73 94 172 97.000000 1.000000 4.000000 1.000000 -60.708740 114.000000 151.000000 0.105749 -0.551924 -0.827162
-7580.00000000 600.00000000 70.00000000 73 94 172 97.000000 1.000000 4.000000 1.000000 -60.708740 114.000000 151.000000 0.105749 -0.551924 -0.827162
-7510.00000000 560.00000000 80.00000000 73 94 172 97.000000 1.000000 4.000000 1.000000 -60.708740 114.000000 151.000000 0.011872 0.444542 0.895679
-7570.00000000 590.00000000 70.00000000 73 94 172 97.000000 1.000000 4.000000 1.000000 -60.708740 114.000000 151.000000 0.503423 0.473517 0.722736
-7570.00000000 630.00000000 -10.00000000 73 94 172 97.000000 1.000000 4.000000 1.000000 -60.708740 114.000000 151.000000 -0.114065 0.650318 0.751050
-7580.00000000 570.00000000 40.00000000 73 94 172 97.000000 1.000000 4.000000 1.000000 -60.708740 114.000000 151.000000 0.052740 0.651410 0.756890
-7540.00000000 610.00000000 20.00000000 73 94 172 97.000000 1.000000 4.000000 1.000000 -60.708740 114.000000 151.000000 -0.023021 0.104143 0.994296
-7540.00000000 510.00000000 140.00000000 73 94 172 97.000000 1.000000 4.000000 1.000000 -60.708740 114.000000 151.000000 0.172160 0.745009 0.644455
