//X Y Z R G B PointSourceId ScanDirectionFlag NumberOfReturns ReturnNumber GpsTime Intensity Classification Nx Ny Nz
1310.00000000 1180.00000000 -270.00000000 248 14 124 97.000000 1.000000 4.000000 1.000000 -60.708740 114.000000 50.000000 -0.402149 0.318945 0.858225
1310.00000000 1180.00000000 -270.00000000 248 14 124 97.000000 1.000000 4.000000 1.000000 -60.708740 114.000000 50.000000 -0.402149 0.318945 0.858225
1270.00000000 1150.00000000 -220.00000000 248 14 124 97.000000 1.000000 4.000000 1.000000 -60.708740 114.000000 50.000000 0.798491 -0.227037 -0.557554
1300.00000000 1210.00000000 -290.00000000 248 14 124 97.000000 1.000000 4.000000 1.000000 -60.708740 114.000000 50.000000 -0.539598 0.526150 0.657267
1330.00000000 1210.00000000 -300.00000000 248 14 124 97.000000 1.000000 4.000000 1.000000 -60.708740 114.000000 50.000000 0.791071 -0.552966 -0.261602
1300.00000000 1210.00000000 -290.00000000 248 14 124 97.000000 1.000000 4.000000 1.000000 -60.708740 114.000000 50.000000 -0.539598 0.526150 0.657267
1300.00000000 1200.00000000 -280.00000000 248 14 124 97.000000 1.000000 4.000000 1.000000 -60.708740 114.000000 50.000000 0.596368 -0.636685 -0.488853
1300.00000000 1220.00000000 -300.00000000 248 14 124 97.000000 1.000000 4.000000 1.000000 -60.708740 114.000000 50.000000 -0.413175 0.632208 0.655439
1310.00000000 1200.00000000 -350.00000000 248 14 124 97.000000 1.000000 4.000000 1.000000 -60.708740 114.000000 50.000000 0.750797 -0.445221 -0.487936
1330.00000000 1210.00000000 -330.00000000 248 14 124 97.000000 1.000000 4.000000 1.000000 -60.708740 114.000000 50.000000 0.878490 -0.400952 -0.259793
1340.00000000 1190.00000000 -340.00000000 248 14 124 97.000000 1.000000 4.000000 1.000000 -60.708740 114.000000 50.000000 0.832623 -0.435986 -0.341549
1340.00000000 1220.00000000 -320.00000000 248 14 124 97.000000 1.000000 4.000000 1.000000 -60.708740 114.000000 50.000000 -0.551743 0.381472 0.741660
1330.00000000 1210.00000000 -330.00000000 248 14 124 97.000000 1.000000 4.000000 1.000000 -60.708740 114.000000 50.000000 0.878490 -0.400952 -0.259793
1300.00000000 1220.00000000 -330.00000000 248 14 124 97.000000 1.000000 4.000000 1.000000 -60.708740 114.000000 50.000000 -0.539598 0.657267 0.526150
1340.00000000 1210.00000000 -320.00000000 248 14 124 97.000000 1.000000 4.000000 1.000000 -60.708740 114.000000 50.000000 -0.405573 0.399211 0.822278
1300.00000000 1180.00000000 -320.00000000 248 14 124 97.000000 1.000000 4.000000 1.000000 -60.708740 114.000000 50.000000 -0.551743 0.381472 0.741660
1340.00000000 1180.00000000 -330.00000000 248 14 124 97.000000 1.000000 4.000000 1.000000 -60.708740 114.000000 50.000000 0.654504 -0.651206 -0.384129
1260.00000000 1210.00000000 -290.00000000 248 14 124 97.000000 1.000000 4.000000 1.000000 -60.708740 114.000000 50.000000 0.836126 -0.530477 -0.139599
1260.00000000 1210.00000000 -310.00000000 248 14 124 97.000000 1.000000 4.000000 1.000000 -60.708740 114.000000 50.000000 -0.622851 0.307402 0.719417
1290.00000000 1210.00000000 -290.00000000 248 14 124 97.000000 1.000000 4.000000 1.000000 -60.708740 114.000000 50.000000 -0.615270 0.257812 0.744967
1260.00000000 1210.00000000 -320.00000000 248 14 124 97.000000 1.000000 4.000000 1.000000 -60.708740 114.000000 50.000000 -0.761509 0.510390 0.399507
1250.00000000 1280.00000000 -250.00000000 248 14 124 97.000000 1.000000 4.000000 1.000000 -60.708740 114.000000 50.000000 0.417036 -0.682876 -0.599801
1230.00000000 1270.00000000 -270.00000000 248 14 124 97.000000 1.000000 4.000000 1.000000 -60.708740 114.000000 50.000000 0.745331 -0.569959 -0.345873
1250.00000000 1270.00000000 -260.00000000 248 14 124 97.000000 1.000000 4.000000 1.000000 -60.708740 114.000000 50.000000 0.705390 -0.398124 -0.586448
1230.00000000 1300.00000000 -350.00000000 248 14 124 97.000000 1.000000 4.000000 1.000000 -60.708740 114.000000 50.000000 -0.554875 0.729405 0.400103
1220.00000000 1290.00000000 -350.00000000 248 14 124 97.000000 1.000000 4.000000 1.000000 -60.708740 114.000000 50.000000 0.697944 -0.585212 -0.412798
1210.00000000 1280.00000000 -330.00000000 248 14 124 97.000000 1.000000 4.000000 1.000000 -60.708740 114.000000 50.000000 -0.596024 0.649751 0.471783
1250.00000000 1190.00000000 -310.00000000 248 14 124 97.000000 1.000000 4.000000 1.000000 -60.708740 114.000000 50.000000 -0.718937 0.496448 0.486486
1250.00000000 1220.00000000 -330.00000000 248 14 124 97.000000 1.000000 4.000000 1.000000 -60.708740 114.000000 50.000000 0.662125 -0.363101 -0.655553
1250.00000000 1170.00000000 -280.00000000 248 14 124 97.000000 1.000000 4.000000 1.000000 -60.708740 114.000000 50.000000 -0.446379 0.663717 0.600188
1220.00000000 1170.00000000 -310.00000000 248 14 124 97.000000 1.000000 4.000000 1.000000 -60.708740 114.000000 50.000000 0.695557 -0.283020 -0.660379
1210.00000000 1170.00000000 -300.00000000 248 14 124 97.000000 1.000000 4.000000 1.000000 -60.708740 114.000000 50.000000 0.669929 -0.089032 -0.737068
1200.00000000 1160.00000000 -320.00000000 248 14 124 97.000000 1.000000 4.000000 1.000000 -60.708740 114.000000 50.000000 0.664397 -0.546656 -0.509651
1340.00000000 1120.00000000 -70.00000000 248 14 124 97.000000 1.000000 4.000000 1.000000 -60.708740 114.000000 50.000000 -0.493350 0.012098 0.869747
1330.00000000 1110.00000000 -140.00000000 248 14 124 97.000000 1.000000 4.000000 1.000000 -60.708740 114.000000 50.000000 -0.387764 0.655074 0.648473
1340.00000000 1130.00000000 -170.00000000 248 14 124 97.000000 1.000000 4.000000 1.000000 -60.708740 114.000000 50.000000 0.576143 -0.589659 -0.566005
1330.00000000 1080.00000000 -140.00000000 248 14 124 97.000000 1.000000 4.000000 1.000000 -60.708740 114.000000 50.000000 -0.709915 0.467180 0.527033
1300.00000000 980.00000000 -130.00000000 248 14 124 97.000000 1.000000 4.000000 1.000000 -60.708740 114.000000 50.000000 -0.361969 0.627304 0.689543
1200.00000000 980.00000000 -160.00000000 248 14 124 97.000000 1.000000 4.000000 1.000000 -60.708740 114.000000 50.000000 -0.326105 0.663567 0.673301
1230.00000000 1010.00000000 -150.00000000 248 14 124 97.000000 1.000000 4.000000 1.000000 -60.708740 114.000000 50.000000 0.655430 -0.251117 -0.712287
1330.00000000 1120.00000000 -210.00000000 248 14 124 97.000000 1.000000 4.000000 1.000000 -60.708740 114.000000 50.000000 -0.609118 0.306970 0.731263
1330.00000000 1110.00000000 -210.00000000 248 14 124 97.000000 1.000000 4.000000 1.000000 -60.708740 114.000000 50.000000 0.663563 -0.392180 -0.637086
1330.00000000 1130.00000000 -220.00000000 248 14 124 97.000000 1.000000 4.000000 1.000000 -60.708740 114.000000 50.000000 -0.571072 0.052172 0.819241
1330.00000000 1120.00000000 -250.00000000 248 14 124 97.000000 1.000000 4.000000 1.000000 -60.708740 114.000000 50.000000 0.730041 -0.203048 -0.652542
1330.00000000 1110.00000000 -250.00000000 248 14 124 97.000000 1.000000 4.000000 1.000000 -60.708740 114.000000 50.000000 -0.419692 0.531610 0.735696
1300.00000000 1090.00000000 -250.00000000 248 14 124 97.000000 1.000000 4.000000 1.000000 -60.708740 114.000000 50.000000 -0.506233 0.355166 0.785866
1310.00000000 1100.00000000 -250.00000000 248 14 124 97.000000 1.000000 4.000000 1.000000 -60.708740 114.000000 50.000000 -0.581692 0.390541 0.713521
1300.00000000 1100.00000000 -260.00000000 248 14 124 97.000000 1.000000 4.000000 1.000000 -60.708740 114.000000 50.000000 -0.502403 0.238142 0.831192
1300.00000000 1100.00000000 -270.00000000 248 14 124 97.000000 1.000000 4.000000 1.000000 -60.708740 114.000000 50.000000 -0.537868 0.685321 0.490951
1270.00000000 1110.00000000 -220.00000000 248 14 124 97.000000 1.000000 4.000000 1.000000 -60.708740 114.000000 50.000000 0.839343 -0.381234 -0.387510
1270.00000000 1120.00000000 -270.00000000 248 14 124 97.000000 1.000000 4.000000 1.000000 -60.708740 114.000000 50.000000 0.593587 -0.459821 -0.660470
1270.00000000 1140.00000000 -240.00000000 248 14 124 97.000000 1.000000 4.000000 1.000000 -60.708740 114.000000 50.000000 0.848425 -0.281782 -0.448079
1330.00000000 1090.00000000 -340.00000000 248 14 124 97.000000 1.000000 4.000000 1.000000 -60.708740 114.000000 50.000000 -0.613500 0.711139 0.343365
1330.00000000 1090.00000000 -330.00000000 248 14 124 97.000000 1.000000 4.000000 1.000000 -60.708740 114.000000 50.000000 0.781260 -0.201071 -0.590934
1270.00000000 1130.00000000 -280.00000000 248 14 124 97.000000 1.000000 4.000000 1.000000 -60.708740 114.000000 50.000000 -0.595277 0.524450 0.608767
1340.00000000 1050.00000000 -340.00000000 248 14 124 97.000000 1.000000 4.000000 1.000000 -60.708740 114.000000 50.000000 -0.533884 0.706855 0.464030
1320.00000000 1020.00000000 -340.00000000 248 14 124 97.000000 1.000000 4.000000 1.000000 -60.708740 114.000000 50.000000 0.927778 -0.219550 -0.301705
1320.00000000 1030.00000000 -350.00000000 248 14 124 97.000000 1.000000 4.000000 1.000000 -60.708740 114.000000 50.000000 -0.629668 0.435924 0.643030
1310.00000000 1000.00000000 -340.00000000 248 14 124 97.000000 1.000000 4.000000 1.000000 -60.708740 114.000000 50.000000 0.866091 -0.059778 -0.496299
1280.00000000 1030.00000000 -330.00000000 248 14 124 97.000000 1.000000 4.000000 1.000000 -60.708740 114.000000 50.000000 -0.448124 0.507653 0.735849
1180.00000000 1100.00000000 -240.00000000 248 14 124 97.000000 1.000000 4.000000 1.000000 -60.708740 114.000000 50.000000 0.754025 -0.165370 -0.635687
1190.00000000 1130.00000000 -310.00000000 248 14 124 97.000000 1.000000 4.000000 1.000000 -60.708740 114.000000 50.000000 0.917534 -0.082673 -0.388969
1200.00000000 1120.00000000 -300.00000000 248 14 124 97.000000 1.000000 4.000000 1.000000 -60.708740 114.000000 50.000000 0.815721 -0.115695 -0.566758
1220.00000000 1020.00000000 -290.00000000 248 14 124 97.000000 1.000000 4.000000 1.000000 -60.708740 114.000000 50.000000 0.816095 -0.199085 -0.542544
1240.00000000 1000.00000000 -290.00000000 248 14 124 97.000000 1.000000 4.000000 1.000000 -60.708740 114.000000 50.000000 0.394201 -0.602023 -0.694388
1220.00000000 1010.00000000 -280.00000000 248 14 124 97.000000 1.000000 4.000000 1.000000 -60.708740 114.000000 50.000000 0.739782 -0.439915 -0.509115
1240.00000000 1000.00000000 -290.00000000 248 14 124 97.000000 1.000000 4.000000 1.000000 -60.708740 114.000000 50.000000 0.394201 -0.602023 -0.694388
1200.00000000 990.00000000 -280.00000000 248 14 124 97.000000 1.000000 4.000000 1.000000 -60.708740 114.000000 50.000000 -0.449468 0.535713 0.714836
1300.00000000 1300.00000000 -370.00000000 248 14 124 97.000000 1.000000 4.000000 1.000000 -60.708740 114.000000 50.000000 0.747820 -0.641206 -0.172105
1330.00000000 1290.00000000 -380.00000000 248 14 124 97.000000 1.000000 4.000000 1.000000 -60.708740 114.000000 50.000000 -0.627393 0.240579 0.740607
1340.00000000 1280.00000000 -370.00000000 248 14 124 97.000000 1.000000 4.000000 1.000000 -60.708740 114.000000 50.000000 0.655001 -0.269331 -0.705999
1330.00000000 1310.00000000 -400.00000000 248 14 124 97.000000 1.000000 4.000000 1.000000 -60.708740 114.000000 50.000000 0.678190 -0.671747 -0.298017
1310.00000000 1290.00000000 -410.00000000 248 14 124 97.000000 1.000000 4.000000 1.000000 -60.708740 114.000000 50.000000 0.713849 -0.165905 -0.680364
1330.00000000 1310.00000000 -400.00000000 248 14 124 97.000000 1.000000 4.000000 1.000000 -60.708740 114.000000 50.000000 0.678190 -0.671747 -0.298017
1330.00000000 1250.00000000 -370.00000000 248 14 124 97.000000 1.000000 4.000000 1.000000 -60.708740 114.000000 50.000000 0.741628 -0.490565 -0.457530
1310.00000000 1270.00000000 -400.00000000 248 14 124 97.000000 1.000000 4.000000 1.000000 -60.708740 114.000000 50.000000 -0.505795 0.653669 0.562928
1280.00000000 1300.00000000 -370.00000000 248 14 124 97.000000 1.000000 4.000000 1.000000 -60.708740 114.000000 50.000000 0.667839 -0.365917 -0.648148
1260.00000000 1240.00000000 -360.00000000 248 14 124 97.000000 1.000000 4.000000 1.000000 -60.708740 114.000000 50.000000 -0.685725 0.707106 0.172577
1290.00000000 1230.00000000 -440.00000000 248 14 124 97.000000 1.000000 4.000000 1.000000 -60.708740 114.000000 50.000000 0.767736 -0.559373 -0.312544
1330.00000000 1240.00000000 -460.00000000 248 14 124 97.000000 1.000000 4.000000 1.000000 -60.708740 114.000000 50.000000 0.779836 -0.620093 -0.085680
1280.00000000 1280.00000000 -490.00000000 248 14 124 97.000000 1.000000 4.000000 1.000000 -60.708740 114.000000 50.000000 -0.641255 0.740147 0.202420
1270.00000000 1260.00000000 -450.00000000 248 14 124 97.000000 1.000000 4.000000 1.000000 -60.708740 114.000000 50.000000 0.862019 -0.506351 -0.023078
1340.00000000 1210.00000000 -400.00000000 248 14 124 97.000000 1.000000 4.000000 1.000000 -60.708740 114.000000 50.000000 -0.551570 0.678985 0.484510
1310.00000000 1190.00000000 -420.00000000 248 14 124 97.000000 1.000000 4.000000 1.000000 -60.708740 114.000000 50.000000 0.865796 -0.492925 -0.086156
1310.00000000 1180.00000000 -420.00000000 248 14 124 97.000000 1.000000 4.000000 1.000000 -60.708740 114.000000 50.000000 0.930035 -0.358938 -0.078726
1290.00000000 1210.00000000 -400.00000000 248 14 124 97.000000 1.000000 4.000000 1.000000 -60.708740 114.000000 50.000000 -0.544375 0.685075 0.484075
1340.00000000 1170.00000000 -510.00000000 248 14 124 97.000000 1.000000 4.000000 1.000000 -60.708740 114.000000 50.000000 0.914671 -0.367286 0.168753
1290.00000000 1190.00000000 -460.00000000 248 14 124 97.000000 1.000000 4.000000 1.000000 -60.708740 114.000000 50.000000 -0.731509 0.557262 0.392878
1280.00000000 1180.00000000 -460.00000000 248 14 124 97.000000 1.000000 4.000000 1.000000 -60.708740 114.000000 50.000000 0.881054 -0.469987 -0.053439
1270.00000000 1150.00000000 -500.00000000 248 14 124 97.000000 1.000000 4.000000 1.000000 -60.708740 114.000000 50.000000 0.777316 -0.627778 0.040911
1250.00000000 1310.00000000 -370.00000000 248 14 124 97.000000 1.000000 4.000000 1.000000 -60.708740 114.000000 50.000000 -0.523137 0.550051 0.650978
1250.00000000 1300.00000000 -370.00000000 248 14 124 97.000000 1.000000 4.000000 1.000000 -60.708740 114.000000 50.000000 -0.677770 0.196075 0.708648
1250.00000000 1260.00000000 -370.00000000 248 14 124 97.000000 1.000000 4.000000 1.000000 -60.708740 114.000000 50.000000 0.722689 -0.667452 -0.179522
1250.00000000 1310.00000000 -470.00000000 248 14 124 97.000000 1.000000 4.000000 1.000000 -60.708740 114.000000 50.000000 -0.619501 0.682278 0.388221
1240.00000000 1250.00000000 -460.00000000 248 14 124 97.000000 1.000000 4.000000 1.000000 -60.708740 114.000000 50.000000 0.693206 -0.522828 -0.496102
1230.00000000 1270.00000000 -450.00000000 248 14 124 97.000000 1.000000 4.000000 1.000000 -60.708740 114.000000 50.000000 0.665456 -0.608750 -0.431963
1230.00000000 1270.00000000 -450.00000000 248 14 124 97.000000 1.000000 4.000000 1.000000 -60.708740 114.000000 50.000000 0.665456 -0.608750 -0.431963
1210.00000000 1180.00000000 -480.00000000 248 14 124 97.000000 1.000000 4.000000 1.000000 -60.708740 114.000000 50.000000 0.908584 -0.406726 -0.095132
1340.00000000 1240.00000000 -680.00000000 248 14 124 97.000000 1.000000 4.000000 1.000000 -60.708740 114.000000 50.000000 -0.695378 0.626658 -0.351779
1320.00000000 1190.00000000 -680.00000000 248 14 124 97.000000 1.000000 4.000000 1.000000 -60.708740 114.000000 50.000000 0.944598 -0.164455 0.284059
1230.00000000 1260.00000000 -600.00000000 248 14 124 97.000000 1.000000 4.000000 1.000000 -60.708740 114.000000 50.000000 0.761733 -0.573296 0.301819
1220.00000000 1200.00000000 -560.00000000 248 14 124 97.000000 1.000000 4.000000 1.000000 -60.708740 114.000000 50.000000 -0.696518 0.711181 -0.095313
1250.00000000 1180.00000000 -600.00000000 248 14 124 97.000000 1.000000 4.000000 1.000000 -60.708740 114.000000 50.000000 0.890796 -0.444701 0.093401
1320.00000000 1110.00000000 -420.00000000 248 14 124 97.000000 1.000000 4.000000 1.000000 -60.708740 114.000000 50.000000 0.685165 -0.636108 -0.354847
1340.00000000 1100.00000000 -370.00000000 248 14 124 97.000000 1.000000 4.000000 1.000000 -60.708740 114.000000 50.000000 0.644373 -0.566981 -0.513143
1300.00000000 1090.00000000 -410.00000000 248 14 124 97.000000 1.000000 4.000000 1.000000 -60.708740 114.000000 50.000000 0.745866 -0.349371 -0.567118
1340.00000000 1070.00000000 -500.00000000 248 14 124 97.000000 1.000000 4.000000 1.000000 -60.708740 114.000000 50.000000 0.903141 -0.296136 -0.310869
1300.00000000 1060.00000000 -410.00000000 248 14 124 97.000000 1.000000 4.000000 1.000000 -60.708740 114.000000 50.000000 0.725356 -0.546909 -0.418030
1320.00000000 1030.00000000 -400.00000000 248 14 124 97.000000 1.000000 4.000000 1.000000 -60.708740 114.000000 50.000000 0.713232 -0.127096 -0.689308
1330.00000000 1010.00000000 -390.00000000 248 14 124 97.000000 1.000000 4.000000 1.000000 -60.708740 114.000000 50.000000 0.744683 -0.104698 -0.659155
1330.00000000 1010.00000000 -390.00000000 248 14 124 97.000000 1.000000 4.000000 1.000000 -60.708740 114.000000 50.000000 0.744683 -0.104698 -0.659155
1270.00000000 1010.00000000 -440.00000000 248 14 124 97.000000 1.000000 4.000000 1.000000 -60.708740 114.000000 50.000000 0.793176 -0.545014 -0.271722
1260.00000000 990.00000000 -400.00000000 248 14 124 97.000000 1.000000 4.000000 1.000000 -60.708740 114.000000 50.000000 0.849827 -0.369558 -0.375795
1260.00000000 1010.00000000 -410.00000000 248 14 124 97.000000 1.000000 4.000000 1.000000 -60.708740 114.000000 50.000000 0.988051 -0.085764 -0.128059
1340.00000000 1060.00000000 -480.00000000 248 14 124 97.000000 1.000000 4.000000 1.000000 -60.708740 114.000000 50.000000 0.777929 -0.628167 0.015254
1310.00000000 1030.00000000 -510.00000000 248 14 124 97.000000 1.000000 4.000000 1.000000 -60.708740 114.000000 50.000000 0.764354 -0.621512 -0.171714
1320.00000000 990.00000000 -460.00000000 248 14 124 97.000000 1.000000 4.000000 1.000000 -60.708740 114.000000 50.000000 0.868881 -0.413970 -0.271431
1300.00000000 1000.00000000 -510.00000000 248 14 124 97.000000 1.000000 4.000000 1.000000 -60.708740 114.000000 50.000000 0.853499 -0.219039 -0.472823
1260.00000000 1000.00000000 -480.00000000 248 14 124 97.000000 1.000000 4.000000 1.000000 -60.708740 114.000000 50.000000 0.838065 -0.531989 -0.120973
1290.00000000 990.00000000 -500.00000000 248 14 124 97.000000 1.000000 4.000000 1.000000 -60.708740 114.000000 50.000000 -0.792441 0.550786 0.262055
1270.00000000 1010.00000000 -490.00000000 248 14 124 97.000000 1.000000 4.000000 1.000000 -60.708740 114.000000 50.000000 0.831603 -0.545242 -0.105577
1190.00000000 1010.00000000 -410.00000000 248 14 124 97.000000 1.000000 4.000000 1.000000 -60.708740 114.000000 50.000000 0.775715 -0.205109 -0.596822
1250.00000000 980.00000000 -480.00000000 248 14 124 97.000000 1.000000 4.000000 1.000000 -60.708740 114.000000 50.000000 0.793183 -0.594517 0.131950
1250.00000000 980.00000000 -470.00000000 248 14 124 97.000000 1.000000 4.000000 1.000000 -60.708740 114.000000 50.000000 0.909123 -0.402671 0.106549
1250.00000000 980.00000000 -480.00000000 248 14 124 97.000000 1.000000 4.000000 1.000000 -60.708740 114.000000 50.000000 0.793183 -0.594517 0.131950
1240.00000000 980.00000000 -510.00000000 248 14 124 97.000000 1.000000 4.000000 1.000000 -60.708740 114.000000 50.000000 0.841806 -0.338909 -0.420122
1240.00000000 980.00000000 -510.00000000 248 14 124 97.000000 1.000000 4.000000 1.000000 -60.708740 114.000000 50.000000 0.841806 -0.338909 -0.420122
1340.00000000 1120.00000000 -690.00000000 248 14 124 97.000000 1.000000 4.000000 1.000000 -60.708740 114.000000 50.000000 0.893918 -0.181102 0.410014
1320.00000000 1080.00000000 -680.00000000 248 14 124 97.000000 1.000000 4.000000 1.000000 -60.708740 114.000000 50.000000 0.941995 0.001248 0.335625
1280.00000000 1110.00000000 -620.00000000 248 14 124 97.000000 1.000000 4.000000 1.000000 -60.708740 114.000000 50.000000 0.877580 -0.385169 0.285478
1290.00000000 1130.00000000 -650.00000000 248 14 124 97.000000 1.000000 4.000000 1.000000 -60.708740 114.000000 50.000000 0.915832 -0.225723 0.332115
1280.00000000 1080.00000000 -650.00000000 248 14 124 97.000000 1.000000 4.000000 1.000000 -60.708740 114.000000 50.000000 0.831485 -0.542146 0.121289
1270.00000000 1100.00000000 -620.00000000 248 14 124 97.000000 1.000000 4.000000 1.000000 -60.708740 114.000000 50.000000 0.907457 -0.261570 0.328789
1290.00000000 1070.00000000 -680.00000000 248 14 124 97.000000 1.000000 4.000000 1.000000 -60.708740 114.000000 50.000000 0.978190 -0.102125 0.180873
1310.00000000 1040.00000000 -540.00000000 248 14 124 97.000000 1.000000 4.000000 1.000000 -60.708740 114.000000 50.000000 0.783925 -0.620780 0.009678
1300.00000000 1030.00000000 -570.00000000 248 14 124 97.000000 1.000000 4.000000 1.000000 -60.708740 114.000000 50.000000 0.886312 -0.461423 0.039241
1300.00000000 980.00000000 -580.00000000 248 14 124 97.000000 1.000000 4.000000 1.000000 -60.708740 114.000000 50.000000 0.914496 -0.371735 -0.159719
1300.00000000 980.00000000 -580.00000000 248 14 124 97.000000 1.000000 4.000000 1.000000 -60.708740 114.000000 50.000000 0.914496 -0.371735 -0.159719
1310.00000000 980.00000000 -590.00000000 248 14 124 97.000000 1.000000 4.000000 1.000000 -60.708740 114.000000 50.000000 0.890804 -0.454057 0.017310
1280.00000000 1040.00000000 -580.00000000 248 14 124 97.000000 1.000000 4.000000 1.000000 -60.708740 114.000000 50.000000 0.834268 -0.534108 0.136838
1270.00000000 980.00000000 -560.00000000 248 14 124 97.000000 1.000000 4.000000 1.000000 -60.708740 114.000000 50.000000 -0.737533 0.655416 -0.162713
1260.00000000 980.00000000 -590.00000000 248 14 124 97.000000 1.000000 4.000000 1.000000 -60.708740 114.000000 50.000000 0.885851 -0.406693 0.223311
1280.00000000 990.00000000 -580.00000000 248 14 124 97.000000 1.000000 4.000000 1.000000 -60.708740 114.000000 50.000000 0.903167 -0.396478 -0.164603
1280.00000000 990.00000000 -570.00000000 248 14 124 97.000000 1.000000 4.000000 1.000000 -60.708740 114.000000 50.000000 0.934230 -0.344472 -0.092485
1340.00000000 1020.00000000 -660.00000000 248 14 124 97.000000 1.000000 4.000000 1.000000 -60.708740 114.000000 50.000000 0.953077 -0.262596 -0.150626
1310.00000000 990.00000000 -650.00000000 248 14 124 97.000000 1.000000 4.000000 1.000000 -60.708740 114.000000 50.000000 0.966836 -0.148446 0.207825
1320.00000000 1000.00000000 -680.00000000 248 14 124 97.000000 1.000000 4.000000 1.000000 -60.708740 114.000000 50.000000 -0.654401 0.431272 -0.621098
1270.00000000 1020.00000000 -650.00000000 248 14 124 97.000000 1.000000 4.000000 1.000000 -60.708740 114.000000 50.000000 0.943832 0.003740 0.330404
1270.00000000 1030.00000000 -650.00000000 248 14 124 97.000000 1.000000 4.000000 1.000000 -60.708740 114.000000 50.000000 0.922851 -0.379052 0.068310
1280.00000000 990.00000000 -640.00000000 248 14 124 97.000000 1.000000 4.000000 1.000000 -60.708740 114.000000 50.000000 0.724087 -0.439092 0.531881
1260.00000000 990.00000000 -650.00000000 248 14 124 97.000000 1.000000 4.000000 1.000000 -60.708740 114.000000 50.000000 0.790573 -0.211128 0.574822
1270.00000000 1010.00000000 -670.00000000 248 14 124 97.000000 1.000000 4.000000 1.000000 -60.708740 114.000000 50.000000 0.895598 -0.422882 0.138113
1290.00000000 990.00000000 -670.00000000 248 14 124 97.000000 1.000000 4.000000 1.000000 -60.708740 114.000000 50.000000 0.950395 0.047201 0.307443
1240.00000000 1090.00000000 -680.00000000 248 14 124 97.000000 1.000000 4.000000 1.000000 -60.708740 114.000000 50.000000 0.988549 -0.005585 0.150796
1240.00000000 1090.00000000 -680.00000000 248 14 124 97.000000 1.000000 4.000000 1.000000 -60.708740 114.000000 50.000000 0.988549 -0.005585 0.150796
1250.00000000 1010.00000000 -550.00000000 248 14 124 97.000000 1.000000 4.000000 1.000000 -60.708740 114.000000 50.000000 0.816980 -0.573443 -0.060884
1250.00000000 1000.00000000 -560.00000000 248 14 124 97.000000 1.000000 4.000000 1.000000 -60.708740 114.000000 50.000000 0.870912 -0.341324 0.353569
1250.00000000 1000.00000000 -570.00000000 248 14 124 97.000000 1.000000 4.000000 1.000000 -60.708740 114.000000 50.000000 0.907499 -0.194156 0.372491
1250.00000000 1010.00000000 -560.00000000 248 14 124 97.000000 1.000000 4.000000 1.000000 -60.708740 114.000000 50.000000 0.863346 -0.469435 0.185108
1240.00000000 1010.00000000 -620.00000000 248 14 124 97.000000 1.000000 4.000000 1.000000 -60.708740 114.000000 50.000000 0.968613 -0.246711 -0.030383
1600.00000000 1540.00000000 -710.00000000 248 14 124 97.000000 1.000000 4.000000 1.000000 -60.708740 114.000000 50.000000 0.698448 -0.660089 0.276502
1570.00000000 1560.00000000 -700.00000000 248 14 124 97.000000 1.000000 4.000000 1.000000 -60.708740 114.000000 50.000000 0.984128 -0.165011 -0.065292
1560.00000000 1530.00000000 -710.00000000 248 14 124 97.000000 1.000000 4.000000 1.000000 -60.708740 114.000000 50.000000 0.978067 -0.132977 -0.160318
1570.00000000 1530.00000000 -750.00000000 248 14 124 97.000000 1.000000 4.000000 1.000000 -60.708740 114.000000 50.000000 0.952488 -0.283243 -0.111980
1580.00000000 1510.00000000 -730.00000000 248 14 124 97.000000 1.000000 4.000000 1.000000 -60.708740 114.000000 50.000000 0.742795 -0.446336 0.499040
1580.00000000 1510.00000000 -730.00000000 248 14 124 97.000000 1.000000 4.000000 1.000000 -60.708740 114.000000 50.000000 0.742795 -0.446336 0.499040
1530.00000000 1510.00000000 -720.00000000 248 14 124 97.000000 1.000000 4.000000 1.000000 -60.708740 114.000000 50.000000 0.854397 -0.432587 0.287878
1530.00000000 1500.00000000 -750.00000000 248 14 124 97.000000 1.000000 4.000000 1.000000 -60.708740 114.000000 50.000000 0.973002 -0.106716 0.204644
1540.00000000 1520.00000000 -740.00000000 248 14 124 97.000000 1.000000 4.000000 1.000000 -60.708740 114.000000 50.000000 0.844984 -0.460201 0.272427
1580.00000000 1490.00000000 -830.00000000 248 14 124 97.000000 1.000000 4.000000 1.000000 -60.708740 114.000000 50.000000 0.762083 -0.152417 0.629284
1530.00000000 1530.00000000 -810.00000000 248 14 124 97.000000 1.000000 4.000000 1.000000 -60.708740 114.000000 50.000000 0.783559 -0.472082 0.403947
1520.00000000 1490.00000000 -820.00000000 248 14 124 97.000000 1.000000 4.000000 1.000000 -60.708740 114.000000 50.000000 0.612105 -0.524421 0.591870
1510.00000000 1490.00000000 -790.00000000 248 14 124 97.000000 1.000000 4.000000 1.000000 -60.708740 114.000000 50.000000 0.732198 -0.172731 0.658825
1530.00000000 1490.00000000 -830.00000000 248 14 124 97.000000 1.000000 4.000000 1.000000 -60.708740 114.000000 50.000000 0.847235 -0.288585 0.445995
1660.00000000 1400.00000000 -740.00000000 248 14 124 97.000000 1.000000 4.000000 1.000000 -60.708740 114.000000 50.000000 0.665116 -0.628626 0.403050
1660.00000000 1400.00000000 -740.00000000 248 14 124 97.000000 1.000000 4.000000 1.000000 -60.708740 114.000000 50.000000 0.665116 -0.628626 0.403050
1610.00000000 1480.00000000 -700.00000000 248 14 124 97.000000 1.000000 4.000000 1.000000 -60.708740 114.000000 50.000000 0.960379 -0.107283 0.257221
1630.00000000 1400.00000000 -740.00000000 248 14 124 97.000000 1.000000 4.000000 1.000000 -60.708740 114.000000 50.000000 0.748008 -0.092220 0.657252
1600.00000000 1410.00000000 -860.00000000 248 14 124 97.000000 1.000000 4.000000 1.000000 -60.708740 114.000000 50.000000 0.724786 0.038296 0.687909
1600.00000000 1410.00000000 -860.00000000 248 14 124 97.000000 1.000000 4.000000 1.000000 -60.708740 114.000000 50.000000 0.724786 0.038296 0.687909
1650.00000000 1320.00000000 -730.00000000 248 14 124 97.000000 1.000000 4.000000 1.000000 -60.708740 114.000000 50.000000 0.796033 -0.017997 0.604985
1670.00000000 1320.00000000 -700.00000000 248 14 124 97.000000 1.000000 4.000000 1.000000 -60.708740 114.000000 50.000000 0.762715 -0.123402 0.634852
1670.00000000 1320.00000000 -700.00000000 248 14 124 97.000000 1.000000 4.000000 1.000000 -60.708740 114.000000 50.000000 0.762715 -0.123402 0.634852
1650.00000000 1330.00000000 -710.00000000 248 14 124 97.000000 1.000000 4.000000 1.000000 -60.708740 114.000000 50.000000 0.793801 -0.428426 0.431660
1630.00000000 1350.00000000 -720.00000000 248 14 124 97.000000 1.000000 4.000000 1.000000 -60.708740 114.000000 50.000000 0.839965 0.054689 0.539877
1520.00000000 1460.00000000 -750.00000000 248 14 124 97.000000 1.000000 4.000000 1.000000 -60.708740 114.000000 50.000000 0.980131 0.027062 0.196497
1520.00000000 1460.00000000 -750.00000000 248 14 124 97.000000 1.000000 4.000000 1.000000 -60.708740 114.000000 50.000000 0.980131 0.027062 0.196497
1570.00000000 1420.00000000 -840.00000000 248 14 124 97.000000 1.000000 4.000000 1.000000 -60.708740 114.000000 50.000000 0.683330 -0.070789 0.726670
1520.00000000 1470.00000000 -800.00000000 248 14 124 97.000000 1.000000 4.000000 1.000000 -60.708740 114.000000 50.000000 0.688421 -0.058925 0.722914
1520.00000000 1470.00000000 -800.00000000 248 14 124 97.000000 1.000000 4.000000 1.000000 -60.708740 114.000000 50.000000 0.688421 -0.058925 0.722914
1510.00000000 1440.00000000 -860.00000000 248 14 124 97.000000 1.000000 4.000000 1.000000 -60.708740 114.000000 50.000000 0.768294 -0.026589 0.639545
1590.00000000 1330.00000000 -700.00000000 248 14 124 97.000000 1.000000 4.000000 1.000000 -60.708740 114.000000 50.000000 0.772557 -0.599850 0.208174
1550.00000000 1360.00000000 -740.00000000 248 14 124 97.000000 1.000000 4.000000 1.000000 -60.708740 114.000000 50.000000 -0.720860 0.620875 -0.308018
1570.00000000 1370.00000000 -830.00000000 248 14 124 97.000000 1.000000 4.000000 1.000000 -60.708740 114.000000 50.000000 0.536927 -0.281847 0.795155
1520.00000000 1360.00000000 -840.00000000 248 14 124 97.000000 1.000000 4.000000 1.000000 -60.708740 114.000000 50.000000 0.732924 -0.006927 0.680275
1550.00000000 1360.00000000 -860.00000000 248 14 124 97.000000 1.000000 4.000000 1.000000 -60.708740 114.000000 50.000000 -0.621150 0.486483 -0.614416
1530.00000000 1320.00000000 -830.00000000 248 14 124 97.000000 1.000000 4.000000 1.000000 -60.708740 114.000000 50.000000 0.784429 -0.477127 0.396258
1640.00000000 1450.00000000 -880.00000000 248 14 124 97.000000 1.000000 4.000000 1.000000 -60.708740 114.000000 50.000000 0.409604 -0.377974 0.830278
1670.00000000 1440.00000000 -900.00000000 248 14 124 97.000000 1.000000 4.000000 1.000000 -60.708740 114.000000 50.000000 0.491124 0.196750 0.848579
1670.00000000 1440.00000000 -910.00000000 248 14 124 97.000000 1.000000 4.000000 1.000000 -60.708740 114.000000 50.000000 0.741246 0.152476 0.653686
1670.00000000 1460.00000000 -930.00000000 248 14 124 97.000000 1.000000 4.000000 1.000000 -60.708740 114.000000 50.000000 0.325252 0.144099 0.934584
1670.00000000 1440.00000000 -910.00000000 248 14 124 97.000000 1.000000 4.000000 1.000000 -60.708740 114.000000 50.000000 0.741246 0.152476 0.653686
1670.00000000 1430.00000000 -900.00000000 248 14 124 97.000000 1.000000 4.000000 1.000000 -60.708740 114.000000 50.000000 0.384768 0.245123 0.889870
1640.00000000 1420.00000000 -900.00000000 248 14 124 97.000000 1.000000 4.000000 1.000000 -60.708740 114.000000 50.000000 0.439396 -0.087325 0.894039
1640.00000000 1420.00000000 -900.00000000 248 14 124 97.000000 1.000000 4.000000 1.000000 -60.708740 114.000000 50.000000 0.439396 -0.087325 0.894039
1650.00000000 1400.00000000 -900.00000000 248 14 124 97.000000 1.000000 4.000000 1.000000 -60.708740 114.000000 50.000000 0.385063 0.234579 0.892580
1660.00000000 1410.00000000 -930.00000000 248 14 124 97.000000 1.000000 4.000000 1.000000 -60.708740 114.000000 50.000000 0.457530 0.109071 0.882480
1620.00000000 1460.00000000 -870.00000000 248 14 124 97.000000 1.000000 4.000000 1.000000 -60.708740 114.000000 50.000000 0.396986 -0.193403 0.897217
1630.00000000 1440.00000000 -910.00000000 248 14 124 97.000000 1.000000 4.000000 1.000000 -60.708740 114.000000 50.000000 0.444701 -0.093401 0.890796
1630.00000000 1450.00000000 -910.00000000 248 14 124 97.000000 1.000000 4.000000 1.000000 -60.708740 114.000000 50.000000 0.448158 -0.090749 0.889336
1630.00000000 1450.00000000 -910.00000000 248 14 124 97.000000 1.000000 4.000000 1.000000 -60.708740 114.000000 50.000000 0.448158 -0.090749 0.889336
1610.00000000 1410.00000000 -880.00000000 248 14 124 97.000000 1.000000 4.000000 1.000000 -60.708740 114.000000 50.000000 0.710497 -0.050035 0.701919
1610.00000000 1400.00000000 -880.00000000 248 14 124 97.000000 1.000000 4.000000 1.000000 -60.708740 114.000000 50.000000 0.653529 -0.268726 0.707592
1610.00000000 1420.00000000 -880.00000000 248 14 124 97.000000 1.000000 4.000000 1.000000 -60.708740 114.000000 50.000000 0.691826 0.206770 0.691826
1610.00000000 1410.00000000 -880.00000000 248 14 124 97.000000 1.000000 4.000000 1.000000 -60.708740 114.000000 50.000000 0.710497 -0.050035 0.701919
1670.00000000 1380.00000000 -900.00000000 248 14 124 97.000000 1.000000 4.000000 1.000000 -60.708740 114.000000 50.000000 0.588804 -0.303226 0.749242
1650.00000000 1360.00000000 -900.00000000 248 14 124 97.000000 1.000000 4.000000 1.000000 -60.708740 114.000000 50.000000 0.269687 -0.015864 0.962817
1660.00000000 1390.00000000 -900.00000000 248 14 124 97.000000 1.000000 4.000000 1.000000 -60.708740 114.000000 50.000000 0.219959 -0.253160 0.942087
1670.00000000 1320.00000000 -920.00000000 248 14 124 97.000000 1.000000 4.000000 1.000000 -60.708740 114.000000 50.000000 0.444528 -0.334574 0.830937
1630.00000000 1380.00000000 -900.00000000 248 14 124 97.000000 1.000000 4.000000 1.000000 -60.708740 114.000000 50.000000 0.286244 -0.312667 0.905706
1660.00000000 1330.00000000 -1000.00000000 248 14 124 97.000000 1.000000 4.000000 1.000000 -60.708740 114.000000 50.000000 0.751763 -0.038225 0.658324
1570.00000000 1450.00000000 -880.00000000 248 14 124 97.000000 1.000000 4.000000 1.000000 -60.708740 114.000000 50.000000 0.581583 0.072877 0.810216
1540.00000000 1460.00000000 -900.00000000 248 14 124 97.000000 1.000000 4.000000 1.000000 -60.708740 114.000000 50.000000 0.659751 -0.009723 0.751422
1530.00000000 1430.00000000 -970.00000000 248 14 124 97.000000 1.000000 4.000000 1.000000 -60.708740 114.000000 50.000000 0.678909 -0.107975 0.726240
1510.00000000 1430.00000000 -1030.00000000 248 14 124 97.000000 1.000000 4.000000 1.000000 -60.708740 114.000000 50.000000 0.773001 -0.015266 0.634221
1520.00000000 1360.00000000 -890.00000000 248 14 124 97.000000 1.000000 4.000000 1.000000 -60.708740 114.000000 50.000000 0.761897 -0.023766 0.647263
1520.00000000 1360.00000000 -930.00000000 248 14 124 97.000000 1.000000 4.000000 1.000000 -60.708740 114.000000 50.000000 0.523821 -0.352975 0.775255
1550.00000000 1370.00000000 -970.00000000 248 14 124 97.000000 1.000000 4.000000 1.000000 -60.708740 114.000000 50.000000 0.716915 -0.117259 0.687229
1400.00000000 1620.00000000 -1020.00000000 248 14 124 97.000000 1.000000 4.000000 1.000000 -60.708740 114.000000 50.000000 0.766828 -0.423472 0.482333
1490.00000000 1470.00000000 -860.00000000 248 14 124 97.000000 1.000000 4.000000 1.000000 -60.708740 114.000000 50.000000 0.828213 0.143203 0.541808
1500.00000000 1430.00000000 -810.00000000 248 14 124 97.000000 1.000000 4.000000 1.000000 -60.708740 114.000000 50.000000 0.939844 0.105615 0.324868
1480.00000000 1420.00000000 -780.00000000 248 14 124 97.000000 1.000000 4.000000 1.000000 -60.708740 114.000000 50.000000 0.682323 -0.262432 0.682323
1420.00000000 1450.00000000 -850.00000000 248 14 124 97.000000 1.000000 4.000000 1.000000 -60.708740 114.000000 50.000000 0.889398 0.096643 0.446800
1420.00000000 1430.00000000 -820.00000000 248 14 124 97.000000 1.000000 4.000000 1.000000 -60.708740 114.000000 50.000000 0.735885 -0.635466 0.233789
1410.00000000 1400.00000000 -840.00000000 248 14 124 97.000000 1.000000 4.000000 1.000000 -60.708740 114.000000 50.000000 0.815309 0.015124 0.578828
1390.00000000 1350.00000000 -750.00000000 248 14 124 97.000000 1.000000 4.000000 1.000000 -60.708740 114.000000 50.000000 0.808296 -0.452966 0.376138
1380.00000000 1350.00000000 -740.00000000 248 14 124 97.000000 1.000000 4.000000 1.000000 -60.708740 114.000000 50.000000 0.732125 -0.527196 0.431343
1360.00000000 1320.00000000 -830.00000000 248 14 124 97.000000 1.000000 4.000000 1.000000 -60.708740 114.000000 50.000000 0.742996 -0.426687 0.515649
1500.00000000 1440.00000000 -880.00000000 248 14 124 97.000000 1.000000 4.000000 1.000000 -60.708740 114.000000 50.000000 0.818255 -0.093803 0.567150
1500.00000000 1460.00000000 -900.00000000 248 14 124 97.000000 1.000000 4.000000 1.000000 -60.708740 114.000000 50.000000 0.613748 -0.576551 0.539354
1480.00000000 1470.00000000 -960.00000000 248 14 124 97.000000 1.000000 4.000000 1.000000 -60.708740 114.000000 50.000000 0.868652 0.039671 0.493832
1480.00000000 1430.00000000 -980.00000000 248 14 124 97.000000 1.000000 4.000000 1.000000 -60.708740 114.000000 50.000000 0.777193 -0.485137 0.400765
1440.00000000 1410.00000000 -960.00000000 248 14 124 97.000000 1.000000 4.000000 1.000000 -60.708740 114.000000 50.000000 0.481387 -0.521363 0.704590
1460.00000000 1410.00000000 -1020.00000000 248 14 124 97.000000 1.000000 4.000000 1.000000 -60.708740 114.000000 50.000000 0.801787 -0.353682 0.481712
1490.00000000 1370.00000000 -870.00000000 248 14 124 97.000000 1.000000 4.000000 1.000000 -60.708740 114.000000 50.000000 0.716782 -0.098613 0.690289
1490.00000000 1340.00000000 -890.00000000 248 14 124 97.000000 1.000000 4.000000 1.000000 -60.708740 114.000000 50.000000 0.458537 -0.511509 0.726707
1420.00000000 1430.00000000 -900.00000000 248 14 124 97.000000 1.000000 4.000000 1.000000 -60.708740 114.000000 50.000000 -0.580530 0.594070 -0.556835
1390.00000000 1410.00000000 -940.00000000 248 14 124 97.000000 1.000000 4.000000 1.000000 -60.708740 114.000000 50.000000 0.646193 0.123297 0.753149
1370.00000000 1450.00000000 -920.00000000 248 14 124 97.000000 1.000000 4.000000 1.000000 -60.708740 114.000000 50.000000 0.774783 -0.583826 0.242609
1370.00000000 1410.00000000 -890.00000000 248 14 124 97.000000 1.000000 4.000000 1.000000 -60.708740 114.000000 50.000000 0.635457 -0.318537 0.703369
1370.00000000 1430.00000000 -880.00000000 248 14 124 97.000000 1.000000 4.000000 1.000000 -60.708740 114.000000 50.000000 0.772895 -0.395397 0.496280
1350.00000000 1400.00000000 -930.00000000 248 14 124 97.000000 1.000000 4.000000 1.000000 -60.708740 114.000000 50.000000 0.622649 -0.478315 0.619292
1350.00000000 1400.00000000 -930.00000000 248 14 124 97.000000 1.000000 4.000000 1.000000 -60.708740 114.000000 50.000000 0.622649 -0.478315 0.619292
1390.00000000 1420.00000000 -1030.00000000 248 14 124 97.000000 1.000000 4.000000 1.000000 -60.708740 114.000000 50.000000 0.687685 -0.351193 0.635415
1390.00000000 1420.00000000 -1020.00000000 248 14 124 97.000000 1.000000 4.000000 1.000000 -60.708740 114.000000 50.000000 0.631377 -0.300426 0.714918
1360.00000000 1410.00000000 -960.00000000 248 14 124 97.000000 1.000000 4.000000 1.000000 -60.708740 114.000000 50.000000 0.713854 -0.572072 0.403913
1380.00000000 1430.00000000 -1020.00000000 248 14 124 97.000000 1.000000 4.000000 1.000000 -60.708740 114.000000 50.000000 0.536327 -0.108422 0.837017
1380.00000000 1400.00000000 -1020.00000000 248 14 124 97.000000 1.000000 4.000000 1.000000 -60.708740 114.000000 50.000000 0.527033 -0.467180 0.709915
1380.00000000 1400.00000000 -1010.00000000 248 14 124 97.000000 1.000000 4.000000 1.000000 -60.708740 114.000000 50.000000 0.594725 -0.470754 0.651685
1370.00000000 1430.00000000 -1000.00000000 248 14 124 97.000000 1.000000 4.000000 1.000000 -60.708740 114.000000 50.000000 0.587388 -0.235267 0.774355
1360.00000000 1370.00000000 -870.00000000 248 14 124 97.000000 1.000000 4.000000 1.000000 -60.708740 114.000000 50.000000 0.788814 -0.513609 0.337606
1360.00000000 1370.00000000 -870.00000000 248 14 124 97.000000 1.000000 4.000000 1.000000 -60.708740 114.000000 50.000000 0.788814 -0.513609 0.337606
1380.00000000 1370.00000000 -920.00000000 248 14 124 97.000000 1.000000 4.000000 1.000000 -60.708740 114.000000 50.000000 0.849163 -0.423805 0.315137
1420.00000000 1360.00000000 -950.00000000 248 14 124 97.000000 1.000000 4.000000 1.000000 -60.708740 114.000000 50.000000 0.585938 -0.475130 0.656452
1420.00000000 1390.00000000 -960.00000000 248 14 124 97.000000 1.000000 4.000000 1.000000 -60.708740 114.000000 50.000000 0.638028 -0.192177 0.745647
1400.00000000 1330.00000000 -1000.00000000 248 14 124 97.000000 1.000000 4.000000 1.000000 -60.708740 114.000000 50.000000 0.396950 -0.350250 0.848384
1370.00000000 1360.00000000 -960.00000000 248 14 124 97.000000 1.000000 4.000000 1.000000 -60.708740 114.000000 50.000000 0.513935 -0.101642 0.851786
1370.00000000 1390.00000000 -1030.00000000 248 14 124 97.000000 1.000000 4.000000 1.000000 -60.708740 114.000000 50.000000 0.789152 -0.429415 0.439138
1380.00000000 1330.00000000 -950.00000000 248 14 124 97.000000 1.000000 4.000000 1.000000 -60.708740 114.000000 50.000000 0.643458 -0.104544 0.758309
1350.00000000 1320.00000000 -960.00000000 248 14 124 97.000000 1.000000 4.000000 1.000000 -60.708740 114.000000 50.000000 0.690081 -0.489573 0.533016
1380.00000000 1320.00000000 -950.00000000 248 14 124 97.000000 1.000000 4.000000 1.000000 -60.708740 114.000000 50.000000 0.683917 -0.300924 0.664607
1360.00000000 1320.00000000 -1000.00000000 248 14 124 97.000000 1.000000 4.000000 1.000000 -60.708740 114.000000 50.000000 0.376553 -0.169094 0.910832
1370.00000000 1350.00000000 -1030.00000000 248 14 124 97.000000 1.000000 4.000000 1.000000 -60.708740 114.000000 50.000000 0.422600 -0.001300 0.906315
1600.00000000 1530.00000000 -1100.00000000 248 14 124 97.000000 1.000000 4.000000 1.000000 -60.708740 114.000000 50.000000 0.418871 0.159775 0.893879
1640.00000000 1490.00000000 -1170.00000000 248 14 124 97.000000 1.000000 4.000000 1.000000 -60.708740 114.000000 50.000000 0.659992 0.035331 0.750441
1610.00000000 1530.00000000 -1150.00000000 248 14 124 97.000000 1.000000 4.000000 1.000000 -60.708740 114.000000 50.000000 0.685999 0.130026 0.715890
1520.00000000 1580.00000000 -1090.00000000 248 14 124 97.000000 1.000000 4.000000 1.000000 -60.708740 114.000000 50.000000 0.687353 -0.077018 0.722229
1520.00000000 1600.00000000 -1100.00000000 248 14 124 97.000000 1.000000 4.000000 1.000000 -60.708740 114.000000 50.000000 0.692714 0.189764 0.695800
1570.00000000 1620.00000000 -1120.00000000 248 14 124 97.000000 1.000000 4.000000 1.000000 -60.708740 114.000000 50.000000 0.721210 -0.179154 0.669148
1570.00000000 1600.00000000 -1150.00000000 248 14 124 97.000000 1.000000 4.000000 1.000000 -60.708740 114.000000 50.000000 0.608794 0.100736 0.786907
1580.00000000 1540.00000000 -1110.00000000 248 14 124 97.000000 1.000000 4.000000 1.000000 -60.708740 114.000000 50.000000 0.540408 -0.166164 0.824833
1570.00000000 1540.00000000 -1100.00000000 248 14 124 97.000000 1.000000 4.000000 1.000000 -60.708740 114.000000 50.000000 0.259446 0.048413 0.964543
1580.00000000 1540.00000000 -1110.00000000 248 14 124 97.000000 1.000000 4.000000 1.000000 -60.708740 114.000000 50.000000 0.540408 -0.166164 0.824833
1570.00000000 1520.00000000 -1100.00000000 248 14 124 97.000000 1.000000 4.000000 1.000000 -60.708740 114.000000 50.000000 0.460892 0.255711 0.849818
1570.00000000 1520.00000000 -1100.00000000 248 14 124 97.000000 1.000000 4.000000 1.000000 -60.708740 114.000000 50.000000 0.460892 0.255711 0.849818
1540.00000000 1550.00000000 -1110.00000000 248 14 124 97.000000 1.000000 4.000000 1.000000 -60.708740 114.000000 50.000000 0.446800 -0.096643 0.889398
1550.00000000 1510.00000000 -1100.00000000 248 14 124 97.000000 1.000000 4.000000 1.000000 -60.708740 114.000000 50.000000 0.378641 -0.347731 0.857738
1530.00000000 1520.00000000 -1110.00000000 248 14 124 97.000000 1.000000 4.000000 1.000000 -60.708740 114.000000 50.000000 0.486985 -0.186156 0.853341
1590.00000000 1560.00000000 -1140.00000000 248 14 124 97.000000 1.000000 4.000000 1.000000 -60.708740 114.000000 50.000000 0.533339 0.281615 0.797648
1580.00000000 1530.00000000 -1120.00000000 248 14 124 97.000000 1.000000 4.000000 1.000000 -60.708740 114.000000 50.000000 0.352643 -0.261162 0.898575
1560.00000000 1520.00000000 -1140.00000000 248 14 124 97.000000 1.000000 4.000000 1.000000 -60.708740 114.000000 50.000000 0.617230 0.257311 0.743518
1580.00000000 1490.00000000 -1120.00000000 248 14 124 97.000000 1.000000 4.000000 1.000000 -60.708740 114.000000 50.000000 0.342731 0.139019 0.929090
1570.00000000 1500.00000000 -1120.00000000 248 14 124 97.000000 1.000000 4.000000 1.000000 -60.708740 114.000000 50.000000 0.574397 -0.121931 0.809445
1580.00000000 1500.00000000 -1160.00000000 248 14 124 97.000000 1.000000 4.000000 1.000000 -60.708740 114.000000 50.000000 0.167508 0.085562 0.982151
1550.00000000 1560.00000000 -1120.00000000 248 14 124 97.000000 1.000000 4.000000 1.000000 -60.708740 114.000000 50.000000 0.566274 0.026306 0.823797
1550.00000000 1550.00000000 -1120.00000000 248 14 124 97.000000 1.000000 4.000000 1.000000 -60.708740 114.000000 50.000000 0.222088 -0.062577 0.973016
1520.00000000 1540.00000000 -1140.00000000 248 14 124 97.000000 1.000000 4.000000 1.000000 -60.708740 114.000000 50.000000 0.440129 -0.466307 0.767362
1540.00000000 1520.00000000 -1120.00000000 248 14 124 97.000000 1.000000 4.000000 1.000000 -60.708740 114.000000 50.000000 0.812738 -0.169759 0.557349
1580.00000000 1550.00000000 -1200.00000000 248 14 124 97.000000 1.000000 4.000000 1.000000 -60.708740 114.000000 50.000000 0.157639 0.092658 0.983140
1640.00000000 1470.00000000 -1180.00000000 248 14 124 97.000000 1.000000 4.000000 1.000000 -60.708740 114.000000 50.000000 0.081212 -0.003164 0.996692
1660.00000000 1450.00000000 -1180.00000000 248 14 124 97.000000 1.000000 4.000000 1.000000 -60.708740 114.000000 50.000000 0.296407 0.162546 0.941128
1640.00000000 1460.00000000 -1180.00000000 248 14 124 97.000000 1.000000 4.000000 1.000000 -60.708740 114.000000 50.000000 0.017390 0.029665 0.999409
1640.00000000 1440.00000000 -1180.00000000 248 14 124 97.000000 1.000000 4.000000 1.000000 -60.708740 114.000000 50.000000 0.018302 -0.089356 0.995832
1640.00000000 1480.00000000 -1160.00000000 248 14 124 97.000000 1.000000 4.000000 1.000000 -60.708740 114.000000 50.000000 0.135634 0.061441 0.988852
1660.00000000 1440.00000000 -1170.00000000 248 14 124 97.000000 1.000000 4.000000 1.000000 -60.708740 114.000000 50.000000 0.268710 0.163387 0.949263
1640.00000000 1410.00000000 -1170.00000000 248 14 124 97.000000 1.000000 4.000000 1.000000 -60.708740 114.000000 50.000000 0.099615 0.223188 0.969672
1600.00000000 1480.00000000 -1140.00000000 248 14 124 97.000000 1.000000 4.000000 1.000000 -60.708740 114.000000 50.000000 0.542618 0.351487 0.762904
1600.00000000 1480.00000000 -1150.00000000 248 14 124 97.000000 1.000000 4.000000 1.000000 -60.708740 114.000000 50.000000 0.610888 0.299832 0.732745
1630.00000000 1480.00000000 -1160.00000000 248 14 124 97.000000 1.000000 4.000000 1.000000 -60.708740 114.000000 50.000000 0.250232 -0.164591 0.954093
1630.00000000 1460.00000000 -1180.00000000 248 14 124 97.000000 1.000000 4.000000 1.000000 -60.708740 114.000000 50.000000 0.104467 -0.256654 0.960841
1630.00000000 1470.00000000 -1160.00000000 248 14 124 97.000000 1.000000 4.000000 1.000000 -60.708740 114.000000 50.000000 0.263451 -0.168879 0.949775
1620.00000000 1470.00000000 -1160.00000000 248 14 124 97.000000 1.000000 4.000000 1.000000 -60.708740 114.000000 50.000000 0.573207 -0.034867 0.818668
1670.00000000 1380.00000000 -1180.00000000 248 14 124 97.000000 1.000000 4.000000 1.000000 -60.708740 114.000000 50.000000 0.600682 0.174882 0.780126
1650.00000000 1360.00000000 -1170.00000000 248 14 124 97.000000 1.000000 4.000000 1.000000 -60.708740 114.000000 50.000000 0.247303 -0.008363 0.968902
1670.00000000 1390.00000000 -1180.00000000 248 14 124 97.000000 1.000000 4.000000 1.000000 -60.708740 114.000000 50.000000 0.533188 0.239548 0.811373
1670.00000000 1370.00000000 -1180.00000000 248 14 124 97.000000 1.000000 4.000000 1.000000 -60.708740 114.000000 50.000000 0.618544 0.178691 0.765162
1650.00000000 1380.00000000 -1170.00000000 248 14 124 97.000000 1.000000 4.000000 1.000000 -60.708740 114.000000 50.000000 0.276966 0.339172 0.899028
1640.00000000 1350.00000000 -1160.00000000 248 14 124 97.000000 1.000000 4.000000 1.000000 -60.708740 114.000000 50.000000 0.099491 -0.317046 0.943177
