//X Y Z R G B PointSourceId ScanDirectionFlag NumberOfReturns ReturnNumber GpsTime Intensity Classification Nx Ny Nz
5320.00000000 1920.00000000 -270.00000000 151 206 77 97.000000 1.000000 4.000000 1.000000 -60.708740 114.000000 145.000000 0.482531 0.103908 0.869694
5320.00000000 1910.00000000 -250.00000000 151 206 77 97.000000 1.000000 4.000000 1.000000 -60.708740 114.000000 145.000000 0.124408 -0.343146 0.931007
5380.00000000 1920.00000000 -300.00000000 151 206 77 97.000000 1.000000 4.000000 1.000000 -60.708740 114.000000 145.000000 0.072647 -0.042287 0.996461
5370.00000000 1910.00000000 -300.00000000 151 206 77 97.000000 1.000000 4.000000 1.000000 -60.708740 114.000000 145.000000 0.319675 -0.474000 0.820446
5350.00000000 1940.00000000 -320.00000000 151 206 77 97.000000 1.000000 4.000000 1.000000 -60.708740 114.000000 145.000000 0.029242 -0.326752 0.944658
5310.00000000 1920.00000000 -290.00000000 151 206 77 97.000000 1.000000 4.000000 1.000000 -60.708740 114.000000 145.000000 -0.028391 0.144226 0.989137
5320.00000000 1900.00000000 -190.00000000 151 206 77 97.000000 1.000000 4.000000 1.000000 -60.708740 114.000000 145.000000 0.368653 0.177921 0.912381
5320.00000000 1860.00000000 -190.00000000 151 206 77 97.000000 1.000000 4.000000 1.000000 -60.708740 114.000000 145.000000 0.295193 -0.073476 0.952608
5380.00000000 1860.00000000 -320.00000000 151 206 77 97.000000 1.000000 4.000000 1.000000 -60.708740 114.000000 145.000000 -0.078099 -0.538173 0.839208
5380.00000000 1860.00000000 -320.00000000 151 206 77 97.000000 1.000000 4.000000 1.000000 -60.708740 114.000000 145.000000 -0.078099 -0.538173 0.839208
5320.00000000 1890.00000000 -310.00000000 151 206 77 97.000000 1.000000 4.000000 1.000000 -60.708740 114.000000 145.000000 0.020155 -0.474324 0.880120
5340.00000000 1890.00000000 -300.00000000 151 206 77 97.000000 1.000000 4.000000 1.000000 -60.708740 114.000000 145.000000 -0.043050 -0.032550 0.998543
5310.00000000 1890.00000000 -310.00000000 151 206 77 97.000000 1.000000 4.000000 1.000000 -60.708740 114.000000 145.000000 0.062635 -0.110465 0.991904
5290.00000000 1920.00000000 -220.00000000 151 206 77 97.000000 1.000000 4.000000 1.000000 -60.708740 114.000000 145.000000 0.261977 -0.503802 0.823135
5290.00000000 1930.00000000 -200.00000000 151 206 77 97.000000 1.000000 4.000000 1.000000 -60.708740 114.000000 145.000000 0.282669 -0.204691 0.937123
5280.00000000 1940.00000000 -230.00000000 151 206 77 97.000000 1.000000 4.000000 1.000000 -60.708740 114.000000 145.000000 0.064997 -0.362128 0.929860
5270.00000000 1930.00000000 -260.00000000 151 206 77 97.000000 1.000000 4.000000 1.000000 -60.708740 114.000000 145.000000 -0.035709 0.155508 0.987189
5270.00000000 1930.00000000 -260.00000000 151 206 77 97.000000 1.000000 4.000000 1.000000 -60.708740 114.000000 145.000000 -0.035709 0.155508 0.987189
5220.00000000 1960.00000000 -250.00000000 151 206 77 97.000000 1.000000 4.000000 1.000000 -60.708740 114.000000 145.000000 -0.007573 -0.107103 0.994219
5260.00000000 1960.00000000 -290.00000000 151 206 77 97.000000 1.000000 4.000000 1.000000 -60.708740 114.000000 145.000000 0.331847 -0.117840 0.935944
5290.00000000 1930.00000000 -330.00000000 151 206 77 97.000000 1.000000 4.000000 1.000000 -60.708740 114.000000 145.000000 0.381053 -0.228043 0.895989
5220.00000000 1970.00000000 -280.00000000 151 206 77 97.000000 1.000000 4.000000 1.000000 -60.708740 114.000000 145.000000 0.269586 0.067080 0.960637
5240.00000000 1820.00000000 -200.00000000 151 206 77 97.000000 1.000000 4.000000 1.000000 -60.708740 114.000000 145.000000 0.032379 -0.640541 0.767241
5230.00000000 1900.00000000 -290.00000000 151 206 77 97.000000 1.000000 4.000000 1.000000 -60.708740 114.000000 145.000000 0.333984 -0.566321 0.753482
5370.00000000 1800.00000000 -250.00000000 151 206 77 97.000000 1.000000 4.000000 1.000000 -60.708740 114.000000 145.000000 0.540551 -0.267925 0.797509
5380.00000000 1800.00000000 -250.00000000 151 206 77 97.000000 1.000000 4.000000 1.000000 -60.708740 114.000000 145.000000 -0.086949 -0.148885 0.985024
5350.00000000 1710.00000000 -310.00000000 151 206 77 97.000000 1.000000 4.000000 1.000000 -60.708740 114.000000 145.000000 0.064577 -0.644337 0.762011
5360.00000000 1720.00000000 -300.00000000 151 206 77 97.000000 1.000000 4.000000 1.000000 -60.708740 114.000000 145.000000 -0.458923 0.695895 -0.552377
5160.00000000 1910.00000000 -90.00000000 151 206 77 97.000000 1.000000 4.000000 1.000000 -60.708740 114.000000 145.000000 0.194297 -0.116578 0.973991
5160.00000000 1910.00000000 -90.00000000 151 206 77 97.000000 1.000000 4.000000 1.000000 -60.708740 114.000000 145.000000 0.194297 -0.116578 0.973991
5210.00000000 1980.00000000 -130.00000000 151 206 77 97.000000 1.000000 4.000000 1.000000 -60.708740 114.000000 145.000000 0.142594 0.267863 0.952846
5190.00000000 1980.00000000 -130.00000000 151 206 77 97.000000 1.000000 4.000000 1.000000 -60.708740 114.000000 145.000000 0.040298 -0.360081 0.932050
5180.00000000 1910.00000000 -120.00000000 151 206 77 97.000000 1.000000 4.000000 1.000000 -60.708740 114.000000 145.000000 0.485928 0.137801 0.863067
5210.00000000 1930.00000000 -140.00000000 151 206 77 97.000000 1.000000 4.000000 1.000000 -60.708740 114.000000 145.000000 -0.130441 -0.228594 0.964744
5210.00000000 1930.00000000 -140.00000000 151 206 77 97.000000 1.000000 4.000000 1.000000 -60.708740 114.000000 145.000000 -0.130441 -0.228594 0.964744
5200.00000000 1910.00000000 -110.00000000 151 206 77 97.000000 1.000000 4.000000 1.000000 -60.708740 114.000000 145.000000 -0.148277 -0.079477 0.985747
5200.00000000 1940.00000000 -180.00000000 151 206 77 97.000000 1.000000 4.000000 1.000000 -60.708740 114.000000 145.000000 -0.131520 -0.315920 0.939626
5180.00000000 1940.00000000 -150.00000000 151 206 77 97.000000 1.000000 4.000000 1.000000 -60.708740 114.000000 145.000000 0.103000 -0.230159 0.967687
5200.00000000 1940.00000000 -160.00000000 151 206 77 97.000000 1.000000 4.000000 1.000000 -60.708740 114.000000 145.000000 0.226829 -0.194616 0.954292
5150.00000000 1930.00000000 -130.00000000 151 206 77 97.000000 1.000000 4.000000 1.000000 -60.708740 114.000000 145.000000 0.473198 -0.140368 0.869701
5170.00000000 1920.00000000 -160.00000000 151 206 77 97.000000 1.000000 4.000000 1.000000 -60.708740 114.000000 145.000000 0.463893 0.211680 0.860229
5150.00000000 1910.00000000 -160.00000000 151 206 77 97.000000 1.000000 4.000000 1.000000 -60.708740 114.000000 145.000000 0.120720 0.044001 0.991711
5140.00000000 1930.00000000 -150.00000000 151 206 77 97.000000 1.000000 4.000000 1.000000 -60.708740 114.000000 145.000000 0.471075 -0.322978 0.820837
5200.00000000 1890.00000000 -140.00000000 151 206 77 97.000000 1.000000 4.000000 1.000000 -60.708740 114.000000 145.000000 0.176981 -0.041022 0.983359
5180.00000000 1880.00000000 -130.00000000 151 206 77 97.000000 1.000000 4.000000 1.000000 -60.708740 114.000000 145.000000 0.343361 -0.211189 0.915151
5190.00000000 1890.00000000 -140.00000000 151 206 77 97.000000 1.000000 4.000000 1.000000 -60.708740 114.000000 145.000000 0.358791 0.164622 0.918787
5090.00000000 1960.00000000 -90.00000000 151 206 77 97.000000 1.000000 4.000000 1.000000 -60.708740 114.000000 145.000000 -0.063363 -0.180525 0.981527
5120.00000000 1950.00000000 -100.00000000 151 206 77 97.000000 1.000000 4.000000 1.000000 -60.708740 114.000000 145.000000 0.453728 -0.190654 0.870507
5070.00000000 1920.00000000 -90.00000000 151 206 77 97.000000 1.000000 4.000000 1.000000 -60.708740 114.000000 145.000000 0.574448 -0.009597 0.818485
5100.00000000 1960.00000000 -130.00000000 151 206 77 97.000000 1.000000 4.000000 1.000000 -60.708740 114.000000 145.000000 0.417185 0.178794 0.891061
5100.00000000 1970.00000000 -120.00000000 151 206 77 97.000000 1.000000 4.000000 1.000000 -60.708740 114.000000 145.000000 0.369269 -0.350729 0.860598
5130.00000000 1980.00000000 -170.00000000 151 206 77 97.000000 1.000000 4.000000 1.000000 -60.708740 114.000000 145.000000 0.047758 -0.233894 0.971088
5060.00000000 1940.00000000 -110.00000000 151 206 77 97.000000 1.000000 4.000000 1.000000 -60.708740 114.000000 145.000000 0.251935 -0.095914 0.962979
5210.00000000 1980.00000000 -200.00000000 151 206 77 97.000000 1.000000 4.000000 1.000000 -60.708740 114.000000 145.000000 0.500443 -0.196871 0.843089
5210.00000000 1950.00000000 -240.00000000 151 206 77 97.000000 1.000000 4.000000 1.000000 -60.708740 114.000000 145.000000 0.403449 0.302203 0.863656
5180.00000000 1950.00000000 -260.00000000 151 206 77 97.000000 1.000000 4.000000 1.000000 -60.708740 114.000000 145.000000 0.471812 -0.082602 0.877822
5200.00000000 1930.00000000 -240.00000000 151 206 77 97.000000 1.000000 4.000000 1.000000 -60.708740 114.000000 145.000000 0.203365 -0.399415 0.893929
5180.00000000 1940.00000000 -240.00000000 151 206 77 97.000000 1.000000 4.000000 1.000000 -60.708740 114.000000 145.000000 -0.157964 -0.074825 0.984606
5210.00000000 1940.00000000 -240.00000000 151 206 77 97.000000 1.000000 4.000000 1.000000 -60.708740 114.000000 145.000000 0.227708 0.316500 0.920857
5150.00000000 1980.00000000 -230.00000000 151 206 77 97.000000 1.000000 4.000000 1.000000 -60.708740 114.000000 145.000000 0.236009 0.236009 0.942656
5150.00000000 1980.00000000 -230.00000000 151 206 77 97.000000 1.000000 4.000000 1.000000 -60.708740 114.000000 145.000000 0.236009 0.236009 0.942656
5120.00000000 1960.00000000 -210.00000000 151 206 77 97.000000 1.000000 4.000000 1.000000 -60.708740 114.000000 145.000000 0.137193 0.316496 0.938621
5120.00000000 1980.00000000 -260.00000000 151 206 77 97.000000 1.000000 4.000000 1.000000 -60.708740 114.000000 145.000000 0.328393 0.415550 0.848219
5080.00000000 1960.00000000 -190.00000000 151 206 77 97.000000 1.000000 4.000000 1.000000 -60.708740 114.000000 145.000000 0.562931 -0.176576 0.807421
5340.00000000 1980.00000000 -370.00000000 151 206 77 97.000000 1.000000 4.000000 1.000000 -60.708740 114.000000 145.000000 -0.066526 0.093588 0.993386
5310.00000000 1920.00000000 -360.00000000 151 206 77 97.000000 1.000000 4.000000 1.000000 -60.708740 114.000000 145.000000 -0.196952 -0.194308 0.960965
4850.00000000 2330.00000000 -220.00000000 151 206 77 97.000000 1.000000 4.000000 1.000000 -60.708740 114.000000 145.000000 0.283702 0.771859 0.568988
4860.00000000 2360.00000000 -260.00000000 151 206 77 97.000000 1.000000 4.000000 1.000000 -60.708740 114.000000 145.000000 -0.092192 0.686316 0.721437
4800.00000000 2370.00000000 -240.00000000 151 206 77 97.000000 1.000000 4.000000 1.000000 -60.708740 114.000000 145.000000 -0.172938 0.684102 0.708588
4800.00000000 2390.00000000 -240.00000000 151 206 77 97.000000 1.000000 4.000000 1.000000 -60.708740 114.000000 145.000000 0.259443 0.580209 0.772040
4810.00000000 2390.00000000 -250.00000000 151 206 77 97.000000 1.000000 4.000000 1.000000 -60.708740 114.000000 145.000000 0.310956 0.736305 0.600967
4810.00000000 2400.00000000 -260.00000000 151 206 77 97.000000 1.000000 4.000000 1.000000 -60.708740 114.000000 145.000000 0.181495 0.832479 0.523487
4820.00000000 2330.00000000 -220.00000000 151 206 77 97.000000 1.000000 4.000000 1.000000 -60.708740 114.000000 145.000000 0.355047 0.552835 0.753866
4750.00000000 2370.00000000 -250.00000000 151 206 77 97.000000 1.000000 4.000000 1.000000 -60.708740 114.000000 145.000000 0.046978 0.656264 0.753067
4880.00000000 2200.00000000 -100.00000000 151 206 77 97.000000 1.000000 4.000000 1.000000 -60.708740 114.000000 145.000000 -0.012529 0.664052 0.747581
4890.00000000 2190.00000000 -90.00000000 151 206 77 97.000000 1.000000 4.000000 1.000000 -60.708740 114.000000 145.000000 0.093913 0.377012 0.921435
4890.00000000 2190.00000000 -90.00000000 151 206 77 97.000000 1.000000 4.000000 1.000000 -60.708740 114.000000 145.000000 0.093913 0.377012 0.921435
4940.00000000 2200.00000000 -100.00000000 151 206 77 97.000000 1.000000 4.000000 1.000000 -60.708740 114.000000 145.000000 -0.070078 0.584938 0.808045
4880.00000000 2220.00000000 -120.00000000 151 206 77 97.000000 1.000000 4.000000 1.000000 -60.708740 114.000000 145.000000 0.009422 0.510112 0.860057
4950.00000000 2250.00000000 -350.00000000 151 206 77 97.000000 1.000000 4.000000 1.000000 -60.708740 114.000000 145.000000 0.355280 0.620512 0.699100
4910.00000000 2310.00000000 -280.00000000 151 206 77 97.000000 1.000000 4.000000 1.000000 -60.708740 114.000000 145.000000 -0.095292 0.932783 0.347613
4960.00000000 2190.00000000 -350.00000000 151 206 77 97.000000 1.000000 4.000000 1.000000 -60.708740 114.000000 145.000000 -0.210716 0.507840 0.835283
4900.00000000 2230.00000000 -320.00000000 151 206 77 97.000000 1.000000 4.000000 1.000000 -60.708740 114.000000 145.000000 0.471711 0.751122 0.461849
5030.00000000 2000.00000000 -60.00000000 151 206 77 97.000000 1.000000 4.000000 1.000000 -60.708740 114.000000 145.000000 0.545010 0.195839 0.815237
5010.00000000 1990.00000000 -170.00000000 151 206 77 97.000000 1.000000 4.000000 1.000000 -60.708740 114.000000 145.000000 0.190593 0.089763 0.977557
4890.00000000 2150.00000000 -80.00000000 151 206 77 97.000000 1.000000 4.000000 1.000000 -60.708740 114.000000 145.000000 0.231608 0.326553 0.916363
4960.00000000 2070.00000000 -90.00000000 151 206 77 97.000000 1.000000 4.000000 1.000000 -60.708740 114.000000 145.000000 0.563676 0.276312 0.778410
4920.00000000 2020.00000000 -90.00000000 151 206 77 97.000000 1.000000 4.000000 1.000000 -60.708740 114.000000 145.000000 -0.059387 0.093002 0.993893
4950.00000000 1990.00000000 -80.00000000 151 206 77 97.000000 1.000000 4.000000 1.000000 -60.708740 114.000000 145.000000 0.539069 0.172682 0.824370
4890.00000000 2050.00000000 -60.00000000 151 206 77 97.000000 1.000000 4.000000 1.000000 -60.708740 114.000000 145.000000 0.016812 -0.142343 0.989675
4910.00000000 2000.00000000 -100.00000000 151 206 77 97.000000 1.000000 4.000000 1.000000 -60.708740 114.000000 145.000000 0.496507 0.160591 0.853048
4910.00000000 2000.00000000 -100.00000000 151 206 77 97.000000 1.000000 4.000000 1.000000 -60.708740 114.000000 145.000000 0.496507 0.160591 0.853048
4950.00000000 2030.00000000 -120.00000000 151 206 77 97.000000 1.000000 4.000000 1.000000 -60.708740 114.000000 145.000000 0.011119 0.023248 0.999668
4910.00000000 2040.00000000 -130.00000000 151 206 77 97.000000 1.000000 4.000000 1.000000 -60.708740 114.000000 145.000000 0.384361 0.403342 0.830410
5030.00000000 2000.00000000 -200.00000000 151 206 77 97.000000 1.000000 4.000000 1.000000 -60.708740 114.000000 145.000000 0.529390 0.136380 0.837345
4910.00000000 2120.00000000 -350.00000000 151 206 77 97.000000 1.000000 4.000000 1.000000 -60.708740 114.000000 145.000000 -0.214073 0.414859 0.884344
5000.00000000 2010.00000000 -200.00000000 151 206 77 97.000000 1.000000 4.000000 1.000000 -60.708740 114.000000 145.000000 0.028633 0.287573 0.957331
4850.00000000 2250.00000000 -120.00000000 151 206 77 97.000000 1.000000 4.000000 1.000000 -60.708740 114.000000 145.000000 -0.104411 0.651463 0.751462
4800.00000000 2200.00000000 -100.00000000 151 206 77 97.000000 1.000000 4.000000 1.000000 -60.708740 114.000000 145.000000 -0.114953 0.246698 0.962250
4830.00000000 2210.00000000 -100.00000000 151 206 77 97.000000 1.000000 4.000000 1.000000 -60.708740 114.000000 145.000000 0.007587 0.109477 0.993960
4830.00000000 2170.00000000 -60.00000000 151 206 77 97.000000 1.000000 4.000000 1.000000 -60.708740 114.000000 145.000000 0.294515 0.274204 0.915463
4760.00000000 2280.00000000 -170.00000000 151 206 77 97.000000 1.000000 4.000000 1.000000 -60.708740 114.000000 145.000000 -0.006603 0.888792 0.458263
4740.00000000 2240.00000000 -150.00000000 151 206 77 97.000000 1.000000 4.000000 1.000000 -60.708740 114.000000 145.000000 -0.267554 0.606351 0.748835
4780.00000000 2270.00000000 -160.00000000 151 206 77 97.000000 1.000000 4.000000 1.000000 -60.708740 114.000000 145.000000 0.186868 0.560604 0.806724
4780.00000000 2290.00000000 -180.00000000 151 206 77 97.000000 1.000000 4.000000 1.000000 -60.708740 114.000000 145.000000 0.106512 0.803946 0.585086
4770.00000000 2220.00000000 -90.00000000 151 206 77 97.000000 1.000000 4.000000 1.000000 -60.708740 114.000000 145.000000 -0.179607 0.283807 0.941910
4750.00000000 2170.00000000 -100.00000000 151 206 77 97.000000 1.000000 4.000000 1.000000 -60.708740 114.000000 145.000000 0.104851 0.683749 0.722145
4860.00000000 2270.00000000 -240.00000000 151 206 77 97.000000 1.000000 4.000000 1.000000 -60.708740 114.000000 145.000000 0.182612 0.482511 0.856642
4820.00000000 2250.00000000 -190.00000000 151 206 77 97.000000 1.000000 4.000000 1.000000 -60.708740 114.000000 145.000000 -0.077963 0.531567 0.843420
4820.00000000 2240.00000000 -200.00000000 151 206 77 97.000000 1.000000 4.000000 1.000000 -60.708740 114.000000 145.000000 -0.070833 0.476384 0.876380
4830.00000000 2250.00000000 -260.00000000 151 206 77 97.000000 1.000000 4.000000 1.000000 -60.708740 114.000000 145.000000 0.155913 0.917219 0.366607
4850.00000000 2230.00000000 -190.00000000 151 206 77 97.000000 1.000000 4.000000 1.000000 -60.708740 114.000000 145.000000 -0.129183 0.788460 0.601368
4830.00000000 2190.00000000 -350.00000000 151 206 77 97.000000 1.000000 4.000000 1.000000 -60.708740 114.000000 145.000000 0.091312 0.804416 0.587006
4790.00000000 2290.00000000 -190.00000000 151 206 77 97.000000 1.000000 4.000000 1.000000 -60.708740 114.000000 145.000000 0.113953 0.434708 0.893333
4850.00000000 2140.00000000 -70.00000000 151 206 77 97.000000 1.000000 4.000000 1.000000 -60.708740 114.000000 145.000000 -0.039393 0.206512 0.977651
4830.00000000 2110.00000000 -40.00000000 151 206 77 97.000000 1.000000 4.000000 1.000000 -60.708740 114.000000 145.000000 -0.075390 0.013804 0.997059
4850.00000000 2040.00000000 -30.00000000 151 206 77 97.000000 1.000000 4.000000 1.000000 -60.708740 114.000000 145.000000 0.377143 0.117425 0.918681
4850.00000000 2010.00000000 -30.00000000 151 206 77 97.000000 1.000000 4.000000 1.000000 -60.708740 114.000000 145.000000 0.049644 0.034856 0.998159
4860.00000000 2000.00000000 -80.00000000 151 206 77 97.000000 1.000000 4.000000 1.000000 -60.708740 114.000000 145.000000 0.378796 -0.217918 0.899458
4860.00000000 2010.00000000 -80.00000000 151 206 77 97.000000 1.000000 4.000000 1.000000 -60.708740 114.000000 145.000000 0.534712 0.037306 0.844210
4810.00000000 2070.00000000 -40.00000000 151 206 77 97.000000 1.000000 4.000000 1.000000 -60.708740 114.000000 145.000000 -0.073790 0.471977 0.878517
4810.00000000 2070.00000000 -70.00000000 151 206 77 97.000000 1.000000 4.000000 1.000000 -60.708740 114.000000 145.000000 0.152277 -0.159828 0.975329
4800.00000000 2020.00000000 -20.00000000 151 206 77 97.000000 1.000000 4.000000 1.000000 -60.708740 114.000000 145.000000 0.013726 0.313202 0.949587
4820.00000000 2010.00000000 -40.00000000 151 206 77 97.000000 1.000000 4.000000 1.000000 -60.708740 114.000000 145.000000 0.395639 -0.161398 0.904113
4830.00000000 2000.00000000 -30.00000000 151 206 77 97.000000 1.000000 4.000000 1.000000 -60.708740 114.000000 145.000000 0.442535 -0.183777 0.877718
4790.00000000 2140.00000000 -70.00000000 151 206 77 97.000000 1.000000 4.000000 1.000000 -60.708740 114.000000 145.000000 0.042279 0.478711 0.876954
4760.00000000 2060.00000000 -40.00000000 151 206 77 97.000000 1.000000 4.000000 1.000000 -60.708740 114.000000 145.000000 -0.035030 0.230716 0.972390
4790.00000000 2020.00000000 -20.00000000 151 206 77 97.000000 1.000000 4.000000 1.000000 -60.708740 114.000000 145.000000 0.394429 0.397597 0.828458
4780.00000000 2070.00000000 -30.00000000 151 206 77 97.000000 1.000000 4.000000 1.000000 -60.708740 114.000000 145.000000 -0.120473 -0.039407 0.991934
4760.00000000 2030.00000000 -20.00000000 151 206 77 97.000000 1.000000 4.000000 1.000000 -60.708740 114.000000 145.000000 0.416621 0.055280 0.907398
4790.00000000 2020.00000000 -20.00000000 151 206 77 97.000000 1.000000 4.000000 1.000000 -60.708740 114.000000 145.000000 0.394429 0.397597 0.828458
4780.00000000 2050.00000000 -20.00000000 151 206 77 97.000000 1.000000 4.000000 1.000000 -60.708740 114.000000 145.000000 0.233514 0.374503 0.897340
4810.00000000 2040.00000000 -350.00000000 151 206 77 97.000000 1.000000 4.000000 1.000000 -60.708740 114.000000 145.000000 -0.086177 0.330125 0.939995
4810.00000000 2050.00000000 -350.00000000 151 206 77 97.000000 1.000000 4.000000 1.000000 -60.708740 114.000000 145.000000 -0.049474 0.211167 0.976197
4800.00000000 2050.00000000 -350.00000000 151 206 77 97.000000 1.000000 4.000000 1.000000 -60.708740 114.000000 145.000000 0.035113 0.231259 0.972258
4760.00000000 2010.00000000 -330.00000000 151 206 77 97.000000 1.000000 4.000000 1.000000 -60.708740 114.000000 145.000000 -0.027673 0.412453 0.910559
4750.00000000 1990.00000000 -310.00000000 151 206 77 97.000000 1.000000 4.000000 1.000000 -60.708740 114.000000 145.000000 0.211983 -0.264633 0.940762
5000.00000000 2190.00000000 -370.00000000 151 206 77 97.000000 1.000000 4.000000 1.000000 -60.708740 114.000000 145.000000 0.242697 0.599696 0.762537
5040.00000000 2160.00000000 -500.00000000 151 206 77 97.000000 1.000000 4.000000 1.000000 -60.708740 114.000000 145.000000 -0.289232 0.919499 0.266209
5010.00000000 2190.00000000 -500.00000000 151 206 77 97.000000 1.000000 4.000000 1.000000 -60.708740 114.000000 145.000000 0.060851 0.825025 0.561810
4960.00000000 2190.00000000 -390.00000000 151 206 77 97.000000 1.000000 4.000000 1.000000 -60.708740 114.000000 145.000000 0.193994 0.581982 0.789724
4920.00000000 2170.00000000 -420.00000000 151 206 77 97.000000 1.000000 4.000000 1.000000 -60.708740 114.000000 145.000000 -0.062217 0.875189 0.479764
4960.00000000 2190.00000000 -420.00000000 151 206 77 97.000000 1.000000 4.000000 1.000000 -60.708740 114.000000 145.000000 -0.199944 0.692828 0.692828
4900.00000000 2210.00000000 -370.00000000 151 206 77 97.000000 1.000000 4.000000 1.000000 -60.708740 114.000000 145.000000 0.370917 0.730397 0.573533
4900.00000000 2160.00000000 -360.00000000 151 206 77 97.000000 1.000000 4.000000 1.000000 -60.708740 114.000000 145.000000 0.078370 0.427597 0.900566
4950.00000000 2170.00000000 -510.00000000 151 206 77 97.000000 1.000000 4.000000 1.000000 -60.708740 114.000000 145.000000 -0.096038 0.841410 0.531794
4990.00000000 2200.00000000 -530.00000000 151 206 77 97.000000 1.000000 4.000000 1.000000 -60.708740 114.000000 145.000000 -0.344740 0.925354 0.157715
4980.00000000 2160.00000000 -580.00000000 151 206 77 97.000000 1.000000 4.000000 1.000000 -60.708740 114.000000 145.000000 -0.382817 0.921695 0.062691
4970.00000000 2170.00000000 -640.00000000 151 206 77 97.000000 1.000000 4.000000 1.000000 -60.708740 114.000000 145.000000 -0.413294 0.876183 -0.247976
4930.00000000 2220.00000000 -580.00000000 151 206 77 97.000000 1.000000 4.000000 1.000000 -60.708740 114.000000 145.000000 -0.151640 0.938529 0.310111
5010.00000000 2130.00000000 -410.00000000 151 206 77 97.000000 1.000000 4.000000 1.000000 -60.708740 114.000000 145.000000 -0.081574 0.828616 0.553842
5040.00000000 2100.00000000 -430.00000000 151 206 77 97.000000 1.000000 4.000000 1.000000 -60.708740 114.000000 145.000000 0.133475 -0.676373 -0.724364
4970.00000000 2140.00000000 -420.00000000 151 206 77 97.000000 1.000000 4.000000 1.000000 -60.708740 114.000000 145.000000 -0.226943 0.687090 0.690220
4970.00000000 2150.00000000 -430.00000000 151 206 77 97.000000 1.000000 4.000000 1.000000 -60.708740 114.000000 145.000000 -0.213279 0.842530 0.494627
5000.00000000 2120.00000000 -480.00000000 151 206 77 97.000000 1.000000 4.000000 1.000000 -60.708740 114.000000 145.000000 0.335475 0.893108 0.299691
4990.00000000 2120.00000000 -490.00000000 151 206 77 97.000000 1.000000 4.000000 1.000000 -60.708740 114.000000 145.000000 0.289667 0.737772 0.609742
4990.00000000 2080.00000000 -500.00000000 151 206 77 97.000000 1.000000 4.000000 1.000000 -60.708740 114.000000 145.000000 -0.275365 0.609623 0.743326
4970.00000000 2020.00000000 -420.00000000 151 206 77 97.000000 1.000000 4.000000 1.000000 -60.708740 114.000000 145.000000 -0.140743 0.155689 0.977728
4920.00000000 2130.00000000 -360.00000000 151 206 77 97.000000 1.000000 4.000000 1.000000 -60.708740 114.000000 145.000000 -0.126785 0.443035 0.887494
4950.00000000 2110.00000000 -380.00000000 151 206 77 97.000000 1.000000 4.000000 1.000000 -60.708740 114.000000 145.000000 -0.134478 0.568947 0.811304
4940.00000000 2100.00000000 -410.00000000 151 206 77 97.000000 1.000000 4.000000 1.000000 -60.708740 114.000000 145.000000 -0.079606 0.638295 0.765665
4890.00000000 2130.00000000 -380.00000000 151 206 77 97.000000 1.000000 4.000000 1.000000 -60.708740 114.000000 145.000000 0.013990 0.354850 0.934819
4940.00000000 2020.00000000 -390.00000000 151 206 77 97.000000 1.000000 4.000000 1.000000 -60.708740 114.000000 145.000000 0.525524 0.188225 0.829696
4950.00000000 2000.00000000 -410.00000000 151 206 77 97.000000 1.000000 4.000000 1.000000 -60.708740 114.000000 145.000000 0.195612 -0.071684 0.978058
4960.00000000 2000.00000000 -410.00000000 151 206 77 97.000000 1.000000 4.000000 1.000000 -60.708740 114.000000 145.000000 0.447771 0.230670 0.863882
4920.00000000 2000.00000000 -410.00000000 151 206 77 97.000000 1.000000 4.000000 1.000000 -60.708740 114.000000 145.000000 -0.011184 0.031518 0.999441
4880.00000000 2030.00000000 -390.00000000 151 206 77 97.000000 1.000000 4.000000 1.000000 -60.708740 114.000000 145.000000 0.028871 0.169759 0.985063
4900.00000000 1990.00000000 -390.00000000 151 206 77 97.000000 1.000000 4.000000 1.000000 -60.708740 114.000000 145.000000 0.146368 0.277964 0.949375
4890.00000000 2020.00000000 -380.00000000 151 206 77 97.000000 1.000000 4.000000 1.000000 -60.708740 114.000000 145.000000 -0.104528 0.359740 0.927179
4910.00000000 2020.00000000 -410.00000000 151 206 77 97.000000 1.000000 4.000000 1.000000 -60.708740 114.000000 145.000000 0.282936 0.013473 0.959044
4910.00000000 2020.00000000 -410.00000000 151 206 77 97.000000 1.000000 4.000000 1.000000 -60.708740 114.000000 145.000000 0.282936 0.013473 0.959044
5000.00000000 2030.00000000 -610.00000000 151 206 77 97.000000 1.000000 4.000000 1.000000 -60.708740 114.000000 145.000000 0.060229 0.992079 0.110231
4980.00000000 2030.00000000 -620.00000000 151 206 77 97.000000 1.000000 4.000000 1.000000 -60.708740 114.000000 145.000000 0.229609 0.954691 -0.189327
4810.00000000 2220.00000000 -400.00000000 151 206 77 97.000000 1.000000 4.000000 1.000000 -60.708740 114.000000 145.000000 -0.143641 0.900243 0.411011
4870.00000000 2020.00000000 -390.00000000 151 206 77 97.000000 1.000000 4.000000 1.000000 -60.708740 114.000000 145.000000 0.254034 -0.074567 0.964317
4840.00000000 2010.00000000 -360.00000000 151 206 77 97.000000 1.000000 4.000000 1.000000 -60.708740 114.000000 145.000000 0.070166 0.076848 0.994571
4870.00000000 2020.00000000 -390.00000000 151 206 77 97.000000 1.000000 4.000000 1.000000 -60.708740 114.000000 145.000000 0.254034 -0.074567 0.964317
4870.00000000 1990.00000000 -370.00000000 151 206 77 97.000000 1.000000 4.000000 1.000000 -60.708740 114.000000 145.000000 0.352623 0.014003 0.935661
4840.00000000 2020.00000000 -370.00000000 151 206 77 97.000000 1.000000 4.000000 1.000000 -60.708740 114.000000 145.000000 -0.067919 0.170392 0.983033
4860.00000000 2000.00000000 -400.00000000 151 206 77 97.000000 1.000000 4.000000 1.000000 -60.708740 114.000000 145.000000 0.022482 -0.078151 0.996688
4800.00000000 2070.00000000 -360.00000000 151 206 77 97.000000 1.000000 4.000000 1.000000 -60.708740 114.000000 145.000000 -0.027402 0.384934 0.922537
4810.00000000 2010.00000000 -370.00000000 151 206 77 97.000000 1.000000 4.000000 1.000000 -60.708740 114.000000 145.000000 0.018593 0.293774 0.955694
4810.00000000 2000.00000000 -370.00000000 151 206 77 97.000000 1.000000 4.000000 1.000000 -60.708740 114.000000 145.000000 0.109375 0.243199 0.963790
4820.00000000 2020.00000000 -370.00000000 151 206 77 97.000000 1.000000 4.000000 1.000000 -60.708740 114.000000 145.000000 -0.165906 0.135968 0.976723
4820.00000000 2010.00000000 -380.00000000 151 206 77 97.000000 1.000000 4.000000 1.000000 -60.708740 114.000000 145.000000 -0.056797 0.087979 0.994502
4830.00000000 2010.00000000 -360.00000000 151 206 77 97.000000 1.000000 4.000000 1.000000 -60.708740 114.000000 145.000000 -0.214495 0.344055 0.914122
5030.00000000 1950.00000000 -80.00000000 151 206 77 97.000000 1.000000 4.000000 1.000000 -60.708740 114.000000 145.000000 0.010950 -0.271328 0.962425
5030.00000000 1970.00000000 -140.00000000 151 206 77 97.000000 1.000000 4.000000 1.000000 -60.708740 114.000000 145.000000 0.333236 0.088952 0.938638
5020.00000000 1970.00000000 -170.00000000 151 206 77 97.000000 1.000000 4.000000 1.000000 -60.708740 114.000000 145.000000 0.092250 -0.281948 0.954984
5010.00000000 1970.00000000 -170.00000000 151 206 77 97.000000 1.000000 4.000000 1.000000 -60.708740 114.000000 145.000000 0.208912 0.115218 0.971123
4990.00000000 1980.00000000 -120.00000000 151 206 77 97.000000 1.000000 4.000000 1.000000 -60.708740 114.000000 145.000000 0.517661 0.270560 0.811680
4960.00000000 1970.00000000 -70.00000000 151 206 77 97.000000 1.000000 4.000000 1.000000 -60.708740 114.000000 145.000000 0.120894 0.288286 0.949882
4910.00000000 1970.00000000 -80.00000000 151 206 77 97.000000 1.000000 4.000000 1.000000 -60.708740 114.000000 145.000000 0.515901 0.168002 0.840012
4820.00000000 1920.00000000 -340.00000000 151 206 77 97.000000 1.000000 4.000000 1.000000 -60.708740 114.000000 145.000000 -0.175838 -0.339015 0.924202
4820.00000000 1970.00000000 -320.00000000 151 206 77 97.000000 1.000000 4.000000 1.000000 -60.708740 114.000000 145.000000 0.099575 0.314656 0.943968
4810.00000000 1960.00000000 -340.00000000 151 206 77 97.000000 1.000000 4.000000 1.000000 -60.708740 114.000000 145.000000 0.471013 -0.239317 0.849043
4800.00000000 1940.00000000 -330.00000000 151 206 77 97.000000 1.000000 4.000000 1.000000 -60.708740 114.000000 145.000000 0.185456 0.012671 0.982571
4780.00000000 1970.00000000 -310.00000000 151 206 77 97.000000 1.000000 4.000000 1.000000 -60.708740 114.000000 145.000000 0.160351 -0.237214 0.958132
4780.00000000 1950.00000000 -310.00000000 151 206 77 97.000000 1.000000 4.000000 1.000000 -60.708740 114.000000 145.000000 0.469723 0.162427 0.867743
4790.00000000 1960.00000000 -340.00000000 151 206 77 97.000000 1.000000 4.000000 1.000000 -60.708740 114.000000 145.000000 0.446570 -0.177164 0.877034
4780.00000000 1930.00000000 -330.00000000 151 206 77 97.000000 1.000000 4.000000 1.000000 -60.708740 114.000000 145.000000 0.092998 -0.125960 0.987667
4770.00000000 1920.00000000 -330.00000000 151 206 77 97.000000 1.000000 4.000000 1.000000 -60.708740 114.000000 145.000000 0.145896 -0.520215 0.841481
4750.00000000 1980.00000000 -300.00000000 151 206 77 97.000000 1.000000 4.000000 1.000000 -60.708740 114.000000 145.000000 0.182816 0.012648 0.983066
4720.00000000 1970.00000000 -310.00000000 151 206 77 97.000000 1.000000 4.000000 1.000000 -60.708740 114.000000 145.000000 0.048209 -0.170497 0.984178
4750.00000000 1970.00000000 -340.00000000 151 206 77 97.000000 1.000000 4.000000 1.000000 -60.708740 114.000000 145.000000 0.073782 0.299009 0.951394
4740.00000000 1920.00000000 -330.00000000 151 206 77 97.000000 1.000000 4.000000 1.000000 -60.708740 114.000000 145.000000 0.175734 -0.215373 0.960590
4760.00000000 1880.00000000 -350.00000000 151 206 77 97.000000 1.000000 4.000000 1.000000 -60.708740 114.000000 145.000000 0.564313 -0.308534 0.765740
4780.00000000 1890.00000000 -330.00000000 151 206 77 97.000000 1.000000 4.000000 1.000000 -60.708740 114.000000 145.000000 0.202855 0.032030 0.978685
4790.00000000 1880.00000000 -330.00000000 151 206 77 97.000000 1.000000 4.000000 1.000000 -60.708740 114.000000 145.000000 0.031311 -0.076659 0.996566
4790.00000000 1830.00000000 -340.00000000 151 206 77 97.000000 1.000000 4.000000 1.000000 -60.708740 114.000000 145.000000 0.514998 -0.326856 0.792428
4780.00000000 1860.00000000 -320.00000000 151 206 77 97.000000 1.000000 4.000000 1.000000 -60.708740 114.000000 145.000000 0.292522 -0.062592 0.954208
4720.00000000 1880.00000000 -300.00000000 151 206 77 97.000000 1.000000 4.000000 1.000000 -60.708740 114.000000 145.000000 0.259783 -0.202054 0.944292
4720.00000000 1900.00000000 -300.00000000 151 206 77 97.000000 1.000000 4.000000 1.000000 -60.708740 114.000000 145.000000 0.291139 -0.508312 0.810467
4710.00000000 1890.00000000 -310.00000000 151 206 77 97.000000 1.000000 4.000000 1.000000 -60.708740 114.000000 145.000000 -0.015527 0.044510 0.998888
4750.00000000 1890.00000000 -330.00000000 151 206 77 97.000000 1.000000 4.000000 1.000000 -60.708740 114.000000 145.000000 0.248201 -0.497943 0.830933
4720.00000000 1900.00000000 -320.00000000 151 206 77 97.000000 1.000000 4.000000 1.000000 -60.708740 114.000000 145.000000 0.437964 -0.027955 0.898558
4730.00000000 1860.00000000 -330.00000000 151 206 77 97.000000 1.000000 4.000000 1.000000 -60.708740 114.000000 145.000000 0.087796 -0.054456 0.994649
4750.00000000 1820.00000000 -340.00000000 151 206 77 97.000000 1.000000 4.000000 1.000000 -60.708740 114.000000 145.000000 -0.097620 -0.607573 0.788242
4730.00000000 1840.00000000 -320.00000000 151 206 77 97.000000 1.000000 4.000000 1.000000 -60.708740 114.000000 145.000000 0.370516 -0.226996 0.900661
4850.00000000 1760.00000000 -350.00000000 151 206 77 97.000000 1.000000 4.000000 1.000000 -60.708740 114.000000 145.000000 0.168268 -0.601823 0.780702
4830.00000000 1750.00000000 -340.00000000 151 206 77 97.000000 1.000000 4.000000 1.000000 -60.708740 114.000000 145.000000 -0.115513 0.930896 -0.346538
4830.00000000 1810.00000000 -350.00000000 151 206 77 97.000000 1.000000 4.000000 1.000000 -60.708740 114.000000 145.000000 0.080081 -0.691610 0.717818
4750.00000000 1790.00000000 -350.00000000 151 206 77 97.000000 1.000000 4.000000 1.000000 -60.708740 114.000000 145.000000 0.225409 -0.393361 0.891324
4740.00000000 1740.00000000 -350.00000000 151 206 77 97.000000 1.000000 4.000000 1.000000 -60.708740 114.000000 145.000000 0.482412 -0.586626 0.650499
4790.00000000 1690.00000000 -340.00000000 151 206 77 97.000000 1.000000 4.000000 1.000000 -60.708740 114.000000 145.000000 -0.082048 -0.580095 0.810406
4750.00000000 1700.00000000 -350.00000000 151 206 77 97.000000 1.000000 4.000000 1.000000 -60.708740 114.000000 145.000000 -0.067273 0.893770 -0.443453
4750.00000000 1700.00000000 -340.00000000 151 206 77 97.000000 1.000000 4.000000 1.000000 -60.708740 114.000000 145.000000 -0.266184 0.865479 -0.424373
4770.00000000 1700.00000000 -350.00000000 151 206 77 97.000000 1.000000 4.000000 1.000000 -60.708740 114.000000 145.000000 -0.049721 0.768550 -0.637854
4940.00000000 1960.00000000 -370.00000000 151 206 77 97.000000 1.000000 4.000000 1.000000 -60.708740 114.000000 145.000000 0.069756 0.209269 0.975367
4950.00000000 1970.00000000 -430.00000000 151 206 77 97.000000 1.000000 4.000000 1.000000 -60.708740 114.000000 145.000000 0.031247 0.291218 0.956146
4910.00000000 1950.00000000 -390.00000000 151 206 77 97.000000 1.000000 4.000000 1.000000 -60.708740 114.000000 145.000000 -0.123060 0.065555 0.990232
4910.00000000 1970.00000000 -400.00000000 151 206 77 97.000000 1.000000 4.000000 1.000000 -60.708740 114.000000 145.000000 0.582579 -0.052192 0.811097
4880.00000000 1930.00000000 -370.00000000 151 206 77 97.000000 1.000000 4.000000 1.000000 -60.708740 114.000000 145.000000 0.204205 0.041796 0.978035
4910.00000000 1910.00000000 -420.00000000 151 206 77 97.000000 1.000000 4.000000 1.000000 -60.708740 114.000000 145.000000 0.114740 -0.012020 0.993323
4880.00000000 1740.00000000 -370.00000000 151 206 77 97.000000 1.000000 4.000000 1.000000 -60.708740 114.000000 145.000000 0.208388 0.767177 -0.606641
4880.00000000 1740.00000000 -380.00000000 151 206 77 97.000000 1.000000 4.000000 1.000000 -60.708740 114.000000 145.000000 -0.066643 0.823820 -0.562920
4880.00000000 1780.00000000 -360.00000000 151 206 77 97.000000 1.000000 4.000000 1.000000 -60.708740 114.000000 145.000000 0.067842 -0.665427 0.743373
4950.00000000 1710.00000000 -440.00000000 151 206 77 97.000000 1.000000 4.000000 1.000000 -60.708740 114.000000 145.000000 0.112650 0.932417 -0.343379
4890.00000000 1710.00000000 -380.00000000 151 206 77 97.000000 1.000000 4.000000 1.000000 -60.708740 114.000000 145.000000 -0.302803 0.744990 -0.594390
4900.00000000 1700.00000000 -380.00000000 151 206 77 97.000000 1.000000 4.000000 1.000000 -60.708740 114.000000 145.000000 0.304401 -0.652287 0.694162
4900.00000000 1730.00000000 -400.00000000 151 206 77 97.000000 1.000000 4.000000 1.000000 -60.708740 114.000000 145.000000 -0.162547 0.721585 -0.672973
4900.00000000 1730.00000000 -400.00000000 151 206 77 97.000000 1.000000 4.000000 1.000000 -60.708740 114.000000 145.000000 -0.162547 0.721585 -0.672973
4880.00000000 1690.00000000 -390.00000000 151 206 77 97.000000 1.000000 4.000000 1.000000 -60.708740 114.000000 145.000000 -0.283650 0.693900 -0.661850
4890.00000000 1690.00000000 -390.00000000 151 206 77 97.000000 1.000000 4.000000 1.000000 -60.708740 114.000000 145.000000 0.282295 -0.544089 0.790112
4870.00000000 1980.00000000 -380.00000000 151 206 77 97.000000 1.000000 4.000000 1.000000 -60.708740 114.000000 145.000000 -0.164151 -0.100923 0.981259
4850.00000000 1980.00000000 -400.00000000 151 206 77 97.000000 1.000000 4.000000 1.000000 -60.708740 114.000000 145.000000 -0.006441 0.395465 0.918458
4860.00000000 1980.00000000 -400.00000000 151 206 77 97.000000 1.000000 4.000000 1.000000 -60.708740 114.000000 145.000000 -0.069144 0.324849 0.943235
4850.00000000 1940.00000000 -370.00000000 151 206 77 97.000000 1.000000 4.000000 1.000000 -60.708740 114.000000 145.000000 0.393340 -0.390181 0.832492
4840.00000000 1920.00000000 -380.00000000 151 206 77 97.000000 1.000000 4.000000 1.000000 -60.708740 114.000000 145.000000 -0.023064 -0.497905 0.866925
4860.00000000 1930.00000000 -410.00000000 151 206 77 97.000000 1.000000 4.000000 1.000000 -60.708740 114.000000 145.000000 0.316372 0.119817 0.941038
4820.00000000 1940.00000000 -370.00000000 151 206 77 97.000000 1.000000 4.000000 1.000000 -60.708740 114.000000 145.000000 0.156557 -0.370941 0.915365
4800.00000000 1910.00000000 -380.00000000 151 206 77 97.000000 1.000000 4.000000 1.000000 -60.708740 114.000000 145.000000 0.517260 -0.337900 0.786299
4810.00000000 1940.00000000 -370.00000000 151 206 77 97.000000 1.000000 4.000000 1.000000 -60.708740 114.000000 145.000000 0.303207 -0.336067 0.891698
4840.00000000 1890.00000000 -390.00000000 151 206 77 97.000000 1.000000 4.000000 1.000000 -60.708740 114.000000 145.000000 0.063349 -0.081131 0.994688
4800.00000000 1880.00000000 -360.00000000 151 206 77 97.000000 1.000000 4.000000 1.000000 -60.708740 114.000000 145.000000 0.153487 -0.292033 0.944012
4830.00000000 1890.00000000 -430.00000000 151 206 77 97.000000 1.000000 4.000000 1.000000 -60.708740 114.000000 145.000000 0.088290 -0.210154 0.973673
4810.00000000 1860.00000000 -360.00000000 151 206 77 97.000000 1.000000 4.000000 1.000000 -60.708740 114.000000 145.000000 0.280549 -0.143630 0.949033
4770.00000000 1910.00000000 -370.00000000 151 206 77 97.000000 1.000000 4.000000 1.000000 -60.708740 114.000000 145.000000 -0.042560 -0.492878 0.869057
4780.00000000 1870.00000000 -410.00000000 151 206 77 97.000000 1.000000 4.000000 1.000000 -60.708740 114.000000 145.000000 0.182613 -0.704363 0.685948
4780.00000000 1830.00000000 -400.00000000 151 206 77 97.000000 1.000000 4.000000 1.000000 -60.708740 114.000000 145.000000 -0.216684 -0.646933 0.731113
4730.00000000 1820.00000000 -420.00000000 151 206 77 97.000000 1.000000 4.000000 1.000000 -60.708740 114.000000 145.000000 -0.070850 -0.663681 0.744653
4760.00000000 1820.00000000 -560.00000000 151 206 77 97.000000 1.000000 4.000000 1.000000 -60.708740 114.000000 145.000000 0.218539 0.965969 0.138365
4850.00000000 1740.00000000 -390.00000000 151 206 77 97.000000 1.000000 4.000000 1.000000 -60.708740 114.000000 145.000000 0.061911 -0.686785 0.724220
4800.00000000 1750.00000000 -390.00000000 151 206 77 97.000000 1.000000 4.000000 1.000000 -60.708740 114.000000 145.000000 0.252188 0.851325 -0.460052
4830.00000000 1740.00000000 -380.00000000 151 206 77 97.000000 1.000000 4.000000 1.000000 -60.708740 114.000000 145.000000 0.224269 0.796543 -0.561447
4800.00000000 1750.00000000 -410.00000000 151 206 77 97.000000 1.000000 4.000000 1.000000 -60.708740 114.000000 145.000000 0.110572 0.759264 -0.641320
4810.00000000 1790.00000000 -510.00000000 151 206 77 97.000000 1.000000 4.000000 1.000000 -60.708740 114.000000 145.000000 0.292330 0.952347 -0.087049
4870.00000000 1700.00000000 -380.00000000 151 206 77 97.000000 1.000000 4.000000 1.000000 -60.708740 114.000000 145.000000 -0.006633 0.882150 -0.470922
4850.00000000 1710.00000000 -410.00000000 151 206 77 97.000000 1.000000 4.000000 1.000000 -60.708740 114.000000 145.000000 -0.441822 0.665234 -0.601878
4860.00000000 1680.00000000 -390.00000000 151 206 77 97.000000 1.000000 4.000000 1.000000 -60.708740 114.000000 145.000000 -0.112348 0.815619 -0.567577
4840.00000000 1670.00000000 -390.00000000 151 206 77 97.000000 1.000000 4.000000 1.000000 -60.708740 114.000000 145.000000 -0.310685 0.788662 -0.530554
4870.00000000 1690.00000000 -390.00000000 151 206 77 97.000000 1.000000 4.000000 1.000000 -60.708740 114.000000 145.000000 -0.431830 0.855976 -0.284301
4840.00000000 1670.00000000 -390.00000000 151 206 77 97.000000 1.000000 4.000000 1.000000 -60.708740 114.000000 145.000000 -0.310685 0.788662 -0.530554
4860.00000000 1680.00000000 -380.00000000 151 206 77 97.000000 1.000000 4.000000 1.000000 -60.708740 114.000000 145.000000 -0.176475 0.885292 -0.430249
4870.00000000 1680.00000000 -400.00000000 151 206 77 97.000000 1.000000 4.000000 1.000000 -60.708740 114.000000 145.000000 -0.330395 0.678693 -0.655907
4850.00000000 1670.00000000 -400.00000000 151 206 77 97.000000 1.000000 4.000000 1.000000 -60.708740 114.000000 145.000000 -0.050292 0.993543 -0.101701
4800.00000000 1730.00000000 -380.00000000 151 206 77 97.000000 1.000000 4.000000 1.000000 -60.708740 114.000000 145.000000 0.041018 0.773684 -0.632243
4810.00000000 1670.00000000 -360.00000000 151 206 77 97.000000 1.000000 4.000000 1.000000 -60.708740 114.000000 145.000000 -0.527542 0.744475 -0.409215
4820.00000000 1670.00000000 -380.00000000 151 206 77 97.000000 1.000000 4.000000 1.000000 -60.708740 114.000000 145.000000 -0.383954 0.631135 -0.673979
4820.00000000 1680.00000000 -480.00000000 151 206 77 97.000000 1.000000 4.000000 1.000000 -60.708740 114.000000 145.000000 0.083887 0.956312 -0.280054
4760.00000000 1780.00000000 -370.00000000 151 206 77 97.000000 1.000000 4.000000 1.000000 -60.708740 114.000000 145.000000 0.083614 0.851727 -0.517272
4770.00000000 1780.00000000 -430.00000000 151 206 77 97.000000 1.000000 4.000000 1.000000 -60.708740 114.000000 145.000000 -0.181454 0.924151 -0.336183
4720.00000000 1780.00000000 -390.00000000 151 206 77 97.000000 1.000000 4.000000 1.000000 -60.708740 114.000000 145.000000 0.034713 0.826170 -0.562351
4740.00000000 1810.00000000 -430.00000000 151 206 77 97.000000 1.000000 4.000000 1.000000 -60.708740 114.000000 145.000000 0.244339 0.729864 -0.638434
4720.00000000 1800.00000000 -400.00000000 151 206 77 97.000000 1.000000 4.000000 1.000000 -60.708740 114.000000 145.000000 0.139154 0.761605 -0.632925
4740.00000000 1740.00000000 -410.00000000 151 206 77 97.000000 1.000000 4.000000 1.000000 -60.708740 114.000000 145.000000 0.095316 -0.699474 0.708273
4780.00000000 1760.00000000 -460.00000000 151 206 77 97.000000 1.000000 4.000000 1.000000 -60.708740 114.000000 145.000000 -0.032475 0.738463 -0.673512
4720.00000000 1740.00000000 -450.00000000 151 206 77 97.000000 1.000000 4.000000 1.000000 -60.708740 114.000000 145.000000 -0.177979 0.836052 -0.518980
4720.00000000 1740.00000000 -450.00000000 151 206 77 97.000000 1.000000 4.000000 1.000000 -60.708740 114.000000 145.000000 -0.177979 0.836052 -0.518980
4730.00000000 1750.00000000 -470.00000000 151 206 77 97.000000 1.000000 4.000000 1.000000 -60.708740 114.000000 145.000000 -0.246242 0.842729 -0.478719
4770.00000000 1720.00000000 -410.00000000 151 206 77 97.000000 1.000000 4.000000 1.000000 -60.708740 114.000000 145.000000 0.012086 0.871548 -0.490162
4730.00000000 1730.00000000 -360.00000000 151 206 77 97.000000 1.000000 4.000000 1.000000 -60.708740 114.000000 145.000000 0.406306 -0.504211 0.762028
4740.00000000 1730.00000000 -430.00000000 151 206 77 97.000000 1.000000 4.000000 1.000000 -60.708740 114.000000 145.000000 -0.103669 0.951392 -0.290011
4740.00000000 1660.00000000 -370.00000000 151 206 77 97.000000 1.000000 4.000000 1.000000 -60.708740 114.000000 145.000000 -0.369796 0.802025 -0.469049
4720.00000000 1660.00000000 -410.00000000 151 206 77 97.000000 1.000000 4.000000 1.000000 -60.708740 114.000000 145.000000 0.063048 0.916203 -0.395724
4750.00000000 1680.00000000 -480.00000000 151 206 77 97.000000 1.000000 4.000000 1.000000 -60.708740 114.000000 145.000000 0.058007 -0.813509 0.578652
4750.00000000 1720.00000000 -480.00000000 151 206 77 97.000000 1.000000 4.000000 1.000000 -60.708740 114.000000 145.000000 -0.155689 0.977728 0.140743
4700.00000000 1850.00000000 -310.00000000 151 206 77 97.000000 1.000000 4.000000 1.000000 -60.708740 114.000000 145.000000 -0.074005 -0.380788 0.921696
4700.00000000 1940.00000000 -320.00000000 151 206 77 97.000000 1.000000 4.000000 1.000000 -60.708740 114.000000 145.000000 -0.155619 -0.077216 0.984795
4690.00000000 1950.00000000 -320.00000000 151 206 77 97.000000 1.000000 4.000000 1.000000 -60.708740 114.000000 145.000000 0.083333 -0.094749 0.992007
4690.00000000 1770.00000000 -340.00000000 151 206 77 97.000000 1.000000 4.000000 1.000000 -60.708740 114.000000 145.000000 0.040708 0.801521 -0.596579
4700.00000000 1850.00000000 -310.00000000 151 206 77 97.000000 1.000000 4.000000 1.000000 -60.708740 114.000000 145.000000 -0.074005 -0.380788 0.921696
4670.00000000 1840.00000000 -370.00000000 151 206 77 97.000000 1.000000 4.000000 1.000000 -60.708740 114.000000 145.000000 0.004154 -0.671632 0.740873
4640.00000000 1760.00000000 -430.00000000 151 206 77 97.000000 1.000000 4.000000 1.000000 -60.708740 114.000000 145.000000 -0.275846 0.703169 -0.655334
4690.00000000 1750.00000000 -420.00000000 151 206 77 97.000000 1.000000 4.000000 1.000000 -60.708740 114.000000 145.000000 0.038042 -0.632626 0.773523
4690.00000000 1740.00000000 -430.00000000 151 206 77 97.000000 1.000000 4.000000 1.000000 -60.708740 114.000000 145.000000 -0.009735 0.735674 -0.677265
4700.00000000 1740.00000000 -460.00000000 151 206 77 97.000000 1.000000 4.000000 1.000000 -60.708740 114.000000 145.000000 -0.149048 0.958917 -0.241378
4700.00000000 1730.00000000 -440.00000000 151 206 77 97.000000 1.000000 4.000000 1.000000 -60.708740 114.000000 145.000000 -0.247332 0.931383 -0.267119
4650.00000000 1700.00000000 -420.00000000 151 206 77 97.000000 1.000000 4.000000 1.000000 -60.708740 114.000000 145.000000 -0.217306 0.799872 -0.559448
4640.00000000 1700.00000000 -410.00000000 151 206 77 97.000000 1.000000 4.000000 1.000000 -60.708740 114.000000 145.000000 0.090929 0.972812 -0.212997
4560.00000000 1670.00000000 -440.00000000 151 206 77 97.000000 1.000000 4.000000 1.000000 -60.708740 114.000000 145.000000 -0.317587 0.947701 -0.031632
4520.00000000 1710.00000000 -400.00000000 151 206 77 97.000000 1.000000 4.000000 1.000000 -60.708740 114.000000 145.000000 -0.456006 0.838865 -0.297260
4540.00000000 1730.00000000 -410.00000000 151 206 77 97.000000 1.000000 4.000000 1.000000 -60.708740 114.000000 145.000000 0.137370 0.871938 -0.469950
5480.00000000 1520.00000000 -480.00000000 151 206 77 97.000000 1.000000 4.000000 1.000000 -60.708740 114.000000 145.000000 -0.191560 0.960442 -0.202129
5480.00000000 1490.00000000 -510.00000000 151 206 77 97.000000 1.000000 4.000000 1.000000 -60.708740 114.000000 145.000000 0.072666 0.997311 0.009478
5430.00000000 1580.00000000 -420.00000000 151 206 77 97.000000 1.000000 4.000000 1.000000 -60.708740 114.000000 145.000000 0.336435 -0.625737 0.703751
5430.00000000 1580.00000000 -420.00000000 151 206 77 97.000000 1.000000 4.000000 1.000000 -60.708740 114.000000 145.000000 0.336435 -0.625737 0.703751
