//X Y Z R G B PointSourceId ScanDirectionFlag NumberOfReturns ReturnNumber GpsTime Intensity Classification Nx Ny Nz
17110.00000000 -2060.00000000 -860.00000000 178 136 98 97.000000 1.000000 4.000000 1.000000 -60.708740 114.000000 245.000000 -0.123720 -0.148219 0.981185
17060.00000000 -2070.00000000 -750.00000000 178 136 98 97.000000 1.000000 4.000000 1.000000 -60.708740 114.000000 245.000000 -0.042259 -0.220953 0.974368
17060.00000000 -2130.00000000 -760.00000000 178 136 98 97.000000 1.000000 4.000000 1.000000 -60.708740 114.000000 245.000000 -0.174780 -0.293135 0.939959
17060.00000000 -2120.00000000 -760.00000000 178 136 98 97.000000 1.000000 4.000000 1.000000 -60.708740 114.000000 245.000000 -0.371553 -0.444907 0.814866
17050.00000000 -2190.00000000 -750.00000000 178 136 98 97.000000 1.000000 4.000000 1.000000 -60.708740 114.000000 245.000000 -0.282232 0.332473 0.899893
16950.00000000 -2090.00000000 -760.00000000 178 136 98 97.000000 1.000000 4.000000 1.000000 -60.708740 114.000000 245.000000 -0.013141 0.237733 0.971242
16960.00000000 -2060.00000000 -760.00000000 178 136 98 97.000000 1.000000 4.000000 1.000000 -60.708740 114.000000 245.000000 0.120273 -0.239253 0.963479
16980.00000000 -2080.00000000 -800.00000000 178 136 98 97.000000 1.000000 4.000000 1.000000 -60.708740 114.000000 245.000000 -0.119210 -0.306731 0.944302
16920.00000000 -2080.00000000 -790.00000000 178 136 98 97.000000 1.000000 4.000000 1.000000 -60.708740 114.000000 245.000000 0.079083 0.368609 0.926214
16770.00000000 -1780.00000000 -770.00000000 178 136 98 97.000000 1.000000 4.000000 1.000000 -60.708740 114.000000 245.000000 -0.055433 -0.428590 0.901797
16810.00000000 -1840.00000000 -770.00000000 178 136 98 97.000000 1.000000 4.000000 1.000000 -60.708740 114.000000 245.000000 -0.176235 -0.382560 0.906967
16820.00000000 -1830.00000000 -790.00000000 178 136 98 97.000000 1.000000 4.000000 1.000000 -60.708740 114.000000 245.000000 -0.449834 -0.164502 0.877832
16790.00000000 -1840.00000000 -800.00000000 178 136 98 97.000000 1.000000 4.000000 1.000000 -60.708740 114.000000 245.000000 -0.390822 0.196137 0.899327
16790.00000000 -1830.00000000 -800.00000000 178 136 98 97.000000 1.000000 4.000000 1.000000 -60.708740 114.000000 245.000000 -0.393516 0.183064 0.900907
16790.00000000 -1810.00000000 -790.00000000 178 136 98 97.000000 1.000000 4.000000 1.000000 -60.708740 114.000000 245.000000 -0.003890 -0.411062 0.911599
16750.00000000 -1780.00000000 -780.00000000 178 136 98 97.000000 1.000000 4.000000 1.000000 -60.708740 114.000000 245.000000 -0.309706 -0.249205 0.917594
17480.00000000 -2560.00000000 -670.00000000 178 136 98 97.000000 1.000000 4.000000 1.000000 -60.708740 114.000000 118.000000 0.780701 0.482055 -0.397654
17360.00000000 -2480.00000000 -580.00000000 178 136 98 97.000000 1.000000 4.000000 1.000000 -60.708740 114.000000 118.000000 0.659995 0.216878 -0.719285
17400.00000000 -2550.00000000 -660.00000000 178 136 98 97.000000 1.000000 4.000000 1.000000 -60.708740 114.000000 118.000000 -0.385095 -0.360149 0.849703
17380.00000000 -2480.00000000 -610.00000000 178 136 98 97.000000 1.000000 4.000000 1.000000 -60.708740 114.000000 118.000000 0.554237 0.534022 -0.638468
17370.00000000 -2630.00000000 -600.00000000 178 136 98 97.000000 1.000000 4.000000 1.000000 -60.708740 114.000000 118.000000 -0.477058 0.097677 0.873427
17390.00000000 -2570.00000000 -630.00000000 178 136 98 97.000000 1.000000 4.000000 1.000000 -60.708740 114.000000 118.000000 -0.332363 -0.494569 0.803079
17410.00000000 -2570.00000000 -620.00000000 178 136 98 97.000000 1.000000 4.000000 1.000000 -60.708740 114.000000 118.000000 -0.385878 -0.420814 0.820984
17360.00000000 -2680.00000000 -580.00000000 178 136 98 97.000000 1.000000 4.000000 1.000000 -60.708740 114.000000 118.000000 -0.343610 -0.139376 0.928712
17360.00000000 -2680.00000000 -580.00000000 178 136 98 97.000000 1.000000 4.000000 1.000000 -60.708740 114.000000 118.000000 -0.343610 -0.139376 0.928712
17350.00000000 -2700.00000000 -590.00000000 178 136 98 97.000000 1.000000 4.000000 1.000000 -60.708740 114.000000 118.000000 -0.358605 -0.174342 0.917065
17360.00000000 -2690.00000000 -590.00000000 178 136 98 97.000000 1.000000 4.000000 1.000000 -60.708740 114.000000 118.000000 -0.288366 -0.348131 0.891992
17380.00000000 -2700.00000000 -590.00000000 178 136 98 97.000000 1.000000 4.000000 1.000000 -60.708740 114.000000 118.000000 -0.243372 0.003562 0.969926
17380.00000000 -2700.00000000 -590.00000000 178 136 98 97.000000 1.000000 4.000000 1.000000 -60.708740 114.000000 118.000000 -0.243372 0.003562 0.969926
17380.00000000 -2700.00000000 -590.00000000 178 136 98 97.000000 1.000000 4.000000 1.000000 -60.708740 114.000000 118.000000 -0.243372 0.003562 0.969926
17350.00000000 -2710.00000000 -630.00000000 178 136 98 97.000000 1.000000 4.000000 1.000000 -60.708740 114.000000 118.000000 -0.282792 -0.312097 0.906986
17300.00000000 -2430.00000000 -460.00000000 178 136 98 97.000000 1.000000 4.000000 1.000000 -60.708740 114.000000 118.000000 0.698872 0.689615 -0.189760
17300.00000000 -2410.00000000 -460.00000000 178 136 98 97.000000 1.000000 4.000000 1.000000 -60.708740 114.000000 118.000000 0.819719 0.572567 -0.015104
17230.00000000 -2420.00000000 -500.00000000 178 136 98 97.000000 1.000000 4.000000 1.000000 -60.708740 114.000000 118.000000 0.848400 0.437335 -0.298254
17240.00000000 -2470.00000000 -510.00000000 178 136 98 97.000000 1.000000 4.000000 1.000000 -60.708740 114.000000 118.000000 0.595768 0.413221 -0.688701
17240.00000000 -2470.00000000 -510.00000000 178 136 98 97.000000 1.000000 4.000000 1.000000 -60.708740 114.000000 118.000000 0.595768 0.413221 -0.688701
17230.00000000 -2460.00000000 -520.00000000 178 136 98 97.000000 1.000000 4.000000 1.000000 -60.708740 114.000000 118.000000 0.574453 0.645206 -0.503699
17240.00000000 -2450.00000000 -520.00000000 178 136 98 97.000000 1.000000 4.000000 1.000000 -60.708740 114.000000 118.000000 -0.590114 -0.094244 0.801800
17210.00000000 -2430.00000000 -510.00000000 178 136 98 97.000000 1.000000 4.000000 1.000000 -60.708740 114.000000 118.000000 0.736373 0.464990 -0.491467
17180.00000000 -2420.00000000 -500.00000000 178 136 98 97.000000 1.000000 4.000000 1.000000 -60.708740 114.000000 118.000000 0.487973 0.568463 -0.662369
17180.00000000 -2480.00000000 -510.00000000 178 136 98 97.000000 1.000000 4.000000 1.000000 -60.708740 114.000000 118.000000 -0.169809 -0.164702 0.971616
17330.00000000 -2420.00000000 -530.00000000 178 136 98 97.000000 1.000000 4.000000 1.000000 -60.708740 114.000000 118.000000 0.676072 0.442368 -0.589268
17310.00000000 -2450.00000000 -530.00000000 178 136 98 97.000000 1.000000 4.000000 1.000000 -60.708740 114.000000 118.000000 0.658867 0.591806 -0.464392
17340.00000000 -2450.00000000 -540.00000000 178 136 98 97.000000 1.000000 4.000000 1.000000 -60.708740 114.000000 118.000000 -0.526955 -0.437752 0.728486
17280.00000000 -2430.00000000 -530.00000000 178 136 98 97.000000 1.000000 4.000000 1.000000 -60.708740 114.000000 118.000000 0.694928 0.206768 -0.688710
17340.00000000 -2510.00000000 -540.00000000 178 136 98 97.000000 1.000000 4.000000 1.000000 -60.708740 114.000000 118.000000 -0.624386 -0.061438 0.778696
17320.00000000 -2500.00000000 -570.00000000 178 136 98 97.000000 1.000000 4.000000 1.000000 -60.708740 114.000000 118.000000 0.691209 0.487026 -0.533888
17320.00000000 -2510.00000000 -570.00000000 178 136 98 97.000000 1.000000 4.000000 1.000000 -60.708740 114.000000 118.000000 0.386830 0.581068 -0.716047
17320.00000000 -2540.00000000 -570.00000000 178 136 98 97.000000 1.000000 4.000000 1.000000 -60.708740 114.000000 118.000000 0.613818 0.573235 -0.542798
17260.00000000 -2480.00000000 -560.00000000 178 136 98 97.000000 1.000000 4.000000 1.000000 -60.708740 114.000000 118.000000 -0.320884 -0.531613 0.783850
17230.00000000 -2470.00000000 -550.00000000 178 136 98 97.000000 1.000000 4.000000 1.000000 -60.708740 114.000000 118.000000 0.703216 0.405383 -0.584083
17230.00000000 -2440.00000000 -530.00000000 178 136 98 97.000000 1.000000 4.000000 1.000000 -60.708740 114.000000 118.000000 0.631411 0.463928 -0.621362
17200.00000000 -2450.00000000 -540.00000000 178 136 98 97.000000 1.000000 4.000000 1.000000 -60.708740 114.000000 118.000000 0.724889 0.004158 -0.688853
17190.00000000 -2470.00000000 -550.00000000 178 136 98 97.000000 1.000000 4.000000 1.000000 -60.708740 114.000000 118.000000 -0.520873 -0.259659 0.813184
17210.00000000 -2440.00000000 -530.00000000 178 136 98 97.000000 1.000000 4.000000 1.000000 -60.708740 114.000000 118.000000 0.721943 0.083133 -0.686940
17220.00000000 -2400.00000000 -610.00000000 178 136 98 97.000000 1.000000 4.000000 1.000000 -60.708740 114.000000 118.000000 -0.497276 0.056792 0.865732
17230.00000000 -2540.00000000 -580.00000000 178 136 98 97.000000 1.000000 4.000000 1.000000 -60.708740 114.000000 118.000000 -0.326890 -0.433247 0.839905
17230.00000000 -2560.00000000 -580.00000000 178 136 98 97.000000 1.000000 4.000000 1.000000 -60.708740 114.000000 118.000000 -0.504085 -0.273111 0.819334
17320.00000000 -2590.00000000 -560.00000000 178 136 98 97.000000 1.000000 4.000000 1.000000 -60.708740 114.000000 118.000000 0.558877 0.562254 -0.609530
17330.00000000 -2620.00000000 -620.00000000 178 136 98 97.000000 1.000000 4.000000 1.000000 -60.708740 114.000000 118.000000 -0.510373 -0.470474 0.719842
17280.00000000 -2680.00000000 -590.00000000 178 136 98 97.000000 1.000000 4.000000 1.000000 -60.708740 114.000000 118.000000 -0.011407 -0.050814 0.998643
17270.00000000 -2680.00000000 -590.00000000 178 136 98 97.000000 1.000000 4.000000 1.000000 -60.708740 114.000000 118.000000 -0.080373 0.124637 0.988942
17260.00000000 -2680.00000000 -590.00000000 178 136 98 97.000000 1.000000 4.000000 1.000000 -60.708740 114.000000 118.000000 -0.409129 0.092295 0.907797
17280.00000000 -2670.00000000 -580.00000000 178 136 98 97.000000 1.000000 4.000000 1.000000 -60.708740 114.000000 118.000000 0.083504 0.097231 0.991753
17260.00000000 -2710.00000000 -550.00000000 178 136 98 97.000000 1.000000 4.000000 1.000000 -60.708740 114.000000 118.000000 -0.161943 0.149390 0.975427
17260.00000000 -2710.00000000 -550.00000000 178 136 98 97.000000 1.000000 4.000000 1.000000 -60.708740 114.000000 118.000000 -0.161943 0.149390 0.975427
17260.00000000 -2710.00000000 -590.00000000 178 136 98 97.000000 1.000000 4.000000 1.000000 -60.708740 114.000000 118.000000 0.037283 0.129925 0.990823
17290.00000000 -2720.00000000 -600.00000000 178 136 98 97.000000 1.000000 4.000000 1.000000 -60.708740 114.000000 118.000000 -0.095434 0.031811 0.994927
17290.00000000 -2710.00000000 -590.00000000 178 136 98 97.000000 1.000000 4.000000 1.000000 -60.708740 114.000000 118.000000 -0.233859 -0.008310 0.972235
17280.00000000 -2720.00000000 -590.00000000 178 136 98 97.000000 1.000000 4.000000 1.000000 -60.708740 114.000000 118.000000 0.210181 -0.027312 0.977281
17280.00000000 -2700.00000000 -580.00000000 178 136 98 97.000000 1.000000 4.000000 1.000000 -60.708740 114.000000 118.000000 -0.038407 -0.401287 0.915147
17230.00000000 -2600.00000000 -560.00000000 178 136 98 97.000000 1.000000 4.000000 1.000000 -60.708740 114.000000 118.000000 -0.051847 -0.284524 0.957266
17220.00000000 -2600.00000000 -570.00000000 178 136 98 97.000000 1.000000 4.000000 1.000000 -60.708740 114.000000 118.000000 -0.381613 -0.323375 0.865910
17230.00000000 -2600.00000000 -590.00000000 178 136 98 97.000000 1.000000 4.000000 1.000000 -60.708740 114.000000 118.000000 0.134596 -0.281186 0.950168
17240.00000000 -2620.00000000 -560.00000000 178 136 98 97.000000 1.000000 4.000000 1.000000 -60.708740 114.000000 118.000000 -0.098085 -0.161053 0.982060
17250.00000000 -2610.00000000 -600.00000000 178 136 98 97.000000 1.000000 4.000000 1.000000 -60.708740 114.000000 118.000000 -0.219392 0.146694 0.964546
17250.00000000 -2630.00000000 -590.00000000 178 136 98 97.000000 1.000000 4.000000 1.000000 -60.708740 114.000000 118.000000 -0.371295 0.263933 0.890213
17250.00000000 -2620.00000000 -590.00000000 178 136 98 97.000000 1.000000 4.000000 1.000000 -60.708740 114.000000 118.000000 -0.153148 -0.145677 0.977407
17240.00000000 -2640.00000000 -580.00000000 178 136 98 97.000000 1.000000 4.000000 1.000000 -60.708740 114.000000 118.000000 0.136011 0.224094 0.965030
17200.00000000 -2600.00000000 -600.00000000 178 136 98 97.000000 1.000000 4.000000 1.000000 -60.708740 114.000000 118.000000 -0.162714 -0.017068 0.986526
17200.00000000 -2620.00000000 -600.00000000 178 136 98 97.000000 1.000000 4.000000 1.000000 -60.708740 114.000000 118.000000 -0.061015 -0.245305 0.967524
17200.00000000 -2610.00000000 -590.00000000 178 136 98 97.000000 1.000000 4.000000 1.000000 -60.708740 114.000000 118.000000 -0.030330 -0.243851 0.969338
17190.00000000 -2620.00000000 -580.00000000 178 136 98 97.000000 1.000000 4.000000 1.000000 -60.708740 114.000000 118.000000 -0.085577 0.389850 0.916894
17210.00000000 -2630.00000000 -600.00000000 178 136 98 97.000000 1.000000 4.000000 1.000000 -60.708740 114.000000 118.000000 -0.088290 -0.210154 0.973673
17200.00000000 -2610.00000000 -610.00000000 178 136 98 97.000000 1.000000 4.000000 1.000000 -60.708740 114.000000 118.000000 -0.228002 -0.295977 0.927584
17210.00000000 -2640.00000000 -610.00000000 178 136 98 97.000000 1.000000 4.000000 1.000000 -60.708740 114.000000 118.000000 0.191280 0.220708 0.956400
17180.00000000 -2610.00000000 -620.00000000 178 136 98 97.000000 1.000000 4.000000 1.000000 -60.708740 114.000000 118.000000 -0.248859 -0.126384 0.960258
17220.00000000 -2590.00000000 -610.00000000 178 136 98 97.000000 1.000000 4.000000 1.000000 -60.708740 114.000000 118.000000 0.025675 0.027729 0.999286
17220.00000000 -2660.00000000 -570.00000000 178 136 98 97.000000 1.000000 4.000000 1.000000 -60.708740 114.000000 118.000000 -0.199944 -0.098109 0.974883
17230.00000000 -2660.00000000 -570.00000000 178 136 98 97.000000 1.000000 4.000000 1.000000 -60.708740 114.000000 118.000000 -0.232135 0.148199 0.961327
17220.00000000 -2680.00000000 -570.00000000 178 136 98 97.000000 1.000000 4.000000 1.000000 -60.708740 114.000000 118.000000 -0.003774 0.348500 0.937301
17240.00000000 -2720.00000000 -560.00000000 178 136 98 97.000000 1.000000 4.000000 1.000000 -60.708740 114.000000 118.000000 -0.145732 0.274083 0.950600
17220.00000000 -2700.00000000 -570.00000000 178 136 98 97.000000 1.000000 4.000000 1.000000 -60.708740 114.000000 118.000000 0.126374 0.506949 0.852662
17230.00000000 -2690.00000000 -600.00000000 178 136 98 97.000000 1.000000 4.000000 1.000000 -60.708740 114.000000 118.000000 0.322831 0.162108 0.932470
17210.00000000 -2650.00000000 -600.00000000 178 136 98 97.000000 1.000000 4.000000 1.000000 -60.708740 114.000000 118.000000 0.338433 0.236758 0.910719
17180.00000000 -2660.00000000 -600.00000000 178 136 98 97.000000 1.000000 4.000000 1.000000 -60.708740 114.000000 118.000000 0.040089 0.529449 0.847394
17180.00000000 -2660.00000000 -600.00000000 178 136 98 97.000000 1.000000 4.000000 1.000000 -60.708740 114.000000 118.000000 0.040089 0.529449 0.847394
17180.00000000 -2650.00000000 -600.00000000 178 136 98 97.000000 1.000000 4.000000 1.000000 -60.708740 114.000000 118.000000 0.124404 0.395578 0.909968
17200.00000000 -2700.00000000 -570.00000000 178 136 98 97.000000 1.000000 4.000000 1.000000 -60.708740 114.000000 118.000000 -0.031583 -0.011207 0.999438
17200.00000000 -2720.00000000 -590.00000000 178 136 98 97.000000 1.000000 4.000000 1.000000 -60.708740 114.000000 118.000000 0.119537 0.131612 0.984068
17180.00000000 -2690.00000000 -570.00000000 178 136 98 97.000000 1.000000 4.000000 1.000000 -60.708740 114.000000 118.000000 -0.000978 -0.000978 0.999999
17190.00000000 -2700.00000000 -570.00000000 178 136 98 97.000000 1.000000 4.000000 1.000000 -60.708740 114.000000 118.000000 -0.032939 0.058441 0.997747
17210.00000000 -2650.00000000 -610.00000000 178 136 98 97.000000 1.000000 4.000000 1.000000 -60.708740 114.000000 118.000000 0.248941 0.123819 0.960571
17360.00000000 -3020.00000000 -350.00000000 178 136 98 97.000000 1.000000 4.000000 1.000000 -60.708740 114.000000 118.000000 0.832992 0.502852 -0.230792
17220.00000000 -3030.00000000 -340.00000000 178 136 98 97.000000 1.000000 4.000000 1.000000 -60.708740 114.000000 118.000000 0.782092 0.622596 -0.026583
17200.00000000 -3000.00000000 -340.00000000 178 136 98 97.000000 1.000000 4.000000 1.000000 -60.708740 114.000000 118.000000 0.872721 0.486368 -0.042472
17180.00000000 -2990.00000000 -350.00000000 178 136 98 97.000000 1.000000 4.000000 1.000000 -60.708740 114.000000 118.000000 0.647521 0.744573 -0.162259
17390.00000000 -2810.00000000 -510.00000000 178 136 98 97.000000 1.000000 4.000000 1.000000 -60.708740 114.000000 118.000000 -0.215667 -0.123785 0.968589
17400.00000000 -2800.00000000 -510.00000000 178 136 98 97.000000 1.000000 4.000000 1.000000 -60.708740 114.000000 118.000000 -0.339238 -0.207551 0.917518
17460.00000000 -2780.00000000 -570.00000000 178 136 98 97.000000 1.000000 4.000000 1.000000 -60.708740 114.000000 118.000000 -0.607000 -0.188063 0.772129
17350.00000000 -2750.00000000 -540.00000000 178 136 98 97.000000 1.000000 4.000000 1.000000 -60.708740 114.000000 118.000000 -0.332034 0.018937 0.943077
17350.00000000 -2750.00000000 -580.00000000 178 136 98 97.000000 1.000000 4.000000 1.000000 -60.708740 114.000000 118.000000 -0.226108 -0.207153 0.951821
17370.00000000 -2760.00000000 -580.00000000 178 136 98 97.000000 1.000000 4.000000 1.000000 -60.708740 114.000000 118.000000 -0.094890 -0.152544 0.983731
17370.00000000 -2790.00000000 -540.00000000 178 136 98 97.000000 1.000000 4.000000 1.000000 -60.708740 114.000000 118.000000 -0.044148 -0.009240 0.998982
17360.00000000 -2790.00000000 -530.00000000 178 136 98 97.000000 1.000000 4.000000 1.000000 -60.708740 114.000000 118.000000 -0.298792 -0.028754 0.953885
17360.00000000 -2780.00000000 -530.00000000 178 136 98 97.000000 1.000000 4.000000 1.000000 -60.708740 114.000000 118.000000 -0.106050 0.099058 0.989414
17390.00000000 -2790.00000000 -630.00000000 178 136 98 97.000000 1.000000 4.000000 1.000000 -60.708740 114.000000 118.000000 -0.295390 -0.224723 0.928571
17350.00000000 -2760.00000000 -640.00000000 178 136 98 97.000000 1.000000 4.000000 1.000000 -60.708740 114.000000 118.000000 -0.161033 -0.119238 0.979720
17390.00000000 -2740.00000000 -610.00000000 178 136 98 97.000000 1.000000 4.000000 1.000000 -60.708740 114.000000 118.000000 -0.391098 -0.375391 0.840311
17370.00000000 -2770.00000000 -630.00000000 178 136 98 97.000000 1.000000 4.000000 1.000000 -60.708740 114.000000 118.000000 -0.514584 -0.248793 0.820552
17360.00000000 -2740.00000000 -620.00000000 178 136 98 97.000000 1.000000 4.000000 1.000000 -60.708740 114.000000 118.000000 -0.145912 -0.457961 0.876916
17420.00000000 -2840.00000000 -560.00000000 178 136 98 97.000000 1.000000 4.000000 1.000000 -60.708740 114.000000 118.000000 -0.045790 -0.047920 0.997801
17400.00000000 -2830.00000000 -570.00000000 178 136 98 97.000000 1.000000 4.000000 1.000000 -60.708740 114.000000 118.000000 0.681368 0.213610 -0.700078
17410.00000000 -2860.00000000 -560.00000000 178 136 98 97.000000 1.000000 4.000000 1.000000 -60.708740 114.000000 118.000000 -0.112396 -0.470926 0.874983
17370.00000000 -2850.00000000 -550.00000000 178 136 98 97.000000 1.000000 4.000000 1.000000 -60.708740 114.000000 118.000000 -0.379344 0.093816 0.920487
17350.00000000 -2830.00000000 -550.00000000 178 136 98 97.000000 1.000000 4.000000 1.000000 -60.708740 114.000000 118.000000 -0.459072 -0.197594 0.866146
17370.00000000 -2830.00000000 -550.00000000 178 136 98 97.000000 1.000000 4.000000 1.000000 -60.708740 114.000000 118.000000 -0.251712 -0.066372 0.965524
17350.00000000 -2870.00000000 -540.00000000 178 136 98 97.000000 1.000000 4.000000 1.000000 -60.708740 114.000000 118.000000 0.006277 -0.340224 0.940324
17350.00000000 -2860.00000000 -540.00000000 178 136 98 97.000000 1.000000 4.000000 1.000000 -60.708740 114.000000 118.000000 -0.057337 -0.390695 0.918733
17350.00000000 -2860.00000000 -560.00000000 178 136 98 97.000000 1.000000 4.000000 1.000000 -60.708740 114.000000 118.000000 -0.155256 0.095079 0.983288
17350.00000000 -3040.00000000 -370.00000000 178 136 98 97.000000 1.000000 4.000000 1.000000 -60.708740 114.000000 118.000000 0.861688 0.292331 -0.414773
17400.00000000 -3050.00000000 -520.00000000 178 136 98 97.000000 1.000000 4.000000 1.000000 -60.708740 114.000000 118.000000 -0.009026 0.393281 0.919374
17370.00000000 -3040.00000000 -360.00000000 178 136 98 97.000000 1.000000 4.000000 1.000000 -60.708740 114.000000 118.000000 0.518461 0.596145 -0.613033
17350.00000000 -3020.00000000 -360.00000000 178 136 98 97.000000 1.000000 4.000000 1.000000 -60.708740 114.000000 118.000000 0.612138 0.642325 -0.461200
17350.00000000 -3040.00000000 -370.00000000 178 136 98 97.000000 1.000000 4.000000 1.000000 -60.708740 114.000000 118.000000 0.861688 0.292331 -0.414773
17390.00000000 -2910.00000000 -570.00000000 178 136 98 97.000000 1.000000 4.000000 1.000000 -60.708740 114.000000 118.000000 0.140221 -0.178118 0.973967
17350.00000000 -2930.00000000 -540.00000000 178 136 98 97.000000 1.000000 4.000000 1.000000 -60.708740 114.000000 118.000000 0.204700 0.207376 0.956605
17350.00000000 -2970.00000000 -560.00000000 178 136 98 97.000000 1.000000 4.000000 1.000000 -60.708740 114.000000 118.000000 0.297829 0.502685 0.811545
17370.00000000 -2960.00000000 -540.00000000 178 136 98 97.000000 1.000000 4.000000 1.000000 -60.708740 114.000000 118.000000 -0.102613 0.224228 0.969119
17350.00000000 -2940.00000000 -540.00000000 178 136 98 97.000000 1.000000 4.000000 1.000000 -60.708740 114.000000 118.000000 0.075119 -0.163354 0.983703
17380.00000000 -2970.00000000 -550.00000000 178 136 98 97.000000 1.000000 4.000000 1.000000 -60.708740 114.000000 118.000000 -0.168191 0.451923 0.876058
17360.00000000 -2950.00000000 -570.00000000 178 136 98 97.000000 1.000000 4.000000 1.000000 -60.708740 114.000000 118.000000 0.060046 -0.158945 0.985460
17390.00000000 -2920.00000000 -610.00000000 178 136 98 97.000000 1.000000 4.000000 1.000000 -60.708740 114.000000 118.000000 -0.393127 -0.139497 0.908841
17350.00000000 -3060.00000000 -560.00000000 178 136 98 97.000000 1.000000 4.000000 1.000000 -60.708740 114.000000 118.000000 0.602320 0.445483 0.662386
17190.00000000 -2890.00000000 -500.00000000 178 136 98 97.000000 1.000000 4.000000 1.000000 -60.708740 114.000000 118.000000 0.681905 0.615861 0.394614
17200.00000000 -2890.00000000 -470.00000000 178 136 98 97.000000 1.000000 4.000000 1.000000 -60.708740 114.000000 118.000000 0.537354 0.777960 0.325620
17230.00000000 -2890.00000000 -520.00000000 178 136 98 97.000000 1.000000 4.000000 1.000000 -60.708740 114.000000 118.000000 0.623411 0.148717 0.767621
17180.00000000 -2830.00000000 -520.00000000 178 136 98 97.000000 1.000000 4.000000 1.000000 -60.708740 114.000000 118.000000 0.330382 0.251789 0.909643
17340.00000000 -2770.00000000 -580.00000000 178 136 98 97.000000 1.000000 4.000000 1.000000 -60.708740 114.000000 118.000000 -0.397378 0.155248 0.904427
17330.00000000 -2750.00000000 -570.00000000 178 136 98 97.000000 1.000000 4.000000 1.000000 -60.708740 114.000000 118.000000 -0.331884 -0.072149 0.940557
17340.00000000 -2760.00000000 -580.00000000 178 136 98 97.000000 1.000000 4.000000 1.000000 -60.708740 114.000000 118.000000 -0.586380 -0.015177 0.809894
17310.00000000 -2760.00000000 -570.00000000 178 136 98 97.000000 1.000000 4.000000 1.000000 -60.708740 114.000000 118.000000 -0.117650 0.241764 0.963176
17320.00000000 -2790.00000000 -530.00000000 178 136 98 97.000000 1.000000 4.000000 1.000000 -60.708740 114.000000 118.000000 -0.461426 -0.006611 0.887154
17310.00000000 -2790.00000000 -550.00000000 178 136 98 97.000000 1.000000 4.000000 1.000000 -60.708740 114.000000 118.000000 -0.095142 0.344386 0.933995
17310.00000000 -2790.00000000 -570.00000000 178 136 98 97.000000 1.000000 4.000000 1.000000 -60.708740 114.000000 118.000000 0.239260 0.032792 0.970402
17270.00000000 -2760.00000000 -530.00000000 178 136 98 97.000000 1.000000 4.000000 1.000000 -60.708740 114.000000 118.000000 0.230020 0.367738 0.901032
17300.00000000 -2760.00000000 -560.00000000 178 136 98 97.000000 1.000000 4.000000 1.000000 -60.708740 114.000000 118.000000 -0.242016 0.256006 0.935890
17260.00000000 -2740.00000000 -550.00000000 178 136 98 97.000000 1.000000 4.000000 1.000000 -60.708740 114.000000 118.000000 0.011857 0.436081 0.899829
17300.00000000 -2770.00000000 -600.00000000 178 136 98 97.000000 1.000000 4.000000 1.000000 -60.708740 114.000000 118.000000 -0.094228 0.325154 0.940955
17260.00000000 -2750.00000000 -590.00000000 178 136 98 97.000000 1.000000 4.000000 1.000000 -60.708740 114.000000 118.000000 0.003158 0.078950 0.996874
17300.00000000 -2760.00000000 -570.00000000 178 136 98 97.000000 1.000000 4.000000 1.000000 -60.708740 114.000000 118.000000 -0.486415 0.050984 0.872239
17270.00000000 -2740.00000000 -590.00000000 178 136 98 97.000000 1.000000 4.000000 1.000000 -60.708740 114.000000 118.000000 0.256477 0.061304 0.964604
17300.00000000 -2810.00000000 -550.00000000 178 136 98 97.000000 1.000000 4.000000 1.000000 -60.708740 114.000000 118.000000 -0.179147 0.021960 0.983577
17260.00000000 -2800.00000000 -550.00000000 178 136 98 97.000000 1.000000 4.000000 1.000000 -60.708740 114.000000 118.000000 0.176442 0.249174 0.952250
17300.00000000 -2790.00000000 -540.00000000 178 136 98 97.000000 1.000000 4.000000 1.000000 -60.708740 114.000000 118.000000 -0.127144 0.034880 0.991271
17300.00000000 -2810.00000000 -550.00000000 178 136 98 97.000000 1.000000 4.000000 1.000000 -60.708740 114.000000 118.000000 -0.179147 0.021960 0.983577
17270.00000000 -2780.00000000 -600.00000000 178 136 98 97.000000 1.000000 4.000000 1.000000 -60.708740 114.000000 118.000000 -0.215226 -0.024971 0.976245
17320.00000000 -2730.00000000 -640.00000000 178 136 98 97.000000 1.000000 4.000000 1.000000 -60.708740 114.000000 118.000000 -0.418466 0.063650 0.905999
17330.00000000 -2850.00000000 -540.00000000 178 136 98 97.000000 1.000000 4.000000 1.000000 -60.708740 114.000000 118.000000 -0.150112 0.371774 0.916106
17320.00000000 -2840.00000000 -560.00000000 178 136 98 97.000000 1.000000 4.000000 1.000000 -60.708740 114.000000 118.000000 -0.304116 0.232727 0.923770
17330.00000000 -2860.00000000 -550.00000000 178 136 98 97.000000 1.000000 4.000000 1.000000 -60.708740 114.000000 118.000000 -0.103701 -0.018557 0.994435
17260.00000000 -2850.00000000 -560.00000000 178 136 98 97.000000 1.000000 4.000000 1.000000 -60.708740 114.000000 118.000000 0.238732 -0.117430 0.963959
17260.00000000 -2820.00000000 -550.00000000 178 136 98 97.000000 1.000000 4.000000 1.000000 -60.708740 114.000000 118.000000 0.111099 -0.127823 0.985555
17260.00000000 -2830.00000000 -590.00000000 178 136 98 97.000000 1.000000 4.000000 1.000000 -60.708740 114.000000 118.000000 0.547575 0.216269 0.808325
17290.00000000 -2860.00000000 -550.00000000 178 136 98 97.000000 1.000000 4.000000 1.000000 -60.708740 114.000000 118.000000 0.113796 -0.023201 0.993233
17290.00000000 -2890.00000000 -550.00000000 178 136 98 97.000000 1.000000 4.000000 1.000000 -60.708740 114.000000 118.000000 0.239836 0.619184 0.747723
17290.00000000 -2890.00000000 -550.00000000 178 136 98 97.000000 1.000000 4.000000 1.000000 -60.708740 114.000000 118.000000 0.239836 0.619184 0.747723
17260.00000000 -2880.00000000 -550.00000000 178 136 98 97.000000 1.000000 4.000000 1.000000 -60.708740 114.000000 118.000000 0.520855 0.299214 0.799488
17290.00000000 -2890.00000000 -550.00000000 178 136 98 97.000000 1.000000 4.000000 1.000000 -60.708740 114.000000 118.000000 0.239836 0.619184 0.747723
17270.00000000 -2870.00000000 -560.00000000 178 136 98 97.000000 1.000000 4.000000 1.000000 -60.708740 114.000000 118.000000 0.053339 0.251810 0.966306
17260.00000000 -2870.00000000 -550.00000000 178 136 98 97.000000 1.000000 4.000000 1.000000 -60.708740 114.000000 118.000000 0.197560 0.408292 0.891217
17280.00000000 -2880.00000000 -630.00000000 178 136 98 97.000000 1.000000 4.000000 1.000000 -60.708740 114.000000 118.000000 0.178711 0.245896 0.952679
17270.00000000 -2830.00000000 -630.00000000 178 136 98 97.000000 1.000000 4.000000 1.000000 -60.708740 114.000000 118.000000 -0.175040 -0.078466 0.981430
17240.00000000 -2790.00000000 -540.00000000 178 136 98 97.000000 1.000000 4.000000 1.000000 -60.708740 114.000000 118.000000 0.243130 0.111917 0.963516
17220.00000000 -2810.00000000 -550.00000000 178 136 98 97.000000 1.000000 4.000000 1.000000 -60.708740 114.000000 118.000000 0.322965 0.563983 0.760011
17200.00000000 -2750.00000000 -550.00000000 178 136 98 97.000000 1.000000 4.000000 1.000000 -60.708740 114.000000 118.000000 0.237634 0.416980 0.877302
17210.00000000 -2760.00000000 -580.00000000 178 136 98 97.000000 1.000000 4.000000 1.000000 -60.708740 114.000000 118.000000 0.515585 0.045615 0.855623
17210.00000000 -2780.00000000 -530.00000000 178 136 98 97.000000 1.000000 4.000000 1.000000 -60.708740 114.000000 118.000000 0.148684 0.062049 0.986936
17190.00000000 -2780.00000000 -540.00000000 178 136 98 97.000000 1.000000 4.000000 1.000000 -60.708740 114.000000 118.000000 0.201514 0.311431 0.928656
17180.00000000 -2800.00000000 -560.00000000 178 136 98 97.000000 1.000000 4.000000 1.000000 -60.708740 114.000000 118.000000 0.383161 0.182253 0.905523
17200.00000000 -2810.00000000 -600.00000000 178 136 98 97.000000 1.000000 4.000000 1.000000 -60.708740 114.000000 118.000000 0.114930 0.112560 0.986976
17210.00000000 -2810.00000000 -610.00000000 178 136 98 97.000000 1.000000 4.000000 1.000000 -60.708740 114.000000 118.000000 0.155508 0.035709 0.987189
17210.00000000 -2790.00000000 -640.00000000 178 136 98 97.000000 1.000000 4.000000 1.000000 -60.708740 114.000000 118.000000 0.442159 -0.073004 0.893961
17230.00000000 -2830.00000000 -550.00000000 178 136 98 97.000000 1.000000 4.000000 1.000000 -60.708740 114.000000 118.000000 0.431387 0.634589 0.641251
17240.00000000 -2850.00000000 -530.00000000 178 136 98 97.000000 1.000000 4.000000 1.000000 -60.708740 114.000000 118.000000 0.486338 0.077085 0.870364
17240.00000000 -2830.00000000 -550.00000000 178 136 98 97.000000 1.000000 4.000000 1.000000 -60.708740 114.000000 118.000000 0.312006 0.369842 0.875140
17250.00000000 -2840.00000000 -560.00000000 178 136 98 97.000000 1.000000 4.000000 1.000000 -60.708740 114.000000 118.000000 0.373734 0.093773 0.922783
17250.00000000 -2830.00000000 -550.00000000 178 136 98 97.000000 1.000000 4.000000 1.000000 -60.708740 114.000000 118.000000 0.145266 0.231640 0.961894
17240.00000000 -2890.00000000 -530.00000000 178 136 98 97.000000 1.000000 4.000000 1.000000 -60.708740 114.000000 118.000000 0.495380 0.012082 0.868593
17250.00000000 -2870.00000000 -550.00000000 178 136 98 97.000000 1.000000 4.000000 1.000000 -60.708740 114.000000 118.000000 0.667500 0.272416 0.692989
17250.00000000 -2870.00000000 -540.00000000 178 136 98 97.000000 1.000000 4.000000 1.000000 -60.708740 114.000000 118.000000 0.521071 0.517720 0.678565
17240.00000000 -2890.00000000 -530.00000000 178 136 98 97.000000 1.000000 4.000000 1.000000 -60.708740 114.000000 118.000000 0.495380 0.012082 0.868593
17240.00000000 -2870.00000000 -530.00000000 178 136 98 97.000000 1.000000 4.000000 1.000000 -60.708740 114.000000 118.000000 0.505259 0.213938 0.836029
17240.00000000 -2880.00000000 -540.00000000 178 136 98 97.000000 1.000000 4.000000 1.000000 -60.708740 114.000000 118.000000 0.532310 0.292218 0.794516
17180.00000000 -2820.00000000 -560.00000000 178 136 98 97.000000 1.000000 4.000000 1.000000 -60.708740 114.000000 118.000000 0.401866 0.312563 0.860702
17180.00000000 -2870.00000000 -610.00000000 178 136 98 97.000000 1.000000 4.000000 1.000000 -60.708740 114.000000 118.000000 0.741929 0.070866 0.666723
17180.00000000 -2820.00000000 -610.00000000 178 136 98 97.000000 1.000000 4.000000 1.000000 -60.708740 114.000000 118.000000 -0.013940 0.343439 0.939071
17210.00000000 -2820.00000000 -640.00000000 178 136 98 97.000000 1.000000 4.000000 1.000000 -60.708740 114.000000 118.000000 0.203059 0.330858 0.921575
17180.00000000 -2890.00000000 -610.00000000 178 136 98 97.000000 1.000000 4.000000 1.000000 -60.708740 114.000000 118.000000 0.760192 0.316613 0.567331
17320.00000000 -2980.00000000 -370.00000000 178 136 98 97.000000 1.000000 4.000000 1.000000 -60.708740 114.000000 118.000000 0.700263 0.496368 -0.513080
17300.00000000 -2930.00000000 -520.00000000 178 136 98 97.000000 1.000000 4.000000 1.000000 -60.708740 114.000000 118.000000 0.702398 0.279999 0.654398
17290.00000000 -2950.00000000 -500.00000000 178 136 98 97.000000 1.000000 4.000000 1.000000 -60.708740 114.000000 118.000000 0.250896 0.642232 0.724286
17300.00000000 -3060.00000000 -470.00000000 178 136 98 97.000000 1.000000 4.000000 1.000000 -60.708740 114.000000 118.000000 0.622032 0.524260 0.581574
17290.00000000 -3060.00000000 -510.00000000 178 136 98 97.000000 1.000000 4.000000 1.000000 -60.708740 114.000000 118.000000 0.628760 0.568076 0.530990
17300.00000000 -3040.00000000 -520.00000000 178 136 98 97.000000 1.000000 4.000000 1.000000 -60.708740 114.000000 118.000000 0.409073 0.233543 0.882109
17240.00000000 -2930.00000000 -430.00000000 178 136 98 97.000000 1.000000 4.000000 1.000000 -60.708740 114.000000 118.000000 0.774951 0.314774 0.548058
17200.00000000 -2930.00000000 -380.00000000 178 136 98 97.000000 1.000000 4.000000 1.000000 -60.708740 114.000000 118.000000 0.872502 0.334638 -0.356030
17200.00000000 -2930.00000000 -380.00000000 178 136 98 97.000000 1.000000 4.000000 1.000000 -60.708740 114.000000 118.000000 0.872502 0.334638 -0.356030
17180.00000000 -2920.00000000 -410.00000000 178 136 98 97.000000 1.000000 4.000000 1.000000 -60.708740 114.000000 118.000000 0.852830 0.479811 0.206063
17190.00000000 -2920.00000000 -430.00000000 178 136 98 97.000000 1.000000 4.000000 1.000000 -60.708740 114.000000 118.000000 0.616984 0.783814 -0.070471
17220.00000000 -2970.00000000 -470.00000000 178 136 98 97.000000 1.000000 4.000000 1.000000 -60.708740 114.000000 118.000000 0.779362 0.228675 0.583355
17180.00000000 -2910.00000000 -480.00000000 178 136 98 97.000000 1.000000 4.000000 1.000000 -60.708740 114.000000 118.000000 0.646057 0.247997 0.721878
17180.00000000 -2980.00000000 -450.00000000 178 136 98 97.000000 1.000000 4.000000 1.000000 -60.708740 114.000000 118.000000 0.838268 0.543553 -0.043095
17180.00000000 -2980.00000000 -470.00000000 178 136 98 97.000000 1.000000 4.000000 1.000000 -60.708740 114.000000 118.000000 0.805847 0.480317 0.346275
17210.00000000 -2960.00000000 -460.00000000 178 136 98 97.000000 1.000000 4.000000 1.000000 -60.708740 114.000000 118.000000 0.811095 0.189508 0.553364
17180.00000000 -2970.00000000 -480.00000000 178 136 98 97.000000 1.000000 4.000000 1.000000 -60.708740 114.000000 118.000000 0.586820 0.423907 0.689888
17180.00000000 -2970.00000000 -480.00000000 178 136 98 97.000000 1.000000 4.000000 1.000000 -60.708740 114.000000 118.000000 0.586820 0.423907 0.689888
17200.00000000 -2950.00000000 -510.00000000 178 136 98 97.000000 1.000000 4.000000 1.000000 -60.708740 114.000000 118.000000 0.904573 0.367347 0.216343
17190.00000000 -2940.00000000 -520.00000000 178 136 98 97.000000 1.000000 4.000000 1.000000 -60.708740 114.000000 118.000000 0.650499 0.566455 0.505944
17180.00000000 -2940.00000000 -520.00000000 178 136 98 97.000000 1.000000 4.000000 1.000000 -60.708740 114.000000 118.000000 0.696445 0.146541 0.702488
17200.00000000 -2960.00000000 -490.00000000 178 136 98 97.000000 1.000000 4.000000 1.000000 -60.708740 114.000000 118.000000 0.616777 0.489052 0.616777
17180.00000000 -2940.00000000 -510.00000000 178 136 98 97.000000 1.000000 4.000000 1.000000 -60.708740 114.000000 118.000000 0.506900 0.450761 0.734757
17200.00000000 -2960.00000000 -510.00000000 178 136 98 97.000000 1.000000 4.000000 1.000000 -60.708740 114.000000 118.000000 0.836368 0.456343 0.303709
17230.00000000 -3000.00000000 -430.00000000 178 136 98 97.000000 1.000000 4.000000 1.000000 -60.708740 114.000000 118.000000 0.825271 0.536652 -0.175877
17240.00000000 -3040.00000000 -430.00000000 178 136 98 97.000000 1.000000 4.000000 1.000000 -60.708740 114.000000 118.000000 0.737490 0.626945 0.251094
17240.00000000 -3040.00000000 -420.00000000 178 136 98 97.000000 1.000000 4.000000 1.000000 -60.708740 114.000000 118.000000 0.799797 0.568237 0.193475
17190.00000000 -3020.00000000 -440.00000000 178 136 98 97.000000 1.000000 4.000000 1.000000 -60.708740 114.000000 118.000000 0.757472 0.515343 0.400822
17240.00000000 -3000.00000000 -450.00000000 178 136 98 97.000000 1.000000 4.000000 1.000000 -60.708740 114.000000 118.000000 0.723020 0.589188 0.360694
17240.00000000 -3010.00000000 -480.00000000 178 136 98 97.000000 1.000000 4.000000 1.000000 -60.708740 114.000000 118.000000 0.708587 0.376488 0.596792
17220.00000000 -3020.00000000 -460.00000000 178 136 98 97.000000 1.000000 4.000000 1.000000 -60.708740 114.000000 118.000000 0.511478 0.672468 0.534956
17230.00000000 -3030.00000000 -460.00000000 178 136 98 97.000000 1.000000 4.000000 1.000000 -60.708740 114.000000 118.000000 0.627517 0.708592 0.322677
17230.00000000 -3030.00000000 -510.00000000 178 136 98 97.000000 1.000000 4.000000 1.000000 -60.708740 114.000000 118.000000 0.446277 0.769950 0.456085
17200.00000000 -3010.00000000 -480.00000000 178 136 98 97.000000 1.000000 4.000000 1.000000 -60.708740 114.000000 118.000000 0.478214 0.711490 0.514872
17180.00000000 -2990.00000000 -480.00000000 178 136 98 97.000000 1.000000 4.000000 1.000000 -60.708740 114.000000 118.000000 0.886054 0.461401 0.044915
17210.00000000 -3020.00000000 -490.00000000 178 136 98 97.000000 1.000000 4.000000 1.000000 -60.708740 114.000000 118.000000 0.800953 0.390043 0.454248
17210.00000000 -3030.00000000 -480.00000000 178 136 98 97.000000 1.000000 4.000000 1.000000 -60.708740 114.000000 118.000000 0.576143 0.566005 0.589659
17330.00000000 -2900.00000000 -540.00000000 178 136 98 97.000000 1.000000 4.000000 1.000000 -60.708740 114.000000 118.000000 0.252085 0.361175 0.897778
17320.00000000 -2900.00000000 -540.00000000 178 136 98 97.000000 1.000000 4.000000 1.000000 -60.708740 114.000000 118.000000 0.191280 0.220708 0.956400
17340.00000000 -2920.00000000 -550.00000000 178 136 98 97.000000 1.000000 4.000000 1.000000 -60.708740 114.000000 118.000000 -0.033826 0.472214 0.880835
17320.00000000 -2920.00000000 -540.00000000 178 136 98 97.000000 1.000000 4.000000 1.000000 -60.708740 114.000000 118.000000 -0.052498 -0.048212 0.997457
17340.00000000 -2910.00000000 -530.00000000 178 136 98 97.000000 1.000000 4.000000 1.000000 -60.708740 114.000000 118.000000 0.125915 0.242743 0.961884
17330.00000000 -2930.00000000 -600.00000000 178 136 98 97.000000 1.000000 4.000000 1.000000 -60.708740 114.000000 118.000000 0.029911 0.373242 0.927252
17320.00000000 -2940.00000000 -530.00000000 178 136 98 97.000000 1.000000 4.000000 1.000000 -60.708740 114.000000 118.000000 -0.113428 0.362151 0.925192
17310.00000000 -2950.00000000 -590.00000000 178 136 98 97.000000 1.000000 4.000000 1.000000 -60.708740 114.000000 118.000000 0.525583 0.288834 0.800211
17300.00000000 -2900.00000000 -550.00000000 178 136 98 97.000000 1.000000 4.000000 1.000000 -60.708740 114.000000 118.000000 0.514477 0.174475 0.839567
17300.00000000 -2900.00000000 -550.00000000 178 136 98 97.000000 1.000000 4.000000 1.000000 -60.708740 114.000000 118.000000 0.514477 0.174475 0.839567
17270.00000000 -2910.00000000 -530.00000000 178 136 98 97.000000 1.000000 4.000000 1.000000 -60.708740 114.000000 118.000000 0.463577 -0.011955 0.885976
17260.00000000 -2970.00000000 -550.00000000 178 136 98 97.000000 1.000000 4.000000 1.000000 -60.708740 114.000000 118.000000 0.364269 0.246287 0.898137
17330.00000000 -2950.00000000 -630.00000000 178 136 98 97.000000 1.000000 4.000000 1.000000 -60.708740 114.000000 118.000000 0.171359 0.093579 0.980754
17330.00000000 -2920.00000000 -630.00000000 178 136 98 97.000000 1.000000 4.000000 1.000000 -60.708740 114.000000 118.000000 0.229763 0.173983 0.957569
17330.00000000 -3010.00000000 -560.00000000 178 136 98 97.000000 1.000000 4.000000 1.000000 -60.708740 114.000000 118.000000 0.196652 0.095234 0.975837
17320.00000000 -3000.00000000 -550.00000000 178 136 98 97.000000 1.000000 4.000000 1.000000 -60.708740 114.000000 118.000000 0.388693 -0.071283 0.918606
17330.00000000 -3040.00000000 -560.00000000 178 136 98 97.000000 1.000000 4.000000 1.000000 -60.708740 114.000000 118.000000 0.289159 0.417674 0.861357
17330.00000000 -3060.00000000 -580.00000000 178 136 98 97.000000 1.000000 4.000000 1.000000 -60.708740 114.000000 118.000000 0.490296 0.543844 0.681060
17330.00000000 -3060.00000000 -580.00000000 178 136 98 97.000000 1.000000 4.000000 1.000000 -60.708740 114.000000 118.000000 0.490296 0.543844 0.681060
17300.00000000 -2990.00000000 -560.00000000 178 136 98 97.000000 1.000000 4.000000 1.000000 -60.708740 114.000000 118.000000 0.386665 0.082760 0.918499
17300.00000000 -3020.00000000 -530.00000000 178 136 98 97.000000 1.000000 4.000000 1.000000 -60.708740 114.000000 118.000000 0.402863 0.554142 0.728442
17270.00000000 -2990.00000000 -530.00000000 178 136 98 97.000000 1.000000 4.000000 1.000000 -60.708740 114.000000 118.000000 0.588841 0.672247 0.448721
17270.00000000 -3050.00000000 -560.00000000 178 136 98 97.000000 1.000000 4.000000 1.000000 -60.708740 114.000000 118.000000 0.607193 0.542922 0.580131
17260.00000000 -3030.00000000 -540.00000000 178 136 98 97.000000 1.000000 4.000000 1.000000 -60.708740 114.000000 118.000000 0.567650 0.690835 0.447794
17260.00000000 -3040.00000000 -620.00000000 178 136 98 97.000000 1.000000 4.000000 1.000000 -60.708740 114.000000 118.000000 0.617108 0.542717 0.569768
17250.00000000 -2900.00000000 -540.00000000 178 136 98 97.000000 1.000000 4.000000 1.000000 -60.708740 114.000000 118.000000 0.056561 0.356465 0.932595
17230.00000000 -2980.00000000 -580.00000000 178 136 98 97.000000 1.000000 4.000000 1.000000 -60.708740 114.000000 118.000000 0.672495 0.315991 0.669254
17180.00000000 -2900.00000000 -550.00000000 178 136 98 97.000000 1.000000 4.000000 1.000000 -60.708740 114.000000 118.000000 0.699300 0.133271 0.702295
17180.00000000 -2900.00000000 -550.00000000 178 136 98 97.000000 1.000000 4.000000 1.000000 -60.708740 114.000000 118.000000 0.699300 0.133271 0.702295
17210.00000000 -2950.00000000 -530.00000000 178 136 98 97.000000 1.000000 4.000000 1.000000 -60.708740 114.000000 118.000000 0.339955 0.373797 0.862964
17200.00000000 -2940.00000000 -610.00000000 178 136 98 97.000000 1.000000 4.000000 1.000000 -60.708740 114.000000 118.000000 0.591141 0.405685 0.697116
17250.00000000 -3050.00000000 -530.00000000 178 136 98 97.000000 1.000000 4.000000 1.000000 -60.708740 114.000000 118.000000 0.297770 0.645437 0.703381
17220.00000000 -3030.00000000 -530.00000000 178 136 98 97.000000 1.000000 4.000000 1.000000 -60.708740 114.000000 118.000000 0.415784 0.310679 0.854753
17240.00000000 -3010.00000000 -530.00000000 178 136 98 97.000000 1.000000 4.000000 1.000000 -60.708740 114.000000 118.000000 0.676159 0.244300 0.695073
17250.00000000 -3060.00000000 -560.00000000 178 136 98 97.000000 1.000000 4.000000 1.000000 -60.708740 114.000000 118.000000 0.609410 0.018046 0.792650
17250.00000000 -3030.00000000 -540.00000000 178 136 98 97.000000 1.000000 4.000000 1.000000 -60.708740 114.000000 118.000000 0.621865 0.275148 0.733197
17240.00000000 -3010.00000000 -530.00000000 178 136 98 97.000000 1.000000 4.000000 1.000000 -60.708740 114.000000 118.000000 0.676159 0.244300 0.695073
17540.00000000 -3020.00000000 -730.00000000 178 136 98 97.000000 1.000000 4.000000 1.000000 -60.708740 114.000000 118.000000 -0.231613 0.113887 0.966119
17470.00000000 -3050.00000000 -770.00000000 178 136 98 97.000000 1.000000 4.000000 1.000000 -60.708740 114.000000 118.000000 -0.011768 0.417121 0.908775
17480.00000000 -3060.00000000 -810.00000000 178 136 98 97.000000 1.000000 4.000000 1.000000 -60.708740 114.000000 118.000000 -0.106495 -0.165250 0.980485
17440.00000000 -3020.00000000 -800.00000000 178 136 98 97.000000 1.000000 4.000000 1.000000 -60.708740 114.000000 118.000000 -0.236547 0.371717 0.897704
17460.00000000 -3020.00000000 -800.00000000 178 136 98 97.000000 1.000000 4.000000 1.000000 -60.708740 114.000000 118.000000 -0.300137 -0.314922 0.900412
17400.00000000 -3040.00000000 -770.00000000 178 136 98 97.000000 1.000000 4.000000 1.000000 -60.708740 114.000000 118.000000 0.074030 -0.242165 0.967407
17280.00000000 -3060.00000000 -720.00000000 178 136 98 97.000000 1.000000 4.000000 1.000000 -60.708740 114.000000 118.000000 0.357064 0.452281 0.817280
17300.00000000 -3030.00000000 -810.00000000 178 136 98 97.000000 1.000000 4.000000 1.000000 -60.708740 114.000000 118.000000 0.530607 0.284985 0.798273
17300.00000000 -3020.00000000 -810.00000000 178 136 98 97.000000 1.000000 4.000000 1.000000 -60.708740 114.000000 118.000000 0.336269 0.279977 0.899186
17300.00000000 -3030.00000000 -810.00000000 178 136 98 97.000000 1.000000 4.000000 1.000000 -60.708740 114.000000 118.000000 0.530607 0.284985 0.798273
17750.00000000 -3180.00000000 -260.00000000 178 136 98 97.000000 1.000000 4.000000 1.000000 -60.708740 114.000000 118.000000 0.511771 0.432784 0.742151
17750.00000000 -3190.00000000 -240.00000000 178 136 98 97.000000 1.000000 4.000000 1.000000 -60.708740 114.000000 118.000000 0.414069 0.345318 0.842201
17760.00000000 -3190.00000000 -260.00000000 178 136 98 97.000000 1.000000 4.000000 1.000000 -60.708740 114.000000 118.000000 0.577331 0.415215 0.703054
17720.00000000 -3190.00000000 -240.00000000 178 136 98 97.000000 1.000000 4.000000 1.000000 -60.708740 114.000000 118.000000 0.340719 0.557099 0.757332
17720.00000000 -3200.00000000 -240.00000000 178 136 98 97.000000 1.000000 4.000000 1.000000 -60.708740 114.000000 118.000000 0.546737 0.186284 0.816319
17680.00000000 -3220.00000000 -260.00000000 178 136 98 97.000000 1.000000 4.000000 1.000000 -60.708740 114.000000 118.000000 0.712784 0.064799 0.698384
17720.00000000 -3200.00000000 -240.00000000 178 136 98 97.000000 1.000000 4.000000 1.000000 -60.708740 114.000000 118.000000 0.546737 0.186284 0.816319
17760.00000000 -3160.00000000 -280.00000000 178 136 98 97.000000 1.000000 4.000000 1.000000 -60.708740 114.000000 118.000000 0.564446 0.441234 0.697649
17770.00000000 -3290.00000000 -120.00000000 178 136 98 97.000000 1.000000 4.000000 1.000000 -60.708740 114.000000 118.000000 0.479588 0.466403 0.743279
17770.00000000 -3290.00000000 -170.00000000 178 136 98 97.000000 1.000000 4.000000 1.000000 -60.708740 114.000000 118.000000 0.164805 0.322685 0.932048
17790.00000000 -3310.00000000 -170.00000000 178 136 98 97.000000 1.000000 4.000000 1.000000 -60.708740 114.000000 118.000000 0.231291 0.296563 0.926582
17840.00000000 -3320.00000000 -80.00000000 178 136 98 97.000000 1.000000 4.000000 1.000000 -60.708740 114.000000 118.000000 0.137633 0.557930 0.818396
17810.00000000 -3360.00000000 -100.00000000 178 136 98 97.000000 1.000000 4.000000 1.000000 -60.708740 114.000000 118.000000 0.468116 0.256313 0.845678
17830.00000000 -3380.00000000 -50.00000000 178 136 98 97.000000 1.000000 4.000000 1.000000 -60.708740 114.000000 118.000000 0.257311 0.617230 0.743518
17830.00000000 -3370.00000000 -100.00000000 178 136 98 97.000000 1.000000 4.000000 1.000000 -60.708740 114.000000 118.000000 0.071619 0.247526 0.966231
17840.00000000 -3390.00000000 -90.00000000 178 136 98 97.000000 1.000000 4.000000 1.000000 -60.708740 114.000000 118.000000 0.237958 0.558346 0.794749
17790.00000000 -3350.00000000 -70.00000000 178 136 98 97.000000 1.000000 4.000000 1.000000 -60.708740 114.000000 118.000000 0.333574 0.200145 0.921233
17790.00000000 -3380.00000000 -100.00000000 178 136 98 97.000000 1.000000 4.000000 1.000000 -60.708740 114.000000 118.000000 0.681355 0.351298 0.642141
17840.00000000 -3340.00000000 -110.00000000 178 136 98 97.000000 1.000000 4.000000 1.000000 -60.708740 114.000000 118.000000 0.439250 0.011872 0.898286
17840.00000000 -3340.00000000 -110.00000000 178 136 98 97.000000 1.000000 4.000000 1.000000 -60.708740 114.000000 118.000000 0.439250 0.011872 0.898286
