//X Y Z R G B PointSourceId ScanDirectionFlag NumberOfReturns ReturnNumber GpsTime Intensity Classification Nx Ny Nz
1020.00000000 6060.00000000 70.00000000 177 97 118 97.000000 1.000000 4.000000 1.000000 -60.708740 114.000000 149.000000 0.596711 0.446279 0.666912
1040.00000000 6110.00000000 20.00000000 177 97 118 97.000000 1.000000 4.000000 1.000000 -60.708740 114.000000 149.000000 0.927881 0.370367 0.043188
1010.00000000 6050.00000000 20.00000000 177 97 118 97.000000 1.000000 4.000000 1.000000 -60.708740 114.000000 149.000000 0.577091 0.727494 0.371104
1050.00000000 6010.00000000 30.00000000 177 97 118 97.000000 1.000000 4.000000 1.000000 -60.708740 114.000000 149.000000 0.846683 0.357073 0.394495
1030.00000000 5900.00000000 0.00000000 177 97 118 97.000000 1.000000 4.000000 1.000000 -60.708740 114.000000 149.000000 0.814866 0.403446 0.416203
1010.00000000 5750.00000000 170.00000000 177 97 118 97.000000 1.000000 4.000000 1.000000 -60.708740 114.000000 149.000000 0.326130 -0.085824 0.941421
1090.00000000 5760.00000000 120.00000000 177 97 118 97.000000 1.000000 4.000000 1.000000 -60.708740 114.000000 149.000000 0.636623 0.123169 0.761276
1070.00000000 5740.00000000 140.00000000 177 97 118 97.000000 1.000000 4.000000 1.000000 -60.708740 114.000000 149.000000 0.561852 0.458484 0.688560
1030.00000000 5700.00000000 0.00000000 177 97 118 97.000000 1.000000 4.000000 1.000000 -60.708740 114.000000 149.000000 0.594400 -0.015170 0.804026
1040.00000000 5710.00000000 20.00000000 177 97 118 97.000000 1.000000 4.000000 1.000000 -60.708740 114.000000 149.000000 0.594709 0.513842 0.618295
1020.00000000 5740.00000000 0.00000000 177 97 118 97.000000 1.000000 4.000000 1.000000 -60.708740 114.000000 149.000000 0.593606 -0.006855 0.804727
1030.00000000 5710.00000000 0.00000000 177 97 118 97.000000 1.000000 4.000000 1.000000 -60.708740 114.000000 149.000000 0.814696 0.212463 0.539564
670.00000000 7000.00000000 10.00000000 177 97 118 97.000000 1.000000 4.000000 1.000000 -60.708740 114.000000 149.000000 0.729835 0.666371 -0.152616
670.00000000 7000.00000000 20.00000000 177 97 118 97.000000 1.000000 4.000000 1.000000 -60.708740 114.000000 149.000000 0.885505 0.461229 -0.056114
720.00000000 6900.00000000 30.00000000 177 97 118 97.000000 1.000000 4.000000 1.000000 -60.708740 114.000000 149.000000 0.974192 0.224814 0.020221
800.00000000 6570.00000000 -10.00000000 177 97 118 97.000000 1.000000 4.000000 1.000000 -60.708740 114.000000 149.000000 0.838009 0.283467 0.466249
670.00000000 6680.00000000 60.00000000 177 97 118 97.000000 1.000000 4.000000 1.000000 -60.708740 114.000000 149.000000 0.769969 0.343823 0.537526
680.00000000 6680.00000000 0.00000000 177 97 118 97.000000 1.000000 4.000000 1.000000 -60.708740 114.000000 149.000000 0.796406 0.360546 0.485535
710.00000000 6600.00000000 0.00000000 177 97 118 97.000000 1.000000 4.000000 1.000000 -60.708740 114.000000 149.000000 0.932289 0.197081 0.303308
690.00000000 6610.00000000 50.00000000 177 97 118 97.000000 1.000000 4.000000 1.000000 -60.708740 114.000000 149.000000 0.440931 0.687186 0.577369
700.00000000 6590.00000000 -10.00000000 177 97 118 97.000000 1.000000 4.000000 1.000000 -60.708740 114.000000 149.000000 0.701428 0.401052 0.589200
700.00000000 6600.00000000 -10.00000000 177 97 118 97.000000 1.000000 4.000000 1.000000 -60.708740 114.000000 149.000000 0.817774 0.205586 0.537569
410.00000000 6710.00000000 320.00000000 177 97 118 97.000000 1.000000 4.000000 1.000000 -60.708740 114.000000 149.000000 0.057866 0.230234 0.971413
380.00000000 6710.00000000 330.00000000 177 97 118 97.000000 1.000000 4.000000 1.000000 -60.708740 114.000000 149.000000 0.018580 0.296036 0.954996
340.00000000 6710.00000000 320.00000000 177 97 118 97.000000 1.000000 4.000000 1.000000 -60.708740 114.000000 149.000000 0.042819 0.153918 0.987155
610.00000000 7010.00000000 0.00000000 177 97 118 97.000000 1.000000 4.000000 1.000000 -60.708740 114.000000 149.000000 0.730127 0.670157 0.133432
610.00000000 6750.00000000 180.00000000 177 97 118 97.000000 1.000000 4.000000 1.000000 -60.708740 114.000000 149.000000 0.759850 0.397083 0.514737
590.00000000 6740.00000000 200.00000000 177 97 118 97.000000 1.000000 4.000000 1.000000 -60.708740 114.000000 149.000000 0.725318 0.567426 0.389797
520.00000000 6790.00000000 170.00000000 177 97 118 97.000000 1.000000 4.000000 1.000000 -60.708740 114.000000 149.000000 0.383887 0.703519 0.598073
530.00000000 6710.00000000 260.00000000 177 97 118 97.000000 1.000000 4.000000 1.000000 -60.708740 114.000000 149.000000 0.643790 0.392232 0.657030
540.00000000 6710.00000000 250.00000000 177 97 118 97.000000 1.000000 4.000000 1.000000 -60.708740 114.000000 149.000000 0.767091 0.475956 0.430160
530.00000000 6770.00000000 200.00000000 177 97 118 97.000000 1.000000 4.000000 1.000000 -60.708740 114.000000 149.000000 0.578922 0.662823 0.474884
530.00000000 6710.00000000 200.00000000 177 97 118 97.000000 1.000000 4.000000 1.000000 -60.708740 114.000000 149.000000 0.695510 0.319383 0.643630
520.00000000 6710.00000000 150.00000000 177 97 118 97.000000 1.000000 4.000000 1.000000 -60.708740 114.000000 149.000000 0.804026 0.015170 0.594400
510.00000000 6730.00000000 150.00000000 177 97 118 97.000000 1.000000 4.000000 1.000000 -60.708740 114.000000 149.000000 0.799887 0.026431 0.599568
600.00000000 6740.00000000 100.00000000 177 97 118 97.000000 1.000000 4.000000 1.000000 -60.708740 114.000000 149.000000 0.736778 0.346432 0.580640
630.00000000 6710.00000000 30.00000000 177 97 118 97.000000 1.000000 4.000000 1.000000 -60.708740 114.000000 149.000000 0.646502 0.471863 0.599484
580.00000000 6810.00000000 70.00000000 177 97 118 97.000000 1.000000 4.000000 1.000000 -60.708740 114.000000 149.000000 0.944790 0.318424 0.077313
580.00000000 6760.00000000 130.00000000 177 97 118 97.000000 1.000000 4.000000 1.000000 -60.708740 114.000000 149.000000 0.920483 0.116952 0.372871
420.00000000 7020.00000000 200.00000000 177 97 118 97.000000 1.000000 4.000000 1.000000 -60.708740 114.000000 149.000000 0.588354 0.338749 0.734227
420.00000000 7040.00000000 200.00000000 177 97 118 97.000000 1.000000 4.000000 1.000000 -60.708740 114.000000 149.000000 0.588092 0.187884 0.786669
420.00000000 7030.00000000 200.00000000 177 97 118 97.000000 1.000000 4.000000 1.000000 -60.708740 114.000000 149.000000 0.647701 0.212794 0.731575
430.00000000 7010.00000000 190.00000000 177 97 118 97.000000 1.000000 4.000000 1.000000 -60.708740 114.000000 149.000000 0.669148 0.179154 0.721210
480.00000000 6890.00000000 160.00000000 177 97 118 97.000000 1.000000 4.000000 1.000000 -60.708740 114.000000 149.000000 0.829510 0.081381 0.552531
480.00000000 6880.00000000 190.00000000 177 97 118 97.000000 1.000000 4.000000 1.000000 -60.708740 114.000000 149.000000 0.810737 0.216094 0.544067
420.00000000 6950.00000000 200.00000000 177 97 118 97.000000 1.000000 4.000000 1.000000 -60.708740 114.000000 149.000000 0.858367 0.208225 0.468881
360.00000000 7040.00000000 240.00000000 177 97 118 97.000000 1.000000 4.000000 1.000000 -60.708740 114.000000 149.000000 0.430188 0.132038 0.893031
350.00000000 7010.00000000 240.00000000 177 97 118 97.000000 1.000000 4.000000 1.000000 -60.708740 114.000000 149.000000 0.779708 0.177828 0.600360
360.00000000 7040.00000000 240.00000000 177 97 118 97.000000 1.000000 4.000000 1.000000 -60.708740 114.000000 149.000000 0.430188 0.132038 0.893031
350.00000000 6970.00000000 270.00000000 177 97 118 97.000000 1.000000 4.000000 1.000000 -60.708740 114.000000 149.000000 0.549857 0.017826 0.835069
390.00000000 6960.00000000 230.00000000 177 97 118 97.000000 1.000000 4.000000 1.000000 -60.708740 114.000000 149.000000 0.749604 0.113845 0.652022
370.00000000 7010.00000000 220.00000000 177 97 118 97.000000 1.000000 4.000000 1.000000 -60.708740 114.000000 149.000000 0.666770 0.319595 0.673259
340.00000000 7040.00000000 220.00000000 177 97 118 97.000000 1.000000 4.000000 1.000000 -60.708740 114.000000 149.000000 0.559212 0.031915 0.828410
340.00000000 6940.00000000 280.00000000 177 97 118 97.000000 1.000000 4.000000 1.000000 -60.708740 114.000000 149.000000 0.265181 0.147915 0.952786
340.00000000 6940.00000000 280.00000000 177 97 118 97.000000 1.000000 4.000000 1.000000 -60.708740 114.000000 149.000000 0.265181 0.147915 0.952786
360.00000000 6940.00000000 250.00000000 177 97 118 97.000000 1.000000 4.000000 1.000000 -60.708740 114.000000 149.000000 0.798223 0.091267 0.595408
490.00000000 6850.00000000 190.00000000 177 97 118 97.000000 1.000000 4.000000 1.000000 -60.708740 114.000000 149.000000 0.749019 0.029511 0.661891
470.00000000 6870.00000000 160.00000000 177 97 118 97.000000 1.000000 4.000000 1.000000 -60.708740 114.000000 149.000000 0.789070 0.241234 0.564955
460.00000000 6870.00000000 170.00000000 177 97 118 97.000000 1.000000 4.000000 1.000000 -60.708740 114.000000 149.000000 0.716748 0.009742 0.697264
430.00000000 6820.00000000 220.00000000 177 97 118 97.000000 1.000000 4.000000 1.000000 -60.708740 114.000000 149.000000 0.787434 0.164742 0.593976
420.00000000 6820.00000000 230.00000000 177 97 118 97.000000 1.000000 4.000000 1.000000 -60.708740 114.000000 149.000000 0.657267 0.526150 0.539598
420.00000000 6820.00000000 230.00000000 177 97 118 97.000000 1.000000 4.000000 1.000000 -60.708740 114.000000 149.000000 0.657267 0.526150 0.539598
420.00000000 6740.00000000 280.00000000 177 97 118 97.000000 1.000000 4.000000 1.000000 -60.708740 114.000000 149.000000 0.477491 0.441392 0.759720
450.00000000 6740.00000000 290.00000000 177 97 118 97.000000 1.000000 4.000000 1.000000 -60.708740 114.000000 149.000000 0.251212 0.491636 0.833778
440.00000000 6750.00000000 200.00000000 177 97 118 97.000000 1.000000 4.000000 1.000000 -60.708740 114.000000 149.000000 0.790005 0.073388 0.608692
400.00000000 6790.00000000 300.00000000 177 97 118 97.000000 1.000000 4.000000 1.000000 -60.708740 114.000000 149.000000 0.670035 0.392095 0.630329
390.00000000 6810.00000000 260.00000000 177 97 118 97.000000 1.000000 4.000000 1.000000 -60.708740 114.000000 149.000000 0.629029 0.474707 0.615610
370.00000000 6870.00000000 230.00000000 177 97 118 97.000000 1.000000 4.000000 1.000000 -60.708740 114.000000 149.000000 0.412140 -0.035781 0.910418
400.00000000 6730.00000000 310.00000000 177 97 118 97.000000 1.000000 4.000000 1.000000 -60.708740 114.000000 149.000000 0.401045 0.528725 0.748072
400.00000000 6730.00000000 310.00000000 177 97 118 97.000000 1.000000 4.000000 1.000000 -60.708740 114.000000 149.000000 0.401045 0.528725 0.748072
370.00000000 6760.00000000 300.00000000 177 97 118 97.000000 1.000000 4.000000 1.000000 -60.708740 114.000000 149.000000 0.362376 0.467737 0.806167
430.00000000 6680.00000000 360.00000000 177 97 118 97.000000 1.000000 4.000000 1.000000 -60.708740 114.000000 149.000000 0.356817 0.344566 0.868306
420.00000000 6690.00000000 340.00000000 177 97 118 97.000000 1.000000 4.000000 1.000000 -60.708740 114.000000 149.000000 0.587385 0.411997 0.696589
360.00000000 6670.00000000 330.00000000 177 97 118 97.000000 1.000000 4.000000 1.000000 -60.708740 114.000000 149.000000 -0.046574 0.283223 0.957923
350.00000000 6690.00000000 320.00000000 177 97 118 97.000000 1.000000 4.000000 1.000000 -60.708740 114.000000 149.000000 0.158413 0.221255 0.962264
340.00000000 6660.00000000 340.00000000 177 97 118 97.000000 1.000000 4.000000 1.000000 -60.708740 114.000000 149.000000 0.065516 0.299316 0.951902
350.00000000 6660.00000000 340.00000000 177 97 118 97.000000 1.000000 4.000000 1.000000 -60.708740 114.000000 149.000000 0.024630 0.073889 0.996962
500.00000000 6680.00000000 200.00000000 177 97 118 97.000000 1.000000 4.000000 1.000000 -60.708740 114.000000 149.000000 0.551990 0.333125 0.764418
500.00000000 6680.00000000 200.00000000 177 97 118 97.000000 1.000000 4.000000 1.000000 -60.708740 114.000000 149.000000 0.551990 0.333125 0.764418
540.00000000 6690.00000000 160.00000000 177 97 118 97.000000 1.000000 4.000000 1.000000 -60.708740 114.000000 149.000000 0.762424 0.348028 0.545514
520.00000000 6660.00000000 150.00000000 177 97 118 97.000000 1.000000 4.000000 1.000000 -60.708740 114.000000 149.000000 0.808532 0.193378 0.555771
660.00000000 6630.00000000 70.00000000 177 97 118 97.000000 1.000000 4.000000 1.000000 -60.708740 114.000000 149.000000 0.753514 0.448168 0.481001
590.00000000 6650.00000000 110.00000000 177 97 118 97.000000 1.000000 4.000000 1.000000 -60.708740 114.000000 149.000000 0.673971 0.280154 0.683576
600.00000000 6630.00000000 110.00000000 177 97 118 97.000000 1.000000 4.000000 1.000000 -60.708740 114.000000 149.000000 0.659786 0.061810 0.748907
600.00000000 6640.00000000 100.00000000 177 97 118 97.000000 1.000000 4.000000 1.000000 -60.708740 114.000000 149.000000 0.820079 0.235407 0.521588
650.00000000 6690.00000000 20.00000000 177 97 118 97.000000 1.000000 4.000000 1.000000 -60.708740 114.000000 149.000000 0.813336 0.328188 0.480392
620.00000000 6680.00000000 50.00000000 177 97 118 97.000000 1.000000 4.000000 1.000000 -60.708740 114.000000 149.000000 0.673712 0.515784 0.529225
630.00000000 6570.00000000 90.00000000 177 97 118 97.000000 1.000000 4.000000 1.000000 -60.708740 114.000000 149.000000 0.798318 0.417706 0.433833
590.00000000 6560.00000000 110.00000000 177 97 118 97.000000 1.000000 4.000000 1.000000 -60.708740 114.000000 149.000000 0.494004 0.186557 0.849209
620.00000000 6560.00000000 110.00000000 177 97 118 97.000000 1.000000 4.000000 1.000000 -60.708740 114.000000 149.000000 0.567064 0.374229 0.733751
590.00000000 6570.00000000 140.00000000 177 97 118 97.000000 1.000000 4.000000 1.000000 -60.708740 114.000000 149.000000 0.431127 0.044321 0.901202
580.00000000 6640.00000000 130.00000000 177 97 118 97.000000 1.000000 4.000000 1.000000 -60.708740 114.000000 149.000000 0.685276 0.279542 0.672497
550.00000000 6630.00000000 130.00000000 177 97 118 97.000000 1.000000 4.000000 1.000000 -60.708740 114.000000 149.000000 0.370994 0.233154 0.898890
540.00000000 6620.00000000 140.00000000 177 97 118 97.000000 1.000000 4.000000 1.000000 -60.708740 114.000000 149.000000 0.563250 0.156873 0.811259
550.00000000 6590.00000000 140.00000000 177 97 118 97.000000 1.000000 4.000000 1.000000 -60.708740 114.000000 149.000000 0.426405 0.297098 0.854349
550.00000000 6590.00000000 130.00000000 177 97 118 97.000000 1.000000 4.000000 1.000000 -60.708740 114.000000 149.000000 0.357867 0.288989 0.887928
570.00000000 6590.00000000 130.00000000 177 97 118 97.000000 1.000000 4.000000 1.000000 -60.708740 114.000000 149.000000 0.401855 0.398678 0.824359
560.00000000 6580.00000000 140.00000000 177 97 118 97.000000 1.000000 4.000000 1.000000 -60.708740 114.000000 149.000000 0.471378 0.131179 0.872121
560.00000000 6610.00000000 110.00000000 177 97 118 97.000000 1.000000 4.000000 1.000000 -60.708740 114.000000 149.000000 0.744111 0.278842 0.607080
560.00000000 6600.00000000 130.00000000 177 97 118 97.000000 1.000000 4.000000 1.000000 -60.708740 114.000000 149.000000 0.508282 0.461924 0.726826
570.00000000 6580.00000000 100.00000000 177 97 118 97.000000 1.000000 4.000000 1.000000 -60.708740 114.000000 149.000000 0.845288 0.226118 0.484106
570.00000000 6550.00000000 130.00000000 177 97 118 97.000000 1.000000 4.000000 1.000000 -60.708740 114.000000 149.000000 0.684625 0.004149 0.728884
580.00000000 6540.00000000 90.00000000 177 97 118 97.000000 1.000000 4.000000 1.000000 -60.708740 114.000000 149.000000 0.570894 0.316806 0.757439
530.00000000 6540.00000000 140.00000000 177 97 118 97.000000 1.000000 4.000000 1.000000 -60.708740 114.000000 149.000000 0.209229 0.299100 0.931001
530.00000000 6560.00000000 130.00000000 177 97 118 97.000000 1.000000 4.000000 1.000000 -60.708740 114.000000 149.000000 0.323939 0.309011 0.894190
530.00000000 6560.00000000 130.00000000 177 97 118 97.000000 1.000000 4.000000 1.000000 -60.708740 114.000000 149.000000 0.323939 0.309011 0.894190
540.00000000 6570.00000000 100.00000000 177 97 118 97.000000 1.000000 4.000000 1.000000 -60.708740 114.000000 149.000000 0.297829 0.401687 0.865994
540.00000000 6570.00000000 100.00000000 177 97 118 97.000000 1.000000 4.000000 1.000000 -60.708740 114.000000 149.000000 0.297829 0.401687 0.865994
550.00000000 6430.00000000 150.00000000 177 97 118 97.000000 1.000000 4.000000 1.000000 -60.708740 114.000000 149.000000 0.215358 -0.039703 0.975728
610.00000000 6400.00000000 150.00000000 177 97 118 97.000000 1.000000 4.000000 1.000000 -60.708740 114.000000 149.000000 0.727868 0.364752 0.580659
640.00000000 6530.00000000 100.00000000 177 97 118 97.000000 1.000000 4.000000 1.000000 -60.708740 114.000000 149.000000 0.492473 0.113427 0.862905
630.00000000 6480.00000000 70.00000000 177 97 118 97.000000 1.000000 4.000000 1.000000 -60.708740 114.000000 149.000000 0.745659 0.338054 0.574206
630.00000000 6470.00000000 100.00000000 177 97 118 97.000000 1.000000 4.000000 1.000000 -60.708740 114.000000 149.000000 0.357194 0.488539 0.796079
630.00000000 6480.00000000 60.00000000 177 97 118 97.000000 1.000000 4.000000 1.000000 -60.708740 114.000000 149.000000 0.827412 0.393931 0.400259
610.00000000 6500.00000000 30.00000000 177 97 118 97.000000 1.000000 4.000000 1.000000 -60.708740 114.000000 149.000000 0.731689 0.110862 0.672563
610.00000000 6500.00000000 30.00000000 177 97 118 97.000000 1.000000 4.000000 1.000000 -60.708740 114.000000 149.000000 0.731689 0.110862 0.672563
610.00000000 6480.00000000 40.00000000 177 97 118 97.000000 1.000000 4.000000 1.000000 -60.708740 114.000000 149.000000 0.461236 0.500913 0.732357
640.00000000 6410.00000000 100.00000000 177 97 118 97.000000 1.000000 4.000000 1.000000 -60.708740 114.000000 149.000000 0.286282 0.615746 0.734097
620.00000000 6440.00000000 130.00000000 177 97 118 97.000000 1.000000 4.000000 1.000000 -60.708740 114.000000 149.000000 0.464162 0.665244 0.584811
620.00000000 6420.00000000 140.00000000 177 97 118 97.000000 1.000000 4.000000 1.000000 -60.708740 114.000000 149.000000 0.499538 0.095353 0.861028
660.00000000 6430.00000000 60.00000000 177 97 118 97.000000 1.000000 4.000000 1.000000 -60.708740 114.000000 149.000000 0.634444 0.600786 0.486351
660.00000000 6410.00000000 60.00000000 177 97 118 97.000000 1.000000 4.000000 1.000000 -60.708740 114.000000 149.000000 0.448016 0.729059 0.517450
590.00000000 6440.00000000 30.00000000 177 97 118 97.000000 1.000000 4.000000 1.000000 -60.708740 114.000000 149.000000 0.622665 0.713235 0.321845
610.00000000 6440.00000000 -10.00000000 177 97 118 97.000000 1.000000 4.000000 1.000000 -60.708740 114.000000 149.000000 0.414116 0.643626 0.643626
570.00000000 6520.00000000 130.00000000 177 97 118 97.000000 1.000000 4.000000 1.000000 -60.708740 114.000000 149.000000 0.643203 0.219592 0.733532
580.00000000 6530.00000000 100.00000000 177 97 118 97.000000 1.000000 4.000000 1.000000 -60.708740 114.000000 149.000000 0.748628 0.505118 0.429433
580.00000000 6530.00000000 100.00000000 177 97 118 97.000000 1.000000 4.000000 1.000000 -60.708740 114.000000 149.000000 0.748628 0.505118 0.429433
550.00000000 6490.00000000 130.00000000 177 97 118 97.000000 1.000000 4.000000 1.000000 -60.708740 114.000000 149.000000 0.426629 0.049796 0.903055
570.00000000 6470.00000000 100.00000000 177 97 118 97.000000 1.000000 4.000000 1.000000 -60.708740 114.000000 149.000000 0.467048 0.201443 0.860980
520.00000000 6530.00000000 140.00000000 177 97 118 97.000000 1.000000 4.000000 1.000000 -60.708740 114.000000 149.000000 0.318017 0.254124 0.913393
530.00000000 6530.00000000 110.00000000 177 97 118 97.000000 1.000000 4.000000 1.000000 -60.708740 114.000000 149.000000 0.850053 0.203110 0.485959
520.00000000 6520.00000000 140.00000000 177 97 118 97.000000 1.000000 4.000000 1.000000 -60.708740 114.000000 149.000000 0.738157 0.139814 0.659982
510.00000000 6470.00000000 110.00000000 177 97 118 97.000000 1.000000 4.000000 1.000000 -60.708740 114.000000 149.000000 0.395639 -0.161398 0.904113
540.00000000 6480.00000000 140.00000000 177 97 118 97.000000 1.000000 4.000000 1.000000 -60.708740 114.000000 149.000000 0.769414 0.201991 0.605972
580.00000000 6510.00000000 60.00000000 177 97 118 97.000000 1.000000 4.000000 1.000000 -60.708740 114.000000 149.000000 0.451219 0.177842 0.874513
580.00000000 6470.00000000 30.00000000 177 97 118 97.000000 1.000000 4.000000 1.000000 -60.708740 114.000000 149.000000 0.316035 0.569505 0.758805
570.00000000 6460.00000000 40.00000000 177 97 118 97.000000 1.000000 4.000000 1.000000 -60.708740 114.000000 149.000000 0.756048 0.573056 0.316224
580.00000000 6490.00000000 50.00000000 177 97 118 97.000000 1.000000 4.000000 1.000000 -60.708740 114.000000 149.000000 0.637730 0.597346 0.486290
550.00000000 6470.00000000 60.00000000 177 97 118 97.000000 1.000000 4.000000 1.000000 -60.708740 114.000000 149.000000 0.341819 0.338781 0.876577
480.00000000 6680.00000000 310.00000000 177 97 118 97.000000 1.000000 4.000000 1.000000 -60.708740 114.000000 149.000000 0.552146 0.429447 0.714640
470.00000000 6670.00000000 190.00000000 177 97 118 97.000000 1.000000 4.000000 1.000000 -60.708740 114.000000 149.000000 0.544642 0.179536 0.819226
470.00000000 6620.00000000 160.00000000 177 97 118 97.000000 1.000000 4.000000 1.000000 -60.708740 114.000000 149.000000 0.306205 0.163401 0.937837
470.00000000 6620.00000000 160.00000000 177 97 118 97.000000 1.000000 4.000000 1.000000 -60.708740 114.000000 149.000000 0.306205 0.163401 0.937837
420.00000000 6620.00000000 160.00000000 177 97 118 97.000000 1.000000 4.000000 1.000000 -60.708740 114.000000 149.000000 0.163456 0.385188 0.908247
450.00000000 6550.00000000 160.00000000 177 97 118 97.000000 1.000000 4.000000 1.000000 -60.708740 114.000000 149.000000 0.583203 0.058178 0.810241
430.00000000 6540.00000000 190.00000000 177 97 118 97.000000 1.000000 4.000000 1.000000 -60.708740 114.000000 149.000000 0.459207 0.248674 0.852813
410.00000000 6650.00000000 160.00000000 177 97 118 97.000000 1.000000 4.000000 1.000000 -60.708740 114.000000 149.000000 0.149379 0.408302 0.900542
390.00000000 6620.00000000 180.00000000 177 97 118 97.000000 1.000000 4.000000 1.000000 -60.708740 114.000000 149.000000 0.523654 0.146033 0.839322
410.00000000 6640.00000000 160.00000000 177 97 118 97.000000 1.000000 4.000000 1.000000 -60.708740 114.000000 149.000000 0.220764 0.027446 0.974941
370.00000000 6670.00000000 160.00000000 177 97 118 97.000000 1.000000 4.000000 1.000000 -60.708740 114.000000 149.000000 0.333720 0.379857 0.862751
380.00000000 6590.00000000 170.00000000 177 97 118 97.000000 1.000000 4.000000 1.000000 -60.708740 114.000000 149.000000 0.479602 -0.172657 0.860332
400.00000000 6550.00000000 220.00000000 177 97 118 97.000000 1.000000 4.000000 1.000000 -60.708740 114.000000 149.000000 -0.021805 0.166407 0.985816
360.00000000 6590.00000000 220.00000000 177 97 118 97.000000 1.000000 4.000000 1.000000 -60.708740 114.000000 149.000000 -0.019015 0.007006 0.999795
360.00000000 6610.00000000 180.00000000 177 97 118 97.000000 1.000000 4.000000 1.000000 -60.708740 114.000000 149.000000 0.559071 0.220240 0.799333
490.00000000 6650.00000000 140.00000000 177 97 118 97.000000 1.000000 4.000000 1.000000 -60.708740 114.000000 149.000000 0.704371 0.527862 0.474576
490.00000000 6580.00000000 130.00000000 177 97 118 97.000000 1.000000 4.000000 1.000000 -60.708740 114.000000 149.000000 0.439529 -0.108127 0.891697
490.00000000 6560.00000000 130.00000000 177 97 118 97.000000 1.000000 4.000000 1.000000 -60.708740 114.000000 149.000000 0.623965 -0.120050 0.772176
480.00000000 6560.00000000 140.00000000 177 97 118 97.000000 1.000000 4.000000 1.000000 -60.708740 114.000000 149.000000 0.711165 0.230775 0.664068
480.00000000 6540.00000000 130.00000000 177 97 118 97.000000 1.000000 4.000000 1.000000 -60.708740 114.000000 149.000000 0.574597 -0.150738 0.804435
410.00000000 6670.00000000 100.00000000 177 97 118 97.000000 1.000000 4.000000 1.000000 -60.708740 114.000000 149.000000 0.267209 0.172262 0.948117
400.00000000 6690.00000000 100.00000000 177 97 118 97.000000 1.000000 4.000000 1.000000 -60.708740 114.000000 149.000000 0.171052 0.285999 0.942839
340.00000000 6630.00000000 120.00000000 177 97 118 97.000000 1.000000 4.000000 1.000000 -60.708740 114.000000 149.000000 0.367184 0.116894 0.922774
360.00000000 6660.00000000 120.00000000 177 97 118 97.000000 1.000000 4.000000 1.000000 -60.708740 114.000000 149.000000 0.694645 0.237849 0.678893
340.00000000 6650.00000000 130.00000000 177 97 118 97.000000 1.000000 4.000000 1.000000 -60.708740 114.000000 149.000000 0.393281 0.009026 0.919374
400.00000000 6510.00000000 250.00000000 177 97 118 97.000000 1.000000 4.000000 1.000000 -60.708740 114.000000 149.000000 0.480897 0.236632 0.844241
400.00000000 6520.00000000 210.00000000 177 97 118 97.000000 1.000000 4.000000 1.000000 -60.708740 114.000000 149.000000 -0.027008 0.353672 0.934980
490.00000000 6500.00000000 80.00000000 177 97 118 97.000000 1.000000 4.000000 1.000000 -60.708740 114.000000 149.000000 0.468837 0.059120 0.881304
950.00000000 6230.00000000 110.00000000 177 97 118 97.000000 1.000000 4.000000 1.000000 -60.708740 114.000000 149.000000 0.489850 0.483208 0.725642
950.00000000 6240.00000000 100.00000000 177 97 118 97.000000 1.000000 4.000000 1.000000 -60.708740 114.000000 149.000000 0.548770 0.468706 0.692218
930.00000000 6210.00000000 100.00000000 177 97 118 97.000000 1.000000 4.000000 1.000000 -60.708740 114.000000 149.000000 0.624503 0.377338 0.683822
970.00000000 6230.00000000 100.00000000 177 97 118 97.000000 1.000000 4.000000 1.000000 -60.708740 114.000000 149.000000 0.400454 0.521407 0.753506
850.00000000 6240.00000000 140.00000000 177 97 118 97.000000 1.000000 4.000000 1.000000 -60.708740 114.000000 149.000000 0.404441 0.704883 0.582725
910.00000000 6070.00000000 160.00000000 177 97 118 97.000000 1.000000 4.000000 1.000000 -60.708740 114.000000 149.000000 0.558834 0.426173 0.711394
860.00000000 6090.00000000 170.00000000 177 97 118 97.000000 1.000000 4.000000 1.000000 -60.708740 114.000000 149.000000 0.263697 0.473421 0.840438
840.00000000 6040.00000000 210.00000000 177 97 118 97.000000 1.000000 4.000000 1.000000 -60.708740 114.000000 149.000000 0.443045 0.382266 0.810916
870.00000000 6050.00000000 170.00000000 177 97 118 97.000000 1.000000 4.000000 1.000000 -60.708740 114.000000 149.000000 0.400738 0.423090 0.812652
910.00000000 6080.00000000 150.00000000 177 97 118 97.000000 1.000000 4.000000 1.000000 -60.708740 114.000000 149.000000 0.493283 0.641437 0.587563
910.00000000 6170.00000000 110.00000000 177 97 118 97.000000 1.000000 4.000000 1.000000 -60.708740 114.000000 149.000000 0.629694 0.410381 0.659600
880.00000000 6180.00000000 130.00000000 177 97 118 97.000000 1.000000 4.000000 1.000000 -60.708740 114.000000 149.000000 0.435477 0.491349 0.754278
880.00000000 6110.00000000 110.00000000 177 97 118 97.000000 1.000000 4.000000 1.000000 -60.708740 114.000000 149.000000 0.228192 0.293390 0.928359
780.00000000 6260.00000000 210.00000000 177 97 118 97.000000 1.000000 4.000000 1.000000 -60.708740 114.000000 149.000000 0.555950 0.469135 0.686172
780.00000000 6220.00000000 160.00000000 177 97 118 97.000000 1.000000 4.000000 1.000000 -60.708740 114.000000 149.000000 0.423356 0.449309 0.786696
820.00000000 6120.00000000 180.00000000 177 97 118 97.000000 1.000000 4.000000 1.000000 -60.708740 114.000000 149.000000 0.689228 0.319477 0.650307
760.00000000 6120.00000000 200.00000000 177 97 118 97.000000 1.000000 4.000000 1.000000 -60.708740 114.000000 149.000000 0.354374 0.369849 0.858854
770.00000000 6130.00000000 180.00000000 177 97 118 97.000000 1.000000 4.000000 1.000000 -60.708740 114.000000 149.000000 0.555950 0.469135 0.686172
770.00000000 6150.00000000 190.00000000 177 97 118 97.000000 1.000000 4.000000 1.000000 -60.708740 114.000000 149.000000 0.630467 0.023765 0.775852
820.00000000 6030.00000000 240.00000000 177 97 118 97.000000 1.000000 4.000000 1.000000 -60.708740 114.000000 149.000000 0.524935 0.372168 0.765463
770.00000000 6030.00000000 260.00000000 177 97 118 97.000000 1.000000 4.000000 1.000000 -60.708740 114.000000 149.000000 0.022048 0.380005 0.924722
830.00000000 6090.00000000 190.00000000 177 97 118 97.000000 1.000000 4.000000 1.000000 -60.708740 114.000000 149.000000 0.433076 0.388330 0.813416
830.00000000 6100.00000000 170.00000000 177 97 118 97.000000 1.000000 4.000000 1.000000 -60.708740 114.000000 149.000000 0.528322 0.562081 0.636350
820.00000000 6060.00000000 230.00000000 177 97 118 97.000000 1.000000 4.000000 1.000000 -60.708740 114.000000 149.000000 0.686915 0.026690 0.726248
780.00000000 6090.00000000 200.00000000 177 97 118 97.000000 1.000000 4.000000 1.000000 -60.708740 114.000000 149.000000 0.596493 0.264229 0.757878
790.00000000 6030.00000000 190.00000000 177 97 118 97.000000 1.000000 4.000000 1.000000 -60.708740 114.000000 149.000000 0.289900 0.365004 0.884721
730.00000000 6180.00000000 200.00000000 177 97 118 97.000000 1.000000 4.000000 1.000000 -60.708740 114.000000 149.000000 0.440483 0.219495 0.870515
730.00000000 6170.00000000 210.00000000 177 97 118 97.000000 1.000000 4.000000 1.000000 -60.708740 114.000000 149.000000 0.652514 0.182704 0.735422
710.00000000 6160.00000000 210.00000000 177 97 118 97.000000 1.000000 4.000000 1.000000 -60.708740 114.000000 149.000000 0.529236 0.152693 0.834622
720.00000000 6150.00000000 200.00000000 177 97 118 97.000000 1.000000 4.000000 1.000000 -60.708740 114.000000 149.000000 0.560910 0.112182 0.820240
740.00000000 6140.00000000 200.00000000 177 97 118 97.000000 1.000000 4.000000 1.000000 -60.708740 114.000000 149.000000 0.441712 0.206727 0.873014
740.00000000 6140.00000000 160.00000000 177 97 118 97.000000 1.000000 4.000000 1.000000 -60.708740 114.000000 149.000000 0.404241 0.512257 0.757748
690.00000000 6030.00000000 260.00000000 177 97 118 97.000000 1.000000 4.000000 1.000000 -60.708740 114.000000 149.000000 0.368080 -0.219684 0.903469
730.00000000 6080.00000000 190.00000000 177 97 118 97.000000 1.000000 4.000000 1.000000 -60.708740 114.000000 149.000000 0.410861 0.184379 0.892859
700.00000000 5950.00000000 360.00000000 177 97 118 97.000000 1.000000 4.000000 1.000000 -60.708740 114.000000 149.000000 0.363343 -0.183809 0.913344
750.00000000 5830.00000000 380.00000000 177 97 118 97.000000 1.000000 4.000000 1.000000 -60.708740 114.000000 149.000000 -0.228570 -0.422781 0.876933
750.00000000 5800.00000000 380.00000000 177 97 118 97.000000 1.000000 4.000000 1.000000 -60.708740 114.000000 149.000000 -0.390941 -0.311220 0.866203
920.00000000 5930.00000000 210.00000000 177 97 118 97.000000 1.000000 4.000000 1.000000 -60.708740 114.000000 149.000000 0.021674 0.160845 0.986742
930.00000000 5940.00000000 200.00000000 177 97 118 97.000000 1.000000 4.000000 1.000000 -60.708740 114.000000 149.000000 0.510445 0.520487 0.684499
880.00000000 6010.00000000 200.00000000 177 97 118 97.000000 1.000000 4.000000 1.000000 -60.708740 114.000000 149.000000 0.388922 0.553025 0.736819
840.00000000 5940.00000000 240.00000000 177 97 118 97.000000 1.000000 4.000000 1.000000 -60.708740 114.000000 149.000000 0.125200 0.356339 0.925931
880.00000000 5900.00000000 250.00000000 177 97 118 97.000000 1.000000 4.000000 1.000000 -60.708740 114.000000 149.000000 0.016530 0.117912 0.992886
990.00000000 5980.00000000 60.00000000 177 97 118 97.000000 1.000000 4.000000 1.000000 -60.708740 114.000000 149.000000 0.828685 0.498446 0.254624
930.00000000 5830.00000000 250.00000000 177 97 118 97.000000 1.000000 4.000000 1.000000 -60.708740 114.000000 149.000000 -0.019942 -0.057726 0.998133
1000.00000000 5730.00000000 160.00000000 177 97 118 97.000000 1.000000 4.000000 1.000000 -60.708740 114.000000 149.000000 0.085596 -0.165164 0.982545
920.00000000 5750.00000000 230.00000000 177 97 118 97.000000 1.000000 4.000000 1.000000 -60.708740 114.000000 149.000000 0.007131 -0.035654 0.999339
860.00000000 5820.00000000 290.00000000 177 97 118 97.000000 1.000000 4.000000 1.000000 -60.708740 114.000000 149.000000 -0.057124 -0.210266 0.975974
860.00000000 5800.00000000 280.00000000 177 97 118 97.000000 1.000000 4.000000 1.000000 -60.708740 114.000000 149.000000 -0.107283 -0.257221 0.960379
900.00000000 5720.00000000 270.00000000 177 97 118 97.000000 1.000000 4.000000 1.000000 -60.708740 114.000000 149.000000 0.016323 0.325212 0.945500
890.00000000 5700.00000000 270.00000000 177 97 118 97.000000 1.000000 4.000000 1.000000 -60.708740 114.000000 149.000000 -0.005522 0.135850 0.990714
880.00000000 5710.00000000 270.00000000 177 97 118 97.000000 1.000000 4.000000 1.000000 -60.708740 114.000000 149.000000 0.051314 0.266581 0.962445
860.00000000 5710.00000000 280.00000000 177 97 118 97.000000 1.000000 4.000000 1.000000 -60.708740 114.000000 149.000000 -0.022813 0.236535 0.971355
970.00000000 5840.00000000 0.00000000 177 97 118 97.000000 1.000000 4.000000 1.000000 -60.708740 114.000000 149.000000 0.642317 0.205851 0.738278
950.00000000 5820.00000000 20.00000000 177 97 118 97.000000 1.000000 4.000000 1.000000 -60.708740 114.000000 149.000000 0.470564 -0.088494 0.877917
960.00000000 5800.00000000 50.00000000 177 97 118 97.000000 1.000000 4.000000 1.000000 -60.708740 114.000000 149.000000 0.648677 0.438565 0.621996
930.00000000 5780.00000000 20.00000000 177 97 118 97.000000 1.000000 4.000000 1.000000 -60.708740 114.000000 149.000000 0.606725 -0.064241 0.792312
990.00000000 5740.00000000 30.00000000 177 97 118 97.000000 1.000000 4.000000 1.000000 -60.708740 114.000000 149.000000 0.564246 -0.112266 0.817938
1000.00000000 5740.00000000 20.00000000 177 97 118 97.000000 1.000000 4.000000 1.000000 -60.708740 114.000000 149.000000 0.441285 -0.019878 0.897147
1000.00000000 5740.00000000 10.00000000 177 97 118 97.000000 1.000000 4.000000 1.000000 -60.708740 114.000000 149.000000 0.448696 0.022635 0.893398
1000.00000000 5720.00000000 20.00000000 177 97 118 97.000000 1.000000 4.000000 1.000000 -60.708740 114.000000 149.000000 0.679241 0.398289 0.616440
950.00000000 5710.00000000 50.00000000 177 97 118 97.000000 1.000000 4.000000 1.000000 -60.708740 114.000000 149.000000 0.417602 0.080782 0.905032
890.00000000 5780.00000000 110.00000000 177 97 118 97.000000 1.000000 4.000000 1.000000 -60.708740 114.000000 149.000000 0.386977 0.349678 0.853214
900.00000000 5820.00000000 50.00000000 177 97 118 97.000000 1.000000 4.000000 1.000000 -60.708740 114.000000 149.000000 0.564868 0.305637 0.766492
770.00000000 5990.00000000 270.00000000 177 97 118 97.000000 1.000000 4.000000 1.000000 -60.708740 114.000000 149.000000 0.454624 0.307769 0.835820
780.00000000 5960.00000000 270.00000000 177 97 118 97.000000 1.000000 4.000000 1.000000 -60.708740 114.000000 149.000000 0.208197 0.423777 0.881514
830.00000000 6000.00000000 200.00000000 177 97 118 97.000000 1.000000 4.000000 1.000000 -60.708740 114.000000 149.000000 0.662066 0.258793 0.703346
790.00000000 6020.00000000 200.00000000 177 97 118 97.000000 1.000000 4.000000 1.000000 -60.708740 114.000000 149.000000 0.294678 0.404609 0.865711
750.00000000 6000.00000000 250.00000000 177 97 118 97.000000 1.000000 4.000000 1.000000 -60.708740 114.000000 149.000000 0.442095 0.270764 0.855125
630.00000000 6060.00000000 300.00000000 177 97 118 97.000000 1.000000 4.000000 1.000000 -60.708740 114.000000 149.000000 0.228342 -0.065417 0.971381
630.00000000 6060.00000000 310.00000000 177 97 118 97.000000 1.000000 4.000000 1.000000 -60.708740 114.000000 149.000000 0.124569 0.222170 0.967018
640.00000000 6070.00000000 260.00000000 177 97 118 97.000000 1.000000 4.000000 1.000000 -60.708740 114.000000 149.000000 0.126523 0.121703 0.984470
590.00000000 6060.00000000 270.00000000 177 97 118 97.000000 1.000000 4.000000 1.000000 -60.708740 114.000000 149.000000 -0.076383 -0.465244 0.881881
640.00000000 5970.00000000 370.00000000 177 97 118 97.000000 1.000000 4.000000 1.000000 -60.708740 114.000000 149.000000 -0.101133 -0.497119 0.861768
640.00000000 5980.00000000 380.00000000 177 97 118 97.000000 1.000000 4.000000 1.000000 -60.708740 114.000000 149.000000 0.209076 -0.322859 0.923065
510.00000000 5750.00000000 30.00000000 177 97 118 97.000000 1.000000 4.000000 1.000000 -60.708740 114.000000 149.000000 0.621069 0.717859 -0.314567
470.00000000 5790.00000000 0.00000000 177 97 118 97.000000 1.000000 4.000000 1.000000 -60.708740 114.000000 149.000000 0.602958 0.676043 -0.423565
470.00000000 5790.00000000 0.00000000 177 97 118 97.000000 1.000000 4.000000 1.000000 -60.708740 114.000000 149.000000 0.602958 0.676043 -0.423565
410.00000000 5820.00000000 -10.00000000 177 97 118 97.000000 1.000000 4.000000 1.000000 -60.708740 114.000000 149.000000 0.851598 0.482122 -0.205765
340.00000000 5840.00000000 10.00000000 177 97 118 97.000000 1.000000 4.000000 1.000000 -60.708740 114.000000 149.000000 0.514724 0.726571 -0.455141
340.00000000 5750.00000000 70.00000000 177 97 118 97.000000 1.000000 4.000000 1.000000 -60.708740 114.000000 149.000000 0.771066 0.621345 -0.139241
370.00000000 5760.00000000 100.00000000 177 97 118 97.000000 1.000000 4.000000 1.000000 -60.708740 114.000000 149.000000 -0.659422 -0.169043 0.732521
1360.00000000 5290.00000000 80.00000000 177 97 118 97.000000 1.000000 4.000000 1.000000 -60.708740 114.000000 149.000000 0.593911 -0.100688 0.798205
1320.00000000 5380.00000000 210.00000000 177 97 118 97.000000 1.000000 4.000000 1.000000 -60.708740 114.000000 149.000000 0.530015 0.526650 0.664623
1290.00000000 5370.00000000 130.00000000 177 97 118 97.000000 1.000000 4.000000 1.000000 -60.708740 114.000000 149.000000 0.403733 -0.207005 0.891150
1210.00000000 5370.00000000 60.00000000 177 97 118 97.000000 1.000000 4.000000 1.000000 -60.708740 114.000000 149.000000 0.264719 0.445280 0.855365
1130.00000000 5690.00000000 150.00000000 177 97 118 97.000000 1.000000 4.000000 1.000000 -60.708740 114.000000 149.000000 0.527943 0.592039 0.608906
1010.00000000 5640.00000000 90.00000000 177 97 118 97.000000 1.000000 4.000000 1.000000 -60.708740 114.000000 149.000000 0.372850 -0.181425 0.909982
1050.00000000 5690.00000000 0.00000000 177 97 118 97.000000 1.000000 4.000000 1.000000 -60.708740 114.000000 149.000000 0.522528 0.673742 0.522528
1050.00000000 5690.00000000 -10.00000000 177 97 118 97.000000 1.000000 4.000000 1.000000 -60.708740 114.000000 149.000000 0.640381 0.325865 0.695503
1060.00000000 5650.00000000 0.00000000 177 97 118 97.000000 1.000000 4.000000 1.000000 -60.708740 114.000000 149.000000 0.753969 0.428728 0.497718
1030.00000000 5580.00000000 20.00000000 177 97 118 97.000000 1.000000 4.000000 1.000000 -60.708740 114.000000 149.000000 0.561309 0.054865 0.825786
1110.00000000 5440.00000000 80.00000000 177 97 118 97.000000 1.000000 4.000000 1.000000 -60.708740 114.000000 149.000000 0.263183 -0.315529 0.911689
1090.00000000 5460.00000000 90.00000000 177 97 118 97.000000 1.000000 4.000000 1.000000 -60.708740 114.000000 149.000000 0.061058 -0.130181 0.989608
1090.00000000 5450.00000000 90.00000000 177 97 118 97.000000 1.000000 4.000000 1.000000 -60.708740 114.000000 149.000000 0.021592 -0.155693 0.987570
1110.00000000 5440.00000000 80.00000000 177 97 118 97.000000 1.000000 4.000000 1.000000 -60.708740 114.000000 149.000000 0.263183 -0.315529 0.911689
1050.00000000 5160.00000000 330.00000000 177 97 118 97.000000 1.000000 4.000000 1.000000 -60.708740 114.000000 149.000000 -0.194176 -0.333075 0.922690
1050.00000000 5110.00000000 350.00000000 177 97 118 97.000000 1.000000 4.000000 1.000000 -60.708740 114.000000 149.000000 -0.009683 -0.097901 0.995149
1030.00000000 5160.00000000 330.00000000 177 97 118 97.000000 1.000000 4.000000 1.000000 -60.708740 114.000000 149.000000 -0.014052 -0.364074 0.931264
1030.00000000 5160.00000000 330.00000000 177 97 118 97.000000 1.000000 4.000000 1.000000 -60.708740 114.000000 149.000000 -0.014052 -0.364074 0.931264
1050.00000000 5090.00000000 320.00000000 177 97 118 97.000000 1.000000 4.000000 1.000000 -60.708740 114.000000 149.000000 0.141144 -0.286321 0.947681
1060.00000000 5050.00000000 320.00000000 177 97 118 97.000000 1.000000 4.000000 1.000000 -60.708740 114.000000 149.000000 0.410525 0.558908 -0.720480
1200.00000000 5220.00000000 300.00000000 177 97 118 97.000000 1.000000 4.000000 1.000000 -60.708740 114.000000 149.000000 0.201467 -0.347210 0.915891
1190.00000000 5240.00000000 230.00000000 177 97 118 97.000000 1.000000 4.000000 1.000000 -60.708740 114.000000 149.000000 0.086055 -0.268439 0.959445
1200.00000000 5220.00000000 230.00000000 177 97 118 97.000000 1.000000 4.000000 1.000000 -60.708740 114.000000 149.000000 -0.136318 -0.342861 0.929443
1200.00000000 5220.00000000 220.00000000 177 97 118 97.000000 1.000000 4.000000 1.000000 -60.708740 114.000000 149.000000 -0.076356 -0.298951 0.951209
1260.00000000 5330.00000000 100.00000000 177 97 118 97.000000 1.000000 4.000000 1.000000 -60.708740 114.000000 149.000000 0.271731 -0.215992 0.937822
1270.00000000 5320.00000000 100.00000000 177 97 118 97.000000 1.000000 4.000000 1.000000 -60.708740 114.000000 149.000000 0.266998 -0.154295 0.951265
1230.00000000 5270.00000000 50.00000000 177 97 118 97.000000 1.000000 4.000000 1.000000 -60.708740 114.000000 149.000000 -0.045986 -0.264732 0.963225
1200.00000000 5200.00000000 10.00000000 177 97 118 97.000000 1.000000 4.000000 1.000000 -60.708740 114.000000 149.000000 0.379452 -0.105480 0.919179
1180.00000000 5160.00000000 220.00000000 177 97 118 97.000000 1.000000 4.000000 1.000000 -60.708740 114.000000 149.000000 0.154203 -0.436669 0.886308
1200.00000000 5170.00000000 230.00000000 177 97 118 97.000000 1.000000 4.000000 1.000000 -60.708740 114.000000 149.000000 0.270423 -0.231191 0.934571
1260.00000000 5160.00000000 0.00000000 177 97 118 97.000000 1.000000 4.000000 1.000000 -60.708740 114.000000 149.000000 0.412244 -0.001292 0.911072
1260.00000000 5180.00000000 20.00000000 177 97 118 97.000000 1.000000 4.000000 1.000000 -60.708740 114.000000 149.000000 0.328629 -0.275577 0.903361
1260.00000000 5060.00000000 -10.00000000 177 97 118 97.000000 1.000000 4.000000 1.000000 -60.708740 114.000000 149.000000 -0.266051 -0.511876 0.816823
1230.00000000 5120.00000000 10.00000000 177 97 118 97.000000 1.000000 4.000000 1.000000 -60.708740 114.000000 149.000000 -0.214142 -0.340615 0.915492
1210.00000000 5170.00000000 30.00000000 177 97 118 97.000000 1.000000 4.000000 1.000000 -60.708740 114.000000 149.000000 -0.165108 -0.460257 0.872297
1110.00000000 5250.00000000 210.00000000 177 97 118 97.000000 1.000000 4.000000 1.000000 -60.708740 114.000000 149.000000 0.182052 -0.342935 0.921549
1110.00000000 5250.00000000 210.00000000 177 97 118 97.000000 1.000000 4.000000 1.000000 -60.708740 114.000000 149.000000 0.182052 -0.342935 0.921549
1090.00000000 5220.00000000 220.00000000 177 97 118 97.000000 1.000000 4.000000 1.000000 -60.708740 114.000000 149.000000 0.118390 -0.293980 0.948451
1070.00000000 5280.00000000 300.00000000 177 97 118 97.000000 1.000000 4.000000 1.000000 -60.708740 114.000000 149.000000 -0.134410 -0.319055 0.938157
1040.00000000 5270.00000000 260.00000000 177 97 118 97.000000 1.000000 4.000000 1.000000 -60.708740 114.000000 149.000000 -0.249331 -0.427641 0.868882
1020.00000000 5250.00000000 250.00000000 177 97 118 97.000000 1.000000 4.000000 1.000000 -60.708740 114.000000 149.000000 -0.214846 -0.347502 0.912734
1040.00000000 5250.00000000 250.00000000 177 97 118 97.000000 1.000000 4.000000 1.000000 -60.708740 114.000000 149.000000 0.074035 -0.386330 0.919384
1070.00000000 5220.00000000 170.00000000 177 97 118 97.000000 1.000000 4.000000 1.000000 -60.708740 114.000000 149.000000 0.072246 -0.072246 0.994767
1070.00000000 5190.00000000 190.00000000 177 97 118 97.000000 1.000000 4.000000 1.000000 -60.708740 114.000000 149.000000 -0.309110 -0.518354 0.797346
1110.00000000 5320.00000000 20.00000000 177 97 118 97.000000 1.000000 4.000000 1.000000 -60.708740 114.000000 149.000000 0.313497 -0.266837 0.911328
1130.00000000 5300.00000000 40.00000000 177 97 118 97.000000 1.000000 4.000000 1.000000 -60.708740 114.000000 149.000000 0.351668 -0.234932 0.906166
1110.00000000 5280.00000000 20.00000000 177 97 118 97.000000 1.000000 4.000000 1.000000 -60.708740 114.000000 149.000000 -0.367860 -0.415224 0.832027
1160.00000000 5250.00000000 120.00000000 177 97 118 97.000000 1.000000 4.000000 1.000000 -60.708740 114.000000 149.000000 0.187140 -0.051255 0.980995
1100.00000000 5230.00000000 110.00000000 177 97 118 97.000000 1.000000 4.000000 1.000000 -60.708740 114.000000 149.000000 -0.081309 -0.231417 0.969451
1110.00000000 5220.00000000 110.00000000 177 97 118 97.000000 1.000000 4.000000 1.000000 -60.708740 114.000000 149.000000 0.132550 -0.383697 0.913897
1090.00000000 5220.00000000 140.00000000 177 97 118 97.000000 1.000000 4.000000 1.000000 -60.708740 114.000000 149.000000 -0.052331 -0.305053 0.950897
1160.00000000 5210.00000000 50.00000000 177 97 118 97.000000 1.000000 4.000000 1.000000 -60.708740 114.000000 149.000000 -0.223365 -0.335769 0.915078
1080.00000000 5230.00000000 140.00000000 177 97 118 97.000000 1.000000 4.000000 1.000000 -60.708740 114.000000 149.000000 -0.457693 -0.467536 0.756259
1010.00000000 5210.00000000 30.00000000 177 97 118 97.000000 1.000000 4.000000 1.000000 -60.708740 114.000000 149.000000 -0.476732 -0.473433 0.740667
1150.00000000 5110.00000000 290.00000000 177 97 118 97.000000 1.000000 4.000000 1.000000 -60.708740 114.000000 149.000000 -0.151640 -0.310111 0.938529
1140.00000000 5070.00000000 290.00000000 177 97 118 97.000000 1.000000 4.000000 1.000000 -60.708740 114.000000 149.000000 -0.046932 -0.300617 0.952589
1120.00000000 5070.00000000 280.00000000 177 97 118 97.000000 1.000000 4.000000 1.000000 -60.708740 114.000000 149.000000 -0.447922 -0.352956 0.821454
1090.00000000 5030.00000000 310.00000000 177 97 118 97.000000 1.000000 4.000000 1.000000 -60.708740 114.000000 149.000000 -0.114020 -0.320597 0.940328
1070.00000000 5130.00000000 290.00000000 177 97 118 97.000000 1.000000 4.000000 1.000000 -60.708740 114.000000 149.000000 0.090487 -0.368703 0.925133
1040.00000000 5150.00000000 260.00000000 177 97 118 97.000000 1.000000 4.000000 1.000000 -60.708740 114.000000 149.000000 -0.486095 -0.357753 0.797324
1050.00000000 5150.00000000 150.00000000 177 97 118 97.000000 1.000000 4.000000 1.000000 -60.708740 114.000000 149.000000 -0.430672 -0.373461 0.821614
1080.00000000 5110.00000000 160.00000000 177 97 118 97.000000 1.000000 4.000000 1.000000 -60.708740 114.000000 149.000000 0.097541 -0.277016 0.955902
1070.00000000 5120.00000000 160.00000000 177 97 118 97.000000 1.000000 4.000000 1.000000 -60.708740 114.000000 149.000000 0.011885 -0.098320 0.995084
1090.00000000 5070.00000000 140.00000000 177 97 118 97.000000 1.000000 4.000000 1.000000 -60.708740 114.000000 149.000000 0.030689 -0.438979 0.897973
1060.00000000 5170.00000000 110.00000000 177 97 118 97.000000 1.000000 4.000000 1.000000 -60.708740 114.000000 149.000000 -0.048511 -0.511442 0.857947
1060.00000000 5160.00000000 100.00000000 177 97 118 97.000000 1.000000 4.000000 1.000000 -60.708740 114.000000 149.000000 -0.102314 -0.438689 0.892795
1050.00000000 5150.00000000 100.00000000 177 97 118 97.000000 1.000000 4.000000 1.000000 -60.708740 114.000000 149.000000 -0.042472 -0.486368 0.872721
1020.00000000 5170.00000000 140.00000000 177 97 118 97.000000 1.000000 4.000000 1.000000 -60.708740 114.000000 149.000000 -0.176831 -0.569789 0.802541
1080.00000000 5170.00000000 30.00000000 177 97 118 97.000000 1.000000 4.000000 1.000000 -60.708740 114.000000 149.000000 -0.143476 -0.158448 0.976887
1080.00000000 5090.00000000 130.00000000 177 97 118 97.000000 1.000000 4.000000 1.000000 -60.708740 114.000000 149.000000 -0.579758 -0.407978 0.705290
1070.00000000 5100.00000000 140.00000000 177 97 118 97.000000 1.000000 4.000000 1.000000 -60.708740 114.000000 149.000000 0.381288 0.645384 -0.661890
1010.00000000 5090.00000000 60.00000000 177 97 118 97.000000 1.000000 4.000000 1.000000 -60.708740 114.000000 149.000000 0.507789 0.622506 -0.595514
1390.00000000 4810.00000000 220.00000000 177 97 118 97.000000 1.000000 4.000000 1.000000 -60.708740 114.000000 149.000000 -0.431952 -0.387322 0.814493
1390.00000000 4690.00000000 230.00000000 177 97 118 97.000000 1.000000 4.000000 1.000000 -60.708740 114.000000 149.000000 -0.436744 -0.232630 0.868986
