//X Y Z R G B PointSourceId ScanDirectionFlag NumberOfReturns ReturnNumber GpsTime Intensity Classification Nx Ny Nz
9430.00000000 1450.00000000 510.00000000 187 133 95 97.000000 1.000000 4.000000 1.000000 -60.708740 114.000000 158.000000 0.225284 -0.270061 0.936117
9440.00000000 1400.00000000 510.00000000 187 133 95 97.000000 1.000000 4.000000 1.000000 -60.708740 114.000000 158.000000 0.237620 -0.114314 0.964608
9580.00000000 1410.00000000 330.00000000 187 133 95 97.000000 1.000000 4.000000 1.000000 -60.708740 114.000000 158.000000 0.797324 0.603193 0.020800
9440.00000000 1460.00000000 430.00000000 187 133 95 97.000000 1.000000 4.000000 1.000000 -60.708740 114.000000 158.000000 0.385435 -0.111900 0.915925
9430.00000000 1410.00000000 350.00000000 187 133 95 97.000000 1.000000 4.000000 1.000000 -60.708740 114.000000 158.000000 -0.003772 -0.343255 0.939235
9440.00000000 1400.00000000 330.00000000 187 133 95 97.000000 1.000000 4.000000 1.000000 -60.708740 114.000000 158.000000 -0.438653 -0.044540 0.897552
9470.00000000 1320.00000000 330.00000000 187 133 95 97.000000 1.000000 4.000000 1.000000 -60.708740 114.000000 158.000000 0.620430 0.402039 -0.673373
9440.00000000 1390.00000000 330.00000000 187 133 95 97.000000 1.000000 4.000000 1.000000 -60.708740 114.000000 158.000000 0.744076 0.226186 -0.628642
9470.00000000 1510.00000000 300.00000000 187 133 95 97.000000 1.000000 4.000000 1.000000 -60.708740 114.000000 158.000000 0.845746 0.513331 -0.145615
9510.00000000 1400.00000000 230.00000000 187 133 95 97.000000 1.000000 4.000000 1.000000 -60.708740 114.000000 158.000000 -0.677491 -0.175872 0.714195
9520.00000000 1330.00000000 160.00000000 187 133 95 97.000000 1.000000 4.000000 1.000000 -60.708740 114.000000 158.000000 -0.349467 -0.316184 0.881987
9460.00000000 1430.00000000 300.00000000 187 133 95 97.000000 1.000000 4.000000 1.000000 -60.708740 114.000000 158.000000 0.783136 0.530098 0.325106
9500.00000000 1410.00000000 310.00000000 187 133 95 97.000000 1.000000 4.000000 1.000000 -60.708740 114.000000 158.000000 0.710516 0.357708 0.605980
9450.00000000 1460.00000000 310.00000000 187 133 95 97.000000 1.000000 4.000000 1.000000 -60.708740 114.000000 158.000000 0.828693 0.501537 0.248454
9430.00000000 1460.00000000 190.00000000 187 133 95 97.000000 1.000000 4.000000 1.000000 -60.708740 114.000000 158.000000 -0.134618 -0.367771 0.920121
9500.00000000 1410.00000000 150.00000000 187 133 95 97.000000 1.000000 4.000000 1.000000 -60.708740 114.000000 158.000000 -0.512226 -0.382137 0.769152
9460.00000000 1390.00000000 310.00000000 187 133 95 97.000000 1.000000 4.000000 1.000000 -60.708740 114.000000 158.000000 0.130766 -0.229165 0.964564
9430.00000000 1370.00000000 290.00000000 187 133 95 97.000000 1.000000 4.000000 1.000000 -60.708740 114.000000 158.000000 0.977023 0.213105 -0.003494
9500.00000000 1340.00000000 220.00000000 187 133 95 97.000000 1.000000 4.000000 1.000000 -60.708740 114.000000 158.000000 0.181102 -0.410014 0.893918
9470.00000000 1340.00000000 200.00000000 187 133 95 97.000000 1.000000 4.000000 1.000000 -60.708740 114.000000 158.000000 -0.094911 -0.188589 0.977459
9530.00000000 1330.00000000 120.00000000 187 133 95 97.000000 1.000000 4.000000 1.000000 -60.708740 114.000000 158.000000 -0.214153 -0.310593 0.926105
9600.00000000 1160.00000000 510.00000000 187 133 95 97.000000 1.000000 4.000000 1.000000 -60.708740 114.000000 158.000000 0.342243 -0.050751 0.938240
9610.00000000 1160.00000000 500.00000000 187 133 95 97.000000 1.000000 4.000000 1.000000 -60.708740 114.000000 158.000000 0.440378 -0.090298 0.893260
9680.00000000 1290.00000000 360.00000000 187 133 95 97.000000 1.000000 4.000000 1.000000 -60.708740 114.000000 158.000000 0.918342 0.192211 0.345980
9680.00000000 1250.00000000 400.00000000 187 133 95 97.000000 1.000000 4.000000 1.000000 -60.708740 114.000000 158.000000 0.843257 0.148637 0.516550
9720.00000000 1190.00000000 320.00000000 187 133 95 97.000000 1.000000 4.000000 1.000000 -60.708740 114.000000 158.000000 0.693242 0.294347 0.657856
9660.00000000 1190.00000000 420.00000000 187 133 95 97.000000 1.000000 4.000000 1.000000 -60.708740 114.000000 158.000000 0.623546 0.243450 0.742915
9630.00000000 1180.00000000 360.00000000 187 133 95 97.000000 1.000000 4.000000 1.000000 -60.708740 114.000000 158.000000 0.545082 0.152980 0.824307
9700.00000000 1050.00000000 580.00000000 187 133 95 97.000000 1.000000 4.000000 1.000000 -60.708740 114.000000 158.000000 -0.001115 0.150466 0.988615
9700.00000000 1000.00000000 610.00000000 187 133 95 97.000000 1.000000 4.000000 1.000000 -60.708740 114.000000 158.000000 -0.141022 0.249094 0.958157
9730.00000000 1060.00000000 560.00000000 187 133 95 97.000000 1.000000 4.000000 1.000000 -60.708740 114.000000 158.000000 0.145461 0.003331 0.989358
9670.00000000 1090.00000000 510.00000000 187 133 95 97.000000 1.000000 4.000000 1.000000 -60.708740 114.000000 158.000000 0.209269 0.069756 0.975367
9720.00000000 1110.00000000 440.00000000 187 133 95 97.000000 1.000000 4.000000 1.000000 -60.708740 114.000000 158.000000 0.168172 0.052921 0.984336
9750.00000000 1040.00000000 420.00000000 187 133 95 97.000000 1.000000 4.000000 1.000000 -60.708740 114.000000 158.000000 0.267449 0.483881 0.833265
9680.00000000 1030.00000000 340.00000000 187 133 95 97.000000 1.000000 4.000000 1.000000 -60.708740 114.000000 158.000000 0.017556 0.200136 0.979611
9660.00000000 1110.00000000 370.00000000 187 133 95 97.000000 1.000000 4.000000 1.000000 -60.708740 114.000000 158.000000 0.079382 0.191738 0.978231
9620.00000000 1130.00000000 380.00000000 187 133 95 97.000000 1.000000 4.000000 1.000000 -60.708740 114.000000 158.000000 0.291764 -0.171223 0.941040
9540.00000000 1260.00000000 510.00000000 187 133 95 97.000000 1.000000 4.000000 1.000000 -60.708740 114.000000 158.000000 0.126943 -0.187273 0.974071
9560.00000000 1170.00000000 540.00000000 187 133 95 97.000000 1.000000 4.000000 1.000000 -60.708740 114.000000 158.000000 0.304080 -0.026279 0.952284
9550.00000000 1160.00000000 540.00000000 187 133 95 97.000000 1.000000 4.000000 1.000000 -60.708740 114.000000 158.000000 0.124637 -0.080373 0.988942
9510.00000000 1230.00000000 460.00000000 187 133 95 97.000000 1.000000 4.000000 1.000000 -60.708740 114.000000 158.000000 -0.282776 -0.223688 0.932739
9550.00000000 1220.00000000 350.00000000 187 133 95 97.000000 1.000000 4.000000 1.000000 -60.708740 114.000000 158.000000 0.079447 -0.009534 0.996794
9480.00000000 1300.00000000 410.00000000 187 133 95 97.000000 1.000000 4.000000 1.000000 -60.708740 114.000000 158.000000 -0.267053 -0.319587 0.909146
9490.00000000 1310.00000000 410.00000000 187 133 95 97.000000 1.000000 4.000000 1.000000 -60.708740 114.000000 158.000000 -0.110309 -0.216815 0.969960
9500.00000000 1270.00000000 460.00000000 187 133 95 97.000000 1.000000 4.000000 1.000000 -60.708740 114.000000 158.000000 -0.270820 -0.085995 0.958781
9650.00000000 1150.00000000 220.00000000 187 133 95 97.000000 1.000000 4.000000 1.000000 -60.708740 114.000000 158.000000 -0.204529 -0.285228 0.936383
9680.00000000 1200.00000000 40.00000000 187 133 95 97.000000 1.000000 4.000000 1.000000 -60.708740 114.000000 158.000000 -0.530255 -0.368098 0.763762
9710.00000000 1130.00000000 300.00000000 187 133 95 97.000000 1.000000 4.000000 1.000000 -60.708740 114.000000 158.000000 0.921486 0.164100 0.352044
9750.00000000 1040.00000000 280.00000000 187 133 95 97.000000 1.000000 4.000000 1.000000 -60.708740 114.000000 158.000000 0.983752 0.119499 0.133983
9740.00000000 1040.00000000 290.00000000 187 133 95 97.000000 1.000000 4.000000 1.000000 -60.708740 114.000000 158.000000 0.713026 0.425169 0.557517
9730.00000000 1050.00000000 280.00000000 187 133 95 97.000000 1.000000 4.000000 1.000000 -60.708740 114.000000 158.000000 0.825329 0.172256 0.537737
9730.00000000 1030.00000000 200.00000000 187 133 95 97.000000 1.000000 4.000000 1.000000 -60.708740 114.000000 158.000000 0.557835 0.454594 -0.694380
9670.00000000 1100.00000000 310.00000000 187 133 95 97.000000 1.000000 4.000000 1.000000 -60.708740 114.000000 158.000000 0.479382 -0.156862 0.863474
9640.00000000 1140.00000000 310.00000000 187 133 95 97.000000 1.000000 4.000000 1.000000 -60.708740 114.000000 158.000000 0.073004 0.442159 0.893961
9640.00000000 1140.00000000 210.00000000 187 133 95 97.000000 1.000000 4.000000 1.000000 -60.708740 114.000000 158.000000 -0.226020 -0.147631 0.962871
9620.00000000 1020.00000000 150.00000000 187 133 95 97.000000 1.000000 4.000000 1.000000 -60.708740 114.000000 158.000000 0.190444 -0.073994 0.978905
9550.00000000 1270.00000000 170.00000000 187 133 95 97.000000 1.000000 4.000000 1.000000 -60.708740 114.000000 158.000000 -0.166014 -0.210459 0.963404
9580.00000000 1150.00000000 90.00000000 187 133 95 97.000000 1.000000 4.000000 1.000000 -60.708740 114.000000 158.000000 -0.145167 -0.120769 0.982009
9450.00000000 1300.00000000 100.00000000 187 133 95 97.000000 1.000000 4.000000 1.000000 -60.708740 114.000000 158.000000 -0.129542 0.078192 0.988486
9590.00000000 1110.00000000 140.00000000 187 133 95 97.000000 1.000000 4.000000 1.000000 -60.708740 114.000000 158.000000 0.105473 -0.038858 0.993663
9400.00000000 1490.00000000 560.00000000 187 133 95 97.000000 1.000000 4.000000 1.000000 -60.708740 114.000000 158.000000 0.387110 0.046242 0.920873
9350.00000000 1590.00000000 370.00000000 187 133 95 97.000000 1.000000 4.000000 1.000000 -60.708740 114.000000 158.000000 0.298688 -0.328409 0.896065
9310.00000000 1600.00000000 430.00000000 187 133 95 97.000000 1.000000 4.000000 1.000000 -60.708740 114.000000 158.000000 0.309837 -0.122057 0.942923
9390.00000000 1480.00000000 510.00000000 187 133 95 97.000000 1.000000 4.000000 1.000000 -60.708740 114.000000 158.000000 0.156261 0.289423 0.944361
9410.00000000 1350.00000000 330.00000000 187 133 95 97.000000 1.000000 4.000000 1.000000 -60.708740 114.000000 158.000000 0.696589 0.587385 -0.411997
9400.00000000 1370.00000000 350.00000000 187 133 95 97.000000 1.000000 4.000000 1.000000 -60.708740 114.000000 158.000000 0.456665 0.617251 -0.640670
9350.00000000 1370.00000000 400.00000000 187 133 95 97.000000 1.000000 4.000000 1.000000 -60.708740 114.000000 158.000000 -0.616193 -0.229317 0.753472
9330.00000000 1550.00000000 310.00000000 187 133 95 97.000000 1.000000 4.000000 1.000000 -60.708740 114.000000 158.000000 0.752971 0.657622 0.023837
9380.00000000 1440.00000000 220.00000000 187 133 95 97.000000 1.000000 4.000000 1.000000 -60.708740 114.000000 158.000000 0.685156 0.409766 0.602207
9370.00000000 1340.00000000 270.00000000 187 133 95 97.000000 1.000000 4.000000 1.000000 -60.708740 114.000000 158.000000 0.915803 0.391707 0.088714
9330.00000000 1460.00000000 290.00000000 187 133 95 97.000000 1.000000 4.000000 1.000000 -60.708740 114.000000 158.000000 0.978912 0.203303 0.019978
9310.00000000 1480.00000000 290.00000000 187 133 95 97.000000 1.000000 4.000000 1.000000 -60.708740 114.000000 158.000000 0.827824 0.560607 -0.020661
9330.00000000 1460.00000000 290.00000000 187 133 95 97.000000 1.000000 4.000000 1.000000 -60.708740 114.000000 158.000000 0.978912 0.203303 0.019978
9330.00000000 1370.00000000 280.00000000 187 133 95 97.000000 1.000000 4.000000 1.000000 -60.708740 114.000000 158.000000 0.914313 0.403876 -0.030258
9400.00000000 1420.00000000 70.00000000 187 133 95 97.000000 1.000000 4.000000 1.000000 -60.708740 114.000000 158.000000 0.270193 -0.267334 0.924948
9380.00000000 1340.00000000 60.00000000 187 133 95 97.000000 1.000000 4.000000 1.000000 -60.708740 114.000000 158.000000 0.105065 -0.181701 0.977725
9260.00000000 1450.00000000 90.00000000 187 133 95 97.000000 1.000000 4.000000 1.000000 -60.708740 114.000000 158.000000 0.744633 0.369872 0.555623
9340.00000000 1380.00000000 10.00000000 187 133 95 97.000000 1.000000 4.000000 1.000000 -60.708740 114.000000 158.000000 0.434823 -0.147811 0.888302
9350.00000000 1290.00000000 220.00000000 187 133 95 97.000000 1.000000 4.000000 1.000000 -60.708740 114.000000 158.000000 0.810263 0.559790 0.173520
9750.00000000 970.00000000 570.00000000 187 133 95 97.000000 1.000000 4.000000 1.000000 -60.708740 114.000000 158.000000 -0.153094 0.291285 0.944307
9750.00000000 970.00000000 570.00000000 187 133 95 97.000000 1.000000 4.000000 1.000000 -60.708740 114.000000 158.000000 -0.153094 0.291285 0.944307
9750.00000000 950.00000000 540.00000000 187 133 95 97.000000 1.000000 4.000000 1.000000 -60.708740 114.000000 158.000000 -0.174548 0.093987 0.980153
9700.00000000 970.00000000 500.00000000 187 133 95 97.000000 1.000000 4.000000 1.000000 -60.708740 114.000000 158.000000 -0.117254 0.055781 0.991534
9690.00000000 890.00000000 570.00000000 187 133 95 97.000000 1.000000 4.000000 1.000000 -60.708740 114.000000 158.000000 -0.258848 -0.069447 0.963418
9690.00000000 860.00000000 570.00000000 187 133 95 97.000000 1.000000 4.000000 1.000000 -60.708740 114.000000 158.000000 0.080237 0.082497 0.993356
9690.00000000 860.00000000 560.00000000 187 133 95 97.000000 1.000000 4.000000 1.000000 -60.708740 114.000000 158.000000 -0.301520 -0.110247 0.947065
9660.00000000 950.00000000 550.00000000 187 133 95 97.000000 1.000000 4.000000 1.000000 -60.708740 114.000000 158.000000 -0.282669 0.204691 0.937123
9760.00000000 960.00000000 320.00000000 187 133 95 97.000000 1.000000 4.000000 1.000000 -60.708740 114.000000 158.000000 -0.131199 0.093376 0.986949
9560.00000000 830.00000000 510.00000000 187 133 95 97.000000 1.000000 4.000000 1.000000 -60.708740 114.000000 158.000000 -0.627550 -0.091730 0.773153
9730.00000000 950.00000000 260.00000000 187 133 95 97.000000 1.000000 4.000000 1.000000 -60.708740 114.000000 158.000000 0.746320 0.665410 0.015345
9700.00000000 930.00000000 80.00000000 187 133 95 97.000000 1.000000 4.000000 1.000000 -60.708740 114.000000 158.000000 -0.063985 0.050971 0.996648
9720.00000000 900.00000000 40.00000000 187 133 95 97.000000 1.000000 4.000000 1.000000 -60.708740 114.000000 158.000000 -0.108856 0.099492 0.989066
9710.00000000 810.00000000 20.00000000 187 133 95 97.000000 1.000000 4.000000 1.000000 -60.708740 114.000000 158.000000 0.384035 -0.024734 0.922987
9800.00000000 880.00000000 -40.00000000 187 133 95 97.000000 1.000000 4.000000 1.000000 -60.708740 114.000000 158.000000 0.156138 -0.291910 0.943615
9820.00000000 830.00000000 -60.00000000 187 133 95 97.000000 1.000000 4.000000 1.000000 -60.708740 114.000000 158.000000 -0.048924 0.194504 0.979681
9870.00000000 700.00000000 -80.00000000 187 133 95 97.000000 1.000000 4.000000 1.000000 -60.708740 114.000000 158.000000 0.072362 -0.424615 0.902478
9900.00000000 700.00000000 -120.00000000 187 133 95 97.000000 1.000000 4.000000 1.000000 -60.708740 114.000000 158.000000 0.385188 0.163456 0.908247
9860.00000000 690.00000000 -120.00000000 187 133 95 97.000000 1.000000 4.000000 1.000000 -60.708740 114.000000 158.000000 -0.027308 -0.095031 0.995100
9790.00000000 730.00000000 -60.00000000 187 133 95 97.000000 1.000000 4.000000 1.000000 -60.708740 114.000000 158.000000 -0.180746 0.160236 0.970389
9800.00000000 760.00000000 -80.00000000 187 133 95 97.000000 1.000000 4.000000 1.000000 -60.708740 114.000000 158.000000 0.048068 0.346871 0.936680
9790.00000000 700.00000000 -80.00000000 187 133 95 97.000000 1.000000 4.000000 1.000000 -60.708740 114.000000 158.000000 0.135926 -0.063897 0.988656
9830.00000000 650.00000000 -110.00000000 187 133 95 97.000000 1.000000 4.000000 1.000000 -60.708740 114.000000 158.000000 0.074386 0.253416 0.964493
9840.00000000 700.00000000 -120.00000000 187 133 95 97.000000 1.000000 4.000000 1.000000 -60.708740 114.000000 158.000000 0.178104 0.265117 0.947624
9940.00000000 580.00000000 -90.00000000 187 133 95 97.000000 1.000000 4.000000 1.000000 -60.708740 114.000000 158.000000 -0.237074 0.025272 0.971163
9910.00000000 600.00000000 -90.00000000 187 133 95 97.000000 1.000000 4.000000 1.000000 -60.708740 114.000000 158.000000 0.462810 0.248970 0.850776
9890.00000000 630.00000000 -90.00000000 187 133 95 97.000000 1.000000 4.000000 1.000000 -60.708740 114.000000 158.000000 0.038738 0.181953 0.982544
9930.00000000 570.00000000 -40.00000000 187 133 95 97.000000 1.000000 4.000000 1.000000 -60.708740 114.000000 158.000000 0.335178 -0.058689 0.940325
9860.00000000 630.00000000 -50.00000000 187 133 95 97.000000 1.000000 4.000000 1.000000 -60.708740 114.000000 158.000000 0.337509 0.402833 0.850772
9830.00000000 630.00000000 -110.00000000 187 133 95 97.000000 1.000000 4.000000 1.000000 -60.708740 114.000000 158.000000 0.303913 0.034048 0.952091
9630.00000000 1130.00000000 -90.00000000 187 133 95 97.000000 1.000000 4.000000 1.000000 -60.708740 114.000000 158.000000 0.324941 0.254998 0.910708
9570.00000000 1110.00000000 -80.00000000 187 133 95 97.000000 1.000000 4.000000 1.000000 -60.708740 114.000000 158.000000 0.359102 0.241844 0.901420
9590.00000000 1030.00000000 -60.00000000 187 133 95 97.000000 1.000000 4.000000 1.000000 -60.708740 114.000000 158.000000 0.351721 0.430583 0.831198
9730.00000000 830.00000000 -30.00000000 187 133 95 97.000000 1.000000 4.000000 1.000000 -60.708740 114.000000 158.000000 0.569213 -0.141189 0.809977
9700.00000000 840.00000000 -20.00000000 187 133 95 97.000000 1.000000 4.000000 1.000000 -60.708740 114.000000 158.000000 0.504067 0.014865 0.863536
9650.00000000 840.00000000 -30.00000000 187 133 95 97.000000 1.000000 4.000000 1.000000 -60.708740 114.000000 158.000000 0.469506 0.411020 0.781426
9750.00000000 800.00000000 -60.00000000 187 133 95 97.000000 1.000000 4.000000 1.000000 -60.708740 114.000000 158.000000 0.394905 0.038302 0.917923
9790.00000000 990.00000000 440.00000000 187 133 95 97.000000 1.000000 4.000000 1.000000 -60.708740 114.000000 158.000000 0.341851 0.106744 0.933672
9790.00000000 1000.00000000 440.00000000 187 133 95 97.000000 1.000000 4.000000 1.000000 -60.708740 114.000000 158.000000 0.364682 0.119726 0.923403
10100.00000000 580.00000000 370.00000000 187 133 95 97.000000 1.000000 4.000000 1.000000 -60.708740 114.000000 158.000000 0.227663 0.499636 0.835783
10120.00000000 480.00000000 370.00000000 187 133 95 97.000000 1.000000 4.000000 1.000000 -60.708740 114.000000 158.000000 0.427947 0.041587 0.902847
10110.00000000 570.00000000 290.00000000 187 133 95 97.000000 1.000000 4.000000 1.000000 -60.708740 114.000000 158.000000 0.898689 0.288706 0.330161
9960.00000000 800.00000000 410.00000000 187 133 95 97.000000 1.000000 4.000000 1.000000 -60.708740 114.000000 158.000000 0.647874 0.405957 0.644560
9940.00000000 790.00000000 400.00000000 187 133 95 97.000000 1.000000 4.000000 1.000000 -60.708740 114.000000 158.000000 0.334595 0.564123 0.754858
9880.00000000 900.00000000 490.00000000 187 133 95 97.000000 1.000000 4.000000 1.000000 -60.708740 114.000000 158.000000 0.573636 0.313330 0.756813
9810.00000000 920.00000000 570.00000000 187 133 95 97.000000 1.000000 4.000000 1.000000 -60.708740 114.000000 158.000000 -0.059169 0.044108 0.997273
9780.00000000 910.00000000 510.00000000 187 133 95 97.000000 1.000000 4.000000 1.000000 -60.708740 114.000000 158.000000 0.219475 0.144152 0.964910
9880.00000000 850.00000000 400.00000000 187 133 95 97.000000 1.000000 4.000000 1.000000 -60.708740 114.000000 158.000000 0.290910 0.041559 0.955847
9880.00000000 840.00000000 400.00000000 187 133 95 97.000000 1.000000 4.000000 1.000000 -60.708740 114.000000 158.000000 0.128771 -0.007704 0.991644
9820.00000000 880.00000000 390.00000000 187 133 95 97.000000 1.000000 4.000000 1.000000 -60.708740 114.000000 158.000000 0.075181 0.338975 0.937787
10020.00000000 700.00000000 260.00000000 187 133 95 97.000000 1.000000 4.000000 1.000000 -60.708740 114.000000 158.000000 0.957445 0.287851 0.021002
9950.00000000 740.00000000 270.00000000 187 133 95 97.000000 1.000000 4.000000 1.000000 -60.708740 114.000000 158.000000 0.970663 0.204819 0.125945
9980.00000000 750.00000000 280.00000000 187 133 95 97.000000 1.000000 4.000000 1.000000 -60.708740 114.000000 158.000000 0.573920 0.767876 0.284575
9970.00000000 770.00000000 200.00000000 187 133 95 97.000000 1.000000 4.000000 1.000000 -60.708740 114.000000 158.000000 -0.420053 -0.582761 0.695661
9940.00000000 640.00000000 190.00000000 187 133 95 97.000000 1.000000 4.000000 1.000000 -60.708740 114.000000 158.000000 -0.113355 -0.421232 0.899841
9950.00000000 690.00000000 190.00000000 187 133 95 97.000000 1.000000 4.000000 1.000000 -60.708740 114.000000 158.000000 -0.491682 -0.285644 0.822591
9970.00000000 650.00000000 130.00000000 187 133 95 97.000000 1.000000 4.000000 1.000000 -60.708740 114.000000 158.000000 -0.123483 -0.175870 0.976638
9880.00000000 840.00000000 250.00000000 187 133 95 97.000000 1.000000 4.000000 1.000000 -60.708740 114.000000 158.000000 0.868339 0.350705 -0.350705
9850.00000000 830.00000000 260.00000000 187 133 95 97.000000 1.000000 4.000000 1.000000 -60.708740 114.000000 158.000000 0.690803 0.608369 0.390741
9850.00000000 840.00000000 260.00000000 187 133 95 97.000000 1.000000 4.000000 1.000000 -60.708740 114.000000 158.000000 0.700056 0.597931 0.390384
9850.00000000 840.00000000 260.00000000 187 133 95 97.000000 1.000000 4.000000 1.000000 -60.708740 114.000000 158.000000 0.700056 0.597931 0.390384
9780.00000000 920.00000000 240.00000000 187 133 95 97.000000 1.000000 4.000000 1.000000 -60.708740 114.000000 158.000000 0.549197 0.626930 -0.552577
9800.00000000 940.00000000 190.00000000 187 133 95 97.000000 1.000000 4.000000 1.000000 -60.708740 114.000000 158.000000 -0.362917 -0.465237 0.807370
9830.00000000 840.00000000 280.00000000 187 133 95 97.000000 1.000000 4.000000 1.000000 -60.708740 114.000000 158.000000 0.182324 0.307585 0.933889
9770.00000000 860.00000000 190.00000000 187 133 95 97.000000 1.000000 4.000000 1.000000 -60.708740 114.000000 158.000000 0.320304 0.060949 0.945352
9810.00000000 840.00000000 170.00000000 187 133 95 97.000000 1.000000 4.000000 1.000000 -60.708740 114.000000 158.000000 -0.290129 -0.018519 0.956808
9870.00000000 810.00000000 140.00000000 187 133 95 97.000000 1.000000 4.000000 1.000000 -60.708740 114.000000 158.000000 -0.183739 0.099885 0.977887
9880.00000000 790.00000000 160.00000000 187 133 95 97.000000 1.000000 4.000000 1.000000 -60.708740 114.000000 158.000000 0.008469 -0.264950 0.964225
9900.00000000 670.00000000 160.00000000 187 133 95 97.000000 1.000000 4.000000 1.000000 -60.708740 114.000000 158.000000 0.170501 0.014876 0.985245
9880.00000000 800.00000000 130.00000000 187 133 95 97.000000 1.000000 4.000000 1.000000 -60.708740 114.000000 158.000000 -0.285683 -0.541377 0.790757
9840.00000000 800.00000000 90.00000000 187 133 95 97.000000 1.000000 4.000000 1.000000 -60.708740 114.000000 158.000000 -0.031809 -0.324453 0.945367
10060.00000000 580.00000000 380.00000000 187 133 95 97.000000 1.000000 4.000000 1.000000 -60.708740 114.000000 158.000000 0.700445 0.189351 0.688130
10060.00000000 560.00000000 380.00000000 187 133 95 97.000000 1.000000 4.000000 1.000000 -60.708740 114.000000 158.000000 0.241796 -0.154591 0.957933
10070.00000000 560.00000000 370.00000000 187 133 95 97.000000 1.000000 4.000000 1.000000 -60.708740 114.000000 158.000000 0.704162 0.217026 0.676058
10020.00000000 620.00000000 380.00000000 187 133 95 97.000000 1.000000 4.000000 1.000000 -60.708740 114.000000 158.000000 0.357849 0.171145 0.917961
10050.00000000 590.00000000 380.00000000 187 133 95 97.000000 1.000000 4.000000 1.000000 -60.708740 114.000000 158.000000 0.412719 0.494284 0.765079
10090.00000000 530.00000000 400.00000000 187 133 95 97.000000 1.000000 4.000000 1.000000 -60.708740 114.000000 158.000000 0.135145 0.127840 0.982544
10080.00000000 550.00000000 400.00000000 187 133 95 97.000000 1.000000 4.000000 1.000000 -60.708740 114.000000 158.000000 0.418933 0.231084 0.878120
10080.00000000 530.00000000 370.00000000 187 133 95 97.000000 1.000000 4.000000 1.000000 -60.708740 114.000000 158.000000 0.144034 0.069089 0.987158
10070.00000000 460.00000000 390.00000000 187 133 95 97.000000 1.000000 4.000000 1.000000 -60.708740 114.000000 158.000000 0.041584 0.193661 0.980187
10030.00000000 510.00000000 160.00000000 187 133 95 97.000000 1.000000 4.000000 1.000000 -60.708740 114.000000 158.000000 -0.115030 -0.171926 0.978371
9940.00000000 630.00000000 160.00000000 187 133 95 97.000000 1.000000 4.000000 1.000000 -60.708740 114.000000 158.000000 0.205838 -0.269386 0.940777
10000.00000000 510.00000000 250.00000000 187 133 95 97.000000 1.000000 4.000000 1.000000 -60.708740 114.000000 158.000000 0.669883 0.559075 -0.488561
9980.00000000 570.00000000 110.00000000 187 133 95 97.000000 1.000000 4.000000 1.000000 -60.708740 114.000000 158.000000 -0.164168 0.122200 0.978834
9970.00000000 520.00000000 40.00000000 187 133 95 97.000000 1.000000 4.000000 1.000000 -60.708740 114.000000 158.000000 -0.206947 0.027199 0.977974
9880.00000000 580.00000000 180.00000000 187 133 95 97.000000 1.000000 4.000000 1.000000 -60.708740 114.000000 158.000000 0.887460 0.105483 0.448652
9910.00000000 610.00000000 150.00000000 187 133 95 97.000000 1.000000 4.000000 1.000000 -60.708740 114.000000 158.000000 0.112277 0.138837 0.983930
9490.00000000 1400.00000000 390.00000000 187 133 95 97.000000 1.000000 4.000000 1.000000 -60.708740 114.000000 158.000000 0.512339 -0.214361 0.831600
9430.00000000 1390.00000000 330.00000000 187 133 95 97.000000 1.000000 4.000000 1.000000 -60.708740 114.000000 158.000000 0.668005 0.244777 -0.702747
9570.00000000 1400.00000000 210.00000000 187 133 95 97.000000 1.000000 4.000000 1.000000 -60.708740 114.000000 158.000000 0.755249 0.365443 -0.544104
9540.00000000 1360.00000000 250.00000000 187 133 95 97.000000 1.000000 4.000000 1.000000 -60.708740 114.000000 158.000000 0.648855 0.318764 -0.690925
9520.00000000 1360.00000000 280.00000000 187 133 95 97.000000 1.000000 4.000000 1.000000 -60.708740 114.000000 158.000000 0.827604 0.534276 -0.172106
9430.00000000 1450.00000000 300.00000000 187 133 95 97.000000 1.000000 4.000000 1.000000 -60.708740 114.000000 158.000000 0.826024 0.355364 -0.437493
9430.00000000 1470.00000000 200.00000000 187 133 95 97.000000 1.000000 4.000000 1.000000 -60.708740 114.000000 158.000000 -0.422781 -0.228570 0.876933
9440.00000000 1360.00000000 280.00000000 187 133 95 97.000000 1.000000 4.000000 1.000000 -60.708740 114.000000 158.000000 0.860598 0.350729 0.369269
9500.00000000 1330.00000000 290.00000000 187 133 95 97.000000 1.000000 4.000000 1.000000 -60.708740 114.000000 158.000000 0.842969 0.514077 0.158520
9490.00000000 1390.00000000 70.00000000 187 133 95 97.000000 1.000000 4.000000 1.000000 -60.708740 114.000000 158.000000 -0.278141 -0.238608 0.930432
9630.00000000 1150.00000000 490.00000000 187 133 95 97.000000 1.000000 4.000000 1.000000 -60.708740 114.000000 158.000000 0.147743 0.035504 0.988388
9640.00000000 1190.00000000 430.00000000 187 133 95 97.000000 1.000000 4.000000 1.000000 -60.708740 114.000000 158.000000 0.467160 0.228289 0.854193
9690.00000000 1090.00000000 510.00000000 187 133 95 97.000000 1.000000 4.000000 1.000000 -60.708740 114.000000 158.000000 -0.006186 0.308045 0.951352
9760.00000000 1090.00000000 550.00000000 187 133 95 97.000000 1.000000 4.000000 1.000000 -60.708740 114.000000 158.000000 0.368500 0.250106 0.895352
9740.00000000 1010.00000000 590.00000000 187 133 95 97.000000 1.000000 4.000000 1.000000 -60.708740 114.000000 158.000000 0.155369 0.165474 0.973899
9710.00000000 980.00000000 550.00000000 187 133 95 97.000000 1.000000 4.000000 1.000000 -60.708740 114.000000 158.000000 0.304617 0.036655 0.951769
9630.00000000 1130.00000000 560.00000000 187 133 95 97.000000 1.000000 4.000000 1.000000 -60.708740 114.000000 158.000000 0.010783 0.245621 0.969306
9620.00000000 1030.00000000 520.00000000 187 133 95 97.000000 1.000000 4.000000 1.000000 -60.708740 114.000000 158.000000 0.214835 -0.196154 0.956750
9730.00000000 1000.00000000 400.00000000 187 133 95 97.000000 1.000000 4.000000 1.000000 -60.708740 114.000000 158.000000 0.201561 0.378471 0.903401
9750.00000000 1000.00000000 340.00000000 187 133 95 97.000000 1.000000 4.000000 1.000000 -60.708740 114.000000 158.000000 0.224576 0.138899 0.964507
9700.00000000 1020.00000000 370.00000000 187 133 95 97.000000 1.000000 4.000000 1.000000 -60.708740 114.000000 158.000000 -0.087972 0.256267 0.962595
9660.00000000 1120.00000000 380.00000000 187 133 95 97.000000 1.000000 4.000000 1.000000 -60.708740 114.000000 158.000000 0.133473 0.394799 0.909021
9580.00000000 1150.00000000 330.00000000 187 133 95 97.000000 1.000000 4.000000 1.000000 -60.708740 114.000000 158.000000 -0.225928 -0.527164 0.819179
9660.00000000 1170.00000000 290.00000000 187 133 95 97.000000 1.000000 4.000000 1.000000 -60.708740 114.000000 158.000000 0.523576 0.769965 0.364720
9620.00000000 1150.00000000 200.00000000 187 133 95 97.000000 1.000000 4.000000 1.000000 -60.708740 114.000000 158.000000 -0.063498 -0.130460 0.989418
9610.00000000 1160.00000000 180.00000000 187 133 95 97.000000 1.000000 4.000000 1.000000 -60.708740 114.000000 158.000000 -0.344490 0.083795 0.935043
9700.00000000 1070.00000000 280.00000000 187 133 95 97.000000 1.000000 4.000000 1.000000 -60.708740 114.000000 158.000000 0.949523 0.308819 0.055101
9640.00000000 1120.00000000 210.00000000 187 133 95 97.000000 1.000000 4.000000 1.000000 -60.708740 114.000000 158.000000 0.020111 -0.467916 0.883544
9670.00000000 1090.00000000 200.00000000 187 133 95 97.000000 1.000000 4.000000 1.000000 -60.708740 114.000000 158.000000 -0.505696 -0.126062 0.853452
9650.00000000 1090.00000000 190.00000000 187 133 95 97.000000 1.000000 4.000000 1.000000 -60.708740 114.000000 158.000000 0.087325 -0.439396 0.894039
9650.00000000 1070.00000000 190.00000000 187 133 95 97.000000 1.000000 4.000000 1.000000 -60.708740 114.000000 158.000000 0.011908 0.100676 0.994848
9630.00000000 1090.00000000 210.00000000 187 133 95 97.000000 1.000000 4.000000 1.000000 -60.708740 114.000000 158.000000 -0.015435 0.038073 0.999156
9610.00000000 1100.00000000 160.00000000 187 133 95 97.000000 1.000000 4.000000 1.000000 -60.708740 114.000000 158.000000 0.001053 -0.078950 0.996878
9520.00000000 1310.00000000 150.00000000 187 133 95 97.000000 1.000000 4.000000 1.000000 -60.708740 114.000000 158.000000 -0.023893 -0.313118 0.949414
9490.00000000 1280.00000000 300.00000000 187 133 95 97.000000 1.000000 4.000000 1.000000 -60.708740 114.000000 158.000000 0.658056 0.506585 -0.557076
9520.00000000 1200.00000000 70.00000000 187 133 95 97.000000 1.000000 4.000000 1.000000 -60.708740 114.000000 158.000000 -0.055227 -0.104818 0.992957
9500.00000000 1310.00000000 90.00000000 187 133 95 97.000000 1.000000 4.000000 1.000000 -60.708740 114.000000 158.000000 0.152827 -0.223363 0.962680
9570.00000000 1040.00000000 200.00000000 187 133 95 97.000000 1.000000 4.000000 1.000000 -60.708740 114.000000 158.000000 0.803041 0.131622 0.581206
9400.00000000 1540.00000000 530.00000000 187 133 95 97.000000 1.000000 4.000000 1.000000 -60.708740 114.000000 158.000000 0.090985 -0.376163 0.922075
9310.00000000 1650.00000000 570.00000000 187 133 95 97.000000 1.000000 4.000000 1.000000 -60.708740 114.000000 158.000000 0.110346 -0.307108 0.945256
9360.00000000 1490.00000000 380.00000000 187 133 95 97.000000 1.000000 4.000000 1.000000 -60.708740 114.000000 158.000000 -0.344028 -0.230804 0.910151
9410.00000000 1430.00000000 370.00000000 187 133 95 97.000000 1.000000 4.000000 1.000000 -60.708740 114.000000 158.000000 -0.162389 -0.290662 0.942945
9390.00000000 1400.00000000 300.00000000 187 133 95 97.000000 1.000000 4.000000 1.000000 -60.708740 114.000000 158.000000 0.928600 0.365329 0.065095
9410.00000000 1410.00000000 290.00000000 187 133 95 97.000000 1.000000 4.000000 1.000000 -60.708740 114.000000 158.000000 0.754885 0.621578 0.209260
9400.00000000 1470.00000000 310.00000000 187 133 95 97.000000 1.000000 4.000000 1.000000 -60.708740 114.000000 158.000000 0.938496 0.319170 -0.131743
9400.00000000 1320.00000000 260.00000000 187 133 95 97.000000 1.000000 4.000000 1.000000 -60.708740 114.000000 158.000000 0.792424 0.604783 0.079387
9420.00000000 1340.00000000 190.00000000 187 133 95 97.000000 1.000000 4.000000 1.000000 -60.708740 114.000000 158.000000 0.404906 -0.161676 0.899951
9310.00000000 1400.00000000 310.00000000 187 133 95 97.000000 1.000000 4.000000 1.000000 -60.708740 114.000000 158.000000 0.815496 0.384608 -0.432484
9330.00000000 1370.00000000 280.00000000 187 133 95 97.000000 1.000000 4.000000 1.000000 -60.708740 114.000000 158.000000 0.914313 0.403876 -0.030258
9750.00000000 920.00000000 500.00000000 187 133 95 97.000000 1.000000 4.000000 1.000000 -60.708740 114.000000 158.000000 0.044874 -0.024002 0.998704
9740.00000000 950.00000000 540.00000000 187 133 95 97.000000 1.000000 4.000000 1.000000 -60.708740 114.000000 158.000000 0.020023 0.060069 0.997993
9740.00000000 960.00000000 170.00000000 187 133 95 97.000000 1.000000 4.000000 1.000000 -60.708740 114.000000 158.000000 -0.041320 -0.284229 0.957865
9720.00000000 960.00000000 140.00000000 187 133 95 97.000000 1.000000 4.000000 1.000000 -60.708740 114.000000 158.000000 0.099762 -0.270783 0.957457
9740.00000000 880.00000000 90.00000000 187 133 95 97.000000 1.000000 4.000000 1.000000 -60.708740 114.000000 158.000000 0.091324 -0.071029 0.993285
9770.00000000 840.00000000 -90.00000000 187 133 95 97.000000 1.000000 4.000000 1.000000 -60.708740 114.000000 158.000000 -0.086696 0.232447 0.968737
9890.00000000 650.00000000 -80.00000000 187 133 95 97.000000 1.000000 4.000000 1.000000 -60.708740 114.000000 158.000000 0.500618 -0.065541 0.863183
9820.00000000 680.00000000 -50.00000000 187 133 95 97.000000 1.000000 4.000000 1.000000 -60.708740 114.000000 158.000000 0.187982 -0.275799 0.942655
9840.00000000 640.00000000 -50.00000000 187 133 95 97.000000 1.000000 4.000000 1.000000 -60.708740 114.000000 158.000000 0.027013 -0.193785 0.980672
9780.00000000 660.00000000 -80.00000000 187 133 95 97.000000 1.000000 4.000000 1.000000 -60.708740 114.000000 158.000000 0.370147 0.153407 0.916219
9900.00000000 590.00000000 -40.00000000 187 133 95 97.000000 1.000000 4.000000 1.000000 -60.708740 114.000000 158.000000 0.375981 0.326874 0.867059
9850.00000000 630.00000000 -80.00000000 187 133 95 97.000000 1.000000 4.000000 1.000000 -60.708740 114.000000 158.000000 0.090636 0.444815 0.891025
9870.00000000 600.00000000 -20.00000000 187 133 95 97.000000 1.000000 4.000000 1.000000 -60.708740 114.000000 158.000000 0.616226 0.064339 0.784937
9470.00000000 1400.00000000 -60.00000000 187 133 95 97.000000 1.000000 4.000000 1.000000 -60.708740 114.000000 158.000000 0.221282 -0.379550 0.898318
9510.00000000 1070.00000000 -40.00000000 187 133 95 97.000000 1.000000 4.000000 1.000000 -60.708740 114.000000 158.000000 0.398036 0.485767 0.778202
9550.00000000 1090.00000000 -70.00000000 187 133 95 97.000000 1.000000 4.000000 1.000000 -60.708740 114.000000 158.000000 0.412512 0.244507 0.877525
9380.00000000 1420.00000000 -60.00000000 187 133 95 97.000000 1.000000 4.000000 1.000000 -60.708740 114.000000 158.000000 0.254323 -0.324080 0.911203
9760.00000000 940.00000000 -50.00000000 187 133 95 97.000000 1.000000 4.000000 1.000000 -60.708740 114.000000 158.000000 0.333308 -0.324259 0.885303
9750.00000000 870.00000000 -20.00000000 187 133 95 97.000000 1.000000 4.000000 1.000000 -60.708740 114.000000 158.000000 0.126692 -0.184394 0.974653
9680.00000000 880.00000000 -40.00000000 187 133 95 97.000000 1.000000 4.000000 1.000000 -60.708740 114.000000 158.000000 0.253272 0.185553 0.949433
9750.00000000 820.00000000 -110.00000000 187 133 95 97.000000 1.000000 4.000000 1.000000 -60.708740 114.000000 158.000000 0.304219 0.169316 0.937434
9310.00000000 1660.00000000 560.00000000 187 133 95 97.000000 1.000000 4.000000 1.000000 -60.708740 114.000000 158.000000 -0.325691 -0.132184 0.936191
9790.00000000 1000.00000000 530.00000000 187 133 95 97.000000 1.000000 4.000000 1.000000 -60.708740 114.000000 158.000000 0.270213 0.344042 0.899233
10030.00000000 640.00000000 330.00000000 187 133 95 97.000000 1.000000 4.000000 1.000000 -60.708740 114.000000 158.000000 0.206680 0.250480 0.945803
9970.00000000 680.00000000 380.00000000 187 133 95 97.000000 1.000000 4.000000 1.000000 -60.708740 114.000000 158.000000 0.246413 -0.126466 0.960878
9810.00000000 920.00000000 570.00000000 187 133 95 97.000000 1.000000 4.000000 1.000000 -60.708740 114.000000 158.000000 -0.059169 0.044108 0.997273
9850.00000000 950.00000000 410.00000000 187 133 95 97.000000 1.000000 4.000000 1.000000 -60.708740 114.000000 158.000000 0.103495 0.041176 0.993777
9850.00000000 910.00000000 450.00000000 187 133 95 97.000000 1.000000 4.000000 1.000000 -60.708740 114.000000 158.000000 0.013505 0.283603 0.958847
10030.00000000 650.00000000 200.00000000 187 133 95 97.000000 1.000000 4.000000 1.000000 -60.708740 114.000000 158.000000 0.890841 0.421520 -0.169477
9940.00000000 770.00000000 220.00000000 187 133 95 97.000000 1.000000 4.000000 1.000000 -60.708740 114.000000 158.000000 0.655074 0.387764 -0.648473
9960.00000000 650.00000000 240.00000000 187 133 95 97.000000 1.000000 4.000000 1.000000 -60.708740 114.000000 158.000000 0.661065 0.728552 -0.179454
9920.00000000 830.00000000 240.00000000 187 133 95 97.000000 1.000000 4.000000 1.000000 -60.708740 114.000000 158.000000 0.830273 0.556739 0.026248
9880.00000000 870.00000000 260.00000000 187 133 95 97.000000 1.000000 4.000000 1.000000 -60.708740 114.000000 158.000000 0.937300 0.347481 -0.026927
9830.00000000 810.00000000 260.00000000 187 133 95 97.000000 1.000000 4.000000 1.000000 -60.708740 114.000000 158.000000 -0.421888 -0.343470 0.839070
9820.00000000 870.00000000 180.00000000 187 133 95 97.000000 1.000000 4.000000 1.000000 -60.708740 114.000000 158.000000 -0.039083 0.045421 0.998203
9770.00000000 860.00000000 190.00000000 187 133 95 97.000000 1.000000 4.000000 1.000000 -60.708740 114.000000 158.000000 0.320304 0.060949 0.945352
9910.00000000 700.00000000 150.00000000 187 133 95 97.000000 1.000000 4.000000 1.000000 -60.708740 114.000000 158.000000 -0.147652 -0.332563 0.931451
9870.00000000 670.00000000 230.00000000 187 133 95 97.000000 1.000000 4.000000 1.000000 -60.708740 114.000000 158.000000 0.964871 0.173651 0.197152
9820.00000000 780.00000000 260.00000000 187 133 95 97.000000 1.000000 4.000000 1.000000 -60.708740 114.000000 158.000000 0.634444 0.486351 -0.600786
9840.00000000 740.00000000 10.00000000 187 133 95 97.000000 1.000000 4.000000 1.000000 -60.708740 114.000000 158.000000 -0.187555 -0.053758 0.980782
9870.00000000 680.00000000 140.00000000 187 133 95 97.000000 1.000000 4.000000 1.000000 -60.708740 114.000000 158.000000 0.170970 -0.229285 0.958226
9870.00000000 710.00000000 90.00000000 187 133 95 97.000000 1.000000 4.000000 1.000000 -60.708740 114.000000 158.000000 0.276514 -0.188470 0.942348
10080.00000000 590.00000000 350.00000000 187 133 95 97.000000 1.000000 4.000000 1.000000 -60.708740 114.000000 158.000000 0.818182 0.099920 0.566211
10060.00000000 590.00000000 380.00000000 187 133 95 97.000000 1.000000 4.000000 1.000000 -60.708740 114.000000 158.000000 0.690241 0.133257 0.711203
10030.00000000 570.00000000 220.00000000 187 133 95 97.000000 1.000000 4.000000 1.000000 -60.708740 114.000000 158.000000 0.814841 0.575098 -0.072779
9980.00000000 630.00000000 240.00000000 187 133 95 97.000000 1.000000 4.000000 1.000000 -60.708740 114.000000 158.000000 0.928500 0.349730 -0.124806
10010.00000000 510.00000000 170.00000000 187 133 95 97.000000 1.000000 4.000000 1.000000 -60.708740 114.000000 158.000000 -0.038083 -0.158101 0.986688
10030.00000000 550.00000000 80.00000000 187 133 95 97.000000 1.000000 4.000000 1.000000 -60.708740 114.000000 158.000000 -0.403581 0.011679 0.914870
9990.00000000 510.00000000 50.00000000 187 133 95 97.000000 1.000000 4.000000 1.000000 -60.708740 114.000000 158.000000 -0.106647 0.003232 0.994292
9430.00000000 1420.00000000 390.00000000 187 133 95 97.000000 1.000000 4.000000 1.000000 -60.708740 114.000000 158.000000 0.113028 -0.219707 0.968996
9500.00000000 1340.00000000 220.00000000 187 133 95 97.000000 1.000000 4.000000 1.000000 -60.708740 114.000000 158.000000 0.181102 -0.410014 0.893918
9620.00000000 1170.00000000 490.00000000 187 133 95 97.000000 1.000000 4.000000 1.000000 -60.708740 114.000000 158.000000 0.396172 0.190105 0.898280
9670.00000000 1150.00000000 440.00000000 187 133 95 97.000000 1.000000 4.000000 1.000000 -60.708740 114.000000 158.000000 0.093969 0.461430 0.882186
9690.00000000 1080.00000000 490.00000000 187 133 95 97.000000 1.000000 4.000000 1.000000 -60.708740 114.000000 158.000000 0.328361 0.278297 0.902624
9700.00000000 1050.00000000 580.00000000 187 133 95 97.000000 1.000000 4.000000 1.000000 -60.708740 114.000000 158.000000 -0.001115 0.150466 0.988615
9730.00000000 1000.00000000 400.00000000 187 133 95 97.000000 1.000000 4.000000 1.000000 -60.708740 114.000000 158.000000 0.201561 0.378471 0.903401
9660.00000000 1110.00000000 400.00000000 187 133 95 97.000000 1.000000 4.000000 1.000000 -60.708740 114.000000 158.000000 0.070319 0.168049 0.983267
9670.00000000 1050.00000000 480.00000000 187 133 95 97.000000 1.000000 4.000000 1.000000 -60.708740 114.000000 158.000000 -0.028173 0.134104 0.990567
9530.00000000 1250.00000000 500.00000000 187 133 95 97.000000 1.000000 4.000000 1.000000 -60.708740 114.000000 158.000000 0.225603 -0.034987 0.973591
9500.00000000 1300.00000000 410.00000000 187 133 95 97.000000 1.000000 4.000000 1.000000 -60.708740 114.000000 158.000000 0.172642 -0.167527 0.970633
9500.00000000 1270.00000000 460.00000000 187 133 95 97.000000 1.000000 4.000000 1.000000 -60.708740 114.000000 158.000000 -0.270820 -0.085995 0.958781
9670.00000000 1160.00000000 300.00000000 187 133 95 97.000000 1.000000 4.000000 1.000000 -60.708740 114.000000 158.000000 0.807512 0.288060 0.514730
9540.00000000 1270.00000000 40.00000000 187 133 95 97.000000 1.000000 4.000000 1.000000 -60.708740 114.000000 158.000000 -0.323719 -0.018894 0.945965
9310.00000000 1650.00000000 570.00000000 187 133 95 97.000000 1.000000 4.000000 1.000000 -60.708740 114.000000 158.000000 0.110346 -0.307108 0.945256
9360.00000000 1570.00000000 400.00000000 187 133 95 97.000000 1.000000 4.000000 1.000000 -60.708740 114.000000 158.000000 0.323600 -0.196421 0.925582
9380.00000000 1540.00000000 340.00000000 187 133 95 97.000000 1.000000 4.000000 1.000000 -60.708740 114.000000 158.000000 0.350223 -0.244717 0.904133
9330.00000000 1500.00000000 450.00000000 187 133 95 97.000000 1.000000 4.000000 1.000000 -60.708740 114.000000 158.000000 -0.050203 -0.097058 0.994012
9310.00000000 1480.00000000 300.00000000 187 133 95 97.000000 1.000000 4.000000 1.000000 -60.708740 114.000000 158.000000 0.730235 0.677763 -0.085996
9410.00000000 1370.00000000 -10.00000000 187 133 95 97.000000 1.000000 4.000000 1.000000 -60.708740 114.000000 158.000000 0.026448 -0.316117 0.948351
9730.00000000 920.00000000 510.00000000 187 133 95 97.000000 1.000000 4.000000 1.000000 -60.708740 114.000000 158.000000 -0.398462 -0.032876 0.916595
9670.00000000 920.00000000 550.00000000 187 133 95 97.000000 1.000000 4.000000 1.000000 -60.708740 114.000000 158.000000 -0.199740 0.153349 0.967775
9720.00000000 950.00000000 220.00000000 187 133 95 97.000000 1.000000 4.000000 1.000000 -60.708740 114.000000 158.000000 0.210725 -0.126435 0.969334
9850.00000000 680.00000000 -80.00000000 187 133 95 97.000000 1.000000 4.000000 1.000000 -60.708740 114.000000 158.000000 -0.142527 -0.236674 0.961078
9900.00000000 640.00000000 -80.00000000 187 133 95 97.000000 1.000000 4.000000 1.000000 -60.708740 114.000000 158.000000 0.088630 0.135900 0.986750
9890.00000000 680.00000000 -120.00000000 187 133 95 97.000000 1.000000 4.000000 1.000000 -60.708740 114.000000 158.000000 0.426775 0.189189 0.884348
9840.00000000 710.00000000 -50.00000000 187 133 95 97.000000 1.000000 4.000000 1.000000 -60.708740 114.000000 158.000000 0.346145 0.067123 0.935777
9820.00000000 660.00000000 -80.00000000 187 133 95 97.000000 1.000000 4.000000 1.000000 -60.708740 114.000000 158.000000 0.156132 0.411101 0.898120
9710.00000000 890.00000000 -60.00000000 187 133 95 97.000000 1.000000 4.000000 1.000000 -60.708740 114.000000 158.000000 -0.103715 0.043493 0.993656
9890.00000000 910.00000000 490.00000000 187 133 95 97.000000 1.000000 4.000000 1.000000 -60.708740 114.000000 158.000000 0.531608 0.260347 0.805986
9900.00000000 910.00000000 540.00000000 187 133 95 97.000000 1.000000 4.000000 1.000000 -60.708740 114.000000 158.000000 0.166029 0.423014 0.890783
9840.00000000 840.00000000 570.00000000 187 133 95 97.000000 1.000000 4.000000 1.000000 -60.708740 114.000000 158.000000 -0.006320 0.350147 0.936674
9790.00000000 920.00000000 150.00000000 187 133 95 97.000000 1.000000 4.000000 1.000000 -60.708740 114.000000 158.000000 -0.467753 -0.301927 0.830691
9840.00000000 820.00000000 210.00000000 187 133 95 97.000000 1.000000 4.000000 1.000000 -60.708740 114.000000 158.000000 0.058262 -0.424095 0.903742
10030.00000000 610.00000000 350.00000000 187 133 95 97.000000 1.000000 4.000000 1.000000 -60.708740 114.000000 158.000000 0.066561 0.055649 0.996229
9980.00000000 580.00000000 440.00000000 187 133 95 97.000000 1.000000 4.000000 1.000000 -60.708740 114.000000 158.000000 -0.242942 -0.240166 0.939840
9950.00000000 630.00000000 140.00000000 187 133 95 97.000000 1.000000 4.000000 1.000000 -60.708740 114.000000 158.000000 -0.353743 0.001259 0.935342
9530.00000000 1360.00000000 290.00000000 187 133 95 97.000000 1.000000 4.000000 1.000000 -60.708740 114.000000 158.000000 0.679835 0.566251 -0.466030
9520.00000000 1380.00000000 250.00000000 187 133 95 97.000000 1.000000 4.000000 1.000000 -60.708740 114.000000 158.000000 0.796079 0.357194 -0.488539
9700.00000000 1090.00000000 360.00000000 187 133 95 97.000000 1.000000 4.000000 1.000000 -60.708740 114.000000 158.000000 0.024371 0.182201 0.982959
9710.00000000 1070.00000000 270.00000000 187 133 95 97.000000 1.000000 4.000000 1.000000 -60.708740 114.000000 158.000000 0.958925 0.272698 0.078097
9270.00000000 1510.00000000 340.00000000 187 133 95 97.000000 1.000000 4.000000 1.000000 -60.708740 114.000000 158.000000 0.930695 0.186139 -0.314897
9340.00000000 1480.00000000 310.00000000 187 133 95 97.000000 1.000000 4.000000 1.000000 -60.708740 114.000000 158.000000 0.844940 0.534721 -0.012246
9360.00000000 1300.00000000 20.00000000 187 133 95 97.000000 1.000000 4.000000 1.000000 -60.708740 114.000000 158.000000 0.223163 -0.083530 0.971196
9750.00000000 970.00000000 360.00000000 187 133 95 97.000000 1.000000 4.000000 1.000000 -60.708740 114.000000 158.000000 0.527917 0.159119 0.834257
9740.00000000 960.00000000 300.00000000 187 133 95 97.000000 1.000000 4.000000 1.000000 -60.708740 114.000000 158.000000 -0.136144 -0.112048 0.984332
9800.00000000 910.00000000 -30.00000000 187 133 95 97.000000 1.000000 4.000000 1.000000 -60.708740 114.000000 158.000000 0.304017 -0.336964 0.891083
9850.00000000 680.00000000 -120.00000000 187 133 95 97.000000 1.000000 4.000000 1.000000 -60.708740 114.000000 158.000000 0.450887 0.003944 0.892572
9930.00000000 580.00000000 -50.00000000 187 133 95 97.000000 1.000000 4.000000 1.000000 -60.708740 114.000000 158.000000 -0.231271 -0.063074 0.970843
9830.00000000 620.00000000 -100.00000000 187 133 95 97.000000 1.000000 4.000000 1.000000 -60.708740 114.000000 158.000000 -0.096378 0.307617 0.946616
9940.00000000 700.00000000 160.00000000 187 133 95 97.000000 1.000000 4.000000 1.000000 -60.708740 114.000000 158.000000 -0.114531 -0.448225 0.886553
9940.00000000 700.00000000 120.00000000 187 133 95 97.000000 1.000000 4.000000 1.000000 -60.708740 114.000000 158.000000 -0.235311 -0.355159 0.904705
9860.00000000 870.00000000 240.00000000 187 133 95 97.000000 1.000000 4.000000 1.000000 -60.708740 114.000000 158.000000 0.701062 0.691898 -0.172593
9980.00000000 550.00000000 270.00000000 187 133 95 97.000000 1.000000 4.000000 1.000000 -60.708740 114.000000 158.000000 -0.221955 -0.588258 0.777618
9970.00000000 590.00000000 80.00000000 187 133 95 97.000000 1.000000 4.000000 1.000000 -60.708740 114.000000 158.000000 0.123747 -0.048818 0.991112
9470.00000000 1410.00000000 420.00000000 187 133 95 97.000000 1.000000 4.000000 1.000000 -60.708740 114.000000 158.000000 0.521519 0.068880 0.850455
