//X Y Z R G B PointSourceId ScanDirectionFlag NumberOfReturns ReturnNumber GpsTime Intensity Classification Nx Ny Nz
1800.00000000 1180.00000000 160.00000000 93 179 119 97.000000 1.000000 4.000000 1.000000 -60.708740 114.000000 50.000000 0.014433 -0.129895 0.991423
1780.00000000 1160.00000000 170.00000000 93 179 119 97.000000 1.000000 4.000000 1.000000 -60.708740 114.000000 50.000000 0.472795 -0.385659 0.792295
1790.00000000 1180.00000000 160.00000000 93 179 119 97.000000 1.000000 4.000000 1.000000 -60.708740 114.000000 50.000000 0.002956 0.006896 0.999972
1790.00000000 1180.00000000 160.00000000 93 179 119 97.000000 1.000000 4.000000 1.000000 -60.708740 114.000000 50.000000 0.002956 0.006896 0.999972
1790.00000000 1160.00000000 170.00000000 93 179 119 97.000000 1.000000 4.000000 1.000000 -60.708740 114.000000 50.000000 0.317495 -0.384982 0.866594
1780.00000000 1180.00000000 160.00000000 93 179 119 97.000000 1.000000 4.000000 1.000000 -60.708740 114.000000 50.000000 0.124681 0.161715 0.978930
1730.00000000 1220.00000000 200.00000000 93 179 119 97.000000 1.000000 4.000000 1.000000 -60.708740 114.000000 50.000000 0.329378 0.083337 0.940513
1720.00000000 1190.00000000 180.00000000 93 179 119 97.000000 1.000000 4.000000 1.000000 -60.708740 114.000000 50.000000 -0.106560 -0.132901 0.985384
1760.00000000 1200.00000000 160.00000000 93 179 119 97.000000 1.000000 4.000000 1.000000 -60.708740 114.000000 50.000000 -0.127295 -0.393077 0.910652
1720.00000000 1210.00000000 180.00000000 93 179 119 97.000000 1.000000 4.000000 1.000000 -60.708740 114.000000 50.000000 -0.102398 -0.268309 0.957875
1720.00000000 1210.00000000 180.00000000 93 179 119 97.000000 1.000000 4.000000 1.000000 -60.708740 114.000000 50.000000 -0.102398 -0.268309 0.957875
1740.00000000 1170.00000000 200.00000000 93 179 119 97.000000 1.000000 4.000000 1.000000 -60.708740 114.000000 50.000000 -0.105182 -0.151123 0.982903
1720.00000000 1170.00000000 180.00000000 93 179 119 97.000000 1.000000 4.000000 1.000000 -60.708740 114.000000 50.000000 0.164855 -0.106240 0.980579
1720.00000000 1170.00000000 180.00000000 93 179 119 97.000000 1.000000 4.000000 1.000000 -60.708740 114.000000 50.000000 0.164855 -0.106240 0.980579
1730.00000000 1180.00000000 180.00000000 93 179 119 97.000000 1.000000 4.000000 1.000000 -60.708740 114.000000 50.000000 0.216758 -0.252654 0.942965
1720.00000000 1170.00000000 180.00000000 93 179 119 97.000000 1.000000 4.000000 1.000000 -60.708740 114.000000 50.000000 0.164855 -0.106240 0.980579
1730.00000000 1170.00000000 180.00000000 93 179 119 97.000000 1.000000 4.000000 1.000000 -60.708740 114.000000 50.000000 -0.041410 0.113039 0.992727
1730.00000000 1150.00000000 180.00000000 93 179 119 97.000000 1.000000 4.000000 1.000000 -60.708740 114.000000 50.000000 -0.071619 -0.247526 0.966231
1720.00000000 1160.00000000 170.00000000 93 179 119 97.000000 1.000000 4.000000 1.000000 -60.708740 114.000000 50.000000 -0.066972 -0.062580 0.995790
1710.00000000 1170.00000000 180.00000000 93 179 119 97.000000 1.000000 4.000000 1.000000 -60.708740 114.000000 50.000000 0.330539 -0.156280 0.930764
1810.00000000 1160.00000000 100.00000000 93 179 119 97.000000 1.000000 4.000000 1.000000 -60.708740 114.000000 50.000000 0.077851 -0.411106 0.908257
1830.00000000 1150.00000000 100.00000000 93 179 119 97.000000 1.000000 4.000000 1.000000 -60.708740 114.000000 50.000000 0.012266 -0.541061 0.840894
1770.00000000 1190.00000000 130.00000000 93 179 119 97.000000 1.000000 4.000000 1.000000 -60.708740 114.000000 50.000000 0.317867 -0.455661 0.831465
1790.00000000 1200.00000000 130.00000000 93 179 119 97.000000 1.000000 4.000000 1.000000 -60.708740 114.000000 50.000000 0.608473 -0.158535 0.777578
1770.00000000 1190.00000000 130.00000000 93 179 119 97.000000 1.000000 4.000000 1.000000 -60.708740 114.000000 50.000000 0.317867 -0.455661 0.831465
1780.00000000 1180.00000000 130.00000000 93 179 119 97.000000 1.000000 4.000000 1.000000 -60.708740 114.000000 50.000000 0.076229 -0.367772 0.926786
1770.00000000 1180.00000000 130.00000000 93 179 119 97.000000 1.000000 4.000000 1.000000 -60.708740 114.000000 50.000000 0.258576 -0.384127 0.886332
1810.00000000 1150.00000000 40.00000000 93 179 119 97.000000 1.000000 4.000000 1.000000 -60.708740 114.000000 50.000000 0.548532 -0.286122 0.785650
1810.00000000 1150.00000000 40.00000000 93 179 119 97.000000 1.000000 4.000000 1.000000 -60.708740 114.000000 50.000000 0.548532 -0.286122 0.785650
1800.00000000 1180.00000000 60.00000000 93 179 119 97.000000 1.000000 4.000000 1.000000 -60.708740 114.000000 50.000000 -0.030912 -0.275733 0.960737
1740.00000000 1170.00000000 140.00000000 93 179 119 97.000000 1.000000 4.000000 1.000000 -60.708740 114.000000 50.000000 0.108352 -0.322381 0.940389
1810.00000000 1130.00000000 180.00000000 93 179 119 97.000000 1.000000 4.000000 1.000000 -60.708740 114.000000 50.000000 0.186359 -0.682289 0.706931
1820.00000000 1090.00000000 170.00000000 93 179 119 97.000000 1.000000 4.000000 1.000000 -60.708740 114.000000 50.000000 0.116974 -0.512662 0.850585
1810.00000000 1100.00000000 180.00000000 93 179 119 97.000000 1.000000 4.000000 1.000000 -60.708740 114.000000 50.000000 -0.397768 0.599128 -0.694857
1770.00000000 1130.00000000 190.00000000 93 179 119 97.000000 1.000000 4.000000 1.000000 -60.708740 114.000000 50.000000 0.265564 -0.237462 0.934392
1770.00000000 1140.00000000 190.00000000 93 179 119 97.000000 1.000000 4.000000 1.000000 -60.708740 114.000000 50.000000 -0.078351 -0.542762 0.836224
1780.00000000 1120.00000000 160.00000000 93 179 119 97.000000 1.000000 4.000000 1.000000 -60.708740 114.000000 50.000000 0.058360 -0.328112 0.942835
1780.00000000 1120.00000000 160.00000000 93 179 119 97.000000 1.000000 4.000000 1.000000 -60.708740 114.000000 50.000000 0.058360 -0.328112 0.942835
1800.00000000 1100.00000000 210.00000000 93 179 119 97.000000 1.000000 4.000000 1.000000 -60.708740 114.000000 50.000000 0.243819 -0.405368 0.881039
1800.00000000 1070.00000000 160.00000000 93 179 119 97.000000 1.000000 4.000000 1.000000 -60.708740 114.000000 50.000000 -0.023301 -0.533177 0.845682
1770.00000000 1090.00000000 170.00000000 93 179 119 97.000000 1.000000 4.000000 1.000000 -60.708740 114.000000 50.000000 -0.427336 0.606916 -0.670102
1810.00000000 1050.00000000 150.00000000 93 179 119 97.000000 1.000000 4.000000 1.000000 -60.708740 114.000000 50.000000 0.131430 -0.240738 0.961650
1810.00000000 1050.00000000 150.00000000 93 179 119 97.000000 1.000000 4.000000 1.000000 -60.708740 114.000000 50.000000 0.131430 -0.240738 0.961650
1830.00000000 1060.00000000 160.00000000 93 179 119 97.000000 1.000000 4.000000 1.000000 -60.708740 114.000000 50.000000 -0.230898 0.692695 -0.683271
1810.00000000 1030.00000000 160.00000000 93 179 119 97.000000 1.000000 4.000000 1.000000 -60.708740 114.000000 50.000000 0.361717 -0.331192 0.871477
1840.00000000 980.00000000 190.00000000 93 179 119 97.000000 1.000000 4.000000 1.000000 -60.708740 114.000000 50.000000 0.743982 -0.236508 0.624944
1790.00000000 980.00000000 150.00000000 93 179 119 97.000000 1.000000 4.000000 1.000000 -60.708740 114.000000 50.000000 -0.618633 0.668389 -0.412975
1760.00000000 1110.00000000 210.00000000 93 179 119 97.000000 1.000000 4.000000 1.000000 -60.708740 114.000000 50.000000 0.182816 -0.012648 0.983066
1730.00000000 1130.00000000 200.00000000 93 179 119 97.000000 1.000000 4.000000 1.000000 -60.708740 114.000000 50.000000 -0.136443 -0.009984 0.990598
1730.00000000 1110.00000000 180.00000000 93 179 119 97.000000 1.000000 4.000000 1.000000 -60.708740 114.000000 50.000000 0.460401 0.011941 0.887631
1750.00000000 1140.00000000 190.00000000 93 179 119 97.000000 1.000000 4.000000 1.000000 -60.708740 114.000000 50.000000 0.259638 -0.204688 0.943764
1740.00000000 1130.00000000 180.00000000 93 179 119 97.000000 1.000000 4.000000 1.000000 -60.708740 114.000000 50.000000 0.467915 -0.045018 0.882626
1760.00000000 1090.00000000 160.00000000 93 179 119 97.000000 1.000000 4.000000 1.000000 -60.708740 114.000000 50.000000 0.223029 -0.308263 0.924788
1760.00000000 1100.00000000 160.00000000 93 179 119 97.000000 1.000000 4.000000 1.000000 -60.708740 114.000000 50.000000 0.102996 -0.153889 0.982705
1750.00000000 1090.00000000 160.00000000 93 179 119 97.000000 1.000000 4.000000 1.000000 -60.708740 114.000000 50.000000 0.429568 -0.022470 0.902755
1760.00000000 1080.00000000 180.00000000 93 179 119 97.000000 1.000000 4.000000 1.000000 -60.708740 114.000000 50.000000 0.351272 -0.130866 0.927083
1690.00000000 1130.00000000 210.00000000 93 179 119 97.000000 1.000000 4.000000 1.000000 -60.708740 114.000000 50.000000 0.428905 0.116718 0.895778
1690.00000000 1110.00000000 200.00000000 93 179 119 97.000000 1.000000 4.000000 1.000000 -60.708740 114.000000 50.000000 0.347777 -0.059056 0.935716
1680.00000000 1110.00000000 200.00000000 93 179 119 97.000000 1.000000 4.000000 1.000000 -60.708740 114.000000 50.000000 0.402000 -0.024879 0.915302
1710.00000000 1130.00000000 170.00000000 93 179 119 97.000000 1.000000 4.000000 1.000000 -60.708740 114.000000 50.000000 0.372816 -0.308905 0.874977
1710.00000000 1130.00000000 170.00000000 93 179 119 97.000000 1.000000 4.000000 1.000000 -60.708740 114.000000 50.000000 0.372816 -0.308905 0.874977
1700.00000000 1080.00000000 180.00000000 93 179 119 97.000000 1.000000 4.000000 1.000000 -60.708740 114.000000 50.000000 0.368572 -0.137693 0.919345
1700.00000000 1080.00000000 180.00000000 93 179 119 97.000000 1.000000 4.000000 1.000000 -60.708740 114.000000 50.000000 0.368572 -0.137693 0.919345
1740.00000000 1050.00000000 230.00000000 93 179 119 97.000000 1.000000 4.000000 1.000000 -60.708740 114.000000 50.000000 0.290241 0.038950 0.956161
1750.00000000 1040.00000000 150.00000000 93 179 119 97.000000 1.000000 4.000000 1.000000 -60.708740 114.000000 50.000000 0.298184 -0.572450 0.763798
1760.00000000 1050.00000000 160.00000000 93 179 119 97.000000 1.000000 4.000000 1.000000 -60.708740 114.000000 50.000000 0.296090 -0.606585 0.737825
1750.00000000 1050.00000000 180.00000000 93 179 119 97.000000 1.000000 4.000000 1.000000 -60.708740 114.000000 50.000000 0.116596 -0.100108 0.988121
1740.00000000 1060.00000000 160.00000000 93 179 119 97.000000 1.000000 4.000000 1.000000 -60.708740 114.000000 50.000000 0.225409 -0.393361 0.891324
1710.00000000 1060.00000000 210.00000000 93 179 119 97.000000 1.000000 4.000000 1.000000 -60.708740 114.000000 50.000000 0.119915 -0.110417 0.986625
1830.00000000 1120.00000000 140.00000000 93 179 119 97.000000 1.000000 4.000000 1.000000 -60.708740 114.000000 50.000000 -0.458484 0.561852 -0.688560
1830.00000000 1130.00000000 120.00000000 93 179 119 97.000000 1.000000 4.000000 1.000000 -60.708740 114.000000 50.000000 -0.551250 0.632167 -0.544507
1830.00000000 1130.00000000 120.00000000 93 179 119 97.000000 1.000000 4.000000 1.000000 -60.708740 114.000000 50.000000 -0.551250 0.632167 -0.544507
1830.00000000 1120.00000000 140.00000000 93 179 119 97.000000 1.000000 4.000000 1.000000 -60.708740 114.000000 50.000000 -0.458484 0.561852 -0.688560
1780.00000000 1070.00000000 130.00000000 93 179 119 97.000000 1.000000 4.000000 1.000000 -60.708740 114.000000 50.000000 0.170354 -0.490322 0.854730
1800.00000000 1080.00000000 140.00000000 93 179 119 97.000000 1.000000 4.000000 1.000000 -60.708740 114.000000 50.000000 0.333617 -0.112106 0.936019
1820.00000000 1140.00000000 30.00000000 93 179 119 97.000000 1.000000 4.000000 1.000000 -60.708740 114.000000 50.000000 0.182984 -0.708869 0.681191
1810.00000000 1140.00000000 30.00000000 93 179 119 97.000000 1.000000 4.000000 1.000000 -60.708740 114.000000 50.000000 0.182603 -0.547809 0.816432
1810.00000000 1140.00000000 30.00000000 93 179 119 97.000000 1.000000 4.000000 1.000000 -60.708740 114.000000 50.000000 0.182603 -0.547809 0.816432
1840.00000000 1070.00000000 10.00000000 93 179 119 97.000000 1.000000 4.000000 1.000000 -60.708740 114.000000 50.000000 -0.607167 0.620622 -0.496161
1800.00000000 1140.00000000 40.00000000 93 179 119 97.000000 1.000000 4.000000 1.000000 -60.708740 114.000000 50.000000 0.676574 -0.417248 0.606755
1820.00000000 1030.00000000 120.00000000 93 179 119 97.000000 1.000000 4.000000 1.000000 -60.708740 114.000000 50.000000 0.137805 -0.573448 0.807569
1830.00000000 1030.00000000 130.00000000 93 179 119 97.000000 1.000000 4.000000 1.000000 -60.708740 114.000000 50.000000 0.230295 -0.665818 0.709684
1830.00000000 1060.00000000 130.00000000 93 179 119 97.000000 1.000000 4.000000 1.000000 -60.708740 114.000000 50.000000 -0.439299 0.609674 -0.659784
1820.00000000 1050.00000000 140.00000000 93 179 119 97.000000 1.000000 4.000000 1.000000 -60.708740 114.000000 50.000000 -0.558114 0.541252 -0.628932
1810.00000000 990.00000000 120.00000000 93 179 119 97.000000 1.000000 4.000000 1.000000 -60.708740 114.000000 50.000000 0.159200 -0.462994 0.871947
1840.00000000 990.00000000 100.00000000 93 179 119 97.000000 1.000000 4.000000 1.000000 -60.708740 114.000000 50.000000 0.487233 -0.331700 0.807824
1840.00000000 1030.00000000 0.00000000 93 179 119 97.000000 1.000000 4.000000 1.000000 -60.708740 114.000000 50.000000 0.456564 -0.450018 0.767485
1780.00000000 980.00000000 10.00000000 93 179 119 97.000000 1.000000 4.000000 1.000000 -60.708740 114.000000 50.000000 0.521167 -0.561646 0.642604
1780.00000000 980.00000000 10.00000000 93 179 119 97.000000 1.000000 4.000000 1.000000 -60.708740 114.000000 50.000000 0.521167 -0.561646 0.642604
1880.00000000 900.00000000 200.00000000 93 179 119 97.000000 1.000000 4.000000 1.000000 -60.708740 114.000000 50.000000 0.734902 -0.303931 0.606254
1870.00000000 910.00000000 230.00000000 93 179 119 97.000000 1.000000 4.000000 1.000000 -60.708740 114.000000 50.000000 0.521681 -0.511616 0.682714
1870.00000000 900.00000000 180.00000000 93 179 119 97.000000 1.000000 4.000000 1.000000 -60.708740 114.000000 50.000000 0.697224 -0.489896 0.523336
1860.00000000 900.00000000 190.00000000 93 179 119 97.000000 1.000000 4.000000 1.000000 -60.708740 114.000000 50.000000 0.380035 -0.373779 0.846086
1870.00000000 900.00000000 180.00000000 93 179 119 97.000000 1.000000 4.000000 1.000000 -60.708740 114.000000 50.000000 0.697224 -0.489896 0.523336
1850.00000000 890.00000000 170.00000000 93 179 119 97.000000 1.000000 4.000000 1.000000 -60.708740 114.000000 50.000000 -0.581932 0.740788 -0.335543
1880.00000000 890.00000000 130.00000000 93 179 119 97.000000 1.000000 4.000000 1.000000 -60.708740 114.000000 50.000000 0.362155 -0.680066 0.637459
1810.00000000 930.00000000 280.00000000 93 179 119 97.000000 1.000000 4.000000 1.000000 -60.708740 114.000000 50.000000 0.438927 -0.595806 0.672576
1770.00000000 950.00000000 300.00000000 93 179 119 97.000000 1.000000 4.000000 1.000000 -60.708740 114.000000 50.000000 0.368627 -0.584888 0.722509
1800.00000000 930.00000000 280.00000000 93 179 119 97.000000 1.000000 4.000000 1.000000 -60.708740 114.000000 50.000000 -0.025851 -0.507505 0.861261
1790.00000000 910.00000000 280.00000000 93 179 119 97.000000 1.000000 4.000000 1.000000 -60.708740 114.000000 50.000000 0.203142 -0.246770 0.947543
1800.00000000 930.00000000 280.00000000 93 179 119 97.000000 1.000000 4.000000 1.000000 -60.708740 114.000000 50.000000 -0.025851 -0.507505 0.861261
1800.00000000 920.00000000 280.00000000 93 179 119 97.000000 1.000000 4.000000 1.000000 -60.708740 114.000000 50.000000 0.149562 -0.190467 0.970234
1800.00000000 900.00000000 260.00000000 93 179 119 97.000000 1.000000 4.000000 1.000000 -60.708740 114.000000 50.000000 0.233701 -0.139698 0.962220
1800.00000000 900.00000000 270.00000000 93 179 119 97.000000 1.000000 4.000000 1.000000 -60.708740 114.000000 50.000000 -0.267785 0.743143 -0.613212
1810.00000000 940.00000000 160.00000000 93 179 119 97.000000 1.000000 4.000000 1.000000 -60.708740 114.000000 50.000000 -0.513080 0.700263 -0.496368
1820.00000000 930.00000000 210.00000000 93 179 119 97.000000 1.000000 4.000000 1.000000 -60.708740 114.000000 50.000000 0.220411 -0.667485 0.711254
1770.00000000 940.00000000 230.00000000 93 179 119 97.000000 1.000000 4.000000 1.000000 -60.708740 114.000000 50.000000 0.584988 -0.157902 0.795523
1800.00000000 930.00000000 220.00000000 93 179 119 97.000000 1.000000 4.000000 1.000000 -60.708740 114.000000 50.000000 -0.192043 0.751271 -0.631436
1800.00000000 930.00000000 220.00000000 93 179 119 97.000000 1.000000 4.000000 1.000000 -60.708740 114.000000 50.000000 -0.192043 0.751271 -0.631436
1800.00000000 930.00000000 220.00000000 93 179 119 97.000000 1.000000 4.000000 1.000000 -60.708740 114.000000 50.000000 -0.192043 0.751271 -0.631436
1770.00000000 920.00000000 160.00000000 93 179 119 97.000000 1.000000 4.000000 1.000000 -60.708740 114.000000 50.000000 0.643860 -0.196092 0.739590
1790.00000000 900.00000000 180.00000000 93 179 119 97.000000 1.000000 4.000000 1.000000 -60.708740 114.000000 50.000000 0.312125 -0.700260 0.642039
1820.00000000 870.00000000 240.00000000 93 179 119 97.000000 1.000000 4.000000 1.000000 -60.708740 114.000000 50.000000 0.282597 -0.226359 0.932148
1820.00000000 870.00000000 240.00000000 93 179 119 97.000000 1.000000 4.000000 1.000000 -60.708740 114.000000 50.000000 0.282597 -0.226359 0.932148
1800.00000000 890.00000000 250.00000000 93 179 119 97.000000 1.000000 4.000000 1.000000 -60.708740 114.000000 50.000000 -0.649472 0.468224 -0.599126
1840.00000000 870.00000000 220.00000000 93 179 119 97.000000 1.000000 4.000000 1.000000 -60.708740 114.000000 50.000000 -0.297867 0.831220 -0.469413
1840.00000000 850.00000000 170.00000000 93 179 119 97.000000 1.000000 4.000000 1.000000 -60.708740 114.000000 50.000000 0.146456 -0.674907 0.723223
1840.00000000 860.00000000 180.00000000 93 179 119 97.000000 1.000000 4.000000 1.000000 -60.708740 114.000000 50.000000 -0.530534 0.752542 -0.390146
1830.00000000 850.00000000 170.00000000 93 179 119 97.000000 1.000000 4.000000 1.000000 -60.708740 114.000000 50.000000 0.159657 -0.710095 0.685766
1810.00000000 890.00000000 150.00000000 93 179 119 97.000000 1.000000 4.000000 1.000000 -60.708740 114.000000 50.000000 0.277381 -0.297713 0.913470
1830.00000000 840.00000000 210.00000000 93 179 119 97.000000 1.000000 4.000000 1.000000 -60.708740 114.000000 50.000000 0.136164 -0.764611 0.629944
1830.00000000 830.00000000 190.00000000 93 179 119 97.000000 1.000000 4.000000 1.000000 -60.708740 114.000000 50.000000 0.130048 -0.653230 0.745908
1790.00000000 860.00000000 230.00000000 93 179 119 97.000000 1.000000 4.000000 1.000000 -60.708740 114.000000 50.000000 0.073610 -0.470825 0.879151
1790.00000000 860.00000000 230.00000000 93 179 119 97.000000 1.000000 4.000000 1.000000 -60.708740 114.000000 50.000000 0.073610 -0.470825 0.879151
1790.00000000 850.00000000 210.00000000 93 179 119 97.000000 1.000000 4.000000 1.000000 -60.708740 114.000000 50.000000 -0.229199 0.768675 -0.597165
1790.00000000 870.00000000 190.00000000 93 179 119 97.000000 1.000000 4.000000 1.000000 -60.708740 114.000000 50.000000 0.258824 -0.665322 0.700255
1790.00000000 830.00000000 200.00000000 93 179 119 97.000000 1.000000 4.000000 1.000000 -60.708740 114.000000 50.000000 -0.538552 0.511708 -0.669415
1790.00000000 830.00000000 200.00000000 93 179 119 97.000000 1.000000 4.000000 1.000000 -60.708740 114.000000 50.000000 -0.538552 0.511708 -0.669415
1800.00000000 820.00000000 160.00000000 93 179 119 97.000000 1.000000 4.000000 1.000000 -60.708740 114.000000 50.000000 0.404110 -0.344820 0.847227
1760.00000000 930.00000000 300.00000000 93 179 119 97.000000 1.000000 4.000000 1.000000 -60.708740 114.000000 50.000000 0.526239 -0.482803 0.699981
1720.00000000 910.00000000 290.00000000 93 179 119 97.000000 1.000000 4.000000 1.000000 -60.708740 114.000000 50.000000 0.140157 -0.180563 0.973526
1760.00000000 930.00000000 270.00000000 93 179 119 97.000000 1.000000 4.000000 1.000000 -60.708740 114.000000 50.000000 -0.056615 -0.487441 0.871318
1740.00000000 950.00000000 200.00000000 93 179 119 97.000000 1.000000 4.000000 1.000000 -60.708740 114.000000 50.000000 0.083816 -0.518523 0.850946
1720.00000000 950.00000000 210.00000000 93 179 119 97.000000 1.000000 4.000000 1.000000 -60.708740 114.000000 50.000000 0.219769 -0.110520 0.969271
1750.00000000 970.00000000 200.00000000 93 179 119 97.000000 1.000000 4.000000 1.000000 -60.708740 114.000000 50.000000 0.482580 -0.339240 0.807486
1750.00000000 950.00000000 190.00000000 93 179 119 97.000000 1.000000 4.000000 1.000000 -60.708740 114.000000 50.000000 -0.518624 0.679749 -0.518624
1740.00000000 930.00000000 200.00000000 93 179 119 97.000000 1.000000 4.000000 1.000000 -60.708740 114.000000 50.000000 0.321268 -0.140811 0.936461
1740.00000000 930.00000000 200.00000000 93 179 119 97.000000 1.000000 4.000000 1.000000 -60.708740 114.000000 50.000000 0.321268 -0.140811 0.936461
1750.00000000 920.00000000 170.00000000 93 179 119 97.000000 1.000000 4.000000 1.000000 -60.708740 114.000000 50.000000 0.378390 -0.481440 0.790593
1710.00000000 920.00000000 160.00000000 93 179 119 97.000000 1.000000 4.000000 1.000000 -60.708740 114.000000 50.000000 0.027554 -0.397567 0.917159
1710.00000000 910.00000000 160.00000000 93 179 119 97.000000 1.000000 4.000000 1.000000 -60.708740 114.000000 50.000000 0.076471 -0.468561 0.880115
1730.00000000 850.00000000 240.00000000 93 179 119 97.000000 1.000000 4.000000 1.000000 -60.708740 114.000000 50.000000 -0.571658 0.684990 -0.451660
1760.00000000 870.00000000 200.00000000 93 179 119 97.000000 1.000000 4.000000 1.000000 -60.708740 114.000000 50.000000 0.394422 -0.538443 0.744655
1750.00000000 890.00000000 220.00000000 93 179 119 97.000000 1.000000 4.000000 1.000000 -60.708740 114.000000 50.000000 0.030339 -0.410231 0.911477
1750.00000000 890.00000000 190.00000000 93 179 119 97.000000 1.000000 4.000000 1.000000 -60.708740 114.000000 50.000000 0.511002 -0.142026 0.847765
1740.00000000 890.00000000 190.00000000 93 179 119 97.000000 1.000000 4.000000 1.000000 -60.708740 114.000000 50.000000 -0.487998 0.765454 -0.419449
1820.00000000 950.00000000 80.00000000 93 179 119 97.000000 1.000000 4.000000 1.000000 -60.708740 114.000000 50.000000 0.408196 -0.566848 0.715583
1800.00000000 950.00000000 110.00000000 93 179 119 97.000000 1.000000 4.000000 1.000000 -60.708740 114.000000 50.000000 0.558331 -0.723031 0.406808
1800.00000000 920.00000000 120.00000000 93 179 119 97.000000 1.000000 4.000000 1.000000 -60.708740 114.000000 50.000000 -0.342871 0.723117 -0.599618
1780.00000000 900.00000000 110.00000000 93 179 119 97.000000 1.000000 4.000000 1.000000 -60.708740 114.000000 50.000000 -0.430746 0.828357 -0.358166
1800.00000000 920.00000000 120.00000000 93 179 119 97.000000 1.000000 4.000000 1.000000 -60.708740 114.000000 50.000000 -0.342871 0.723117 -0.599618
1770.00000000 930.00000000 10.00000000 93 179 119 97.000000 1.000000 4.000000 1.000000 -60.708740 114.000000 50.000000 0.417701 -0.654010 0.630712
1790.00000000 920.00000000 -10.00000000 93 179 119 97.000000 1.000000 4.000000 1.000000 -60.708740 114.000000 50.000000 -0.441234 0.697649 -0.564446
1830.00000000 890.00000000 140.00000000 93 179 119 97.000000 1.000000 4.000000 1.000000 -60.708740 114.000000 50.000000 -0.443278 0.705592 -0.552852
1820.00000000 870.00000000 100.00000000 93 179 119 97.000000 1.000000 4.000000 1.000000 -60.708740 114.000000 50.000000 0.346722 -0.527340 0.775690
1720.00000000 970.00000000 80.00000000 93 179 119 97.000000 1.000000 4.000000 1.000000 -60.708740 114.000000 50.000000 0.184337 -0.404961 0.895559
1720.00000000 960.00000000 50.00000000 93 179 119 97.000000 1.000000 4.000000 1.000000 -60.708740 114.000000 50.000000 0.250237 -0.599624 0.760153
1760.00000000 930.00000000 30.00000000 93 179 119 97.000000 1.000000 4.000000 1.000000 -60.708740 114.000000 50.000000 -0.500313 0.641815 -0.581171
1720.00000000 910.00000000 20.00000000 93 179 119 97.000000 1.000000 4.000000 1.000000 -60.708740 114.000000 50.000000 -0.323457 0.822054 -0.468618
1690.00000000 930.00000000 60.00000000 93 179 119 97.000000 1.000000 4.000000 1.000000 -60.708740 114.000000 50.000000 -0.418674 0.770556 -0.480579
1750.00000000 890.00000000 140.00000000 93 179 119 97.000000 1.000000 4.000000 1.000000 -60.708740 114.000000 50.000000 -0.286478 0.651378 -0.702592
1740.00000000 890.00000000 50.00000000 93 179 119 97.000000 1.000000 4.000000 1.000000 -60.708740 114.000000 50.000000 -0.582068 0.662585 -0.471358
1680.00000000 880.00000000 10.00000000 93 179 119 97.000000 1.000000 4.000000 1.000000 -60.708740 114.000000 50.000000 -0.475738 0.724381 -0.498944
1620.00000000 1330.00000000 320.00000000 93 179 119 97.000000 1.000000 4.000000 1.000000 -60.708740 114.000000 50.000000 0.013885 0.082242 0.996516
1410.00000000 1350.00000000 330.00000000 93 179 119 97.000000 1.000000 4.000000 1.000000 -60.708740 114.000000 50.000000 -0.231178 0.384315 0.893789
1370.00000000 1330.00000000 320.00000000 93 179 119 97.000000 1.000000 4.000000 1.000000 -60.708740 114.000000 50.000000 -0.505898 0.509237 0.696236
1380.00000000 1330.00000000 330.00000000 93 179 119 97.000000 1.000000 4.000000 1.000000 -60.708740 114.000000 50.000000 -0.186599 0.262873 0.946614
1580.00000000 1500.00000000 240.00000000 93 179 119 97.000000 1.000000 4.000000 1.000000 -60.708740 114.000000 50.000000 -0.052312 0.152286 0.986951
1580.00000000 1490.00000000 240.00000000 93 179 119 97.000000 1.000000 4.000000 1.000000 -60.708740 114.000000 50.000000 -0.207700 0.128697 0.969690
1520.00000000 1540.00000000 220.00000000 93 179 119 97.000000 1.000000 4.000000 1.000000 -60.708740 114.000000 50.000000 -0.425614 0.147603 0.892786
1510.00000000 1540.00000000 210.00000000 93 179 119 97.000000 1.000000 4.000000 1.000000 -60.708740 114.000000 50.000000 -0.012186 0.523983 0.851642
1520.00000000 1530.00000000 230.00000000 93 179 119 97.000000 1.000000 4.000000 1.000000 -60.708740 114.000000 50.000000 -0.276505 0.335651 0.900491
1510.00000000 1510.00000000 230.00000000 93 179 119 97.000000 1.000000 4.000000 1.000000 -60.708740 114.000000 50.000000 0.004095 0.571899 0.820314
1610.00000000 1390.00000000 250.00000000 93 179 119 97.000000 1.000000 4.000000 1.000000 -60.708740 114.000000 50.000000 -0.382902 0.151183 0.911334
1610.00000000 1320.00000000 310.00000000 93 179 119 97.000000 1.000000 4.000000 1.000000 -60.708740 114.000000 50.000000 -0.011541 0.066097 0.997746
1630.00000000 1320.00000000 280.00000000 93 179 119 97.000000 1.000000 4.000000 1.000000 -60.708740 114.000000 50.000000 0.044757 0.451641 0.891076
1600.00000000 1330.00000000 310.00000000 93 179 119 97.000000 1.000000 4.000000 1.000000 -60.708740 114.000000 50.000000 -0.167051 0.489327 0.855952
1600.00000000 1330.00000000 310.00000000 93 179 119 97.000000 1.000000 4.000000 1.000000 -60.708740 114.000000 50.000000 -0.167051 0.489327 0.855952
1620.00000000 1360.00000000 180.00000000 93 179 119 97.000000 1.000000 4.000000 1.000000 -60.708740 114.000000 50.000000 -0.444815 0.090636 0.891025
1610.00000000 1320.00000000 210.00000000 93 179 119 97.000000 1.000000 4.000000 1.000000 -60.708740 114.000000 50.000000 0.469705 -0.395456 -0.789298
1600.00000000 1340.00000000 230.00000000 93 179 119 97.000000 1.000000 4.000000 1.000000 -60.708740 114.000000 50.000000 -0.471075 0.109585 0.875260
1610.00000000 1330.00000000 150.00000000 93 179 119 97.000000 1.000000 4.000000 1.000000 -60.708740 114.000000 50.000000 -0.013966 -0.089171 0.995918
1610.00000000 1330.00000000 190.00000000 93 179 119 97.000000 1.000000 4.000000 1.000000 -60.708740 114.000000 50.000000 -0.134504 0.560188 0.817372
1570.00000000 1440.00000000 290.00000000 93 179 119 97.000000 1.000000 4.000000 1.000000 -60.708740 114.000000 50.000000 -0.558635 0.251933 0.790226
1570.00000000 1480.00000000 240.00000000 93 179 119 97.000000 1.000000 4.000000 1.000000 -60.708740 114.000000 50.000000 -0.496736 0.325338 0.804617
1580.00000000 1470.00000000 250.00000000 93 179 119 97.000000 1.000000 4.000000 1.000000 -60.708740 114.000000 50.000000 -0.096123 0.535132 0.839282
1570.00000000 1480.00000000 240.00000000 93 179 119 97.000000 1.000000 4.000000 1.000000 -60.708740 114.000000 50.000000 -0.496736 0.325338 0.804617
1540.00000000 1460.00000000 300.00000000 93 179 119 97.000000 1.000000 4.000000 1.000000 -60.708740 114.000000 50.000000 -0.177828 0.600360 0.779708
1520.00000000 1470.00000000 290.00000000 93 179 119 97.000000 1.000000 4.000000 1.000000 -60.708740 114.000000 50.000000 -0.122609 0.604182 0.787357
1520.00000000 1470.00000000 300.00000000 93 179 119 97.000000 1.000000 4.000000 1.000000 -60.708740 114.000000 50.000000 -0.084986 0.458367 0.884690
1520.00000000 1440.00000000 240.00000000 93 179 119 97.000000 1.000000 4.000000 1.000000 -60.708740 114.000000 50.000000 -0.211128 0.514908 0.830840
1530.00000000 1440.00000000 250.00000000 93 179 119 97.000000 1.000000 4.000000 1.000000 -60.708740 114.000000 50.000000 -0.414764 0.516405 0.749197
1520.00000000 1440.00000000 240.00000000 93 179 119 97.000000 1.000000 4.000000 1.000000 -60.708740 114.000000 50.000000 -0.211128 0.514908 0.830840
1530.00000000 1450.00000000 240.00000000 93 179 119 97.000000 1.000000 4.000000 1.000000 -60.708740 114.000000 50.000000 -0.489716 0.216809 0.844495
1510.00000000 1470.00000000 250.00000000 93 179 119 97.000000 1.000000 4.000000 1.000000 -60.708740 114.000000 50.000000 -0.515340 0.280383 0.809821
1560.00000000 1440.00000000 210.00000000 93 179 119 97.000000 1.000000 4.000000 1.000000 -60.708740 114.000000 50.000000 -0.202063 0.291249 0.935064
1580.00000000 1410.00000000 220.00000000 93 179 119 97.000000 1.000000 4.000000 1.000000 -60.708740 114.000000 50.000000 -0.247526 0.071619 0.966231
1510.00000000 1440.00000000 220.00000000 93 179 119 97.000000 1.000000 4.000000 1.000000 -60.708740 114.000000 50.000000 -0.336721 0.064200 0.939413
1550.00000000 1420.00000000 230.00000000 93 179 119 97.000000 1.000000 4.000000 1.000000 -60.708740 114.000000 50.000000 -0.118032 0.546443 0.829137
1550.00000000 1420.00000000 230.00000000 93 179 119 97.000000 1.000000 4.000000 1.000000 -60.708740 114.000000 50.000000 -0.118032 0.546443 0.829137
1550.00000000 1350.00000000 300.00000000 93 179 119 97.000000 1.000000 4.000000 1.000000 -60.708740 114.000000 50.000000 -0.359016 0.402913 0.841884
1580.00000000 1390.00000000 220.00000000 93 179 119 97.000000 1.000000 4.000000 1.000000 -60.708740 114.000000 50.000000 -0.010765 0.242803 0.970016
1580.00000000 1390.00000000 220.00000000 93 179 119 97.000000 1.000000 4.000000 1.000000 -60.708740 114.000000 50.000000 -0.010765 0.242803 0.970016
1580.00000000 1380.00000000 160.00000000 93 179 119 97.000000 1.000000 4.000000 1.000000 -60.708740 114.000000 50.000000 -0.552075 0.124473 0.824451
1570.00000000 1380.00000000 160.00000000 93 179 119 97.000000 1.000000 4.000000 1.000000 -60.708740 114.000000 50.000000 -0.319062 -0.036864 0.947017
1570.00000000 1380.00000000 160.00000000 93 179 119 97.000000 1.000000 4.000000 1.000000 -60.708740 114.000000 50.000000 -0.319062 -0.036864 0.947017
1580.00000000 1380.00000000 160.00000000 93 179 119 97.000000 1.000000 4.000000 1.000000 -60.708740 114.000000 50.000000 -0.552075 0.124473 0.824451
1560.00000000 1350.00000000 210.00000000 93 179 119 97.000000 1.000000 4.000000 1.000000 -60.708740 114.000000 50.000000 -0.220532 0.012972 0.975293
1580.00000000 1320.00000000 170.00000000 93 179 119 97.000000 1.000000 4.000000 1.000000 -60.708740 114.000000 50.000000 0.113255 -0.610398 -0.783957
1570.00000000 1320.00000000 170.00000000 93 179 119 97.000000 1.000000 4.000000 1.000000 -60.708740 114.000000 50.000000 -0.345010 0.379047 0.858657
1590.00000000 1320.00000000 190.00000000 93 179 119 97.000000 1.000000 4.000000 1.000000 -60.708740 114.000000 50.000000 -0.374408 0.284189 0.882641
1540.00000000 1360.00000000 200.00000000 93 179 119 97.000000 1.000000 4.000000 1.000000 -60.708740 114.000000 50.000000 0.011942 0.455125 0.890347
1530.00000000 1390.00000000 160.00000000 93 179 119 97.000000 1.000000 4.000000 1.000000 -60.708740 114.000000 50.000000 -0.571137 0.075865 0.817341
1540.00000000 1380.00000000 160.00000000 93 179 119 97.000000 1.000000 4.000000 1.000000 -60.708740 114.000000 50.000000 0.036145 0.282926 0.958460
1540.00000000 1360.00000000 170.00000000 93 179 119 97.000000 1.000000 4.000000 1.000000 -60.708740 114.000000 50.000000 -0.053496 0.119513 0.991390
1530.00000000 1370.00000000 190.00000000 93 179 119 97.000000 1.000000 4.000000 1.000000 -60.708740 114.000000 50.000000 -0.274853 0.595779 0.754654
1550.00000000 1380.00000000 180.00000000 93 179 119 97.000000 1.000000 4.000000 1.000000 -60.708740 114.000000 50.000000 -0.372870 0.545464 0.750624
1550.00000000 1350.00000000 210.00000000 93 179 119 97.000000 1.000000 4.000000 1.000000 -60.708740 114.000000 50.000000 -0.582790 0.345778 0.735387
1540.00000000 1350.00000000 210.00000000 93 179 119 97.000000 1.000000 4.000000 1.000000 -60.708740 114.000000 50.000000 -0.259243 0.461729 0.848292
1550.00000000 1340.00000000 220.00000000 93 179 119 97.000000 1.000000 4.000000 1.000000 -60.708740 114.000000 50.000000 -0.358796 0.497166 0.789995
1550.00000000 1340.00000000 150.00000000 93 179 119 97.000000 1.000000 4.000000 1.000000 -60.708740 114.000000 50.000000 -0.348655 0.379647 0.856917
1540.00000000 1340.00000000 170.00000000 93 179 119 97.000000 1.000000 4.000000 1.000000 -60.708740 114.000000 50.000000 -0.105605 0.156586 0.982002
1540.00000000 1350.00000000 170.00000000 93 179 119 97.000000 1.000000 4.000000 1.000000 -60.708740 114.000000 50.000000 -0.154088 0.337327 0.928691
1610.00000000 1340.00000000 110.00000000 93 179 119 97.000000 1.000000 4.000000 1.000000 -60.708740 114.000000 50.000000 -0.186752 0.360675 0.913804
1600.00000000 1340.00000000 50.00000000 93 179 119 97.000000 1.000000 4.000000 1.000000 -60.708740 114.000000 50.000000 -0.164908 0.456781 0.874160
1570.00000000 1410.00000000 140.00000000 93 179 119 97.000000 1.000000 4.000000 1.000000 -60.708740 114.000000 50.000000 -0.123619 0.525018 0.842065
1570.00000000 1410.00000000 140.00000000 93 179 119 97.000000 1.000000 4.000000 1.000000 -60.708740 114.000000 50.000000 -0.123619 0.525018 0.842065
1550.00000000 1440.00000000 10.00000000 93 179 119 97.000000 1.000000 4.000000 1.000000 -60.708740 114.000000 50.000000 0.630041 -0.370128 -0.682681
1550.00000000 1400.00000000 60.00000000 93 179 119 97.000000 1.000000 4.000000 1.000000 -60.708740 114.000000 50.000000 -0.318988 0.263638 0.910353
1510.00000000 1400.00000000 40.00000000 93 179 119 97.000000 1.000000 4.000000 1.000000 -60.708740 114.000000 50.000000 0.706815 -0.336346 -0.622322
1540.00000000 1420.00000000 10.00000000 93 179 119 97.000000 1.000000 4.000000 1.000000 -60.708740 114.000000 50.000000 -0.199180 0.628419 0.751942
1580.00000000 1370.00000000 110.00000000 93 179 119 97.000000 1.000000 4.000000 1.000000 -60.708740 114.000000 50.000000 -0.040649 0.578900 0.814385
1590.00000000 1360.00000000 110.00000000 93 179 119 97.000000 1.000000 4.000000 1.000000 -60.708740 114.000000 50.000000 -0.299000 -0.018610 0.954072
1590.00000000 1330.00000000 120.00000000 93 179 119 97.000000 1.000000 4.000000 1.000000 -60.708740 114.000000 50.000000 -0.412110 0.570996 0.710021
1580.00000000 1330.00000000 90.00000000 93 179 119 97.000000 1.000000 4.000000 1.000000 -60.708740 114.000000 50.000000 -0.150708 0.484314 0.861816
1570.00000000 1340.00000000 80.00000000 93 179 119 97.000000 1.000000 4.000000 1.000000 -60.708740 114.000000 50.000000 -0.515007 0.259838 0.816855
1560.00000000 1350.00000000 70.00000000 93 179 119 97.000000 1.000000 4.000000 1.000000 -60.708740 114.000000 50.000000 -0.327837 0.238295 0.914187
1550.00000000 1360.00000000 70.00000000 93 179 119 97.000000 1.000000 4.000000 1.000000 -60.708740 114.000000 50.000000 -0.150614 0.123675 0.980826
1570.00000000 1330.00000000 40.00000000 93 179 119 97.000000 1.000000 4.000000 1.000000 -60.708740 114.000000 50.000000 -0.144817 0.501739 0.852811
1560.00000000 1330.00000000 40.00000000 93 179 119 97.000000 1.000000 4.000000 1.000000 -60.708740 114.000000 50.000000 -0.327941 0.389526 0.860653
1560.00000000 1330.00000000 40.00000000 93 179 119 97.000000 1.000000 4.000000 1.000000 -60.708740 114.000000 50.000000 -0.327941 0.389526 0.860653
1580.00000000 1340.00000000 40.00000000 93 179 119 97.000000 1.000000 4.000000 1.000000 -60.708740 114.000000 50.000000 -0.116960 0.629214 0.768381
1530.00000000 1380.00000000 50.00000000 93 179 119 97.000000 1.000000 4.000000 1.000000 -60.708740 114.000000 50.000000 -0.310393 0.310393 0.898506
1550.00000000 1360.00000000 30.00000000 93 179 119 97.000000 1.000000 4.000000 1.000000 -60.708740 114.000000 50.000000 -0.089224 0.671372 0.735730
1520.00000000 1370.00000000 60.00000000 93 179 119 97.000000 1.000000 4.000000 1.000000 -60.708740 114.000000 50.000000 -0.091157 0.588902 0.803048
1550.00000000 1380.00000000 60.00000000 93 179 119 97.000000 1.000000 4.000000 1.000000 -60.708740 114.000000 50.000000 -0.179877 0.203510 0.962407
1470.00000000 1510.00000000 250.00000000 93 179 119 97.000000 1.000000 4.000000 1.000000 -60.708740 114.000000 50.000000 0.370321 -0.643535 -0.669869
1500.00000000 1500.00000000 240.00000000 93 179 119 97.000000 1.000000 4.000000 1.000000 -60.708740 114.000000 50.000000 0.626529 -0.575866 -0.525204
1460.00000000 1490.00000000 280.00000000 93 179 119 97.000000 1.000000 4.000000 1.000000 -60.708740 114.000000 50.000000 -0.224613 0.456763 0.860765
1470.00000000 1520.00000000 210.00000000 93 179 119 97.000000 1.000000 4.000000 1.000000 -60.708740 114.000000 50.000000 -0.637806 0.162103 0.752945
1490.00000000 1490.00000000 210.00000000 93 179 119 97.000000 1.000000 4.000000 1.000000 -60.708740 114.000000 50.000000 -0.409590 0.648380 0.641747
1460.00000000 1530.00000000 230.00000000 93 179 119 97.000000 1.000000 4.000000 1.000000 -60.708740 114.000000 50.000000 0.622995 -0.518319 -0.585852
1460.00000000 1530.00000000 230.00000000 93 179 119 97.000000 1.000000 4.000000 1.000000 -60.708740 114.000000 50.000000 0.622995 -0.518319 -0.585852
1460.00000000 1540.00000000 210.00000000 93 179 119 97.000000 1.000000 4.000000 1.000000 -60.708740 114.000000 50.000000 -0.199980 0.439957 0.875469
1430.00000000 1510.00000000 230.00000000 93 179 119 97.000000 1.000000 4.000000 1.000000 -60.708740 114.000000 50.000000 -0.186089 0.653618 0.733590
1450.00000000 1520.00000000 230.00000000 93 179 119 97.000000 1.000000 4.000000 1.000000 -60.708740 114.000000 50.000000 -0.217993 0.262424 0.940007
1430.00000000 1510.00000000 180.00000000 93 179 119 97.000000 1.000000 4.000000 1.000000 -60.708740 114.000000 50.000000 -0.346596 0.396332 0.850172
1420.00000000 1510.00000000 210.00000000 93 179 119 97.000000 1.000000 4.000000 1.000000 -60.708740 114.000000 50.000000 -0.341552 0.508319 0.790540
1470.00000000 1450.00000000 260.00000000 93 179 119 97.000000 1.000000 4.000000 1.000000 -60.708740 114.000000 50.000000 -0.217537 0.170075 0.961120
1430.00000000 1450.00000000 290.00000000 93 179 119 97.000000 1.000000 4.000000 1.000000 -60.708740 114.000000 50.000000 -0.042186 0.472216 0.880473
1460.00000000 1460.00000000 250.00000000 93 179 119 97.000000 1.000000 4.000000 1.000000 -60.708740 114.000000 50.000000 -0.213962 0.190041 0.958178
1450.00000000 1420.00000000 250.00000000 93 179 119 97.000000 1.000000 4.000000 1.000000 -60.708740 114.000000 50.000000 -0.116343 0.155532 0.980956
1500.00000000 1440.00000000 220.00000000 93 179 119 97.000000 1.000000 4.000000 1.000000 -60.708740 114.000000 50.000000 0.187273 -0.570955 -0.799337
1490.00000000 1440.00000000 210.00000000 93 179 119 97.000000 1.000000 4.000000 1.000000 -60.708740 114.000000 50.000000 0.692377 -0.319434 -0.646975
1470.00000000 1420.00000000 210.00000000 93 179 119 97.000000 1.000000 4.000000 1.000000 -60.708740 114.000000 50.000000 -0.494619 0.682407 0.538213
1440.00000000 1380.00000000 250.00000000 93 179 119 97.000000 1.000000 4.000000 1.000000 -60.708740 114.000000 50.000000 -0.338108 0.290445 0.895167
1390.00000000 1440.00000000 260.00000000 93 179 119 97.000000 1.000000 4.000000 1.000000 -60.708740 114.000000 50.000000 -0.420363 0.433248 0.797240
1400.00000000 1430.00000000 290.00000000 93 179 119 97.000000 1.000000 4.000000 1.000000 -60.708740 114.000000 50.000000 -0.610296 0.492608 0.620384
1390.00000000 1400.00000000 280.00000000 93 179 119 97.000000 1.000000 4.000000 1.000000 -60.708740 114.000000 50.000000 -0.351679 0.436839 0.827945
1400.00000000 1430.00000000 240.00000000 93 179 119 97.000000 1.000000 4.000000 1.000000 -60.708740 114.000000 50.000000 -0.091552 0.394902 0.914150
1390.00000000 1420.00000000 240.00000000 93 179 119 97.000000 1.000000 4.000000 1.000000 -60.708740 114.000000 50.000000 -0.237858 0.682071 0.691522
1380.00000000 1450.00000000 260.00000000 93 179 119 97.000000 1.000000 4.000000 1.000000 -60.708740 114.000000 50.000000 -0.526798 0.687346 0.500040
1380.00000000 1420.00000000 240.00000000 93 179 119 97.000000 1.000000 4.000000 1.000000 -60.708740 114.000000 50.000000 -0.241344 0.692485 0.679866
1370.00000000 1420.00000000 250.00000000 93 179 119 97.000000 1.000000 4.000000 1.000000 -60.708740 114.000000 50.000000 -0.341119 0.432294 0.834721
1410.00000000 1460.00000000 220.00000000 93 179 119 97.000000 1.000000 4.000000 1.000000 -60.708740 114.000000 50.000000 -0.485306 0.254208 0.836574
1390.00000000 1470.00000000 230.00000000 93 179 119 97.000000 1.000000 4.000000 1.000000 -60.708740 114.000000 50.000000 -0.361264 0.603197 0.711085
1400.00000000 1480.00000000 170.00000000 93 179 119 97.000000 1.000000 4.000000 1.000000 -60.708740 114.000000 50.000000 0.673370 -0.498730 -0.545749
1410.00000000 1440.00000000 170.00000000 93 179 119 97.000000 1.000000 4.000000 1.000000 -60.708740 114.000000 50.000000 -0.466627 0.269504 0.842393
1400.00000000 1410.00000000 200.00000000 93 179 119 97.000000 1.000000 4.000000 1.000000 -60.708740 114.000000 50.000000 -0.390474 0.457963 0.798624
1410.00000000 1410.00000000 200.00000000 93 179 119 97.000000 1.000000 4.000000 1.000000 -60.708740 114.000000 50.000000 0.730984 -0.346770 -0.587718
1410.00000000 1410.00000000 200.00000000 93 179 119 97.000000 1.000000 4.000000 1.000000 -60.708740 114.000000 50.000000 0.730984 -0.346770 -0.587718
1410.00000000 1410.00000000 170.00000000 93 179 119 97.000000 1.000000 4.000000 1.000000 -60.708740 114.000000 50.000000 0.535752 -0.620255 -0.572934
1410.00000000 1410.00000000 170.00000000 93 179 119 97.000000 1.000000 4.000000 1.000000 -60.708740 114.000000 50.000000 0.535752 -0.620255 -0.572934
1350.00000000 1430.00000000 230.00000000 93 179 119 97.000000 1.000000 4.000000 1.000000 -60.708740 114.000000 50.000000 0.729490 -0.458206 -0.507831
1420.00000000 1370.00000000 250.00000000 93 179 119 97.000000 1.000000 4.000000 1.000000 -60.708740 114.000000 50.000000 -0.148477 0.348296 0.925551
1380.00000000 1390.00000000 270.00000000 93 179 119 97.000000 1.000000 4.000000 1.000000 -60.708740 114.000000 50.000000 -0.650154 0.452935 0.610041
1370.00000000 1390.00000000 260.00000000 93 179 119 97.000000 1.000000 4.000000 1.000000 -60.708740 114.000000 50.000000 0.710893 -0.325489 -0.623448
1350.00000000 1330.00000000 300.00000000 93 179 119 97.000000 1.000000 4.000000 1.000000 -60.708740 114.000000 50.000000 0.660343 -0.233708 -0.713672
1390.00000000 1390.00000000 220.00000000 93 179 119 97.000000 1.000000 4.000000 1.000000 -60.708740 114.000000 50.000000 0.599591 -0.555677 -0.575945
1480.00000000 1440.00000000 110.00000000 93 179 119 97.000000 1.000000 4.000000 1.000000 -60.708740 114.000000 50.000000 0.639342 -0.264938 -0.721838
1440.00000000 1470.00000000 140.00000000 93 179 119 97.000000 1.000000 4.000000 1.000000 -60.708740 114.000000 50.000000 -0.186301 0.672837 0.715948
1440.00000000 1470.00000000 140.00000000 93 179 119 97.000000 1.000000 4.000000 1.000000 -60.708740 114.000000 50.000000 -0.186301 0.672837 0.715948
1430.00000000 1480.00000000 120.00000000 93 179 119 97.000000 1.000000 4.000000 1.000000 -60.708740 114.000000 50.000000 -0.678165 0.665217 0.312377
1430.00000000 1450.00000000 120.00000000 93 179 119 97.000000 1.000000 4.000000 1.000000 -60.708740 114.000000 50.000000 -0.402162 0.666960 0.627240
1460.00000000 1420.00000000 100.00000000 93 179 119 97.000000 1.000000 4.000000 1.000000 -60.708740 114.000000 50.000000 -0.605808 0.588933 0.534934
1460.00000000 1420.00000000 100.00000000 93 179 119 97.000000 1.000000 4.000000 1.000000 -60.708740 114.000000 50.000000 -0.605808 0.588933 0.534934
1490.00000000 1450.00000000 0.00000000 93 179 119 97.000000 1.000000 4.000000 1.000000 -60.708740 114.000000 50.000000 -0.629390 0.622677 0.464910
1490.00000000 1410.00000000 50.00000000 93 179 119 97.000000 1.000000 4.000000 1.000000 -60.708740 114.000000 50.000000 -0.224868 0.509394 0.830634
1440.00000000 1450.00000000 10.00000000 93 179 119 97.000000 1.000000 4.000000 1.000000 -60.708740 114.000000 50.000000 -0.367747 0.450530 0.813501
1440.00000000 1440.00000000 20.00000000 93 179 119 97.000000 1.000000 4.000000 1.000000 -60.708740 114.000000 50.000000 0.581759 -0.618857 -0.527799
1450.00000000 1440.00000000 20.00000000 93 179 119 97.000000 1.000000 4.000000 1.000000 -60.708740 114.000000 50.000000 0.632660 -0.373023 -0.678672
1450.00000000 1410.00000000 50.00000000 93 179 119 97.000000 1.000000 4.000000 1.000000 -60.708740 114.000000 50.000000 -0.444455 0.687491 0.574296
1450.00000000 1410.00000000 50.00000000 93 179 119 97.000000 1.000000 4.000000 1.000000 -60.708740 114.000000 50.000000 -0.444455 0.687491 0.574296
1430.00000000 1430.00000000 50.00000000 93 179 119 97.000000 1.000000 4.000000 1.000000 -60.708740 114.000000 50.000000 -0.369009 0.372123 0.851679
1430.00000000 1400.00000000 -10.00000000 93 179 119 97.000000 1.000000 4.000000 1.000000 -60.708740 114.000000 50.000000 0.605265 -0.314738 -0.731160
1450.00000000 1360.00000000 40.00000000 93 179 119 97.000000 1.000000 4.000000 1.000000 -60.708740 114.000000 50.000000 -0.603590 0.232390 0.762676
1450.00000000 1360.00000000 40.00000000 93 179 119 97.000000 1.000000 4.000000 1.000000 -60.708740 114.000000 50.000000 -0.603590 0.232390 0.762676
1460.00000000 1360.00000000 40.00000000 93 179 119 97.000000 1.000000 4.000000 1.000000 -60.708740 114.000000 50.000000 -0.407654 0.509158 0.758008
1450.00000000 1380.00000000 10.00000000 93 179 119 97.000000 1.000000 4.000000 1.000000 -60.708740 114.000000 50.000000 0.675400 -0.248332 -0.694381
1410.00000000 1450.00000000 120.00000000 93 179 119 97.000000 1.000000 4.000000 1.000000 -60.708740 114.000000 50.000000 0.627265 -0.496094 -0.600358
1420.00000000 1450.00000000 110.00000000 93 179 119 97.000000 1.000000 4.000000 1.000000 -60.708740 114.000000 50.000000 0.718562 -0.618448 -0.318105
1410.00000000 1430.00000000 90.00000000 93 179 119 97.000000 1.000000 4.000000 1.000000 -60.708740 114.000000 50.000000 -0.299735 0.451931 0.840189
1420.00000000 1440.00000000 20.00000000 93 179 119 97.000000 1.000000 4.000000 1.000000 -60.708740 114.000000 50.000000 0.721309 -0.645548 -0.250959
1400.00000000 1380.00000000 120.00000000 93 179 119 97.000000 1.000000 4.000000 1.000000 -60.708740 114.000000 50.000000 0.703054 -0.577331 -0.415215
1420.00000000 1370.00000000 120.00000000 93 179 119 97.000000 1.000000 4.000000 1.000000 -60.708740 114.000000 50.000000 -0.489606 0.519684 0.700153
1400.00000000 1340.00000000 90.00000000 93 179 119 97.000000 1.000000 4.000000 1.000000 -60.708740 114.000000 50.000000 0.601707 -0.517434 -0.608449
1360.00000000 1390.00000000 120.00000000 93 179 119 97.000000 1.000000 4.000000 1.000000 -60.708740 114.000000 50.000000 -0.492036 0.505380 0.708866
1360.00000000 1390.00000000 120.00000000 93 179 119 97.000000 1.000000 4.000000 1.000000 -60.708740 114.000000 50.000000 -0.492036 0.505380 0.708866
1370.00000000 1390.00000000 100.00000000 93 179 119 97.000000 1.000000 4.000000 1.000000 -60.708740 114.000000 50.000000 -0.560744 0.399592 0.725185
1400.00000000 1370.00000000 10.00000000 93 179 119 97.000000 1.000000 4.000000 1.000000 -60.708740 114.000000 50.000000 0.753136 -0.534220 -0.383920
1420.00000000 1370.00000000 20.00000000 93 179 119 97.000000 1.000000 4.000000 1.000000 -60.708740 114.000000 50.000000 0.594763 -0.631830 -0.497040
