//X Y Z R G B PointSourceId ScanDirectionFlag NumberOfReturns ReturnNumber GpsTime Intensity Classification Nx Ny Nz
-150.00000000 3320.00000000 -120.00000000 121 102 144 97.000000 1.000000 4.000000 1.000000 -60.708740 114.000000 149.000000 0.398504 -0.318495 0.860091
-160.00000000 3240.00000000 -20.00000000 121 102 144 97.000000 1.000000 4.000000 1.000000 -60.708740 114.000000 149.000000 0.270565 0.296609 0.915870
-150.00000000 3240.00000000 -20.00000000 121 102 144 97.000000 1.000000 4.000000 1.000000 -60.708740 114.000000 149.000000 0.399869 0.551259 0.732269
-160.00000000 3170.00000000 -40.00000000 121 102 144 97.000000 1.000000 4.000000 1.000000 -60.708740 114.000000 149.000000 0.568047 0.393517 0.722819
-170.00000000 3250.00000000 -140.00000000 121 102 144 97.000000 1.000000 4.000000 1.000000 -60.708740 114.000000 149.000000 0.373457 0.312484 0.873432
-160.00000000 3210.00000000 -170.00000000 121 102 144 97.000000 1.000000 4.000000 1.000000 -60.708740 114.000000 149.000000 0.394296 0.485163 0.780479
-60.00000000 3260.00000000 -270.00000000 121 102 144 97.000000 1.000000 4.000000 1.000000 -60.708740 114.000000 149.000000 0.001209 -0.276796 0.960928
-70.00000000 3210.00000000 -260.00000000 121 102 144 97.000000 1.000000 4.000000 1.000000 -60.708740 114.000000 149.000000 0.412519 0.072157 0.908087
-130.00000000 3300.00000000 -250.00000000 121 102 144 97.000000 1.000000 4.000000 1.000000 -60.708740 114.000000 149.000000 0.219366 -0.532307 0.817636
-110.00000000 3330.00000000 -340.00000000 121 102 144 97.000000 1.000000 4.000000 1.000000 -60.708740 114.000000 149.000000 0.293908 -0.498229 0.815712
-160.00000000 3200.00000000 -350.00000000 121 102 144 97.000000 1.000000 4.000000 1.000000 -60.708740 114.000000 149.000000 0.359489 0.441839 0.821916
-30.00000000 3160.00000000 -110.00000000 121 102 144 97.000000 1.000000 4.000000 1.000000 -60.708740 114.000000 149.000000 0.125512 0.001091 0.992091
-30.00000000 3140.00000000 -130.00000000 121 102 144 97.000000 1.000000 4.000000 1.000000 -60.708740 114.000000 149.000000 0.319512 -0.096782 0.942627
-70.00000000 3140.00000000 -180.00000000 121 102 144 97.000000 1.000000 4.000000 1.000000 -60.708740 114.000000 149.000000 0.464987 -0.181566 0.866499
-30.00000000 3020.00000000 -170.00000000 121 102 144 97.000000 1.000000 4.000000 1.000000 -60.708740 114.000000 149.000000 0.229271 0.330207 0.915641
-150.00000000 3160.00000000 -40.00000000 121 102 144 97.000000 1.000000 4.000000 1.000000 -60.708740 114.000000 149.000000 0.217716 0.503944 0.835847
-150.00000000 3090.00000000 -100.00000000 121 102 144 97.000000 1.000000 4.000000 1.000000 -60.708740 114.000000 149.000000 0.583227 0.253099 0.771872
-140.00000000 3040.00000000 -30.00000000 121 102 144 97.000000 1.000000 4.000000 1.000000 -60.708740 114.000000 149.000000 0.425690 0.751122 0.504583
-30.00000000 3160.00000000 -240.00000000 121 102 144 97.000000 1.000000 4.000000 1.000000 -60.708740 114.000000 149.000000 -0.027050 -0.198758 0.979675
-80.00000000 3140.00000000 -260.00000000 121 102 144 97.000000 1.000000 4.000000 1.000000 -60.708740 114.000000 149.000000 0.332817 0.181154 0.925428
-80.00000000 3130.00000000 -260.00000000 121 102 144 97.000000 1.000000 4.000000 1.000000 -60.708740 114.000000 149.000000 0.297038 0.165629 0.940391
-80.00000000 3130.00000000 -250.00000000 121 102 144 97.000000 1.000000 4.000000 1.000000 -60.708740 114.000000 149.000000 0.434866 0.537382 0.722573
-80.00000000 3150.00000000 -260.00000000 121 102 144 97.000000 1.000000 4.000000 1.000000 -60.708740 114.000000 149.000000 0.226518 -0.306298 0.924592
-80.00000000 3100.00000000 -240.00000000 121 102 144 97.000000 1.000000 4.000000 1.000000 -60.708740 114.000000 149.000000 0.725203 0.321415 0.608912
-70.00000000 3160.00000000 -280.00000000 121 102 144 97.000000 1.000000 4.000000 1.000000 -60.708740 114.000000 149.000000 0.233751 -0.261745 0.936403
-110.00000000 3100.00000000 -210.00000000 121 102 144 97.000000 1.000000 4.000000 1.000000 -60.708740 114.000000 149.000000 0.250704 0.613358 0.748959
-140.00000000 3150.00000000 -340.00000000 121 102 144 97.000000 1.000000 4.000000 1.000000 -60.708740 114.000000 149.000000 0.567906 -0.203589 0.797518
-170.00000000 3140.00000000 -310.00000000 121 102 144 97.000000 1.000000 4.000000 1.000000 -60.708740 114.000000 149.000000 0.354065 0.538373 0.764717
-180.00000000 3270.00000000 -20.00000000 121 102 144 97.000000 1.000000 4.000000 1.000000 -60.708740 114.000000 149.000000 0.447089 0.414808 0.792493
-230.00000000 3310.00000000 -140.00000000 121 102 144 97.000000 1.000000 4.000000 1.000000 -60.708740 114.000000 149.000000 0.544627 0.066487 0.836039
-240.00000000 3260.00000000 -160.00000000 121 102 144 97.000000 1.000000 4.000000 1.000000 -60.708740 114.000000 149.000000 0.447499 0.033596 0.893653
-210.00000000 3210.00000000 -70.00000000 121 102 144 97.000000 1.000000 4.000000 1.000000 -60.708740 114.000000 149.000000 0.655403 0.477724 0.585002
-230.00000000 3200.00000000 -90.00000000 121 102 144 97.000000 1.000000 4.000000 1.000000 -60.708740 114.000000 149.000000 0.565103 0.622456 0.541486
-210.00000000 3240.00000000 -140.00000000 121 102 144 97.000000 1.000000 4.000000 1.000000 -60.708740 114.000000 149.000000 0.060955 -0.125361 0.990237
-210.00000000 3240.00000000 -140.00000000 121 102 144 97.000000 1.000000 4.000000 1.000000 -60.708740 114.000000 149.000000 0.060955 -0.125361 0.990237
-210.00000000 3250.00000000 -160.00000000 121 102 144 97.000000 1.000000 4.000000 1.000000 -60.708740 114.000000 149.000000 0.409220 0.359048 0.838823
-200.00000000 3170.00000000 -110.00000000 121 102 144 97.000000 1.000000 4.000000 1.000000 -60.708740 114.000000 149.000000 0.303066 0.285497 0.909199
-240.00000000 3190.00000000 -160.00000000 121 102 144 97.000000 1.000000 4.000000 1.000000 -60.708740 114.000000 149.000000 0.373461 0.430672 0.821614
-320.00000000 3320.00000000 -50.00000000 121 102 144 97.000000 1.000000 4.000000 1.000000 -60.708740 114.000000 149.000000 0.605265 0.314738 0.731160
-340.00000000 3270.00000000 -90.00000000 121 102 144 97.000000 1.000000 4.000000 1.000000 -60.708740 114.000000 149.000000 0.599579 -0.082352 0.796067
-330.00000000 3270.00000000 -130.00000000 121 102 144 97.000000 1.000000 4.000000 1.000000 -60.708740 114.000000 149.000000 0.647675 0.395893 0.650988
-270.00000000 3170.00000000 -90.00000000 121 102 144 97.000000 1.000000 4.000000 1.000000 -60.708740 114.000000 149.000000 0.508974 0.370016 0.777196
-320.00000000 3250.00000000 -180.00000000 121 102 144 97.000000 1.000000 4.000000 1.000000 -60.708740 114.000000 149.000000 0.057457 0.294946 0.953785
-210.00000000 3310.00000000 -250.00000000 121 102 144 97.000000 1.000000 4.000000 1.000000 -60.708740 114.000000 149.000000 0.209237 0.328801 0.920929
-230.00000000 3300.00000000 -250.00000000 121 102 144 97.000000 1.000000 4.000000 1.000000 -60.708740 114.000000 149.000000 -0.075755 -0.051601 0.995790
-240.00000000 3300.00000000 -250.00000000 121 102 144 97.000000 1.000000 4.000000 1.000000 -60.708740 114.000000 149.000000 0.043791 -0.001018 0.999040
-190.00000000 3190.00000000 -190.00000000 121 102 144 97.000000 1.000000 4.000000 1.000000 -60.708740 114.000000 149.000000 0.436567 0.502464 0.746283
-290.00000000 3300.00000000 -200.00000000 121 102 144 97.000000 1.000000 4.000000 1.000000 -60.708740 114.000000 149.000000 0.364732 0.328106 0.871388
-280.00000000 3300.00000000 -200.00000000 121 102 144 97.000000 1.000000 4.000000 1.000000 -60.708740 114.000000 149.000000 -0.000978 -0.000978 0.999999
-260.00000000 3280.00000000 -210.00000000 121 102 144 97.000000 1.000000 4.000000 1.000000 -60.708740 114.000000 149.000000 0.399897 0.046500 0.915380
-280.00000000 3290.00000000 -220.00000000 121 102 144 97.000000 1.000000 4.000000 1.000000 -60.708740 114.000000 149.000000 -0.079613 0.011677 0.996757
-310.00000000 3330.00000000 -230.00000000 121 102 144 97.000000 1.000000 4.000000 1.000000 -60.708740 114.000000 149.000000 0.465032 -0.085186 0.881186
-320.00000000 3320.00000000 -260.00000000 121 102 144 97.000000 1.000000 4.000000 1.000000 -60.708740 114.000000 149.000000 0.414927 0.122368 0.901588
-270.00000000 3300.00000000 -290.00000000 121 102 144 97.000000 1.000000 4.000000 1.000000 -60.708740 114.000000 149.000000 0.194346 -0.001150 0.980932
-280.00000000 3280.00000000 -290.00000000 121 102 144 97.000000 1.000000 4.000000 1.000000 -60.708740 114.000000 149.000000 -0.015907 0.277755 0.960520
-260.00000000 3170.00000000 -310.00000000 121 102 144 97.000000 1.000000 4.000000 1.000000 -60.708740 114.000000 149.000000 0.142701 0.528140 0.837081
-210.00000000 3110.00000000 -60.00000000 121 102 144 97.000000 1.000000 4.000000 1.000000 -60.708740 114.000000 149.000000 0.314673 0.452441 0.834433
-230.00000000 3140.00000000 -50.00000000 121 102 144 97.000000 1.000000 4.000000 1.000000 -60.708740 114.000000 149.000000 0.829352 0.328908 0.451658
-230.00000000 3150.00000000 -70.00000000 121 102 144 97.000000 1.000000 4.000000 1.000000 -60.708740 114.000000 149.000000 0.165036 0.767644 0.619263
-240.00000000 3150.00000000 -90.00000000 121 102 144 97.000000 1.000000 4.000000 1.000000 -60.708740 114.000000 149.000000 0.489199 0.206216 0.847443
-200.00000000 3010.00000000 -110.00000000 121 102 144 97.000000 1.000000 4.000000 1.000000 -60.708740 114.000000 149.000000 0.605251 0.347489 0.716186
-300.00000000 3120.00000000 -90.00000000 121 102 144 97.000000 1.000000 4.000000 1.000000 -60.708740 114.000000 149.000000 0.380351 0.292461 0.877383
-290.00000000 3090.00000000 -110.00000000 121 102 144 97.000000 1.000000 4.000000 1.000000 -60.708740 114.000000 149.000000 0.156339 0.714909 0.681516
-320.00000000 3110.00000000 -110.00000000 121 102 144 97.000000 1.000000 4.000000 1.000000 -60.708740 114.000000 149.000000 0.468943 0.363311 0.805045
-310.00000000 3110.00000000 -110.00000000 121 102 144 97.000000 1.000000 4.000000 1.000000 -60.708740 114.000000 149.000000 0.520185 0.392993 0.758264
-290.00000000 3050.00000000 -90.00000000 121 102 144 97.000000 1.000000 4.000000 1.000000 -60.708740 114.000000 149.000000 0.660361 0.525936 0.536018
-300.00000000 3030.00000000 -90.00000000 121 102 144 97.000000 1.000000 4.000000 1.000000 -60.708740 114.000000 149.000000 0.559835 0.556453 0.613958
-280.00000000 3020.00000000 -90.00000000 121 102 144 97.000000 1.000000 4.000000 1.000000 -60.708740 114.000000 149.000000 0.484777 0.704676 0.518095
-340.00000000 3040.00000000 -50.00000000 121 102 144 97.000000 1.000000 4.000000 1.000000 -60.708740 114.000000 149.000000 0.490180 0.716161 0.496826
-320.00000000 3070.00000000 -30.00000000 121 102 144 97.000000 1.000000 4.000000 1.000000 -60.708740 114.000000 149.000000 0.409215 0.744475 0.527542
-300.00000000 3060.00000000 -120.00000000 121 102 144 97.000000 1.000000 4.000000 1.000000 -60.708740 114.000000 149.000000 0.585499 0.716703 0.378852
-320.00000000 3060.00000000 -150.00000000 121 102 144 97.000000 1.000000 4.000000 1.000000 -60.708740 114.000000 149.000000 0.500722 0.622109 0.601878
-330.00000000 3060.00000000 -150.00000000 121 102 144 97.000000 1.000000 4.000000 1.000000 -60.708740 114.000000 149.000000 0.268271 0.728616 0.630198
-310.00000000 3050.00000000 -150.00000000 121 102 144 97.000000 1.000000 4.000000 1.000000 -60.708740 114.000000 149.000000 0.558370 0.481238 0.675746
-190.00000000 3160.00000000 -260.00000000 121 102 144 97.000000 1.000000 4.000000 1.000000 -60.708740 114.000000 149.000000 0.621816 0.350894 0.700155
-200.00000000 3130.00000000 -310.00000000 121 102 144 97.000000 1.000000 4.000000 1.000000 -60.708740 114.000000 149.000000 0.599962 0.128881 0.789579
-200.00000000 3130.00000000 -310.00000000 121 102 144 97.000000 1.000000 4.000000 1.000000 -60.708740 114.000000 149.000000 0.599962 0.128881 0.789579
-220.00000000 3090.00000000 -300.00000000 121 102 144 97.000000 1.000000 4.000000 1.000000 -60.708740 114.000000 149.000000 0.594704 0.180997 0.783306
-260.00000000 3120.00000000 -270.00000000 121 102 144 97.000000 1.000000 4.000000 1.000000 -60.708740 114.000000 149.000000 0.212718 0.622627 0.753052
-320.00000000 3140.00000000 -300.00000000 121 102 144 97.000000 1.000000 4.000000 1.000000 -60.708740 114.000000 149.000000 0.118088 0.247855 0.961573
-330.00000000 3120.00000000 -280.00000000 121 102 144 97.000000 1.000000 4.000000 1.000000 -60.708740 114.000000 149.000000 0.304522 0.371184 0.877205
-300.00000000 3060.00000000 -280.00000000 121 102 144 97.000000 1.000000 4.000000 1.000000 -60.708740 114.000000 149.000000 0.354945 0.678813 0.642827
-40.00000000 3190.00000000 -360.00000000 121 102 144 97.000000 1.000000 4.000000 1.000000 -60.708740 114.000000 149.000000 0.276444 -0.429175 0.859877
-120.00000000 3310.00000000 -390.00000000 121 102 144 97.000000 1.000000 4.000000 1.000000 -60.708740 114.000000 149.000000 -0.171768 -0.093802 0.980661
-110.00000000 3270.00000000 -370.00000000 121 102 144 97.000000 1.000000 4.000000 1.000000 -60.708740 114.000000 149.000000 0.326759 -0.465671 0.822423
-130.00000000 3250.00000000 -400.00000000 121 102 144 97.000000 1.000000 4.000000 1.000000 -60.708740 114.000000 149.000000 0.112013 -0.455142 0.883345
-170.00000000 3160.00000000 -360.00000000 121 102 144 97.000000 1.000000 4.000000 1.000000 -60.708740 114.000000 149.000000 0.619788 0.358136 0.698284
-410.00000000 3510.00000000 -140.00000000 121 102 144 97.000000 1.000000 4.000000 1.000000 -60.708740 114.000000 149.000000 -0.023827 -0.150906 0.988261
-430.00000000 3530.00000000 -130.00000000 121 102 144 97.000000 1.000000 4.000000 1.000000 -60.708740 114.000000 149.000000 0.089823 -0.049902 0.994707
-370.00000000 3550.00000000 -210.00000000 121 102 144 97.000000 1.000000 4.000000 1.000000 -60.708740 114.000000 149.000000 -0.313713 -0.230629 0.921083
-380.00000000 3550.00000000 -250.00000000 121 102 144 97.000000 1.000000 4.000000 1.000000 -60.708740 114.000000 149.000000 0.282541 -0.046462 0.958129
-360.00000000 3460.00000000 -80.00000000 121 102 144 97.000000 1.000000 4.000000 1.000000 -60.708740 114.000000 149.000000 0.108262 0.156920 0.981660
-400.00000000 3470.00000000 -40.00000000 121 102 144 97.000000 1.000000 4.000000 1.000000 -60.708740 114.000000 149.000000 0.451065 -0.070350 0.889714
-410.00000000 3480.00000000 -80.00000000 121 102 144 97.000000 1.000000 4.000000 1.000000 -60.708740 114.000000 149.000000 0.408622 -0.016972 0.912546
-400.00000000 3460.00000000 -40.00000000 121 102 144 97.000000 1.000000 4.000000 1.000000 -60.708740 114.000000 149.000000 -0.066684 -0.425963 0.902280
-400.00000000 3450.00000000 -60.00000000 121 102 144 97.000000 1.000000 4.000000 1.000000 -60.708740 114.000000 149.000000 0.189911 -0.005755 0.981784
-390.00000000 3400.00000000 -80.00000000 121 102 144 97.000000 1.000000 4.000000 1.000000 -60.708740 114.000000 149.000000 0.054311 -0.037272 0.997828
-390.00000000 3390.00000000 -140.00000000 121 102 144 97.000000 1.000000 4.000000 1.000000 -60.708740 114.000000 149.000000 0.456558 0.070346 0.886908
-430.00000000 3480.00000000 -50.00000000 121 102 144 97.000000 1.000000 4.000000 1.000000 -60.708740 114.000000 149.000000 0.446667 -0.009223 0.894653
-430.00000000 3450.00000000 -60.00000000 121 102 144 97.000000 1.000000 4.000000 1.000000 -60.708740 114.000000 149.000000 0.163441 -0.019430 0.986362
-440.00000000 3450.00000000 -20.00000000 121 102 144 97.000000 1.000000 4.000000 1.000000 -60.708740 114.000000 149.000000 0.484433 0.250675 0.838145
-460.00000000 3460.00000000 -130.00000000 121 102 144 97.000000 1.000000 4.000000 1.000000 -60.708740 114.000000 149.000000 0.231932 -0.083997 0.969099
-430.00000000 3460.00000000 -150.00000000 121 102 144 97.000000 1.000000 4.000000 1.000000 -60.708740 114.000000 149.000000 0.090681 -0.033869 0.995304
-450.00000000 3400.00000000 -100.00000000 121 102 144 97.000000 1.000000 4.000000 1.000000 -60.708740 114.000000 149.000000 0.248354 0.048188 0.967470
-360.00000000 3500.00000000 -200.00000000 121 102 144 97.000000 1.000000 4.000000 1.000000 -60.708740 114.000000 149.000000 -0.292701 -0.412234 0.862780
-360.00000000 3500.00000000 -240.00000000 121 102 144 97.000000 1.000000 4.000000 1.000000 -60.708740 114.000000 149.000000 -0.048557 -0.183571 0.981807
-430.00000000 3480.00000000 -280.00000000 121 102 144 97.000000 1.000000 4.000000 1.000000 -60.708740 114.000000 149.000000 0.409425 -0.220232 0.885364
-440.00000000 3480.00000000 -280.00000000 121 102 144 97.000000 1.000000 4.000000 1.000000 -60.708740 114.000000 149.000000 0.037439 0.132740 0.990444
-580.00000000 3520.00000000 -120.00000000 121 102 144 97.000000 1.000000 4.000000 1.000000 -60.708740 114.000000 149.000000 0.111943 -0.391110 0.913511
-530.00000000 3420.00000000 -50.00000000 121 102 144 97.000000 1.000000 4.000000 1.000000 -60.708740 114.000000 149.000000 0.406087 0.284413 0.868448
-530.00000000 3430.00000000 -170.00000000 121 102 144 97.000000 1.000000 4.000000 1.000000 -60.708740 114.000000 149.000000 0.449210 0.429749 0.783279
-520.00000000 3400.00000000 -80.00000000 121 102 144 97.000000 1.000000 4.000000 1.000000 -60.708740 114.000000 149.000000 0.009010 0.384874 0.922925
-350.00000000 3300.00000000 -80.00000000 121 102 144 97.000000 1.000000 4.000000 1.000000 -60.708740 114.000000 149.000000 0.625355 0.110357 0.772498
-360.00000000 3290.00000000 -40.00000000 121 102 144 97.000000 1.000000 4.000000 1.000000 -60.708740 114.000000 149.000000 0.483841 0.540764 0.688093
-370.00000000 3320.00000000 -160.00000000 121 102 144 97.000000 1.000000 4.000000 1.000000 -60.708740 114.000000 149.000000 0.517403 -0.108093 0.848887
-350.00000000 3270.00000000 -260.00000000 121 102 144 97.000000 1.000000 4.000000 1.000000 -60.708740 114.000000 149.000000 0.072098 -0.069879 0.994947
-350.00000000 3310.00000000 -200.00000000 121 102 144 97.000000 1.000000 4.000000 1.000000 -60.708740 114.000000 149.000000 0.628008 0.161920 0.761176
-360.00000000 3290.00000000 -200.00000000 121 102 144 97.000000 1.000000 4.000000 1.000000 -60.708740 114.000000 149.000000 0.269887 0.028344 0.962475
-400.00000000 3120.00000000 -50.00000000 121 102 144 97.000000 1.000000 4.000000 1.000000 -60.708740 114.000000 149.000000 0.745638 0.404775 0.529321
-390.00000000 3100.00000000 -20.00000000 121 102 144 97.000000 1.000000 4.000000 1.000000 -60.708740 114.000000 149.000000 0.474171 0.864664 0.165886
-350.00000000 3040.00000000 -120.00000000 121 102 144 97.000000 1.000000 4.000000 1.000000 -60.708740 114.000000 149.000000 0.834353 0.376957 0.402193
-400.00000000 3100.00000000 -240.00000000 121 102 144 97.000000 1.000000 4.000000 1.000000 -60.708740 114.000000 149.000000 0.365367 0.134755 0.921058
220.00000000 2920.00000000 -180.00000000 121 102 144 97.000000 1.000000 4.000000 1.000000 -60.708740 114.000000 149.000000 0.345617 0.260316 0.901546
220.00000000 2980.00000000 -200.00000000 121 102 144 97.000000 1.000000 4.000000 1.000000 -60.708740 114.000000 149.000000 0.353707 0.167694 0.920201
220.00000000 2920.00000000 -200.00000000 121 102 144 97.000000 1.000000 4.000000 1.000000 -60.708740 114.000000 149.000000 0.431728 0.172982 0.885261
160.00000000 2950.00000000 -140.00000000 121 102 144 97.000000 1.000000 4.000000 1.000000 -60.708740 114.000000 149.000000 0.444379 0.374297 0.813898
150.00000000 2930.00000000 -160.00000000 121 102 144 97.000000 1.000000 4.000000 1.000000 -60.708740 114.000000 149.000000 0.626635 0.370060 0.685845
0.00000000 2980.00000000 -160.00000000 121 102 144 97.000000 1.000000 4.000000 1.000000 -60.708740 114.000000 149.000000 0.390932 0.780241 0.488259
40.00000000 2950.00000000 -170.00000000 121 102 144 97.000000 1.000000 4.000000 1.000000 -60.708740 114.000000 149.000000 0.672554 0.452263 0.585773
0.00000000 2970.00000000 -160.00000000 121 102 144 97.000000 1.000000 4.000000 1.000000 -60.708740 114.000000 149.000000 0.477491 0.759720 0.441392
70.00000000 2940.00000000 -130.00000000 121 102 144 97.000000 1.000000 4.000000 1.000000 -60.708740 114.000000 149.000000 0.644580 0.308558 0.699506
50.00000000 2870.00000000 -100.00000000 121 102 144 97.000000 1.000000 4.000000 1.000000 -60.708740 114.000000 149.000000 0.271401 0.905160 0.327149
40.00000000 2910.00000000 -150.00000000 121 102 144 97.000000 1.000000 4.000000 1.000000 -60.708740 114.000000 149.000000 0.711372 0.657743 0.247639
0.00000000 2870.00000000 -110.00000000 121 102 144 97.000000 1.000000 4.000000 1.000000 -60.708740 114.000000 149.000000 0.590645 0.587260 0.553412
150.00000000 2980.00000000 -190.00000000 121 102 144 97.000000 1.000000 4.000000 1.000000 -60.708740 114.000000 149.000000 0.403912 0.508570 0.760402
50.00000000 2990.00000000 -190.00000000 121 102 144 97.000000 1.000000 4.000000 1.000000 -60.708740 114.000000 149.000000 0.441797 0.757132 0.481214
-10.00000000 2950.00000000 -170.00000000 121 102 144 97.000000 1.000000 4.000000 1.000000 -60.708740 114.000000 149.000000 0.474628 0.487858 0.732614
-10.00000000 2900.00000000 -160.00000000 121 102 144 97.000000 1.000000 4.000000 1.000000 -60.708740 114.000000 149.000000 0.551122 0.406349 0.728797
510.00000000 3000.00000000 320.00000000 121 102 144 97.000000 1.000000 4.000000 1.000000 -60.708740 114.000000 149.000000 0.657173 0.055838 0.751669
500.00000000 2950.00000000 330.00000000 121 102 144 97.000000 1.000000 4.000000 1.000000 -60.708740 114.000000 149.000000 0.403520 -0.362697 0.840013
500.00000000 2920.00000000 330.00000000 121 102 144 97.000000 1.000000 4.000000 1.000000 -60.708740 114.000000 149.000000 0.247439 -0.374863 0.893449
530.00000000 2920.00000000 290.00000000 121 102 144 97.000000 1.000000 4.000000 1.000000 -60.708740 114.000000 149.000000 0.021837 0.171252 0.984985
500.00000000 2940.00000000 310.00000000 121 102 144 97.000000 1.000000 4.000000 1.000000 -60.708740 114.000000 149.000000 -0.057370 -0.053040 0.996943
360.00000000 2950.00000000 260.00000000 121 102 144 97.000000 1.000000 4.000000 1.000000 -60.708740 114.000000 149.000000 0.200162 -0.566871 0.799120
350.00000000 2970.00000000 180.00000000 121 102 144 97.000000 1.000000 4.000000 1.000000 -60.708740 114.000000 149.000000 0.153349 0.199740 0.967775
380.00000000 2910.00000000 290.00000000 121 102 144 97.000000 1.000000 4.000000 1.000000 -60.708740 114.000000 149.000000 0.017187 -0.440259 0.897706
360.00000000 2900.00000000 270.00000000 121 102 144 97.000000 1.000000 4.000000 1.000000 -60.708740 114.000000 149.000000 -0.086874 0.045086 0.995199
340.00000000 2840.00000000 140.00000000 121 102 144 97.000000 1.000000 4.000000 1.000000 -60.708740 114.000000 149.000000 -0.039537 -0.212065 0.976456
340.00000000 2970.00000000 120.00000000 121 102 144 97.000000 1.000000 4.000000 1.000000 -60.708740 114.000000 149.000000 -0.011542 -0.064007 0.997883
-240.00000000 3730.00000000 390.00000000 121 102 144 97.000000 1.000000 4.000000 1.000000 -60.708740 114.000000 149.000000 0.734859 0.627396 0.257596
-230.00000000 3730.00000000 370.00000000 121 102 144 97.000000 1.000000 4.000000 1.000000 -60.708740 114.000000 149.000000 0.315555 0.549418 0.773670
-210.00000000 3700.00000000 370.00000000 121 102 144 97.000000 1.000000 4.000000 1.000000 -60.708740 114.000000 149.000000 0.760737 0.622978 0.182148
-280.00000000 3790.00000000 390.00000000 121 102 144 97.000000 1.000000 4.000000 1.000000 -60.708740 114.000000 149.000000 0.532307 0.817636 0.219366
-290.00000000 3730.00000000 330.00000000 121 102 144 97.000000 1.000000 4.000000 1.000000 -60.708740 114.000000 149.000000 0.407376 0.881902 0.237263
-230.00000000 3770.00000000 180.00000000 121 102 144 97.000000 1.000000 4.000000 1.000000 -60.708740 114.000000 149.000000 0.533100 0.836894 0.124147
-190.00000000 3750.00000000 210.00000000 121 102 144 97.000000 1.000000 4.000000 1.000000 -60.708740 114.000000 149.000000 0.453913 0.857729 -0.241379
-190.00000000 3750.00000000 180.00000000 121 102 144 97.000000 1.000000 4.000000 1.000000 -60.708740 114.000000 149.000000 0.686174 0.698565 -0.202909
-220.00000000 3740.00000000 170.00000000 121 102 144 97.000000 1.000000 4.000000 1.000000 -60.708740 114.000000 149.000000 0.818356 0.573822 0.031956
-220.00000000 3750.00000000 170.00000000 121 102 144 97.000000 1.000000 4.000000 1.000000 -60.708740 114.000000 149.000000 0.537867 0.750398 0.384191
-230.00000000 3730.00000000 160.00000000 121 102 144 97.000000 1.000000 4.000000 1.000000 -60.708740 114.000000 149.000000 0.237545 0.966693 0.095272
-340.00000000 3710.00000000 300.00000000 121 102 144 97.000000 1.000000 4.000000 1.000000 -60.708740 114.000000 149.000000 0.766837 0.617433 0.175321
30.00000000 3190.00000000 370.00000000 121 102 144 97.000000 1.000000 4.000000 1.000000 -60.708740 114.000000 149.000000 -0.149756 -0.162341 0.975304
0.00000000 3070.00000000 410.00000000 121 102 144 97.000000 1.000000 4.000000 1.000000 -60.708740 114.000000 149.000000 -0.333218 -0.351477 0.874888
310.00000000 3000.00000000 240.00000000 121 102 144 97.000000 1.000000 4.000000 1.000000 -60.708740 114.000000 149.000000 0.322121 0.117258 0.939409
310.00000000 3020.00000000 90.00000000 121 102 144 97.000000 1.000000 4.000000 1.000000 -60.708740 114.000000 149.000000 0.534108 -0.136838 0.834268
280.00000000 3040.00000000 130.00000000 121 102 144 97.000000 1.000000 4.000000 1.000000 -60.708740 114.000000 149.000000 0.508313 0.184432 0.841191
260.00000000 3070.00000000 50.00000000 121 102 144 97.000000 1.000000 4.000000 1.000000 -60.708740 114.000000 149.000000 0.455104 0.438792 0.774818
190.00000000 3140.00000000 40.00000000 121 102 144 97.000000 1.000000 4.000000 1.000000 -60.708740 114.000000 149.000000 0.436985 0.291838 0.850808
190.00000000 3150.00000000 40.00000000 121 102 144 97.000000 1.000000 4.000000 1.000000 -60.708740 114.000000 149.000000 0.569397 0.589673 0.572776
230.00000000 3120.00000000 50.00000000 121 102 144 97.000000 1.000000 4.000000 1.000000 -60.708740 114.000000 149.000000 0.724674 0.230080 0.649546
-80.00000000 3520.00000000 340.00000000 121 102 144 97.000000 1.000000 4.000000 1.000000 -60.708740 114.000000 149.000000 0.578231 0.147920 0.802352
-160.00000000 3640.00000000 320.00000000 121 102 144 97.000000 1.000000 4.000000 1.000000 -60.708740 114.000000 149.000000 0.467289 0.762419 0.447614
-130.00000000 3520.00000000 330.00000000 121 102 144 97.000000 1.000000 4.000000 1.000000 -60.708740 114.000000 149.000000 0.346490 0.824298 0.447747
-90.00000000 3420.00000000 340.00000000 121 102 144 97.000000 1.000000 4.000000 1.000000 -60.708740 114.000000 149.000000 0.696568 0.130326 0.705556
-70.00000000 3420.00000000 330.00000000 121 102 144 97.000000 1.000000 4.000000 1.000000 -60.708740 114.000000 149.000000 0.132482 0.605846 0.784474
-90.00000000 3410.00000000 340.00000000 121 102 144 97.000000 1.000000 4.000000 1.000000 -60.708740 114.000000 149.000000 0.422979 -0.030497 0.905626
-40.00000000 3410.00000000 330.00000000 121 102 144 97.000000 1.000000 4.000000 1.000000 -60.708740 114.000000 149.000000 0.455479 0.148934 0.877700
-330.00000000 3340.00000000 600.00000000 121 102 144 97.000000 1.000000 4.000000 1.000000 -60.708740 114.000000 149.000000 -0.057370 0.053040 0.996943
-320.00000000 3370.00000000 420.00000000 121 102 144 97.000000 1.000000 4.000000 1.000000 -60.708740 114.000000 149.000000 0.356142 -0.137191 0.924306
-300.00000000 3370.00000000 410.00000000 121 102 144 97.000000 1.000000 4.000000 1.000000 -60.708740 114.000000 149.000000 0.506907 -0.161087 0.846815
-320.00000000 3340.00000000 320.00000000 121 102 144 97.000000 1.000000 4.000000 1.000000 -60.708740 114.000000 149.000000 0.111590 -0.130788 0.985110
-90.00000000 3510.00000000 220.00000000 121 102 144 97.000000 1.000000 4.000000 1.000000 -60.708740 114.000000 149.000000 0.419833 0.521911 0.742529
-110.00000000 3590.00000000 260.00000000 121 102 144 97.000000 1.000000 4.000000 1.000000 -60.708740 114.000000 149.000000 0.435900 0.646334 0.626293
-120.00000000 3590.00000000 260.00000000 121 102 144 97.000000 1.000000 4.000000 1.000000 -60.708740 114.000000 149.000000 0.503496 0.809697 0.301466
-130.00000000 3570.00000000 250.00000000 121 102 144 97.000000 1.000000 4.000000 1.000000 -60.708740 114.000000 149.000000 0.436142 0.766108 0.472079
-130.00000000 3560.00000000 270.00000000 121 102 144 97.000000 1.000000 4.000000 1.000000 -60.708740 114.000000 149.000000 0.370993 0.560575 0.740351
-170.00000000 3660.00000000 120.00000000 121 102 144 97.000000 1.000000 4.000000 1.000000 -60.708740 114.000000 149.000000 0.678421 0.734374 -0.020982
-80.00000000 3480.00000000 290.00000000 121 102 144 97.000000 1.000000 4.000000 1.000000 -60.708740 114.000000 149.000000 0.605654 0.464727 0.645920
-70.00000000 3390.00000000 260.00000000 121 102 144 97.000000 1.000000 4.000000 1.000000 -60.708740 114.000000 149.000000 0.402284 0.139741 0.904787
-20.00000000 3360.00000000 260.00000000 121 102 144 97.000000 1.000000 4.000000 1.000000 -60.708740 114.000000 149.000000 0.613132 0.485466 0.623211
-40.00000000 3350.00000000 280.00000000 121 102 144 97.000000 1.000000 4.000000 1.000000 -60.708740 114.000000 149.000000 0.530607 0.284985 0.798273
-80.00000000 3390.00000000 190.00000000 121 102 144 97.000000 1.000000 4.000000 1.000000 -60.708740 114.000000 149.000000 0.477514 0.774126 0.415583
-110.00000000 3470.00000000 230.00000000 121 102 144 97.000000 1.000000 4.000000 1.000000 -60.708740 114.000000 149.000000 0.177924 0.777085 0.603724
-160.00000000 3380.00000000 270.00000000 121 102 144 97.000000 1.000000 4.000000 1.000000 -60.708740 114.000000 149.000000 0.499322 0.556483 0.664081
-80.00000000 3460.00000000 120.00000000 121 102 144 97.000000 1.000000 4.000000 1.000000 -60.708740 114.000000 149.000000 0.830457 0.544394 0.118220
-210.00000000 3650.00000000 310.00000000 121 102 144 97.000000 1.000000 4.000000 1.000000 -60.708740 114.000000 149.000000 0.380519 0.882865 0.275237
-250.00000000 3610.00000000 250.00000000 121 102 144 97.000000 1.000000 4.000000 1.000000 -60.708740 114.000000 149.000000 0.655659 0.754360 -0.032430
-180.00000000 3590.00000000 180.00000000 121 102 144 97.000000 1.000000 4.000000 1.000000 -60.708740 114.000000 149.000000 0.184948 0.907534 0.377064
-200.00000000 3610.00000000 220.00000000 121 102 144 97.000000 1.000000 4.000000 1.000000 -60.708740 114.000000 149.000000 0.722265 0.656746 0.216835
-200.00000000 3610.00000000 220.00000000 121 102 144 97.000000 1.000000 4.000000 1.000000 -60.708740 114.000000 149.000000 0.722265 0.656746 0.216835
-210.00000000 3570.00000000 220.00000000 121 102 144 97.000000 1.000000 4.000000 1.000000 -60.708740 114.000000 149.000000 0.488544 0.763044 0.423187
-300.00000000 3600.00000000 290.00000000 121 102 144 97.000000 1.000000 4.000000 1.000000 -60.708740 114.000000 149.000000 0.476712 0.543619 0.690814
-330.00000000 3400.00000000 240.00000000 121 102 144 97.000000 1.000000 4.000000 1.000000 -60.708740 114.000000 149.000000 -0.064150 0.141130 0.987910
-340.00000000 3490.00000000 0.00000000 121 102 144 97.000000 1.000000 4.000000 1.000000 -60.708740 114.000000 149.000000 -0.224617 -0.176770 0.958279
-20.00000000 3100.00000000 320.00000000 121 102 144 97.000000 1.000000 4.000000 1.000000 -60.708740 114.000000 149.000000 0.176177 -0.543589 0.820654
-10.00000000 3120.00000000 400.00000000 121 102 144 97.000000 1.000000 4.000000 1.000000 -60.708740 114.000000 149.000000 0.040354 -0.555211 0.830730
-250.00000000 3290.00000000 570.00000000 121 102 144 97.000000 1.000000 4.000000 1.000000 -60.708740 114.000000 149.000000 0.130172 0.018914 0.991311
-250.00000000 3280.00000000 520.00000000 121 102 144 97.000000 1.000000 4.000000 1.000000 -60.708740 114.000000 149.000000 0.022501 -0.211983 0.977014
-300.00000000 3300.00000000 590.00000000 121 102 144 97.000000 1.000000 4.000000 1.000000 -60.708740 114.000000 149.000000 -0.142630 -0.078977 0.986620
-200.00000000 3220.00000000 320.00000000 121 102 144 97.000000 1.000000 4.000000 1.000000 -60.708740 114.000000 149.000000 -0.282898 -0.191819 0.939773
-290.00000000 3330.00000000 450.00000000 121 102 144 97.000000 1.000000 4.000000 1.000000 -60.708740 114.000000 149.000000 0.020341 -0.230926 0.972759
-270.00000000 3260.00000000 440.00000000 121 102 144 97.000000 1.000000 4.000000 1.000000 -60.708740 114.000000 149.000000 -0.142750 -0.273493 0.951222
-310.00000000 3260.00000000 430.00000000 121 102 144 97.000000 1.000000 4.000000 1.000000 -60.708740 114.000000 149.000000 -0.139166 -0.227608 0.963757
-320.00000000 3260.00000000 340.00000000 121 102 144 97.000000 1.000000 4.000000 1.000000 -60.708740 114.000000 149.000000 0.345653 -0.440353 0.828621
-300.00000000 3260.00000000 390.00000000 121 102 144 97.000000 1.000000 4.000000 1.000000 -60.708740 114.000000 149.000000 -0.227753 -0.200800 0.952789
-260.00000000 3230.00000000 420.00000000 121 102 144 97.000000 1.000000 4.000000 1.000000 -60.708740 114.000000 149.000000 -0.202425 -0.294563 0.933947
-180.00000000 3120.00000000 510.00000000 121 102 144 97.000000 1.000000 4.000000 1.000000 -60.708740 114.000000 149.000000 -0.114672 -0.451610 0.884816
-220.00000000 3020.00000000 360.00000000 121 102 144 97.000000 1.000000 4.000000 1.000000 -60.708740 114.000000 149.000000 -0.308075 -0.393907 0.865983
-320.00000000 3030.00000000 440.00000000 121 102 144 97.000000 1.000000 4.000000 1.000000 -60.708740 114.000000 149.000000 0.551019 0.674957 -0.490725
-260.00000000 3060.00000000 380.00000000 121 102 144 97.000000 1.000000 4.000000 1.000000 -60.708740 114.000000 149.000000 -0.367747 -0.450530 0.813501
-270.00000000 3060.00000000 380.00000000 121 102 144 97.000000 1.000000 4.000000 1.000000 -60.708740 114.000000 149.000000 0.500045 0.513425 -0.697388
-30.00000000 3170.00000000 160.00000000 121 102 144 97.000000 1.000000 4.000000 1.000000 -60.708740 114.000000 149.000000 0.015221 -0.601921 0.798410
-130.00000000 3280.00000000 180.00000000 121 102 144 97.000000 1.000000 4.000000 1.000000 -60.708740 114.000000 149.000000 0.553630 -0.051859 0.831146
-120.00000000 3320.00000000 220.00000000 121 102 144 97.000000 1.000000 4.000000 1.000000 -60.708740 114.000000 149.000000 0.191738 -0.079382 0.978231
-130.00000000 3210.00000000 180.00000000 121 102 144 97.000000 1.000000 4.000000 1.000000 -60.708740 114.000000 149.000000 0.163115 -0.555188 0.815573
-140.00000000 3240.00000000 200.00000000 121 102 144 97.000000 1.000000 4.000000 1.000000 -60.708740 114.000000 149.000000 0.234984 -0.580457 0.779649
-140.00000000 3210.00000000 180.00000000 121 102 144 97.000000 1.000000 4.000000 1.000000 -60.708740 114.000000 149.000000 -0.385169 -0.285478 0.877580
-150.00000000 3200.00000000 170.00000000 121 102 144 97.000000 1.000000 4.000000 1.000000 -60.708740 114.000000 149.000000 -0.210754 -0.576880 0.789172
-80.00000000 3210.00000000 80.00000000 121 102 144 97.000000 1.000000 4.000000 1.000000 -60.708740 114.000000 149.000000 0.638178 0.520309 -0.567457
-120.00000000 3190.00000000 40.00000000 121 102 144 97.000000 1.000000 4.000000 1.000000 -60.708740 114.000000 149.000000 0.182824 0.919789 0.347224
-160.00000000 3240.00000000 60.00000000 121 102 144 97.000000 1.000000 4.000000 1.000000 -60.708740 114.000000 149.000000 0.437904 0.694319 0.571106
-10.00000000 3100.00000000 290.00000000 121 102 144 97.000000 1.000000 4.000000 1.000000 -60.708740 114.000000 149.000000 0.274641 -0.525741 0.805090
-20.00000000 3100.00000000 190.00000000 121 102 144 97.000000 1.000000 4.000000 1.000000 -60.708740 114.000000 149.000000 0.030800 -0.443248 0.895870
-20.00000000 3100.00000000 190.00000000 121 102 144 97.000000 1.000000 4.000000 1.000000 -60.708740 114.000000 149.000000 0.030800 -0.443248 0.895870
-70.00000000 3130.00000000 100.00000000 121 102 144 97.000000 1.000000 4.000000 1.000000 -60.708740 114.000000 149.000000 0.466723 0.684192 -0.560402
-40.00000000 3120.00000000 60.00000000 121 102 144 97.000000 1.000000 4.000000 1.000000 -60.708740 114.000000 149.000000 0.645485 0.632142 -0.428656
-180.00000000 3280.00000000 180.00000000 121 102 144 97.000000 1.000000 4.000000 1.000000 -60.708740 114.000000 149.000000 -0.215802 -0.430115 0.876602
-250.00000000 3260.00000000 190.00000000 121 102 144 97.000000 1.000000 4.000000 1.000000 -60.708740 114.000000 149.000000 -0.051559 -0.530921 0.845851
-200.00000000 3220.00000000 240.00000000 121 102 144 97.000000 1.000000 4.000000 1.000000 -60.708740 114.000000 149.000000 -0.274195 -0.594353 0.756017
-250.00000000 3190.00000000 230.00000000 121 102 144 97.000000 1.000000 4.000000 1.000000 -60.708740 114.000000 149.000000 0.374826 0.815048 -0.441817
-250.00000000 3250.00000000 170.00000000 121 102 144 97.000000 1.000000 4.000000 1.000000 -60.708740 114.000000 149.000000 0.265830 0.788052 -0.555255
-220.00000000 3180.00000000 180.00000000 121 102 144 97.000000 1.000000 4.000000 1.000000 -60.708740 114.000000 149.000000 -0.071662 0.915377 -0.396168
-200.00000000 3250.00000000 200.00000000 121 102 144 97.000000 1.000000 4.000000 1.000000 -60.708740 114.000000 149.000000 0.087532 0.830838 -0.549587
-330.00000000 3320.00000000 310.00000000 121 102 144 97.000000 1.000000 4.000000 1.000000 -60.708740 114.000000 149.000000 -0.219768 -0.096698 0.970748
-310.00000000 3270.00000000 160.00000000 121 102 144 97.000000 1.000000 4.000000 1.000000 -60.708740 114.000000 149.000000 0.631126 0.763048 -0.139417
-260.00000000 3210.00000000 190.00000000 121 102 144 97.000000 1.000000 4.000000 1.000000 -60.708740 114.000000 149.000000 -0.148199 -0.506223 0.849574
-270.00000000 3190.00000000 200.00000000 121 102 144 97.000000 1.000000 4.000000 1.000000 -60.708740 114.000000 149.000000 0.065185 0.954763 -0.290135
-240.00000000 3270.00000000 30.00000000 121 102 144 97.000000 1.000000 4.000000 1.000000 -60.708740 114.000000 149.000000 0.627862 0.590830 0.506666
-210.00000000 3240.00000000 20.00000000 121 102 144 97.000000 1.000000 4.000000 1.000000 -60.708740 114.000000 149.000000 0.771730 0.214971 0.598516
-210.00000000 3200.00000000 10.00000000 121 102 144 97.000000 1.000000 4.000000 1.000000 -60.708740 114.000000 149.000000 0.439325 0.381813 0.813150
-190.00000000 3200.00000000 0.00000000 121 102 144 97.000000 1.000000 4.000000 1.000000 -60.708740 114.000000 149.000000 0.507761 0.789672 0.344380
-300.00000000 3280.00000000 80.00000000 121 102 144 97.000000 1.000000 4.000000 1.000000 -60.708740 114.000000 149.000000 0.730495 0.618603 0.289321
-330.00000000 3260.00000000 80.00000000 121 102 144 97.000000 1.000000 4.000000 1.000000 -60.708740 114.000000 149.000000 0.554478 0.819082 0.147167
-310.00000000 3280.00000000 100.00000000 121 102 144 97.000000 1.000000 4.000000 1.000000 -60.708740 114.000000 149.000000 0.569846 0.683481 0.456211
-340.00000000 3320.00000000 -10.00000000 121 102 144 97.000000 1.000000 4.000000 1.000000 -60.708740 114.000000 149.000000 0.401510 0.492541 0.772135
-260.00000000 3290.00000000 10.00000000 121 102 144 97.000000 1.000000 4.000000 1.000000 -60.708740 114.000000 149.000000 0.662699 0.394975 0.636258
-330.00000000 3200.00000000 80.00000000 121 102 144 97.000000 1.000000 4.000000 1.000000 -60.708740 114.000000 149.000000 0.405555 0.793337 0.454028
-340.00000000 3210.00000000 70.00000000 121 102 144 97.000000 1.000000 4.000000 1.000000 -60.708740 114.000000 149.000000 0.587617 0.700175 0.405539
-310.00000000 3190.00000000 40.00000000 121 102 144 97.000000 1.000000 4.000000 1.000000 -60.708740 114.000000 149.000000 0.625311 0.690960 0.362713
-180.00000000 3160.00000000 250.00000000 121 102 144 97.000000 1.000000 4.000000 1.000000 -60.708740 114.000000 149.000000 0.216347 0.723752 -0.655268
-200.00000000 3120.00000000 260.00000000 121 102 144 97.000000 1.000000 4.000000 1.000000 -60.708740 114.000000 149.000000 0.049404 -0.407252 0.911978
-230.00000000 3140.00000000 310.00000000 121 102 144 97.000000 1.000000 4.000000 1.000000 -60.708740 114.000000 149.000000 -0.465418 -0.462129 0.754866
-250.00000000 3150.00000000 280.00000000 121 102 144 97.000000 1.000000 4.000000 1.000000 -60.708740 114.000000 149.000000 0.440706 0.792625 -0.421335
-230.00000000 3100.00000000 300.00000000 121 102 144 97.000000 1.000000 4.000000 1.000000 -60.708740 114.000000 149.000000 0.139523 0.757624 -0.637604
-240.00000000 3090.00000000 240.00000000 121 102 144 97.000000 1.000000 4.000000 1.000000 -60.708740 114.000000 149.000000 0.616031 0.511390 -0.599154
-240.00000000 3100.00000000 150.00000000 121 102 144 97.000000 1.000000 4.000000 1.000000 -60.708740 114.000000 149.000000 0.138882 0.913257 -0.382979
-180.00000000 3140.00000000 220.00000000 121 102 144 97.000000 1.000000 4.000000 1.000000 -60.708740 114.000000 149.000000 -0.161676 -0.404906 0.899951
-210.00000000 3140.00000000 190.00000000 121 102 144 97.000000 1.000000 4.000000 1.000000 -60.708740 114.000000 149.000000 0.382301 0.897894 -0.218248
-290.00000000 3110.00000000 260.00000000 121 102 144 97.000000 1.000000 4.000000 1.000000 -60.708740 114.000000 149.000000 0.442193 0.754523 -0.484933
-280.00000000 3120.00000000 20.00000000 121 102 144 97.000000 1.000000 4.000000 1.000000 -60.708740 114.000000 149.000000 0.299093 0.903172 0.307933
-660.00000000 3790.00000000 370.00000000 121 102 144 97.000000 1.000000 4.000000 1.000000 -60.708740 114.000000 149.000000 0.261858 0.677656 0.687178
-660.00000000 3810.00000000 350.00000000 121 102 144 97.000000 1.000000 4.000000 1.000000 -60.708740 114.000000 149.000000 0.535752 0.620255 0.572934
-650.00000000 3680.00000000 360.00000000 121 102 144 97.000000 1.000000 4.000000 1.000000 -60.708740 114.000000 149.000000 0.197636 0.252156 0.947289
-630.00000000 3720.00000000 320.00000000 121 102 144 97.000000 1.000000 4.000000 1.000000 -60.708740 114.000000 149.000000 0.612551 0.578802 0.538303
-650.00000000 3720.00000000 360.00000000 121 102 144 97.000000 1.000000 4.000000 1.000000 -60.708740 114.000000 149.000000 0.457381 0.217444 0.862276
-480.00000000 3700.00000000 220.00000000 121 102 144 97.000000 1.000000 4.000000 1.000000 -60.708740 114.000000 149.000000 0.739599 0.671197 -0.049877
-670.00000000 3820.00000000 280.00000000 121 102 144 97.000000 1.000000 4.000000 1.000000 -60.708740 114.000000 149.000000 0.408351 0.912552 0.022321
-740.00000000 3840.00000000 350.00000000 121 102 144 97.000000 1.000000 4.000000 1.000000 -60.708740 114.000000 149.000000 0.590645 0.553412 0.587260
-740.00000000 3850.00000000 320.00000000 121 102 144 97.000000 1.000000 4.000000 1.000000 -60.708740 114.000000 149.000000 0.555587 0.790342 0.258231
-710.00000000 3710.00000000 330.00000000 121 102 144 97.000000 1.000000 4.000000 1.000000 -60.708740 114.000000 149.000000 0.788920 0.451968 0.416329
-730.00000000 3720.00000000 350.00000000 121 102 144 97.000000 1.000000 4.000000 1.000000 -60.708740 114.000000 149.000000 0.720263 0.210012 0.661148
-790.00000000 3730.00000000 320.00000000 121 102 144 97.000000 1.000000 4.000000 1.000000 -60.708740 114.000000 149.000000 0.559100 0.659839 0.502015
-810.00000000 3710.00000000 340.00000000 121 102 144 97.000000 1.000000 4.000000 1.000000 -60.708740 114.000000 149.000000 0.594290 0.235532 0.768989
-730.00000000 3840.00000000 310.00000000 121 102 144 97.000000 1.000000 4.000000 1.000000 -60.708740 114.000000 149.000000 0.635878 0.765109 -0.101329
-780.00000000 3700.00000000 310.00000000 121 102 144 97.000000 1.000000 4.000000 1.000000 -60.708740 114.000000 149.000000 0.812420 0.451699 0.368702
-760.00000000 3700.00000000 310.00000000 121 102 144 97.000000 1.000000 4.000000 1.000000 -60.708740 114.000000 149.000000 0.600396 0.364818 0.711641
-770.00000000 3820.00000000 280.00000000 121 102 144 97.000000 1.000000 4.000000 1.000000 -60.708740 114.000000 149.000000 0.602730 0.785194 0.142083
-770.00000000 3820.00000000 280.00000000 121 102 144 97.000000 1.000000 4.000000 1.000000 -60.708740 114.000000 149.000000 0.602730 0.785194 0.142083
-390.00000000 3380.00000000 620.00000000 121 102 144 97.000000 1.000000 4.000000 1.000000 -60.708740 114.000000 149.000000 0.504942 -0.276702 0.817600
-370.00000000 3380.00000000 610.00000000 121 102 144 97.000000 1.000000 4.000000 1.000000 -60.708740 114.000000 149.000000 0.523053 -0.249886 0.814845
-350.00000000 3400.00000000 550.00000000 121 102 144 97.000000 1.000000 4.000000 1.000000 -60.708740 114.000000 149.000000 0.353293 -0.180194 0.917995
-380.00000000 3390.00000000 460.00000000 121 102 144 97.000000 1.000000 4.000000 1.000000 -60.708740 114.000000 149.000000 -0.179170 -0.246527 0.952430
-380.00000000 3350.00000000 420.00000000 121 102 144 97.000000 1.000000 4.000000 1.000000 -60.708740 114.000000 149.000000 0.127702 0.018878 0.991633
-420.00000000 3400.00000000 450.00000000 121 102 144 97.000000 1.000000 4.000000 1.000000 -60.708740 114.000000 149.000000 0.121262 -0.150659 0.981120
-460.00000000 3420.00000000 400.00000000 121 102 144 97.000000 1.000000 4.000000 1.000000 -60.708740 114.000000 149.000000 0.107193 -0.609386 0.785594
-440.00000000 3410.00000000 450.00000000 121 102 144 97.000000 1.000000 4.000000 1.000000 -60.708740 114.000000 149.000000 0.085762 -0.485047 0.870273
-430.00000000 3400.00000000 470.00000000 121 102 144 97.000000 1.000000 4.000000 1.000000 -60.708740 114.000000 149.000000 -0.236567 -0.258964 0.936469
-580.00000000 3630.00000000 380.00000000 121 102 144 97.000000 1.000000 4.000000 1.000000 -60.708740 114.000000 149.000000 0.279674 0.360435 0.889870
-580.00000000 3660.00000000 400.00000000 121 102 144 97.000000 1.000000 4.000000 1.000000 -60.708740 114.000000 149.000000 0.207903 0.046868 0.977026
-580.00000000 3610.00000000 390.00000000 121 102 144 97.000000 1.000000 4.000000 1.000000 -60.708740 114.000000 149.000000 0.043311 -0.101060 0.993937
-660.00000000 3610.00000000 380.00000000 121 102 144 97.000000 1.000000 4.000000 1.000000 -60.708740 114.000000 149.000000 0.117908 -0.018733 0.992848
-640.00000000 3670.00000000 360.00000000 121 102 144 97.000000 1.000000 4.000000 1.000000 -60.708740 114.000000 149.000000 0.253884 0.347807 0.902537
-620.00000000 3580.00000000 380.00000000 121 102 144 97.000000 1.000000 4.000000 1.000000 -60.708740 114.000000 149.000000 0.011386 -0.347910 0.937459
-660.00000000 3570.00000000 390.00000000 121 102 144 97.000000 1.000000 4.000000 1.000000 -60.708740 114.000000 149.000000 0.133889 0.071019 0.988448
-470.00000000 3670.00000000 250.00000000 121 102 144 97.000000 1.000000 4.000000 1.000000 -60.708740 114.000000 149.000000 0.244532 0.855103 0.457169
-500.00000000 3590.00000000 310.00000000 121 102 144 97.000000 1.000000 4.000000 1.000000 -60.708740 114.000000 149.000000 0.660979 0.044065 0.749110
-490.00000000 3620.00000000 280.00000000 121 102 144 97.000000 1.000000 4.000000 1.000000 -60.708740 114.000000 149.000000 0.300342 0.717931 0.627989
-460.00000000 3600.00000000 150.00000000 121 102 144 97.000000 1.000000 4.000000 1.000000 -60.708740 114.000000 149.000000 0.270079 0.917114 -0.293188
-470.00000000 3590.00000000 160.00000000 121 102 144 97.000000 1.000000 4.000000 1.000000 -60.708740 114.000000 149.000000 0.361536 0.931701 0.034987
-450.00000000 3580.00000000 180.00000000 121 102 144 97.000000 1.000000 4.000000 1.000000 -60.708740 114.000000 149.000000 0.558883 0.813601 -0.160323
-450.00000000 3590.00000000 60.00000000 121 102 144 97.000000 1.000000 4.000000 1.000000 -60.708740 114.000000 149.000000 0.201734 -0.419665 0.884977
-510.00000000 3520.00000000 140.00000000 121 102 144 97.000000 1.000000 4.000000 1.000000 -60.708740 114.000000 149.000000 0.452419 -0.378881 0.807320
-500.00000000 3580.00000000 50.00000000 121 102 144 97.000000 1.000000 4.000000 1.000000 -60.708740 114.000000 149.000000 -0.333733 -0.463430 0.820887
-510.00000000 3530.00000000 40.00000000 121 102 144 97.000000 1.000000 4.000000 1.000000 -60.708740 114.000000 149.000000 0.376169 -0.354496 0.856055
-470.00000000 3530.00000000 60.00000000 121 102 144 97.000000 1.000000 4.000000 1.000000 -60.708740 114.000000 149.000000 -0.073297 -0.613681 0.786144
-410.00000000 3420.00000000 230.00000000 121 102 144 97.000000 1.000000 4.000000 1.000000 -60.708740 114.000000 149.000000 -0.179154 0.721210 -0.669148
-450.00000000 3440.00000000 160.00000000 121 102 144 97.000000 1.000000 4.000000 1.000000 -60.708740 114.000000 149.000000 0.410525 0.558908 0.720480
-440.00000000 3390.00000000 200.00000000 121 102 144 97.000000 1.000000 4.000000 1.000000 -60.708740 114.000000 149.000000 0.393010 0.917911 -0.054622
