//X Y Z R G B PointSourceId ScanDirectionFlag NumberOfReturns ReturnNumber GpsTime Intensity Classification Nx Ny Nz
9390.00000000 -3750.00000000 110.00000000 18 150 171 0.000000 0.000000 0.000000 0.000000 -60.708740 0.000000 43.000000 -0.083003 0.261777 0.961553
9390.00000000 -3780.00000000 110.00000000 18 150 171 0.000000 0.000000 0.000000 0.000000 -60.708740 0.000000 43.000000 0.431802 0.222624 0.874063
9410.00000000 -3740.00000000 110.00000000 18 150 171 0.000000 0.000000 0.000000 0.000000 -60.708740 0.000000 43.000000 0.025376 -0.240467 0.970326
9410.00000000 -3780.00000000 130.00000000 18 150 171 0.000000 0.000000 0.000000 0.000000 -60.708740 0.000000 43.000000 0.021682 -0.158621 0.987101
9390.00000000 -3750.00000000 110.00000000 18 150 171 0.000000 0.000000 0.000000 0.000000 -60.708740 0.000000 43.000000 -0.083003 0.261777 0.961553
9390.00000000 -3750.00000000 110.00000000 18 150 171 0.000000 0.000000 0.000000 0.000000 -60.708740 0.000000 43.000000 -0.083003 0.261777 0.961553
9390.00000000 -3740.00000000 140.00000000 18 150 171 0.000000 0.000000 0.000000 0.000000 -60.708740 0.000000 43.000000 -0.446867 0.139377 0.883676
9410.00000000 -3740.00000000 110.00000000 18 150 171 0.000000 0.000000 0.000000 0.000000 -60.708740 0.000000 43.000000 0.025376 -0.240467 0.970326
9400.00000000 -3740.00000000 140.00000000 18 150 171 0.000000 0.000000 0.000000 0.000000 -60.708740 0.000000 43.000000 0.059214 0.201811 0.977633
9400.00000000 -3740.00000000 140.00000000 18 150 171 0.000000 0.000000 0.000000 0.000000 -60.708740 0.000000 43.000000 0.059214 0.201811 0.977633
9410.00000000 -3770.00000000 130.00000000 18 150 171 0.000000 0.000000 0.000000 0.000000 -60.708740 0.000000 43.000000 -0.206704 0.368598 0.906316
9400.00000000 -3780.00000000 130.00000000 18 150 171 0.000000 0.000000 0.000000 0.000000 -60.708740 0.000000 43.000000 0.075236 -0.081974 0.993791
9420.00000000 -3760.00000000 100.00000000 18 150 171 0.000000 0.000000 0.000000 0.000000 -60.708740 0.000000 43.000000 0.171681 0.456350 0.873081
9370.00000000 -3800.00000000 110.00000000 18 150 171 0.000000 0.000000 0.000000 0.000000 -60.708740 0.000000 43.000000 -0.277131 0.315255 0.907641
9370.00000000 -3790.00000000 140.00000000 18 150 171 0.000000 0.000000 0.000000 0.000000 -60.708740 0.000000 43.000000 -0.145374 0.447637 0.882320
9380.00000000 -3790.00000000 140.00000000 18 150 171 0.000000 0.000000 0.000000 0.000000 -60.708740 0.000000 43.000000 -0.172767 0.276155 0.945457
9400.00000000 -3920.00000000 240.00000000 18 150 171 0.000000 0.000000 0.000000 0.000000 -60.708740 0.000000 43.000000 0.069619 -0.028919 0.997154
9410.00000000 -3980.00000000 240.00000000 18 150 171 0.000000 0.000000 0.000000 0.000000 -60.708740 0.000000 43.000000 0.509585 -0.020383 0.860179
9380.00000000 -3960.00000000 240.00000000 18 150 171 0.000000 0.000000 0.000000 0.000000 -60.708740 0.000000 43.000000 0.347562 -0.270655 0.897745
9360.00000000 -3970.00000000 240.00000000 18 150 171 0.000000 0.000000 0.000000 0.000000 -60.708740 0.000000 43.000000 0.013210 -0.246186 0.969133
9380.00000000 -3970.00000000 240.00000000 18 150 171 0.000000 0.000000 0.000000 0.000000 -60.708740 0.000000 43.000000 0.214525 -0.064970 0.974555
9400.00000000 -3930.00000000 230.00000000 18 150 171 0.000000 0.000000 0.000000 0.000000 -60.708740 0.000000 43.000000 0.178573 -0.068313 0.981552
9400.00000000 -3910.00000000 200.00000000 18 150 171 0.000000 0.000000 0.000000 0.000000 -60.708740 0.000000 43.000000 0.627839 0.152067 0.763344
9410.00000000 -3940.00000000 230.00000000 18 150 171 0.000000 0.000000 0.000000 0.000000 -60.708740 0.000000 43.000000 0.538441 -0.185513 0.821989
9410.00000000 -3910.00000000 190.00000000 18 150 171 0.000000 0.000000 0.000000 0.000000 -60.708740 0.000000 43.000000 0.304081 -0.060303 0.950736
9420.00000000 -3910.00000000 190.00000000 18 150 171 0.000000 0.000000 0.000000 0.000000 -60.708740 0.000000 43.000000 0.152309 -0.069661 0.985875
9390.00000000 -3970.00000000 210.00000000 18 150 171 0.000000 0.000000 0.000000 0.000000 -60.708740 0.000000 43.000000 0.512110 0.006721 0.858893
9410.00000000 -3980.00000000 230.00000000 18 150 171 0.000000 0.000000 0.000000 0.000000 -60.708740 0.000000 43.000000 0.246932 0.313358 0.916969
9410.00000000 -3970.00000000 200.00000000 18 150 171 0.000000 0.000000 0.000000 0.000000 -60.708740 0.000000 43.000000 0.416941 -0.285597 0.862899
9390.00000000 -3960.00000000 200.00000000 18 150 171 0.000000 0.000000 0.000000 0.000000 -60.708740 0.000000 43.000000 0.715147 -0.032443 0.698221
9410.00000000 -3960.00000000 220.00000000 18 150 171 0.000000 0.000000 0.000000 0.000000 -60.708740 0.000000 43.000000 0.396403 -0.006456 0.918054
9420.00000000 -3990.00000000 200.00000000 18 150 171 0.000000 0.000000 0.000000 0.000000 -60.708740 0.000000 43.000000 0.178585 -0.001137 0.983924
9420.00000000 -3990.00000000 230.00000000 18 150 171 0.000000 0.000000 0.000000 0.000000 -60.708740 0.000000 43.000000 0.429870 -0.049859 0.901513
9420.00000000 -3990.00000000 200.00000000 18 150 171 0.000000 0.000000 0.000000 0.000000 -60.708740 0.000000 43.000000 0.178585 -0.001137 0.983924
9380.00000000 -3910.00000000 230.00000000 18 150 171 0.000000 0.000000 0.000000 0.000000 -60.708740 0.000000 43.000000 0.454123 0.079159 0.887415
9380.00000000 -3910.00000000 230.00000000 18 150 171 0.000000 0.000000 0.000000 0.000000 -60.708740 0.000000 43.000000 0.454123 0.079159 0.887415
9410.00000000 -4030.00000000 250.00000000 18 150 171 0.000000 0.000000 0.000000 0.000000 -60.708740 0.000000 43.000000 0.582736 0.151302 0.798453
9390.00000000 -4030.00000000 240.00000000 18 150 171 0.000000 0.000000 0.000000 0.000000 -60.708740 0.000000 43.000000 0.313430 -0.380702 0.869958
9410.00000000 -4030.00000000 240.00000000 18 150 171 0.000000 0.000000 0.000000 0.000000 -60.708740 0.000000 43.000000 0.587404 0.076118 0.805706
9400.00000000 -4030.00000000 240.00000000 18 150 171 0.000000 0.000000 0.000000 0.000000 -60.708740 0.000000 43.000000 0.358773 0.014044 0.933319
9410.00000000 -4060.00000000 300.00000000 18 150 171 0.000000 0.000000 0.000000 0.000000 -60.708740 0.000000 43.000000 0.673576 0.202847 0.710738
9410.00000000 -4040.00000000 240.00000000 18 150 171 0.000000 0.000000 0.000000 0.000000 -60.708740 0.000000 43.000000 0.220778 0.025061 0.975002
9410.00000000 -4060.00000000 240.00000000 18 150 171 0.000000 0.000000 0.000000 0.000000 -60.708740 0.000000 43.000000 0.281925 -0.041349 0.958545
9420.00000000 -4040.00000000 240.00000000 18 150 171 0.000000 0.000000 0.000000 0.000000 -60.708740 0.000000 43.000000 0.301705 0.219550 0.927778
9420.00000000 -4060.00000000 240.00000000 18 150 171 0.000000 0.000000 0.000000 0.000000 -60.708740 0.000000 43.000000 0.374437 -0.043356 0.926238
9390.00000000 -4070.00000000 250.00000000 18 150 171 0.000000 0.000000 0.000000 0.000000 -60.708740 0.000000 43.000000 0.715034 0.038230 0.698043
9420.00000000 -4050.00000000 240.00000000 18 150 171 0.000000 0.000000 0.000000 0.000000 -60.708740 0.000000 43.000000 0.295545 -0.006132 0.955309
9420.00000000 -4070.00000000 240.00000000 18 150 171 0.000000 0.000000 0.000000 0.000000 -60.708740 0.000000 43.000000 0.422757 0.036008 0.905527
9420.00000000 -4020.00000000 180.00000000 18 150 171 0.000000 0.000000 0.000000 0.000000 -60.708740 0.000000 43.000000 0.666015 -0.366719 0.649570
9410.00000000 -4010.00000000 190.00000000 18 150 171 0.000000 0.000000 0.000000 0.000000 -60.708740 0.000000 43.000000 0.778405 0.191160 0.597950
9400.00000000 -4040.00000000 200.00000000 18 150 171 0.000000 0.000000 0.000000 0.000000 -60.708740 0.000000 43.000000 0.208484 -0.292438 0.933282
9400.00000000 -4040.00000000 200.00000000 18 150 171 0.000000 0.000000 0.000000 0.000000 -60.708740 0.000000 43.000000 0.208484 -0.292438 0.933282
9400.00000000 -4060.00000000 220.00000000 18 150 171 0.000000 0.000000 0.000000 0.000000 -60.708740 0.000000 43.000000 0.660972 0.117341 0.741180
9410.00000000 -4040.00000000 200.00000000 18 150 171 0.000000 0.000000 0.000000 0.000000 -60.708740 0.000000 43.000000 0.426248 -0.397513 0.812586
9400.00000000 -4070.00000000 220.00000000 18 150 171 0.000000 0.000000 0.000000 0.000000 -60.708740 0.000000 43.000000 0.707202 0.206720 0.676116
9420.00000000 -4040.00000000 180.00000000 18 150 171 0.000000 0.000000 0.000000 0.000000 -60.708740 0.000000 43.000000 0.807518 0.040727 0.588435
9330.00000000 -3920.00000000 250.00000000 18 150 171 0.000000 0.000000 0.000000 0.000000 -60.708740 0.000000 43.000000 0.063262 0.535618 0.842087
9330.00000000 -3920.00000000 250.00000000 18 150 171 0.000000 0.000000 0.000000 0.000000 -60.708740 0.000000 43.000000 0.063262 0.535618 0.842087
9350.00000000 -4110.00000000 430.00000000 18 150 171 0.000000 0.000000 0.000000 0.000000 -60.708740 0.000000 43.000000 0.489354 0.028467 0.871620
9360.00000000 -4110.00000000 430.00000000 18 150 171 0.000000 0.000000 0.000000 0.000000 -60.708740 0.000000 43.000000 0.525095 0.130177 0.841029
9360.00000000 -4110.00000000 430.00000000 18 150 171 0.000000 0.000000 0.000000 0.000000 -60.708740 0.000000 43.000000 0.525095 0.130177 0.841029
9370.00000000 -4110.00000000 400.00000000 18 150 171 0.000000 0.000000 0.000000 0.000000 -60.708740 0.000000 43.000000 0.535062 0.246594 0.808022
9380.00000000 -4140.00000000 360.00000000 18 150 171 0.000000 0.000000 0.000000 0.000000 -60.708740 0.000000 43.000000 0.479263 0.179538 0.859112
9410.00000000 -4080.00000000 290.00000000 18 150 171 0.000000 0.000000 0.000000 0.000000 -60.708740 0.000000 43.000000 0.758817 0.159033 0.631590
9390.00000000 -4080.00000000 250.00000000 18 150 171 0.000000 0.000000 0.000000 0.000000 -60.708740 0.000000 43.000000 0.789007 0.113135 0.603877
9410.00000000 -4080.00000000 250.00000000 18 150 171 0.000000 0.000000 0.000000 0.000000 -60.708740 0.000000 43.000000 0.284882 -0.043925 0.957556
9370.00000000 -4080.00000000 260.00000000 18 150 171 0.000000 0.000000 0.000000 0.000000 -60.708740 0.000000 43.000000 0.475200 -0.006655 0.879853
9370.00000000 -4140.00000000 310.00000000 18 150 171 0.000000 0.000000 0.000000 0.000000 -60.708740 0.000000 43.000000 0.695605 -0.241332 0.676677
9380.00000000 -4130.00000000 240.00000000 18 150 171 0.000000 0.000000 0.000000 0.000000 -60.708740 0.000000 43.000000 0.804807 -0.227076 0.548381
9260.00000000 -4470.00000000 490.00000000 18 150 171 0.000000 0.000000 0.000000 0.000000 -60.708740 0.000000 43.000000 0.367760 -0.144028 0.918700
9270.00000000 -4490.00000000 420.00000000 18 150 171 0.000000 0.000000 0.000000 0.000000 -60.708740 0.000000 43.000000 0.750243 -0.212802 0.625979
9310.00000000 -4630.00000000 430.00000000 18 150 171 0.000000 0.000000 0.000000 0.000000 -60.708740 0.000000 43.000000 0.568870 0.124946 0.812881
9330.00000000 -4660.00000000 360.00000000 18 150 171 0.000000 0.000000 0.000000 0.000000 -60.708740 0.000000 43.000000 0.944591 -0.118909 0.305956
9270.00000000 -4620.00000000 340.00000000 18 150 171 0.000000 0.000000 0.000000 0.000000 -60.708740 0.000000 43.000000 0.910107 0.027739 0.413445
9270.00000000 -4620.00000000 340.00000000 18 150 171 0.000000 0.000000 0.000000 0.000000 -60.708740 0.000000 43.000000 0.910107 0.027739 0.413445
9290.00000000 -4640.00000000 380.00000000 18 150 171 0.000000 0.000000 0.000000 0.000000 -60.708740 0.000000 43.000000 0.815779 0.049313 0.576258
9270.00000000 -4630.00000000 330.00000000 18 150 171 0.000000 0.000000 0.000000 0.000000 -60.708740 0.000000 43.000000 0.635717 -0.461272 0.618944
9240.00000000 -4500.00000000 480.00000000 18 150 171 0.000000 0.000000 0.000000 0.000000 -60.708740 0.000000 43.000000 0.224097 -0.286111 0.931623
9250.00000000 -4500.00000000 420.00000000 18 150 171 0.000000 0.000000 0.000000 0.000000 -60.708740 0.000000 43.000000 0.360005 -0.416599 0.834771
9230.00000000 -4500.00000000 440.00000000 18 150 171 0.000000 0.000000 0.000000 0.000000 -60.708740 0.000000 43.000000 0.285984 0.420565 0.861010
9240.00000000 -4550.00000000 360.00000000 18 150 171 0.000000 0.000000 0.000000 0.000000 -60.708740 0.000000 43.000000 0.858585 -0.065829 0.508428
9230.00000000 -4550.00000000 360.00000000 18 150 171 0.000000 0.000000 0.000000 0.000000 -60.708740 0.000000 43.000000 0.627411 -0.427705 0.650710
9180.00000000 -4500.00000000 390.00000000 18 150 171 0.000000 0.000000 0.000000 0.000000 -60.708740 0.000000 43.000000 0.507036 -0.045592 0.860718
9190.00000000 -4530.00000000 360.00000000 18 150 171 0.000000 0.000000 0.000000 0.000000 -60.708740 0.000000 43.000000 0.047436 0.034787 0.998268
9200.00000000 -4530.00000000 330.00000000 18 150 171 0.000000 0.000000 0.000000 0.000000 -60.708740 0.000000 43.000000 0.478935 -0.401006 0.780907
9200.00000000 -4550.00000000 330.00000000 18 150 171 0.000000 0.000000 0.000000 0.000000 -60.708740 0.000000 43.000000 0.740692 -0.303667 0.599301
9200.00000000 -4550.00000000 340.00000000 18 150 171 0.000000 0.000000 0.000000 0.000000 -60.708740 0.000000 43.000000 0.606755 -0.417248 0.676574
9200.00000000 -4560.00000000 340.00000000 18 150 171 0.000000 0.000000 0.000000 0.000000 -60.708740 0.000000 43.000000 0.731275 -0.117182 0.671942
9150.00000000 -4520.00000000 380.00000000 18 150 171 0.000000 0.000000 0.000000 0.000000 -60.708740 0.000000 43.000000 0.073317 -0.174277 0.981963
9150.00000000 -4530.00000000 380.00000000 18 150 171 0.000000 0.000000 0.000000 0.000000 -60.708740 0.000000 43.000000 0.100229 -0.191796 0.976304
9100.00000000 -4550.00000000 390.00000000 18 150 171 0.000000 0.000000 0.000000 0.000000 -60.708740 0.000000 43.000000 0.354120 0.084187 0.931403
9100.00000000 -4550.00000000 350.00000000 18 150 171 0.000000 0.000000 0.000000 0.000000 -60.708740 0.000000 43.000000 0.310947 -0.063221 0.948322
9100.00000000 -4570.00000000 350.00000000 18 150 171 0.000000 0.000000 0.000000 0.000000 -60.708740 0.000000 43.000000 0.329014 -0.016388 0.944183
9090.00000000 -4550.00000000 350.00000000 18 150 171 0.000000 0.000000 0.000000 0.000000 -60.708740 0.000000 43.000000 0.048444 -0.257128 0.965162
9100.00000000 -4550.00000000 350.00000000 18 150 171 0.000000 0.000000 0.000000 0.000000 -60.708740 0.000000 43.000000 0.310947 -0.063221 0.948322
9230.00000000 -4610.00000000 370.00000000 18 150 171 0.000000 0.000000 0.000000 0.000000 -60.708740 0.000000 43.000000 0.788460 0.129183 0.601368
9250.00000000 -4600.00000000 360.00000000 18 150 171 0.000000 0.000000 0.000000 0.000000 -60.708740 0.000000 43.000000 0.662640 0.117111 0.739725
9240.00000000 -4590.00000000 370.00000000 18 150 171 0.000000 0.000000 0.000000 0.000000 -60.708740 0.000000 43.000000 0.510947 -0.381183 0.770476
9220.00000000 -4590.00000000 330.00000000 18 150 171 0.000000 0.000000 0.000000 0.000000 -60.708740 0.000000 43.000000 0.478571 -0.260059 0.838653
9200.00000000 -4600.00000000 330.00000000 18 150 171 0.000000 0.000000 0.000000 0.000000 -60.708740 0.000000 43.000000 0.780320 -0.197763 0.593288
9180.00000000 -4620.00000000 340.00000000 18 150 171 0.000000 0.000000 0.000000 0.000000 -60.708740 0.000000 43.000000 0.559715 -0.269609 0.783601
9150.00000000 -4600.00000000 330.00000000 18 150 171 0.000000 0.000000 0.000000 0.000000 -60.708740 0.000000 43.000000 0.234631 0.268351 0.934310
9260.00000000 -4550.00000000 270.00000000 18 150 171 0.000000 0.000000 0.000000 0.000000 -60.708740 0.000000 43.000000 0.658515 -0.216392 0.720786
9360.00000000 -4650.00000000 290.00000000 18 150 171 0.000000 0.000000 0.000000 0.000000 -60.708740 0.000000 43.000000 0.745562 -0.082840 0.661268
9360.00000000 -4620.00000000 200.00000000 18 150 171 0.000000 0.000000 0.000000 0.000000 -60.708740 0.000000 43.000000 0.662669 -0.659396 0.355059
9380.00000000 -4720.00000000 270.00000000 18 150 171 0.000000 0.000000 0.000000 0.000000 -60.708740 0.000000 43.000000 0.856363 -0.208467 0.472424
9350.00000000 -4740.00000000 170.00000000 18 150 171 0.000000 0.000000 0.000000 0.000000 -60.708740 0.000000 43.000000 0.873377 -0.384286 -0.299227
9350.00000000 -4720.00000000 150.00000000 18 150 171 0.000000 0.000000 0.000000 0.000000 -60.708740 0.000000 43.000000 0.997401 -0.030935 -0.065071
9360.00000000 -4720.00000000 150.00000000 18 150 171 0.000000 0.000000 0.000000 0.000000 -60.708740 0.000000 43.000000 0.968238 -0.184365 0.168894
9330.00000000 -4650.00000000 240.00000000 18 150 171 0.000000 0.000000 0.000000 0.000000 -60.708740 0.000000 43.000000 0.901849 -0.011815 0.431890
9260.00000000 -4600.00000000 270.00000000 18 150 171 0.000000 0.000000 0.000000 0.000000 -60.708740 0.000000 43.000000 0.708015 -0.436084 0.555468
9300.00000000 -4620.00000000 180.00000000 18 150 171 0.000000 0.000000 0.000000 0.000000 -60.708740 0.000000 43.000000 0.766301 -0.546897 0.337173
9300.00000000 -4610.00000000 190.00000000 18 150 171 0.000000 0.000000 0.000000 0.000000 -60.708740 0.000000 43.000000 0.886967 -0.264744 0.378419
9340.00000000 -4640.00000000 220.00000000 18 150 171 0.000000 0.000000 0.000000 0.000000 -60.708740 0.000000 43.000000 0.947263 -0.203668 0.247409
9340.00000000 -4640.00000000 220.00000000 18 150 171 0.000000 0.000000 0.000000 0.000000 -60.708740 0.000000 43.000000 0.947263 -0.203668 0.247409
9340.00000000 -4650.00000000 180.00000000 18 150 171 0.000000 0.000000 0.000000 0.000000 -60.708740 0.000000 43.000000 0.996641 -0.081553 -0.007414
9310.00000000 -4660.00000000 170.00000000 18 150 171 0.000000 0.000000 0.000000 0.000000 -60.708740 0.000000 43.000000 0.995694 -0.003195 -0.092647
9290.00000000 -4620.00000000 210.00000000 18 150 171 0.000000 0.000000 0.000000 0.000000 -60.708740 0.000000 43.000000 0.794993 -0.430554 0.427329
9290.00000000 -4620.00000000 200.00000000 18 150 171 0.000000 0.000000 0.000000 0.000000 -60.708740 0.000000 43.000000 -0.802505 0.518711 -0.294830
9280.00000000 -4610.00000000 230.00000000 18 150 171 0.000000 0.000000 0.000000 0.000000 -60.708740 0.000000 43.000000 0.951608 -0.148563 0.269020
9280.00000000 -4610.00000000 230.00000000 18 150 171 0.000000 0.000000 0.000000 0.000000 -60.708740 0.000000 43.000000 0.951608 -0.148563 0.269020
9280.00000000 -4620.00000000 160.00000000 18 150 171 0.000000 0.000000 0.000000 0.000000 -60.708740 0.000000 43.000000 0.992841 -0.052967 -0.107060
9270.00000000 -4650.00000000 210.00000000 18 150 171 0.000000 0.000000 0.000000 0.000000 -60.708740 0.000000 43.000000 0.887417 -0.459289 0.039290
9270.00000000 -4640.00000000 200.00000000 18 150 171 0.000000 0.000000 0.000000 0.000000 -60.708740 0.000000 43.000000 0.990939 -0.125996 -0.046539
9270.00000000 -4650.00000000 200.00000000 18 150 171 0.000000 0.000000 0.000000 0.000000 -60.708740 0.000000 43.000000 0.941640 -0.247509 0.228151
9270.00000000 -4650.00000000 200.00000000 18 150 171 0.000000 0.000000 0.000000 0.000000 -60.708740 0.000000 43.000000 0.941640 -0.247509 0.228151
9280.00000000 -4640.00000000 220.00000000 18 150 171 0.000000 0.000000 0.000000 0.000000 -60.708740 0.000000 43.000000 0.968407 -0.040401 0.246081
9280.00000000 -4630.00000000 220.00000000 18 150 171 0.000000 0.000000 0.000000 0.000000 -60.708740 0.000000 43.000000 0.833376 -0.487038 0.261300
9290.00000000 -4640.00000000 180.00000000 18 150 171 0.000000 0.000000 0.000000 0.000000 -60.708740 0.000000 43.000000 0.963096 -0.163792 -0.213585
9280.00000000 -4650.00000000 180.00000000 18 150 171 0.000000 0.000000 0.000000 0.000000 -60.708740 0.000000 43.000000 0.994888 -0.063220 -0.078748
9280.00000000 -4660.00000000 180.00000000 18 150 171 0.000000 0.000000 0.000000 0.000000 -60.708740 0.000000 43.000000 0.999238 -0.015373 0.035870
9290.00000000 -4640.00000000 180.00000000 18 150 171 0.000000 0.000000 0.000000 0.000000 -60.708740 0.000000 43.000000 0.963096 -0.163792 -0.213585
9260.00000000 -4660.00000000 190.00000000 18 150 171 0.000000 0.000000 0.000000 0.000000 -60.708740 0.000000 43.000000 0.846469 -0.332040 0.416220
9330.00000000 -4700.00000000 210.00000000 18 150 171 0.000000 0.000000 0.000000 0.000000 -60.708740 0.000000 43.000000 0.773781 -0.408882 0.483817
9330.00000000 -4670.00000000 150.00000000 18 150 171 0.000000 0.000000 0.000000 0.000000 -60.708740 0.000000 43.000000 0.981139 -0.191070 -0.029305
9310.00000000 -4670.00000000 170.00000000 18 150 171 0.000000 0.000000 0.000000 0.000000 -60.708740 0.000000 43.000000 0.774909 -0.629880 -0.052608
9310.00000000 -4670.00000000 170.00000000 18 150 171 0.000000 0.000000 0.000000 0.000000 -60.708740 0.000000 43.000000 0.774909 -0.629880 -0.052608
9260.00000000 -4670.00000000 210.00000000 18 150 171 0.000000 0.000000 0.000000 0.000000 -60.708740 0.000000 43.000000 0.653050 -0.575825 0.491886
9270.00000000 -4670.00000000 210.00000000 18 150 171 0.000000 0.000000 0.000000 0.000000 -60.708740 0.000000 43.000000 0.879286 -0.381577 0.285052
9270.00000000 -4680.00000000 190.00000000 18 150 171 0.000000 0.000000 0.000000 0.000000 -60.708740 0.000000 43.000000 -0.746024 0.560737 -0.359197
9360.00000000 -4720.00000000 140.00000000 18 150 171 0.000000 0.000000 0.000000 0.000000 -60.708740 0.000000 43.000000 0.981787 -0.103410 0.159373
9320.00000000 -4640.00000000 140.00000000 18 150 171 0.000000 0.000000 0.000000 0.000000 -60.708740 0.000000 43.000000 0.877240 -0.442294 -0.186616
9230.00000000 -4570.00000000 290.00000000 18 150 171 0.000000 0.000000 0.000000 0.000000 -60.708740 0.000000 43.000000 0.365805 -0.190792 0.910925
9230.00000000 -4570.00000000 80.00000000 18 150 171 0.000000 0.000000 0.000000 0.000000 -60.708740 0.000000 43.000000 0.617985 -0.634732 -0.463907
9230.00000000 -4580.00000000 130.00000000 18 150 171 0.000000 0.000000 0.000000 0.000000 -60.708740 0.000000 43.000000 0.691416 -0.700615 -0.176303
9230.00000000 -4570.00000000 70.00000000 18 150 171 0.000000 0.000000 0.000000 0.000000 -60.708740 0.000000 43.000000 -0.656391 0.694908 0.293691
9180.00000000 -4580.00000000 50.00000000 18 150 171 0.000000 0.000000 0.000000 0.000000 -60.708740 0.000000 43.000000 -0.472155 0.465575 0.748539
9190.00000000 -4580.00000000 50.00000000 18 150 171 0.000000 0.000000 0.000000 0.000000 -60.708740 0.000000 43.000000 0.373274 -0.539535 -0.754698
9190.00000000 -4580.00000000 50.00000000 18 150 171 0.000000 0.000000 0.000000 0.000000 -60.708740 0.000000 43.000000 0.373274 -0.539535 -0.754698
9140.00000000 -4450.00000000 0.00000000 18 150 171 0.000000 0.000000 0.000000 0.000000 -60.708740 0.000000 43.000000 -0.137117 0.147000 0.979587
9150.00000000 -4470.00000000 10.00000000 18 150 171 0.000000 0.000000 0.000000 0.000000 -60.708740 0.000000 43.000000 -0.367656 0.003817 0.929954
9150.00000000 -4460.00000000 10.00000000 18 150 171 0.000000 0.000000 0.000000 0.000000 -60.708740 0.000000 43.000000 0.009023 0.387984 0.921622
9150.00000000 -4480.00000000 10.00000000 18 150 171 0.000000 0.000000 0.000000 0.000000 -60.708740 0.000000 43.000000 -0.348123 0.019128 0.937254
9170.00000000 -4580.00000000 110.00000000 18 150 171 0.000000 0.000000 0.000000 0.000000 -60.708740 0.000000 43.000000 0.815214 -0.438716 -0.378093
9150.00000000 -4540.00000000 10.00000000 18 150 171 0.000000 0.000000 0.000000 0.000000 -60.708740 0.000000 43.000000 -0.031616 0.183843 0.982447
9140.00000000 -4520.00000000 10.00000000 18 150 171 0.000000 0.000000 0.000000 0.000000 -60.708740 0.000000 43.000000 -0.495311 0.285936 0.820310
9140.00000000 -4580.00000000 40.00000000 18 150 171 0.000000 0.000000 0.000000 0.000000 -60.708740 0.000000 43.000000 -0.383865 0.195554 0.902445
9140.00000000 -4570.00000000 30.00000000 18 150 171 0.000000 0.000000 0.000000 0.000000 -60.708740 0.000000 43.000000 -0.424199 -0.025108 0.905221
9150.00000000 -4580.00000000 30.00000000 18 150 171 0.000000 0.000000 0.000000 0.000000 -60.708740 0.000000 43.000000 -0.435935 -0.022526 0.899696
9150.00000000 -4580.00000000 30.00000000 18 150 171 0.000000 0.000000 0.000000 0.000000 -60.708740 0.000000 43.000000 -0.435935 -0.022526 0.899696
9140.00000000 -4580.00000000 40.00000000 18 150 171 0.000000 0.000000 0.000000 0.000000 -60.708740 0.000000 43.000000 -0.383865 0.195554 0.902445
9140.00000000 -4560.00000000 30.00000000 18 150 171 0.000000 0.000000 0.000000 0.000000 -60.708740 0.000000 43.000000 0.492619 -0.613672 -0.617035
9150.00000000 -4550.00000000 20.00000000 18 150 171 0.000000 0.000000 0.000000 0.000000 -60.708740 0.000000 43.000000 0.515023 -0.448782 -0.730306
9140.00000000 -4550.00000000 20.00000000 18 150 171 0.000000 0.000000 0.000000 0.000000 -60.708740 0.000000 43.000000 -0.043881 0.279586 0.959117
9160.00000000 -4550.00000000 20.00000000 18 150 171 0.000000 0.000000 0.000000 0.000000 -60.708740 0.000000 43.000000 -0.364191 0.569967 0.736548
9120.00000000 -4500.00000000 10.00000000 18 150 171 0.000000 0.000000 0.000000 0.000000 -60.708740 0.000000 43.000000 -0.168095 0.510234 0.843448
9110.00000000 -4520.00000000 -10.00000000 18 150 171 0.000000 0.000000 0.000000 0.000000 -60.708740 0.000000 43.000000 -0.224613 0.352136 0.908597
9130.00000000 -4530.00000000 -10.00000000 18 150 171 0.000000 0.000000 0.000000 0.000000 -60.708740 0.000000 43.000000 -0.359435 0.048360 0.931916
9110.00000000 -4520.00000000 -10.00000000 18 150 171 0.000000 0.000000 0.000000 0.000000 -60.708740 0.000000 43.000000 -0.224613 0.352136 0.908597
9090.00000000 -4550.00000000 50.00000000 18 150 171 0.000000 0.000000 0.000000 0.000000 -60.708740 0.000000 43.000000 -0.204857 0.523524 0.827016
9130.00000000 -4550.00000000 20.00000000 18 150 171 0.000000 0.000000 0.000000 0.000000 -60.708740 0.000000 43.000000 -0.192728 0.479580 0.856072
9110.00000000 -4550.00000000 20.00000000 18 150 171 0.000000 0.000000 0.000000 0.000000 -60.708740 0.000000 43.000000 -0.534504 0.329049 0.778481
9120.00000000 -4550.00000000 20.00000000 18 150 171 0.000000 0.000000 0.000000 0.000000 -60.708740 0.000000 43.000000 -0.261578 0.490652 0.831167
9220.00000000 -4600.00000000 270.00000000 18 150 171 0.000000 0.000000 0.000000 0.000000 -60.708740 0.000000 43.000000 0.628075 -0.490000 0.604501
9230.00000000 -4600.00000000 270.00000000 18 150 171 0.000000 0.000000 0.000000 0.000000 -60.708740 0.000000 43.000000 0.564582 -0.530876 0.631995
9230.00000000 -4600.00000000 260.00000000 18 150 171 0.000000 0.000000 0.000000 0.000000 -60.708740 0.000000 43.000000 0.582983 -0.270163 0.766252
9250.00000000 -4640.00000000 250.00000000 18 150 171 0.000000 0.000000 0.000000 0.000000 -60.708740 0.000000 43.000000 0.937190 -0.128847 0.324151
9210.00000000 -4590.00000000 300.00000000 18 150 171 0.000000 0.000000 0.000000 0.000000 -60.708740 0.000000 43.000000 0.470964 -0.380951 0.795656
9250.00000000 -4620.00000000 180.00000000 18 150 171 0.000000 0.000000 0.000000 0.000000 -60.708740 0.000000 43.000000 0.865512 -0.439553 0.240168
9140.00000000 -4620.00000000 310.00000000 18 150 171 0.000000 0.000000 0.000000 0.000000 -60.708740 0.000000 43.000000 0.244994 -0.250594 0.936579
9140.00000000 -4610.00000000 310.00000000 18 150 171 0.000000 0.000000 0.000000 0.000000 -60.708740 0.000000 43.000000 0.434673 -0.193024 0.879660
9170.00000000 -4610.00000000 290.00000000 18 150 171 0.000000 0.000000 0.000000 0.000000 -60.708740 0.000000 43.000000 0.248440 0.013202 0.968557
9140.00000000 -4620.00000000 300.00000000 18 150 171 0.000000 0.000000 0.000000 0.000000 -60.708740 0.000000 43.000000 0.239485 -0.284831 0.928180
9120.00000000 -4600.00000000 300.00000000 18 150 171 0.000000 0.000000 0.000000 0.000000 -60.708740 0.000000 43.000000 0.384286 -0.299227 0.873377
9120.00000000 -4610.00000000 300.00000000 18 150 171 0.000000 0.000000 0.000000 0.000000 -60.708740 0.000000 43.000000 0.154159 -0.151652 0.976338
9130.00000000 -4590.00000000 310.00000000 18 150 171 0.000000 0.000000 0.000000 0.000000 -60.708740 0.000000 43.000000 0.425432 0.150405 0.892405
9110.00000000 -4620.00000000 260.00000000 18 150 171 0.000000 0.000000 0.000000 0.000000 -60.708740 0.000000 43.000000 0.190068 -0.146697 0.970749
9140.00000000 -4680.00000000 260.00000000 18 150 171 0.000000 0.000000 0.000000 0.000000 -60.708740 0.000000 43.000000 0.502288 -0.187421 0.844144
9210.00000000 -4600.00000000 90.00000000 18 150 171 0.000000 0.000000 0.000000 0.000000 -60.708740 0.000000 43.000000 0.717327 -0.487649 -0.497635
9200.00000000 -4610.00000000 90.00000000 18 150 171 0.000000 0.000000 0.000000 0.000000 -60.708740 0.000000 43.000000 0.933839 -0.279449 -0.223279
9200.00000000 -4620.00000000 80.00000000 18 150 171 0.000000 0.000000 0.000000 0.000000 -60.708740 0.000000 43.000000 0.821701 -0.078598 -0.564473
9200.00000000 -4620.00000000 60.00000000 18 150 171 0.000000 0.000000 0.000000 0.000000 -60.708740 0.000000 43.000000 0.829448 -0.396555 -0.393395
9180.00000000 -4710.00000000 40.00000000 18 150 171 0.000000 0.000000 0.000000 0.000000 -60.708740 0.000000 43.000000 -0.564403 0.234779 0.791409
9150.00000000 -4640.00000000 70.00000000 18 150 171 0.000000 0.000000 0.000000 0.000000 -60.708740 0.000000 43.000000 0.496082 -0.417495 -0.761315
9170.00000000 -4590.00000000 90.00000000 18 150 171 0.000000 0.000000 0.000000 0.000000 -60.708740 0.000000 43.000000 0.884304 -0.139023 -0.445735
9150.00000000 -4640.00000000 90.00000000 18 150 171 0.000000 0.000000 0.000000 0.000000 -60.708740 0.000000 43.000000 0.856280 -0.271130 -0.439629
9170.00000000 -4610.00000000 60.00000000 18 150 171 0.000000 0.000000 0.000000 0.000000 -60.708740 0.000000 43.000000 0.779116 -0.594710 -0.198237
9150.00000000 -4600.00000000 50.00000000 18 150 171 0.000000 0.000000 0.000000 0.000000 -60.708740 0.000000 43.000000 -0.282975 0.268611 0.920746
9160.00000000 -4600.00000000 60.00000000 18 150 171 0.000000 0.000000 0.000000 0.000000 -60.708740 0.000000 43.000000 0.747064 -0.537821 -0.390697
9170.00000000 -4590.00000000 50.00000000 18 150 171 0.000000 0.000000 0.000000 0.000000 -60.708740 0.000000 43.000000 -0.553967 0.176605 0.813592
9170.00000000 -4590.00000000 50.00000000 18 150 171 0.000000 0.000000 0.000000 0.000000 -60.708740 0.000000 43.000000 -0.553967 0.176605 0.813592
9150.00000000 -4600.00000000 50.00000000 18 150 171 0.000000 0.000000 0.000000 0.000000 -60.708740 0.000000 43.000000 -0.282975 0.268611 0.920746
9140.00000000 -4650.00000000 60.00000000 18 150 171 0.000000 0.000000 0.000000 0.000000 -60.708740 0.000000 43.000000 0.395423 -0.733419 -0.552935
9150.00000000 -4630.00000000 40.00000000 18 150 171 0.000000 0.000000 0.000000 0.000000 -60.708740 0.000000 43.000000 -0.636157 0.139206 0.758898
9150.00000000 -4660.00000000 30.00000000 18 150 171 0.000000 0.000000 0.000000 0.000000 -60.708740 0.000000 43.000000 -0.667159 0.064843 0.742088
9140.00000000 -4640.00000000 40.00000000 18 150 171 0.000000 0.000000 0.000000 0.000000 -60.708740 0.000000 43.000000 -0.658157 -0.012523 0.752776
9140.00000000 -4650.00000000 20.00000000 18 150 171 0.000000 0.000000 0.000000 0.000000 -60.708740 0.000000 43.000000 0.676396 -0.445921 -0.586210
9120.00000000 -4590.00000000 40.00000000 18 150 171 0.000000 0.000000 0.000000 0.000000 -60.708740 0.000000 43.000000 -0.275884 0.287439 0.917206
9130.00000000 -4610.00000000 50.00000000 18 150 171 0.000000 0.000000 0.000000 0.000000 -60.708740 0.000000 43.000000 -0.303581 0.486044 0.819512
9150.00000000 -4690.00000000 90.00000000 18 150 171 0.000000 0.000000 0.000000 0.000000 -60.708740 0.000000 43.000000 -0.606176 0.275245 0.746185
9130.00000000 -4740.00000000 80.00000000 18 150 171 0.000000 0.000000 0.000000 0.000000 -60.708740 0.000000 43.000000 0.901842 -0.155293 -0.403193
9170.00000000 -4700.00000000 90.00000000 18 150 171 0.000000 0.000000 0.000000 0.000000 -60.708740 0.000000 43.000000 0.895654 -0.352023 -0.271815
9160.00000000 -4700.00000000 100.00000000 18 150 171 0.000000 0.000000 0.000000 0.000000 -60.708740 0.000000 43.000000 0.754005 -0.216096 -0.620305
9140.00000000 -4690.00000000 50.00000000 18 150 171 0.000000 0.000000 0.000000 0.000000 -60.708740 0.000000 43.000000 0.699638 -0.411844 -0.583859
9140.00000000 -4680.00000000 40.00000000 18 150 171 0.000000 0.000000 0.000000 0.000000 -60.708740 0.000000 43.000000 0.679283 -0.206738 -0.704154
9120.00000000 -4700.00000000 50.00000000 18 150 171 0.000000 0.000000 0.000000 0.000000 -60.708740 0.000000 43.000000 -0.586815 0.069961 0.806693
9130.00000000 -4700.00000000 50.00000000 18 150 171 0.000000 0.000000 0.000000 0.000000 -60.708740 0.000000 43.000000 0.813838 -0.256756 -0.521292
9130.00000000 -4690.00000000 20.00000000 18 150 171 0.000000 0.000000 0.000000 0.000000 -60.708740 0.000000 43.000000 0.818044 -0.272681 -0.506408
9130.00000000 -4680.00000000 20.00000000 18 150 171 0.000000 0.000000 0.000000 0.000000 -60.708740 0.000000 43.000000 0.807781 -0.186411 -0.559233
9110.00000000 -4740.00000000 0.00000000 18 150 171 0.000000 0.000000 0.000000 0.000000 -60.708740 0.000000 43.000000 -0.420422 0.268645 0.866646
9090.00000000 -4750.00000000 20.00000000 18 150 171 0.000000 0.000000 0.000000 0.000000 -60.708740 0.000000 43.000000 -0.066181 0.184102 0.980677
9100.00000000 -4750.00000000 20.00000000 18 150 171 0.000000 0.000000 0.000000 0.000000 -60.708740 0.000000 43.000000 -0.198902 0.147572 0.968845
9090.00000000 -4750.00000000 10.00000000 18 150 171 0.000000 0.000000 0.000000 0.000000 -60.708740 0.000000 43.000000 -0.177088 0.358426 0.916608
9140.00000000 -4980.00000000 360.00000000 18 150 171 0.000000 0.000000 0.000000 0.000000 -60.708740 0.000000 43.000000 0.852590 -0.154615 0.499185
9090.00000000 -4970.00000000 320.00000000 18 150 171 0.000000 0.000000 0.000000 0.000000 -60.708740 0.000000 43.000000 0.804341 -0.332886 0.492161
9120.00000000 -5040.00000000 420.00000000 18 150 171 0.000000 0.000000 0.000000 0.000000 -60.708740 0.000000 43.000000 0.798088 -0.154227 0.582469
9110.00000000 -5030.00000000 440.00000000 18 150 171 0.000000 0.000000 0.000000 0.000000 -60.708740 0.000000 43.000000 0.649773 -0.219707 0.727684
9120.00000000 -5020.00000000 410.00000000 18 150 171 0.000000 0.000000 0.000000 0.000000 -60.708740 0.000000 43.000000 0.901856 0.134079 0.410704
9120.00000000 -5040.00000000 410.00000000 18 150 171 0.000000 0.000000 0.000000 0.000000 -60.708740 0.000000 43.000000 0.753149 -0.123297 0.646193
9120.00000000 -5020.00000000 410.00000000 18 150 171 0.000000 0.000000 0.000000 0.000000 -60.708740 0.000000 43.000000 0.901856 0.134079 0.410704
9120.00000000 -5040.00000000 430.00000000 18 150 171 0.000000 0.000000 0.000000 0.000000 -60.708740 0.000000 43.000000 0.717826 0.038227 0.695172
9110.00000000 -5020.00000000 430.00000000 18 150 171 0.000000 0.000000 0.000000 0.000000 -60.708740 0.000000 43.000000 0.861144 -0.039830 0.506798
9100.00000000 -5080.00000000 420.00000000 18 150 171 0.000000 0.000000 0.000000 0.000000 -60.708740 0.000000 43.000000 0.678893 -0.237849 0.694645
9120.00000000 -5050.00000000 420.00000000 18 150 171 0.000000 0.000000 0.000000 0.000000 -60.708740 0.000000 43.000000 0.774919 -0.232320 0.587816
9100.00000000 -5050.00000000 440.00000000 18 150 171 0.000000 0.000000 0.000000 0.000000 -60.708740 0.000000 43.000000 0.589880 -0.357849 0.723869
9120.00000000 -5060.00000000 410.00000000 18 150 171 0.000000 0.000000 0.000000 0.000000 -60.708740 0.000000 43.000000 0.855857 0.031496 0.516253
9100.00000000 -5080.00000000 420.00000000 18 150 171 0.000000 0.000000 0.000000 0.000000 -60.708740 0.000000 43.000000 0.678893 -0.237849 0.694645
9140.00000000 -5040.00000000 320.00000000 18 150 171 0.000000 0.000000 0.000000 0.000000 -60.708740 0.000000 43.000000 0.968210 -0.233532 0.089626
9160.00000000 -5060.00000000 390.00000000 18 150 171 0.000000 0.000000 0.000000 0.000000 -60.708740 0.000000 43.000000 0.824311 -0.037659 0.564883
9090.00000000 -5020.00000000 380.00000000 18 150 171 0.000000 0.000000 0.000000 0.000000 -60.708740 0.000000 43.000000 0.803412 -0.147566 0.576847
9110.00000000 -5030.00000000 340.00000000 18 150 171 0.000000 0.000000 0.000000 0.000000 -60.708740 0.000000 43.000000 0.878168 -0.263601 0.399167
9130.00000000 -5060.00000000 380.00000000 18 150 171 0.000000 0.000000 0.000000 0.000000 -60.708740 0.000000 43.000000 0.880723 -0.020108 0.473204
9110.00000000 -5080.00000000 400.00000000 18 150 171 0.000000 0.000000 0.000000 0.000000 -60.708740 0.000000 43.000000 0.812189 0.109361 0.573053
9110.00000000 -5080.00000000 400.00000000 18 150 171 0.000000 0.000000 0.000000 0.000000 -60.708740 0.000000 43.000000 0.812189 0.109361 0.573053
9090.00000000 -5060.00000000 330.00000000 18 150 171 0.000000 0.000000 0.000000 0.000000 -60.708740 0.000000 43.000000 0.983095 -0.029155 0.180759
9120.00000000 -5080.00000000 320.00000000 18 150 171 0.000000 0.000000 0.000000 0.000000 -60.708740 0.000000 43.000000 0.973026 -0.230547 -0.008276
9380.00000000 -4870.00000000 130.00000000 18 150 171 0.000000 0.000000 0.000000 0.000000 -60.708740 0.000000 43.000000 0.920795 -0.221276 -0.321207
9340.00000000 -4940.00000000 140.00000000 18 150 171 0.000000 0.000000 0.000000 0.000000 -60.708740 0.000000 43.000000 0.819006 -0.418250 -0.392805
9340.00000000 -4920.00000000 130.00000000 18 150 171 0.000000 0.000000 0.000000 0.000000 -60.708740 0.000000 43.000000 0.890998 -0.273120 -0.362668
9110.00000000 -4790.00000000 30.00000000 18 150 171 0.000000 0.000000 0.000000 0.000000 -60.708740 0.000000 43.000000 -0.262410 0.464972 0.845543
9100.00000000 -4800.00000000 30.00000000 18 150 171 0.000000 0.000000 0.000000 0.000000 -60.708740 0.000000 43.000000 -0.490199 0.110045 0.864636
9150.00000000 -4910.00000000 90.00000000 18 150 171 0.000000 0.000000 0.000000 0.000000 -60.708740 0.000000 43.000000 0.792409 -0.180992 -0.582520
9090.00000000 -4910.00000000 140.00000000 18 150 171 0.000000 0.000000 0.000000 0.000000 -60.708740 0.000000 43.000000 0.890920 -0.009267 -0.454065
9100.00000000 -4910.00000000 70.00000000 18 150 171 0.000000 0.000000 0.000000 0.000000 -60.708740 0.000000 43.000000 0.782522 -0.522217 -0.339040
9120.00000000 -4860.00000000 50.00000000 18 150 171 0.000000 0.000000 0.000000 0.000000 -60.708740 0.000000 43.000000 0.862067 -0.404142 -0.305795
9120.00000000 -4860.00000000 60.00000000 18 150 171 0.000000 0.000000 0.000000 0.000000 -60.708740 0.000000 43.000000 0.843983 -0.326049 -0.425892
9110.00000000 -4860.00000000 -10.00000000 18 150 171 0.000000 0.000000 0.000000 0.000000 -60.708740 0.000000 43.000000 -0.558352 0.283130 0.779795
9110.00000000 -4870.00000000 20.00000000 18 150 171 0.000000 0.000000 0.000000 0.000000 -60.708740 0.000000 43.000000 -0.606916 0.670102 0.427336
9090.00000000 -4910.00000000 60.00000000 18 150 171 0.000000 0.000000 0.000000 0.000000 -60.708740 0.000000 43.000000 0.642867 -0.541628 -0.541628
9110.00000000 -4890.00000000 50.00000000 18 150 171 0.000000 0.000000 0.000000 0.000000 -60.708740 0.000000 43.000000 0.828357 -0.430746 -0.358166
9100.00000000 -5000.00000000 300.00000000 18 150 171 0.000000 0.000000 0.000000 0.000000 -60.708740 0.000000 43.000000 0.995943 -0.060261 0.066834
9130.00000000 -4990.00000000 280.00000000 18 150 171 0.000000 0.000000 0.000000 0.000000 -60.708740 0.000000 43.000000 0.984269 -0.109631 0.138545
9090.00000000 -4970.00000000 250.00000000 18 150 171 0.000000 0.000000 0.000000 0.000000 -60.708740 0.000000 43.000000 0.870489 -0.490590 -0.039630
9170.00000000 -4990.00000000 160.00000000 18 150 171 0.000000 0.000000 0.000000 0.000000 -60.708740 0.000000 43.000000 0.863209 -0.355439 -0.358516
9160.00000000 -4990.00000000 180.00000000 18 150 171 0.000000 0.000000 0.000000 0.000000 -60.708740 0.000000 43.000000 0.960052 -0.279042 0.020897
9090.00000000 -4960.00000000 160.00000000 18 150 171 0.000000 0.000000 0.000000 0.000000 -60.708740 0.000000 43.000000 0.903486 -0.192262 -0.383078
9090.00000000 -4920.00000000 160.00000000 18 150 171 0.000000 0.000000 0.000000 0.000000 -60.708740 0.000000 43.000000 0.971025 -0.237630 0.025331
9100.00000000 -5000.00000000 210.00000000 18 150 171 0.000000 0.000000 0.000000 0.000000 -60.708740 0.000000 43.000000 0.992091 0.001091 -0.125512
9100.00000000 -4970.00000000 220.00000000 18 150 171 0.000000 0.000000 0.000000 0.000000 -60.708740 0.000000 43.000000 0.872183 -0.453063 -0.184472
9090.00000000 -5000.00000000 190.00000000 18 150 171 0.000000 0.000000 0.000000 0.000000 -60.708740 0.000000 43.000000 0.903171 -0.428376 -0.027851
9090.00000000 -5000.00000000 170.00000000 18 150 171 0.000000 0.000000 0.000000 0.000000 -60.708740 0.000000 43.000000 0.794971 -0.589144 0.144676
9090.00000000 -4970.00000000 160.00000000 18 150 171 0.000000 0.000000 0.000000 0.000000 -60.708740 0.000000 43.000000 0.959035 -0.273828 -0.072596
9130.00000000 -5010.00000000 280.00000000 18 150 171 0.000000 0.000000 0.000000 0.000000 -60.708740 0.000000 43.000000 0.873412 -0.109711 0.474463
9090.00000000 -5010.00000000 300.00000000 18 150 171 0.000000 0.000000 0.000000 0.000000 -60.708740 0.000000 43.000000 0.768544 -0.568054 0.294370
9130.00000000 -5010.00000000 270.00000000 18 150 171 0.000000 0.000000 0.000000 0.000000 -60.708740 0.000000 43.000000 0.925411 -0.374666 -0.056928
9100.00000000 -5010.00000000 270.00000000 18 150 171 0.000000 0.000000 0.000000 0.000000 -60.708740 0.000000 43.000000 0.896059 -0.433397 -0.096156
9120.00000000 -5020.00000000 260.00000000 18 150 171 0.000000 0.000000 0.000000 0.000000 -60.708740 0.000000 43.000000 0.862751 -0.333720 0.379857
9110.00000000 -5050.00000000 300.00000000 18 150 171 0.000000 0.000000 0.000000 0.000000 -60.708740 0.000000 43.000000 0.791096 -0.607985 0.067236
9130.00000000 -5060.00000000 310.00000000 18 150 171 0.000000 0.000000 0.000000 0.000000 -60.708740 0.000000 43.000000 0.893934 -0.128919 0.429258
9120.00000000 -5060.00000000 270.00000000 18 150 171 0.000000 0.000000 0.000000 0.000000 -60.708740 0.000000 43.000000 0.845369 -0.331609 0.418792
9140.00000000 -5040.00000000 230.00000000 18 150 171 0.000000 0.000000 0.000000 0.000000 -60.708740 0.000000 43.000000 0.941153 -0.165764 -0.294538
9140.00000000 -5050.00000000 230.00000000 18 150 171 0.000000 0.000000 0.000000 0.000000 -60.708740 0.000000 43.000000 -0.724150 0.665973 0.179124
9140.00000000 -5050.00000000 230.00000000 18 150 171 0.000000 0.000000 0.000000 0.000000 -60.708740 0.000000 43.000000 -0.724150 0.665973 0.179124
9090.00000000 -5020.00000000 220.00000000 18 150 171 0.000000 0.000000 0.000000 0.000000 -60.708740 0.000000 43.000000 0.945530 -0.307197 0.107719
9090.00000000 -5010.00000000 220.00000000 18 150 171 0.000000 0.000000 0.000000 0.000000 -60.708740 0.000000 43.000000 0.973163 -0.060132 -0.222122
9110.00000000 -5030.00000000 180.00000000 18 150 171 0.000000 0.000000 0.000000 0.000000 -60.708740 0.000000 43.000000 0.722657 -0.650548 -0.233570
9100.00000000 -5040.00000000 150.00000000 18 150 171 0.000000 0.000000 0.000000 0.000000 -60.708740 0.000000 43.000000 0.837081 -0.142701 -0.528140
9140.00000000 -4980.00000000 130.00000000 18 150 171 0.000000 0.000000 0.000000 0.000000 -60.708740 0.000000 43.000000 -0.887217 0.081918 0.454022
9090.00000000 -4920.00000000 140.00000000 18 150 171 0.000000 0.000000 0.000000 0.000000 -60.708740 0.000000 43.000000 0.767460 -0.459822 -0.446731
9130.00000000 -4940.00000000 90.00000000 18 150 171 0.000000 0.000000 0.000000 0.000000 -60.708740 0.000000 43.000000 -0.545344 0.602749 0.582489
9130.00000000 -4940.00000000 100.00000000 18 150 171 0.000000 0.000000 0.000000 0.000000 -60.708740 0.000000 43.000000 0.939687 -0.160034 -0.302287
9100.00000000 -4980.00000000 120.00000000 18 150 171 0.000000 0.000000 0.000000 0.000000 -60.708740 0.000000 43.000000 0.917969 -0.207007 -0.338350
9100.00000000 -4980.00000000 130.00000000 18 150 171 0.000000 0.000000 0.000000 0.000000 -60.708740 0.000000 43.000000 0.828985 -0.371069 -0.418440
9090.00000000 -4980.00000000 90.00000000 18 150 171 0.000000 0.000000 0.000000 0.000000 -60.708740 0.000000 43.000000 0.437851 -0.337412 -0.833330
9160.00000000 -5040.00000000 110.00000000 18 150 171 0.000000 0.000000 0.000000 0.000000 -60.708740 0.000000 43.000000 0.968651 -0.245522 -0.037867
9170.00000000 -5030.00000000 110.00000000 18 150 171 0.000000 0.000000 0.000000 0.000000 -60.708740 0.000000 43.000000 0.926693 -0.347683 -0.142675
9110.00000000 -5010.00000000 130.00000000 18 150 171 0.000000 0.000000 0.000000 0.000000 -60.708740 0.000000 43.000000 0.773562 -0.188412 -0.605064
9090.00000000 -5050.00000000 120.00000000 18 150 171 0.000000 0.000000 0.000000 0.000000 -60.708740 0.000000 43.000000 0.931545 -0.299275 -0.206542
9090.00000000 -5050.00000000 30.00000000 18 150 171 0.000000 0.000000 0.000000 0.000000 -60.708740 0.000000 43.000000 0.679305 -0.413562 -0.606226
9070.00000000 -4580.00000000 340.00000000 18 150 171 0.000000 0.000000 0.000000 0.000000 -60.708740 0.000000 43.000000 0.032128 0.348265 0.936845
9080.00000000 -4610.00000000 250.00000000 18 150 171 0.000000 0.000000 0.000000 0.000000 -60.708740 0.000000 43.000000 0.448691 0.426013 0.785614
9070.00000000 -4640.00000000 240.00000000 18 150 171 0.000000 0.000000 0.000000 0.000000 -60.708740 0.000000 43.000000 0.464045 -0.178252 0.867691
9070.00000000 -4650.00000000 240.00000000 18 150 171 0.000000 0.000000 0.000000 0.000000 -60.708740 0.000000 43.000000 0.426413 0.019802 0.904312
9070.00000000 -4640.00000000 240.00000000 18 150 171 0.000000 0.000000 0.000000 0.000000 -60.708740 0.000000 43.000000 0.464045 -0.178252 0.867691
9050.00000000 -4650.00000000 260.00000000 18 150 171 0.000000 0.000000 0.000000 0.000000 -60.708740 0.000000 43.000000 0.351144 0.133572 0.926745
9080.00000000 -4640.00000000 240.00000000 18 150 171 0.000000 0.000000 0.000000 0.000000 -60.708740 0.000000 43.000000 0.233225 -0.192781 0.953122
9040.00000000 -4620.00000000 240.00000000 18 150 171 0.000000 0.000000 0.000000 0.000000 -60.708740 0.000000 43.000000 0.185467 0.043709 0.981678
9040.00000000 -4630.00000000 240.00000000 18 150 171 0.000000 0.000000 0.000000 0.000000 -60.708740 0.000000 43.000000 0.091719 0.073602 0.993061
9030.00000000 -4660.00000000 260.00000000 18 150 171 0.000000 0.000000 0.000000 0.000000 -60.708740 0.000000 43.000000 0.033014 0.142300 0.989273
9020.00000000 -4640.00000000 250.00000000 18 150 171 0.000000 0.000000 0.000000 0.000000 -60.708740 0.000000 43.000000 0.038331 -0.086519 0.995513
9030.00000000 -4680.00000000 260.00000000 18 150 171 0.000000 0.000000 0.000000 0.000000 -60.708740 0.000000 43.000000 -0.176215 0.033843 0.983770
9080.00000000 -4710.00000000 190.00000000 18 150 171 0.000000 0.000000 0.000000 0.000000 -60.708740 0.000000 43.000000 0.883267 -0.420252 0.207914
9080.00000000 -4690.00000000 200.00000000 18 150 171 0.000000 0.000000 0.000000 0.000000 -60.708740 0.000000 43.000000 0.776213 -0.497489 0.387296
9070.00000000 -4700.00000000 210.00000000 18 150 171 0.000000 0.000000 0.000000 0.000000 -60.708740 0.000000 43.000000 0.441287 -0.377563 0.814071
9060.00000000 -4700.00000000 210.00000000 18 150 171 0.000000 0.000000 0.000000 0.000000 -60.708740 0.000000 43.000000 0.434170 -0.336991 0.835424
9070.00000000 -4700.00000000 190.00000000 18 150 171 0.000000 0.000000 0.000000 0.000000 -60.708740 0.000000 43.000000 0.707197 -0.375750 0.598903
9030.00000000 -4850.00000000 570.00000000 18 150 171 0.000000 0.000000 0.000000 0.000000 -60.708740 0.000000 43.000000 0.161104 -0.280239 0.946315
9080.00000000 -4900.00000000 490.00000000 18 150 171 0.000000 0.000000 0.000000 0.000000 -60.708740 0.000000 43.000000 0.683654 -0.035386 0.728948
9020.00000000 -4860.00000000 540.00000000 18 150 171 0.000000 0.000000 0.000000 0.000000 -60.708740 0.000000 43.000000 0.617243 0.097767 0.780674
9020.00000000 -4860.00000000 540.00000000 18 150 171 0.000000 0.000000 0.000000 0.000000 -60.708740 0.000000 43.000000 0.617243 0.097767 0.780674
9020.00000000 -4910.00000000 530.00000000 18 150 171 0.000000 0.000000 0.000000 0.000000 -60.708740 0.000000 43.000000 0.071305 -0.022349 0.997204
9030.00000000 -4910.00000000 560.00000000 18 150 171 0.000000 0.000000 0.000000 0.000000 -60.708740 0.000000 43.000000 0.453678 0.286452 0.843873
9020.00000000 -4900.00000000 520.00000000 18 150 171 0.000000 0.000000 0.000000 0.000000 -60.708740 0.000000 43.000000 0.405858 0.334327 0.850591
8980.00000000 -4820.00000000 590.00000000 18 150 171 0.000000 0.000000 0.000000 0.000000 -60.708740 0.000000 43.000000 -0.283120 0.128932 0.950379
8960.00000000 -4810.00000000 580.00000000 18 150 171 0.000000 0.000000 0.000000 0.000000 -60.708740 0.000000 43.000000 -0.046372 0.393496 0.918156
8970.00000000 -4820.00000000 520.00000000 18 150 171 0.000000 0.000000 0.000000 0.000000 -60.708740 0.000000 43.000000 0.071170 0.182146 0.980693
