//X Y Z R G B PointSourceId ScanDirectionFlag NumberOfReturns ReturnNumber GpsTime Intensity Classification Nx Ny Nz
1290.00000000 5080.00000000 -510.00000000 101 95 157 97.000000 1.000000 4.000000 1.000000 -60.708740 114.000000 149.000000 0.963358 0.098511 0.249475
1250.00000000 5090.00000000 -510.00000000 101 95 157 97.000000 1.000000 4.000000 1.000000 -60.708740 114.000000 149.000000 0.759035 0.295624 0.580062
1310.00000000 5160.00000000 -660.00000000 101 95 157 97.000000 1.000000 4.000000 1.000000 -60.708740 114.000000 149.000000 0.994837 0.089635 -0.047584
1260.00000000 5150.00000000 -640.00000000 101 95 157 97.000000 1.000000 4.000000 1.000000 -60.708740 114.000000 149.000000 0.807145 0.237031 0.540679
1290.00000000 5180.00000000 -670.00000000 101 95 157 97.000000 1.000000 4.000000 1.000000 -60.708740 114.000000 149.000000 0.828093 -0.339124 0.446382
1260.00000000 5170.00000000 -660.00000000 101 95 157 97.000000 1.000000 4.000000 1.000000 -60.708740 114.000000 149.000000 0.899660 0.291982 0.324589
1190.00000000 5140.00000000 -560.00000000 101 95 157 97.000000 1.000000 4.000000 1.000000 -60.708740 114.000000 149.000000 0.961662 -0.193915 0.193915
1210.00000000 5110.00000000 -530.00000000 101 95 157 97.000000 1.000000 4.000000 1.000000 -60.708740 114.000000 149.000000 0.835651 -0.243795 0.492191
1170.00000000 5350.00000000 -430.00000000 101 95 157 97.000000 1.000000 4.000000 1.000000 -60.708740 114.000000 149.000000 0.746282 -0.158944 0.646374
1050.00000000 5300.00000000 -440.00000000 101 95 157 97.000000 1.000000 4.000000 1.000000 -60.708740 114.000000 149.000000 0.395332 0.176821 0.901358
1030.00000000 5310.00000000 -440.00000000 101 95 157 97.000000 1.000000 4.000000 1.000000 -60.708740 114.000000 149.000000 0.132802 -0.223056 0.965717
1020.00000000 5350.00000000 -480.00000000 101 95 157 97.000000 1.000000 4.000000 1.000000 -60.708740 114.000000 149.000000 0.063481 -0.411950 0.908992
1010.00000000 5330.00000000 -500.00000000 101 95 157 97.000000 1.000000 4.000000 1.000000 -60.708740 114.000000 149.000000 0.186162 -0.160484 0.969324
1080.00000000 5250.00000000 -470.00000000 101 95 157 97.000000 1.000000 4.000000 1.000000 -60.708740 114.000000 149.000000 0.442819 -0.532378 0.721447
1040.00000000 5260.00000000 -480.00000000 101 95 157 97.000000 1.000000 4.000000 1.000000 -60.708740 114.000000 149.000000 0.656476 -0.388594 0.646555
1060.00000000 5270.00000000 -510.00000000 101 95 157 97.000000 1.000000 4.000000 1.000000 -60.708740 114.000000 149.000000 0.324151 -0.128847 0.937190
1010.00000000 5330.00000000 -540.00000000 101 95 157 97.000000 1.000000 4.000000 1.000000 -60.708740 114.000000 149.000000 0.214947 -0.193586 0.957247
1040.00000000 5350.00000000 -530.00000000 101 95 157 97.000000 1.000000 4.000000 1.000000 -60.708740 114.000000 149.000000 0.208839 -0.064728 0.975805
1010.00000000 5340.00000000 -530.00000000 101 95 157 97.000000 1.000000 4.000000 1.000000 -60.708740 114.000000 149.000000 0.225324 -0.022652 0.974020
1470.00000000 5660.00000000 -710.00000000 101 95 157 97.000000 1.000000 4.000000 1.000000 -60.708740 114.000000 149.000000 0.953359 -0.300201 0.031402
1450.00000000 5620.00000000 -790.00000000 101 95 157 97.000000 1.000000 4.000000 1.000000 -60.708740 114.000000 149.000000 0.887982 -0.258186 -0.380564
1430.00000000 5580.00000000 -820.00000000 101 95 157 97.000000 1.000000 4.000000 1.000000 -60.708740 114.000000 149.000000 0.814383 0.143889 -0.562206
1410.00000000 5690.00000000 -710.00000000 101 95 157 97.000000 1.000000 4.000000 1.000000 -60.708740 114.000000 149.000000 0.913298 0.325661 -0.244607
1420.00000000 5690.00000000 -710.00000000 101 95 157 97.000000 1.000000 4.000000 1.000000 -60.708740 114.000000 149.000000 0.972759 0.153460 0.173752
1400.00000000 5690.00000000 -740.00000000 101 95 157 97.000000 1.000000 4.000000 1.000000 -60.708740 114.000000 149.000000 0.993091 -0.027678 0.114034
1390.00000000 5630.00000000 -720.00000000 101 95 157 97.000000 1.000000 4.000000 1.000000 -60.708740 114.000000 149.000000 0.880653 0.115239 -0.459533
1420.00000000 5610.00000000 -760.00000000 101 95 157 97.000000 1.000000 4.000000 1.000000 -60.708740 114.000000 149.000000 0.985045 0.096949 0.142431
1380.00000000 5660.00000000 -770.00000000 101 95 157 97.000000 1.000000 4.000000 1.000000 -60.708740 114.000000 149.000000 0.980661 -0.093802 -0.171768
1380.00000000 5640.00000000 -730.00000000 101 95 157 97.000000 1.000000 4.000000 1.000000 -60.708740 114.000000 149.000000 0.897800 -0.162322 -0.409397
1380.00000000 5650.00000000 -710.00000000 101 95 157 97.000000 1.000000 4.000000 1.000000 -60.708740 114.000000 149.000000 0.979634 0.177337 0.094172
1350.00000000 5620.00000000 -740.00000000 101 95 157 97.000000 1.000000 4.000000 1.000000 -60.708740 114.000000 149.000000 0.954300 -0.297200 0.031350
1350.00000000 5650.00000000 -760.00000000 101 95 157 97.000000 1.000000 4.000000 1.000000 -60.708740 114.000000 149.000000 0.995345 -0.027195 -0.092464
1400.00000000 5660.00000000 -800.00000000 101 95 157 97.000000 1.000000 4.000000 1.000000 -60.708740 114.000000 149.000000 0.962250 -0.246698 -0.114953
1400.00000000 5640.00000000 -800.00000000 101 95 157 97.000000 1.000000 4.000000 1.000000 -60.708740 114.000000 149.000000 0.758127 0.225726 -0.611794
1390.00000000 5600.00000000 -700.00000000 101 95 157 97.000000 1.000000 4.000000 1.000000 -60.708740 114.000000 149.000000 0.966370 0.030543 -0.255337
1350.00000000 5600.00000000 -710.00000000 101 95 157 97.000000 1.000000 4.000000 1.000000 -60.708740 114.000000 149.000000 0.965030 0.224094 0.136011
1350.00000000 5600.00000000 -700.00000000 101 95 157 97.000000 1.000000 4.000000 1.000000 -60.708740 114.000000 149.000000 0.974143 0.098537 0.203310
1420.00000000 5590.00000000 -820.00000000 101 95 157 97.000000 1.000000 4.000000 1.000000 -60.708740 114.000000 149.000000 0.869101 0.188034 -0.457500
1390.00000000 5320.00000000 -710.00000000 101 95 157 97.000000 1.000000 4.000000 1.000000 -60.708740 114.000000 149.000000 0.934624 -0.340230 0.103548
1450.00000000 5060.00000000 -850.00000000 101 95 157 97.000000 1.000000 4.000000 1.000000 -60.708740 114.000000 149.000000 0.961033 0.183242 -0.206972
1470.00000000 5030.00000000 -790.00000000 101 95 157 97.000000 1.000000 4.000000 1.000000 -60.708740 114.000000 149.000000 0.940539 0.137077 0.310799
1370.00000000 5060.00000000 -760.00000000 101 95 157 97.000000 1.000000 4.000000 1.000000 -60.708740 114.000000 149.000000 0.910760 -0.350736 0.217947
1410.00000000 5030.00000000 -830.00000000 101 95 157 97.000000 1.000000 4.000000 1.000000 -60.708740 114.000000 149.000000 0.922738 -0.351453 -0.158224
1380.00000000 5030.00000000 -820.00000000 101 95 157 97.000000 1.000000 4.000000 1.000000 -60.708740 114.000000 149.000000 0.950504 0.247429 -0.187938
1370.00000000 5020.00000000 -780.00000000 101 95 157 97.000000 1.000000 4.000000 1.000000 -60.708740 114.000000 149.000000 0.910561 -0.405452 -0.080544
1370.00000000 5020.00000000 -800.00000000 101 95 157 97.000000 1.000000 4.000000 1.000000 -60.708740 114.000000 149.000000 0.922873 -0.256115 0.287593
1380.00000000 5030.00000000 -850.00000000 101 95 157 97.000000 1.000000 4.000000 1.000000 -60.708740 114.000000 149.000000 0.915198 0.391052 -0.097420
1500.00000000 5040.00000000 -930.00000000 101 95 157 97.000000 1.000000 4.000000 1.000000 -60.708740 114.000000 149.000000 0.894122 0.440842 -0.078771
1500.00000000 5020.00000000 -960.00000000 101 95 157 97.000000 1.000000 4.000000 1.000000 -60.708740 114.000000 149.000000 0.941960 -0.197219 -0.271693
1490.00000000 5050.00000000 -980.00000000 101 95 157 97.000000 1.000000 4.000000 1.000000 -60.708740 114.000000 149.000000 0.862866 0.376831 -0.336841
1500.00000000 5040.00000000 -950.00000000 101 95 157 97.000000 1.000000 4.000000 1.000000 -60.708740 114.000000 149.000000 0.914819 0.403862 0.001290
1350.00000000 5050.00000000 -1000.00000000 101 95 157 97.000000 1.000000 4.000000 1.000000 -60.708740 114.000000 149.000000 0.673140 0.251834 -0.695314
1390.00000000 5030.00000000 -1150.00000000 101 95 157 97.000000 1.000000 4.000000 1.000000 -60.708740 114.000000 149.000000 0.724856 -0.247936 -0.642737
1280.00000000 5650.00000000 -730.00000000 101 95 157 97.000000 1.000000 4.000000 1.000000 -60.708740 114.000000 149.000000 0.995059 -0.076543 0.063231
1260.00000000 5670.00000000 -730.00000000 101 95 157 97.000000 1.000000 4.000000 1.000000 -60.708740 114.000000 149.000000 0.997711 0.013667 0.066234
1290.00000000 5670.00000000 -700.00000000 101 95 157 97.000000 1.000000 4.000000 1.000000 -60.708740 114.000000 149.000000 0.977705 0.122990 0.170198
1300.00000000 5690.00000000 -780.00000000 101 95 157 97.000000 1.000000 4.000000 1.000000 -60.708740 114.000000 149.000000 0.797509 0.267925 -0.540551
1310.00000000 5570.00000000 -750.00000000 101 95 157 97.000000 1.000000 4.000000 1.000000 -60.708740 114.000000 149.000000 0.969660 0.229557 0.084046
1320.00000000 5580.00000000 -730.00000000 101 95 157 97.000000 1.000000 4.000000 1.000000 -60.708740 114.000000 149.000000 0.907301 -0.231558 -0.350978
1280.00000000 5520.00000000 -700.00000000 101 95 157 97.000000 1.000000 4.000000 1.000000 -60.708740 114.000000 149.000000 0.935468 -0.339560 -0.097976
1190.00000000 5480.00000000 -700.00000000 101 95 157 97.000000 1.000000 4.000000 1.000000 -60.708740 114.000000 149.000000 0.954072 -0.299000 -0.018610
1250.00000000 5370.00000000 -730.00000000 101 95 157 97.000000 1.000000 4.000000 1.000000 -60.708740 114.000000 149.000000 0.951264 -0.049664 -0.304353
1150.00000000 5540.00000000 -760.00000000 101 95 157 97.000000 1.000000 4.000000 1.000000 -60.708740 114.000000 149.000000 0.992283 0.053178 0.112014
1010.00000000 5670.00000000 -840.00000000 101 95 157 97.000000 1.000000 4.000000 1.000000 -60.708740 114.000000 149.000000 -0.148744 -0.398069 0.905216
1010.00000000 5660.00000000 -850.00000000 101 95 157 97.000000 1.000000 4.000000 1.000000 -60.708740 114.000000 149.000000 -0.350886 -0.462026 0.814500
1060.00000000 5640.00000000 -900.00000000 101 95 157 97.000000 1.000000 4.000000 1.000000 -60.708740 114.000000 149.000000 -0.400872 0.046613 0.914947
1050.00000000 5640.00000000 -900.00000000 101 95 157 97.000000 1.000000 4.000000 1.000000 -60.708740 114.000000 149.000000 -0.091150 -0.213515 0.972678
1040.00000000 5630.00000000 -910.00000000 101 95 157 97.000000 1.000000 4.000000 1.000000 -60.708740 114.000000 149.000000 -0.123614 -0.095360 0.987738
1030.00000000 5600.00000000 -900.00000000 101 95 157 97.000000 1.000000 4.000000 1.000000 -60.708740 114.000000 149.000000 -0.185192 -0.278474 0.942421
1010.00000000 5600.00000000 -910.00000000 101 95 157 97.000000 1.000000 4.000000 1.000000 -60.708740 114.000000 149.000000 -0.106229 -0.332132 0.937232
1010.00000000 5600.00000000 -910.00000000 101 95 157 97.000000 1.000000 4.000000 1.000000 -60.708740 114.000000 149.000000 -0.106229 -0.332132 0.937232
1100.00000000 5360.00000000 -720.00000000 101 95 157 97.000000 1.000000 4.000000 1.000000 -60.708740 114.000000 149.000000 0.908482 0.296976 0.294050
1060.00000000 5460.00000000 -710.00000000 101 95 157 97.000000 1.000000 4.000000 1.000000 -60.708740 114.000000 149.000000 0.908688 0.239894 -0.341667
1060.00000000 5460.00000000 -710.00000000 101 95 157 97.000000 1.000000 4.000000 1.000000 -60.708740 114.000000 149.000000 0.908688 0.239894 -0.341667
1040.00000000 5490.00000000 -730.00000000 101 95 157 97.000000 1.000000 4.000000 1.000000 -60.708740 114.000000 149.000000 0.997804 -0.007314 -0.065824
1030.00000000 5490.00000000 -720.00000000 101 95 157 97.000000 1.000000 4.000000 1.000000 -60.708740 114.000000 149.000000 0.883061 -0.114812 -0.454996
1030.00000000 5490.00000000 -750.00000000 101 95 157 97.000000 1.000000 4.000000 1.000000 -60.708740 114.000000 149.000000 0.866254 -0.128281 -0.482854
1020.00000000 5490.00000000 -760.00000000 101 95 157 97.000000 1.000000 4.000000 1.000000 -60.708740 114.000000 149.000000 0.703463 0.047088 -0.709170
1030.00000000 5460.00000000 -710.00000000 101 95 157 97.000000 1.000000 4.000000 1.000000 -60.708740 114.000000 149.000000 0.972258 0.231259 0.035113
1030.00000000 5510.00000000 -810.00000000 101 95 157 97.000000 1.000000 4.000000 1.000000 -60.708740 114.000000 149.000000 -0.517294 -0.101739 0.849738
1040.00000000 5500.00000000 -790.00000000 101 95 157 97.000000 1.000000 4.000000 1.000000 -60.708740 114.000000 149.000000 0.771293 0.451687 -0.448426
1300.00000000 5340.00000000 -700.00000000 101 95 157 97.000000 1.000000 4.000000 1.000000 -60.708740 114.000000 149.000000 0.994183 -0.018593 0.106090
1300.00000000 5230.00000000 -700.00000000 101 95 157 97.000000 1.000000 4.000000 1.000000 -60.708740 114.000000 149.000000 0.913831 -0.402728 -0.052181
1310.00000000 5220.00000000 -700.00000000 101 95 157 97.000000 1.000000 4.000000 1.000000 -60.708740 114.000000 149.000000 0.962660 0.221346 0.155859
1290.00000000 5200.00000000 -710.00000000 101 95 157 97.000000 1.000000 4.000000 1.000000 -60.708740 114.000000 149.000000 0.861926 -0.056907 0.503831
1320.00000000 5150.00000000 -720.00000000 101 95 157 97.000000 1.000000 4.000000 1.000000 -60.708740 114.000000 149.000000 0.985441 0.130514 -0.108961
1280.00000000 5180.00000000 -700.00000000 101 95 157 97.000000 1.000000 4.000000 1.000000 -60.708740 114.000000 149.000000 0.999190 0.021610 -0.033958
1270.00000000 5170.00000000 -750.00000000 101 95 157 97.000000 1.000000 4.000000 1.000000 -60.708740 114.000000 149.000000 0.987769 0.040247 0.150638
1340.00000000 5080.00000000 -800.00000000 101 95 157 97.000000 1.000000 4.000000 1.000000 -60.708740 114.000000 149.000000 0.926309 -0.198797 0.320049
1280.00000000 5040.00000000 -970.00000000 101 95 157 97.000000 1.000000 4.000000 1.000000 -60.708740 114.000000 149.000000 0.714192 0.230739 -0.660824
1270.00000000 5030.00000000 -980.00000000 101 95 157 97.000000 1.000000 4.000000 1.000000 -60.708740 114.000000 149.000000 0.796517 0.214151 -0.565420
1280.00000000 5020.00000000 -980.00000000 101 95 157 97.000000 1.000000 4.000000 1.000000 -60.708740 114.000000 149.000000 0.925325 0.043313 -0.376693
1140.00000000 5070.00000000 -980.00000000 101 95 157 97.000000 1.000000 4.000000 1.000000 -60.708740 114.000000 149.000000 0.895757 -0.078672 -0.437527
1270.00000000 5030.00000000 -1050.00000000 101 95 157 97.000000 1.000000 4.000000 1.000000 -60.708740 114.000000 149.000000 0.914948 0.111781 -0.387783
1330.00000000 5070.00000000 -1190.00000000 101 95 157 97.000000 1.000000 4.000000 1.000000 -60.708740 114.000000 149.000000 -0.602847 -0.004120 0.797846
1330.00000000 5060.00000000 -1180.00000000 101 95 157 97.000000 1.000000 4.000000 1.000000 -60.708740 114.000000 149.000000 -0.621705 -0.018081 0.783043
1330.00000000 5060.00000000 -1180.00000000 101 95 157 97.000000 1.000000 4.000000 1.000000 -60.708740 114.000000 149.000000 -0.621705 -0.018081 0.783043
1260.00000000 5080.00000000 -1190.00000000 101 95 157 97.000000 1.000000 4.000000 1.000000 -60.708740 114.000000 149.000000 -0.401713 -0.379658 0.833358
1270.00000000 5070.00000000 -1190.00000000 101 95 157 97.000000 1.000000 4.000000 1.000000 -60.708740 114.000000 149.000000 -0.504752 0.039885 0.862342
1270.00000000 5050.00000000 -1190.00000000 101 95 157 97.000000 1.000000 4.000000 1.000000 -60.708740 114.000000 149.000000 -0.355764 -0.255383 0.899006
1270.00000000 5050.00000000 -1190.00000000 101 95 157 97.000000 1.000000 4.000000 1.000000 -60.708740 114.000000 149.000000 -0.355764 -0.255383 0.899006
1210.00000000 5090.00000000 -1170.00000000 101 95 157 97.000000 1.000000 4.000000 1.000000 -60.708740 114.000000 149.000000 -0.323060 -0.267511 0.907783
1210.00000000 5080.00000000 -1190.00000000 101 95 157 97.000000 1.000000 4.000000 1.000000 -60.708740 114.000000 149.000000 -0.430666 -0.456668 0.778448
1200.00000000 5090.00000000 -1200.00000000 101 95 157 97.000000 1.000000 4.000000 1.000000 -60.708740 114.000000 149.000000 0.794744 0.316942 -0.517619
1460.00000000 4950.00000000 -600.00000000 101 95 157 97.000000 1.000000 4.000000 1.000000 -60.708740 114.000000 149.000000 0.907385 -0.219224 0.358599
1390.00000000 4960.00000000 -660.00000000 101 95 157 97.000000 1.000000 4.000000 1.000000 -60.708740 114.000000 149.000000 0.910615 0.269542 0.313252
1370.00000000 5000.00000000 -670.00000000 101 95 157 97.000000 1.000000 4.000000 1.000000 -60.708740 114.000000 149.000000 0.925575 -0.024665 0.377759
1370.00000000 4960.00000000 -690.00000000 101 95 157 97.000000 1.000000 4.000000 1.000000 -60.708740 114.000000 149.000000 0.912036 -0.306921 0.272011
1090.00000000 4880.00000000 -260.00000000 101 95 157 97.000000 1.000000 4.000000 1.000000 -60.708740 114.000000 149.000000 0.507264 -0.151444 0.848380
1110.00000000 4870.00000000 -230.00000000 101 95 157 97.000000 1.000000 4.000000 1.000000 -60.708740 114.000000 149.000000 0.226348 -0.436206 0.870914
1130.00000000 4870.00000000 -270.00000000 101 95 157 97.000000 1.000000 4.000000 1.000000 -60.708740 114.000000 149.000000 0.699131 -0.175930 0.693011
1010.00000000 4960.00000000 -300.00000000 101 95 157 97.000000 1.000000 4.000000 1.000000 -60.708740 114.000000 149.000000 0.293795 0.106715 0.949893
1270.00000000 4930.00000000 -440.00000000 101 95 157 97.000000 1.000000 4.000000 1.000000 -60.708740 114.000000 149.000000 0.670842 0.055784 0.739499
1260.00000000 4920.00000000 -440.00000000 101 95 157 97.000000 1.000000 4.000000 1.000000 -60.708740 114.000000 149.000000 0.562151 -0.555399 0.612795
1210.00000000 4970.00000000 -470.00000000 101 95 157 97.000000 1.000000 4.000000 1.000000 -60.708740 114.000000 149.000000 0.894132 -0.221698 0.389072
1230.00000000 4940.00000000 -510.00000000 101 95 157 97.000000 1.000000 4.000000 1.000000 -60.708740 114.000000 149.000000 0.475818 0.134502 0.869199
1210.00000000 4870.00000000 -510.00000000 101 95 157 97.000000 1.000000 4.000000 1.000000 -60.708740 114.000000 149.000000 0.785477 0.154692 0.599246
1310.00000000 5000.00000000 -580.00000000 101 95 157 97.000000 1.000000 4.000000 1.000000 -60.708740 114.000000 149.000000 0.765343 -0.260374 0.588604
1270.00000000 4990.00000000 -560.00000000 101 95 157 97.000000 1.000000 4.000000 1.000000 -60.708740 114.000000 149.000000 0.939124 0.032030 0.342082
1320.00000000 5010.00000000 -610.00000000 101 95 157 97.000000 1.000000 4.000000 1.000000 -60.708740 114.000000 149.000000 0.864615 -0.430028 0.259840
1280.00000000 4950.00000000 -610.00000000 101 95 157 97.000000 1.000000 4.000000 1.000000 -60.708740 114.000000 149.000000 0.898983 0.164885 0.405761
1260.00000000 4920.00000000 -530.00000000 101 95 157 97.000000 1.000000 4.000000 1.000000 -60.708740 114.000000 149.000000 0.847425 -0.308295 0.432233
1340.00000000 4910.00000000 -610.00000000 101 95 157 97.000000 1.000000 4.000000 1.000000 -60.708740 114.000000 149.000000 0.659220 -0.248196 0.709808
1340.00000000 4910.00000000 -640.00000000 101 95 157 97.000000 1.000000 4.000000 1.000000 -60.708740 114.000000 149.000000 0.971740 0.171933 0.161744
1270.00000000 4920.00000000 -620.00000000 101 95 157 97.000000 1.000000 4.000000 1.000000 -60.708740 114.000000 149.000000 0.943430 -0.173395 0.282619
1270.00000000 4930.00000000 -630.00000000 101 95 157 97.000000 1.000000 4.000000 1.000000 -60.708740 114.000000 149.000000 0.975449 -0.193097 0.105892
1210.00000000 4970.00000000 -570.00000000 101 95 157 97.000000 1.000000 4.000000 1.000000 -60.708740 114.000000 149.000000 0.454062 -0.227785 0.861360
1250.00000000 4910.00000000 -530.00000000 101 95 157 97.000000 1.000000 4.000000 1.000000 -60.708740 114.000000 149.000000 0.643372 -0.209290 0.736390
1240.00000000 4890.00000000 -590.00000000 101 95 157 97.000000 1.000000 4.000000 1.000000 -60.708740 114.000000 149.000000 0.843018 -0.305846 0.442468
1300.00000000 4790.00000000 -510.00000000 101 95 157 97.000000 1.000000 4.000000 1.000000 -60.708740 114.000000 149.000000 0.869345 0.048220 0.491848
1300.00000000 4790.00000000 -520.00000000 101 95 157 97.000000 1.000000 4.000000 1.000000 -60.708740 114.000000 149.000000 0.632243 0.041018 0.773684
1260.00000000 4760.00000000 -440.00000000 101 95 157 97.000000 1.000000 4.000000 1.000000 -60.708740 114.000000 149.000000 0.591944 0.116039 0.797582
1230.00000000 4790.00000000 -450.00000000 101 95 157 97.000000 1.000000 4.000000 1.000000 -60.708740 114.000000 149.000000 0.494466 0.017515 0.869021
1200.00000000 4750.00000000 -480.00000000 101 95 157 97.000000 1.000000 4.000000 1.000000 -60.708740 114.000000 149.000000 0.676929 0.155981 0.719331
1210.00000000 4740.00000000 -490.00000000 101 95 157 97.000000 1.000000 4.000000 1.000000 -60.708740 114.000000 149.000000 0.522597 -0.379330 0.763545
1180.00000000 4720.00000000 -490.00000000 101 95 157 97.000000 1.000000 4.000000 1.000000 -60.708740 114.000000 149.000000 0.564145 -0.377732 0.734206
1270.00000000 4830.00000000 -580.00000000 101 95 157 97.000000 1.000000 4.000000 1.000000 -60.708740 114.000000 149.000000 0.625987 -0.511251 0.588866
1270.00000000 4830.00000000 -580.00000000 101 95 157 97.000000 1.000000 4.000000 1.000000 -60.708740 114.000000 149.000000 0.625987 -0.511251 0.588866
1220.00000000 4750.00000000 -570.00000000 101 95 157 97.000000 1.000000 4.000000 1.000000 -60.708740 114.000000 149.000000 0.841410 -0.096038 0.531794
1130.00000000 4800.00000000 -640.00000000 101 95 157 97.000000 1.000000 4.000000 1.000000 -60.708740 114.000000 149.000000 0.615679 -0.110205 0.780252
1170.00000000 4830.00000000 -610.00000000 101 95 157 97.000000 1.000000 4.000000 1.000000 -60.708740 114.000000 149.000000 0.628642 -0.226186 0.744076
1080.00000000 4790.00000000 -690.00000000 101 95 157 97.000000 1.000000 4.000000 1.000000 -60.708740 114.000000 149.000000 0.816697 -0.115419 0.565406
1080.00000000 4700.00000000 -670.00000000 101 95 157 97.000000 1.000000 4.000000 1.000000 -60.708740 114.000000 149.000000 0.327657 -0.446806 0.832469
1250.00000000 4680.00000000 -350.00000000 101 95 157 97.000000 1.000000 4.000000 1.000000 -60.708740 114.000000 149.000000 0.668762 -0.445285 0.595381
1210.00000000 4630.00000000 -340.00000000 101 95 157 97.000000 1.000000 4.000000 1.000000 -60.708740 114.000000 149.000000 0.682735 -0.146193 0.715892
1320.00000000 4670.00000000 -440.00000000 101 95 157 97.000000 1.000000 4.000000 1.000000 -60.708740 114.000000 149.000000 0.918458 0.006441 0.395465
1300.00000000 4630.00000000 -440.00000000 101 95 157 97.000000 1.000000 4.000000 1.000000 -60.708740 114.000000 149.000000 0.795386 -0.113207 0.595437
1290.00000000 4620.00000000 -440.00000000 101 95 157 97.000000 1.000000 4.000000 1.000000 -60.708740 114.000000 149.000000 0.701428 -0.401052 0.589200
1310.00000000 4640.00000000 -500.00000000 101 95 157 97.000000 1.000000 4.000000 1.000000 -60.708740 114.000000 149.000000 0.873229 -0.355083 0.333747
1260.00000000 4590.00000000 -440.00000000 101 95 157 97.000000 1.000000 4.000000 1.000000 -60.708740 114.000000 149.000000 0.412197 -0.275305 0.868505
1210.00000000 4600.00000000 -360.00000000 101 95 157 97.000000 1.000000 4.000000 1.000000 -60.708740 114.000000 149.000000 0.233908 -0.490748 0.839317
1230.00000000 4560.00000000 -390.00000000 101 95 157 97.000000 1.000000 4.000000 1.000000 -60.708740 114.000000 149.000000 0.548149 -0.279603 0.788260
1250.00000000 4580.00000000 -430.00000000 101 95 157 97.000000 1.000000 4.000000 1.000000 -60.708740 114.000000 149.000000 0.491638 -0.335714 0.803485
1150.00000000 4660.00000000 -440.00000000 101 95 157 97.000000 1.000000 4.000000 1.000000 -60.708740 114.000000 149.000000 0.558535 -0.230531 0.796802
1160.00000000 4630.00000000 -460.00000000 101 95 157 97.000000 1.000000 4.000000 1.000000 -60.708740 114.000000 149.000000 0.611311 -0.434747 0.661282
1150.00000000 4620.00000000 -510.00000000 101 95 157 97.000000 1.000000 4.000000 1.000000 -60.708740 114.000000 149.000000 0.278333 -0.164284 0.946331
1120.00000000 4620.00000000 -570.00000000 101 95 157 97.000000 1.000000 4.000000 1.000000 -60.708740 114.000000 149.000000 0.769174 -0.098161 0.631455
1060.00000000 4680.00000000 -640.00000000 101 95 157 97.000000 1.000000 4.000000 1.000000 -60.708740 114.000000 149.000000 0.551052 -0.384265 0.740731
1040.00000000 4660.00000000 -640.00000000 101 95 157 97.000000 1.000000 4.000000 1.000000 -60.708740 114.000000 149.000000 0.707944 -0.290562 0.643731
1030.00000000 4570.00000000 -620.00000000 101 95 157 97.000000 1.000000 4.000000 1.000000 -60.708740 114.000000 149.000000 0.226862 0.030008 0.973465
1080.00000000 4500.00000000 -450.00000000 101 95 157 97.000000 1.000000 4.000000 1.000000 -60.708740 114.000000 149.000000 0.432953 -0.311912 0.845732
1510.00000000 5000.00000000 -940.00000000 101 95 157 97.000000 1.000000 4.000000 1.000000 -60.708740 114.000000 149.000000 0.863970 -0.054085 -0.500631
1430.00000000 4970.00000000 -820.00000000 101 95 157 97.000000 1.000000 4.000000 1.000000 -60.708740 114.000000 149.000000 0.979079 -0.199155 0.041739
1430.00000000 4970.00000000 -810.00000000 101 95 157 97.000000 1.000000 4.000000 1.000000 -60.708740 114.000000 149.000000 0.925661 -0.151725 0.346601
1430.00000000 4970.00000000 -790.00000000 101 95 157 97.000000 1.000000 4.000000 1.000000 -60.708740 114.000000 149.000000 0.893738 -0.144428 0.424704
1420.00000000 4990.00000000 -740.00000000 101 95 157 97.000000 1.000000 4.000000 1.000000 -60.708740 114.000000 149.000000 0.930896 -0.346538 -0.115513
1370.00000000 4980.00000000 -760.00000000 101 95 157 97.000000 1.000000 4.000000 1.000000 -60.708740 114.000000 149.000000 0.988350 0.146124 -0.042572
1380.00000000 4940.00000000 -710.00000000 101 95 157 97.000000 1.000000 4.000000 1.000000 -60.708740 114.000000 149.000000 0.925999 0.300132 0.229011
1380.00000000 4960.00000000 -710.00000000 101 95 157 97.000000 1.000000 4.000000 1.000000 -60.708740 114.000000 149.000000 0.846947 -0.382140 0.369662
1380.00000000 4940.00000000 -700.00000000 101 95 157 97.000000 1.000000 4.000000 1.000000 -60.708740 114.000000 149.000000 0.917193 0.011676 0.398272
1360.00000000 4980.00000000 -810.00000000 101 95 157 97.000000 1.000000 4.000000 1.000000 -60.708740 114.000000 149.000000 0.927819 -0.153943 0.339784
1380.00000000 4990.00000000 -860.00000000 101 95 157 97.000000 1.000000 4.000000 1.000000 -60.708740 114.000000 149.000000 0.944929 -0.325178 0.036981
1360.00000000 4970.00000000 -790.00000000 101 95 157 97.000000 1.000000 4.000000 1.000000 -60.708740 114.000000 149.000000 0.987523 0.135036 0.081021
1360.00000000 4960.00000000 -800.00000000 101 95 157 97.000000 1.000000 4.000000 1.000000 -60.708740 114.000000 149.000000 0.948411 -0.104206 0.299429
1380.00000000 4960.00000000 -840.00000000 101 95 157 97.000000 1.000000 4.000000 1.000000 -60.708740 114.000000 149.000000 0.932474 -0.318236 -0.170930
1370.00000000 4910.00000000 -760.00000000 101 95 157 97.000000 1.000000 4.000000 1.000000 -60.708740 114.000000 149.000000 0.963879 -0.212601 -0.160429
1410.00000000 4910.00000000 -790.00000000 101 95 157 97.000000 1.000000 4.000000 1.000000 -60.708740 114.000000 149.000000 0.967914 -0.037933 -0.248403
1400.00000000 4890.00000000 -780.00000000 101 95 157 97.000000 1.000000 4.000000 1.000000 -60.708740 114.000000 149.000000 0.945367 -0.324453 -0.031809
1430.00000000 4940.00000000 -910.00000000 101 95 157 97.000000 1.000000 4.000000 1.000000 -60.708740 114.000000 149.000000 0.856693 -0.254117 -0.448889
1500.00000000 4990.00000000 -930.00000000 101 95 157 97.000000 1.000000 4.000000 1.000000 -60.708740 114.000000 149.000000 0.938193 -0.291545 -0.186533
1490.00000000 4990.00000000 -950.00000000 101 95 157 97.000000 1.000000 4.000000 1.000000 -60.708740 114.000000 149.000000 0.844735 -0.139081 -0.516796
1490.00000000 5000.00000000 -950.00000000 101 95 157 97.000000 1.000000 4.000000 1.000000 -60.708740 114.000000 149.000000 0.870160 0.034044 -0.491593
1450.00000000 4880.00000000 -900.00000000 101 95 157 97.000000 1.000000 4.000000 1.000000 -60.708740 114.000000 149.000000 0.904126 0.030536 -0.426174
1410.00000000 4960.00000000 -910.00000000 101 95 157 97.000000 1.000000 4.000000 1.000000 -60.708740 114.000000 149.000000 0.933404 0.266083 -0.240742
1380.00000000 4990.00000000 -890.00000000 101 95 157 97.000000 1.000000 4.000000 1.000000 -60.708740 114.000000 149.000000 0.918685 0.255270 -0.301421
1390.00000000 5000.00000000 -960.00000000 101 95 157 97.000000 1.000000 4.000000 1.000000 -60.708740 114.000000 149.000000 0.999558 -0.029310 -0.005053
1390.00000000 4960.00000000 -980.00000000 101 95 157 97.000000 1.000000 4.000000 1.000000 -60.708740 114.000000 149.000000 0.906931 0.038621 -0.419505
1390.00000000 4930.00000000 -870.00000000 101 95 157 97.000000 1.000000 4.000000 1.000000 -60.708740 114.000000 149.000000 0.940464 -0.243104 -0.237547
1400.00000000 4870.00000000 -920.00000000 101 95 157 97.000000 1.000000 4.000000 1.000000 -60.708740 114.000000 149.000000 0.966893 -0.015692 -0.254700
1380.00000000 4930.00000000 -870.00000000 101 95 157 97.000000 1.000000 4.000000 1.000000 -60.708740 114.000000 149.000000 0.997568 -0.052391 0.045976
1380.00000000 4880.00000000 -900.00000000 101 95 157 97.000000 1.000000 4.000000 1.000000 -60.708740 114.000000 149.000000 0.997300 0.072819 -0.009498
1410.00000000 4910.00000000 -960.00000000 101 95 157 97.000000 1.000000 4.000000 1.000000 -60.708740 114.000000 149.000000 0.941714 0.088741 -0.324500
1410.00000000 4910.00000000 -1020.00000000 101 95 157 97.000000 1.000000 4.000000 1.000000 -60.708740 114.000000 149.000000 0.858241 -0.211930 -0.467448
1360.00000000 4920.00000000 -960.00000000 101 95 157 97.000000 1.000000 4.000000 1.000000 -60.708740 114.000000 149.000000 0.869786 0.429617 -0.242696
1370.00000000 4910.00000000 -970.00000000 101 95 157 97.000000 1.000000 4.000000 1.000000 -60.708740 114.000000 149.000000 0.833482 0.423831 -0.354506
1370.00000000 4880.00000000 -960.00000000 101 95 157 97.000000 1.000000 4.000000 1.000000 -60.708740 114.000000 149.000000 0.972305 -0.067950 -0.223618
1370.00000000 4880.00000000 -950.00000000 101 95 157 97.000000 1.000000 4.000000 1.000000 -60.708740 114.000000 149.000000 0.915556 0.285839 -0.282937
1410.00000000 4790.00000000 -840.00000000 101 95 157 97.000000 1.000000 4.000000 1.000000 -60.708740 114.000000 149.000000 0.994704 -0.101101 -0.018481
1380.00000000 4770.00000000 -860.00000000 101 95 157 97.000000 1.000000 4.000000 1.000000 -60.708740 114.000000 149.000000 0.971830 0.224078 -0.073042
1490.00000000 4820.00000000 -960.00000000 101 95 157 97.000000 1.000000 4.000000 1.000000 -60.708740 114.000000 149.000000 0.882480 0.457530 -0.109071
1430.00000000 4780.00000000 -1020.00000000 101 95 157 97.000000 1.000000 4.000000 1.000000 -60.708740 114.000000 149.000000 0.989221 0.065948 0.130739
1440.00000000 4710.00000000 -1000.00000000 101 95 157 97.000000 1.000000 4.000000 1.000000 -60.708740 114.000000 149.000000 0.961130 0.275483 -0.018366
1370.00000000 4830.00000000 -870.00000000 101 95 157 97.000000 1.000000 4.000000 1.000000 -60.708740 114.000000 149.000000 0.977545 -0.206995 0.039485
1350.00000000 4810.00000000 -910.00000000 101 95 157 97.000000 1.000000 4.000000 1.000000 -60.708740 114.000000 149.000000 0.894270 -0.030837 -0.446465
1370.00000000 4820.00000000 -920.00000000 101 95 157 97.000000 1.000000 4.000000 1.000000 -60.708740 114.000000 149.000000 0.905160 0.327149 -0.271401
1370.00000000 4780.00000000 -930.00000000 101 95 157 97.000000 1.000000 4.000000 1.000000 -60.708740 114.000000 149.000000 0.894424 -0.114092 -0.432422
1410.00000000 4770.00000000 -950.00000000 101 95 157 97.000000 1.000000 4.000000 1.000000 -60.708740 114.000000 149.000000 0.877034 -0.149313 -0.456637
1400.00000000 4790.00000000 -960.00000000 101 95 157 97.000000 1.000000 4.000000 1.000000 -60.708740 114.000000 149.000000 0.983927 -0.156997 -0.085090
1400.00000000 4790.00000000 -960.00000000 101 95 157 97.000000 1.000000 4.000000 1.000000 -60.708740 114.000000 149.000000 0.983927 -0.156997 -0.085090
1420.00000000 4780.00000000 -1030.00000000 101 95 157 97.000000 1.000000 4.000000 1.000000 -60.708740 114.000000 149.000000 0.958842 0.283876 -0.006092
1380.00000000 4760.00000000 -880.00000000 101 95 157 97.000000 1.000000 4.000000 1.000000 -60.708740 114.000000 149.000000 0.917306 0.043681 -0.395779
1370.00000000 4760.00000000 -870.00000000 101 95 157 97.000000 1.000000 4.000000 1.000000 -60.708740 114.000000 149.000000 0.978212 -0.140455 -0.152884
1460.00000000 4950.00000000 -1060.00000000 101 95 157 97.000000 1.000000 4.000000 1.000000 -60.708740 114.000000 149.000000 0.735959 0.423135 -0.528508
1430.00000000 4940.00000000 -1130.00000000 101 95 157 97.000000 1.000000 4.000000 1.000000 -60.708740 114.000000 149.000000 0.792601 -0.213925 -0.570981
1400.00000000 4940.00000000 -1190.00000000 101 95 157 97.000000 1.000000 4.000000 1.000000 -60.708740 114.000000 149.000000 0.886622 -0.056185 -0.459070
1380.00000000 4950.00000000 -1160.00000000 101 95 157 97.000000 1.000000 4.000000 1.000000 -60.708740 114.000000 149.000000 -0.587223 -0.164543 0.792524
1360.00000000 4940.00000000 -1180.00000000 101 95 157 97.000000 1.000000 4.000000 1.000000 -60.708740 114.000000 149.000000 0.862450 -0.025887 -0.505480
1390.00000000 4870.00000000 -1080.00000000 101 95 157 97.000000 1.000000 4.000000 1.000000 -60.708740 114.000000 149.000000 0.916423 0.332329 -0.222992
1360.00000000 4900.00000000 -1100.00000000 101 95 157 97.000000 1.000000 4.000000 1.000000 -60.708740 114.000000 149.000000 0.759422 0.029478 -0.649930
1350.00000000 4870.00000000 -1040.00000000 101 95 157 97.000000 1.000000 4.000000 1.000000 -60.708740 114.000000 149.000000 0.752220 0.475693 -0.455941
1350.00000000 4890.00000000 -1040.00000000 101 95 157 97.000000 1.000000 4.000000 1.000000 -60.708740 114.000000 149.000000 0.998123 -0.051755 -0.032743
1350.00000000 4880.00000000 -1040.00000000 101 95 157 97.000000 1.000000 4.000000 1.000000 -60.708740 114.000000 149.000000 0.880922 0.265627 -0.391688
1380.00000000 4890.00000000 -1080.00000000 101 95 157 97.000000 1.000000 4.000000 1.000000 -60.708740 114.000000 149.000000 0.979144 -0.132117 -0.154342
1360.00000000 4860.00000000 -1090.00000000 101 95 157 97.000000 1.000000 4.000000 1.000000 -60.708740 114.000000 149.000000 0.917661 0.016921 -0.397002
1380.00000000 4890.00000000 -1080.00000000 101 95 157 97.000000 1.000000 4.000000 1.000000 -60.708740 114.000000 149.000000 0.979144 -0.132117 -0.154342
1360.00000000 4890.00000000 -1100.00000000 101 95 157 97.000000 1.000000 4.000000 1.000000 -60.708740 114.000000 149.000000 -0.674033 -0.329708 0.661039
1390.00000000 4930.00000000 -1120.00000000 101 95 157 97.000000 1.000000 4.000000 1.000000 -60.708740 114.000000 149.000000 0.967949 0.118916 -0.221209
1360.00000000 4930.00000000 -1120.00000000 101 95 157 97.000000 1.000000 4.000000 1.000000 -60.708740 114.000000 149.000000 -0.668685 0.203243 0.715229
1380.00000000 4930.00000000 -1150.00000000 101 95 157 97.000000 1.000000 4.000000 1.000000 -60.708740 114.000000 149.000000 0.723266 -0.044050 -0.689163
1360.00000000 4920.00000000 -1130.00000000 101 95 157 97.000000 1.000000 4.000000 1.000000 -60.708740 114.000000 149.000000 0.667159 0.344182 -0.660634
1370.00000000 4860.00000000 -1130.00000000 101 95 157 97.000000 1.000000 4.000000 1.000000 -60.708740 114.000000 149.000000 0.938745 0.026821 -0.343568
1390.00000000 4920.00000000 -1210.00000000 101 95 157 97.000000 1.000000 4.000000 1.000000 -60.708740 114.000000 149.000000 0.655654 0.464491 -0.595287
1380.00000000 4860.00000000 -1220.00000000 101 95 157 97.000000 1.000000 4.000000 1.000000 -60.708740 114.000000 149.000000 0.670134 0.305193 -0.676593
1380.00000000 4850.00000000 -1060.00000000 101 95 157 97.000000 1.000000 4.000000 1.000000 -60.708740 114.000000 149.000000 0.836582 0.054651 -0.545109
1380.00000000 4850.00000000 -1070.00000000 101 95 157 97.000000 1.000000 4.000000 1.000000 -60.708740 114.000000 149.000000 0.909345 -0.115583 -0.399666
1410.00000000 4820.00000000 -1070.00000000 101 95 157 97.000000 1.000000 4.000000 1.000000 -60.708740 114.000000 149.000000 0.880535 -0.322812 -0.347061
1380.00000000 4830.00000000 -1060.00000000 101 95 157 97.000000 1.000000 4.000000 1.000000 -60.708740 114.000000 149.000000 0.917206 -0.287439 -0.275884
1370.00000000 4830.00000000 -1080.00000000 101 95 157 97.000000 1.000000 4.000000 1.000000 -60.708740 114.000000 149.000000 0.994809 -0.022882 -0.099154
1370.00000000 4850.00000000 -1080.00000000 101 95 157 97.000000 1.000000 4.000000 1.000000 -60.708740 114.000000 149.000000 0.924620 0.178732 -0.336353
1400.00000000 4830.00000000 -1190.00000000 101 95 157 97.000000 1.000000 4.000000 1.000000 -60.708740 114.000000 149.000000 0.877141 0.383276 -0.289350
1390.00000000 4810.00000000 -1190.00000000 101 95 157 97.000000 1.000000 4.000000 1.000000 -60.708740 114.000000 149.000000 0.855728 0.042856 -0.515649
1400.00000000 4780.00000000 -1170.00000000 101 95 157 97.000000 1.000000 4.000000 1.000000 -60.708740 114.000000 149.000000 0.970012 0.058077 -0.236016
1400.00000000 4770.00000000 -1170.00000000 101 95 157 97.000000 1.000000 4.000000 1.000000 -60.708740 114.000000 149.000000 0.863587 0.083118 -0.497302
1360.00000000 4850.00000000 -1140.00000000 101 95 157 97.000000 1.000000 4.000000 1.000000 -60.708740 114.000000 149.000000 0.896903 0.110885 -0.428099
1360.00000000 4840.00000000 -1150.00000000 101 95 157 97.000000 1.000000 4.000000 1.000000 -60.708740 114.000000 149.000000 0.974011 0.095784 -0.205251
1370.00000000 4840.00000000 -1140.00000000 101 95 157 97.000000 1.000000 4.000000 1.000000 -60.708740 114.000000 149.000000 0.712925 0.520152 -0.470298
1360.00000000 4780.00000000 -1210.00000000 101 95 157 97.000000 1.000000 4.000000 1.000000 -60.708740 114.000000 149.000000 -0.593678 -0.167680 0.787039
1390.00000000 4810.00000000 -1200.00000000 101 95 157 97.000000 1.000000 4.000000 1.000000 -60.708740 114.000000 149.000000 0.938340 -0.021644 -0.345034
1380.00000000 4740.00000000 -1230.00000000 101 95 157 97.000000 1.000000 4.000000 1.000000 -60.708740 114.000000 149.000000 0.868359 -0.017556 -0.495626
1410.00000000 4670.00000000 -1020.00000000 101 95 157 97.000000 1.000000 4.000000 1.000000 -60.708740 114.000000 149.000000 0.838250 -0.161716 -0.520754
1420.00000000 4610.00000000 -1110.00000000 101 95 157 97.000000 1.000000 4.000000 1.000000 -60.708740 114.000000 149.000000 0.966842 0.164376 -0.195439
1370.00000000 4620.00000000 -1070.00000000 101 95 157 97.000000 1.000000 4.000000 1.000000 -60.708740 114.000000 149.000000 0.918525 0.311925 -0.242928
1370.00000000 4610.00000000 -1070.00000000 101 95 157 97.000000 1.000000 4.000000 1.000000 -60.708740 114.000000 149.000000 0.952281 -0.081624 -0.294106
1380.00000000 4610.00000000 -1060.00000000 101 95 157 97.000000 1.000000 4.000000 1.000000 -60.708740 114.000000 149.000000 0.948239 0.068751 -0.310026
1380.00000000 4620.00000000 -1060.00000000 101 95 157 97.000000 1.000000 4.000000 1.000000 -60.708740 114.000000 149.000000 0.967726 0.140083 -0.209481
1370.00000000 4610.00000000 -1080.00000000 101 95 157 97.000000 1.000000 4.000000 1.000000 -60.708740 114.000000 149.000000 0.944021 -0.254212 -0.210240
1410.00000000 4600.00000000 -1120.00000000 101 95 157 97.000000 1.000000 4.000000 1.000000 -60.708740 114.000000 149.000000 0.943838 -0.001247 -0.330406
1380.00000000 4580.00000000 -1050.00000000 101 95 157 97.000000 1.000000 4.000000 1.000000 -60.708740 114.000000 149.000000 0.979335 0.046521 -0.196821
1410.00000000 4560.00000000 -1130.00000000 101 95 157 97.000000 1.000000 4.000000 1.000000 -60.708740 114.000000 149.000000 0.999847 0.015013 -0.009008
1420.00000000 4560.00000000 -1140.00000000 101 95 157 97.000000 1.000000 4.000000 1.000000 -60.708740 114.000000 149.000000 0.921564 0.347521 -0.173057
1410.00000000 4560.00000000 -1130.00000000 101 95 157 97.000000 1.000000 4.000000 1.000000 -60.708740 114.000000 149.000000 0.999847 0.015013 -0.009008
1340.00000000 4970.00000000 -710.00000000 101 95 157 97.000000 1.000000 4.000000 1.000000 -60.708740 114.000000 149.000000 0.989802 -0.139138 0.030542
1340.00000000 4970.00000000 -700.00000000 101 95 157 97.000000 1.000000 4.000000 1.000000 -60.708740 114.000000 149.000000 0.841281 -0.380691 0.383824
1340.00000000 5000.00000000 -740.00000000 101 95 157 97.000000 1.000000 4.000000 1.000000 -60.708740 114.000000 149.000000 0.900054 -0.092918 0.425757
1310.00000000 4930.00000000 -740.00000000 101 95 157 97.000000 1.000000 4.000000 1.000000 -60.708740 114.000000 149.000000 0.993275 0.097865 0.061869
1340.00000000 4960.00000000 -950.00000000 101 95 157 97.000000 1.000000 4.000000 1.000000 -60.708740 114.000000 149.000000 0.914774 -0.220410 -0.338538
1310.00000000 4950.00000000 -970.00000000 101 95 157 97.000000 1.000000 4.000000 1.000000 -60.708740 114.000000 149.000000 0.944593 -0.044981 -0.325146
1310.00000000 4940.00000000 -960.00000000 101 95 157 97.000000 1.000000 4.000000 1.000000 -60.708740 114.000000 149.000000 0.770367 0.097940 -0.630034
1330.00000000 4940.00000000 -970.00000000 101 95 157 97.000000 1.000000 4.000000 1.000000 -60.708740 114.000000 149.000000 0.994482 0.092226 0.050002
1310.00000000 4950.00000000 -960.00000000 101 95 157 97.000000 1.000000 4.000000 1.000000 -60.708740 114.000000 149.000000 0.872350 0.059447 -0.485254
1280.00000000 5000.00000000 -950.00000000 101 95 157 97.000000 1.000000 4.000000 1.000000 -60.708740 114.000000 149.000000 0.931229 0.359583 -0.059272
1280.00000000 5010.00000000 -960.00000000 101 95 157 97.000000 1.000000 4.000000 1.000000 -60.708740 114.000000 149.000000 0.993456 -0.111364 -0.025360
1270.00000000 5000.00000000 -970.00000000 101 95 157 97.000000 1.000000 4.000000 1.000000 -60.708740 114.000000 149.000000 0.675923 0.308118 -0.669471
1330.00000000 4870.00000000 -890.00000000 101 95 157 97.000000 1.000000 4.000000 1.000000 -60.708740 114.000000 149.000000 0.954271 -0.156153 -0.254917
1340.00000000 4870.00000000 -1010.00000000 101 95 157 97.000000 1.000000 4.000000 1.000000 -60.708740 114.000000 149.000000 0.999063 0.036161 0.023763
1280.00000000 4930.00000000 -1010.00000000 101 95 157 97.000000 1.000000 4.000000 1.000000 -60.708740 114.000000 149.000000 0.946784 -0.112870 -0.301431
1330.00000000 4930.00000000 -990.00000000 101 95 157 97.000000 1.000000 4.000000 1.000000 -60.708740 114.000000 149.000000 0.888878 0.355251 -0.289297
1280.00000000 4780.00000000 -750.00000000 101 95 157 97.000000 1.000000 4.000000 1.000000 -60.708740 114.000000 149.000000 0.980526 0.146036 0.131309
1340.00000000 4780.00000000 -760.00000000 101 95 157 97.000000 1.000000 4.000000 1.000000 -60.708740 114.000000 149.000000 0.887217 0.081918 0.454022
1270.00000000 4800.00000000 -770.00000000 101 95 157 97.000000 1.000000 4.000000 1.000000 -60.708740 114.000000 149.000000 0.882014 0.300035 0.363360
1330.00000000 4770.00000000 -760.00000000 101 95 157 97.000000 1.000000 4.000000 1.000000 -60.708740 114.000000 149.000000 0.984091 -0.121955 0.129200
1300.00000000 4830.00000000 -800.00000000 101 95 157 97.000000 1.000000 4.000000 1.000000 -60.708740 114.000000 149.000000 0.974406 -0.152527 -0.165132
1310.00000000 4820.00000000 -850.00000000 101 95 157 97.000000 1.000000 4.000000 1.000000 -60.708740 114.000000 149.000000 0.991102 0.133100 -0.001100
1260.00000000 4780.00000000 -820.00000000 101 95 157 97.000000 1.000000 4.000000 1.000000 -60.708740 114.000000 149.000000 0.950412 0.103849 0.293142
1260.00000000 4770.00000000 -850.00000000 101 95 157 97.000000 1.000000 4.000000 1.000000 -60.708740 114.000000 149.000000 0.974304 0.027496 -0.223552
1260.00000000 4780.00000000 -850.00000000 101 95 157 97.000000 1.000000 4.000000 1.000000 -60.708740 114.000000 149.000000 0.935510 -0.135205 -0.326404
1260.00000000 4780.00000000 -830.00000000 101 95 157 97.000000 1.000000 4.000000 1.000000 -60.708740 114.000000 149.000000 0.993156 0.108365 0.043569
1260.00000000 4790.00000000 -830.00000000 101 95 157 97.000000 1.000000 4.000000 1.000000 -60.708740 114.000000 149.000000 0.906378 0.169857 0.386817
1260.00000000 4750.00000000 -810.00000000 101 95 157 97.000000 1.000000 4.000000 1.000000 -60.708740 114.000000 149.000000 0.928533 -0.361469 -0.084656
1260.00000000 4740.00000000 -850.00000000 101 95 157 97.000000 1.000000 4.000000 1.000000 -60.708740 114.000000 149.000000 0.936746 -0.261060 -0.233140
1230.00000000 4800.00000000 -830.00000000 101 95 157 97.000000 1.000000 4.000000 1.000000 -60.708740 114.000000 149.000000 0.939503 -0.339875 -0.042646
1180.00000000 4800.00000000 -810.00000000 101 95 157 97.000000 1.000000 4.000000 1.000000 -60.708740 114.000000 149.000000 0.887715 0.030982 0.459349
1240.00000000 4750.00000000 -860.00000000 101 95 157 97.000000 1.000000 4.000000 1.000000 -60.708740 114.000000 149.000000 0.975864 -0.206927 0.069792
1320.00000000 4820.00000000 -880.00000000 101 95 157 97.000000 1.000000 4.000000 1.000000 -60.708740 114.000000 149.000000 0.991178 0.041913 0.125738
1310.00000000 4760.00000000 -910.00000000 101 95 157 97.000000 1.000000 4.000000 1.000000 -60.708740 114.000000 149.000000 0.964330 0.101171 0.244604
1120.00000000 4870.00000000 -770.00000000 101 95 157 97.000000 1.000000 4.000000 1.000000 -60.708740 114.000000 149.000000 0.945199 0.320253 0.063532
1090.00000000 4860.00000000 -720.00000000 101 95 157 97.000000 1.000000 4.000000 1.000000 -60.708740 114.000000 149.000000 0.787878 0.313560 0.530027
1120.00000000 4870.00000000 -780.00000000 101 95 157 97.000000 1.000000 4.000000 1.000000 -60.708740 114.000000 149.000000 0.947030 0.161225 0.277741
1100.00000000 4820.00000000 -700.00000000 101 95 157 97.000000 1.000000 4.000000 1.000000 -60.708740 114.000000 149.000000 0.755381 -0.427667 0.496487
1110.00000000 4780.00000000 -730.00000000 101 95 157 97.000000 1.000000 4.000000 1.000000 -60.708740 114.000000 149.000000 0.787653 0.290021 0.543591
1110.00000000 4780.00000000 -730.00000000 101 95 157 97.000000 1.000000 4.000000 1.000000 -60.708740 114.000000 149.000000 0.787653 0.290021 0.543591
1100.00000000 4800.00000000 -700.00000000 101 95 157 97.000000 1.000000 4.000000 1.000000 -60.708740 114.000000 149.000000 0.798651 -0.326793 0.505334
1100.00000000 4750.00000000 -720.00000000 101 95 157 97.000000 1.000000 4.000000 1.000000 -60.708740 114.000000 149.000000 -0.713587 0.530616 -0.457428
1110.00000000 4760.00000000 -730.00000000 101 95 157 97.000000 1.000000 4.000000 1.000000 -60.708740 114.000000 149.000000 0.912859 0.211323 0.349330
1070.00000000 4820.00000000 -700.00000000 101 95 157 97.000000 1.000000 4.000000 1.000000 -60.708740 114.000000 149.000000 0.840181 0.207396 0.501081
1070.00000000 4790.00000000 -720.00000000 101 95 157 97.000000 1.000000 4.000000 1.000000 -60.708740 114.000000 149.000000 0.641026 -0.126421 0.757036
1050.00000000 4790.00000000 -700.00000000 101 95 157 97.000000 1.000000 4.000000 1.000000 -60.708740 114.000000 149.000000 0.693098 -0.462622 0.552808
1040.00000000 4820.00000000 -700.00000000 101 95 157 97.000000 1.000000 4.000000 1.000000 -60.708740 114.000000 149.000000 0.827096 -0.214771 0.519410
1040.00000000 4770.00000000 -710.00000000 101 95 157 97.000000 1.000000 4.000000 1.000000 -60.708740 114.000000 149.000000 0.448563 -0.393899 0.802268
1330.00000000 4940.00000000 -1170.00000000 101 95 157 97.000000 1.000000 4.000000 1.000000 -60.708740 114.000000 149.000000 0.683467 0.067913 -0.726816
1290.00000000 4950.00000000 -1180.00000000 101 95 157 97.000000 1.000000 4.000000 1.000000 -60.708740 114.000000 149.000000 -0.484794 -0.302800 0.820541
1250.00000000 4980.00000000 -1180.00000000 101 95 157 97.000000 1.000000 4.000000 1.000000 -60.708740 114.000000 149.000000 0.757418 0.458394 -0.464966
1250.00000000 4950.00000000 -1180.00000000 101 95 157 97.000000 1.000000 4.000000 1.000000 -60.708740 114.000000 149.000000 -0.671783 -0.146434 0.726130
1240.00000000 5010.00000000 -1190.00000000 101 95 157 97.000000 1.000000 4.000000 1.000000 -60.708740 114.000000 149.000000 -0.576853 0.242310 0.780081
1250.00000000 4990.00000000 -1190.00000000 101 95 157 97.000000 1.000000 4.000000 1.000000 -60.708740 114.000000 149.000000 -0.487437 -0.470914 0.735286
1260.00000000 4960.00000000 -1220.00000000 101 95 157 97.000000 1.000000 4.000000 1.000000 -60.708740 114.000000 149.000000 0.743951 0.271249 -0.610706
