//X Y Z R G B PointSourceId ScanDirectionFlag NumberOfReturns ReturnNumber GpsTime Intensity Classification Nx Ny Nz
8440.00000000 11060.00000000 160.00000000 150 19 171 97.000000 1.000000 4.000000 1.000000 -60.708740 114.000000 206.000000 0.705005 0.077042 0.705005
8460.00000000 11080.00000000 120.00000000 150 19 171 97.000000 1.000000 4.000000 1.000000 -60.708740 114.000000 206.000000 0.943185 0.144793 0.299059
8430.00000000 11080.00000000 110.00000000 150 19 171 97.000000 1.000000 4.000000 1.000000 -60.708740 114.000000 206.000000 0.702442 0.426779 0.569592
8430.00000000 11070.00000000 120.00000000 150 19 171 97.000000 1.000000 4.000000 1.000000 -60.708740 114.000000 206.000000 0.544127 0.431663 0.719439
8430.00000000 11080.00000000 140.00000000 150 19 171 97.000000 1.000000 4.000000 1.000000 -60.708740 114.000000 206.000000 0.590344 0.331563 0.735908
8440.00000000 11080.00000000 100.00000000 150 19 171 97.000000 1.000000 4.000000 1.000000 -60.708740 114.000000 206.000000 0.801342 0.288105 0.524257
8270.00000000 11380.00000000 0.00000000 150 19 171 97.000000 1.000000 4.000000 1.000000 -60.708740 114.000000 206.000000 0.166050 0.181497 0.969271
8270.00000000 11390.00000000 0.00000000 150 19 171 97.000000 1.000000 4.000000 1.000000 -60.708740 114.000000 206.000000 0.220434 0.282211 0.933684
8280.00000000 11380.00000000 0.00000000 150 19 171 97.000000 1.000000 4.000000 1.000000 -60.708740 114.000000 206.000000 0.193200 0.267192 0.944077
8270.00000000 11270.00000000 60.00000000 150 19 171 97.000000 1.000000 4.000000 1.000000 -60.708740 114.000000 206.000000 0.401964 0.617006 0.676556
8260.00000000 11270.00000000 0.00000000 150 19 171 97.000000 1.000000 4.000000 1.000000 -60.708740 114.000000 206.000000 0.304290 0.427859 0.851084
8270.00000000 11280.00000000 50.00000000 150 19 171 97.000000 1.000000 4.000000 1.000000 -60.708740 114.000000 206.000000 0.375580 0.250881 0.892187
8260.00000000 11260.00000000 60.00000000 150 19 171 97.000000 1.000000 4.000000 1.000000 -60.708740 114.000000 206.000000 0.273063 0.169815 0.946889
8270.00000000 11270.00000000 50.00000000 150 19 171 97.000000 1.000000 4.000000 1.000000 -60.708740 114.000000 206.000000 0.420897 -0.134630 0.897062
8270.00000000 11280.00000000 50.00000000 150 19 171 97.000000 1.000000 4.000000 1.000000 -60.708740 114.000000 206.000000 0.375580 0.250881 0.892187
8370.00000000 11180.00000000 170.00000000 150 19 171 97.000000 1.000000 4.000000 1.000000 -60.708740 114.000000 206.000000 0.379303 0.224067 0.897732
8390.00000000 11100.00000000 240.00000000 150 19 171 97.000000 1.000000 4.000000 1.000000 -60.708740 114.000000 206.000000 0.431179 0.298271 0.851539
8410.00000000 11130.00000000 210.00000000 150 19 171 97.000000 1.000000 4.000000 1.000000 -60.708740 114.000000 206.000000 0.359507 0.406604 0.839897
8400.00000000 11150.00000000 200.00000000 150 19 171 97.000000 1.000000 4.000000 1.000000 -60.708740 114.000000 206.000000 0.787294 0.082341 0.611055
8400.00000000 11150.00000000 200.00000000 150 19 171 97.000000 1.000000 4.000000 1.000000 -60.708740 114.000000 206.000000 0.787294 0.082341 0.611055
8400.00000000 11130.00000000 190.00000000 150 19 171 97.000000 1.000000 4.000000 1.000000 -60.708740 114.000000 206.000000 0.654240 0.355815 0.667358
8410.00000000 11100.00000000 220.00000000 150 19 171 97.000000 1.000000 4.000000 1.000000 -60.708740 114.000000 206.000000 0.867150 0.226932 0.443343
8380.00000000 11110.00000000 150.00000000 150 19 171 97.000000 1.000000 4.000000 1.000000 -60.708740 114.000000 206.000000 0.696298 0.465868 0.546018
8380.00000000 11120.00000000 150.00000000 150 19 171 97.000000 1.000000 4.000000 1.000000 -60.708740 114.000000 206.000000 0.627910 0.340865 0.699671
8410.00000000 11090.00000000 150.00000000 150 19 171 97.000000 1.000000 4.000000 1.000000 -60.708740 114.000000 206.000000 0.503258 0.358551 0.786240
8400.00000000 11120.00000000 160.00000000 150 19 171 97.000000 1.000000 4.000000 1.000000 -60.708740 114.000000 206.000000 0.301684 0.325463 0.896137
8390.00000000 11090.00000000 170.00000000 150 19 171 97.000000 1.000000 4.000000 1.000000 -60.708740 114.000000 206.000000 0.609756 0.391632 0.689074
8410.00000000 11120.00000000 190.00000000 150 19 171 97.000000 1.000000 4.000000 1.000000 -60.708740 114.000000 206.000000 0.781253 -0.006889 0.624176
8370.00000000 11100.00000000 190.00000000 150 19 171 97.000000 1.000000 4.000000 1.000000 -60.708740 114.000000 206.000000 0.296563 0.231291 0.926582
8300.00000000 11170.00000000 150.00000000 150 19 171 97.000000 1.000000 4.000000 1.000000 -60.708740 114.000000 206.000000 0.620125 -0.113420 0.776261
8270.00000000 11190.00000000 150.00000000 150 19 171 97.000000 1.000000 4.000000 1.000000 -60.708740 114.000000 206.000000 0.468803 0.064996 0.880908
8260.00000000 11170.00000000 150.00000000 150 19 171 97.000000 1.000000 4.000000 1.000000 -60.708740 114.000000 206.000000 0.293191 0.537252 0.790822
8310.00000000 11150.00000000 150.00000000 150 19 171 97.000000 1.000000 4.000000 1.000000 -60.708740 114.000000 206.000000 0.845678 0.256313 0.468116
8310.00000000 11130.00000000 150.00000000 150 19 171 97.000000 1.000000 4.000000 1.000000 -60.708740 114.000000 206.000000 0.635638 -0.117052 0.763062
8310.00000000 11130.00000000 150.00000000 150 19 171 97.000000 1.000000 4.000000 1.000000 -60.708740 114.000000 206.000000 0.635638 -0.117052 0.763062
8300.00000000 11150.00000000 160.00000000 150 19 171 97.000000 1.000000 4.000000 1.000000 -60.708740 114.000000 206.000000 0.754732 0.352208 0.553470
8300.00000000 11150.00000000 160.00000000 150 19 171 97.000000 1.000000 4.000000 1.000000 -60.708740 114.000000 206.000000 0.754732 0.352208 0.553470
8300.00000000 11110.00000000 210.00000000 150 19 171 97.000000 1.000000 4.000000 1.000000 -60.708740 114.000000 206.000000 0.706994 0.237764 0.666054
8300.00000000 11090.00000000 180.00000000 150 19 171 97.000000 1.000000 4.000000 1.000000 -60.708740 114.000000 206.000000 0.537208 0.527104 0.658459
8270.00000000 11160.00000000 150.00000000 150 19 171 97.000000 1.000000 4.000000 1.000000 -60.708740 114.000000 206.000000 0.804034 0.312416 0.505891
8270.00000000 11130.00000000 180.00000000 150 19 171 97.000000 1.000000 4.000000 1.000000 -60.708740 114.000000 206.000000 0.098573 0.247073 0.963970
8280.00000000 11090.00000000 160.00000000 150 19 171 97.000000 1.000000 4.000000 1.000000 -60.708740 114.000000 206.000000 0.387643 0.099993 0.916370
8410.00000000 11160.00000000 130.00000000 150 19 171 97.000000 1.000000 4.000000 1.000000 -60.708740 114.000000 206.000000 0.324466 0.339557 0.882849
8380.00000000 11120.00000000 130.00000000 150 19 171 97.000000 1.000000 4.000000 1.000000 -60.708740 114.000000 206.000000 0.716069 -0.172528 0.676372
8370.00000000 11140.00000000 140.00000000 150 19 171 97.000000 1.000000 4.000000 1.000000 -60.708740 114.000000 206.000000 0.400474 0.193684 0.895605
8340.00000000 11160.00000000 140.00000000 150 19 171 97.000000 1.000000 4.000000 1.000000 -60.708740 114.000000 206.000000 0.610436 0.539416 0.579999
8330.00000000 11230.00000000 80.00000000 150 19 171 97.000000 1.000000 4.000000 1.000000 -60.708740 114.000000 206.000000 0.785332 0.313814 0.533643
8300.00000000 11240.00000000 90.00000000 150 19 171 97.000000 1.000000 4.000000 1.000000 -60.708740 114.000000 206.000000 0.589390 0.592768 0.548859
8260.00000000 11230.00000000 100.00000000 150 19 171 97.000000 1.000000 4.000000 1.000000 -60.708740 114.000000 206.000000 0.541544 0.020565 0.840421
8270.00000000 11210.00000000 80.00000000 150 19 171 97.000000 1.000000 4.000000 1.000000 -60.708740 114.000000 206.000000 0.395365 0.379613 0.836409
8260.00000000 11210.00000000 80.00000000 150 19 171 97.000000 1.000000 4.000000 1.000000 -60.708740 114.000000 206.000000 0.587918 0.460620 0.664967
8250.00000000 11210.00000000 90.00000000 150 19 171 97.000000 1.000000 4.000000 1.000000 -60.708740 114.000000 206.000000 0.671273 0.015351 0.741051
8260.00000000 11220.00000000 100.00000000 150 19 171 97.000000 1.000000 4.000000 1.000000 -60.708740 114.000000 206.000000 0.694940 0.073991 0.715251
8260.00000000 11180.00000000 100.00000000 150 19 171 97.000000 1.000000 4.000000 1.000000 -60.708740 114.000000 206.000000 0.746638 0.155991 0.646683
8280.00000000 11200.00000000 80.00000000 150 19 171 97.000000 1.000000 4.000000 1.000000 -60.708740 114.000000 206.000000 0.173842 0.283349 0.943129
8260.00000000 11170.00000000 100.00000000 150 19 171 97.000000 1.000000 4.000000 1.000000 -60.708740 114.000000 206.000000 0.643899 -0.029459 0.764543
8270.00000000 11170.00000000 90.00000000 150 19 171 97.000000 1.000000 4.000000 1.000000 -60.708740 114.000000 206.000000 0.544695 -0.023324 0.838310
8280.00000000 11200.00000000 30.00000000 150 19 171 97.000000 1.000000 4.000000 1.000000 -60.708740 114.000000 206.000000 0.235066 0.357709 0.903763
8320.00000000 11150.00000000 130.00000000 150 19 171 97.000000 1.000000 4.000000 1.000000 -60.708740 114.000000 206.000000 0.861300 0.131728 0.490724
8280.00000000 11140.00000000 90.00000000 150 19 171 97.000000 1.000000 4.000000 1.000000 -60.708740 114.000000 206.000000 0.662404 0.416700 0.622560
8270.00000000 11120.00000000 140.00000000 150 19 171 97.000000 1.000000 4.000000 1.000000 -60.708740 114.000000 206.000000 0.601587 -0.037862 0.797909
8270.00000000 11120.00000000 140.00000000 150 19 171 97.000000 1.000000 4.000000 1.000000 -60.708740 114.000000 206.000000 0.601587 -0.037862 0.797909
8210.00000000 11370.00000000 -10.00000000 150 19 171 97.000000 1.000000 4.000000 1.000000 -60.708740 114.000000 206.000000 0.584310 0.431157 0.687521
8210.00000000 11370.00000000 -10.00000000 150 19 171 97.000000 1.000000 4.000000 1.000000 -60.708740 114.000000 206.000000 0.584310 0.431157 0.687521
8240.00000000 11360.00000000 0.00000000 150 19 171 97.000000 1.000000 4.000000 1.000000 -60.708740 114.000000 206.000000 0.771978 0.091937 0.628965
8210.00000000 11350.00000000 -10.00000000 150 19 171 97.000000 1.000000 4.000000 1.000000 -60.708740 114.000000 206.000000 0.466688 -0.059196 0.882439
8220.00000000 11340.00000000 -10.00000000 150 19 171 97.000000 1.000000 4.000000 1.000000 -60.708740 114.000000 206.000000 0.242942 0.240166 0.939840
8200.00000000 11370.00000000 -10.00000000 150 19 171 97.000000 1.000000 4.000000 1.000000 -60.708740 114.000000 206.000000 0.183620 0.562999 0.805802
8220.00000000 11310.00000000 20.00000000 150 19 171 97.000000 1.000000 4.000000 1.000000 -60.708740 114.000000 206.000000 0.182821 -0.010348 0.983092
8240.00000000 11290.00000000 0.00000000 150 19 171 97.000000 1.000000 4.000000 1.000000 -60.708740 114.000000 206.000000 0.502923 0.258425 0.824794
8230.00000000 11290.00000000 20.00000000 150 19 171 97.000000 1.000000 4.000000 1.000000 -60.708740 114.000000 206.000000 0.258844 0.329039 0.908148
8210.00000000 11290.00000000 20.00000000 150 19 171 97.000000 1.000000 4.000000 1.000000 -60.708740 114.000000 206.000000 0.627778 -0.040911 0.777316
8200.00000000 11270.00000000 30.00000000 150 19 171 97.000000 1.000000 4.000000 1.000000 -60.708740 114.000000 206.000000 0.475482 0.243092 0.845472
8130.00000000 11350.00000000 10.00000000 150 19 171 97.000000 1.000000 4.000000 1.000000 -60.708740 114.000000 206.000000 0.457963 0.390474 0.798624
8140.00000000 11360.00000000 10.00000000 150 19 171 97.000000 1.000000 4.000000 1.000000 -60.708740 114.000000 206.000000 0.599149 0.253184 0.759551
8080.00000000 11400.00000000 -10.00000000 150 19 171 97.000000 1.000000 4.000000 1.000000 -60.708740 114.000000 206.000000 0.422666 0.561897 0.711073
8090.00000000 11390.00000000 -10.00000000 150 19 171 97.000000 1.000000 4.000000 1.000000 -60.708740 114.000000 206.000000 -0.064121 0.194782 0.978748
8100.00000000 11390.00000000 -10.00000000 150 19 171 97.000000 1.000000 4.000000 1.000000 -60.708740 114.000000 206.000000 0.201667 0.344693 0.916797
8080.00000000 11340.00000000 -10.00000000 150 19 171 97.000000 1.000000 4.000000 1.000000 -60.708740 114.000000 206.000000 0.005742 0.189483 0.981867
8080.00000000 11340.00000000 -10.00000000 150 19 171 97.000000 1.000000 4.000000 1.000000 -60.708740 114.000000 206.000000 0.005742 0.189483 0.981867
8100.00000000 11360.00000000 -10.00000000 150 19 171 97.000000 1.000000 4.000000 1.000000 -60.708740 114.000000 206.000000 0.480581 0.014725 0.876827
8130.00000000 11300.00000000 20.00000000 150 19 171 97.000000 1.000000 4.000000 1.000000 -60.708740 114.000000 206.000000 0.388043 0.612613 0.688570
8150.00000000 11300.00000000 10.00000000 150 19 171 97.000000 1.000000 4.000000 1.000000 -60.708740 114.000000 206.000000 0.056246 0.190279 0.980117
8160.00000000 11320.00000000 0.00000000 150 19 171 97.000000 1.000000 4.000000 1.000000 -60.708740 114.000000 206.000000 0.177636 0.512009 0.840412
8140.00000000 11300.00000000 20.00000000 150 19 171 97.000000 1.000000 4.000000 1.000000 -60.708740 114.000000 206.000000 0.093209 0.248983 0.964012
8140.00000000 11310.00000000 20.00000000 150 19 171 97.000000 1.000000 4.000000 1.000000 -60.708740 114.000000 206.000000 0.077946 0.049402 0.995733
8140.00000000 11270.00000000 10.00000000 150 19 171 97.000000 1.000000 4.000000 1.000000 -60.708740 114.000000 206.000000 0.400805 0.397637 0.825373
8150.00000000 11290.00000000 20.00000000 150 19 171 97.000000 1.000000 4.000000 1.000000 -60.708740 114.000000 206.000000 0.119238 0.161033 0.979720
8140.00000000 11260.00000000 10.00000000 150 19 171 97.000000 1.000000 4.000000 1.000000 -60.708740 114.000000 206.000000 0.328050 0.593076 0.735285
8130.00000000 11290.00000000 -10.00000000 150 19 171 97.000000 1.000000 4.000000 1.000000 -60.708740 114.000000 206.000000 0.663619 0.305168 0.682995
8110.00000000 11320.00000000 30.00000000 150 19 171 97.000000 1.000000 4.000000 1.000000 -60.708740 114.000000 206.000000 0.383811 0.141996 0.912429
8120.00000000 11320.00000000 -10.00000000 150 19 171 97.000000 1.000000 4.000000 1.000000 -60.708740 114.000000 206.000000 0.003364 0.155847 0.987776
8120.00000000 11330.00000000 20.00000000 150 19 171 97.000000 1.000000 4.000000 1.000000 -60.708740 114.000000 206.000000 0.170686 0.196745 0.965483
8120.00000000 11280.00000000 30.00000000 150 19 171 97.000000 1.000000 4.000000 1.000000 -60.708740 114.000000 206.000000 -0.131268 0.271819 0.953354
8090.00000000 11280.00000000 20.00000000 150 19 171 97.000000 1.000000 4.000000 1.000000 -60.708740 114.000000 206.000000 0.345285 0.518730 0.782111
8100.00000000 11290.00000000 -10.00000000 150 19 171 97.000000 1.000000 4.000000 1.000000 -60.708740 114.000000 206.000000 0.018458 0.284249 0.958573
8240.00000000 11180.00000000 170.00000000 150 19 171 97.000000 1.000000 4.000000 1.000000 -60.708740 114.000000 206.000000 0.232869 0.174319 0.956758
8240.00000000 11180.00000000 170.00000000 150 19 171 97.000000 1.000000 4.000000 1.000000 -60.708740 114.000000 206.000000 0.232869 0.174319 0.956758
8240.00000000 11160.00000000 190.00000000 150 19 171 97.000000 1.000000 4.000000 1.000000 -60.708740 114.000000 206.000000 0.371559 0.415830 0.830078
8170.00000000 11140.00000000 170.00000000 150 19 171 97.000000 1.000000 4.000000 1.000000 -60.708740 114.000000 206.000000 0.343678 0.601029 0.721561
8180.00000000 11110.00000000 160.00000000 150 19 171 97.000000 1.000000 4.000000 1.000000 -60.708740 114.000000 206.000000 0.536046 0.600304 0.593540
8190.00000000 11100.00000000 160.00000000 150 19 171 97.000000 1.000000 4.000000 1.000000 -60.708740 114.000000 206.000000 0.596657 0.456267 0.660167
8170.00000000 11110.00000000 190.00000000 150 19 171 97.000000 1.000000 4.000000 1.000000 -60.708740 114.000000 206.000000 0.533712 0.075031 0.842331
8190.00000000 11100.00000000 160.00000000 150 19 171 97.000000 1.000000 4.000000 1.000000 -60.708740 114.000000 206.000000 0.596657 0.456267 0.660167
8140.00000000 11130.00000000 220.00000000 150 19 171 97.000000 1.000000 4.000000 1.000000 -60.708740 114.000000 206.000000 0.461471 -0.030944 0.886616
8150.00000000 11100.00000000 200.00000000 150 19 171 97.000000 1.000000 4.000000 1.000000 -60.708740 114.000000 206.000000 0.372131 0.099508 0.922831
8140.00000000 11100.00000000 210.00000000 150 19 171 97.000000 1.000000 4.000000 1.000000 -60.708740 114.000000 206.000000 0.521683 0.130055 0.843168
8130.00000000 11110.00000000 200.00000000 150 19 171 97.000000 1.000000 4.000000 1.000000 -60.708740 114.000000 206.000000 0.255491 0.559573 0.788418
8140.00000000 11110.00000000 160.00000000 150 19 171 97.000000 1.000000 4.000000 1.000000 -60.708740 114.000000 206.000000 0.476477 0.433905 0.764655
8130.00000000 11100.00000000 170.00000000 150 19 171 97.000000 1.000000 4.000000 1.000000 -60.708740 114.000000 206.000000 0.014342 -0.405492 -0.913986
8110.00000000 11140.00000000 220.00000000 150 19 171 97.000000 1.000000 4.000000 1.000000 -60.708740 114.000000 206.000000 0.158233 -0.057433 0.985730
8090.00000000 11090.00000000 220.00000000 150 19 171 97.000000 1.000000 4.000000 1.000000 -60.708740 114.000000 206.000000 -0.122812 0.371195 0.920398
8120.00000000 11110.00000000 210.00000000 150 19 171 97.000000 1.000000 4.000000 1.000000 -60.708740 114.000000 206.000000 -0.107776 0.507266 0.855024
8120.00000000 11100.00000000 220.00000000 150 19 171 97.000000 1.000000 4.000000 1.000000 -60.708740 114.000000 206.000000 0.304353 0.049664 0.951264
8080.00000000 11120.00000000 180.00000000 150 19 171 97.000000 1.000000 4.000000 1.000000 -60.708740 114.000000 206.000000 0.541863 0.282780 0.791467
8090.00000000 11090.00000000 190.00000000 150 19 171 97.000000 1.000000 4.000000 1.000000 -60.708740 114.000000 206.000000 0.506325 0.298117 0.809173
8220.00000000 11190.00000000 110.00000000 150 19 171 97.000000 1.000000 4.000000 1.000000 -60.708740 114.000000 206.000000 0.631633 0.123354 0.765391
8220.00000000 11170.00000000 110.00000000 150 19 171 97.000000 1.000000 4.000000 1.000000 -60.708740 114.000000 206.000000 0.537456 -0.111547 0.835882
8220.00000000 11170.00000000 110.00000000 150 19 171 97.000000 1.000000 4.000000 1.000000 -60.708740 114.000000 206.000000 0.537456 -0.111547 0.835882
8210.00000000 11200.00000000 120.00000000 150 19 171 97.000000 1.000000 4.000000 1.000000 -60.708740 114.000000 206.000000 0.382365 0.179010 0.906506
8240.00000000 11200.00000000 70.00000000 150 19 171 97.000000 1.000000 4.000000 1.000000 -60.708740 114.000000 206.000000 0.340055 0.499705 0.796654
8200.00000000 11200.00000000 130.00000000 150 19 171 97.000000 1.000000 4.000000 1.000000 -60.708740 114.000000 206.000000 0.692150 0.041216 0.720575
8190.00000000 11190.00000000 140.00000000 150 19 171 97.000000 1.000000 4.000000 1.000000 -60.708740 114.000000 206.000000 0.580783 -0.078872 0.810228
8200.00000000 11170.00000000 120.00000000 150 19 171 97.000000 1.000000 4.000000 1.000000 -60.708740 114.000000 206.000000 0.494952 -0.042503 0.867880
8190.00000000 11200.00000000 140.00000000 150 19 171 97.000000 1.000000 4.000000 1.000000 -60.708740 114.000000 206.000000 0.527667 0.051514 0.847888
8190.00000000 11170.00000000 140.00000000 150 19 171 97.000000 1.000000 4.000000 1.000000 -60.708740 114.000000 206.000000 0.669830 0.162521 0.724510
8190.00000000 11200.00000000 140.00000000 150 19 171 97.000000 1.000000 4.000000 1.000000 -60.708740 114.000000 206.000000 0.527667 0.051514 0.847888
8220.00000000 11240.00000000 50.00000000 150 19 171 97.000000 1.000000 4.000000 1.000000 -60.708740 114.000000 206.000000 0.524379 0.615429 0.588451
8180.00000000 11240.00000000 50.00000000 150 19 171 97.000000 1.000000 4.000000 1.000000 -60.708740 114.000000 206.000000 0.407318 0.505467 0.760654
8170.00000000 11230.00000000 30.00000000 150 19 171 97.000000 1.000000 4.000000 1.000000 -60.708740 114.000000 206.000000 0.563392 -0.072742 0.822981
8180.00000000 11250.00000000 60.00000000 150 19 171 97.000000 1.000000 4.000000 1.000000 -60.708740 114.000000 206.000000 0.122669 0.139673 0.982570
8190.00000000 11240.00000000 20.00000000 150 19 171 97.000000 1.000000 4.000000 1.000000 -60.708740 114.000000 206.000000 0.153954 0.485321 0.860675
8240.00000000 11140.00000000 140.00000000 150 19 171 97.000000 1.000000 4.000000 1.000000 -60.708740 114.000000 206.000000 0.652124 0.461013 0.601832
8240.00000000 11140.00000000 100.00000000 150 19 171 97.000000 1.000000 4.000000 1.000000 -60.708740 114.000000 206.000000 0.530040 0.292709 0.795851
8170.00000000 11130.00000000 140.00000000 150 19 171 97.000000 1.000000 4.000000 1.000000 -60.708740 114.000000 206.000000 -0.021663 0.342788 0.939163
8180.00000000 11160.00000000 120.00000000 150 19 171 97.000000 1.000000 4.000000 1.000000 -60.708740 114.000000 206.000000 0.169707 0.424992 0.889147
8170.00000000 11150.00000000 70.00000000 150 19 171 97.000000 1.000000 4.000000 1.000000 -60.708740 114.000000 206.000000 0.318105 0.618448 0.718562
8190.00000000 11130.00000000 80.00000000 150 19 171 97.000000 1.000000 4.000000 1.000000 -60.708740 114.000000 206.000000 0.441234 0.584426 0.680998
8130.00000000 11210.00000000 80.00000000 150 19 171 97.000000 1.000000 4.000000 1.000000 -60.708740 114.000000 206.000000 0.262366 0.666250 0.698051
8130.00000000 11220.00000000 70.00000000 150 19 171 97.000000 1.000000 4.000000 1.000000 -60.708740 114.000000 206.000000 0.113520 0.626572 0.771052
8140.00000000 11210.00000000 80.00000000 150 19 171 97.000000 1.000000 4.000000 1.000000 -60.708740 114.000000 206.000000 0.167154 0.576758 0.799631
8140.00000000 11210.00000000 80.00000000 150 19 171 97.000000 1.000000 4.000000 1.000000 -60.708740 114.000000 206.000000 0.167154 0.576758 0.799631
8130.00000000 11220.00000000 70.00000000 150 19 171 97.000000 1.000000 4.000000 1.000000 -60.708740 114.000000 206.000000 0.113520 0.626572 0.771052
8150.00000000 11200.00000000 80.00000000 150 19 171 97.000000 1.000000 4.000000 1.000000 -60.708740 114.000000 206.000000 0.258332 0.676736 0.689415
8150.00000000 11190.00000000 80.00000000 150 19 171 97.000000 1.000000 4.000000 1.000000 -60.708740 114.000000 206.000000 0.171328 0.592825 0.786896
8150.00000000 11200.00000000 70.00000000 150 19 171 97.000000 1.000000 4.000000 1.000000 -60.708740 114.000000 206.000000 0.020941 0.115728 0.993060
8130.00000000 11200.00000000 80.00000000 150 19 171 97.000000 1.000000 4.000000 1.000000 -60.708740 114.000000 206.000000 0.328248 0.523596 0.786194
8110.00000000 11230.00000000 70.00000000 150 19 171 97.000000 1.000000 4.000000 1.000000 -60.708740 114.000000 206.000000 -0.076456 0.374232 0.924178
8120.00000000 11190.00000000 110.00000000 150 19 171 97.000000 1.000000 4.000000 1.000000 -60.708740 114.000000 206.000000 0.264216 0.612284 0.745183
8130.00000000 11230.00000000 40.00000000 150 19 171 97.000000 1.000000 4.000000 1.000000 -60.708740 114.000000 206.000000 0.630329 0.392095 0.670035
8130.00000000 11240.00000000 60.00000000 150 19 171 97.000000 1.000000 4.000000 1.000000 -60.708740 114.000000 206.000000 0.251197 0.661959 0.706195
8160.00000000 11130.00000000 140.00000000 150 19 171 97.000000 1.000000 4.000000 1.000000 -60.708740 114.000000 206.000000 0.260874 0.189851 0.946521
8150.00000000 11130.00000000 140.00000000 150 19 171 97.000000 1.000000 4.000000 1.000000 -60.708740 114.000000 206.000000 0.017811 0.222048 0.974873
8100.00000000 11140.00000000 140.00000000 150 19 171 97.000000 1.000000 4.000000 1.000000 -60.708740 114.000000 206.000000 0.238746 0.304509 0.922103
8110.00000000 11160.00000000 130.00000000 150 19 171 97.000000 1.000000 4.000000 1.000000 -60.708740 114.000000 206.000000 -0.124041 0.292096 0.948311
8120.00000000 11110.00000000 120.00000000 150 19 171 97.000000 1.000000 4.000000 1.000000 -60.708740 114.000000 206.000000 0.356829 0.302627 0.883793
8050.00000000 11410.00000000 0.00000000 150 19 171 97.000000 1.000000 4.000000 1.000000 -60.708740 114.000000 206.000000 0.163684 0.309486 0.936710
8010.00000000 11360.00000000 30.00000000 150 19 171 97.000000 1.000000 4.000000 1.000000 -60.708740 114.000000 206.000000 -0.098119 0.126491 0.987103
8000.00000000 11350.00000000 30.00000000 150 19 171 97.000000 1.000000 4.000000 1.000000 -60.708740 114.000000 206.000000 -0.072672 0.342218 0.936806
8030.00000000 11340.00000000 20.00000000 150 19 171 97.000000 1.000000 4.000000 1.000000 -60.708740 114.000000 206.000000 -0.048530 0.260069 0.964370
8020.00000000 11360.00000000 0.00000000 150 19 171 97.000000 1.000000 4.000000 1.000000 -60.708740 114.000000 206.000000 0.380892 0.281529 0.880718
8030.00000000 11340.00000000 20.00000000 150 19 171 97.000000 1.000000 4.000000 1.000000 -60.708740 114.000000 206.000000 -0.048530 0.260069 0.964370
8060.00000000 11330.00000000 0.00000000 150 19 171 97.000000 1.000000 4.000000 1.000000 -60.708740 114.000000 206.000000 -0.024099 0.166398 0.985764
8060.00000000 11260.00000000 30.00000000 150 19 171 97.000000 1.000000 4.000000 1.000000 -60.708740 114.000000 206.000000 0.015675 0.249592 0.968224
8070.00000000 11260.00000000 30.00000000 150 19 171 97.000000 1.000000 4.000000 1.000000 -60.708740 114.000000 206.000000 0.041874 0.206975 0.977450
8060.00000000 11260.00000000 20.00000000 150 19 171 97.000000 1.000000 4.000000 1.000000 -60.708740 114.000000 206.000000 0.094561 0.273319 0.957264
8020.00000000 11300.00000000 30.00000000 150 19 171 97.000000 1.000000 4.000000 1.000000 -60.708740 114.000000 206.000000 0.249755 0.479591 0.841199
8010.00000000 11310.00000000 20.00000000 150 19 171 97.000000 1.000000 4.000000 1.000000 -60.708740 114.000000 206.000000 0.001249 0.333408 0.942782
8020.00000000 11310.00000000 20.00000000 150 19 171 97.000000 1.000000 4.000000 1.000000 -60.708740 114.000000 206.000000 0.312202 0.511885 0.800315
8000.00000000 11330.00000000 0.00000000 150 19 171 97.000000 1.000000 4.000000 1.000000 -60.708740 114.000000 206.000000 0.078436 0.346980 0.934587
8000.00000000 11320.00000000 10.00000000 150 19 171 97.000000 1.000000 4.000000 1.000000 -60.708740 114.000000 206.000000 -0.287999 0.583955 0.758982
8020.00000000 11290.00000000 30.00000000 150 19 171 97.000000 1.000000 4.000000 1.000000 -60.708740 114.000000 206.000000 0.044774 0.221451 0.974143
8030.00000000 11280.00000000 30.00000000 150 19 171 97.000000 1.000000 4.000000 1.000000 -60.708740 114.000000 206.000000 0.209798 0.276488 0.937837
8020.00000000 11290.00000000 30.00000000 150 19 171 97.000000 1.000000 4.000000 1.000000 -60.708740 114.000000 206.000000 0.044774 0.221451 0.974143
8030.00000000 11270.00000000 30.00000000 150 19 171 97.000000 1.000000 4.000000 1.000000 -60.708740 114.000000 206.000000 0.146950 0.139540 0.979252
8010.00000000 11270.00000000 20.00000000 150 19 171 97.000000 1.000000 4.000000 1.000000 -60.708740 114.000000 206.000000 -0.369342 0.210018 0.905251
8010.00000000 11270.00000000 10.00000000 150 19 171 97.000000 1.000000 4.000000 1.000000 -60.708740 114.000000 206.000000 0.157638 0.157638 0.974834
8010.00000000 11270.00000000 10.00000000 150 19 171 97.000000 1.000000 4.000000 1.000000 -60.708740 114.000000 206.000000 0.157638 0.157638 0.974834
8000.00000000 11280.00000000 10.00000000 150 19 171 97.000000 1.000000 4.000000 1.000000 -60.708740 114.000000 206.000000 -0.101365 0.167314 0.980679
7990.00000000 11350.00000000 30.00000000 150 19 171 97.000000 1.000000 4.000000 1.000000 -60.708740 114.000000 206.000000 0.043481 0.380787 0.923640
7960.00000000 11310.00000000 0.00000000 150 19 171 97.000000 1.000000 4.000000 1.000000 -60.708740 114.000000 206.000000 -0.129060 0.327406 0.936028
7980.00000000 11310.00000000 0.00000000 150 19 171 97.000000 1.000000 4.000000 1.000000 -60.708740 114.000000 206.000000 0.064064 0.260025 0.963474
7980.00000000 11320.00000000 0.00000000 150 19 171 97.000000 1.000000 4.000000 1.000000 -60.708740 114.000000 206.000000 -0.196924 0.031838 0.979902
7960.00000000 11270.00000000 10.00000000 150 19 171 97.000000 1.000000 4.000000 1.000000 -60.708740 114.000000 206.000000 -0.152949 0.057210 0.986577
7990.00000000 11290.00000000 10.00000000 150 19 171 97.000000 1.000000 4.000000 1.000000 -60.708740 114.000000 206.000000 0.090745 0.095339 0.991300
7970.00000000 11270.00000000 10.00000000 150 19 171 97.000000 1.000000 4.000000 1.000000 -60.708740 114.000000 206.000000 0.162969 0.268023 0.949529
7960.00000000 11280.00000000 10.00000000 150 19 171 97.000000 1.000000 4.000000 1.000000 -60.708740 114.000000 206.000000 -0.177686 -0.029034 0.983659
7980.00000000 11270.00000000 20.00000000 150 19 171 97.000000 1.000000 4.000000 1.000000 -60.708740 114.000000 206.000000 -0.314673 0.452441 0.834433
7960.00000000 11270.00000000 10.00000000 150 19 171 97.000000 1.000000 4.000000 1.000000 -60.708740 114.000000 206.000000 -0.152949 0.057210 0.986577
7950.00000000 11320.00000000 30.00000000 150 19 171 97.000000 1.000000 4.000000 1.000000 -60.708740 114.000000 206.000000 0.137892 0.185964 0.972833
7950.00000000 11290.00000000 10.00000000 150 19 171 97.000000 1.000000 4.000000 1.000000 -60.708740 114.000000 206.000000 -0.024245 0.172022 0.984795
8040.00000000 11110.00000000 230.00000000 150 19 171 97.000000 1.000000 4.000000 1.000000 -60.708740 114.000000 206.000000 0.206433 0.650343 0.731054
8060.00000000 11120.00000000 240.00000000 150 19 171 97.000000 1.000000 4.000000 1.000000 -60.708740 114.000000 206.000000 -0.055328 0.602933 0.795871
8050.00000000 11180.00000000 120.00000000 150 19 171 97.000000 1.000000 4.000000 1.000000 -60.708740 114.000000 206.000000 0.299410 0.353575 0.886193
8060.00000000 11170.00000000 100.00000000 150 19 171 97.000000 1.000000 4.000000 1.000000 -60.708740 114.000000 206.000000 0.312077 0.262726 0.913008
8010.00000000 11190.00000000 110.00000000 150 19 171 97.000000 1.000000 4.000000 1.000000 -60.708740 114.000000 206.000000 -0.101725 0.175260 0.979253
8020.00000000 11170.00000000 90.00000000 150 19 171 97.000000 1.000000 4.000000 1.000000 -60.708740 114.000000 206.000000 0.183571 0.048557 0.981807
8030.00000000 11170.00000000 80.00000000 150 19 171 97.000000 1.000000 4.000000 1.000000 -60.708740 114.000000 206.000000 -0.087968 0.459388 0.883869
8010.00000000 11170.00000000 80.00000000 150 19 171 97.000000 1.000000 4.000000 1.000000 -60.708740 114.000000 206.000000 -0.314961 0.462256 0.828927
8060.00000000 11240.00000000 40.00000000 150 19 171 97.000000 1.000000 4.000000 1.000000 -60.708740 114.000000 206.000000 -0.131305 0.410858 0.902194
8040.00000000 11210.00000000 30.00000000 150 19 171 97.000000 1.000000 4.000000 1.000000 -60.708740 114.000000 206.000000 -0.137549 0.412646 0.900447
8000.00000000 11220.00000000 20.00000000 150 19 171 97.000000 1.000000 4.000000 1.000000 -60.708740 114.000000 206.000000 -0.135144 0.016753 0.990684
8000.00000000 11250.00000000 20.00000000 150 19 171 97.000000 1.000000 4.000000 1.000000 -60.708740 114.000000 206.000000 0.029591 0.202399 0.978856
8030.00000000 11230.00000000 30.00000000 150 19 171 97.000000 1.000000 4.000000 1.000000 -60.708740 114.000000 206.000000 -0.205372 0.524841 0.826054
8000.00000000 11200.00000000 20.00000000 150 19 171 97.000000 1.000000 4.000000 1.000000 -60.708740 114.000000 206.000000 -0.160075 0.486099 0.859118
8040.00000000 11210.00000000 50.00000000 150 19 171 97.000000 1.000000 4.000000 1.000000 -60.708740 114.000000 206.000000 0.496670 0.247566 0.831883
8050.00000000 11130.00000000 90.00000000 150 19 171 97.000000 1.000000 4.000000 1.000000 -60.708740 114.000000 206.000000 -0.060438 0.028629 0.997761
8050.00000000 11120.00000000 100.00000000 150 19 171 97.000000 1.000000 4.000000 1.000000 -60.708740 114.000000 206.000000 0.274469 0.102763 0.956089
8050.00000000 11100.00000000 90.00000000 150 19 171 97.000000 1.000000 4.000000 1.000000 -60.708740 114.000000 206.000000 0.521683 0.130055 0.843168
8000.00000000 11130.00000000 120.00000000 150 19 171 97.000000 1.000000 4.000000 1.000000 -60.708740 114.000000 206.000000 0.040931 0.096243 0.994516
8010.00000000 11140.00000000 100.00000000 150 19 171 97.000000 1.000000 4.000000 1.000000 -60.708740 114.000000 206.000000 0.188774 0.618504 0.762770
8030.00000000 11130.00000000 100.00000000 150 19 171 97.000000 1.000000 4.000000 1.000000 -60.708740 114.000000 206.000000 0.190430 0.239051 0.952151
8010.00000000 11160.00000000 90.00000000 150 19 171 97.000000 1.000000 4.000000 1.000000 -60.708740 114.000000 206.000000 -0.199046 0.350836 0.915038
8000.00000000 11150.00000000 90.00000000 150 19 171 97.000000 1.000000 4.000000 1.000000 -60.708740 114.000000 206.000000 0.092855 0.518561 0.849984
8000.00000000 11160.00000000 90.00000000 150 19 171 97.000000 1.000000 4.000000 1.000000 -60.708740 114.000000 206.000000 -0.055111 0.572306 0.818186
8000.00000000 11120.00000000 110.00000000 150 19 171 97.000000 1.000000 4.000000 1.000000 -60.708740 114.000000 206.000000 -0.271474 0.443254 0.854300
8020.00000000 11090.00000000 70.00000000 150 19 171 97.000000 1.000000 4.000000 1.000000 -60.708740 114.000000 206.000000 0.302268 0.471412 0.828495
7960.00000000 11180.00000000 70.00000000 150 19 171 97.000000 1.000000 4.000000 1.000000 -60.708740 114.000000 206.000000 0.279213 0.206979 0.937657
7970.00000000 11170.00000000 70.00000000 150 19 171 97.000000 1.000000 4.000000 1.000000 -60.708740 114.000000 206.000000 -0.351311 0.254297 0.901062
7950.00000000 11200.00000000 100.00000000 150 19 171 97.000000 1.000000 4.000000 1.000000 -60.708740 114.000000 206.000000 -0.360857 0.446699 0.818683
7960.00000000 11190.00000000 30.00000000 150 19 171 97.000000 1.000000 4.000000 1.000000 -60.708740 114.000000 206.000000 -0.401263 0.256989 0.879173
7990.00000000 11180.00000000 40.00000000 150 19 171 97.000000 1.000000 4.000000 1.000000 -60.708740 114.000000 206.000000 -0.201514 0.311431 0.928656
7960.00000000 11200.00000000 30.00000000 150 19 171 97.000000 1.000000 4.000000 1.000000 -60.708740 114.000000 206.000000 -0.204374 0.454993 0.866725
7950.00000000 11180.00000000 30.00000000 150 19 171 97.000000 1.000000 4.000000 1.000000 -60.708740 114.000000 206.000000 -0.457631 0.201238 0.866070
7950.00000000 11200.00000000 30.00000000 150 19 171 97.000000 1.000000 4.000000 1.000000 -60.708740 114.000000 206.000000 -0.432294 0.341119 0.834721
7940.00000000 11190.00000000 30.00000000 150 19 171 97.000000 1.000000 4.000000 1.000000 -60.708740 114.000000 206.000000 -0.213045 0.088457 0.973030
7950.00000000 11180.00000000 40.00000000 150 19 171 97.000000 1.000000 4.000000 1.000000 -60.708740 114.000000 206.000000 -0.451082 0.474046 0.756178
7940.00000000 11180.00000000 20.00000000 150 19 171 97.000000 1.000000 4.000000 1.000000 -60.708740 114.000000 206.000000 -0.436102 0.259838 0.861568
7990.00000000 11150.00000000 90.00000000 150 19 171 97.000000 1.000000 4.000000 1.000000 -60.708740 114.000000 206.000000 -0.039150 0.454952 0.889655
7990.00000000 11150.00000000 90.00000000 150 19 171 97.000000 1.000000 4.000000 1.000000 -60.708740 114.000000 206.000000 -0.039150 0.454952 0.889655
7980.00000000 11120.00000000 90.00000000 150 19 171 97.000000 1.000000 4.000000 1.000000 -60.708740 114.000000 206.000000 0.239676 0.397475 0.885759
7880.00000000 11210.00000000 -10.00000000 150 19 171 97.000000 1.000000 4.000000 1.000000 -60.708740 114.000000 206.000000 -0.418808 0.520636 0.744001
7900.00000000 11240.00000000 -10.00000000 150 19 171 97.000000 1.000000 4.000000 1.000000 -60.708740 114.000000 206.000000 -0.329988 0.232000 0.915032
7880.00000000 11220.00000000 10.00000000 150 19 171 97.000000 1.000000 4.000000 1.000000 -60.708740 114.000000 206.000000 -0.267745 0.215028 0.939189
7790.00000000 11220.00000000 -10.00000000 150 19 171 97.000000 1.000000 4.000000 1.000000 -60.708740 114.000000 206.000000 0.279371 -0.704014 -0.652929
8310.00000000 10970.00000000 340.00000000 150 19 171 97.000000 1.000000 4.000000 1.000000 -60.708740 114.000000 206.000000 0.581604 0.148017 0.799892
8320.00000000 10970.00000000 320.00000000 150 19 171 97.000000 1.000000 4.000000 1.000000 -60.708740 114.000000 206.000000 0.636243 0.322169 0.701001
8300.00000000 10980.00000000 340.00000000 150 19 171 97.000000 1.000000 4.000000 1.000000 -60.708740 114.000000 206.000000 0.232339 0.232339 0.944477
8300.00000000 10980.00000000 340.00000000 150 19 171 97.000000 1.000000 4.000000 1.000000 -60.708740 114.000000 206.000000 0.232339 0.232339 0.944477
8330.00000000 10970.00000000 320.00000000 150 19 171 97.000000 1.000000 4.000000 1.000000 -60.708740 114.000000 206.000000 0.729586 0.279382 0.624219
8310.00000000 10990.00000000 330.00000000 150 19 171 97.000000 1.000000 4.000000 1.000000 -60.708740 114.000000 206.000000 0.735300 0.271569 0.620955
8200.00000000 10940.00000000 320.00000000 150 19 171 97.000000 1.000000 4.000000 1.000000 -60.708740 114.000000 206.000000 0.433142 0.366505 0.823445
8220.00000000 10910.00000000 330.00000000 150 19 171 97.000000 1.000000 4.000000 1.000000 -60.708740 114.000000 206.000000 0.771143 0.198558 0.604908
8220.00000000 10910.00000000 330.00000000 150 19 171 97.000000 1.000000 4.000000 1.000000 -60.708740 114.000000 206.000000 0.771143 0.198558 0.604908
8410.00000000 11080.00000000 190.00000000 150 19 171 97.000000 1.000000 4.000000 1.000000 -60.708740 114.000000 206.000000 0.699902 0.021039 0.713929
8410.00000000 11040.00000000 170.00000000 150 19 171 97.000000 1.000000 4.000000 1.000000 -60.708740 114.000000 206.000000 0.611468 -0.208983 0.763173
8370.00000000 11060.00000000 190.00000000 150 19 171 97.000000 1.000000 4.000000 1.000000 -60.708740 114.000000 206.000000 0.648905 -0.185621 0.737880
8270.00000000 11000.00000000 240.00000000 150 19 171 97.000000 1.000000 4.000000 1.000000 -60.708740 114.000000 206.000000 0.514556 0.419207 0.747996
8260.00000000 11020.00000000 270.00000000 150 19 171 97.000000 1.000000 4.000000 1.000000 -60.708740 114.000000 206.000000 0.460910 0.402690 0.790824
8270.00000000 11010.00000000 240.00000000 150 19 171 97.000000 1.000000 4.000000 1.000000 -60.708740 114.000000 206.000000 0.378210 0.558309 0.738409
8270.00000000 11000.00000000 270.00000000 150 19 171 97.000000 1.000000 4.000000 1.000000 -60.708740 114.000000 206.000000 0.287122 0.431451 0.855225
8300.00000000 11020.00000000 250.00000000 150 19 171 97.000000 1.000000 4.000000 1.000000 -60.708740 114.000000 206.000000 0.524143 0.168741 0.834746
8260.00000000 11010.00000000 240.00000000 150 19 171 97.000000 1.000000 4.000000 1.000000 -60.708740 114.000000 206.000000 0.131964 0.322427 0.937351
8320.00000000 11050.00000000 210.00000000 150 19 171 97.000000 1.000000 4.000000 1.000000 -60.708740 114.000000 206.000000 0.339864 0.124207 0.932237
8330.00000000 11080.00000000 150.00000000 150 19 171 97.000000 1.000000 4.000000 1.000000 -60.708740 114.000000 206.000000 0.332487 0.458549 0.824127
8320.00000000 11070.00000000 160.00000000 150 19 171 97.000000 1.000000 4.000000 1.000000 -60.708740 114.000000 206.000000 0.329546 0.072211 0.941374
8320.00000000 11010.00000000 230.00000000 150 19 171 97.000000 1.000000 4.000000 1.000000 -60.708740 114.000000 206.000000 0.441196 0.025325 0.897054
8330.00000000 11020.00000000 210.00000000 150 19 171 97.000000 1.000000 4.000000 1.000000 -60.708740 114.000000 206.000000 0.523487 0.181495 0.832479
8310.00000000 11000.00000000 230.00000000 150 19 171 97.000000 1.000000 4.000000 1.000000 -60.708740 114.000000 206.000000 0.253525 0.061196 0.965391
8260.00000000 11050.00000000 200.00000000 150 19 171 97.000000 1.000000 4.000000 1.000000 -60.708740 114.000000 206.000000 0.687581 0.369226 0.625223
8260.00000000 11070.00000000 190.00000000 150 19 171 97.000000 1.000000 4.000000 1.000000 -60.708740 114.000000 206.000000 0.596135 0.372789 0.711092
8270.00000000 11020.00000000 230.00000000 150 19 171 97.000000 1.000000 4.000000 1.000000 -60.708740 114.000000 206.000000 0.360343 0.449239 0.817519
8270.00000000 11000.00000000 230.00000000 150 19 171 97.000000 1.000000 4.000000 1.000000 -60.708740 114.000000 206.000000 0.532542 0.593404 0.603548
8280.00000000 11020.00000000 190.00000000 150 19 171 97.000000 1.000000 4.000000 1.000000 -60.708740 114.000000 206.000000 0.494853 0.541822 0.679374
8270.00000000 11020.00000000 190.00000000 150 19 171 97.000000 1.000000 4.000000 1.000000 -60.708740 114.000000 206.000000 0.624914 0.424942 0.654910
8270.00000000 11040.00000000 190.00000000 150 19 171 97.000000 1.000000 4.000000 1.000000 -60.708740 114.000000 206.000000 0.564265 0.341146 0.751814
8300.00000000 10960.00000000 300.00000000 150 19 171 97.000000 1.000000 4.000000 1.000000 -60.708740 114.000000 206.000000 0.418946 0.561354 0.713698
8290.00000000 10990.00000000 270.00000000 150 19 171 97.000000 1.000000 4.000000 1.000000 -60.708740 114.000000 206.000000 0.144443 0.430470 0.890972
8310.00000000 10950.00000000 250.00000000 150 19 171 97.000000 1.000000 4.000000 1.000000 -60.708740 114.000000 206.000000 0.412486 0.402930 0.817008
8270.00000000 10990.00000000 280.00000000 150 19 171 97.000000 1.000000 4.000000 1.000000 -60.708740 114.000000 206.000000 0.264263 0.275691 0.924207
8260.00000000 10990.00000000 240.00000000 150 19 171 97.000000 1.000000 4.000000 1.000000 -60.708740 114.000000 206.000000 0.307647 0.219748 0.925777
8270.00000000 10960.00000000 270.00000000 150 19 171 97.000000 1.000000 4.000000 1.000000 -60.708740 114.000000 206.000000 0.435519 0.320005 0.841380
8280.00000000 10990.00000000 270.00000000 150 19 171 97.000000 1.000000 4.000000 1.000000 -60.708740 114.000000 206.000000 0.173269 0.251173 0.952308
8250.00000000 10990.00000000 240.00000000 150 19 171 97.000000 1.000000 4.000000 1.000000 -60.708740 114.000000 206.000000 0.133856 0.401568 0.905994
8330.00000000 10990.00000000 230.00000000 150 19 171 97.000000 1.000000 4.000000 1.000000 -60.708740 114.000000 206.000000 0.614951 0.402785 0.677938
8220.00000000 11060.00000000 250.00000000 150 19 171 97.000000 1.000000 4.000000 1.000000 -60.708740 114.000000 206.000000 0.332378 0.611251 0.718260
8210.00000000 11050.00000000 240.00000000 150 19 171 97.000000 1.000000 4.000000 1.000000 -60.708740 114.000000 206.000000 0.421793 -0.104404 0.900661
8170.00000000 11000.00000000 240.00000000 150 19 171 97.000000 1.000000 4.000000 1.000000 -60.708740 114.000000 206.000000 0.590037 0.070004 0.804336
8210.00000000 11000.00000000 270.00000000 150 19 171 97.000000 1.000000 4.000000 1.000000 -60.708740 114.000000 206.000000 0.291821 0.575668 0.763837
8230.00000000 11050.00000000 230.00000000 150 19 171 97.000000 1.000000 4.000000 1.000000 -60.708740 114.000000 206.000000 0.287450 0.008562 0.957757
8220.00000000 11010.00000000 230.00000000 150 19 171 97.000000 1.000000 4.000000 1.000000 -60.708740 114.000000 206.000000 0.065772 0.178182 0.981797
8240.00000000 11030.00000000 220.00000000 150 19 171 97.000000 1.000000 4.000000 1.000000 -60.708740 114.000000 206.000000 0.188156 0.412776 0.891187
8200.00000000 11050.00000000 200.00000000 150 19 171 97.000000 1.000000 4.000000 1.000000 -60.708740 114.000000 206.000000 0.348502 -0.001258 0.937307
8190.00000000 11050.00000000 210.00000000 150 19 171 97.000000 1.000000 4.000000 1.000000 -60.708740 114.000000 206.000000 0.600188 0.079161 0.795932
8180.00000000 11070.00000000 200.00000000 150 19 171 97.000000 1.000000 4.000000 1.000000 -60.708740 114.000000 206.000000 0.066055 0.240539 0.968389
8180.00000000 11080.00000000 220.00000000 150 19 171 97.000000 1.000000 4.000000 1.000000 -60.708740 114.000000 206.000000 0.614688 0.490066 0.618056
8180.00000000 11060.00000000 180.00000000 150 19 171 97.000000 1.000000 4.000000 1.000000 -60.708740 114.000000 206.000000 0.600265 0.103695 0.793051
8190.00000000 11080.00000000 180.00000000 150 19 171 97.000000 1.000000 4.000000 1.000000 -60.708740 114.000000 206.000000 0.306850 0.151379 0.939642
8180.00000000 11060.00000000 180.00000000 150 19 171 97.000000 1.000000 4.000000 1.000000 -60.708740 114.000000 206.000000 0.600265 0.103695 0.793051
8180.00000000 11080.00000000 190.00000000 150 19 171 97.000000 1.000000 4.000000 1.000000 -60.708740 114.000000 206.000000 0.062851 0.296297 0.953026
8180.00000000 11080.00000000 190.00000000 150 19 171 97.000000 1.000000 4.000000 1.000000 -60.708740 114.000000 206.000000 0.062851 0.296297 0.953026
8200.00000000 11040.00000000 200.00000000 150 19 171 97.000000 1.000000 4.000000 1.000000 -60.708740 114.000000 206.000000 0.200390 0.249465 0.947423
8190.00000000 11020.00000000 230.00000000 150 19 171 97.000000 1.000000 4.000000 1.000000 -60.708740 114.000000 206.000000 0.201012 0.036872 0.978895
8190.00000000 11020.00000000 230.00000000 150 19 171 97.000000 1.000000 4.000000 1.000000 -60.708740 114.000000 206.000000 0.201012 0.036872 0.978895
8200.00000000 11010.00000000 190.00000000 150 19 171 97.000000 1.000000 4.000000 1.000000 -60.708740 114.000000 206.000000 0.696078 0.175932 0.696078
8180.00000000 11020.00000000 150.00000000 150 19 171 97.000000 1.000000 4.000000 1.000000 -60.708740 114.000000 206.000000 0.411475 -0.049591 0.910071
8220.00000000 10960.00000000 290.00000000 150 19 171 97.000000 1.000000 4.000000 1.000000 -60.708740 114.000000 206.000000 0.283349 0.499383 0.818737
8220.00000000 10960.00000000 290.00000000 150 19 171 97.000000 1.000000 4.000000 1.000000 -60.708740 114.000000 206.000000 0.283349 0.499383 0.818737
8220.00000000 10990.00000000 270.00000000 150 19 171 97.000000 1.000000 4.000000 1.000000 -60.708740 114.000000 206.000000 0.148266 0.500582 0.852898
8210.00000000 10990.00000000 270.00000000 150 19 171 97.000000 1.000000 4.000000 1.000000 -60.708740 114.000000 206.000000 0.521346 0.521346 0.675571
8230.00000000 10990.00000000 270.00000000 150 19 171 97.000000 1.000000 4.000000 1.000000 -60.708740 114.000000 206.000000 0.170605 0.438907 0.882188
8220.00000000 10990.00000000 240.00000000 150 19 171 97.000000 1.000000 4.000000 1.000000 -60.708740 114.000000 206.000000 0.088200 0.378583 0.921355
8240.00000000 10940.00000000 280.00000000 150 19 171 97.000000 1.000000 4.000000 1.000000 -60.708740 114.000000 206.000000 0.156631 0.376760 0.912973
8230.00000000 10930.00000000 250.00000000 150 19 171 97.000000 1.000000 4.000000 1.000000 -60.708740 114.000000 206.000000 0.402029 0.530022 0.746625
8200.00000000 10980.00000000 280.00000000 150 19 171 97.000000 1.000000 4.000000 1.000000 -60.708740 114.000000 206.000000 0.107588 0.358173 0.927436
8180.00000000 10970.00000000 240.00000000 150 19 171 97.000000 1.000000 4.000000 1.000000 -60.708740 114.000000 206.000000 0.387897 0.299669 0.871627
8200.00000000 10950.00000000 280.00000000 150 19 171 97.000000 1.000000 4.000000 1.000000 -60.708740 114.000000 206.000000 0.451514 0.551481 0.701430
8190.00000000 10950.00000000 280.00000000 150 19 171 97.000000 1.000000 4.000000 1.000000 -60.708740 114.000000 206.000000 0.613327 0.525468 0.589673
8190.00000000 10990.00000000 210.00000000 150 19 171 97.000000 1.000000 4.000000 1.000000 -60.708740 114.000000 206.000000 0.389796 -0.016835 0.920747
8200.00000000 10990.00000000 200.00000000 150 19 171 97.000000 1.000000 4.000000 1.000000 -60.708740 114.000000 206.000000 0.377071 0.496827 0.781653
8190.00000000 10970.00000000 220.00000000 150 19 171 97.000000 1.000000 4.000000 1.000000 -60.708740 114.000000 206.000000 0.628278 0.268808 0.730075
8160.00000000 11030.00000000 250.00000000 150 19 171 97.000000 1.000000 4.000000 1.000000 -60.708740 114.000000 206.000000 0.521407 0.400454 0.753506
8110.00000000 11000.00000000 240.00000000 150 19 171 97.000000 1.000000 4.000000 1.000000 -60.708740 114.000000 206.000000 0.043354 0.258885 0.964935
8150.00000000 11080.00000000 200.00000000 150 19 171 97.000000 1.000000 4.000000 1.000000 -60.708740 114.000000 206.000000 0.439014 -0.028022 0.898043
8130.00000000 11050.00000000 220.00000000 150 19 171 97.000000 1.000000 4.000000 1.000000 -60.708740 114.000000 206.000000 -0.025643 0.481812 0.875899
8150.00000000 11080.00000000 180.00000000 150 19 171 97.000000 1.000000 4.000000 1.000000 -60.708740 114.000000 206.000000 0.393312 0.564460 0.725734
8160.00000000 11060.00000000 190.00000000 150 19 171 97.000000 1.000000 4.000000 1.000000 -60.708740 114.000000 206.000000 -0.033390 0.431404 0.901541
8160.00000000 11060.00000000 190.00000000 150 19 171 97.000000 1.000000 4.000000 1.000000 -60.708740 114.000000 206.000000 -0.033390 0.431404 0.901541
8140.00000000 11010.00000000 220.00000000 150 19 171 97.000000 1.000000 4.000000 1.000000 -60.708740 114.000000 206.000000 0.177679 0.099255 0.979070
