//X Y Z R G B PointSourceId ScanDirectionFlag NumberOfReturns ReturnNumber GpsTime Intensity Classification Nx Ny Nz
12.53999996 11.85999966 -1.46000004 115 237 79 0.000000 0.000000 0.000000 0.000000 51.808199 0.000000 217.000000 0.813610 -0.233122 -0.532629
12.56000042 11.89999962 -1.53999996 115 237 79 0.000000 0.000000 0.000000 0.000000 51.808199 0.000000 217.000000 -0.771087 -0.061515 0.633751
12.52999973 11.94999981 -1.59000003 115 237 79 0.000000 0.000000 0.000000 0.000000 51.808199 0.000000 217.000000 0.909861 0.109405 -0.400228
12.52999973 11.93999958 -1.61000001 115 237 79 0.000000 0.000000 0.000000 0.000000 51.808199 0.000000 217.000000 0.833730 0.069360 -0.547799
12.43999958 11.93000031 -1.38999999 115 237 79 0.000000 0.000000 0.000000 0.000000 51.808199 0.000000 217.000000 0.749002 -0.055853 -0.660210
12.43999958 11.92000008 -1.42999995 115 237 79 0.000000 0.000000 0.000000 0.000000 51.808199 0.000000 217.000000 0.707432 -0.055963 -0.704562
12.43999958 11.88000011 -1.38999999 115 237 79 0.000000 0.000000 0.000000 0.000000 51.808199 0.000000 217.000000 0.879286 -0.285052 -0.381577
12.43999958 11.90999985 -1.44000006 115 237 79 0.000000 0.000000 0.000000 0.000000 51.808199 0.000000 217.000000 -0.576883 -0.273427 0.769704
12.46000004 11.81999969 -1.37000000 115 237 79 0.000000 0.000000 0.000000 0.000000 51.808199 0.000000 217.000000 0.909756 0.044085 -0.412797
12.43999958 11.85000038 -1.52999997 115 237 79 0.000000 0.000000 0.000000 0.000000 51.808199 0.000000 217.000000 0.737906 -0.101628 -0.667208
12.39999962 11.96000004 -1.48000002 115 237 79 0.000000 0.000000 0.000000 0.000000 51.808199 0.000000 217.000000 0.381147 0.501167 -0.776890
12.39000034 11.94999981 -1.50000000 115 237 79 0.000000 0.000000 0.000000 0.000000 51.808199 0.000000 217.000000 0.832060 0.175407 -0.526222
12.39999962 11.90999985 -1.48000002 115 237 79 0.000000 0.000000 0.000000 0.000000 51.808199 0.000000 217.000000 0.748548 0.001379 -0.663079
12.43000031 11.86999989 -1.59000003 115 237 79 0.000000 0.000000 0.000000 0.000000 51.808199 0.000000 217.000000 0.628832 0.534423 -0.564768
12.40999985 11.85000038 -1.55999994 115 237 79 0.000000 0.000000 0.000000 0.000000 51.808199 0.000000 217.000000 0.834506 0.227315 -0.501924
12.39999962 11.88000011 -1.53999996 115 237 79 0.000000 0.000000 0.000000 0.000000 51.808199 0.000000 217.000000 -0.710298 -0.301192 0.636208
12.35000038 11.81000042 -1.60000002 115 237 79 0.000000 0.000000 0.000000 0.000000 51.808199 0.000000 217.000000 0.776331 0.139111 -0.614783
12.38000011 11.86999989 -1.65999997 115 237 79 0.000000 0.000000 0.000000 0.000000 51.808199 0.000000 217.000000 0.680257 0.220497 -0.699022
12.31000042 11.86999989 -1.55999994 115 237 79 0.000000 0.000000 0.000000 0.000000 51.808199 0.000000 217.000000 0.720126 0.304483 -0.623465
12.39000034 11.93000031 -1.74000001 115 237 79 0.000000 0.000000 0.000000 0.000000 51.808199 0.000000 217.000000 -0.669886 -0.136375 0.729832
12.39999962 11.93999958 -1.75000000 115 237 79 0.000000 0.000000 0.000000 0.000000 51.808199 0.000000 217.000000 0.898059 0.255114 -0.358339
13.14999962 12.52999973 -0.20000000 115 237 79 0.000000 0.000000 0.000000 0.000000 51.808199 0.000000 217.000000 0.986017 0.026463 -0.164528
13.14999962 12.52999973 -0.23000000 115 237 79 0.000000 0.000000 0.000000 0.000000 51.808199 0.000000 217.000000 0.956761 0.062425 -0.284098
13.14999962 12.52999973 -0.23000000 115 237 79 0.000000 0.000000 0.000000 0.000000 51.808199 0.000000 217.000000 0.956761 0.062425 -0.284098
13.14999962 12.52999973 -0.23000000 115 237 79 0.000000 0.000000 0.000000 0.000000 51.808199 0.000000 217.000000 0.956761 0.062425 -0.284098
13.13000011 12.48999977 -0.18000001 115 237 79 0.000000 0.000000 0.000000 0.000000 51.808199 0.000000 217.000000 0.893521 -0.287896 -0.344580
13.14000034 12.48999977 -0.28999999 115 237 79 0.000000 0.000000 0.000000 0.000000 51.808199 0.000000 217.000000 0.867811 -0.297404 -0.398064
13.13000011 12.47999954 -0.25000000 115 237 79 0.000000 0.000000 0.000000 0.000000 51.808199 0.000000 217.000000 0.967043 -0.001195 -0.254611
13.02000046 12.56999969 -0.20000000 115 237 79 0.000000 0.000000 0.000000 0.000000 51.808199 0.000000 217.000000 0.836284 -0.547910 0.020598
13.06000042 12.56000042 -0.31000000 115 237 79 0.000000 0.000000 0.000000 0.000000 51.808199 0.000000 217.000000 0.767664 -0.270661 -0.580892
13.06000042 12.56000042 -0.31000000 115 237 79 0.000000 0.000000 0.000000 0.000000 51.808199 0.000000 217.000000 0.767664 -0.270661 -0.580892
13.11999989 12.43000031 -0.15000001 115 237 79 0.000000 0.000000 0.000000 0.000000 51.808199 0.000000 217.000000 0.767736 -0.559373 0.312544
13.11999989 12.47000027 -0.15000001 115 237 79 0.000000 0.000000 0.000000 0.000000 51.808199 0.000000 217.000000 0.835354 -0.490751 0.247683
13.14000034 12.43999958 -0.23000000 115 237 79 0.000000 0.000000 0.000000 0.000000 51.808199 0.000000 217.000000 0.896588 -0.405702 -0.177585
13.13000011 12.44999981 -0.20000000 115 237 79 0.000000 0.000000 0.000000 0.000000 51.808199 0.000000 217.000000 0.842992 -0.364410 -0.395690
13.13000011 12.43999958 -0.16000000 115 237 79 0.000000 0.000000 0.000000 0.000000 51.808199 0.000000 217.000000 0.853397 -0.517083 -0.065862
13.13000011 12.44999981 -0.20000000 115 237 79 0.000000 0.000000 0.000000 0.000000 51.808199 0.000000 217.000000 0.842992 -0.364410 -0.395690
13.11999989 12.43999958 -0.17000000 115 237 79 0.000000 0.000000 0.000000 0.000000 51.808199 0.000000 217.000000 -0.631476 0.772443 0.067607
13.11999989 12.43999958 -0.20999999 115 237 79 0.000000 0.000000 0.000000 0.000000 51.808199 0.000000 217.000000 0.878855 -0.393450 0.269837
13.11999989 12.43000031 -0.16000000 115 237 79 0.000000 0.000000 0.000000 0.000000 51.808199 0.000000 217.000000 0.773153 -0.627550 -0.091730
13.13000011 12.43999958 -0.27000001 115 237 79 0.000000 0.000000 0.000000 0.000000 51.808199 0.000000 217.000000 0.901412 -0.220605 -0.372545
13.11999989 12.43999958 -0.28999999 115 237 79 0.000000 0.000000 0.000000 0.000000 51.808199 0.000000 217.000000 0.964132 -0.253985 0.077080
13.10999966 12.42000008 -0.28999999 115 237 79 0.000000 0.000000 0.000000 0.000000 51.808199 0.000000 217.000000 -0.673370 0.673370 0.305197
13.06000042 12.39999962 -0.19000000 115 237 79 0.000000 0.000000 0.000000 0.000000 51.808199 0.000000 217.000000 0.857446 -0.513922 -0.025901
13.02999973 12.39000034 -0.22000000 115 237 79 0.000000 0.000000 0.000000 0.000000 51.808199 0.000000 217.000000 0.828442 -0.400757 -0.391253
13.03999996 12.36999989 -0.31000000 115 237 79 0.000000 0.000000 0.000000 0.000000 51.808199 0.000000 217.000000 0.842362 -0.493275 0.217041
12.97000027 12.53999996 -0.13000000 115 237 79 0.000000 0.000000 0.000000 0.000000 51.808199 0.000000 217.000000 0.934436 -0.348591 -0.072899
13.00000000 12.59000015 -0.23000000 115 237 79 0.000000 0.000000 0.000000 0.000000 51.808199 0.000000 217.000000 0.973821 -0.220603 -0.054846
12.97999954 12.57999992 -0.19000000 115 237 79 0.000000 0.000000 0.000000 0.000000 51.808199 0.000000 217.000000 0.860978 -0.506050 0.051298
12.97000027 12.56999969 -0.22000000 115 237 79 0.000000 0.000000 0.000000 0.000000 51.808199 0.000000 217.000000 0.874115 -0.331035 -0.355443
12.98999977 12.56000042 -0.23000000 115 237 79 0.000000 0.000000 0.000000 0.000000 51.808199 0.000000 217.000000 0.868304 -0.480797 0.121993
12.97999954 12.52999973 -0.27000001 115 237 79 0.000000 0.000000 0.000000 0.000000 51.808199 0.000000 217.000000 0.782899 -0.598153 -0.171117
13.14999962 12.51000023 -0.33000001 115 237 79 0.000000 0.000000 0.000000 0.000000 51.808199 0.000000 217.000000 0.822105 -0.239074 -0.516708
13.14000034 12.48999977 -0.34999999 115 237 79 0.000000 0.000000 0.000000 0.000000 51.808199 0.000000 217.000000 0.855849 -0.183077 -0.483741
13.13000011 12.47999954 -0.33000001 115 237 79 0.000000 0.000000 0.000000 0.000000 51.808199 0.000000 217.000000 0.826617 -0.046156 -0.560869
13.11999989 12.48999977 -0.40000001 115 237 79 0.000000 0.000000 0.000000 0.000000 51.808199 0.000000 217.000000 0.842693 0.090135 -0.530796
13.11999989 12.47999954 -0.40000001 115 237 79 0.000000 0.000000 0.000000 0.000000 51.808199 0.000000 217.000000 0.766300 -0.001376 -0.642481
13.06000042 12.50000000 -0.63000000 115 237 79 0.000000 0.000000 0.000000 0.000000 51.808199 0.000000 217.000000 0.851898 0.411208 -0.324311
13.14999962 12.46000004 -0.38000000 115 237 79 0.000000 0.000000 0.000000 0.000000 51.808199 0.000000 217.000000 0.895957 -0.044595 -0.441897
13.11999989 12.44999981 -0.36000001 115 237 79 0.000000 0.000000 0.000000 0.000000 51.808199 0.000000 217.000000 0.932207 -0.215125 -0.291051
13.13000011 12.46000004 -0.44000000 115 237 79 0.000000 0.000000 0.000000 0.000000 51.808199 0.000000 217.000000 0.766097 0.052785 -0.640554
13.10000038 12.40999985 -0.44000000 115 237 79 0.000000 0.000000 0.000000 0.000000 51.808199 0.000000 217.000000 0.805921 -0.398955 -0.437408
13.07999992 12.35999966 -0.37000000 115 237 79 0.000000 0.000000 0.000000 0.000000 51.808199 0.000000 217.000000 0.937822 -0.271731 0.215992
13.06000042 12.34000015 -0.40000001 115 237 79 0.000000 0.000000 0.000000 0.000000 51.808199 0.000000 217.000000 0.793176 -0.271722 -0.545014
13.09000015 12.39000034 -0.52999997 115 237 79 0.000000 0.000000 0.000000 0.000000 51.808199 0.000000 217.000000 0.684643 -0.416091 -0.598441
13.05000019 12.35000038 -0.55000001 115 237 79 0.000000 0.000000 0.000000 0.000000 51.808199 0.000000 217.000000 0.888288 0.129750 -0.440579
13.02999973 12.31999969 -0.66000003 115 237 79 0.000000 0.000000 0.000000 0.000000 51.808199 0.000000 217.000000 0.822515 -0.215166 -0.526471
13.09000015 12.38000011 -0.69999999 115 237 79 0.000000 0.000000 0.000000 0.000000 51.808199 0.000000 217.000000 0.799120 -0.200162 -0.566871
13.06000042 12.36999989 -0.69999999 115 237 79 0.000000 0.000000 0.000000 0.000000 51.808199 0.000000 217.000000 0.747873 -0.219231 -0.626597
13.03999996 12.32999992 -0.72000003 115 237 79 0.000000 0.000000 0.000000 0.000000 51.808199 0.000000 217.000000 0.737900 -0.219966 -0.638058
13.01000023 12.31000042 -0.80000001 115 237 79 0.000000 0.000000 0.000000 0.000000 51.808199 0.000000 217.000000 0.975001 0.197989 -0.100862
13.06000042 12.39000034 -0.95999998 115 237 79 0.000000 0.000000 0.000000 0.000000 51.808199 0.000000 217.000000 0.697482 -0.120461 -0.706405
13.02999973 12.28999996 -0.68000001 115 237 79 0.000000 0.000000 0.000000 0.000000 51.808199 0.000000 217.000000 0.818814 -0.548380 -0.169772
13.01000023 12.25000000 -0.95999998 115 237 79 0.000000 0.000000 0.000000 0.000000 51.808199 0.000000 217.000000 0.858203 0.227748 -0.460021
13.02000046 12.28999996 -0.99000001 115 237 79 0.000000 0.000000 0.000000 0.000000 51.808199 0.000000 217.000000 0.777160 -0.276992 -0.565064
12.89999962 12.48999977 -0.47000000 115 237 79 0.000000 0.000000 0.000000 0.000000 51.808199 0.000000 217.000000 0.695329 0.169630 -0.698386
12.96000004 12.53999996 -0.50999999 115 237 79 0.000000 0.000000 0.000000 0.000000 51.808199 0.000000 217.000000 0.728697 0.149360 -0.668350
12.93000031 12.38000011 -0.36000001 115 237 79 0.000000 0.000000 0.000000 0.000000 51.808199 0.000000 217.000000 0.787478 -0.611198 -0.079470
12.93000031 12.39000034 -0.34999999 115 237 79 0.000000 0.000000 0.000000 0.000000 51.808199 0.000000 217.000000 0.794254 -0.597526 0.110109
12.92000008 12.35999966 -0.47999999 115 237 79 0.000000 0.000000 0.000000 0.000000 51.808199 0.000000 217.000000 0.998557 -0.009332 -0.052883
12.89000034 12.43999958 -0.43000001 115 237 79 0.000000 0.000000 0.000000 0.000000 51.808199 0.000000 217.000000 0.742022 -0.240020 -0.625934
12.90999985 12.42000008 -0.49000001 115 237 79 0.000000 0.000000 0.000000 0.000000 51.808199 0.000000 217.000000 0.829787 0.155863 -0.535873
12.92000008 12.43000031 -0.50999999 115 237 79 0.000000 0.000000 0.000000 0.000000 51.808199 0.000000 217.000000 0.904054 0.146181 -0.401644
12.98999977 12.31000042 -0.54000002 115 237 79 0.000000 0.000000 0.000000 0.000000 51.808199 0.000000 217.000000 0.802900 -0.186686 -0.566128
12.88000011 12.47000027 -0.52999997 115 237 79 0.000000 0.000000 0.000000 0.000000 51.808199 0.000000 217.000000 0.989091 -0.058861 -0.135033
12.89999962 12.44999981 -0.67000002 115 237 79 0.000000 0.000000 0.000000 0.000000 51.808199 0.000000 217.000000 0.718546 -0.133509 -0.682544
12.89000034 12.39999962 -0.63999999 115 237 79 0.000000 0.000000 0.000000 0.000000 51.808199 0.000000 217.000000 0.783326 -0.032230 -0.620775
13.00000000 12.50000000 -0.87000000 115 237 79 0.000000 0.000000 0.000000 0.000000 51.808199 0.000000 217.000000 0.771236 0.301788 -0.560463
13.00000000 12.51000023 -0.87000000 115 237 79 0.000000 0.000000 0.000000 0.000000 51.808199 0.000000 217.000000 -0.647919 -0.308610 0.696392
12.93000031 12.51000023 -1.00999999 115 237 79 0.000000 0.000000 0.000000 0.000000 51.808199 0.000000 217.000000 0.854193 0.228289 -0.467160
12.90999985 12.52999973 -0.89999998 115 237 79 0.000000 0.000000 0.000000 0.000000 51.808199 0.000000 217.000000 -0.499732 -0.509761 0.700294
12.84000015 12.47999954 -0.92000002 115 237 79 0.000000 0.000000 0.000000 0.000000 51.808199 0.000000 217.000000 -0.433384 -0.218926 0.874214
12.97999954 12.31999969 -0.69000000 115 237 79 0.000000 0.000000 0.000000 0.000000 51.808199 0.000000 217.000000 0.915545 -0.334885 -0.222778
12.97000027 12.31000042 -0.81999999 115 237 79 0.000000 0.000000 0.000000 0.000000 51.808199 0.000000 217.000000 0.982810 -0.087815 -0.162398
13.00000000 12.31000042 -0.82999998 115 237 79 0.000000 0.000000 0.000000 0.000000 51.808199 0.000000 217.000000 0.967726 0.140083 -0.209481
12.85999966 12.43000031 -0.74000001 115 237 79 0.000000 0.000000 0.000000 0.000000 51.808199 0.000000 217.000000 0.950280 0.151455 -0.272083
12.86999989 12.47000027 -0.73000002 115 237 79 0.000000 0.000000 0.000000 0.000000 51.808199 0.000000 217.000000 0.905648 0.161163 -0.392210
12.89000034 12.44999981 -0.68000001 115 237 79 0.000000 0.000000 0.000000 0.000000 51.808199 0.000000 217.000000 0.750339 -0.250113 -0.611911
12.85999966 12.43000031 -0.74000001 115 237 79 0.000000 0.000000 0.000000 0.000000 51.808199 0.000000 217.000000 0.950280 0.151455 -0.272083
12.86999989 12.43999958 -0.75999999 115 237 79 0.000000 0.000000 0.000000 0.000000 51.808199 0.000000 217.000000 0.779143 0.517815 -0.353276
12.86999989 12.44999981 -0.80000001 115 237 79 0.000000 0.000000 0.000000 0.000000 51.808199 0.000000 217.000000 0.559030 0.602942 -0.569163
12.89000034 12.36999989 -0.83999997 115 237 79 0.000000 0.000000 0.000000 0.000000 51.808199 0.000000 217.000000 0.778122 -0.262518 -0.570623
12.86999989 12.35000038 -0.80000001 115 237 79 0.000000 0.000000 0.000000 0.000000 51.808199 0.000000 217.000000 0.993227 0.003256 -0.116148
12.84000015 12.44999981 -1.00000000 115 237 79 0.000000 0.000000 0.000000 0.000000 51.808199 0.000000 217.000000 -0.370241 -0.636814 0.676306
12.86999989 12.31999969 -0.88999999 115 237 79 0.000000 0.000000 0.000000 0.000000 51.808199 0.000000 217.000000 0.985226 0.077063 -0.152941
12.86999989 12.32999992 -0.86000001 115 237 79 0.000000 0.000000 0.000000 0.000000 51.808199 0.000000 217.000000 0.995407 0.044996 -0.084505
12.97999954 12.30000019 -0.63999999 115 237 79 0.000000 0.000000 0.000000 0.000000 51.808199 0.000000 217.000000 0.941322 -0.327817 0.080309
12.97000027 12.26000023 -0.85000002 115 237 79 0.000000 0.000000 0.000000 0.000000 51.808199 0.000000 217.000000 0.802739 -0.012392 -0.596202
13.02000046 12.25000000 -1.05999994 115 237 79 0.000000 0.000000 0.000000 0.000000 51.808199 0.000000 217.000000 0.799490 -0.278015 -0.532470
12.85000038 12.44999981 -1.16999996 115 237 79 0.000000 0.000000 0.000000 0.000000 51.808199 0.000000 217.000000 -0.664264 -0.179489 0.725628
12.81000042 12.40999985 -1.04999995 115 237 79 0.000000 0.000000 0.000000 0.000000 51.808199 0.000000 217.000000 0.871283 0.367739 -0.325014
12.81000042 12.40999985 -1.04999995 115 237 79 0.000000 0.000000 0.000000 0.000000 51.808199 0.000000 217.000000 0.871283 0.367739 -0.325014
12.76000023 12.43999958 -1.21000004 115 237 79 0.000000 0.000000 0.000000 0.000000 51.808199 0.000000 217.000000 0.555084 0.451735 -0.698439
12.75000000 12.35999966 -1.34000003 115 237 79 0.000000 0.000000 0.000000 0.000000 51.808199 0.000000 217.000000 0.645590 0.671874 -0.363042
12.69999981 12.35000038 -1.36000001 115 237 79 0.000000 0.000000 0.000000 0.000000 51.808199 0.000000 217.000000 0.663758 0.679907 -0.311692
12.75000000 12.31000042 -1.42999995 115 237 79 0.000000 0.000000 0.000000 0.000000 51.808199 0.000000 217.000000 0.529740 0.654186 -0.539830
12.67000008 12.40999985 -1.48000002 115 237 79 0.000000 0.000000 0.000000 0.000000 51.808199 0.000000 217.000000 0.773075 0.418275 -0.476866
12.68999958 12.36999989 -1.42999995 115 237 79 0.000000 0.000000 0.000000 0.000000 51.808199 0.000000 217.000000 0.830934 0.367377 -0.417832
12.67000008 12.35999966 -1.50999999 115 237 79 0.000000 0.000000 0.000000 0.000000 51.808199 0.000000 217.000000 -0.379399 -0.306262 0.873075
12.69999981 12.34000015 -1.45000005 115 237 79 0.000000 0.000000 0.000000 0.000000 51.808199 0.000000 217.000000 0.633865 0.443204 -0.633865
12.68999958 12.31000042 -1.49000001 115 237 79 0.000000 0.000000 0.000000 0.000000 51.808199 0.000000 217.000000 0.616736 0.663282 -0.423902
12.98999977 12.26000023 -1.01999998 115 237 79 0.000000 0.000000 0.000000 0.000000 51.808199 0.000000 217.000000 -0.767163 -0.281134 0.576563
12.93000031 12.30000019 -1.26999998 115 237 79 0.000000 0.000000 0.000000 0.000000 51.808199 0.000000 217.000000 0.797171 -0.070128 -0.599667
12.81999969 12.23999977 -1.38000000 115 237 79 0.000000 0.000000 0.000000 0.000000 51.808199 0.000000 217.000000 0.868505 0.412197 -0.275305
12.77999973 12.22000027 -1.47000003 115 237 79 0.000000 0.000000 0.000000 0.000000 51.808199 0.000000 217.000000 0.683043 0.202899 -0.701629
12.75000000 12.22999954 -1.55999994 115 237 79 0.000000 0.000000 0.000000 0.000000 51.808199 0.000000 217.000000 0.728905 0.606074 -0.318391
12.71000004 12.22000027 -1.57000005 115 237 79 0.000000 0.000000 0.000000 0.000000 51.808199 0.000000 217.000000 0.875243 0.254589 -0.411259
12.69999981 12.21000004 -1.57000005 115 237 79 0.000000 0.000000 0.000000 0.000000 51.808199 0.000000 217.000000 -0.356829 -0.302627 0.883793
12.50000000 12.43000031 -0.70999998 115 237 79 0.000000 0.000000 0.000000 0.000000 51.808199 0.000000 217.000000 -0.208882 0.765902 -0.608080
12.50000000 12.42000008 -0.72000003 115 237 79 0.000000 0.000000 0.000000 0.000000 51.808199 0.000000 217.000000 0.031889 -0.564297 0.824956
12.50000000 12.43000031 -0.79000002 115 237 79 0.000000 0.000000 0.000000 0.000000 51.808199 0.000000 217.000000 -0.146931 0.823704 -0.547652
12.61999989 12.43999958 -0.92000002 115 237 79 0.000000 0.000000 0.000000 0.000000 51.808199 0.000000 217.000000 -0.504209 -0.377752 0.776580
12.60999966 12.42000008 -0.99000001 115 237 79 0.000000 0.000000 0.000000 0.000000 51.808199 0.000000 217.000000 -0.356225 -0.444886 0.821693
12.60000038 12.39999962 -0.95999998 115 237 79 0.000000 0.000000 0.000000 0.000000 51.808199 0.000000 217.000000 0.304739 0.711058 -0.633664
12.61999989 12.39999962 -0.94999999 115 237 79 0.000000 0.000000 0.000000 0.000000 51.808199 0.000000 217.000000 0.722800 0.500144 -0.476882
12.59000015 12.42000008 -0.95999998 115 237 79 0.000000 0.000000 0.000000 0.000000 51.808199 0.000000 217.000000 -0.231178 -0.384315 0.893789
12.55000019 12.43000031 -0.95999998 115 237 79 0.000000 0.000000 0.000000 0.000000 51.808199 0.000000 217.000000 0.206243 0.711770 -0.671452
12.51000023 12.43000031 -0.97000003 115 237 79 0.000000 0.000000 0.000000 0.000000 51.808199 0.000000 217.000000 -0.023448 -0.566900 0.823453
12.50000000 12.42000008 -0.98000002 115 237 79 0.000000 0.000000 0.000000 0.000000 51.808199 0.000000 217.000000 0.504583 0.685629 -0.524699
12.52000046 12.43000031 -0.98000002 115 237 79 0.000000 0.000000 0.000000 0.000000 51.808199 0.000000 217.000000 0.095680 0.931200 -0.351727
12.51000023 12.42000008 -0.94000000 115 237 79 0.000000 0.000000 0.000000 0.000000 51.808199 0.000000 217.000000 -0.159171 0.868871 -0.468752
12.53999996 12.39000034 -0.99000001 115 237 79 0.000000 0.000000 0.000000 0.000000 51.808199 0.000000 217.000000 0.201238 0.866070 -0.457631
12.56000042 12.36999989 -1.00000000 115 237 79 0.000000 0.000000 0.000000 0.000000 51.808199 0.000000 217.000000 -0.177620 -0.447719 0.876355
12.44999981 12.47999954 -0.94000000 115 237 79 0.000000 0.000000 0.000000 0.000000 51.808199 0.000000 217.000000 -0.015187 -0.799410 0.600593
12.44999981 12.50000000 -1.00000000 115 237 79 0.000000 0.000000 0.000000 0.000000 51.808199 0.000000 217.000000 -0.087388 0.835203 -0.542954
12.47999954 12.36999989 -0.75999999 115 237 79 0.000000 0.000000 0.000000 0.000000 51.808199 0.000000 217.000000 -0.096017 0.973883 -0.205750
12.43000031 12.35999966 -0.76999998 115 237 79 0.000000 0.000000 0.000000 0.000000 51.808199 0.000000 217.000000 -0.269007 0.864775 -0.424028
12.47000027 12.36999989 -0.93000001 115 237 79 0.000000 0.000000 0.000000 0.000000 51.808199 0.000000 217.000000 -0.119828 0.770748 -0.625770
12.39999962 12.39999962 -0.92000002 115 237 79 0.000000 0.000000 0.000000 0.000000 51.808199 0.000000 217.000000 -0.185512 -0.743583 0.642394
12.35999966 12.43000031 -0.92000002 115 237 79 0.000000 0.000000 0.000000 0.000000 51.808199 0.000000 217.000000 0.029093 0.821545 -0.569401
12.39999962 12.38000011 -0.88000000 115 237 79 0.000000 0.000000 0.000000 0.000000 51.808199 0.000000 217.000000 -0.081616 0.895011 -0.438514
12.59000015 12.35000038 -1.02999997 115 237 79 0.000000 0.000000 0.000000 0.000000 51.808199 0.000000 217.000000 -0.651174 -0.405948 0.641232
12.53999996 12.43000031 -1.03999996 115 237 79 0.000000 0.000000 0.000000 0.000000 51.808199 0.000000 217.000000 0.612613 0.388043 -0.688570
12.53999996 12.38000011 -1.02999997 115 237 79 0.000000 0.000000 0.000000 0.000000 51.808199 0.000000 217.000000 0.184972 0.834630 -0.518824
12.56999969 12.31000042 -1.08000004 115 237 79 0.000000 0.000000 0.000000 0.000000 51.808199 0.000000 217.000000 0.539416 0.579999 -0.610436
12.50000000 12.31000042 -1.11000001 115 237 79 0.000000 0.000000 0.000000 0.000000 51.808199 0.000000 217.000000 -0.229797 -0.404739 0.885088
12.52000046 12.40999985 -1.21000004 115 237 79 0.000000 0.000000 0.000000 0.000000 51.808199 0.000000 217.000000 0.536479 0.654201 -0.533115
12.52999973 12.43000031 -1.34000003 115 237 79 0.000000 0.000000 0.000000 0.000000 51.808199 0.000000 217.000000 0.668783 0.558157 -0.491111
12.52999973 12.35999966 -1.26999998 115 237 79 0.000000 0.000000 0.000000 0.000000 51.808199 0.000000 217.000000 -0.142932 -0.681559 0.717668
12.56000042 12.34000015 -1.29999995 115 237 79 0.000000 0.000000 0.000000 0.000000 51.808199 0.000000 217.000000 0.326485 0.801082 -0.501672
12.52000046 12.32999992 -1.30999994 115 237 79 0.000000 0.000000 0.000000 0.000000 51.808199 0.000000 217.000000 0.035001 0.805020 -0.592215
12.51000023 12.38000011 -1.28999996 115 237 79 0.000000 0.000000 0.000000 0.000000 51.808199 0.000000 217.000000 -0.102630 -0.542060 0.834049
12.47000027 12.48999977 -1.04999995 115 237 79 0.000000 0.000000 0.000000 0.000000 51.808199 0.000000 217.000000 -0.148996 0.769060 -0.621569
12.47000027 12.44999981 -1.10000002 115 237 79 0.000000 0.000000 0.000000 0.000000 51.808199 0.000000 217.000000 0.499814 0.567129 -0.654638
12.47999954 12.35999966 -1.05999994 115 237 79 0.000000 0.000000 0.000000 0.000000 51.808199 0.000000 217.000000 0.075885 0.930586 -0.358122
12.47999954 12.35999966 -1.05999994 115 237 79 0.000000 0.000000 0.000000 0.000000 51.808199 0.000000 217.000000 0.075885 0.930586 -0.358122
12.47999954 12.34000015 -1.09000003 115 237 79 0.000000 0.000000 0.000000 0.000000 51.808199 0.000000 217.000000 0.167089 0.808351 -0.564491
12.38000011 12.42000008 -1.04999995 115 237 79 0.000000 0.000000 0.000000 0.000000 51.808199 0.000000 217.000000 0.182667 0.859869 -0.476715
12.39999962 12.35999966 -1.01999998 115 237 79 0.000000 0.000000 0.000000 0.000000 51.808199 0.000000 217.000000 0.054270 0.853020 -0.519048
12.40999985 12.44999981 -1.19000006 115 237 79 0.000000 0.000000 0.000000 0.000000 51.808199 0.000000 217.000000 0.063979 -0.584343 0.808981
12.46000004 12.35000038 -1.21000004 115 237 79 0.000000 0.000000 0.000000 0.000000 51.808199 0.000000 217.000000 -0.143556 -0.552025 0.821377
12.47999954 12.39000034 -1.24000001 115 237 79 0.000000 0.000000 0.000000 0.000000 51.808199 0.000000 217.000000 0.165910 0.646896 -0.744311
12.44999981 12.31999969 -1.29999995 115 237 79 0.000000 0.000000 0.000000 0.000000 51.808199 0.000000 217.000000 -0.130717 -0.461099 0.877668
12.38000011 12.40999985 -1.26999998 115 237 79 0.000000 0.000000 0.000000 0.000000 51.808199 0.000000 217.000000 0.010870 0.964985 -0.262080
12.34000015 12.43000031 -1.26999998 115 237 79 0.000000 0.000000 0.000000 0.000000 51.808199 0.000000 217.000000 0.154288 -0.573711 0.804394
12.35000038 12.39999962 -1.25000000 115 237 79 0.000000 0.000000 0.000000 0.000000 51.808199 0.000000 217.000000 -0.371920 -0.594744 0.712710
12.31999969 12.40999985 -1.27999997 115 237 79 0.000000 0.000000 0.000000 0.000000 51.808199 0.000000 217.000000 0.165910 0.744311 -0.646896
12.35000038 12.39000034 -1.25000000 115 237 79 0.000000 0.000000 0.000000 0.000000 51.808199 0.000000 217.000000 0.198469 0.761568 -0.616947
12.38000011 12.36999989 -1.20000005 115 237 79 0.000000 0.000000 0.000000 0.000000 51.808199 0.000000 217.000000 0.004130 0.775054 -0.631882
12.39999962 12.32999992 -1.29999995 115 237 79 0.000000 0.000000 0.000000 0.000000 51.808199 0.000000 217.000000 0.082970 0.870479 -0.485162
12.53999996 12.42000008 -1.40999997 115 237 79 0.000000 0.000000 0.000000 0.000000 51.808199 0.000000 217.000000 0.635488 0.584919 -0.504008
12.51000023 12.42000008 -1.50000000 115 237 79 0.000000 0.000000 0.000000 0.000000 51.808199 0.000000 217.000000 0.329246 0.724990 -0.604969
12.53999996 12.43000031 -1.49000001 115 237 79 0.000000 0.000000 0.000000 0.000000 51.808199 0.000000 217.000000 0.297185 0.835542 -0.462115
12.51000023 12.42000008 -1.50000000 115 237 79 0.000000 0.000000 0.000000 0.000000 51.808199 0.000000 217.000000 0.329246 0.724990 -0.604969
12.55000019 12.42000008 -1.50999999 115 237 79 0.000000 0.000000 0.000000 0.000000 51.808199 0.000000 217.000000 -0.073744 -0.741773 0.666584
12.51000023 12.31999969 -1.44000006 115 237 79 0.000000 0.000000 0.000000 0.000000 51.808199 0.000000 217.000000 0.623520 0.391974 -0.676445
12.64999962 12.32999992 -1.57000005 115 237 79 0.000000 0.000000 0.000000 0.000000 51.808199 0.000000 217.000000 0.297130 0.618352 -0.727567
12.64999962 12.36999989 -1.53999996 115 237 79 0.000000 0.000000 0.000000 0.000000 51.808199 0.000000 217.000000 0.608483 0.471029 -0.638655
12.64999962 12.34000015 -1.55999994 115 237 79 0.000000 0.000000 0.000000 0.000000 51.808199 0.000000 217.000000 0.548596 0.568852 -0.612740
12.50000000 12.42000008 -1.62000000 115 237 79 0.000000 0.000000 0.000000 0.000000 51.808199 0.000000 217.000000 -0.305363 -0.400501 0.863917
12.56000042 12.35000038 -1.55999994 115 237 79 0.000000 0.000000 0.000000 0.000000 51.808199 0.000000 217.000000 0.303486 0.854997 -0.420566
12.46000004 12.44999981 -1.38999999 115 237 79 0.000000 0.000000 0.000000 0.000000 51.808199 0.000000 217.000000 -0.327046 -0.404545 0.854040
12.43000031 12.31000042 -1.37000000 115 237 79 0.000000 0.000000 0.000000 0.000000 51.808199 0.000000 217.000000 0.618705 0.681400 -0.391021
12.47000027 12.42000008 -1.57000005 115 237 79 0.000000 0.000000 0.000000 0.000000 51.808199 0.000000 217.000000 -0.004142 -0.639228 0.769006
12.46000004 12.42000008 -1.59000003 115 237 79 0.000000 0.000000 0.000000 0.000000 51.808199 0.000000 217.000000 0.560801 0.716304 -0.415224
12.46000004 12.35000038 -1.61000001 115 237 79 0.000000 0.000000 0.000000 0.000000 51.808199 0.000000 217.000000 0.469014 0.724238 -0.505475
12.43000031 12.38000011 -1.69000006 115 237 79 0.000000 0.000000 0.000000 0.000000 51.808199 0.000000 217.000000 -0.277747 -0.519402 0.808133
12.38000011 12.39000034 -1.59000003 115 237 79 0.000000 0.000000 0.000000 0.000000 51.808199 0.000000 217.000000 0.338753 0.785072 -0.518565
12.39999962 12.35000038 -1.62000000 115 237 79 0.000000 0.000000 0.000000 0.000000 51.808199 0.000000 217.000000 0.332363 0.494569 -0.803079
12.51000023 12.30000019 -1.12000000 115 237 79 0.000000 0.000000 0.000000 0.000000 51.808199 0.000000 217.000000 0.276127 0.719846 -0.636848
12.50000000 12.27000046 -1.14999998 115 237 79 0.000000 0.000000 0.000000 0.000000 51.808199 0.000000 217.000000 0.389793 0.712153 -0.583867
12.51000023 12.25000000 -1.15999997 115 237 79 0.000000 0.000000 0.000000 0.000000 51.808199 0.000000 217.000000 0.142760 0.737844 -0.659702
12.52999973 12.26000023 -1.14999998 115 237 79 0.000000 0.000000 0.000000 0.000000 51.808199 0.000000 217.000000 0.376115 0.698029 -0.609338
12.50000000 12.22999954 -1.16999996 115 237 79 0.000000 0.000000 0.000000 0.000000 51.808199 0.000000 217.000000 -0.456549 -0.519636 0.722178
12.47000027 12.22000027 -1.23000002 115 237 79 0.000000 0.000000 0.000000 0.000000 51.808199 0.000000 217.000000 0.618548 0.497198 -0.608435
12.47999954 12.14000034 -1.26999998 115 237 79 0.000000 0.000000 0.000000 0.000000 51.808199 0.000000 217.000000 0.809289 0.521263 -0.270806
12.43999958 12.19999981 -1.25000000 115 237 79 0.000000 0.000000 0.000000 0.000000 51.808199 0.000000 217.000000 0.492837 0.654312 -0.573574
12.44999981 12.14000034 -1.29999995 115 237 79 0.000000 0.000000 0.000000 0.000000 51.808199 0.000000 217.000000 -0.432900 -0.199459 0.879098
12.44999981 12.15999985 -1.28999996 115 237 79 0.000000 0.000000 0.000000 0.000000 51.808199 0.000000 217.000000 0.631447 0.359187 -0.687211
12.44999981 12.18000031 -1.34000003 115 237 79 0.000000 0.000000 0.000000 0.000000 51.808199 0.000000 217.000000 -0.380462 -0.537218 0.752759
12.43999958 12.13000011 -1.29999995 115 237 79 0.000000 0.000000 0.000000 0.000000 51.808199 0.000000 217.000000 0.395502 0.411385 -0.821182
12.46000004 12.11999989 -1.35000002 115 237 79 0.000000 0.000000 0.000000 0.000000 51.808199 0.000000 217.000000 0.644815 0.702704 -0.300699
12.64999962 12.26000023 -1.58000004 115 237 79 0.000000 0.000000 0.000000 0.000000 51.808199 0.000000 217.000000 0.337421 0.692772 -0.637350
12.47000027 12.28999996 -1.51999998 115 237 79 0.000000 0.000000 0.000000 0.000000 51.808199 0.000000 217.000000 -0.178082 -0.513297 0.839532
12.39999962 12.30000019 -1.70000005 115 237 79 0.000000 0.000000 0.000000 0.000000 51.808199 0.000000 217.000000 -0.258793 -0.662066 0.703346
12.46000004 12.10000038 -1.38999999 115 237 79 0.000000 0.000000 0.000000 0.000000 51.808199 0.000000 217.000000 0.542996 0.600510 -0.586977
12.43000031 11.97000027 -1.42999995 115 237 79 0.000000 0.000000 0.000000 0.000000 51.808199 0.000000 217.000000 -0.552830 -0.417511 0.721155
12.43000031 11.97000027 -1.44000006 115 237 79 0.000000 0.000000 0.000000 0.000000 51.808199 0.000000 217.000000 -0.464526 -0.152900 0.872260
12.56999969 11.80000019 -1.13000000 115 237 79 0.000000 0.000000 0.000000 0.000000 51.808199 0.000000 217.000000 0.815363 -0.381354 -0.435605
12.57999992 11.85000038 -1.19000006 115 237 79 0.000000 0.000000 0.000000 0.000000 51.808199 0.000000 217.000000 0.950157 -0.104109 -0.293876
12.53999996 11.89999962 -1.23000002 115 237 79 0.000000 0.000000 0.000000 0.000000 51.808199 0.000000 217.000000 0.867406 0.082945 -0.490640
12.55000019 11.85999966 -1.20000005 115 237 79 0.000000 0.000000 0.000000 0.000000 51.808199 0.000000 217.000000 0.930058 0.070519 -0.360581
12.56999969 11.84000015 -1.20000005 115 237 79 0.000000 0.000000 0.000000 0.000000 51.808199 0.000000 217.000000 0.965405 -0.162417 -0.203995
12.56999969 11.85000038 -1.25000000 115 237 79 0.000000 0.000000 0.000000 0.000000 51.808199 0.000000 217.000000 0.825367 -0.288645 -0.485235
12.56999969 11.81999969 -1.26999998 115 237 79 0.000000 0.000000 0.000000 0.000000 51.808199 0.000000 217.000000 0.900491 -0.276505 -0.335651
12.56000042 11.85000038 -1.35000002 115 237 79 0.000000 0.000000 0.000000 0.000000 51.808199 0.000000 217.000000 0.881852 -0.383087 -0.274921
12.56999969 11.86999989 -1.33000004 115 237 79 0.000000 0.000000 0.000000 0.000000 51.808199 0.000000 217.000000 0.996756 0.072197 -0.035560
12.53999996 11.82999992 -1.33000004 115 237 79 0.000000 0.000000 0.000000 0.000000 51.808199 0.000000 217.000000 0.996069 -0.088421 0.005327
12.60999966 11.72999954 -1.21000004 115 237 79 0.000000 0.000000 0.000000 0.000000 51.808199 0.000000 217.000000 0.811815 -0.571060 -0.121846
12.43999958 11.82999992 -1.17999995 115 237 79 0.000000 0.000000 0.000000 0.000000 51.808199 0.000000 217.000000 0.789452 -0.546786 -0.278908
12.56999969 11.89999962 -1.38000000 115 237 79 0.000000 0.000000 0.000000 0.000000 51.808199 0.000000 217.000000 0.876063 -0.269906 -0.399581
12.53999996 11.94999981 -1.50999999 115 237 79 0.000000 0.000000 0.000000 0.000000 51.808199 0.000000 217.000000 0.836126 -0.139599 -0.530477
12.52999973 11.93999958 -1.47000003 115 237 79 0.000000 0.000000 0.000000 0.000000 51.808199 0.000000 217.000000 0.847184 -0.136076 -0.513578
12.50000000 11.80000019 -1.38999999 115 237 79 0.000000 0.000000 0.000000 0.000000 51.808199 0.000000 217.000000 0.954096 -0.075967 -0.289705
12.53999996 11.85999966 -1.46000004 115 237 79 0.000000 0.000000 0.000000 0.000000 51.808199 0.000000 217.000000 0.813610 -0.233122 -0.532629
12.52999973 11.93000031 -1.55999994 115 237 79 0.000000 0.000000 0.000000 0.000000 51.808199 0.000000 217.000000 0.958406 0.011016 -0.285196
12.55000019 11.93999958 -1.67999995 115 237 79 0.000000 0.000000 0.000000 0.000000 51.808199 0.000000 217.000000 0.769200 -0.126464 -0.626370
12.40999985 11.96000004 -1.50999999 115 237 79 0.000000 0.000000 0.000000 0.000000 51.808199 0.000000 217.000000 0.523036 0.529764 -0.667670
12.43000031 11.90999985 -1.50999999 115 237 79 0.000000 0.000000 0.000000 0.000000 51.808199 0.000000 217.000000 0.706195 0.251197 -0.661959
12.42000008 11.89999962 -1.51999998 115 237 79 0.000000 0.000000 0.000000 0.000000 51.808199 0.000000 217.000000 0.618379 0.369059 -0.693832
12.43999958 11.85000038 -1.37000000 115 237 79 0.000000 0.000000 0.000000 0.000000 51.808199 0.000000 217.000000 0.866115 0.039806 -0.498257
12.43000031 11.85999966 -1.41999996 115 237 79 0.000000 0.000000 0.000000 0.000000 51.808199 0.000000 217.000000 0.983659 -0.070346 -0.165732
12.39999962 11.93999958 -1.49000001 115 237 79 0.000000 0.000000 0.000000 0.000000 51.808199 0.000000 217.000000 0.541751 0.329552 -0.773241
12.39000034 11.96000004 -1.48000002 115 237 79 0.000000 0.000000 0.000000 0.000000 51.808199 0.000000 217.000000 0.512228 0.498880 -0.699100
12.39999962 11.90999985 -1.48000002 115 237 79 0.000000 0.000000 0.000000 0.000000 51.808199 0.000000 217.000000 0.748548 0.001379 -0.663079
12.42000008 11.88000011 -1.59000003 115 237 79 0.000000 0.000000 0.000000 0.000000 51.808199 0.000000 217.000000 0.669500 0.388475 -0.633132
12.43000031 11.93000031 -1.55999994 115 237 79 0.000000 0.000000 0.000000 0.000000 51.808199 0.000000 217.000000 -0.561786 -0.323550 0.761388
12.42000008 11.86999989 -1.54999995 115 237 79 0.000000 0.000000 0.000000 0.000000 51.808199 0.000000 217.000000 -0.586353 0.017936 0.809857
12.43000031 11.86999989 -1.66999996 115 237 79 0.000000 0.000000 0.000000 0.000000 51.808199 0.000000 217.000000 -0.491903 -0.468716 0.733714
12.39000034 11.89999962 -1.55999994 115 237 79 0.000000 0.000000 0.000000 0.000000 51.808199 0.000000 217.000000 -0.514256 -0.568211 0.642399
12.50000000 11.92000008 -1.74000001 115 237 79 0.000000 0.000000 0.000000 0.000000 51.808199 0.000000 217.000000 -0.416481 -0.314296 0.853089
12.53999996 11.89999962 -1.72000003 115 237 79 0.000000 0.000000 0.000000 0.000000 51.808199 0.000000 217.000000 0.706749 0.133547 -0.694745
13.14000034 12.47999954 -0.20999999 115 237 79 0.000000 0.000000 0.000000 0.000000 51.808199 0.000000 217.000000 0.998378 -0.055292 0.013562
13.14000034 12.48999977 -0.28999999 115 237 79 0.000000 0.000000 0.000000 0.000000 51.808199 0.000000 217.000000 0.867811 -0.297404 -0.398064
13.13000011 12.44999981 -0.20000000 115 237 79 0.000000 0.000000 0.000000 0.000000 51.808199 0.000000 217.000000 0.842992 -0.364410 -0.395690
13.10999966 12.39999962 -0.20000000 115 237 79 0.000000 0.000000 0.000000 0.000000 51.808199 0.000000 217.000000 -0.691144 0.722112 -0.029560
13.11999989 12.43999958 -0.19000000 115 237 79 0.000000 0.000000 0.000000 0.000000 51.808199 0.000000 217.000000 -0.669420 0.729592 0.139901
13.13000011 12.43999958 -0.25999999 115 237 79 0.000000 0.000000 0.000000 0.000000 51.808199 0.000000 217.000000 0.802617 -0.403721 -0.439107
13.10000038 12.40999985 -0.28999999 115 237 79 0.000000 0.000000 0.000000 0.000000 51.808199 0.000000 217.000000 0.658726 -0.665264 -0.351430
13.03999996 12.38000011 -0.23999999 115 237 79 0.000000 0.000000 0.000000 0.000000 51.808199 0.000000 217.000000 0.690320 -0.690320 -0.216602
13.02999973 12.35000038 -0.31999999 115 237 79 0.000000 0.000000 0.000000 0.000000 51.808199 0.000000 217.000000 0.732901 -0.670715 0.114007
12.92000008 12.52000046 -0.30000001 115 237 79 0.000000 0.000000 0.000000 0.000000 51.808199 0.000000 217.000000 0.964897 -0.254713 0.063992
13.11999989 12.44999981 -0.36000001 115 237 79 0.000000 0.000000 0.000000 0.000000 51.808199 0.000000 217.000000 0.932207 -0.215125 -0.291051
13.07999992 12.40999985 -0.33000001 115 237 79 0.000000 0.000000 0.000000 0.000000 51.808199 0.000000 217.000000 0.810406 -0.580095 0.082048
13.05000019 12.34000015 -0.44999999 115 237 79 0.000000 0.000000 0.000000 0.000000 51.808199 0.000000 217.000000 0.891084 -0.439187 -0.114386
13.09000015 12.39000034 -0.46000001 115 237 79 0.000000 0.000000 0.000000 0.000000 51.808199 0.000000 217.000000 0.761787 -0.229003 -0.606002
13.09000015 12.40999985 -0.66000003 115 237 79 0.000000 0.000000 0.000000 0.000000 51.808199 0.000000 217.000000 0.806782 -0.298399 -0.509962
13.07999992 12.36999989 -0.77999997 115 237 79 0.000000 0.000000 0.000000 0.000000 51.808199 0.000000 217.000000 0.755377 -0.107490 -0.646414
13.06000042 12.35000038 -0.81000000 115 237 79 0.000000 0.000000 0.000000 0.000000 51.808199 0.000000 217.000000 0.769844 -0.238917 -0.591827
13.03999996 12.31999969 -0.76999998 115 237 79 0.000000 0.000000 0.000000 0.000000 51.808199 0.000000 217.000000 0.817940 -0.350999 -0.455823
13.03999996 12.31999969 -0.76999998 115 237 79 0.000000 0.000000 0.000000 0.000000 51.808199 0.000000 217.000000 0.817940 -0.350999 -0.455823
12.96000004 12.53999996 -0.50999999 115 237 79 0.000000 0.000000 0.000000 0.000000 51.808199 0.000000 217.000000 0.728697 0.149360 -0.668350
12.90999985 12.57999992 -0.58999997 115 237 79 0.000000 0.000000 0.000000 0.000000 51.808199 0.000000 217.000000 -0.730381 -0.021028 0.682717
12.97000027 12.47000027 -0.49000001 115 237 79 0.000000 0.000000 0.000000 0.000000 51.808199 0.000000 217.000000 0.899148 0.125627 -0.419226
12.90999985 12.44999981 -0.54000002 115 237 79 0.000000 0.000000 0.000000 0.000000 51.808199 0.000000 217.000000 0.767807 -0.304888 -0.563484
12.84000015 12.47999954 -0.93000001 115 237 79 0.000000 0.000000 0.000000 0.000000 51.808199 0.000000 217.000000 0.573400 0.680390 -0.456379
12.85999966 12.31999969 -0.93000001 115 237 79 0.000000 0.000000 0.000000 0.000000 51.808199 0.000000 217.000000 0.970487 0.144486 -0.193075
12.80000019 12.46000004 -0.75999999 115 237 79 0.000000 0.000000 0.000000 0.000000 51.808199 0.000000 217.000000 0.839965 0.054689 -0.539877
12.67000008 12.39000034 -0.94000000 115 237 79 0.000000 0.000000 0.000000 0.000000 51.808199 0.000000 217.000000 -0.247817 -0.683470 0.686627
12.77000046 12.44999981 -0.98000002 115 237 79 0.000000 0.000000 0.000000 0.000000 51.808199 0.000000 217.000000 -0.325245 -0.450944 0.831183
12.96000004 12.25000000 -0.63999999 115 237 79 0.000000 0.000000 0.000000 0.000000 51.808199 0.000000 217.000000 0.887476 -0.328862 -0.322855
12.96000004 12.21000004 -1.00000000 115 237 79 0.000000 0.000000 0.000000 0.000000 51.808199 0.000000 217.000000 0.957807 0.049086 -0.283189
13.03999996 12.34000015 -1.13000000 115 237 79 0.000000 0.000000 0.000000 0.000000 51.808199 0.000000 217.000000 0.817877 -0.166577 -0.550754
12.98999977 12.47999954 -1.02999997 115 237 79 0.000000 0.000000 0.000000 0.000000 51.808199 0.000000 217.000000 0.859066 0.402543 -0.316173
12.73999977 12.40999985 -1.02999997 115 237 79 0.000000 0.000000 0.000000 0.000000 51.808199 0.000000 217.000000 0.548727 0.636524 -0.541974
12.76000023 12.43999958 -1.24000001 115 237 79 0.000000 0.000000 0.000000 0.000000 51.808199 0.000000 217.000000 0.724814 0.635996 -0.264866
12.76000023 12.35999966 -1.29999995 115 237 79 0.000000 0.000000 0.000000 0.000000 51.808199 0.000000 217.000000 0.507304 0.642136 -0.574720
12.98999977 12.26000023 -1.01999998 115 237 79 0.000000 0.000000 0.000000 0.000000 51.808199 0.000000 217.000000 -0.767163 -0.281134 0.576563
12.77999973 12.27000046 -1.40999997 115 237 79 0.000000 0.000000 0.000000 0.000000 51.808199 0.000000 217.000000 0.898437 0.335989 -0.282704
12.48999977 12.51000023 -0.73000002 115 237 79 0.000000 0.000000 0.000000 0.000000 51.808199 0.000000 217.000000 -0.060966 0.812411 -0.579889
12.60000038 12.42000008 -0.97000003 115 237 79 0.000000 0.000000 0.000000 0.000000 51.808199 0.000000 217.000000 0.196437 0.716143 -0.669740
12.53999996 12.39000034 -0.99000001 115 237 79 0.000000 0.000000 0.000000 0.000000 51.808199 0.000000 217.000000 0.201238 0.866070 -0.457631
12.52000046 12.35000038 -0.94999999 115 237 79 0.000000 0.000000 0.000000 0.000000 51.808199 0.000000 217.000000 0.556835 0.594070 -0.580530
12.43999958 12.48999977 -0.88999999 115 237 79 0.000000 0.000000 0.000000 0.000000 51.808199 0.000000 217.000000 -0.226450 0.846529 -0.481777
12.47999954 12.43000031 -0.79000002 115 237 79 0.000000 0.000000 0.000000 0.000000 51.808199 0.000000 217.000000 -0.293143 0.784357 -0.546673
12.47999954 12.39999962 -0.81999999 115 237 79 0.000000 0.000000 0.000000 0.000000 51.808199 0.000000 217.000000 -0.044650 0.894346 -0.445143
12.46000004 12.36999989 -0.75999999 115 237 79 0.000000 0.000000 0.000000 0.000000 51.808199 0.000000 217.000000 -0.089695 0.952849 -0.289885
12.47999954 12.39000034 -0.83999997 115 237 79 0.000000 0.000000 0.000000 0.000000 51.808199 0.000000 217.000000 -0.331684 0.745885 -0.577616
12.47999954 12.39000034 -0.83999997 115 237 79 0.000000 0.000000 0.000000 0.000000 51.808199 0.000000 217.000000 -0.331684 0.745885 -0.577616
12.43999958 12.46000004 -1.00999999 115 237 79 0.000000 0.000000 0.000000 0.000000 51.808199 0.000000 217.000000 -0.334840 0.814090 -0.474489
12.38000011 12.44999981 -0.86000001 115 237 79 0.000000 0.000000 0.000000 0.000000 51.808199 0.000000 217.000000 -0.413715 0.780381 -0.468877
12.34000015 12.43000031 -0.92000002 115 237 79 0.000000 0.000000 0.000000 0.000000 51.808199 0.000000 217.000000 -0.452935 0.610041 -0.650154
12.59000015 12.36999989 -1.02999997 115 237 79 0.000000 0.000000 0.000000 0.000000 51.808199 0.000000 217.000000 0.169216 0.822119 -0.543587
12.56000042 12.31000042 -1.12000000 115 237 79 0.000000 0.000000 0.000000 0.000000 51.808199 0.000000 217.000000 0.579627 0.656911 -0.482183
12.52999973 12.40999985 -1.32000005 115 237 79 0.000000 0.000000 0.000000 0.000000 51.808199 0.000000 217.000000 0.717514 0.535236 -0.445754
12.55000019 12.39000034 -1.19000006 115 237 79 0.000000 0.000000 0.000000 0.000000 51.808199 0.000000 217.000000 0.554326 0.517258 -0.652049
12.48999977 12.36999989 -1.28999996 115 237 79 0.000000 0.000000 0.000000 0.000000 51.808199 0.000000 217.000000 -0.141588 -0.594671 0.791404
12.47000027 12.48999977 -1.04999995 115 237 79 0.000000 0.000000 0.000000 0.000000 51.808199 0.000000 217.000000 -0.148996 0.769060 -0.621569
12.46000004 12.31999969 -1.26999998 115 237 79 0.000000 0.000000 0.000000 0.000000 51.808199 0.000000 217.000000 -0.098209 0.749029 -0.655217
12.35999966 12.43000031 -1.24000001 115 237 79 0.000000 0.000000 0.000000 0.000000 51.808199 0.000000 217.000000 -0.042843 0.936055 -0.349236
12.38000011 12.40999985 -1.30999994 115 237 79 0.000000 0.000000 0.000000 0.000000 51.808199 0.000000 217.000000 -0.032390 0.764692 -0.643581
12.34000015 12.39000034 -1.19000006 115 237 79 0.000000 0.000000 0.000000 0.000000 51.808199 0.000000 217.000000 0.159533 -0.727776 0.667001
12.38000011 12.36999989 -1.20000005 115 237 79 0.000000 0.000000 0.000000 0.000000 51.808199 0.000000 217.000000 0.004130 0.775054 -0.631882
12.32999992 12.36999989 -1.25000000 115 237 79 0.000000 0.000000 0.000000 0.000000 51.808199 0.000000 217.000000 -0.138098 0.859118 -0.492793
12.39999962 12.34000015 -1.27999997 115 237 79 0.000000 0.000000 0.000000 0.000000 51.808199 0.000000 217.000000 0.188891 0.820542 -0.539473
12.60999966 12.36999989 -1.58000004 115 237 79 0.000000 0.000000 0.000000 0.000000 51.808199 0.000000 217.000000 -0.167231 -0.492813 0.853914
12.64000034 12.31999969 -1.57000005 115 237 79 0.000000 0.000000 0.000000 0.000000 51.808199 0.000000 217.000000 0.666075 0.501653 -0.551986
12.43999958 12.31999969 -1.42999995 115 237 79 0.000000 0.000000 0.000000 0.000000 51.808199 0.000000 217.000000 -0.650360 -0.502474 0.569695
12.42000008 12.34000015 -1.41999996 115 237 79 0.000000 0.000000 0.000000 0.000000 51.808199 0.000000 217.000000 0.405370 0.607227 -0.683338
12.43000031 12.34000015 -1.64999998 115 237 79 0.000000 0.000000 0.000000 0.000000 51.808199 0.000000 217.000000 0.574202 0.727977 -0.374622
12.56000042 12.27999973 -1.11000001 115 237 79 0.000000 0.000000 0.000000 0.000000 51.808199 0.000000 217.000000 -0.407277 -0.468937 0.783724
12.47000027 12.22999954 -1.22000003 115 237 79 0.000000 0.000000 0.000000 0.000000 51.808199 0.000000 217.000000 0.638387 0.425036 -0.641721
12.43999958 12.14000034 -1.33000004 115 237 79 0.000000 0.000000 0.000000 0.000000 51.808199 0.000000 217.000000 0.597566 0.661172 -0.453614
12.47999954 12.17000008 -1.25999999 115 237 79 0.000000 0.000000 0.000000 0.000000 51.808199 0.000000 217.000000 0.250935 0.796446 -0.550187
12.44999981 12.11999989 -1.36000001 115 237 79 0.000000 0.000000 0.000000 0.000000 51.808199 0.000000 217.000000 0.742225 0.539055 -0.398147
12.46000004 12.03999996 -1.37000000 115 237 79 0.000000 0.000000 0.000000 0.000000 51.808199 0.000000 217.000000 0.467456 0.638354 -0.611546
12.52000046 11.98999977 -1.71000004 115 237 79 0.000000 0.000000 0.000000 0.000000 51.808199 0.000000 217.000000 0.882978 0.360738 -0.300363
12.51000023 11.89999962 -1.17999995 115 237 79 0.000000 0.000000 0.000000 0.000000 51.808199 0.000000 217.000000 0.826617 -0.046156 -0.560869
12.56000042 11.89000034 -1.33000004 115 237 79 0.000000 0.000000 0.000000 0.000000 51.808199 0.000000 217.000000 0.933868 -0.245755 -0.259798
12.53999996 11.80000019 -1.26999998 115 237 79 0.000000 0.000000 0.000000 0.000000 51.808199 0.000000 217.000000 0.759035 -0.580062 -0.295624
12.56000042 11.85000038 -1.22000003 115 237 79 0.000000 0.000000 0.000000 0.000000 51.808199 0.000000 217.000000 0.987267 0.071609 -0.142044
12.56999969 11.82999992 -1.19000006 115 237 79 0.000000 0.000000 0.000000 0.000000 51.808199 0.000000 217.000000 0.892883 -0.203127 -0.401870
12.64000034 11.71000004 -1.15999997 115 237 79 0.000000 0.000000 0.000000 0.000000 51.808199 0.000000 217.000000 0.785926 -0.600297 -0.148203
12.64000034 11.71000004 -1.17999995 115 237 79 0.000000 0.000000 0.000000 0.000000 51.808199 0.000000 217.000000 0.735561 -0.561909 -0.378429
12.64000034 11.72000027 -1.19000006 115 237 79 0.000000 0.000000 0.000000 0.000000 51.808199 0.000000 217.000000 -0.686774 0.719267 -0.104862
12.52999973 11.77000046 -1.22000003 115 237 79 0.000000 0.000000 0.000000 0.000000 51.808199 0.000000 217.000000 0.723920 -0.600284 -0.339998
12.43999958 11.81000042 -1.32000005 115 237 79 0.000000 0.000000 0.000000 0.000000 51.808199 0.000000 217.000000 0.699571 -0.600808 -0.386821
12.55000019 11.89999962 -1.44000006 115 237 79 0.000000 0.000000 0.000000 0.000000 51.808199 0.000000 217.000000 0.878850 -0.241047 -0.411727
