//X Y Z R G B PointSourceId ScanDirectionFlag NumberOfReturns ReturnNumber GpsTime Intensity Classification Nx Ny Nz
10.38000011 11.46000004 -1.54999995 46 3 231 0.000000 0.000000 0.000000 0.000000 51.808199 0.000000 226.000000 0.908960 0.124266 0.397932
10.35000038 11.39999962 -1.48000002 46 3 231 0.000000 0.000000 0.000000 0.000000 51.808199 0.000000 226.000000 0.914482 0.144688 0.377873
10.32999992 11.40999985 -1.39999998 46 3 231 0.000000 0.000000 0.000000 0.000000 51.808199 0.000000 226.000000 0.878531 0.192777 0.437058
10.34000015 11.38000011 -1.40999997 46 3 231 0.000000 0.000000 0.000000 0.000000 51.808199 0.000000 226.000000 0.806782 0.298399 0.509962
10.34000015 11.39000034 -1.41999996 46 3 231 0.000000 0.000000 0.000000 0.000000 51.808199 0.000000 226.000000 0.969209 0.145060 0.198977
10.31999969 11.36999989 -1.48000002 46 3 231 0.000000 0.000000 0.000000 0.000000 51.808199 0.000000 226.000000 0.938143 0.103049 0.330558
10.34000015 11.43000031 -1.47000003 46 3 231 0.000000 0.000000 0.000000 0.000000 51.808199 0.000000 226.000000 0.885436 0.446283 0.129750
10.34000015 11.40999985 -1.45000005 46 3 231 0.000000 0.000000 0.000000 0.000000 51.808199 0.000000 226.000000 0.950217 0.213425 0.227019
10.31999969 11.35000038 -1.38000000 46 3 231 0.000000 0.000000 0.000000 0.000000 51.808199 0.000000 226.000000 0.972698 0.158938 0.169110
10.31999969 11.35000038 -1.38999999 46 3 231 0.000000 0.000000 0.000000 0.000000 51.808199 0.000000 226.000000 0.962678 0.125679 -0.239698
10.32999992 11.34000015 -1.38000000 46 3 231 0.000000 0.000000 0.000000 0.000000 51.808199 0.000000 226.000000 0.930160 0.084317 0.357342
10.31999969 11.31999969 -1.44000006 46 3 231 0.000000 0.000000 0.000000 0.000000 51.808199 0.000000 226.000000 0.983855 -0.169304 0.058013
10.32999992 11.32999992 -1.42999995 46 3 231 0.000000 0.000000 0.000000 0.000000 51.808199 0.000000 226.000000 0.965444 -0.256543 0.045856
10.28999996 11.32999992 -1.39999998 46 3 231 0.000000 0.000000 0.000000 0.000000 51.808199 0.000000 226.000000 0.974860 0.167299 -0.147172
10.27999973 11.31000042 -1.37000000 46 3 231 0.000000 0.000000 0.000000 0.000000 51.808199 0.000000 226.000000 0.981769 0.008057 -0.189908
10.26000023 11.27999973 -1.37000000 46 3 231 0.000000 0.000000 0.000000 0.000000 51.808199 0.000000 226.000000 0.942816 -0.321324 0.088596
10.26000023 11.31000042 -1.38999999 46 3 231 0.000000 0.000000 0.000000 0.000000 51.808199 0.000000 226.000000 0.993763 0.075404 0.082157
10.27000046 11.31000042 -1.40999997 46 3 231 0.000000 0.000000 0.000000 0.000000 51.808199 0.000000 226.000000 0.913344 -0.363343 0.183809
10.27999973 11.27999973 -1.40999997 46 3 231 0.000000 0.000000 0.000000 0.000000 51.808199 0.000000 226.000000 0.918451 -0.383484 -0.096895
10.31999969 11.32999992 -1.45000005 46 3 231 0.000000 0.000000 0.000000 0.000000 51.808199 0.000000 226.000000 0.950603 -0.298612 -0.084759
10.32999992 11.32999992 -1.48000002 46 3 231 0.000000 0.000000 0.000000 0.000000 51.808199 0.000000 226.000000 0.999075 -0.009222 -0.042012
10.32999992 11.34000015 -1.46000004 46 3 231 0.000000 0.000000 0.000000 0.000000 51.808199 0.000000 226.000000 0.951695 0.201711 0.231493
10.32999992 11.34000015 -1.48000002 46 3 231 0.000000 0.000000 0.000000 0.000000 51.808199 0.000000 226.000000 0.993263 0.023150 0.113547
10.31999969 11.35999966 -1.46000004 46 3 231 0.000000 0.000000 0.000000 0.000000 51.808199 0.000000 226.000000 0.976071 -0.217296 -0.008222
10.31999969 11.35999966 -1.46000004 46 3 231 0.000000 0.000000 0.000000 0.000000 51.808199 0.000000 226.000000 0.976071 -0.217296 -0.008222
10.32999992 11.34000015 -1.47000003 46 3 231 0.000000 0.000000 0.000000 0.000000 51.808199 0.000000 226.000000 0.983689 0.146045 0.105007
10.34000015 11.34000015 -1.52999997 46 3 231 0.000000 0.000000 0.000000 0.000000 51.808199 0.000000 226.000000 0.970454 0.073312 0.229877
10.32999992 11.32999992 -1.51999998 46 3 231 0.000000 0.000000 0.000000 0.000000 51.808199 0.000000 226.000000 0.892252 -0.281528 0.353028
10.32999992 11.35999966 -1.49000001 46 3 231 0.000000 0.000000 0.000000 0.000000 51.808199 0.000000 226.000000 0.910113 0.112548 0.398782
10.34000015 11.34000015 -1.51999998 46 3 231 0.000000 0.000000 0.000000 0.000000 51.808199 0.000000 226.000000 0.863474 -0.156862 0.479382
10.34000015 11.35000038 -1.52999997 46 3 231 0.000000 0.000000 0.000000 0.000000 51.808199 0.000000 226.000000 0.998557 -0.009332 0.052883
10.31999969 11.31000042 -1.52999997 46 3 231 0.000000 0.000000 0.000000 0.000000 51.808199 0.000000 226.000000 0.901730 -0.236063 0.362158
10.30000019 11.27999973 -1.49000001 46 3 231 0.000000 0.000000 0.000000 0.000000 51.808199 0.000000 226.000000 0.929314 -0.281482 -0.239047
10.31000042 11.27999973 -1.52999997 46 3 231 0.000000 0.000000 0.000000 0.000000 51.808199 0.000000 226.000000 0.930810 -0.365448 -0.006367
10.38000011 11.43999958 -1.53999996 46 3 231 0.000000 0.000000 0.000000 0.000000 51.808199 0.000000 226.000000 0.913613 0.162892 0.372528
10.35000038 11.34000015 -1.58000004 46 3 231 0.000000 0.000000 0.000000 0.000000 51.808199 0.000000 226.000000 0.937161 -0.089317 0.337271
10.35000038 11.31000042 -1.59000003 46 3 231 0.000000 0.000000 0.000000 0.000000 51.808199 0.000000 226.000000 0.890077 -0.282730 0.357527
10.35000038 11.30000019 -1.59000003 46 3 231 0.000000 0.000000 0.000000 0.000000 51.808199 0.000000 226.000000 0.830491 -0.264458 0.490252
10.35000038 11.32999992 -1.57000005 46 3 231 0.000000 0.000000 0.000000 0.000000 51.808199 0.000000 226.000000 0.901143 -0.140493 0.410126
10.35000038 11.34000015 -1.53999996 46 3 231 0.000000 0.000000 0.000000 0.000000 51.808199 0.000000 226.000000 0.884857 -0.108667 0.453013
10.35000038 11.32999992 -1.60000002 46 3 231 0.000000 0.000000 0.000000 0.000000 51.808199 0.000000 226.000000 0.999339 -0.023574 0.027674
10.36999989 11.31999969 -1.63999999 46 3 231 0.000000 0.000000 0.000000 0.000000 51.808199 0.000000 226.000000 0.997237 -0.067482 0.031063
10.36999989 11.32999992 -1.65999997 46 3 231 0.000000 0.000000 0.000000 0.000000 51.808199 0.000000 226.000000 0.988746 -0.149266 -0.010101
10.35000038 11.31999969 -1.62000000 46 3 231 0.000000 0.000000 0.000000 0.000000 51.808199 0.000000 226.000000 0.908999 -0.322454 0.264091
10.36999989 11.34000015 -1.65999997 46 3 231 0.000000 0.000000 0.000000 0.000000 51.808199 0.000000 226.000000 0.995002 0.016241 0.098526
10.36999989 11.31999969 -1.66999996 46 3 231 0.000000 0.000000 0.000000 0.000000 51.808199 0.000000 226.000000 0.967721 -0.197679 0.156334
10.35999966 11.28999996 -1.65999997 46 3 231 0.000000 0.000000 0.000000 0.000000 51.808199 0.000000 226.000000 0.962540 -0.193033 0.190407
10.35999966 11.27999973 -1.63000000 46 3 231 0.000000 0.000000 0.000000 0.000000 51.808199 0.000000 226.000000 0.973628 -0.067699 0.217866
10.35999966 11.31000042 -1.65999997 46 3 231 0.000000 0.000000 0.000000 0.000000 51.808199 0.000000 226.000000 0.966136 -0.257556 -0.015719
10.36999989 11.27999973 -1.69000006 46 3 231 0.000000 0.000000 0.000000 0.000000 51.808199 0.000000 226.000000 0.991490 -0.129614 -0.012186
10.36999989 11.31000042 -1.70000005 46 3 231 0.000000 0.000000 0.000000 0.000000 51.808199 0.000000 226.000000 0.998643 0.011407 0.050814
10.36999989 11.30000019 -1.67999995 46 3 231 0.000000 0.000000 0.000000 0.000000 51.808199 0.000000 226.000000 0.999319 -0.009187 0.035726
10.36999989 11.31000042 -1.67999995 46 3 231 0.000000 0.000000 0.000000 0.000000 51.808199 0.000000 226.000000 0.997778 0.009423 0.065960
10.36999989 11.27999973 -1.70000005 46 3 231 0.000000 0.000000 0.000000 0.000000 51.808199 0.000000 226.000000 0.997543 -0.003134 0.069985
10.34000015 11.31999969 -1.55999994 46 3 231 0.000000 0.000000 0.000000 0.000000 51.808199 0.000000 226.000000 0.929375 -0.054049 0.365159
10.34000015 11.32999992 -1.54999995 46 3 231 0.000000 0.000000 0.000000 0.000000 51.808199 0.000000 226.000000 0.977403 -0.170145 -0.125435
10.34000015 11.31999969 -1.53999996 46 3 231 0.000000 0.000000 0.000000 0.000000 51.808199 0.000000 226.000000 0.917827 -0.293415 0.267398
10.34000015 11.32999992 -1.55999994 46 3 231 0.000000 0.000000 0.000000 0.000000 51.808199 0.000000 226.000000 0.867647 0.020304 0.496765
10.32999992 11.28999996 -1.60000002 46 3 231 0.000000 0.000000 0.000000 0.000000 51.808199 0.000000 226.000000 0.931838 0.001264 0.362873
10.32999992 11.27999973 -1.58000004 46 3 231 0.000000 0.000000 0.000000 0.000000 51.808199 0.000000 226.000000 0.911049 -0.260924 0.319231
10.34000015 11.27999973 -1.59000003 46 3 231 0.000000 0.000000 0.000000 0.000000 51.808199 0.000000 226.000000 0.883784 -0.330852 0.330852
10.22999954 11.39000034 -1.01999998 46 3 231 0.000000 0.000000 0.000000 0.000000 51.808199 0.000000 226.000000 0.692358 0.704478 -0.156046
10.23999977 11.38000011 -1.05999994 46 3 231 0.000000 0.000000 0.000000 0.000000 51.808199 0.000000 226.000000 0.613748 0.576551 0.539354
10.23999977 11.38000011 -1.05999994 46 3 231 0.000000 0.000000 0.000000 0.000000 51.808199 0.000000 226.000000 0.613748 0.576551 0.539354
10.25000000 11.38000011 -1.13999999 46 3 231 0.000000 0.000000 0.000000 0.000000 51.808199 0.000000 226.000000 0.680044 0.683229 0.265966
10.25000000 11.38000011 -1.13999999 46 3 231 0.000000 0.000000 0.000000 0.000000 51.808199 0.000000 226.000000 0.680044 0.683229 0.265966
10.22999954 11.35999966 -1.05999994 46 3 231 0.000000 0.000000 0.000000 0.000000 51.808199 0.000000 226.000000 0.897178 0.401483 0.184074
10.21000004 11.35999966 -1.08000004 46 3 231 0.000000 0.000000 0.000000 0.000000 51.808199 0.000000 226.000000 0.971254 0.189668 0.143842
10.21000004 11.35000038 -1.08000004 46 3 231 0.000000 0.000000 0.000000 0.000000 51.808199 0.000000 226.000000 0.888104 0.292041 0.354942
10.23999977 11.35000038 -1.12000000 46 3 231 0.000000 0.000000 0.000000 0.000000 51.808199 0.000000 226.000000 0.678512 0.581819 0.448451
10.22999954 11.35999966 -1.12000000 46 3 231 0.000000 0.000000 0.000000 0.000000 51.808199 0.000000 226.000000 0.602489 0.716782 0.351043
10.23999977 11.31999969 -1.13000000 46 3 231 0.000000 0.000000 0.000000 0.000000 51.808199 0.000000 226.000000 0.918752 0.380410 0.105746
10.22999954 11.35999966 -1.12000000 46 3 231 0.000000 0.000000 0.000000 0.000000 51.808199 0.000000 226.000000 0.602489 0.716782 0.351043
10.22999954 11.35999966 -1.12000000 46 3 231 0.000000 0.000000 0.000000 0.000000 51.808199 0.000000 226.000000 0.602489 0.716782 0.351043
10.22000027 11.31000042 -1.13000000 46 3 231 0.000000 0.000000 0.000000 0.000000 51.808199 0.000000 226.000000 0.989361 0.110706 0.094391
10.19999981 11.31999969 -1.14999998 46 3 231 0.000000 0.000000 0.000000 0.000000 51.808199 0.000000 226.000000 0.847960 0.529116 -0.031610
10.17000008 11.32999992 -1.01999998 46 3 231 0.000000 0.000000 0.000000 0.000000 51.808199 0.000000 226.000000 0.827571 0.544338 -0.137191
10.17000008 11.31999969 -1.09000003 46 3 231 0.000000 0.000000 0.000000 0.000000 51.808199 0.000000 226.000000 0.766502 0.642205 -0.006905
10.17000008 11.31000042 -1.09000003 46 3 231 0.000000 0.000000 0.000000 0.000000 51.808199 0.000000 226.000000 0.763509 0.498652 0.410366
10.11999989 11.27999973 -1.07000005 46 3 231 0.000000 0.000000 0.000000 0.000000 51.808199 0.000000 226.000000 0.981799 0.140257 0.128061
10.11999989 11.27999973 -1.05999994 46 3 231 0.000000 0.000000 0.000000 0.000000 51.808199 0.000000 226.000000 0.983689 0.146045 0.105007
10.17000008 11.31999969 -1.11000001 46 3 231 0.000000 0.000000 0.000000 0.000000 51.808199 0.000000 226.000000 0.857034 0.469793 0.211632
10.15999985 11.31999969 -1.17999995 46 3 231 0.000000 0.000000 0.000000 0.000000 51.808199 0.000000 226.000000 0.938108 0.339818 0.066914
10.25000000 11.35999966 -1.25000000 46 3 231 0.000000 0.000000 0.000000 0.000000 51.808199 0.000000 226.000000 0.897922 0.434567 0.069915
10.21000004 11.30000019 -1.21000004 46 3 231 0.000000 0.000000 0.000000 0.000000 51.808199 0.000000 226.000000 0.940420 -0.122781 0.317071
10.21000004 11.30000019 -1.22000003 46 3 231 0.000000 0.000000 0.000000 0.000000 51.808199 0.000000 226.000000 0.964161 -0.152236 0.217294
10.21000004 11.27999973 -1.26999998 46 3 231 0.000000 0.000000 0.000000 0.000000 51.808199 0.000000 226.000000 0.897745 -0.347562 0.270655
10.21000004 11.31000042 -1.25999999 46 3 231 0.000000 0.000000 0.000000 0.000000 51.808199 0.000000 226.000000 0.881418 0.447222 -0.151969
10.25000000 11.30000019 -1.27999997 46 3 231 0.000000 0.000000 0.000000 0.000000 51.808199 0.000000 226.000000 0.909580 -0.278860 0.308060
10.14999962 11.28999996 -1.23000002 46 3 231 0.000000 0.000000 0.000000 0.000000 51.808199 0.000000 226.000000 0.996770 0.048702 -0.063854
10.01000023 11.27000046 -0.74000001 46 3 231 0.000000 0.000000 0.000000 0.000000 51.808199 0.000000 226.000000 0.150237 0.933124 0.326662
10.03999996 11.27000046 -0.76999998 46 3 231 0.000000 0.000000 0.000000 0.000000 51.808199 0.000000 226.000000 0.053180 0.940380 0.335943
10.26000023 11.26000023 -1.35000002 46 3 231 0.000000 0.000000 0.000000 0.000000 51.808199 0.000000 226.000000 0.897800 -0.162322 0.409397
10.26000023 11.27000046 -1.34000003 46 3 231 0.000000 0.000000 0.000000 0.000000 51.808199 0.000000 226.000000 0.992410 0.055448 -0.109765
10.27999973 11.27000046 -1.41999996 46 3 231 0.000000 0.000000 0.000000 0.000000 51.808199 0.000000 226.000000 0.960683 -0.178394 0.212751
10.27000046 11.26000023 -1.47000003 46 3 231 0.000000 0.000000 0.000000 0.000000 51.808199 0.000000 226.000000 0.931267 -0.162382 0.326151
10.28999996 11.27000046 -1.49000001 46 3 231 0.000000 0.000000 0.000000 0.000000 51.808199 0.000000 226.000000 0.987860 -0.152243 0.030906
10.28999996 11.25000000 -1.50999999 46 3 231 0.000000 0.000000 0.000000 0.000000 51.808199 0.000000 226.000000 0.988795 -0.148037 0.019211
10.35999966 11.26000023 -1.69000006 46 3 231 0.000000 0.000000 0.000000 0.000000 51.808199 0.000000 226.000000 0.895286 -0.335174 0.293463
10.35999966 11.26000023 -1.64999998 46 3 231 0.000000 0.000000 0.000000 0.000000 51.808199 0.000000 226.000000 0.827015 -0.419042 0.374766
10.36999989 11.27000046 -1.70000005 46 3 231 0.000000 0.000000 0.000000 0.000000 51.808199 0.000000 226.000000 0.968028 -0.250704 0.008397
10.36999989 11.26000023 -1.69000006 46 3 231 0.000000 0.000000 0.000000 0.000000 51.808199 0.000000 226.000000 0.951319 -0.212457 -0.223282
10.32999992 11.26000023 -1.57000005 46 3 231 0.000000 0.000000 0.000000 0.000000 51.808199 0.000000 226.000000 0.946332 -0.321372 0.034297
10.30000019 11.26000023 -1.55999994 46 3 231 0.000000 0.000000 0.000000 0.000000 51.808199 0.000000 226.000000 0.964982 -0.226067 0.133056
10.32999992 11.27000046 -1.57000005 46 3 231 0.000000 0.000000 0.000000 0.000000 51.808199 0.000000 226.000000 0.984458 -0.133425 0.114192
10.32999992 11.26000023 -1.60000002 46 3 231 0.000000 0.000000 0.000000 0.000000 51.808199 0.000000 226.000000 0.814090 -0.334840 0.474489
10.32999992 11.23999977 -1.60000002 46 3 231 0.000000 0.000000 0.000000 0.000000 51.808199 0.000000 226.000000 0.959106 -0.254457 0.123966
10.32999992 11.23999977 -1.61000001 46 3 231 0.000000 0.000000 0.000000 0.000000 51.808199 0.000000 226.000000 0.925260 -0.352678 0.139688
10.31999969 11.25000000 -1.60000002 46 3 231 0.000000 0.000000 0.000000 0.000000 51.808199 0.000000 226.000000 0.927347 -0.090440 0.363110
10.32999992 11.22000027 -1.60000002 46 3 231 0.000000 0.000000 0.000000 0.000000 51.808199 0.000000 226.000000 0.935064 -0.202063 0.291249
10.32999992 11.22999954 -1.58000004 46 3 231 0.000000 0.000000 0.000000 0.000000 51.808199 0.000000 226.000000 0.978225 -0.187320 0.089375
10.32999992 11.22000027 -1.64999998 46 3 231 0.000000 0.000000 0.000000 0.000000 51.808199 0.000000 226.000000 0.990023 -0.140798 0.005543
10.34000015 11.25000000 -1.64999998 46 3 231 0.000000 0.000000 0.000000 0.000000 51.808199 0.000000 226.000000 0.940815 -0.285137 0.183204
10.34000015 11.26000023 -1.64999998 46 3 231 0.000000 0.000000 0.000000 0.000000 51.808199 0.000000 226.000000 0.940017 -0.186347 0.285732
10.34000015 11.25000000 -1.66999996 46 3 231 0.000000 0.000000 0.000000 0.000000 51.808199 0.000000 226.000000 0.904910 -0.231692 0.357010
10.31999969 11.22000027 -1.63000000 46 3 231 0.000000 0.000000 0.000000 0.000000 51.808199 0.000000 226.000000 0.938035 -0.345861 -0.021696
10.14000034 11.23999977 -1.15999997 46 3 231 0.000000 0.000000 0.000000 0.000000 51.808199 0.000000 226.000000 0.933691 -0.286967 0.214175
10.23999977 11.25000000 -1.29999995 46 3 231 0.000000 0.000000 0.000000 0.000000 51.808199 0.000000 226.000000 0.885364 -0.220232 0.409425
10.23999977 11.27000046 -1.29999995 46 3 231 0.000000 0.000000 0.000000 0.000000 51.808199 0.000000 226.000000 0.962859 -0.177334 0.203606
10.06999969 11.26000023 -1.03999996 46 3 231 0.000000 0.000000 0.000000 0.000000 51.808199 0.000000 226.000000 0.697466 0.598535 0.394077
10.25000000 11.27000046 -1.38999999 46 3 231 0.000000 0.000000 0.000000 0.000000 51.808199 0.000000 226.000000 0.859934 -0.163167 0.483621
10.25000000 11.23999977 -1.40999997 46 3 231 0.000000 0.000000 0.000000 0.000000 51.808199 0.000000 226.000000 0.906166 -0.351668 0.234932
10.25000000 11.23999977 -1.41999996 46 3 231 0.000000 0.000000 0.000000 0.000000 51.808199 0.000000 226.000000 0.881213 -0.287712 0.375080
10.25000000 11.22999954 -1.38000000 46 3 231 0.000000 0.000000 0.000000 0.000000 51.808199 0.000000 226.000000 0.930528 -0.275346 0.241457
10.25000000 11.21000004 -1.44000006 46 3 231 0.000000 0.000000 0.000000 0.000000 51.808199 0.000000 226.000000 0.870564 -0.399578 -0.287149
10.22999954 11.21000004 -1.42999995 46 3 231 0.000000 0.000000 0.000000 0.000000 51.808199 0.000000 226.000000 0.961173 -0.243880 0.129113
10.23999977 11.19999981 -1.46000004 46 3 231 0.000000 0.000000 0.000000 0.000000 51.808199 0.000000 226.000000 0.772356 -0.489430 0.404877
10.22000027 11.18000031 -1.38999999 46 3 231 0.000000 0.000000 0.000000 0.000000 51.808199 0.000000 226.000000 0.764218 -0.594741 0.249509
10.36999989 11.27000046 -1.71000004 46 3 231 0.000000 0.000000 0.000000 0.000000 51.808199 0.000000 226.000000 0.998200 -0.055748 -0.022089
10.36999989 11.26000023 -1.74000001 46 3 231 0.000000 0.000000 0.000000 0.000000 51.808199 0.000000 226.000000 0.980742 0.005776 0.195224
9.85000038 11.26000023 -0.36000001 46 3 231 0.000000 0.000000 0.000000 0.000000 51.808199 0.000000 226.000000 -0.462863 0.795092 0.391901
9.85999966 11.27000046 -0.33000001 46 3 231 0.000000 0.000000 0.000000 0.000000 51.808199 0.000000 226.000000 -0.572659 0.817069 0.066786
9.84000015 11.22999954 -0.38000000 46 3 231 0.000000 0.000000 0.000000 0.000000 51.808199 0.000000 226.000000 0.928841 -0.328237 -0.171801
9.81999969 11.26000023 -0.34999999 46 3 231 0.000000 0.000000 0.000000 0.000000 51.808199 0.000000 226.000000 -0.687083 0.719451 0.101518
10.27000046 11.53999996 -0.22000000 46 3 231 0.000000 0.000000 0.000000 0.000000 51.808199 0.000000 226.000000 0.858004 0.501580 0.110664
10.26000023 11.55000019 -0.27000001 46 3 231 0.000000 0.000000 0.000000 0.000000 51.808199 0.000000 226.000000 0.724856 0.642737 0.247936
10.26000023 11.55000019 -0.28000000 46 3 231 0.000000 0.000000 0.000000 0.000000 51.808199 0.000000 226.000000 0.492311 0.862620 0.116260
10.26000023 11.52000046 -0.16000000 46 3 231 0.000000 0.000000 0.000000 0.000000 51.808199 0.000000 226.000000 0.575462 0.788367 -0.217534
10.19999981 11.47000027 0.09000000 46 3 231 0.000000 0.000000 0.000000 0.000000 51.808199 0.000000 226.000000 0.576756 0.795893 0.184136
10.10999966 11.35999966 0.22000000 46 3 231 0.000000 0.000000 0.000000 0.000000 51.808199 0.000000 226.000000 0.611615 0.791096 -0.009664
10.22999954 11.40999985 0.04000000 46 3 231 0.000000 0.000000 0.000000 0.000000 51.808199 0.000000 226.000000 0.727032 0.676482 0.117455
10.09000015 11.32999992 0.08000000 46 3 231 0.000000 0.000000 0.000000 0.000000 51.808199 0.000000 226.000000 0.658593 0.729212 0.185757
10.07999992 11.30000019 0.23000000 46 3 231 0.000000 0.000000 0.000000 0.000000 51.808199 0.000000 226.000000 0.637892 0.755517 -0.149294
10.05000019 11.34000015 0.15000001 46 3 231 0.000000 0.000000 0.000000 0.000000 51.808199 0.000000 226.000000 0.364600 0.904962 0.219341
10.05000019 11.32999992 0.05000000 46 3 231 0.000000 0.000000 0.000000 0.000000 51.808199 0.000000 226.000000 0.436933 0.872374 0.219212
10.07999992 11.35000038 0.05000000 46 3 231 0.000000 0.000000 0.000000 0.000000 51.808199 0.000000 226.000000 0.723585 0.689995 -0.018195
10.06000042 11.31999969 0.04000000 46 3 231 0.000000 0.000000 0.000000 0.000000 51.808199 0.000000 226.000000 0.541774 0.840497 -0.006789
10.01000023 11.30000019 0.06000000 46 3 231 0.000000 0.000000 0.000000 0.000000 51.808199 0.000000 226.000000 0.483940 0.874867 0.020220
9.97000027 11.31000042 0.16000000 46 3 231 0.000000 0.000000 0.000000 0.000000 51.808199 0.000000 226.000000 0.332034 0.805461 0.490902
9.98999977 11.30000019 0.02000000 46 3 231 0.000000 0.000000 0.000000 0.000000 51.808199 0.000000 226.000000 0.330662 0.814789 0.476216
10.17000008 11.44999981 -0.04000000 46 3 231 0.000000 0.000000 0.000000 0.000000 51.808199 0.000000 226.000000 0.801420 0.543098 0.250541
10.23999977 11.52999973 -0.20999999 46 3 231 0.000000 0.000000 0.000000 0.000000 51.808199 0.000000 226.000000 0.225063 0.947994 0.225063
10.25000000 11.50000000 -0.25999999 46 3 231 0.000000 0.000000 0.000000 0.000000 51.808199 0.000000 226.000000 0.835998 0.517808 0.181608
10.23999977 11.52999973 -0.27000001 46 3 231 0.000000 0.000000 0.000000 0.000000 51.808199 0.000000 226.000000 0.353299 0.923045 0.152212
10.25000000 11.52000046 -0.30000001 46 3 231 0.000000 0.000000 0.000000 0.000000 51.808199 0.000000 226.000000 0.412020 0.909145 -0.060790
10.21000004 11.43000031 -0.08000000 46 3 231 0.000000 0.000000 0.000000 0.000000 51.808199 0.000000 226.000000 0.319834 0.854434 0.409449
10.18999958 11.42000008 -0.15000001 46 3 231 0.000000 0.000000 0.000000 0.000000 51.808199 0.000000 226.000000 0.359102 0.901420 0.241844
10.17000008 11.38000011 -0.05000000 46 3 231 0.000000 0.000000 0.000000 0.000000 51.808199 0.000000 226.000000 0.750348 0.660250 -0.032379
10.17000008 11.42000008 -0.06000000 46 3 231 0.000000 0.000000 0.000000 0.000000 51.808199 0.000000 226.000000 0.498866 0.806104 0.318324
10.17000008 11.36999989 -0.08000000 46 3 231 0.000000 0.000000 0.000000 0.000000 51.808199 0.000000 226.000000 0.509208 0.844720 -0.164787
10.13000011 11.35000038 -0.05000000 46 3 231 0.000000 0.000000 0.000000 0.000000 51.808199 0.000000 226.000000 0.475296 0.876719 -0.073873
10.18000031 11.40999985 -0.31000000 46 3 231 0.000000 0.000000 0.000000 0.000000 51.808199 0.000000 226.000000 0.734252 0.633627 0.243703
10.18999958 11.39999962 -0.30000001 46 3 231 0.000000 0.000000 0.000000 0.000000 51.808199 0.000000 226.000000 0.688834 0.718209 0.098405
10.14999962 11.39000034 -0.17000000 46 3 231 0.000000 0.000000 0.000000 0.000000 51.808199 0.000000 226.000000 0.778405 0.597950 0.191160
10.17000008 11.39999962 -0.20000000 46 3 231 0.000000 0.000000 0.000000 0.000000 51.808199 0.000000 226.000000 0.644675 0.732088 0.220095
10.14999962 11.39999962 -0.25000000 46 3 231 0.000000 0.000000 0.000000 0.000000 51.808199 0.000000 226.000000 0.620292 0.768196 -0.158469
10.09000015 11.32999992 -0.17000000 46 3 231 0.000000 0.000000 0.000000 0.000000 51.808199 0.000000 226.000000 0.404637 0.871409 0.277335
10.11999989 11.35999966 -0.28000000 46 3 231 0.000000 0.000000 0.000000 0.000000 51.808199 0.000000 226.000000 0.282159 0.957824 -0.054407
10.06999969 11.31999969 -0.02000000 46 3 231 0.000000 0.000000 0.000000 0.000000 51.808199 0.000000 226.000000 0.279747 0.958229 0.059494
10.02999973 11.31999969 -0.02000000 46 3 231 0.000000 0.000000 0.000000 0.000000 51.808199 0.000000 226.000000 0.713145 0.672924 0.196463
10.02999973 11.34000015 0.00000000 46 3 231 0.000000 0.000000 0.000000 0.000000 51.808199 0.000000 226.000000 0.388743 0.910810 -0.138937
10.01000023 11.32999992 -0.07000000 46 3 231 0.000000 0.000000 0.000000 0.000000 51.808199 0.000000 226.000000 0.382161 0.924088 0.003834
10.01000023 11.31999969 -0.05000000 46 3 231 0.000000 0.000000 0.000000 0.000000 51.808199 0.000000 226.000000 0.330146 0.925815 -0.184039
10.02999973 11.31000042 -0.05000000 46 3 231 0.000000 0.000000 0.000000 0.000000 51.808199 0.000000 226.000000 0.389922 0.761898 0.517177
10.03999996 11.30000019 -0.03000000 46 3 231 0.000000 0.000000 0.000000 0.000000 51.808199 0.000000 226.000000 0.135412 0.965936 0.220527
10.02000046 11.31999969 -0.20000000 46 3 231 0.000000 0.000000 0.000000 0.000000 51.808199 0.000000 226.000000 0.272824 0.890031 0.365256
10.01000023 11.31999969 -0.20000000 46 3 231 0.000000 0.000000 0.000000 0.000000 51.808199 0.000000 226.000000 0.017330 0.889170 0.457249
10.03999996 11.31000042 -0.22000000 46 3 231 0.000000 0.000000 0.000000 0.000000 51.808199 0.000000 226.000000 0.330055 0.935835 0.123601
10.05000019 11.31999969 -0.31999999 46 3 231 0.000000 0.000000 0.000000 0.000000 51.808199 0.000000 226.000000 0.143157 0.960073 0.240347
10.06000042 11.34000015 -0.31000000 46 3 231 0.000000 0.000000 0.000000 0.000000 51.808199 0.000000 226.000000 0.462364 0.877490 -0.127401
10.02000046 11.32999992 -0.28999999 46 3 231 0.000000 0.000000 0.000000 0.000000 51.808199 0.000000 226.000000 0.277857 0.763709 0.582705
10.02999973 11.30000019 -0.27000001 46 3 231 0.000000 0.000000 0.000000 0.000000 51.808199 0.000000 226.000000 0.636853 0.761551 0.120245
9.97999954 11.28999996 -0.25999999 46 3 231 0.000000 0.000000 0.000000 0.000000 51.808199 0.000000 226.000000 0.361982 0.930622 0.053968
9.93000031 11.28999996 -0.30000001 46 3 231 0.000000 0.000000 0.000000 0.000000 51.808199 0.000000 226.000000 -0.424688 0.891125 0.159798
9.93999958 11.25000000 0.10000000 46 3 231 0.000000 0.000000 0.000000 0.000000 51.808199 0.000000 226.000000 0.547766 0.828223 0.118318
9.98999977 11.27000046 -0.03000000 46 3 231 0.000000 0.000000 0.000000 0.000000 51.808199 0.000000 226.000000 0.259500 0.863483 0.432500
9.92000008 11.27000046 -0.16000000 46 3 231 0.000000 0.000000 0.000000 0.000000 51.808199 0.000000 226.000000 -0.209403 0.848158 0.486599
9.77000046 11.27999973 0.19000000 46 3 231 0.000000 0.000000 0.000000 0.000000 51.808199 0.000000 226.000000 -0.082436 0.975699 0.203014
9.77999973 11.27999973 0.22000000 46 3 231 0.000000 0.000000 0.000000 0.000000 51.808199 0.000000 226.000000 -0.498047 0.848910 -0.176918
9.89999962 11.27999973 0.16000000 46 3 231 0.000000 0.000000 0.000000 0.000000 51.808199 0.000000 226.000000 -0.360648 0.926797 0.104792
9.84000015 11.27999973 0.06000000 46 3 231 0.000000 0.000000 0.000000 0.000000 51.808199 0.000000 226.000000 -0.276941 0.922660 -0.268332
9.77000046 11.27999973 0.17000000 46 3 231 0.000000 0.000000 0.000000 0.000000 51.808199 0.000000 226.000000 -0.265725 0.920700 0.285834
9.56999969 11.34000015 0.23999999 46 3 231 0.000000 0.000000 0.000000 0.000000 51.808199 0.000000 226.000000 -0.599055 0.794367 -0.100571
9.72000027 11.28999996 0.07000000 46 3 231 0.000000 0.000000 0.000000 0.000000 51.808199 0.000000 226.000000 -0.496231 0.865259 -0.071290
9.71000004 11.27999973 0.06000000 46 3 231 0.000000 0.000000 0.000000 0.000000 51.808199 0.000000 226.000000 -0.500484 0.859806 -0.101238
9.67000008 11.28999996 0.06000000 46 3 231 0.000000 0.000000 0.000000 0.000000 51.808199 0.000000 226.000000 -0.476710 0.826818 0.298530
9.68999958 11.28999996 0.01000000 46 3 231 0.000000 0.000000 0.000000 0.000000 51.808199 0.000000 226.000000 -0.519402 0.808133 0.277747
9.51000023 11.40999985 0.08000000 46 3 231 0.000000 0.000000 0.000000 0.000000 51.808199 0.000000 226.000000 -0.466179 0.880560 -0.085396
9.77000046 11.27000046 0.22000000 46 3 231 0.000000 0.000000 0.000000 0.000000 51.808199 0.000000 226.000000 -0.415454 0.893154 0.172261
9.75000000 11.27000046 0.20000000 46 3 231 0.000000 0.000000 0.000000 0.000000 51.808199 0.000000 226.000000 -0.140350 0.989296 0.039937
9.85999966 11.27000046 0.13000000 46 3 231 0.000000 0.000000 0.000000 0.000000 51.808199 0.000000 226.000000 -0.424156 0.897633 0.119778
9.89000034 11.27000046 0.06000000 46 3 231 0.000000 0.000000 0.000000 0.000000 51.808199 0.000000 226.000000 -0.101061 0.866847 0.488224
9.85000038 11.25000000 0.02000000 46 3 231 0.000000 0.000000 0.000000 0.000000 51.808199 0.000000 226.000000 -0.348726 0.937121 0.013949
9.81999969 11.27000046 0.17000000 46 3 231 0.000000 0.000000 0.000000 0.000000 51.808199 0.000000 226.000000 -0.306099 0.923993 -0.229218
9.80000019 11.26000023 0.10000000 46 3 231 0.000000 0.000000 0.000000 0.000000 51.808199 0.000000 226.000000 -0.478601 0.877659 0.025615
9.76000023 11.26000023 0.14000000 46 3 231 0.000000 0.000000 0.000000 0.000000 51.808199 0.000000 226.000000 -0.343841 0.913554 0.217239
9.81999969 11.25000000 0.07000000 46 3 231 0.000000 0.000000 0.000000 0.000000 51.808199 0.000000 226.000000 -0.376684 0.893701 -0.243737
9.80000019 11.26000023 0.04000000 46 3 231 0.000000 0.000000 0.000000 0.000000 51.808199 0.000000 226.000000 -0.556345 0.759532 0.337032
9.76000023 11.27000046 0.07000000 46 3 231 0.000000 0.000000 0.000000 0.000000 51.808199 0.000000 226.000000 -0.361794 0.931261 0.043102
9.73999977 11.27000046 0.19000000 46 3 231 0.000000 0.000000 0.000000 0.000000 51.808199 0.000000 226.000000 -0.340412 0.907279 0.246909
9.71000004 11.25000000 0.11000000 46 3 231 0.000000 0.000000 0.000000 0.000000 51.808199 0.000000 226.000000 -0.311733 0.950104 -0.011178
9.69999981 11.27000046 0.12000000 46 3 231 0.000000 0.000000 0.000000 0.000000 51.808199 0.000000 226.000000 -0.385188 0.908247 -0.163456
9.71000004 11.27000046 0.07000000 46 3 231 0.000000 0.000000 0.000000 0.000000 51.808199 0.000000 226.000000 -0.657946 0.728826 0.189525
9.72999954 11.26000023 0.05000000 46 3 231 0.000000 0.000000 0.000000 0.000000 51.808199 0.000000 226.000000 0.741572 -0.666109 -0.079817
9.89000034 11.26000023 -0.14000000 46 3 231 0.000000 0.000000 0.000000 0.000000 51.808199 0.000000 226.000000 -0.288949 0.823113 0.488870
9.78999996 11.23999977 0.01000000 46 3 231 0.000000 0.000000 0.000000 0.000000 51.808199 0.000000 226.000000 -0.422405 0.887197 -0.185624
9.77999973 11.23999977 -0.06000000 46 3 231 0.000000 0.000000 0.000000 0.000000 51.808199 0.000000 226.000000 -0.580357 0.811359 0.069871
9.78999996 11.26000023 -0.09000000 46 3 231 0.000000 0.000000 0.000000 0.000000 51.808199 0.000000 226.000000 -0.489472 0.783479 0.382855
9.77000046 11.25000000 -0.09000000 46 3 231 0.000000 0.000000 0.000000 0.000000 51.808199 0.000000 226.000000 -0.519636 0.722178 0.456549
9.88000011 11.25000000 -0.16000000 46 3 231 0.000000 0.000000 0.000000 0.000000 51.808199 0.000000 226.000000 -0.501402 0.812617 0.297069
9.90999985 11.26000023 -0.18000001 46 3 231 0.000000 0.000000 0.000000 0.000000 51.808199 0.000000 226.000000 -0.447911 0.870525 0.203867
9.90999985 11.27000046 -0.22000000 46 3 231 0.000000 0.000000 0.000000 0.000000 51.808199 0.000000 226.000000 -0.435960 0.899747 0.019877
9.86999989 11.27000046 -0.19000000 46 3 231 0.000000 0.000000 0.000000 0.000000 51.808199 0.000000 226.000000 -0.548052 0.835326 -0.043231
9.86999989 11.26000023 -0.25999999 46 3 231 0.000000 0.000000 0.000000 0.000000 51.808199 0.000000 226.000000 -0.401483 0.897178 0.184074
9.86999989 11.26000023 -0.31000000 46 3 231 0.000000 0.000000 0.000000 0.000000 51.808199 0.000000 226.000000 -0.369111 0.889155 0.270482
9.82999992 11.25000000 -0.31999999 46 3 231 0.000000 0.000000 0.000000 0.000000 51.808199 0.000000 226.000000 -0.698028 0.706920 0.114115
9.78999996 11.25000000 -0.17000000 46 3 231 0.000000 0.000000 0.000000 0.000000 51.808199 0.000000 226.000000 -0.323968 0.920524 0.218357
9.80000019 11.26000023 -0.18000001 46 3 231 0.000000 0.000000 0.000000 0.000000 51.808199 0.000000 226.000000 -0.406591 0.883181 0.233827
9.80000019 11.26000023 -0.17000000 46 3 231 0.000000 0.000000 0.000000 0.000000 51.808199 0.000000 226.000000 -0.396519 0.816926 0.418814
9.80000019 11.26000023 -0.18000001 46 3 231 0.000000 0.000000 0.000000 0.000000 51.808199 0.000000 226.000000 -0.406591 0.883181 0.233827
9.78999996 11.25000000 -0.17000000 46 3 231 0.000000 0.000000 0.000000 0.000000 51.808199 0.000000 226.000000 -0.323968 0.920524 0.218357
9.81000042 11.23999977 -0.23999999 46 3 231 0.000000 0.000000 0.000000 0.000000 51.808199 0.000000 226.000000 -0.639295 0.738844 0.213098
9.77999973 11.23999977 -0.23999999 46 3 231 0.000000 0.000000 0.000000 0.000000 51.808199 0.000000 226.000000 -0.408923 0.903565 0.127876
10.30000019 11.67000008 -0.81000000 46 3 231 0.000000 0.000000 0.000000 0.000000 51.808199 0.000000 226.000000 0.686794 0.647827 0.329596
10.27000046 11.63000011 -0.86000001 46 3 231 0.000000 0.000000 0.000000 0.000000 51.808199 0.000000 226.000000 0.655908 0.629340 0.416792
10.27999973 11.61999989 -0.85000002 46 3 231 0.000000 0.000000 0.000000 0.000000 51.808199 0.000000 226.000000 0.652662 0.715874 0.248106
10.26000023 11.60000038 -0.38999999 46 3 231 0.000000 0.000000 0.000000 0.000000 51.808199 0.000000 226.000000 0.423279 0.888740 -0.176002
10.27000046 11.59000015 -0.44000000 46 3 231 0.000000 0.000000 0.000000 0.000000 51.808199 0.000000 226.000000 0.318155 0.943904 -0.088450
10.27999973 11.60000038 -0.51999998 46 3 231 0.000000 0.000000 0.000000 0.000000 51.808199 0.000000 226.000000 0.734966 0.644843 0.209768
10.27000046 11.60000038 -0.50999999 46 3 231 0.000000 0.000000 0.000000 0.000000 51.808199 0.000000 226.000000 0.813592 0.553967 0.176605
10.27000046 11.53999996 -0.50999999 46 3 231 0.000000 0.000000 0.000000 0.000000 51.808199 0.000000 226.000000 0.630765 0.731940 0.257681
10.31000042 11.55000019 -0.63999999 46 3 231 0.000000 0.000000 0.000000 0.000000 51.808199 0.000000 226.000000 0.668598 0.658790 0.344925
10.27999973 11.52999973 -0.56000000 46 3 231 0.000000 0.000000 0.000000 0.000000 51.808199 0.000000 226.000000 0.816566 0.519069 0.252562
10.28999996 11.52999973 -0.64999998 46 3 231 0.000000 0.000000 0.000000 0.000000 51.808199 0.000000 226.000000 0.624579 0.637974 0.450433
10.27999973 11.48999977 -0.70999998 46 3 231 0.000000 0.000000 0.000000 0.000000 51.808199 0.000000 226.000000 0.649765 0.758297 -0.052838
10.28999996 11.52999973 -0.73000002 46 3 231 0.000000 0.000000 0.000000 0.000000 51.808199 0.000000 226.000000 0.381185 0.916231 0.123365
10.26000023 11.52000046 -0.77999997 46 3 231 0.000000 0.000000 0.000000 0.000000 51.808199 0.000000 226.000000 0.416155 0.906865 -0.066422
10.31000042 11.53999996 -0.92000002 46 3 231 0.000000 0.000000 0.000000 0.000000 51.808199 0.000000 226.000000 0.536254 0.657290 0.529530
10.26000023 11.44999981 -0.94999999 46 3 231 0.000000 0.000000 0.000000 0.000000 51.808199 0.000000 226.000000 0.801817 0.567510 -0.187141
10.27000046 11.47000027 -0.98000002 46 3 231 0.000000 0.000000 0.000000 0.000000 51.808199 0.000000 226.000000 0.901392 0.428263 0.063900
10.27999973 11.47000027 -0.98000002 46 3 231 0.000000 0.000000 0.000000 0.000000 51.808199 0.000000 226.000000 0.695597 0.715759 0.061927
10.25000000 11.55000019 -0.41999999 46 3 231 0.000000 0.000000 0.000000 0.000000 51.808199 0.000000 226.000000 0.453307 0.876005 -0.164706
10.18999958 11.51000023 -0.61000001 46 3 231 0.000000 0.000000 0.000000 0.000000 51.808199 0.000000 226.000000 0.631320 0.720824 0.286092
10.18999958 11.51000023 -0.61000001 46 3 231 0.000000 0.000000 0.000000 0.000000 51.808199 0.000000 226.000000 0.631320 0.720824 0.286092
10.21000004 11.47000027 -0.63000000 46 3 231 0.000000 0.000000 0.000000 0.000000 51.808199 0.000000 226.000000 0.554944 0.803977 0.213677
10.21000004 11.47999954 -0.63999999 46 3 231 0.000000 0.000000 0.000000 0.000000 51.808199 0.000000 226.000000 0.608076 0.608076 0.510380
10.17000008 11.39000034 -0.34000000 46 3 231 0.000000 0.000000 0.000000 0.000000 51.808199 0.000000 226.000000 0.527319 0.635142 0.564383
10.14000034 11.38000011 -0.41000000 46 3 231 0.000000 0.000000 0.000000 0.000000 51.808199 0.000000 226.000000 0.768675 0.597165 0.229199
10.14000034 11.38000011 -0.41000000 46 3 231 0.000000 0.000000 0.000000 0.000000 51.808199 0.000000 226.000000 0.768675 0.597165 0.229199
10.10000038 11.35000038 -0.38999999 46 3 231 0.000000 0.000000 0.000000 0.000000 51.808199 0.000000 226.000000 0.621585 0.638340 0.454042
10.10000038 11.34000015 -0.38000000 46 3 231 0.000000 0.000000 0.000000 0.000000 51.808199 0.000000 226.000000 0.376911 0.846095 0.376911
10.13000011 11.35999966 -0.41999999 46 3 231 0.000000 0.000000 0.000000 0.000000 51.808199 0.000000 226.000000 0.584522 0.809879 0.049297
10.11999989 11.35000038 -0.44999999 46 3 231 0.000000 0.000000 0.000000 0.000000 51.808199 0.000000 226.000000 0.503223 0.821049 0.269528
10.21000004 11.42000008 -0.67000002 46 3 231 0.000000 0.000000 0.000000 0.000000 51.808199 0.000000 226.000000 0.364000 0.888279 0.280115
10.14000034 11.38000011 -0.66000003 46 3 231 0.000000 0.000000 0.000000 0.000000 51.808199 0.000000 226.000000 0.702977 0.690778 0.169263
10.10999966 11.35000038 -0.64999998 46 3 231 0.000000 0.000000 0.000000 0.000000 51.808199 0.000000 226.000000 0.840159 0.506500 0.193883
10.06999969 11.31999969 -0.34999999 46 3 231 0.000000 0.000000 0.000000 0.000000 51.808199 0.000000 226.000000 0.173138 0.982706 0.065673
10.07999992 11.34000015 -0.34000000 46 3 231 0.000000 0.000000 0.000000 0.000000 51.808199 0.000000 226.000000 0.260442 0.839887 0.476193
10.02999973 11.32999992 -0.36000001 46 3 231 0.000000 0.000000 0.000000 0.000000 51.808199 0.000000 226.000000 0.291076 0.774611 0.561474
10.01000023 11.31999969 -0.37000000 46 3 231 0.000000 0.000000 0.000000 0.000000 51.808199 0.000000 226.000000 0.506900 0.734757 0.450761
10.01000023 11.31000042 -0.34999999 46 3 231 0.000000 0.000000 0.000000 0.000000 51.808199 0.000000 226.000000 0.127217 0.931557 0.340613
10.06000042 11.31000042 -0.41999999 46 3 231 0.000000 0.000000 0.000000 0.000000 51.808199 0.000000 226.000000 0.128962 0.975352 0.179044
10.05000019 11.30000019 -0.44000000 46 3 231 0.000000 0.000000 0.000000 0.000000 51.808199 0.000000 226.000000 0.439816 0.881094 -0.173881
10.01000023 11.31999969 -0.49000001 46 3 231 0.000000 0.000000 0.000000 0.000000 51.808199 0.000000 226.000000 0.048736 0.848006 0.527741
10.01000023 11.31000042 -0.44000000 46 3 231 0.000000 0.000000 0.000000 0.000000 51.808199 0.000000 226.000000 0.392005 0.919853 -0.014231
10.02000046 11.31000042 -0.50000000 46 3 231 0.000000 0.000000 0.000000 0.000000 51.808199 0.000000 226.000000 0.477044 0.744453 0.467140
10.02999973 11.31000042 -0.46000001 46 3 231 0.000000 0.000000 0.000000 0.000000 51.808199 0.000000 226.000000 0.201405 0.962266 -0.182975
9.96000004 11.31000042 -0.34000000 46 3 231 0.000000 0.000000 0.000000 0.000000 51.808199 0.000000 226.000000 0.031664 0.843918 0.535537
9.93999958 11.31000042 -0.37000000 46 3 231 0.000000 0.000000 0.000000 0.000000 51.808199 0.000000 226.000000 -0.226002 0.890716 0.394396
9.98999977 11.30000019 -0.44999999 46 3 231 0.000000 0.000000 0.000000 0.000000 51.808199 0.000000 226.000000 -0.025104 0.907712 0.418842
9.97000027 11.30000019 -0.41999999 46 3 231 0.000000 0.000000 0.000000 0.000000 51.808199 0.000000 226.000000 0.295033 0.848027 0.440233
10.06999969 11.32999992 -0.50999999 46 3 231 0.000000 0.000000 0.000000 0.000000 51.808199 0.000000 226.000000 0.161640 0.986797 0.010173
10.06999969 11.31999969 -0.50999999 46 3 231 0.000000 0.000000 0.000000 0.000000 51.808199 0.000000 226.000000 0.173029 0.977177 0.123236
10.07999992 11.32999992 -0.56000000 46 3 231 0.000000 0.000000 0.000000 0.000000 51.808199 0.000000 226.000000 0.541061 0.840894 -0.012266
10.03999996 11.32999992 -0.56000000 46 3 231 0.000000 0.000000 0.000000 0.000000 51.808199 0.000000 226.000000 0.578933 0.814948 -0.026378
10.03999996 11.28999996 -0.63999999 46 3 231 0.000000 0.000000 0.000000 0.000000 51.808199 0.000000 226.000000 0.390755 0.827388 0.403411
10.02000046 11.31000042 -0.66000003 46 3 231 0.000000 0.000000 0.000000 0.000000 51.808199 0.000000 226.000000 0.278677 0.959886 0.030964
10.25000000 11.52999973 -0.70999998 46 3 231 0.000000 0.000000 0.000000 0.000000 51.808199 0.000000 226.000000 0.433370 0.846548 0.309106
10.25000000 11.52000046 -0.70999998 46 3 231 0.000000 0.000000 0.000000 0.000000 51.808199 0.000000 226.000000 0.694611 0.554690 0.458077
10.18000031 11.38000011 -0.69999999 46 3 231 0.000000 0.000000 0.000000 0.000000 51.808199 0.000000 226.000000 0.501852 0.860923 -0.083406
10.10999966 11.31999969 -0.81000000 46 3 231 0.000000 0.000000 0.000000 0.000000 51.808199 0.000000 226.000000 0.764352 0.644617 -0.015315
10.25000000 11.43000031 -0.94999999 46 3 231 0.000000 0.000000 0.000000 0.000000 51.808199 0.000000 226.000000 0.818964 0.326639 0.471811
10.23999977 11.39000034 -1.00000000 46 3 231 0.000000 0.000000 0.000000 0.000000 51.808199 0.000000 226.000000 0.861692 0.504844 -0.051176
10.21000004 11.31000042 -0.92000002 46 3 231 0.000000 0.000000 0.000000 0.000000 51.808199 0.000000 226.000000 0.867256 0.258814 0.425303
10.21000004 11.34000015 -0.94000000 46 3 231 0.000000 0.000000 0.000000 0.000000 51.808199 0.000000 226.000000 0.891965 0.451947 0.011928
10.14999962 11.32999992 -0.85000002 46 3 231 0.000000 0.000000 0.000000 0.000000 51.808199 0.000000 226.000000 0.486051 0.764261 0.423862
10.10999966 11.32999992 -0.88000000 46 3 231 0.000000 0.000000 0.000000 0.000000 51.808199 0.000000 226.000000 0.735699 0.677066 0.018148
10.10000038 11.28999996 -0.95999998 46 3 231 0.000000 0.000000 0.000000 0.000000 51.808199 0.000000 226.000000 0.934189 0.355943 -0.024415
10.11999989 11.27999973 -1.00000000 46 3 231 0.000000 0.000000 0.000000 0.000000 51.808199 0.000000 226.000000 0.958427 0.118662 0.259493
10.05000019 11.28999996 -0.68000001 46 3 231 0.000000 0.000000 0.000000 0.000000 51.808199 0.000000 226.000000 0.190861 0.934802 0.299527
10.06999969 11.27999973 -0.79000002 46 3 231 0.000000 0.000000 0.000000 0.000000 51.808199 0.000000 226.000000 0.537015 0.821406 0.192115
10.06000042 11.27999973 -0.83999997 46 3 231 0.000000 0.000000 0.000000 0.000000 51.808199 0.000000 226.000000 0.268813 0.962522 -0.035924
10.03999996 11.30000019 -0.76999998 46 3 231 0.000000 0.000000 0.000000 0.000000 51.808199 0.000000 226.000000 0.175995 0.969900 -0.168287
10.07999992 11.30000019 -0.89999998 46 3 231 0.000000 0.000000 0.000000 0.000000 51.808199 0.000000 226.000000 0.641251 0.634589 0.431387
10.35000038 11.72999954 -1.17999995 46 3 231 0.000000 0.000000 0.000000 0.000000 51.808199 0.000000 226.000000 0.413353 0.901476 0.128379
10.35000038 11.61999989 -1.09000003 46 3 231 0.000000 0.000000 0.000000 0.000000 51.808199 0.000000 226.000000 0.720121 0.487287 0.493940
10.36999989 11.67000008 -1.03999996 46 3 231 0.000000 0.000000 0.000000 0.000000 51.808199 0.000000 226.000000 0.822012 0.548503 0.153105
10.31999969 11.72000027 -1.04999995 46 3 231 0.000000 0.000000 0.000000 0.000000 51.808199 0.000000 226.000000 0.719401 0.629676 0.293208
10.34000015 11.67000008 -1.15999997 46 3 231 0.000000 0.000000 0.000000 0.000000 51.808199 0.000000 226.000000 0.840894 0.541061 0.012266
10.34000015 11.65999985 -1.11000001 46 3 231 0.000000 0.000000 0.000000 0.000000 51.808199 0.000000 226.000000 0.546160 0.837627 0.009534
10.39000034 11.67000008 -1.28999996 46 3 231 0.000000 0.000000 0.000000 0.000000 51.808199 0.000000 226.000000 0.430497 0.898369 -0.087207
10.38000011 11.68999958 -1.37000000 46 3 231 0.000000 0.000000 0.000000 0.000000 51.808199 0.000000 226.000000 0.823342 0.547411 0.149833
10.35999966 11.64999962 -1.41999996 46 3 231 0.000000 0.000000 0.000000 0.000000 51.808199 0.000000 226.000000 0.356839 0.798488 0.484853
10.34000015 11.60000038 -1.17999995 46 3 231 0.000000 0.000000 0.000000 0.000000 51.808199 0.000000 226.000000 0.465791 0.884600 0.022820
10.31000042 11.56000042 -1.14999998 46 3 231 0.000000 0.000000 0.000000 0.000000 51.808199 0.000000 226.000000 0.831264 0.553709 0.049063
10.31000042 11.50000000 -1.04999995 46 3 231 0.000000 0.000000 0.000000 0.000000 51.808199 0.000000 226.000000 0.787328 0.532838 0.310159
10.27000046 11.46000004 -1.04999995 46 3 231 0.000000 0.000000 0.000000 0.000000 51.808199 0.000000 226.000000 0.807250 0.544855 0.226894
10.36999989 11.60000038 -1.34000003 46 3 231 0.000000 0.000000 0.000000 0.000000 51.808199 0.000000 226.000000 0.740803 0.557646 0.374490
10.35000038 11.55000019 -1.36000001 46 3 231 0.000000 0.000000 0.000000 0.000000 51.808199 0.000000 226.000000 0.389007 0.900934 0.192334
10.35000038 11.48999977 -1.19000006 46 3 231 0.000000 0.000000 0.000000 0.000000 51.808199 0.000000 226.000000 0.906570 0.391376 0.157974
10.36999989 11.47000027 -1.27999997 46 3 231 0.000000 0.000000 0.000000 0.000000 51.808199 0.000000 226.000000 0.951439 0.305322 0.039274
10.35999966 11.50000000 -1.34000003 46 3 231 0.000000 0.000000 0.000000 0.000000 51.808199 0.000000 226.000000 0.960636 0.271402 0.059330
10.34000015 11.55000019 -1.22000003 46 3 231 0.000000 0.000000 0.000000 0.000000 51.808199 0.000000 226.000000 0.881444 0.431157 0.192770
10.32999992 11.53999996 -1.28999996 46 3 231 0.000000 0.000000 0.000000 0.000000 51.808199 0.000000 226.000000 0.588802 0.678874 0.438683
10.31999969 11.48999977 -1.21000004 46 3 231 0.000000 0.000000 0.000000 0.000000 51.808199 0.000000 226.000000 0.678229 0.706165 0.203313
10.31000042 11.50000000 -1.22000003 46 3 231 0.000000 0.000000 0.000000 0.000000 51.808199 0.000000 226.000000 0.808863 0.566653 0.156988
10.34000015 11.52000046 -1.26999998 46 3 231 0.000000 0.000000 0.000000 0.000000 51.808199 0.000000 226.000000 0.907846 0.417262 0.041326
10.32999992 11.48999977 -1.25000000 46 3 231 0.000000 0.000000 0.000000 0.000000 51.808199 0.000000 226.000000 0.833237 0.288129 0.471908
10.34000015 11.52999973 -1.28999996 46 3 231 0.000000 0.000000 0.000000 0.000000 51.808199 0.000000 226.000000 0.871951 0.472606 -0.127848
10.34000015 11.50000000 -1.29999995 46 3 231 0.000000 0.000000 0.000000 0.000000 51.808199 0.000000 226.000000 0.931771 0.344143 0.115621
10.32999992 11.44999981 -1.35000002 46 3 231 0.000000 0.000000 0.000000 0.000000 51.808199 0.000000 226.000000 0.916620 0.180482 0.356700
10.26000023 11.43999958 -1.04999995 46 3 231 0.000000 0.000000 0.000000 0.000000 51.808199 0.000000 226.000000 0.867404 0.483166 0.118999
10.27000046 11.42000008 -1.08000004 46 3 231 0.000000 0.000000 0.000000 0.000000 51.808199 0.000000 226.000000 0.720498 0.688476 0.082966
10.28999996 11.43000031 -1.10000002 46 3 231 0.000000 0.000000 0.000000 0.000000 51.808199 0.000000 226.000000 0.934912 0.353646 -0.029578
10.27000046 11.39999962 -1.05999994 46 3 231 0.000000 0.000000 0.000000 0.000000 51.808199 0.000000 226.000000 0.971059 0.167600 0.170159
10.26000023 11.38000011 -1.15999997 46 3 231 0.000000 0.000000 0.000000 0.000000 51.808199 0.000000 226.000000 0.979289 0.084148 0.184150
10.26000023 11.38000011 -1.13999999 46 3 231 0.000000 0.000000 0.000000 0.000000 51.808199 0.000000 226.000000 0.676269 0.685816 0.268916
10.26000023 11.36999989 -1.13000000 46 3 231 0.000000 0.000000 0.000000 0.000000 51.808199 0.000000 226.000000 0.942196 0.213822 0.257966
10.27000046 11.30000019 -1.17999995 46 3 231 0.000000 0.000000 0.000000 0.000000 51.808199 0.000000 226.000000 0.987765 0.134748 -0.078506
10.31000042 11.38000011 -1.23000002 46 3 231 0.000000 0.000000 0.000000 0.000000 51.808199 0.000000 226.000000 0.931007 0.343146 -0.124408
10.32999992 11.43000031 -1.28999996 46 3 231 0.000000 0.000000 0.000000 0.000000 51.808199 0.000000 226.000000 0.735107 0.670288 0.101648
10.34000015 11.42000008 -1.34000003 46 3 231 0.000000 0.000000 0.000000 0.000000 51.808199 0.000000 226.000000 0.930796 0.258476 0.258476
10.34000015 11.43999958 -1.35000002 46 3 231 0.000000 0.000000 0.000000 0.000000 51.808199 0.000000 226.000000 0.742131 0.654821 0.143007
10.27000046 11.34000015 -1.20000005 46 3 231 0.000000 0.000000 0.000000 0.000000 51.808199 0.000000 226.000000 0.978476 -0.114752 0.171511
10.26000023 11.31999969 -1.25000000 46 3 231 0.000000 0.000000 0.000000 0.000000 51.808199 0.000000 226.000000 0.981012 0.177379 0.078433
10.30000019 11.35000038 -1.34000003 46 3 231 0.000000 0.000000 0.000000 0.000000 51.808199 0.000000 226.000000 0.889676 0.225739 0.396887
