//X Y Z R G B PointSourceId ScanDirectionFlag NumberOfReturns ReturnNumber GpsTime Intensity Classification Nx Ny Nz
10.88000011 1.73000002 -0.13000000 8 13 245 97.000000 1.000000 4.000000 1.000000 51.808199 114.000000 98.000000 0.981063 -0.162089 -0.106028
10.88000011 1.74000001 -0.14000000 8 13 245 97.000000 1.000000 4.000000 1.000000 51.808199 114.000000 98.000000 0.988051 -0.085764 -0.128059
10.85999966 1.74000001 -0.12000000 8 13 245 97.000000 1.000000 4.000000 1.000000 51.808199 114.000000 98.000000 0.935852 0.178852 -0.303632
10.86999989 1.66999996 -0.10000000 8 13 245 97.000000 1.000000 4.000000 1.000000 51.808199 114.000000 98.000000 0.961390 0.123589 0.245876
10.88000011 1.66999996 -0.13000000 8 13 245 97.000000 1.000000 4.000000 1.000000 51.808199 114.000000 98.000000 0.958214 0.118960 0.260143
10.86999989 1.69000006 -0.12000000 8 13 245 97.000000 1.000000 4.000000 1.000000 51.808199 114.000000 98.000000 0.971513 0.224577 -0.075686
10.85000038 1.73000002 -0.13000000 8 13 245 97.000000 1.000000 4.000000 1.000000 51.808199 114.000000 98.000000 0.952376 0.117561 0.281354
10.89999962 1.77999997 -0.17000000 8 13 245 97.000000 1.000000 4.000000 1.000000 51.808199 114.000000 98.000000 0.935173 -0.270597 -0.228536
10.92000008 1.80999994 -0.18000001 8 13 245 97.000000 1.000000 4.000000 1.000000 51.808199 114.000000 98.000000 0.991870 0.055545 0.114490
10.89999962 1.77999997 -0.17000000 8 13 245 97.000000 1.000000 4.000000 1.000000 51.808199 114.000000 98.000000 0.935173 -0.270597 -0.228536
10.90999985 1.82000005 -0.25000000 8 13 245 97.000000 1.000000 4.000000 1.000000 51.808199 114.000000 98.000000 0.876989 -0.476474 -0.062149
10.90999985 1.75000000 -0.30000001 8 13 245 97.000000 1.000000 4.000000 1.000000 51.808199 114.000000 98.000000 0.986347 0.160730 0.035846
10.89999962 1.80999994 -0.27000001 8 13 245 97.000000 1.000000 4.000000 1.000000 51.808199 114.000000 98.000000 0.975866 -0.164106 -0.144062
10.89999962 1.80999994 -0.28999999 8 13 245 97.000000 1.000000 4.000000 1.000000 51.808199 114.000000 98.000000 0.966803 -0.190765 0.170002
10.88000011 1.75000000 -0.25999999 8 13 245 97.000000 1.000000 4.000000 1.000000 51.808199 114.000000 98.000000 0.972132 -0.232492 -0.030116
10.88000011 1.75000000 -0.31000000 8 13 245 97.000000 1.000000 4.000000 1.000000 51.808199 114.000000 98.000000 0.936983 -0.349319 0.006305
10.88000011 1.71000004 -0.17000000 8 13 245 97.000000 1.000000 4.000000 1.000000 51.808199 114.000000 98.000000 0.971712 -0.107128 -0.210475
10.89000034 1.73000002 -0.20999999 8 13 245 97.000000 1.000000 4.000000 1.000000 51.808199 114.000000 98.000000 0.951649 -0.259052 0.165096
10.85999966 1.71000004 -0.20999999 8 13 245 97.000000 1.000000 4.000000 1.000000 51.808199 114.000000 98.000000 0.949347 0.202364 0.240393
10.89000034 1.67999995 -0.20000000 8 13 245 97.000000 1.000000 4.000000 1.000000 51.808199 114.000000 98.000000 0.949574 0.123511 0.288192
10.86999989 1.67999995 -0.18000001 8 13 245 97.000000 1.000000 4.000000 1.000000 51.808199 114.000000 98.000000 0.963452 0.106764 -0.245687
10.89000034 1.65999997 -0.17000000 8 13 245 97.000000 1.000000 4.000000 1.000000 51.808199 114.000000 98.000000 0.945402 0.321153 -0.055460
10.88000011 1.66999996 -0.22000000 8 13 245 97.000000 1.000000 4.000000 1.000000 51.808199 114.000000 98.000000 0.978215 0.119958 -0.169425
10.92000008 1.66999996 -0.28000000 8 13 245 97.000000 1.000000 4.000000 1.000000 51.808199 114.000000 98.000000 0.925314 0.238101 0.295131
10.90999985 1.65999997 -0.25999999 8 13 245 97.000000 1.000000 4.000000 1.000000 51.808199 114.000000 98.000000 0.812004 0.545923 -0.206442
10.88000011 1.70000005 -0.27000001 8 13 245 97.000000 1.000000 4.000000 1.000000 51.808199 114.000000 98.000000 0.985683 0.165244 -0.033511
10.89000034 1.73000002 -0.25999999 8 13 245 97.000000 1.000000 4.000000 1.000000 51.808199 114.000000 98.000000 0.967886 -0.134964 -0.212087
10.89999962 1.73000002 -0.31000000 8 13 245 97.000000 1.000000 4.000000 1.000000 51.808199 114.000000 98.000000 0.942821 -0.314274 -0.110999
10.89999962 1.73000002 -0.28999999 8 13 245 97.000000 1.000000 4.000000 1.000000 51.808199 114.000000 98.000000 0.992355 -0.037003 -0.117737
10.97999954 1.58000004 0.05000000 8 13 245 97.000000 1.000000 4.000000 1.000000 51.808199 114.000000 98.000000 0.752905 0.497016 -0.431403
11.13000011 1.52999997 -0.14000000 8 13 245 97.000000 1.000000 4.000000 1.000000 51.808199 114.000000 98.000000 0.716376 0.689788 0.104871
11.11999989 1.50000000 -0.13000000 8 13 245 97.000000 1.000000 4.000000 1.000000 51.808199 114.000000 98.000000 0.615715 0.760771 -0.205238
11.21000004 1.40999997 -0.20000000 8 13 245 97.000000 1.000000 4.000000 1.000000 51.808199 114.000000 98.000000 0.164788 0.919712 -0.356336
11.27000046 1.38999999 -0.25999999 8 13 245 97.000000 1.000000 4.000000 1.000000 51.808199 114.000000 98.000000 0.128393 0.985150 0.113994
11.18999958 1.45000005 -0.19000000 8 13 245 97.000000 1.000000 4.000000 1.000000 51.808199 114.000000 98.000000 0.028823 0.953659 0.299507
11.19999981 1.38999999 -0.16000000 8 13 245 97.000000 1.000000 4.000000 1.000000 51.808199 114.000000 98.000000 0.298284 0.936472 0.184520
11.02999973 1.58000004 0.00000000 8 13 245 97.000000 1.000000 4.000000 1.000000 51.808199 114.000000 98.000000 0.761097 0.579199 0.291993
11.09000015 1.62000000 -0.13000000 8 13 245 97.000000 1.000000 4.000000 1.000000 51.808199 114.000000 98.000000 0.620761 0.783901 -0.012443
11.10000038 1.61000001 -0.13000000 8 13 245 97.000000 1.000000 4.000000 1.000000 51.808199 114.000000 98.000000 0.491636 0.833778 -0.251212
10.97000027 1.58000004 -0.11000000 8 13 245 97.000000 1.000000 4.000000 1.000000 51.808199 114.000000 98.000000 0.948537 0.287638 0.132447
11.01000023 1.55999994 -0.02000000 8 13 245 97.000000 1.000000 4.000000 1.000000 51.808199 114.000000 98.000000 0.932877 0.353302 -0.070131
11.07999992 1.58000004 -0.23999999 8 13 245 97.000000 1.000000 4.000000 1.000000 51.808199 114.000000 98.000000 0.464028 0.787392 -0.405822
11.09000015 1.61000001 -0.25000000 8 13 245 97.000000 1.000000 4.000000 1.000000 51.808199 114.000000 98.000000 0.342020 0.934855 -0.095229
11.10999966 1.60000002 -0.25000000 8 13 245 97.000000 1.000000 4.000000 1.000000 51.808199 114.000000 98.000000 0.368901 0.883857 0.287592
11.02999973 1.57000005 -0.20000000 8 13 245 97.000000 1.000000 4.000000 1.000000 51.808199 114.000000 98.000000 0.415664 0.908004 -0.052462
11.02999973 1.57000005 -0.30000001 8 13 245 97.000000 1.000000 4.000000 1.000000 51.808199 114.000000 98.000000 0.676518 0.660294 -0.326091
10.96000004 1.60000002 -0.17000000 8 13 245 97.000000 1.000000 4.000000 1.000000 51.808199 114.000000 98.000000 0.745331 0.569959 -0.345873
10.96000004 1.61000001 -0.23999999 8 13 245 97.000000 1.000000 4.000000 1.000000 51.808199 114.000000 98.000000 0.949740 0.307156 0.060403
10.96000004 1.62000000 -0.23999999 8 13 245 97.000000 1.000000 4.000000 1.000000 51.808199 114.000000 98.000000 0.881304 0.468837 0.059120
10.98999977 1.58000004 -0.17000000 8 13 245 97.000000 1.000000 4.000000 1.000000 51.808199 114.000000 98.000000 0.556169 0.781172 -0.283630
11.02000046 1.61000001 -0.28999999 8 13 245 97.000000 1.000000 4.000000 1.000000 51.808199 114.000000 98.000000 0.818736 0.506837 0.269793
10.98999977 1.59000003 -0.27000001 8 13 245 97.000000 1.000000 4.000000 1.000000 51.808199 114.000000 98.000000 0.695329 0.698386 0.169630
10.97000027 1.60000002 -0.30000001 8 13 245 97.000000 1.000000 4.000000 1.000000 51.808199 114.000000 98.000000 0.752323 0.571894 0.327027
10.98999977 1.60000002 -0.31000000 8 13 245 97.000000 1.000000 4.000000 1.000000 51.808199 114.000000 98.000000 0.844770 0.525283 0.102178
10.98999977 1.59000003 -0.27000001 8 13 245 97.000000 1.000000 4.000000 1.000000 51.808199 114.000000 98.000000 0.695329 0.698386 0.169630
11.00000000 1.57000005 -0.25000000 8 13 245 97.000000 1.000000 4.000000 1.000000 51.808199 114.000000 98.000000 0.907150 0.291636 -0.303360
11.10000038 1.41999996 -0.10000000 8 13 245 97.000000 1.000000 4.000000 1.000000 51.808199 114.000000 98.000000 0.273673 0.897942 -0.344679
11.07999992 1.38999999 -0.06000000 8 13 245 97.000000 1.000000 4.000000 1.000000 51.808199 114.000000 98.000000 0.391820 0.914246 0.103110
11.10999966 1.38999999 -0.09000000 8 13 245 97.000000 1.000000 4.000000 1.000000 51.808199 114.000000 98.000000 -0.015223 0.999612 -0.023341
10.92000008 1.58000004 0.03000000 8 13 245 97.000000 1.000000 4.000000 1.000000 51.808199 114.000000 98.000000 0.728229 0.678209 0.098568
10.92000008 1.57000005 0.02000000 8 13 245 97.000000 1.000000 4.000000 1.000000 51.808199 114.000000 98.000000 0.864046 0.499505 -0.062612
10.90999985 1.54999995 0.03000000 8 13 245 97.000000 1.000000 4.000000 1.000000 51.808199 114.000000 98.000000 0.865864 0.497353 -0.054030
10.92000008 1.57000005 0.03000000 8 13 245 97.000000 1.000000 4.000000 1.000000 51.808199 114.000000 98.000000 0.796927 0.602279 0.046546
10.92000008 1.58000004 -0.01000000 8 13 245 97.000000 1.000000 4.000000 1.000000 51.808199 114.000000 98.000000 0.782471 0.569212 0.252461
10.93000031 1.59000003 -0.02000000 8 13 245 97.000000 1.000000 4.000000 1.000000 51.808199 114.000000 98.000000 0.858681 0.488788 -0.154122
10.93000031 1.58000004 -0.02000000 8 13 245 97.000000 1.000000 4.000000 1.000000 51.808199 114.000000 98.000000 0.865014 0.501084 0.025801
10.92000008 1.61000001 -0.05000000 8 13 245 97.000000 1.000000 4.000000 1.000000 51.808199 114.000000 98.000000 0.929351 0.024559 -0.368380
10.89000034 1.60000002 -0.03000000 8 13 245 97.000000 1.000000 4.000000 1.000000 51.808199 114.000000 98.000000 0.836359 0.376441 -0.398491
10.92000008 1.59000003 -0.10000000 8 13 245 97.000000 1.000000 4.000000 1.000000 51.808199 114.000000 98.000000 0.892859 0.428629 -0.138130
10.89000034 1.64999998 -0.15000001 8 13 245 97.000000 1.000000 4.000000 1.000000 51.808199 114.000000 98.000000 0.874569 0.484064 -0.028474
10.89999962 1.61000001 -0.12000000 8 13 245 97.000000 1.000000 4.000000 1.000000 51.808199 114.000000 98.000000 0.856870 0.444473 -0.261185
10.89999962 1.55999994 0.00000000 8 13 245 97.000000 1.000000 4.000000 1.000000 51.808199 114.000000 98.000000 0.876158 0.438818 -0.199463
10.93999958 1.57000005 -0.12000000 8 13 245 97.000000 1.000000 4.000000 1.000000 51.808199 114.000000 98.000000 0.793372 0.580182 -0.184257
10.92000008 1.63000000 -0.20999999 8 13 245 97.000000 1.000000 4.000000 1.000000 51.808199 114.000000 98.000000 0.813021 0.532243 0.236038
10.92000008 1.62000000 -0.20000000 8 13 245 97.000000 1.000000 4.000000 1.000000 51.808199 114.000000 98.000000 0.902331 0.379241 0.204877
10.93000031 1.63000000 -0.20000000 8 13 245 97.000000 1.000000 4.000000 1.000000 51.808199 114.000000 98.000000 0.994485 -0.005399 -0.104739
10.88000011 1.62000000 -0.20000000 8 13 245 97.000000 1.000000 4.000000 1.000000 51.808199 114.000000 98.000000 0.960376 0.242387 -0.137571
10.93000031 1.59000003 -0.16000000 8 13 245 97.000000 1.000000 4.000000 1.000000 51.808199 114.000000 98.000000 0.758907 0.628113 0.171857
10.93000031 1.64999998 -0.28999999 8 13 245 97.000000 1.000000 4.000000 1.000000 51.808199 114.000000 98.000000 0.865851 0.500299 0.001334
11.28999996 2.06999993 -1.00999999 8 13 245 97.000000 1.000000 4.000000 1.000000 51.808199 114.000000 98.000000 0.468396 0.804107 -0.366084
11.35000038 2.03999996 -1.08000004 8 13 245 0.000000 0.000000 0.000000 0.000000 51.808199 0.000000 98.000000 0.784095 0.503946 -0.362262
11.34000015 2.00999999 -1.10000002 8 13 245 0.000000 0.000000 0.000000 0.000000 51.808199 0.000000 98.000000 0.899597 0.403169 0.167867
11.28999996 2.05999994 -1.09000003 8 13 245 97.000000 1.000000 4.000000 1.000000 51.808199 114.000000 98.000000 0.825786 0.561309 0.054865
11.32999992 2.07999992 -1.10000002 8 13 245 97.000000 1.000000 4.000000 1.000000 51.808199 114.000000 98.000000 0.257622 0.958561 0.121618
11.31999969 2.00000000 -1.07000005 8 13 245 97.000000 1.000000 4.000000 1.000000 51.808199 114.000000 98.000000 0.538614 0.837365 0.093360
11.31999969 2.03999996 -1.12000000 8 13 245 97.000000 1.000000 4.000000 1.000000 51.808199 114.000000 98.000000 0.784813 0.558334 0.268944
11.35000038 2.04999995 -1.15999997 8 13 245 0.000000 0.000000 0.000000 0.000000 51.808199 0.000000 98.000000 0.517808 0.835998 0.181608
11.35999966 2.02999997 -1.14999998 8 13 245 0.000000 0.000000 0.000000 0.000000 51.808199 0.000000 98.000000 0.710298 0.636208 0.301192
11.31999969 2.05999994 -1.16999996 8 13 245 97.000000 1.000000 4.000000 1.000000 51.808199 114.000000 98.000000 0.587059 0.809115 -0.026369
11.38000011 2.00000000 -1.32000005 8 13 245 0.000000 0.000000 0.000000 0.000000 51.808199 0.000000 98.000000 0.887111 0.432702 0.160635
11.31000042 2.08999991 -1.21000004 8 13 245 97.000000 1.000000 4.000000 1.000000 51.808199 114.000000 98.000000 0.474619 0.825493 -0.305448
11.30000019 2.08999991 -1.32000005 8 13 245 97.000000 1.000000 4.000000 1.000000 51.808199 114.000000 98.000000 0.332817 0.925428 -0.181154
11.28999996 2.08999991 -1.34000003 8 13 245 97.000000 1.000000 4.000000 1.000000 51.808199 114.000000 98.000000 0.668729 0.743494 -0.004154
11.34000015 2.05999994 -1.23000002 8 13 245 0.000000 0.000000 0.000000 0.000000 51.808199 0.000000 98.000000 0.819117 0.570985 0.054984
11.34000015 2.04999995 -1.20000005 8 13 245 0.000000 0.000000 0.000000 0.000000 51.808199 0.000000 98.000000 0.565648 0.824619 -0.006815
11.35000038 2.03999996 -1.23000002 8 13 245 0.000000 0.000000 0.000000 0.000000 51.808199 0.000000 98.000000 0.583384 0.801968 0.128492
11.35000038 2.03999996 -1.23000002 8 13 245 0.000000 0.000000 0.000000 0.000000 51.808199 0.000000 98.000000 0.583384 0.801968 0.128492
11.34000015 2.03999996 -1.23000002 8 13 245 0.000000 0.000000 0.000000 0.000000 51.808199 0.000000 98.000000 0.424689 0.877691 0.222030
11.35000038 2.03999996 -1.26999998 8 13 245 0.000000 0.000000 0.000000 0.000000 51.808199 0.000000 98.000000 0.724373 0.672956 -0.149714
11.35999966 2.03999996 -1.26999998 8 13 245 0.000000 0.000000 0.000000 0.000000 51.808199 0.000000 98.000000 0.546152 0.724352 -0.420751
11.35999966 2.03999996 -1.26999998 8 13 245 0.000000 0.000000 0.000000 0.000000 51.808199 0.000000 98.000000 0.546152 0.724352 -0.420751
11.31000042 2.06999993 -1.25999999 8 13 245 97.000000 1.000000 4.000000 1.000000 51.808199 114.000000 98.000000 0.244199 0.968119 0.055782
11.32999992 2.05999994 -1.25000000 8 13 245 0.000000 0.000000 0.000000 0.000000 51.808199 0.000000 98.000000 0.422798 0.902061 -0.086763
11.35999966 2.02999997 -1.35000002 8 13 245 0.000000 0.000000 0.000000 0.000000 51.808199 0.000000 98.000000 0.593906 0.804334 -0.017997
11.34000015 2.06999993 -1.36000001 8 13 245 0.000000 0.000000 0.000000 0.000000 51.808199 0.000000 98.000000 0.549404 0.818867 0.166169
11.36999989 2.02999997 -1.27999997 8 13 245 0.000000 0.000000 0.000000 0.000000 51.808199 0.000000 98.000000 0.697200 0.714450 -0.058939
11.30000019 2.07999992 -1.30999994 8 13 245 97.000000 1.000000 4.000000 1.000000 51.808199 114.000000 98.000000 0.229918 0.970628 0.070840
11.31000042 2.06999993 -1.33000004 8 13 245 97.000000 1.000000 4.000000 1.000000 51.808199 114.000000 98.000000 0.364097 0.912385 -0.187046
11.32999992 2.05999994 -1.35000002 8 13 245 0.000000 0.000000 0.000000 0.000000 51.808199 0.000000 98.000000 0.847625 0.499041 -0.180251
11.31000042 2.07999992 -1.30999994 8 13 245 97.000000 1.000000 4.000000 1.000000 51.808199 114.000000 98.000000 0.235469 0.971758 0.015539
11.35999966 2.04999995 -1.29999995 8 13 245 0.000000 0.000000 0.000000 0.000000 51.808199 0.000000 98.000000 0.724177 0.669292 0.166180
11.38000011 2.02999997 -1.38000000 8 13 245 0.000000 0.000000 0.000000 0.000000 51.808199 0.000000 98.000000 0.540548 0.841304 -0.004064
11.35000038 2.05999994 -1.42999995 8 13 245 0.000000 0.000000 0.000000 0.000000 51.808199 0.000000 98.000000 0.562373 0.803172 -0.196602
11.36999989 2.02999997 -1.38999999 8 13 245 0.000000 0.000000 0.000000 0.000000 51.808199 0.000000 98.000000 0.655442 0.755214 -0.006929
11.35000038 2.05999994 -1.42999995 8 13 245 0.000000 0.000000 0.000000 0.000000 51.808199 0.000000 98.000000 0.562373 0.803172 -0.196602
11.31999969 2.06999993 -1.40999997 8 13 245 97.000000 1.000000 4.000000 1.000000 51.808199 114.000000 98.000000 0.343585 0.924175 0.166884
11.34000015 2.05999994 -1.46000004 8 13 245 0.000000 0.000000 0.000000 0.000000 51.808199 0.000000 98.000000 0.642545 0.757760 -0.113738
11.35000038 1.96000004 -1.30999994 8 13 245 0.000000 0.000000 0.000000 0.000000 51.808199 0.000000 98.000000 0.792090 0.596659 -0.128807
11.38000011 1.96000004 -1.48000002 8 13 245 0.000000 0.000000 0.000000 0.000000 51.808199 0.000000 98.000000 0.912283 0.283724 -0.295364
11.36999989 1.96000004 -1.46000004 8 13 245 0.000000 0.000000 0.000000 0.000000 51.808199 0.000000 98.000000 0.792882 0.552046 0.258038
11.11999989 2.01999998 -0.34000000 8 13 245 97.000000 1.000000 4.000000 1.000000 51.808199 114.000000 98.000000 -0.400228 0.909861 0.109405
11.14000034 2.00000000 -0.34999999 8 13 245 97.000000 1.000000 4.000000 1.000000 51.808199 114.000000 98.000000 -0.074352 0.996742 -0.031249
11.11999989 2.02999997 -0.36000001 8 13 245 97.000000 1.000000 4.000000 1.000000 51.808199 114.000000 98.000000 -0.171073 0.958806 0.226772
11.22999954 2.00999999 -0.66000003 8 13 245 97.000000 1.000000 4.000000 1.000000 51.808199 114.000000 98.000000 0.162647 0.984195 0.070045
11.23999977 2.00000000 -0.67000002 8 13 245 97.000000 1.000000 4.000000 1.000000 51.808199 114.000000 98.000000 -0.003623 0.962379 0.271688
11.23999977 2.00999999 -0.66000003 8 13 245 97.000000 1.000000 4.000000 1.000000 51.808199 114.000000 98.000000 0.436799 0.811198 0.388799
11.14999962 2.03999996 -0.55000001 8 13 245 97.000000 1.000000 4.000000 1.000000 51.808199 114.000000 98.000000 -0.074028 0.979355 -0.188104
11.18000031 2.03999996 -0.56000000 8 13 245 97.000000 1.000000 4.000000 1.000000 51.808199 114.000000 98.000000 -0.151010 0.952831 0.263265
11.17000008 2.03999996 -0.58999997 8 13 245 97.000000 1.000000 4.000000 1.000000 51.808199 114.000000 98.000000 0.173867 0.982049 -0.073144
11.18000031 2.02999997 -0.64999998 8 13 245 97.000000 1.000000 4.000000 1.000000 51.808199 114.000000 98.000000 0.409409 0.877304 0.250444
11.18000031 2.02999997 -0.64999998 8 13 245 97.000000 1.000000 4.000000 1.000000 51.808199 114.000000 98.000000 0.409409 0.877304 0.250444
11.13000011 2.04999995 -0.58999997 8 13 245 97.000000 1.000000 4.000000 1.000000 51.808199 114.000000 98.000000 -0.330852 0.883784 0.330852
11.14000034 2.06999993 -0.61000001 8 13 245 97.000000 1.000000 4.000000 1.000000 51.808199 114.000000 98.000000 0.245876 0.961390 -0.123589
11.13000011 2.03999996 -0.67000002 8 13 245 97.000000 1.000000 4.000000 1.000000 51.808199 114.000000 98.000000 0.132345 0.947804 0.290090
11.07999992 2.11999989 -0.49000001 8 13 245 97.000000 1.000000 4.000000 1.000000 51.808199 114.000000 98.000000 0.057414 0.953064 0.297274
11.10999966 2.09999990 -0.49000001 8 13 245 97.000000 1.000000 4.000000 1.000000 51.808199 114.000000 98.000000 0.143746 0.987525 0.064277
11.10000038 2.11999989 -0.50000000 8 13 245 97.000000 1.000000 4.000000 1.000000 51.808199 114.000000 98.000000 -0.498433 0.863482 -0.077222
11.06999969 2.10999990 -0.50000000 8 13 245 97.000000 1.000000 4.000000 1.000000 51.808199 114.000000 98.000000 -0.176323 0.934374 -0.309607
11.10999966 2.00999999 -0.33000001 8 13 245 97.000000 1.000000 4.000000 1.000000 51.808199 114.000000 98.000000 -0.084785 0.927253 0.364710
11.10999966 2.03999996 -0.38999999 8 13 245 97.000000 1.000000 4.000000 1.000000 51.808199 114.000000 98.000000 0.449721 -0.780923 -0.433486
11.09000015 2.01999998 -0.41000000 8 13 245 97.000000 1.000000 4.000000 1.000000 51.808199 114.000000 98.000000 0.052432 0.986891 0.152636
11.06999969 2.04999995 -0.41000000 8 13 245 97.000000 1.000000 4.000000 1.000000 51.808199 114.000000 98.000000 -0.201467 0.915891 0.347210
11.05000019 2.04999995 -0.40000001 8 13 245 97.000000 1.000000 4.000000 1.000000 51.808199 114.000000 98.000000 -0.518180 0.813838 0.262980
11.02999973 2.06999993 -0.38000000 8 13 245 97.000000 1.000000 4.000000 1.000000 51.808199 114.000000 98.000000 -0.660629 0.747364 0.070833
11.05000019 2.02999997 -0.34999999 8 13 245 97.000000 1.000000 4.000000 1.000000 51.808199 114.000000 98.000000 -0.560448 0.827460 -0.034767
11.07999992 2.04999995 -0.44999999 8 13 245 97.000000 1.000000 4.000000 1.000000 51.808199 114.000000 98.000000 -0.601456 0.778086 -0.181198
11.06000042 2.04999995 -0.49000001 8 13 245 97.000000 1.000000 4.000000 1.000000 51.808199 114.000000 98.000000 -0.446607 0.864644 0.230071
11.06000042 2.04999995 -0.50000000 8 13 245 97.000000 1.000000 4.000000 1.000000 51.808199 114.000000 98.000000 -0.360459 0.932576 0.019242
10.97999954 2.00000000 -0.36000001 8 13 245 97.000000 1.000000 4.000000 1.000000 51.808199 114.000000 98.000000 0.718266 -0.658802 0.223773
11.00000000 2.00000000 -0.38999999 8 13 245 97.000000 1.000000 4.000000 1.000000 51.808199 114.000000 98.000000 0.751942 -0.628419 0.199180
11.01000023 2.04999995 -0.38000000 8 13 245 97.000000 1.000000 4.000000 1.000000 51.808199 114.000000 98.000000 -0.427166 0.873818 -0.232319
10.98999977 2.00999999 -0.46000001 8 13 245 97.000000 1.000000 4.000000 1.000000 51.808199 114.000000 98.000000 0.770319 -0.615952 0.164960
11.10000038 2.04999995 -0.55000001 8 13 245 97.000000 1.000000 4.000000 1.000000 51.808199 114.000000 98.000000 -0.280976 0.959696 -0.006082
11.10000038 2.04999995 -0.56000000 8 13 245 97.000000 1.000000 4.000000 1.000000 51.808199 114.000000 98.000000 -0.107132 0.978967 -0.173628
11.09000015 2.02999997 -0.50999999 8 13 245 97.000000 1.000000 4.000000 1.000000 51.808199 114.000000 98.000000 0.090490 0.995395 -0.031617
11.09000015 2.03999996 -0.57999998 8 13 245 97.000000 1.000000 4.000000 1.000000 51.808199 114.000000 98.000000 -0.383061 0.896744 0.221618
11.10000038 2.04999995 -0.62000000 8 13 245 97.000000 1.000000 4.000000 1.000000 51.808199 114.000000 98.000000 0.003207 0.995252 0.097280
11.06999969 2.04999995 -0.58999997 8 13 245 97.000000 1.000000 4.000000 1.000000 51.808199 114.000000 98.000000 -0.109817 0.983523 0.143606
11.06999969 2.04999995 -0.58999997 8 13 245 97.000000 1.000000 4.000000 1.000000 51.808199 114.000000 98.000000 -0.109817 0.983523 0.143606
11.03999996 2.00999999 -0.58999997 8 13 245 97.000000 1.000000 4.000000 1.000000 51.808199 114.000000 98.000000 -0.668824 0.738766 0.083057
11.05000019 2.01999998 -0.58999997 8 13 245 97.000000 1.000000 4.000000 1.000000 51.808199 114.000000 98.000000 -0.498053 0.866475 -0.034113
11.05000019 2.00000000 -0.63999999 8 13 245 97.000000 1.000000 4.000000 1.000000 51.808199 114.000000 98.000000 -0.706322 0.706322 -0.047088
11.01000023 2.06999993 -0.51999998 8 13 245 97.000000 1.000000 4.000000 1.000000 51.808199 114.000000 98.000000 -0.352909 0.850402 0.390221
11.00000000 2.02999997 -0.56000000 8 13 245 97.000000 1.000000 4.000000 1.000000 51.808199 114.000000 98.000000 -0.581802 0.765696 -0.274255
10.97000027 2.04999995 -0.56000000 8 13 245 97.000000 1.000000 4.000000 1.000000 51.808199 114.000000 98.000000 0.848687 -0.518403 -0.104829
10.98999977 2.06999993 -0.64999998 8 13 245 97.000000 1.000000 4.000000 1.000000 51.808199 114.000000 98.000000 0.719656 -0.690696 0.070952
11.22000027 2.02999997 -0.75000000 8 13 245 97.000000 1.000000 4.000000 1.000000 51.808199 114.000000 98.000000 0.181139 0.965641 -0.186352
11.22000027 2.02999997 -0.75000000 8 13 245 97.000000 1.000000 4.000000 1.000000 51.808199 114.000000 98.000000 0.181139 0.965641 -0.186352
11.26000023 2.02999997 -0.79000002 8 13 245 97.000000 1.000000 4.000000 1.000000 51.808199 114.000000 98.000000 0.580623 0.812307 0.055096
11.22999954 2.04999995 -0.83999997 8 13 245 97.000000 1.000000 4.000000 1.000000 51.808199 114.000000 98.000000 0.641280 0.767021 -0.020957
11.22999954 2.04999995 -0.81999999 8 13 245 97.000000 1.000000 4.000000 1.000000 51.808199 114.000000 98.000000 0.622544 0.778542 -0.079443
11.21000004 2.05999994 -0.82999998 8 13 245 97.000000 1.000000 4.000000 1.000000 51.808199 114.000000 98.000000 -0.081213 0.991716 -0.099515
11.21000004 2.05999994 -0.81999999 8 13 245 97.000000 1.000000 4.000000 1.000000 51.808199 114.000000 98.000000 0.168272 0.985591 0.017171
11.21000004 2.06999993 -0.82999998 8 13 245 97.000000 1.000000 4.000000 1.000000 51.808199 114.000000 98.000000 -0.149995 0.987175 0.054649
11.19999981 2.02999997 -0.68000001 8 13 245 97.000000 1.000000 4.000000 1.000000 51.808199 114.000000 98.000000 0.138545 0.984269 -0.109631
11.14000034 2.05999994 -0.70999998 8 13 245 97.000000 1.000000 4.000000 1.000000 51.808199 114.000000 98.000000 0.124165 0.974506 -0.186874
11.17000008 2.03999996 -0.68000001 8 13 245 97.000000 1.000000 4.000000 1.000000 51.808199 114.000000 98.000000 0.111644 0.980260 -0.163172
11.19999981 2.05999994 -0.72000003 8 13 245 97.000000 1.000000 4.000000 1.000000 51.808199 114.000000 98.000000 -0.107352 0.947610 0.300850
11.19999981 2.04999995 -0.69000000 8 13 245 97.000000 1.000000 4.000000 1.000000 51.808199 114.000000 98.000000 -0.204509 0.976010 -0.074701
11.11999989 2.07999992 -0.75999999 8 13 245 97.000000 1.000000 4.000000 1.000000 51.808199 114.000000 98.000000 -0.155284 0.985043 -0.074678
11.17000008 2.05999994 -0.75999999 8 13 245 97.000000 1.000000 4.000000 1.000000 51.808199 114.000000 98.000000 -0.028296 0.963291 0.266966
11.15999985 2.04999995 -0.81000000 8 13 245 97.000000 1.000000 4.000000 1.000000 51.808199 114.000000 98.000000 -0.061787 0.998023 0.011520
11.19999981 2.06999993 -0.79000002 8 13 245 97.000000 1.000000 4.000000 1.000000 51.808199 114.000000 98.000000 -0.096990 0.994970 0.025065
11.25000000 2.08999991 -0.88000000 8 13 245 97.000000 1.000000 4.000000 1.000000 51.808199 114.000000 98.000000 0.457097 0.834631 0.307332
11.22000027 2.08999991 -0.99000001 8 13 245 97.000000 1.000000 4.000000 1.000000 51.808199 114.000000 98.000000 0.312255 0.901248 0.300416
11.25000000 2.06999993 -0.89999998 8 13 245 97.000000 1.000000 4.000000 1.000000 51.808199 114.000000 98.000000 0.498938 0.818008 0.286224
11.27000046 2.07999992 -0.89999998 8 13 245 97.000000 1.000000 4.000000 1.000000 51.808199 114.000000 98.000000 0.538341 0.838213 0.087106
11.22000027 2.07999992 -0.88000000 8 13 245 97.000000 1.000000 4.000000 1.000000 51.808199 114.000000 98.000000 0.424933 0.857536 0.289936
11.23999977 2.04999995 -0.85000002 8 13 245 97.000000 1.000000 4.000000 1.000000 51.808199 114.000000 98.000000 0.047153 0.975695 0.214000
11.22000027 2.06999993 -0.91000003 8 13 245 97.000000 1.000000 4.000000 1.000000 51.808199 114.000000 98.000000 0.241378 0.958917 0.149048
11.27000046 2.06999993 -0.94000000 8 13 245 97.000000 1.000000 4.000000 1.000000 51.808199 114.000000 98.000000 0.022882 0.994809 -0.099154
11.15999985 2.10999990 -0.88999999 8 13 245 97.000000 1.000000 4.000000 1.000000 51.808199 114.000000 98.000000 -0.195796 0.976516 -0.089894
11.18000031 2.10999990 -1.00999999 8 13 245 97.000000 1.000000 4.000000 1.000000 51.808199 114.000000 98.000000 0.048346 0.998805 -0.007200
11.18000031 2.10999990 -1.00999999 8 13 245 97.000000 1.000000 4.000000 1.000000 51.808199 114.000000 98.000000 0.048346 0.998805 -0.007200
11.11999989 2.08999991 -0.94999999 8 13 245 97.000000 1.000000 4.000000 1.000000 51.808199 114.000000 98.000000 -0.283652 0.934793 0.213787
11.14999962 2.09999990 -0.99000001 8 13 245 97.000000 1.000000 4.000000 1.000000 51.808199 114.000000 98.000000 -0.059330 0.998195 0.009368
11.18000031 2.07999992 -0.88000000 8 13 245 97.000000 1.000000 4.000000 1.000000 51.808199 114.000000 98.000000 0.150455 0.968315 0.199321
11.18999958 2.06999993 -0.88000000 8 13 245 97.000000 1.000000 4.000000 1.000000 51.808199 114.000000 98.000000 0.119074 0.966676 0.226625
11.09000015 2.04999995 -0.68000001 8 13 245 97.000000 1.000000 4.000000 1.000000 51.808199 114.000000 98.000000 -0.331319 0.942789 0.037098
11.10000038 2.05999994 -0.72000003 8 13 245 97.000000 1.000000 4.000000 1.000000 51.808199 114.000000 98.000000 -0.360497 0.903432 -0.232061
11.09000015 2.03999996 -0.69999999 8 13 245 97.000000 1.000000 4.000000 1.000000 51.808199 114.000000 98.000000 0.054774 0.974979 -0.215445
11.10000038 2.03999996 -0.72000003 8 13 245 97.000000 1.000000 4.000000 1.000000 51.808199 114.000000 98.000000 -0.222961 0.952651 0.206746
11.06000042 2.04999995 -0.68000001 8 13 245 97.000000 1.000000 4.000000 1.000000 51.808199 114.000000 98.000000 -0.174474 0.971708 0.159192
11.06999969 2.04999995 -0.70999998 8 13 245 97.000000 1.000000 4.000000 1.000000 51.808199 114.000000 98.000000 -0.061453 0.964430 -0.257098
11.06999969 2.04999995 -0.69000000 8 13 245 97.000000 1.000000 4.000000 1.000000 51.808199 114.000000 98.000000 0.130166 0.978102 0.162397
11.06999969 2.03999996 -0.72000003 8 13 245 97.000000 1.000000 4.000000 1.000000 51.808199 114.000000 98.000000 -0.152668 0.947080 0.282368
11.10999966 2.05999994 -0.81000000 8 13 245 97.000000 1.000000 4.000000 1.000000 51.808199 114.000000 98.000000 -0.162369 0.951402 0.261669
11.10999966 2.05999994 -0.81000000 8 13 245 97.000000 1.000000 4.000000 1.000000 51.808199 114.000000 98.000000 -0.162369 0.951402 0.261669
11.05000019 2.08999991 -0.87000000 8 13 245 97.000000 1.000000 4.000000 1.000000 51.808199 114.000000 98.000000 -0.027413 0.920278 0.390303
11.06999969 2.11999989 -0.88999999 8 13 245 97.000000 1.000000 4.000000 1.000000 51.808199 114.000000 98.000000 0.185046 0.982697 0.008045
11.09000015 2.02999997 -0.93000001 8 13 245 97.000000 1.000000 4.000000 1.000000 51.808199 114.000000 98.000000 -0.338728 0.886715 0.314641
11.17000008 1.96000004 -0.40000001 8 13 245 97.000000 1.000000 4.000000 1.000000 51.808199 114.000000 98.000000 -0.227781 0.973677 0.008262
11.11999989 1.89999998 -0.34999999 8 13 245 97.000000 1.000000 4.000000 1.000000 51.808199 114.000000 98.000000 -0.551722 0.829732 0.084550
11.11999989 1.89999998 -0.38000000 8 13 245 97.000000 1.000000 4.000000 1.000000 51.808199 114.000000 98.000000 -0.410858 0.902194 0.131305
11.14999962 1.83000004 -0.44999999 8 13 245 97.000000 1.000000 4.000000 1.000000 51.808199 114.000000 98.000000 -0.216306 0.975188 -0.047128
11.22999954 1.95000005 -0.56999999 8 13 245 97.000000 1.000000 4.000000 1.000000 51.808199 114.000000 98.000000 0.366354 0.909420 0.196825
11.21000004 1.99000001 -0.58999997 8 13 245 97.000000 1.000000 4.000000 1.000000 51.808199 114.000000 98.000000 0.419218 0.870219 0.258795
11.19999981 1.99000001 -0.55000001 8 13 245 97.000000 1.000000 4.000000 1.000000 51.808199 114.000000 98.000000 0.214358 0.965262 -0.149401
11.14000034 1.92999995 -0.52999997 8 13 245 97.000000 1.000000 4.000000 1.000000 51.808199 114.000000 98.000000 -0.485237 0.865363 0.125269
11.19999981 1.95000005 -0.63000000 8 13 245 97.000000 1.000000 4.000000 1.000000 51.808199 114.000000 98.000000 0.258067 0.953376 -0.156445
11.14999962 1.90999997 -0.55000001 8 13 245 97.000000 1.000000 4.000000 1.000000 51.808199 114.000000 98.000000 -0.518927 0.842338 0.145535
11.11999989 1.89999998 -0.67000002 8 13 245 97.000000 1.000000 4.000000 1.000000 51.808199 114.000000 98.000000 -0.450353 0.782021 0.430843
11.13000011 1.77999997 -0.38000000 8 13 245 97.000000 1.000000 4.000000 1.000000 51.808199 114.000000 98.000000 0.745738 -0.661425 0.079952
11.15999985 1.78999996 -0.36000001 8 13 245 97.000000 1.000000 4.000000 1.000000 51.808199 114.000000 98.000000 -0.292379 0.940279 0.174329
11.13000011 1.77999997 -0.38000000 8 13 245 97.000000 1.000000 4.000000 1.000000 51.808199 114.000000 98.000000 0.745738 -0.661425 0.079952
11.14999962 1.73000002 -0.36000001 8 13 245 97.000000 1.000000 4.000000 1.000000 51.808199 114.000000 98.000000 0.909704 0.009110 -0.415158
11.14999962 1.72000003 -0.38999999 8 13 245 97.000000 1.000000 4.000000 1.000000 51.808199 114.000000 98.000000 0.959797 0.104917 -0.260350
11.18000031 1.75000000 -0.51999998 8 13 245 97.000000 1.000000 4.000000 1.000000 51.808199 114.000000 98.000000 0.935802 -0.338709 -0.097730
11.18000031 1.69000006 -0.63000000 8 13 245 97.000000 1.000000 4.000000 1.000000 51.808199 114.000000 98.000000 -0.423392 0.904581 0.049732
11.10999966 1.89999998 -0.38000000 8 13 245 97.000000 1.000000 4.000000 1.000000 51.808199 114.000000 98.000000 -0.157674 0.983356 0.090271
10.98999977 1.97000003 -0.41000000 8 13 245 97.000000 1.000000 4.000000 1.000000 51.808199 114.000000 98.000000 0.837244 -0.461339 -0.293579
10.98999977 1.89999998 -0.33000001 8 13 245 97.000000 1.000000 4.000000 1.000000 51.808199 114.000000 98.000000 0.833205 -0.476339 -0.280838
11.01000023 1.86000001 -0.38000000 8 13 245 97.000000 1.000000 4.000000 1.000000 51.808199 114.000000 98.000000 0.843043 -0.522716 0.126675
10.94999981 1.85000002 -0.36000001 8 13 245 97.000000 1.000000 4.000000 1.000000 51.808199 114.000000 98.000000 0.959274 -0.274984 -0.064627
10.96000004 1.86000001 -0.36000001 8 13 245 97.000000 1.000000 4.000000 1.000000 51.808199 114.000000 98.000000 0.724475 -0.683495 -0.089279
10.94999981 1.85000002 -0.34999999 8 13 245 97.000000 1.000000 4.000000 1.000000 51.808199 114.000000 98.000000 0.919282 -0.356169 -0.167526
10.94999981 1.83000004 -0.38999999 8 13 245 97.000000 1.000000 4.000000 1.000000 51.808199 114.000000 98.000000 0.834257 -0.527917 -0.159119
10.96000004 1.86000001 -0.38999999 8 13 245 97.000000 1.000000 4.000000 1.000000 51.808199 114.000000 98.000000 0.869933 -0.443174 -0.216364
10.94999981 1.83000004 -0.41000000 8 13 245 97.000000 1.000000 4.000000 1.000000 51.808199 114.000000 98.000000 0.803355 -0.558523 0.206577
11.01000023 1.89999998 -0.49000001 8 13 245 97.000000 1.000000 4.000000 1.000000 51.808199 114.000000 98.000000 -0.439058 0.888127 0.135865
10.97000027 1.89999998 -0.44000000 8 13 245 97.000000 1.000000 4.000000 1.000000 51.808199 114.000000 98.000000 0.724780 -0.683948 -0.083124
11.05000019 1.91999996 -0.58999997 8 13 245 97.000000 1.000000 4.000000 1.000000 51.808199 114.000000 98.000000 0.704880 -0.667034 0.241268
11.02999973 1.94000006 -0.66000003 8 13 245 97.000000 1.000000 4.000000 1.000000 51.808199 114.000000 98.000000 0.765192 -0.570300 -0.298728
11.05000019 1.88000000 -0.52999997 8 13 245 97.000000 1.000000 4.000000 1.000000 51.808199 114.000000 98.000000 0.864221 -0.502893 0.014831
11.07999992 1.89999998 -0.66000003 8 13 245 97.000000 1.000000 4.000000 1.000000 51.808199 114.000000 98.000000 -0.229388 0.958658 0.168395
11.03999996 1.85000002 -0.63999999 8 13 245 97.000000 1.000000 4.000000 1.000000 51.808199 114.000000 98.000000 -0.698936 0.488755 0.522117
11.02999973 1.86000001 -0.64999998 8 13 245 97.000000 1.000000 4.000000 1.000000 51.808199 114.000000 98.000000 0.929190 -0.348959 -0.121794
11.01000023 1.89999998 -0.50999999 8 13 245 97.000000 1.000000 4.000000 1.000000 51.808199 114.000000 98.000000 -0.496072 0.867096 0.045347
11.00000000 1.85000002 -0.56999999 8 13 245 97.000000 1.000000 4.000000 1.000000 51.808199 114.000000 98.000000 0.904052 -0.415225 0.101376
10.94999981 1.82000005 -0.34000000 8 13 245 97.000000 1.000000 4.000000 1.000000 51.808199 114.000000 98.000000 0.874929 -0.348450 -0.336277
10.94999981 1.78999996 -0.49000001 8 13 245 97.000000 1.000000 4.000000 1.000000 51.808199 114.000000 98.000000 0.995685 -0.047101 0.079961
10.94999981 1.77999997 -0.47999999 8 13 245 97.000000 1.000000 4.000000 1.000000 51.808199 114.000000 98.000000 0.982460 -0.185871 0.015008
10.94999981 1.78999996 -0.47000000 8 13 245 97.000000 1.000000 4.000000 1.000000 51.808199 114.000000 98.000000 0.985368 -0.170436 0.001129
10.94999981 1.77999997 -0.46000001 8 13 245 97.000000 1.000000 4.000000 1.000000 51.808199 114.000000 98.000000 0.943914 -0.182207 0.275365
10.94999981 1.82000005 -0.49000001 8 13 245 97.000000 1.000000 4.000000 1.000000 51.808199 114.000000 98.000000 0.961772 -0.259283 0.088131
10.94999981 1.80999994 -0.47999999 8 13 245 97.000000 1.000000 4.000000 1.000000 51.808199 114.000000 98.000000 0.964003 -0.265556 0.013338
10.97000027 1.66999996 -0.38999999 8 13 245 97.000000 1.000000 4.000000 1.000000 51.808199 114.000000 98.000000 0.914265 0.365422 -0.174890
10.94999981 1.66999996 -0.40000001 8 13 245 97.000000 1.000000 4.000000 1.000000 51.808199 114.000000 98.000000 0.931249 0.241644 0.272733
11.00000000 1.66999996 -0.46000001 8 13 245 97.000000 1.000000 4.000000 1.000000 51.808199 114.000000 98.000000 0.902407 0.320495 -0.288002
10.97000027 1.75000000 -0.56000000 8 13 245 97.000000 1.000000 4.000000 1.000000 51.808199 114.000000 98.000000 0.912508 -0.402697 -0.071862
10.96000004 1.78999996 -0.55000001 8 13 245 97.000000 1.000000 4.000000 1.000000 51.808199 114.000000 98.000000 0.972709 -0.022732 0.230914
10.94999981 1.79999995 -0.57999998 8 13 245 97.000000 1.000000 4.000000 1.000000 51.808199 114.000000 98.000000 0.928236 -0.268662 -0.257291
10.94999981 1.79999995 -0.52999997 8 13 245 97.000000 1.000000 4.000000 1.000000 51.808199 114.000000 98.000000 0.908836 -0.396303 -0.130234
10.97000027 1.77999997 -0.55000001 8 13 245 97.000000 1.000000 4.000000 1.000000 51.808199 114.000000 98.000000 0.929671 -0.287250 -0.230649
10.94999981 1.78999996 -0.56999999 8 13 245 97.000000 1.000000 4.000000 1.000000 51.808199 114.000000 98.000000 0.802852 -0.537833 -0.257224
10.94999981 1.77999997 -0.52999997 8 13 245 97.000000 1.000000 4.000000 1.000000 51.808199 114.000000 98.000000 0.987697 -0.147400 -0.052228
10.97000027 1.80999994 -0.63000000 8 13 245 97.000000 1.000000 4.000000 1.000000 51.808199 114.000000 98.000000 0.974960 -0.124223 0.184452
10.97000027 1.79999995 -0.62000000 8 13 245 97.000000 1.000000 4.000000 1.000000 51.808199 114.000000 98.000000 0.993976 0.077496 0.077496
10.97000027 1.78999996 -0.66000003 8 13 245 97.000000 1.000000 4.000000 1.000000 51.808199 114.000000 98.000000 0.963414 -0.171710 -0.205790
10.96000004 1.75999999 -0.61000001 8 13 245 97.000000 1.000000 4.000000 1.000000 51.808199 114.000000 98.000000 0.998905 -0.042441 -0.019668
10.97000027 1.77999997 -0.61000001 8 13 245 97.000000 1.000000 4.000000 1.000000 51.808199 114.000000 98.000000 0.887078 -0.455302 0.076114
10.94999981 1.75999999 -0.61000001 8 13 245 97.000000 1.000000 4.000000 1.000000 51.808199 114.000000 98.000000 0.930691 -0.221057 -0.291457
10.94999981 1.74000001 -0.50999999 8 13 245 97.000000 1.000000 4.000000 1.000000 51.808199 114.000000 98.000000 0.992316 -0.099118 -0.074053
10.96000004 1.72000003 -0.56000000 8 13 245 97.000000 1.000000 4.000000 1.000000 51.808199 114.000000 98.000000 0.968571 -0.247886 -0.020556
11.00000000 1.70000005 -0.63000000 8 13 245 97.000000 1.000000 4.000000 1.000000 51.808199 114.000000 98.000000 0.971304 0.210933 0.109887
11.00000000 1.72000003 -0.63000000 8 13 245 97.000000 1.000000 4.000000 1.000000 51.808199 114.000000 98.000000 0.861678 0.266891 -0.431602
10.98999977 1.70000005 -0.58999997 8 13 245 97.000000 1.000000 4.000000 1.000000 51.808199 114.000000 98.000000 0.751254 0.638945 -0.165428
11.00000000 1.69000006 -0.61000001 8 13 245 97.000000 1.000000 4.000000 1.000000 51.808199 114.000000 98.000000 0.904581 0.423392 -0.049732
11.01000023 1.66999996 -0.61000001 8 13 245 97.000000 1.000000 4.000000 1.000000 51.808199 114.000000 98.000000 0.803127 0.557429 -0.210379
11.01000023 1.66999996 -0.64999998 8 13 245 97.000000 1.000000 4.000000 1.000000 51.808199 114.000000 98.000000 0.905014 0.238316 -0.352356
11.02000046 1.65999997 -0.64999998 8 13 245 97.000000 1.000000 4.000000 1.000000 51.808199 114.000000 98.000000 0.736807 0.633120 -0.237224
10.94999981 1.71000004 -0.61000001 8 13 245 97.000000 1.000000 4.000000 1.000000 51.808199 114.000000 98.000000 0.791467 0.541863 -0.282780
10.97000027 1.72000003 -0.61000001 8 13 245 97.000000 1.000000 4.000000 1.000000 51.808199 114.000000 98.000000 0.984344 0.138217 0.109372
10.97000027 1.72000003 -0.61000001 8 13 245 97.000000 1.000000 4.000000 1.000000 51.808199 114.000000 98.000000 0.984344 0.138217 0.109372
10.94999981 1.73000002 -0.62000000 8 13 245 97.000000 1.000000 4.000000 1.000000 51.808199 114.000000 98.000000 0.962503 -0.264782 -0.058980
10.96000004 1.71000004 -0.60000002 8 13 245 97.000000 1.000000 4.000000 1.000000 51.808199 114.000000 98.000000 0.882031 0.471039 0.012009
11.26000023 1.99000001 -0.80000001 8 13 245 97.000000 1.000000 4.000000 1.000000 51.808199 114.000000 98.000000 0.272778 0.950019 -0.151842
11.14999962 1.90999997 -0.70999998 8 13 245 97.000000 1.000000 4.000000 1.000000 51.808199 114.000000 98.000000 -0.365239 0.913807 0.177645
11.17000008 1.90999997 -0.74000001 8 13 245 97.000000 1.000000 4.000000 1.000000 51.808199 114.000000 98.000000 -0.041781 0.997388 -0.058922
11.21000004 1.94000006 -0.89999998 8 13 245 97.000000 1.000000 4.000000 1.000000 51.808199 114.000000 98.000000 0.062118 0.992763 -0.102777
11.22999954 1.94000006 -0.92000002 8 13 245 97.000000 1.000000 4.000000 1.000000 51.808199 114.000000 98.000000 0.210475 0.971712 0.107128
11.11999989 1.90999997 -0.95999998 8 13 245 97.000000 1.000000 4.000000 1.000000 51.808199 114.000000 98.000000 0.324061 0.933571 -0.153067
11.18000031 1.77999997 -0.83999997 8 13 245 97.000000 1.000000 4.000000 1.000000 51.808199 114.000000 98.000000 0.838663 0.471072 0.273376
11.18000031 1.77999997 -0.75999999 8 13 245 97.000000 1.000000 4.000000 1.000000 51.808199 114.000000 98.000000 0.825338 0.470050 0.312842
11.14000034 1.65999997 -0.75000000 8 13 245 97.000000 1.000000 4.000000 1.000000 51.808199 114.000000 98.000000 -0.149345 0.987531 -0.049782
11.18000031 1.70000005 -0.75000000 8 13 245 97.000000 1.000000 4.000000 1.000000 51.808199 114.000000 98.000000 -0.624350 0.768085 -0.142238
11.18999958 1.66999996 -0.76999998 8 13 245 97.000000 1.000000 4.000000 1.000000 51.808199 114.000000 98.000000 -0.051544 0.998267 0.028402
11.14000034 1.70000005 -0.83999997 8 13 245 97.000000 1.000000 4.000000 1.000000 51.808199 114.000000 98.000000 0.392587 0.918680 0.043621
11.21000004 1.76999998 -0.92000002 8 13 245 97.000000 1.000000 4.000000 1.000000 51.808199 114.000000 98.000000 0.872455 0.412791 -0.261585
11.21000004 1.73000002 -1.00999999 8 13 245 97.000000 1.000000 4.000000 1.000000 51.808199 114.000000 98.000000 0.871980 -0.232628 -0.430737
11.21000004 1.73000002 -1.00000000 8 13 245 97.000000 1.000000 4.000000 1.000000 51.808199 114.000000 98.000000 0.904711 -0.164363 -0.393042
11.18000031 1.76999998 -0.88999999 8 13 245 97.000000 1.000000 4.000000 1.000000 51.808199 114.000000 98.000000 0.972188 -0.075546 0.221684
11.19999981 1.75999999 -0.87000000 8 13 245 97.000000 1.000000 4.000000 1.000000 51.808199 114.000000 98.000000 0.986233 -0.050187 -0.157564
11.18000031 1.79999995 -0.88000000 8 13 245 97.000000 1.000000 4.000000 1.000000 51.808199 114.000000 98.000000 0.793698 0.523300 0.310163
11.18999958 1.76999998 -0.87000000 8 13 245 97.000000 1.000000 4.000000 1.000000 51.808199 114.000000 98.000000 0.876414 0.263980 -0.402758
11.19999981 1.75999999 -0.92000002 8 13 245 97.000000 1.000000 4.000000 1.000000 51.808199 114.000000 98.000000 0.904409 -0.289705 -0.313234
11.19999981 1.76999998 -0.94000000 8 13 245 97.000000 1.000000 4.000000 1.000000 51.808199 114.000000 98.000000 0.970055 0.202679 -0.133845
11.19999981 1.73000002 -0.91000003 8 13 245 97.000000 1.000000 4.000000 1.000000 51.808199 114.000000 98.000000 0.844495 -0.489716 0.216809
11.18000031 1.71000004 -0.91000003 8 13 245 97.000000 1.000000 4.000000 1.000000 51.808199 114.000000 98.000000 -0.613391 0.726088 -0.310721
11.18999958 1.71000004 -0.93000001 8 13 245 97.000000 1.000000 4.000000 1.000000 51.808199 114.000000 98.000000 -0.622042 0.780067 -0.067520
11.15999985 1.67999995 -1.00999999 8 13 245 97.000000 1.000000 4.000000 1.000000 51.808199 114.000000 98.000000 -0.650798 0.725710 0.223175
11.15999985 1.67999995 -0.95999998 8 13 245 97.000000 1.000000 4.000000 1.000000 51.808199 114.000000 98.000000 -0.402679 0.891752 -0.206465
11.18999958 1.71000004 -0.94999999 8 13 245 97.000000 1.000000 4.000000 1.000000 51.808199 114.000000 98.000000 0.762036 -0.633787 -0.132722
11.18999958 1.71000004 -1.00000000 8 13 245 97.000000 1.000000 4.000000 1.000000 51.808199 114.000000 98.000000 0.872498 -0.476814 -0.106749
11.18999958 1.71000004 -0.95999998 8 13 245 97.000000 1.000000 4.000000 1.000000 51.808199 114.000000 98.000000 -0.628083 0.771561 -0.101020
11.18000031 1.67999995 -0.95999998 8 13 245 97.000000 1.000000 4.000000 1.000000 51.808199 114.000000 98.000000 -0.623411 0.767621 0.148717
11.07999992 1.91999996 -0.80000001 8 13 245 97.000000 1.000000 4.000000 1.000000 51.808199 114.000000 98.000000 -0.592825 0.786896 0.171328
11.09000015 1.91999996 -0.81999999 8 13 245 97.000000 1.000000 4.000000 1.000000 51.808199 114.000000 98.000000 0.003533 0.973826 0.227265
11.10000038 1.91999996 -0.83999997 8 13 245 97.000000 1.000000 4.000000 1.000000 51.808199 114.000000 98.000000 -0.501454 0.865175 0.004012
11.03999996 1.85000002 -0.74000001 8 13 245 97.000000 1.000000 4.000000 1.000000 51.808199 114.000000 98.000000 0.851981 -0.523571 0.001346
11.10999966 1.88000000 -0.75999999 8 13 245 97.000000 1.000000 4.000000 1.000000 51.808199 114.000000 98.000000 -0.581852 0.760392 0.288535
11.06999969 1.90999997 -0.77999997 8 13 245 97.000000 1.000000 4.000000 1.000000 51.808199 114.000000 98.000000 -0.400567 0.900198 -0.170851
11.05000019 1.84000003 -0.79000002 8 13 245 97.000000 1.000000 4.000000 1.000000 51.808199 114.000000 98.000000 -0.722265 0.656746 0.216835
11.01000023 1.83000004 -0.70999998 8 13 245 97.000000 1.000000 4.000000 1.000000 51.808199 114.000000 98.000000 0.921215 -0.388086 -0.027440
10.98999977 1.83000004 -0.69000000 8 13 245 97.000000 1.000000 4.000000 1.000000 51.808199 114.000000 98.000000 0.964546 -0.219392 0.146694
10.97000027 1.83000004 -0.72000003 8 13 245 97.000000 1.000000 4.000000 1.000000 51.808199 114.000000 98.000000 0.944584 0.031783 -0.326727
10.97999954 1.85000002 -0.79000002 8 13 245 97.000000 1.000000 4.000000 1.000000 51.808199 114.000000 98.000000 0.778742 -0.493797 -0.386943
10.97999954 1.85000002 -0.81000000 8 13 245 97.000000 1.000000 4.000000 1.000000 51.808199 114.000000 98.000000 0.756569 -0.653842 -0.009717
10.97000027 1.83000004 -0.80000001 8 13 245 97.000000 1.000000 4.000000 1.000000 51.808199 114.000000 98.000000 0.987488 -0.141739 -0.069112
11.10000038 1.95000005 -0.88999999 8 13 245 97.000000 1.000000 4.000000 1.000000 51.808199 114.000000 98.000000 -0.482047 0.874314 -0.056630
11.03999996 1.84000003 -0.88000000 8 13 245 97.000000 1.000000 4.000000 1.000000 51.808199 114.000000 98.000000 -0.535626 0.828057 0.165611
11.03999996 1.89999998 -0.91000003 8 13 245 97.000000 1.000000 4.000000 1.000000 51.808199 114.000000 98.000000 -0.536172 0.839289 -0.090077
11.05000019 1.85000002 -0.88999999 8 13 245 97.000000 1.000000 4.000000 1.000000 51.808199 114.000000 98.000000 -0.606238 0.725870 0.324944
11.02999973 1.88000000 -0.94000000 8 13 245 97.000000 1.000000 4.000000 1.000000 51.808199 114.000000 98.000000 -0.531046 0.824559 -0.195171
11.02999973 1.86000001 -0.95999998 8 13 245 97.000000 1.000000 4.000000 1.000000 51.808199 114.000000 98.000000 0.647892 -0.720405 -0.247492
11.02999973 1.88000000 -0.94999999 8 13 245 97.000000 1.000000 4.000000 1.000000 51.808199 114.000000 98.000000 0.701346 -0.707203 0.089315
10.98999977 1.85000002 -0.93000001 8 13 245 97.000000 1.000000 4.000000 1.000000 51.808199 114.000000 98.000000 0.793950 -0.560892 -0.234612
11.00000000 1.84000003 -0.85000002 8 13 245 97.000000 1.000000 4.000000 1.000000 51.808199 114.000000 98.000000 -0.627537 0.778585 0.001373
11.01000023 1.88999999 -0.92000002 8 13 245 97.000000 1.000000 4.000000 1.000000 51.808199 114.000000 98.000000 0.827137 -0.538011 -0.162447
10.98999977 1.84000003 -0.93000001 8 13 245 97.000000 1.000000 4.000000 1.000000 51.808199 114.000000 98.000000 0.969612 -0.240875 -0.042795
11.00000000 1.87000000 -1.00000000 8 13 245 97.000000 1.000000 4.000000 1.000000 51.808199 114.000000 98.000000 -0.678860 0.732941 0.044119
10.97999954 1.83000004 -1.00999999 8 13 245 97.000000 1.000000 4.000000 1.000000 51.808199 114.000000 98.000000 0.954905 -0.141713 -0.260910
