//X Y Z R G B PointSourceId ScanDirectionFlag NumberOfReturns ReturnNumber GpsTime Intensity Classification Nx Ny Nz
-10.38000011 16.59000015 -0.18000001 226 26 129 0.000000 0.000000 0.000000 0.000000 51.808199 0.000000 65.000000 0.456573 -0.647231 0.610437
-10.35999966 16.55999947 -0.23000000 226 26 129 0.000000 0.000000 0.000000 0.000000 51.808199 0.000000 65.000000 0.937459 0.011386 -0.347910
-10.35999966 16.55999947 -0.20999999 226 26 129 0.000000 0.000000 0.000000 0.000000 51.808199 0.000000 65.000000 0.985130 -0.108927 0.132867
-10.35999966 16.56999969 -0.20999999 226 26 129 0.000000 0.000000 0.000000 0.000000 51.808199 0.000000 65.000000 0.981569 0.147908 -0.121015
-10.35999966 16.56999969 -0.23000000 226 26 129 0.000000 0.000000 0.000000 0.000000 51.808199 0.000000 65.000000 0.798548 0.574288 -0.180317
-10.35999966 16.57999992 -0.20999999 226 26 129 0.000000 0.000000 0.000000 0.000000 51.808199 0.000000 65.000000 0.911329 0.350956 -0.215195
-10.38000011 16.56999969 -0.20999999 226 26 129 0.000000 0.000000 0.000000 0.000000 51.808199 0.000000 65.000000 0.831235 -0.519333 0.198346
-10.38000011 16.54999924 -0.23999999 226 26 129 0.000000 0.000000 0.000000 0.000000 51.808199 0.000000 65.000000 0.880446 -0.278432 0.383784
-10.35999966 16.53000069 -0.23000000 226 26 129 0.000000 0.000000 0.000000 0.000000 51.808199 0.000000 65.000000 -0.578216 0.507414 -0.638903
-10.40999985 16.55999947 -0.23000000 226 26 129 0.000000 0.000000 0.000000 0.000000 51.808199 0.000000 65.000000 0.955777 0.152871 0.251240
-10.40999985 16.55999947 -0.23000000 226 26 129 0.000000 0.000000 0.000000 0.000000 51.808199 0.000000 65.000000 0.955777 0.152871 0.251240
-10.40999985 16.53000069 -0.20000000 226 26 129 0.000000 0.000000 0.000000 0.000000 51.808199 0.000000 65.000000 0.695809 0.680103 -0.230889
-10.43000031 16.54999924 -0.23999999 226 26 129 0.000000 0.000000 0.000000 0.000000 51.808199 0.000000 65.000000 0.947017 -0.036864 0.319062
-10.35999966 16.55999947 -0.30000001 226 26 129 0.000000 0.000000 0.000000 0.000000 51.808199 0.000000 65.000000 0.124588 0.944457 -0.304102
-10.35999966 16.57999992 -0.31999999 226 26 129 0.000000 0.000000 0.000000 0.000000 51.808199 0.000000 65.000000 -0.417849 -0.509612 0.752129
-10.36999989 16.54999924 -0.31999999 226 26 129 0.000000 0.000000 0.000000 0.000000 51.808199 0.000000 65.000000 0.383678 0.869771 -0.310305
-10.36999989 16.53000069 -0.28999999 226 26 129 0.000000 0.000000 0.000000 0.000000 51.808199 0.000000 65.000000 -0.529076 -0.529076 0.663444
-10.38000011 16.54999924 -0.31999999 226 26 129 0.000000 0.000000 0.000000 0.000000 51.808199 0.000000 65.000000 -0.143970 0.933747 -0.327703
-10.35999966 16.52000046 -0.31000000 226 26 129 0.000000 0.000000 0.000000 0.000000 51.808199 0.000000 65.000000 0.467071 0.808208 -0.358672
-10.35999966 16.54000092 -0.31999999 226 26 129 0.000000 0.000000 0.000000 0.000000 51.808199 0.000000 65.000000 0.399066 0.834411 -0.380138
-10.42000008 16.56999969 -0.25999999 226 26 129 0.000000 0.000000 0.000000 0.000000 51.808199 0.000000 65.000000 -0.604518 0.718578 -0.343809
-10.40999985 16.55999947 -0.28999999 226 26 129 0.000000 0.000000 0.000000 0.000000 51.808199 0.000000 65.000000 -0.564925 0.665505 -0.487814
-10.40999985 16.54999924 -0.28000000 226 26 129 0.000000 0.000000 0.000000 0.000000 51.808199 0.000000 65.000000 -0.639796 0.730970 -0.237369
-10.43000031 16.54000092 -0.31999999 226 26 129 0.000000 0.000000 0.000000 0.000000 51.808199 0.000000 65.000000 0.902627 -0.299891 0.308755
-10.43000031 16.54000092 -0.31999999 226 26 129 0.000000 0.000000 0.000000 0.000000 51.808199 0.000000 65.000000 0.902627 -0.299891 0.308755
-10.43000031 16.52000046 -0.31999999 226 26 129 0.000000 0.000000 0.000000 0.000000 51.808199 0.000000 65.000000 0.872483 -0.094743 0.479371
-10.43000031 16.54999924 -0.31000000 226 26 129 0.000000 0.000000 0.000000 0.000000 51.808199 0.000000 65.000000 0.774867 -0.448607 0.445345
-10.42000008 16.52000046 -0.28999999 226 26 129 0.000000 0.000000 0.000000 0.000000 51.808199 0.000000 65.000000 0.926052 0.090577 0.366365
-10.40999985 16.54999924 -0.28999999 226 26 129 0.000000 0.000000 0.000000 0.000000 51.808199 0.000000 65.000000 0.788411 -0.482076 0.382113
-10.42000008 16.52000046 -0.28999999 226 26 129 0.000000 0.000000 0.000000 0.000000 51.808199 0.000000 65.000000 0.926052 0.090577 0.366365
-10.35999966 16.47999954 -0.17000000 226 26 129 0.000000 0.000000 0.000000 0.000000 51.808199 0.000000 65.000000 0.328833 -0.425457 0.843122
-10.36999989 16.44000053 -0.19000000 226 26 129 0.000000 0.000000 0.000000 0.000000 51.808199 0.000000 65.000000 -0.435018 0.638359 -0.635026
-10.36999989 16.43000031 -0.20000000 226 26 129 0.000000 0.000000 0.000000 0.000000 51.808199 0.000000 65.000000 0.395456 -0.789298 0.469705
-10.36999989 16.44000053 -0.23999999 226 26 129 0.000000 0.000000 0.000000 0.000000 51.808199 0.000000 65.000000 0.086596 -0.509637 0.856020
-10.35999966 16.45000076 -0.23000000 226 26 129 0.000000 0.000000 0.000000 0.000000 51.808199 0.000000 65.000000 -0.054735 -0.543135 0.837859
-10.40999985 16.51000023 -0.18000001 226 26 129 0.000000 0.000000 0.000000 0.000000 51.808199 0.000000 65.000000 0.312906 0.912523 -0.263424
-10.40999985 16.47999954 -0.23999999 226 26 129 0.000000 0.000000 0.000000 0.000000 51.808199 0.000000 65.000000 -0.474187 -0.510791 0.717104
-10.39999962 16.50000000 -0.22000000 226 26 129 0.000000 0.000000 0.000000 0.000000 51.808199 0.000000 65.000000 0.690073 0.556403 -0.462834
-10.39999962 16.45000076 -0.18000001 226 26 129 0.000000 0.000000 0.000000 0.000000 51.808199 0.000000 65.000000 -0.165749 0.752712 -0.637144
-10.35999966 16.50000000 -0.28000000 226 26 129 0.000000 0.000000 0.000000 0.000000 51.808199 0.000000 65.000000 0.573998 -0.709640 0.408580
-10.38000011 16.51000023 -0.31000000 226 26 129 0.000000 0.000000 0.000000 0.000000 51.808199 0.000000 65.000000 -0.491609 0.568790 -0.659393
-10.36999989 16.45999908 -0.25999999 226 26 129 0.000000 0.000000 0.000000 0.000000 51.808199 0.000000 65.000000 -0.099821 0.940976 -0.323419
-10.38000011 16.45000076 -0.27000001 226 26 129 0.000000 0.000000 0.000000 0.000000 51.808199 0.000000 65.000000 0.119524 0.954879 -0.271884
-10.39000034 16.45999908 -0.27000001 226 26 129 0.000000 0.000000 0.000000 0.000000 51.808199 0.000000 65.000000 0.278432 0.880446 -0.383784
-10.38000011 16.45000076 -0.27000001 226 26 129 0.000000 0.000000 0.000000 0.000000 51.808199 0.000000 65.000000 0.119524 0.954879 -0.271884
-10.35999966 16.44000053 -0.31999999 226 26 129 0.000000 0.000000 0.000000 0.000000 51.808199 0.000000 65.000000 0.144930 -0.587191 0.796368
-10.38000011 16.44000053 -0.31000000 226 26 129 0.000000 0.000000 0.000000 0.000000 51.808199 0.000000 65.000000 -0.120698 -0.689915 0.713757
-10.36999989 16.44000053 -0.31999999 226 26 129 0.000000 0.000000 0.000000 0.000000 51.808199 0.000000 65.000000 -0.119828 -0.625770 0.770748
-10.35999966 16.45000076 -0.31000000 226 26 129 0.000000 0.000000 0.000000 0.000000 51.808199 0.000000 65.000000 0.274698 -0.479558 0.833406
-10.42000008 16.51000023 -0.28999999 226 26 129 0.000000 0.000000 0.000000 0.000000 51.808199 0.000000 65.000000 0.977089 0.199331 0.074596
-10.43999958 16.54999924 -0.28999999 226 26 129 0.000000 0.000000 0.000000 0.000000 51.808199 0.000000 65.000000 0.897735 0.052808 0.437358
-10.43999958 16.50000000 -0.23000000 226 26 129 0.000000 0.000000 0.000000 0.000000 51.808199 0.000000 65.000000 0.496052 0.703158 -0.509413
-10.36999989 16.39999962 -0.19000000 226 26 129 0.000000 0.000000 0.000000 0.000000 51.808199 0.000000 65.000000 -0.222849 0.809942 -0.542523
-10.35999966 16.40999985 -0.19000000 226 26 129 0.000000 0.000000 0.000000 0.000000 51.808199 0.000000 65.000000 -0.387544 0.860007 -0.331960
-10.36999989 16.42000008 -0.17000000 226 26 129 0.000000 0.000000 0.000000 0.000000 51.808199 0.000000 65.000000 -0.175080 -0.519255 0.836494
-10.39000034 16.39999962 -0.23999999 226 26 129 0.000000 0.000000 0.000000 0.000000 51.808199 0.000000 65.000000 0.162707 -0.535888 0.828462
-10.38000011 16.37999916 -0.18000001 226 26 129 0.000000 0.000000 0.000000 0.000000 51.808199 0.000000 65.000000 0.411198 0.775263 -0.479461
-10.39000034 16.37999916 -0.20000000 226 26 129 0.000000 0.000000 0.000000 0.000000 51.808199 0.000000 65.000000 0.139662 -0.677288 0.722340
-10.38000011 16.37000084 -0.20999999 226 26 129 0.000000 0.000000 0.000000 0.000000 51.808199 0.000000 65.000000 -0.034913 -0.579562 0.814180
-10.40999985 16.35000038 -0.19000000 226 26 129 0.000000 0.000000 0.000000 0.000000 51.808199 0.000000 65.000000 -0.081704 0.928208 -0.362979
-10.42000008 16.36000061 -0.22000000 226 26 129 0.000000 0.000000 0.000000 0.000000 51.808199 0.000000 65.000000 0.144905 0.913043 -0.381255
-10.36999989 16.42000008 -0.28000000 226 26 129 0.000000 0.000000 0.000000 0.000000 51.808199 0.000000 65.000000 -0.437383 0.782087 -0.443887
-10.39999962 16.31999969 -0.20000000 226 26 129 0.000000 0.000000 0.000000 0.000000 51.808199 0.000000 65.000000 0.074250 0.864377 -0.497332
-10.43999958 16.36000061 -0.17000000 226 26 129 0.000000 0.000000 0.000000 0.000000 51.808199 0.000000 65.000000 0.546585 0.450226 -0.706075
-10.47000027 16.32999992 -0.20000000 226 26 129 0.000000 0.000000 0.000000 0.000000 51.808199 0.000000 65.000000 0.276143 0.876717 -0.393844
-10.46000004 16.29000092 -0.20000000 226 26 129 0.000000 0.000000 0.000000 0.000000 51.808199 0.000000 65.000000 0.600861 0.621058 -0.503242
-10.48999977 16.34000015 -0.20999999 226 26 129 0.000000 0.000000 0.000000 0.000000 51.808199 0.000000 65.000000 0.647028 0.478969 -0.593249
-10.43999958 16.31999969 -0.25999999 226 26 129 0.000000 0.000000 0.000000 0.000000 51.808199 0.000000 65.000000 0.540262 0.706496 -0.457144
-10.32999992 16.61000061 -0.56999999 226 26 129 0.000000 0.000000 0.000000 0.000000 51.808199 0.000000 65.000000 -0.034495 0.843046 -0.536735
-10.31999969 16.61000061 -0.56999999 226 26 129 0.000000 0.000000 0.000000 0.000000 51.808199 0.000000 65.000000 -0.169630 0.695329 -0.698386
-10.27999973 16.62000084 -0.61000001 226 26 129 0.000000 0.000000 0.000000 0.000000 51.808199 0.000000 65.000000 0.152004 0.948346 -0.278451
-10.30000019 16.57999992 -0.34000000 226 26 129 0.000000 0.000000 0.000000 0.000000 51.808199 0.000000 65.000000 0.455791 0.858584 -0.234710
-10.27999973 16.53000069 -0.41000000 226 26 129 0.000000 0.000000 0.000000 0.000000 51.808199 0.000000 65.000000 0.574397 0.809445 -0.121931
-10.34000015 16.52000046 -0.36000001 226 26 129 0.000000 0.000000 0.000000 0.000000 51.808199 0.000000 65.000000 0.709508 0.700802 -0.073998
-10.32999992 16.54000092 -0.34000000 226 26 129 0.000000 0.000000 0.000000 0.000000 51.808199 0.000000 65.000000 0.795692 0.298978 -0.526770
-10.34000015 16.54000092 -0.38999999 226 26 129 0.000000 0.000000 0.000000 0.000000 51.808199 0.000000 65.000000 0.393154 0.715574 -0.577394
-10.32999992 16.54999924 -0.38000000 226 26 129 0.000000 0.000000 0.000000 0.000000 51.808199 0.000000 65.000000 -0.450862 -0.408846 0.793453
-10.34000015 16.54999924 -0.41000000 226 26 129 0.000000 0.000000 0.000000 0.000000 51.808199 0.000000 65.000000 0.206822 0.946448 -0.247912
-10.34000015 16.59000015 -0.47000000 226 26 129 0.000000 0.000000 0.000000 0.000000 51.808199 0.000000 65.000000 0.423816 0.784303 -0.453045
-10.34000015 16.54999924 -0.44999999 226 26 129 0.000000 0.000000 0.000000 0.000000 51.808199 0.000000 65.000000 -0.244658 -0.553207 0.796307
-10.35000038 16.54000092 -0.46000001 226 26 129 0.000000 0.000000 0.000000 0.000000 51.808199 0.000000 65.000000 -0.305781 -0.478273 0.823257
-10.35000038 16.54000092 -0.46000001 226 26 129 0.000000 0.000000 0.000000 0.000000 51.808199 0.000000 65.000000 -0.305781 -0.478273 0.823257
-10.31000042 16.46999931 -0.33000001 226 26 129 0.000000 0.000000 0.000000 0.000000 51.808199 0.000000 65.000000 0.982287 -0.182779 -0.041273
-10.34000015 16.48999977 -0.36000001 226 26 129 0.000000 0.000000 0.000000 0.000000 51.808199 0.000000 65.000000 0.948288 0.160521 -0.273830
-10.34000015 16.47999954 -0.33000001 226 26 129 0.000000 0.000000 0.000000 0.000000 51.808199 0.000000 65.000000 0.956016 -0.292151 -0.026107
-10.35000038 16.50000000 -0.34000000 226 26 129 0.000000 0.000000 0.000000 0.000000 51.808199 0.000000 65.000000 0.603887 0.783705 -0.145352
-10.31999969 16.47999954 -0.37000000 226 26 129 0.000000 0.000000 0.000000 0.000000 51.808199 0.000000 65.000000 0.906316 0.206704 -0.368598
-10.35000038 16.50000000 -0.34000000 226 26 129 0.000000 0.000000 0.000000 0.000000 51.808199 0.000000 65.000000 0.603887 0.783705 -0.145352
-10.34000015 16.47999954 -0.34999999 226 26 129 0.000000 0.000000 0.000000 0.000000 51.808199 0.000000 65.000000 0.962793 -0.096151 -0.252557
-10.34000015 16.46999931 -0.33000001 226 26 129 0.000000 0.000000 0.000000 0.000000 51.808199 0.000000 65.000000 0.999815 0.009007 0.017014
-10.35000038 16.45999908 -0.37000000 226 26 129 0.000000 0.000000 0.000000 0.000000 51.808199 0.000000 65.000000 0.956769 -0.102836 -0.272061
-10.32999992 16.45000076 -0.34999999 226 26 129 0.000000 0.000000 0.000000 0.000000 51.808199 0.000000 65.000000 0.993074 0.112319 0.034474
-10.34000015 16.46999931 -0.33000001 226 26 129 0.000000 0.000000 0.000000 0.000000 51.808199 0.000000 65.000000 0.999815 0.009007 0.017014
-10.34000015 16.50000000 -0.41999999 226 26 129 0.000000 0.000000 0.000000 0.000000 51.808199 0.000000 65.000000 0.625957 0.659164 -0.416751
-10.34000015 16.51000023 -0.50000000 226 26 129 0.000000 0.000000 0.000000 0.000000 51.808199 0.000000 65.000000 0.101741 -0.715135 0.691543
-10.34000015 16.50000000 -0.50000000 226 26 129 0.000000 0.000000 0.000000 0.000000 51.808199 0.000000 65.000000 -0.123732 0.839925 -0.528410
-10.31000042 16.55999947 -0.52999997 226 26 129 0.000000 0.000000 0.000000 0.000000 51.808199 0.000000 65.000000 0.634408 0.506517 -0.583924
-10.31000042 16.55999947 -0.57999998 226 26 129 0.000000 0.000000 0.000000 0.000000 51.808199 0.000000 65.000000 -0.061927 0.715759 -0.695597
-10.30000019 16.55999947 -0.57999998 226 26 129 0.000000 0.000000 0.000000 0.000000 51.808199 0.000000 65.000000 0.152067 0.763344 -0.627839
-10.35000038 16.57999992 -0.54000002 226 26 129 0.000000 0.000000 0.000000 0.000000 51.808199 0.000000 65.000000 -0.029622 0.933730 -0.356749
-10.34000015 16.52000046 -0.54000002 226 26 129 0.000000 0.000000 0.000000 0.000000 51.808199 0.000000 65.000000 0.431084 0.809283 -0.399033
-10.34000015 16.52000046 -0.55000001 226 26 129 0.000000 0.000000 0.000000 0.000000 51.808199 0.000000 65.000000 0.301819 0.761733 -0.573296
-10.32999992 16.59000015 -0.60000002 226 26 129 0.000000 0.000000 0.000000 0.000000 51.808199 0.000000 65.000000 0.287076 0.704058 -0.649530
-10.32999992 16.59000015 -0.60000002 226 26 129 0.000000 0.000000 0.000000 0.000000 51.808199 0.000000 65.000000 0.287076 0.704058 -0.649530
-10.34000015 16.59000015 -0.61000001 226 26 129 0.000000 0.000000 0.000000 0.000000 51.808199 0.000000 65.000000 -0.211512 -0.597482 0.773484
-10.31999969 16.57999992 -0.61000001 226 26 129 0.000000 0.000000 0.000000 0.000000 51.808199 0.000000 65.000000 0.404749 0.778613 -0.479521
-10.34000015 16.56999969 -0.66000003 226 26 129 0.000000 0.000000 0.000000 0.000000 51.808199 0.000000 65.000000 0.004008 -0.498291 0.867000
-10.35000038 16.54000092 -0.62000000 226 26 129 0.000000 0.000000 0.000000 0.000000 51.808199 0.000000 65.000000 0.032244 -0.623857 0.780873
-10.35000038 16.53000069 -0.62000000 226 26 129 0.000000 0.000000 0.000000 0.000000 51.808199 0.000000 65.000000 -0.020448 0.849273 -0.527558
-10.35000038 16.54000092 -0.62000000 226 26 129 0.000000 0.000000 0.000000 0.000000 51.808199 0.000000 65.000000 0.032244 -0.623857 0.780873
-10.34000015 16.54999924 -0.61000001 226 26 129 0.000000 0.000000 0.000000 0.000000 51.808199 0.000000 65.000000 0.114064 0.922132 -0.369677
-10.34000015 16.54999924 -0.58999997 226 26 129 0.000000 0.000000 0.000000 0.000000 51.808199 0.000000 65.000000 0.272521 0.866281 -0.418677
-10.34000015 16.54999924 -0.63999999 226 26 129 0.000000 0.000000 0.000000 0.000000 51.808199 0.000000 65.000000 0.349467 0.881987 -0.316184
-10.35000038 16.54999924 -0.66000003 226 26 129 0.000000 0.000000 0.000000 0.000000 51.808199 0.000000 65.000000 0.229758 -0.614252 0.754921
-10.35000038 16.51000023 -0.57999998 226 26 129 0.000000 0.000000 0.000000 0.000000 51.808199 0.000000 65.000000 0.248568 0.888595 -0.385504
-10.35000038 16.50000000 -0.50999999 226 26 129 0.000000 0.000000 0.000000 0.000000 51.808199 0.000000 65.000000 0.040702 -0.585262 0.809822
-10.35000038 16.50000000 -0.50999999 226 26 129 0.000000 0.000000 0.000000 0.000000 51.808199 0.000000 65.000000 0.040702 -0.585262 0.809822
-10.35000038 16.63999939 -0.75000000 226 26 129 0.000000 0.000000 0.000000 0.000000 51.808199 0.000000 65.000000 0.028888 0.846017 -0.532372
-10.35000038 16.63999939 -0.75000000 226 26 129 0.000000 0.000000 0.000000 0.000000 51.808199 0.000000 65.000000 0.028888 0.846017 -0.532372
-10.35000038 16.60000038 -0.79000002 226 26 129 0.000000 0.000000 0.000000 0.000000 51.808199 0.000000 65.000000 -0.197167 0.844356 -0.498185
-10.35000038 16.62999916 -0.75999999 226 26 129 0.000000 0.000000 0.000000 0.000000 51.808199 0.000000 65.000000 0.405370 0.683338 -0.607227
-10.31000042 16.57999992 -0.70999998 226 26 129 0.000000 0.000000 0.000000 0.000000 51.808199 0.000000 65.000000 -0.152741 -0.685067 0.712288
-10.34000015 16.57999992 -0.72000003 226 26 129 0.000000 0.000000 0.000000 0.000000 51.808199 0.000000 65.000000 -0.059060 0.885893 -0.460115
-10.34000015 16.55999947 -0.75000000 226 26 129 0.000000 0.000000 0.000000 0.000000 51.808199 0.000000 65.000000 -0.222532 -0.620912 0.751630
-10.34000015 16.54999924 -0.75000000 226 26 129 0.000000 0.000000 0.000000 0.000000 51.808199 0.000000 65.000000 0.137941 -0.568080 0.811331
-10.35000038 16.54999924 -0.79000002 226 26 129 0.000000 0.000000 0.000000 0.000000 51.808199 0.000000 65.000000 -0.119883 -0.779979 0.614215
-10.36999989 16.61000061 -0.43000001 226 26 129 0.000000 0.000000 0.000000 0.000000 51.808199 0.000000 65.000000 0.047290 0.898502 -0.436415
-10.35999966 16.60000038 -0.52999997 226 26 129 0.000000 0.000000 0.000000 0.000000 51.808199 0.000000 65.000000 -0.075893 0.955734 -0.284276
-10.38000011 16.61000061 -0.51999998 226 26 129 0.000000 0.000000 0.000000 0.000000 51.808199 0.000000 65.000000 -0.140128 0.922627 -0.359339
-10.39000034 16.60000038 -0.51999998 226 26 129 0.000000 0.000000 0.000000 0.000000 51.808199 0.000000 65.000000 -0.261373 0.909697 -0.322701
-10.35999966 16.60000038 -0.52999997 226 26 129 0.000000 0.000000 0.000000 0.000000 51.808199 0.000000 65.000000 -0.075893 0.955734 -0.284276
-10.36999989 16.60000038 -0.51999998 226 26 129 0.000000 0.000000 0.000000 0.000000 51.808199 0.000000 65.000000 0.114158 -0.742769 0.659745
-10.35999966 16.60000038 -0.51999998 226 26 129 0.000000 0.000000 0.000000 0.000000 51.808199 0.000000 65.000000 -0.023252 0.963135 -0.268013
-10.36999989 16.62999916 -0.56000000 226 26 129 0.000000 0.000000 0.000000 0.000000 51.808199 0.000000 65.000000 0.096052 0.948675 -0.301313
-10.38000011 16.67000008 -0.67000002 226 26 129 0.000000 0.000000 0.000000 0.000000 51.808199 0.000000 65.000000 -0.191121 0.941856 -0.276369
-10.39000034 16.60000038 -0.62000000 226 26 129 0.000000 0.000000 0.000000 0.000000 51.808199 0.000000 65.000000 -0.361001 0.772185 -0.522884
-10.35999966 16.62000084 -0.62000000 226 26 129 0.000000 0.000000 0.000000 0.000000 51.808199 0.000000 65.000000 -0.201667 0.916797 -0.344693
-10.39999962 16.60000038 -0.63000000 226 26 129 0.000000 0.000000 0.000000 0.000000 51.808199 0.000000 65.000000 0.514392 -0.688649 0.511041
-10.39999962 16.60000038 -0.62000000 226 26 129 0.000000 0.000000 0.000000 0.000000 51.808199 0.000000 65.000000 -0.080765 0.907580 -0.412039
-10.39999962 16.60000038 -0.62000000 226 26 129 0.000000 0.000000 0.000000 0.000000 51.808199 0.000000 65.000000 -0.080765 0.907580 -0.412039
-10.39999962 16.62999916 -0.64999998 226 26 129 0.000000 0.000000 0.000000 0.000000 51.808199 0.000000 65.000000 -0.061868 0.884027 -0.463324
-10.39000034 16.56999969 -0.33000001 226 26 129 0.000000 0.000000 0.000000 0.000000 51.808199 0.000000 65.000000 -0.482871 0.764409 -0.427218
-10.39000034 16.55999947 -0.38000000 226 26 129 0.000000 0.000000 0.000000 0.000000 51.808199 0.000000 65.000000 -0.455093 0.757393 -0.468237
-10.36999989 16.54000092 -0.34999999 226 26 129 0.000000 0.000000 0.000000 0.000000 51.808199 0.000000 65.000000 0.001347 0.850035 -0.526725
-10.36999989 16.54000092 -0.34999999 226 26 129 0.000000 0.000000 0.000000 0.000000 51.808199 0.000000 65.000000 0.001347 0.850035 -0.526725
-10.40999985 16.53000069 -0.34000000 226 26 129 0.000000 0.000000 0.000000 0.000000 51.808199 0.000000 65.000000 0.761088 -0.533898 0.368373
-10.43000031 16.52000046 -0.33000001 226 26 129 0.000000 0.000000 0.000000 0.000000 51.808199 0.000000 65.000000 0.565966 -0.626787 0.535556
-10.40999985 16.54000092 -0.37000000 226 26 129 0.000000 0.000000 0.000000 0.000000 51.808199 0.000000 65.000000 -0.436417 0.855991 -0.277163
-10.40999985 16.54000092 -0.33000001 226 26 129 0.000000 0.000000 0.000000 0.000000 51.808199 0.000000 65.000000 0.697737 -0.578409 0.422619
-10.42000008 16.52000046 -0.33000001 226 26 129 0.000000 0.000000 0.000000 0.000000 51.808199 0.000000 65.000000 0.573421 -0.404865 0.712231
-10.40999985 16.53000069 -0.33000001 226 26 129 0.000000 0.000000 0.000000 0.000000 51.808199 0.000000 65.000000 0.737319 -0.634000 0.233249
-10.43000031 16.52000046 -0.38999999 226 26 129 0.000000 0.000000 0.000000 0.000000 51.808199 0.000000 65.000000 0.869938 -0.405364 0.280870
-10.43000031 16.53000069 -0.38999999 226 26 129 0.000000 0.000000 0.000000 0.000000 51.808199 0.000000 65.000000 0.861070 -0.337342 0.380473
-10.40999985 16.53000069 -0.41000000 226 26 129 0.000000 0.000000 0.000000 0.000000 51.808199 0.000000 65.000000 0.240399 -0.746336 0.620637
-10.36999989 16.59000015 -0.49000001 226 26 129 0.000000 0.000000 0.000000 0.000000 51.808199 0.000000 65.000000 0.045752 0.932031 -0.359479
-10.38000011 16.54999924 -0.43000001 226 26 129 0.000000 0.000000 0.000000 0.000000 51.808199 0.000000 65.000000 0.038200 0.964851 -0.260005
-10.38000011 16.54999924 -0.43000001 226 26 129 0.000000 0.000000 0.000000 0.000000 51.808199 0.000000 65.000000 0.038200 0.964851 -0.260005
-10.43000031 16.52000046 -0.44999999 226 26 129 0.000000 0.000000 0.000000 0.000000 51.808199 0.000000 65.000000 0.775263 -0.411198 0.479461
-10.39999962 16.54999924 -0.41999999 226 26 129 0.000000 0.000000 0.000000 0.000000 51.808199 0.000000 65.000000 -0.440056 0.863477 -0.246492
-10.40999985 16.54999924 -0.41999999 226 26 129 0.000000 0.000000 0.000000 0.000000 51.808199 0.000000 65.000000 -0.393047 0.844033 -0.364860
-10.40999985 16.54999924 -0.50000000 226 26 129 0.000000 0.000000 0.000000 0.000000 51.808199 0.000000 65.000000 -0.494219 0.500875 -0.710544
-10.39000034 16.46999931 -0.37000000 226 26 129 0.000000 0.000000 0.000000 0.000000 51.808199 0.000000 65.000000 0.793251 -0.515533 0.324004
-10.39000034 16.46999931 -0.37000000 226 26 129 0.000000 0.000000 0.000000 0.000000 51.808199 0.000000 65.000000 0.793251 -0.515533 0.324004
-10.36999989 16.45000076 -0.34000000 226 26 129 0.000000 0.000000 0.000000 0.000000 51.808199 0.000000 65.000000 0.064619 -0.650495 0.756757
-10.35999966 16.44000053 -0.36000001 226 26 129 0.000000 0.000000 0.000000 0.000000 51.808199 0.000000 65.000000 0.757831 -0.622559 0.195222
-10.38000011 16.46999931 -0.38999999 226 26 129 0.000000 0.000000 0.000000 0.000000 51.808199 0.000000 65.000000 -0.134421 0.901327 -0.411752
-10.39999962 16.48999977 -0.34999999 226 26 129 0.000000 0.000000 0.000000 0.000000 51.808199 0.000000 65.000000 0.851828 -0.074870 0.518443
-10.42000008 16.47999954 -0.38999999 226 26 129 0.000000 0.000000 0.000000 0.000000 51.808199 0.000000 65.000000 0.864158 -0.405313 0.298249
-10.42000008 16.47999954 -0.38000000 226 26 129 0.000000 0.000000 0.000000 0.000000 51.808199 0.000000 65.000000 0.932248 -0.310749 0.185335
-10.43000031 16.51000023 -0.38000000 226 26 129 0.000000 0.000000 0.000000 0.000000 51.808199 0.000000 65.000000 -0.482965 0.686846 -0.543127
-10.43000031 16.45999908 -0.41000000 226 26 129 0.000000 0.000000 0.000000 0.000000 51.808199 0.000000 65.000000 0.809765 -0.445610 0.381723
-10.35999966 16.47999954 -0.44999999 226 26 129 0.000000 0.000000 0.000000 0.000000 51.808199 0.000000 65.000000 -0.389860 -0.526882 0.755252
-10.36999989 16.50000000 -0.50000000 226 26 129 0.000000 0.000000 0.000000 0.000000 51.808199 0.000000 65.000000 -0.131771 -0.485092 0.864478
-10.36999989 16.50000000 -0.50000000 226 26 129 0.000000 0.000000 0.000000 0.000000 51.808199 0.000000 65.000000 -0.131771 -0.485092 0.864478
-10.39000034 16.50000000 -0.47000000 226 26 129 0.000000 0.000000 0.000000 0.000000 51.808199 0.000000 65.000000 -0.300656 0.899005 -0.318428
-10.36999989 16.46999931 -0.43000001 226 26 129 0.000000 0.000000 0.000000 0.000000 51.808199 0.000000 65.000000 -0.276375 0.707712 -0.650200
-10.36999989 16.46999931 -0.43000001 226 26 129 0.000000 0.000000 0.000000 0.000000 51.808199 0.000000 65.000000 -0.276375 0.707712 -0.650200
-10.36999989 16.46999931 -0.43000001 226 26 129 0.000000 0.000000 0.000000 0.000000 51.808199 0.000000 65.000000 -0.276375 0.707712 -0.650200
-10.40999985 16.51000023 -0.50000000 226 26 129 0.000000 0.000000 0.000000 0.000000 51.808199 0.000000 65.000000 -0.061025 -0.816035 0.574772
-10.43000031 16.46999931 -0.44000000 226 26 129 0.000000 0.000000 0.000000 0.000000 51.808199 0.000000 65.000000 0.909074 -0.279602 0.308880
-10.43000031 16.45999908 -0.43000001 226 26 129 0.000000 0.000000 0.000000 0.000000 51.808199 0.000000 65.000000 -0.658578 0.594899 -0.460837
-10.42000008 16.45999908 -0.46000001 226 26 129 0.000000 0.000000 0.000000 0.000000 51.808199 0.000000 65.000000 0.827527 -0.523848 0.201947
-10.44999981 16.48999977 -0.38999999 226 26 129 0.000000 0.000000 0.000000 0.000000 51.808199 0.000000 65.000000 0.974677 -0.037349 0.220477
-10.43999958 16.45000076 -0.41000000 226 26 129 0.000000 0.000000 0.000000 0.000000 51.808199 0.000000 65.000000 0.944653 -0.288682 0.155861
-10.43999958 16.51000023 -0.38000000 226 26 129 0.000000 0.000000 0.000000 0.000000 51.808199 0.000000 65.000000 0.664569 -0.644780 0.377633
-10.43999958 16.51000023 -0.37000000 226 26 129 0.000000 0.000000 0.000000 0.000000 51.808199 0.000000 65.000000 0.873103 -0.396313 0.283948
-10.46000004 16.50000000 -0.37000000 226 26 129 0.000000 0.000000 0.000000 0.000000 51.808199 0.000000 65.000000 0.778804 -0.582937 0.231620
-10.43999958 16.51000023 -0.37000000 226 26 129 0.000000 0.000000 0.000000 0.000000 51.808199 0.000000 65.000000 0.873103 -0.396313 0.283948
-10.44999981 16.48999977 -0.47999999 226 26 129 0.000000 0.000000 0.000000 0.000000 51.808199 0.000000 65.000000 -0.504157 0.591837 -0.628932
-10.36999989 16.59000015 -0.55000001 226 26 129 0.000000 0.000000 0.000000 0.000000 51.808199 0.000000 65.000000 -0.172691 -0.655615 0.735083
-10.38000011 16.56999969 -0.56000000 226 26 129 0.000000 0.000000 0.000000 0.000000 51.808199 0.000000 65.000000 -0.023324 -0.544695 0.838310
-10.36999989 16.59000015 -0.55000001 226 26 129 0.000000 0.000000 0.000000 0.000000 51.808199 0.000000 65.000000 -0.172691 -0.655615 0.735083
-10.35999966 16.54999924 -0.57999998 226 26 129 0.000000 0.000000 0.000000 0.000000 51.808199 0.000000 65.000000 -0.240832 -0.687867 0.684719
-10.39999962 16.57999992 -0.52999997 226 26 129 0.000000 0.000000 0.000000 0.000000 51.808199 0.000000 65.000000 -0.385155 0.729337 -0.565441
-10.43000031 16.55999947 -0.57999998 226 26 129 0.000000 0.000000 0.000000 0.000000 51.808199 0.000000 65.000000 -0.193701 0.943778 -0.267885
-10.40999985 16.54999924 -0.54000002 226 26 129 0.000000 0.000000 0.000000 0.000000 51.808199 0.000000 65.000000 -0.105441 0.940965 -0.321663
-10.40999985 16.54999924 -0.55000001 226 26 129 0.000000 0.000000 0.000000 0.000000 51.808199 0.000000 65.000000 0.006810 0.832241 -0.554373
-10.42000008 16.54000092 -0.55000001 226 26 129 0.000000 0.000000 0.000000 0.000000 51.808199 0.000000 65.000000 0.473320 -0.466723 0.747086
-10.35999966 16.57999992 -0.61000001 226 26 129 0.000000 0.000000 0.000000 0.000000 51.808199 0.000000 65.000000 -0.133140 -0.668692 0.731522
-10.38000011 16.57999992 -0.58999997 226 26 129 0.000000 0.000000 0.000000 0.000000 51.808199 0.000000 65.000000 0.311184 -0.537791 0.783547
-10.39000034 16.55999947 -0.60000002 226 26 129 0.000000 0.000000 0.000000 0.000000 51.808199 0.000000 65.000000 -0.181608 0.835998 -0.517808
-10.36999989 16.54999924 -0.58999997 226 26 129 0.000000 0.000000 0.000000 0.000000 51.808199 0.000000 65.000000 -0.138444 -0.494027 0.858353
-10.38000011 16.53000069 -0.63999999 226 26 129 0.000000 0.000000 0.000000 0.000000 51.808199 0.000000 65.000000 -0.391397 0.655631 -0.645722
-10.35999966 16.52000046 -0.66000003 226 26 129 0.000000 0.000000 0.000000 0.000000 51.808199 0.000000 65.000000 -0.151455 0.950280 -0.272083
-10.39000034 16.54999924 -0.64999998 226 26 129 0.000000 0.000000 0.000000 0.000000 51.808199 0.000000 65.000000 -0.197874 0.777692 -0.596691
-10.39999962 16.54000092 -0.66000003 226 26 129 0.000000 0.000000 0.000000 0.000000 51.808199 0.000000 65.000000 -0.132902 0.956630 -0.259224
-10.42000008 16.53000069 -0.66000003 226 26 129 0.000000 0.000000 0.000000 0.000000 51.808199 0.000000 65.000000 0.029504 0.751640 -0.658914
-10.35999966 16.51000023 -0.52999997 226 26 129 0.000000 0.000000 0.000000 0.000000 51.808199 0.000000 65.000000 -0.225409 0.891324 -0.393361
-10.35999966 16.51000023 -0.52999997 226 26 129 0.000000 0.000000 0.000000 0.000000 51.808199 0.000000 65.000000 -0.225409 0.891324 -0.393361
-10.39999962 16.51000023 -0.50999999 226 26 129 0.000000 0.000000 0.000000 0.000000 51.808199 0.000000 65.000000 -0.442235 0.625804 -0.642493
-10.43000031 16.48999977 -0.56999999 226 26 129 0.000000 0.000000 0.000000 0.000000 51.808199 0.000000 65.000000 0.009512 0.838437 -0.544916
-10.35999966 16.51000023 -0.67000002 226 26 129 0.000000 0.000000 0.000000 0.000000 51.808199 0.000000 65.000000 -0.004104 -0.592307 0.805702
-10.44999981 16.54000092 -0.52999997 226 26 129 0.000000 0.000000 0.000000 0.000000 51.808199 0.000000 65.000000 0.512859 -0.667557 0.539763
-10.44999981 16.54000092 -0.52999997 226 26 129 0.000000 0.000000 0.000000 0.000000 51.808199 0.000000 65.000000 0.512859 -0.667557 0.539763
-10.44999981 16.52000046 -0.54000002 226 26 129 0.000000 0.000000 0.000000 0.000000 51.808199 0.000000 65.000000 -0.497380 0.540922 -0.678245
-10.35999966 16.67000008 -0.68000001 226 26 129 0.000000 0.000000 0.000000 0.000000 51.808199 0.000000 65.000000 -0.084141 -0.540497 0.837128
-10.36999989 16.63999939 -0.73000002 226 26 129 0.000000 0.000000 0.000000 0.000000 51.808199 0.000000 65.000000 -0.289667 -0.609742 0.737772
-10.39000034 16.60000038 -0.72000003 226 26 129 0.000000 0.000000 0.000000 0.000000 51.808199 0.000000 65.000000 0.123141 0.775938 -0.618673
-10.39999962 16.62999916 -0.72000003 226 26 129 0.000000 0.000000 0.000000 0.000000 51.808199 0.000000 65.000000 0.146081 0.922398 -0.357551
-10.39999962 16.62999916 -0.72000003 226 26 129 0.000000 0.000000 0.000000 0.000000 51.808199 0.000000 65.000000 0.146081 0.922398 -0.357551
-10.36999989 16.62000084 -0.77999997 226 26 129 0.000000 0.000000 0.000000 0.000000 51.808199 0.000000 65.000000 0.029496 0.754247 -0.655928
-10.43999958 16.60000038 -0.75999999 226 26 129 0.000000 0.000000 0.000000 0.000000 51.808199 0.000000 65.000000 -0.440047 0.818138 -0.370148
-10.43999958 16.62999916 -0.75999999 226 26 129 0.000000 0.000000 0.000000 0.000000 51.808199 0.000000 65.000000 -0.452909 0.715033 -0.532542
-10.38000011 16.52000046 -0.69999999 226 26 129 0.000000 0.000000 0.000000 0.000000 51.808199 0.000000 65.000000 0.043364 0.826721 -0.560939
-10.39000034 16.54999924 -0.74000001 226 26 129 0.000000 0.000000 0.000000 0.000000 51.808199 0.000000 65.000000 -0.093211 0.949173 -0.300637
-10.39000034 16.54999924 -0.74000001 226 26 129 0.000000 0.000000 0.000000 0.000000 51.808199 0.000000 65.000000 -0.093211 0.949173 -0.300637
-10.40999985 16.57999992 -0.74000001 226 26 129 0.000000 0.000000 0.000000 0.000000 51.808199 0.000000 65.000000 0.218844 0.771387 -0.597553
-10.39999962 16.53000069 -0.74000001 226 26 129 0.000000 0.000000 0.000000 0.000000 51.808199 0.000000 65.000000 0.453689 -0.706293 0.543430
-10.39000034 16.56999969 -0.81000000 226 26 129 0.000000 0.000000 0.000000 0.000000 51.808199 0.000000 65.000000 0.082508 0.879615 -0.468476
-10.36999989 16.54999924 -0.79000002 226 26 129 0.000000 0.000000 0.000000 0.000000 51.808199 0.000000 65.000000 -0.354885 0.864936 -0.354885
-10.38000011 16.54999924 -0.79000002 226 26 129 0.000000 0.000000 0.000000 0.000000 51.808199 0.000000 65.000000 -0.256580 0.921681 -0.290982
-10.43000031 16.56999969 -0.81000000 226 26 129 0.000000 0.000000 0.000000 0.000000 51.808199 0.000000 65.000000 0.003673 0.956221 -0.292621
-10.39999962 16.54000092 -0.75999999 226 26 129 0.000000 0.000000 0.000000 0.000000 51.808199 0.000000 65.000000 0.187649 0.791789 -0.581255
-10.46000004 16.59000015 -0.69000000 226 26 129 0.000000 0.000000 0.000000 0.000000 51.808199 0.000000 65.000000 -0.463224 0.813427 -0.351795
-10.44999981 16.59000015 -0.75999999 226 26 129 0.000000 0.000000 0.000000 0.000000 51.808199 0.000000 65.000000 -0.096941 0.941526 -0.322695
-10.43999958 16.55999947 -0.75999999 226 26 129 0.000000 0.000000 0.000000 0.000000 51.808199 0.000000 65.000000 0.177948 -0.591640 0.786318
-10.35000038 16.65999985 0.07000000 226 26 129 0.000000 0.000000 0.000000 0.000000 51.808199 0.000000 65.000000 -0.330699 0.759801 -0.559768
-10.21000004 16.43000031 0.04000000 226 26 129 0.000000 0.000000 0.000000 0.000000 51.808199 0.000000 65.000000 -0.367416 0.800615 -0.473309
-10.35000038 16.64999962 -0.03000000 226 26 129 0.000000 0.000000 0.000000 0.000000 51.808199 0.000000 65.000000 -0.471714 0.811603 -0.344653
-10.25000000 16.44000053 0.01000000 226 26 129 0.000000 0.000000 0.000000 0.000000 51.808199 0.000000 65.000000 0.807199 -0.428473 0.406006
-10.23999977 16.43000031 -0.02000000 226 26 129 0.000000 0.000000 0.000000 0.000000 51.808199 0.000000 65.000000 0.702642 -0.638031 0.314977
-10.22999954 16.43000031 -0.01000000 226 26 129 0.000000 0.000000 0.000000 0.000000 51.808199 0.000000 65.000000 0.695711 -0.653936 0.297244
-10.32999992 16.55999947 -0.10000000 226 26 129 0.000000 0.000000 0.000000 0.000000 51.808199 0.000000 65.000000 -0.545447 0.788922 -0.283000
-10.32999992 16.55999947 -0.09000000 226 26 129 0.000000 0.000000 0.000000 0.000000 51.808199 0.000000 65.000000 0.774400 -0.595098 0.214854
-10.35000038 16.54999924 -0.09000000 226 26 129 0.000000 0.000000 0.000000 0.000000 51.808199 0.000000 65.000000 0.015287 -0.762981 0.646240
-10.34000015 16.52000046 -0.15000001 226 26 129 0.000000 0.000000 0.000000 0.000000 51.808199 0.000000 65.000000 -0.430300 0.702767 -0.566534
-10.34000015 16.54999924 -0.15000001 226 26 129 0.000000 0.000000 0.000000 0.000000 51.808199 0.000000 65.000000 0.742151 -0.432784 0.511771
-10.34000015 16.54999924 -0.15000001 226 26 129 0.000000 0.000000 0.000000 0.000000 51.808199 0.000000 65.000000 0.742151 -0.432784 0.511771
-10.32999992 16.43000031 -0.11000000 226 26 129 0.000000 0.000000 0.000000 0.000000 51.808199 0.000000 65.000000 0.022688 0.892858 -0.449766
-10.31999969 16.46999931 -0.12000000 226 26 129 0.000000 0.000000 0.000000 0.000000 51.808199 0.000000 65.000000 0.073759 -0.669616 0.739036
-10.34000015 16.57999992 -0.16000000 226 26 129 0.000000 0.000000 0.000000 0.000000 51.808199 0.000000 65.000000 0.635374 -0.621963 0.457671
-10.35000038 16.54999924 -0.18000001 226 26 129 0.000000 0.000000 0.000000 0.000000 51.808199 0.000000 65.000000 0.650629 -0.698823 0.297201
-10.35000038 16.55999947 -0.27000001 226 26 129 0.000000 0.000000 0.000000 0.000000 51.808199 0.000000 65.000000 0.825952 0.143323 -0.545217
-10.32999992 16.54000092 -0.25999999 226 26 129 0.000000 0.000000 0.000000 0.000000 51.808199 0.000000 65.000000 0.869664 0.481242 0.109957
-10.34000015 16.53000069 -0.25999999 226 26 129 0.000000 0.000000 0.000000 0.000000 51.808199 0.000000 65.000000 0.872743 -0.318330 0.370116
-10.35000038 16.54000092 -0.31999999 226 26 129 0.000000 0.000000 0.000000 0.000000 51.808199 0.000000 65.000000 0.517298 0.716898 -0.467398
-10.28999996 16.47999954 -0.20999999 226 26 129 0.000000 0.000000 0.000000 0.000000 51.808199 0.000000 65.000000 0.894975 -0.096039 0.435656
-10.31999969 16.51000023 -0.18000001 226 26 129 0.000000 0.000000 0.000000 0.000000 51.808199 0.000000 65.000000 0.825926 -0.450074 0.339530
-10.35000038 16.51000023 -0.16000000 226 26 129 0.000000 0.000000 0.000000 0.000000 51.808199 0.000000 65.000000 0.467204 -0.597821 0.651407
-10.35000038 16.45999908 -0.19000000 226 26 129 0.000000 0.000000 0.000000 0.000000 51.808199 0.000000 65.000000 0.114484 -0.531844 0.839068
-10.31999969 16.45999908 -0.23999999 226 26 129 0.000000 0.000000 0.000000 0.000000 51.808199 0.000000 65.000000 0.670659 -0.405708 0.620981
-10.32999992 16.44000053 -0.25000000 226 26 129 0.000000 0.000000 0.000000 0.000000 51.808199 0.000000 65.000000 0.272135 -0.552136 0.788091
-10.35000038 16.45999908 -0.30000001 226 26 129 0.000000 0.000000 0.000000 0.000000 51.808199 0.000000 65.000000 -0.398172 0.844749 -0.357574
-10.31999969 16.46999931 -0.31999999 226 26 129 0.000000 0.000000 0.000000 0.000000 51.808199 0.000000 65.000000 0.779454 -0.424713 0.460512
-10.22000027 16.40999985 0.04000000 226 26 129 0.000000 0.000000 0.000000 0.000000 51.808199 0.000000 65.000000 -0.431086 0.664105 -0.610843
-10.27000046 16.38999939 0.04000000 226 26 129 0.000000 0.000000 0.000000 0.000000 51.808199 0.000000 65.000000 0.293156 -0.496954 0.816760
-10.23999977 16.42000008 -0.02000000 226 26 129 0.000000 0.000000 0.000000 0.000000 51.808199 0.000000 65.000000 0.684094 -0.699607 0.206314
-10.28999996 16.42000008 -0.04000000 226 26 129 0.000000 0.000000 0.000000 0.000000 51.808199 0.000000 65.000000 -0.126169 0.919229 -0.372960
-10.27000046 16.39999962 -0.07000000 226 26 129 0.000000 0.000000 0.000000 0.000000 51.808199 0.000000 65.000000 0.617751 -0.746646 0.246786
-10.31000042 16.38999939 -0.06000000 226 26 129 0.000000 0.000000 0.000000 0.000000 51.808199 0.000000 65.000000 -0.391281 0.895403 -0.212493
-10.28999996 16.39999962 -0.12000000 226 26 129 0.000000 0.000000 0.000000 0.000000 51.808199 0.000000 65.000000 -0.099616 0.827245 -0.552940
-10.30000019 16.39999962 -0.12000000 226 26 129 0.000000 0.000000 0.000000 0.000000 51.808199 0.000000 65.000000 0.616589 -0.630030 0.472102
-10.28999996 16.36000061 -0.12000000 226 26 129 0.000000 0.000000 0.000000 0.000000 51.808199 0.000000 65.000000 0.672558 -0.521610 0.524965
-10.28999996 16.36000061 -0.12000000 226 26 129 0.000000 0.000000 0.000000 0.000000 51.808199 0.000000 65.000000 0.672558 -0.521610 0.524965
-10.28999996 16.36000061 -0.12000000 226 26 129 0.000000 0.000000 0.000000 0.000000 51.808199 0.000000 65.000000 0.672558 -0.521610 0.524965
-10.35000038 16.38999939 -0.13000000 226 26 129 0.000000 0.000000 0.000000 0.000000 51.808199 0.000000 65.000000 -0.141851 0.929605 -0.340167
-10.32999992 16.42000008 -0.14000000 226 26 129 0.000000 0.000000 0.000000 0.000000 51.808199 0.000000 65.000000 0.575217 -0.635944 0.514490
-10.28999996 16.40999985 -0.17000000 226 26 129 0.000000 0.000000 0.000000 0.000000 51.808199 0.000000 65.000000 0.749836 -0.582849 0.313101
-10.31000042 16.40999985 -0.23000000 226 26 129 0.000000 0.000000 0.000000 0.000000 51.808199 0.000000 65.000000 -0.455323 0.850856 -0.262156
-10.31999969 16.42000008 -0.20999999 226 26 129 0.000000 0.000000 0.000000 0.000000 51.808199 0.000000 65.000000 -0.649999 0.733371 -0.199168
-10.31999969 16.42000008 -0.20999999 226 26 129 0.000000 0.000000 0.000000 0.000000 51.808199 0.000000 65.000000 -0.649999 0.733371 -0.199168
-10.39000034 16.69000053 0.07000000 226 26 129 0.000000 0.000000 0.000000 0.000000 51.808199 0.000000 65.000000 0.271249 -0.610706 0.743951
-10.35999966 16.63999939 0.06000000 226 26 129 0.000000 0.000000 0.000000 0.000000 51.808199 0.000000 65.000000 -0.601795 0.710020 -0.365669
-10.35999966 16.63999939 0.06000000 226 26 129 0.000000 0.000000 0.000000 0.000000 51.808199 0.000000 65.000000 -0.601795 0.710020 -0.365669
-10.35999966 16.62999916 0.03000000 226 26 129 0.000000 0.000000 0.000000 0.000000 51.808199 0.000000 65.000000 -0.363990 0.901936 -0.232428
-10.36999989 16.62999916 0.05000000 226 26 129 0.000000 0.000000 0.000000 0.000000 51.808199 0.000000 65.000000 0.062090 -0.467746 0.881680
-10.36999989 16.61000061 0.03000000 226 26 129 0.000000 0.000000 0.000000 0.000000 51.808199 0.000000 65.000000 -0.136968 0.961382 -0.238715
-10.43000031 16.63999939 0.06000000 226 26 129 0.000000 0.000000 0.000000 0.000000 51.808199 0.000000 65.000000 0.559920 0.473007 -0.680261
-10.39999962 16.61000061 0.06000000 226 26 129 0.000000 0.000000 0.000000 0.000000 51.808199 0.000000 65.000000 0.271890 0.742529 -0.612149
-10.42000008 16.61000061 0.07000000 226 26 129 0.000000 0.000000 0.000000 0.000000 51.808199 0.000000 65.000000 -0.032078 -0.592751 0.804747
-10.39999962 16.60000038 0.03000000 226 26 129 0.000000 0.000000 0.000000 0.000000 51.808199 0.000000 65.000000 -0.036324 0.891946 -0.450681
-10.40999985 16.60000038 0.03000000 226 26 129 0.000000 0.000000 0.000000 0.000000 51.808199 0.000000 65.000000 0.180631 -0.572252 0.799938
-10.39999962 16.60000038 0.03000000 226 26 129 0.000000 0.000000 0.000000 0.000000 51.808199 0.000000 65.000000 -0.036324 0.891946 -0.450681
-10.39999962 16.61000061 0.03000000 226 26 129 0.000000 0.000000 0.000000 0.000000 51.808199 0.000000 65.000000 -0.104099 -0.494825 0.862735
-10.39000034 16.65999985 -0.05000000 226 26 129 0.000000 0.000000 0.000000 0.000000 51.808199 0.000000 65.000000 0.039462 0.877679 -0.477621
-10.35999966 16.61000061 -0.06000000 226 26 129 0.000000 0.000000 0.000000 0.000000 51.808199 0.000000 65.000000 -0.329600 0.716027 -0.615361
-10.39000034 16.63999939 -0.06000000 226 26 129 0.000000 0.000000 0.000000 0.000000 51.808199 0.000000 65.000000 -0.071065 0.870893 -0.486307
-10.39999962 16.64999962 -0.06000000 226 26 129 0.000000 0.000000 0.000000 0.000000 51.808199 0.000000 65.000000 -0.223221 -0.540349 0.811293
-10.36999989 16.61000061 -0.14000000 226 26 129 0.000000 0.000000 0.000000 0.000000 51.808199 0.000000 65.000000 -0.640337 0.736933 -0.216562
-10.40999985 16.61000061 -0.12000000 226 26 129 0.000000 0.000000 0.000000 0.000000 51.808199 0.000000 65.000000 0.630256 0.704786 -0.325660
-10.36999989 16.57999992 0.00000000 226 26 129 0.000000 0.000000 0.000000 0.000000 51.808199 0.000000 65.000000 0.026730 0.735780 -0.676693
-10.38000011 16.57999992 0.01000000 226 26 129 0.000000 0.000000 0.000000 0.000000 51.808199 0.000000 65.000000 -0.254432 0.888280 -0.382392
-10.39000034 16.56999969 0.00000000 226 26 129 0.000000 0.000000 0.000000 0.000000 51.808199 0.000000 65.000000 0.265236 0.882620 -0.388113
-10.39000034 16.55999947 -0.02000000 226 26 129 0.000000 0.000000 0.000000 0.000000 51.808199 0.000000 65.000000 0.195596 -0.620671 0.759282
-10.38000011 16.56999969 -0.02000000 226 26 129 0.000000 0.000000 0.000000 0.000000 51.808199 0.000000 65.000000 -0.398368 0.676068 -0.619867
-10.36999989 16.59000015 -0.06000000 226 26 129 0.000000 0.000000 0.000000 0.000000 51.808199 0.000000 65.000000 0.419406 -0.527958 0.738484
-10.36999989 16.57999992 -0.07000000 226 26 129 0.000000 0.000000 0.000000 0.000000 51.808199 0.000000 65.000000 -0.034405 0.849116 -0.527085
-10.42000008 16.57999992 -0.02000000 226 26 129 0.000000 0.000000 0.000000 0.000000 51.808199 0.000000 65.000000 -0.338749 -0.588354 0.734227
-10.38000011 16.59000015 -0.14000000 226 26 129 0.000000 0.000000 0.000000 0.000000 51.808199 0.000000 65.000000 0.147474 -0.483305 0.862941
-10.35999966 16.57999992 -0.13000000 226 26 129 0.000000 0.000000 0.000000 0.000000 51.808199 0.000000 65.000000 0.448915 -0.720583 0.528427
-10.35999966 16.54999924 -0.08000000 226 26 129 0.000000 0.000000 0.000000 0.000000 51.808199 0.000000 65.000000 -0.348450 0.874929 -0.336277
-10.36999989 16.53000069 -0.08000000 226 26 129 0.000000 0.000000 0.000000 0.000000 51.808199 0.000000 65.000000 0.160562 -0.565720 0.808814
-10.35999966 16.53000069 -0.13000000 226 26 129 0.000000 0.000000 0.000000 0.000000 51.808199 0.000000 65.000000 0.447176 -0.463556 0.764950
-10.39000034 16.54999924 -0.13000000 226 26 129 0.000000 0.000000 0.000000 0.000000 51.808199 0.000000 65.000000 0.195384 0.946860 -0.255502
-10.39999962 16.55999947 -0.08000000 226 26 129 0.000000 0.000000 0.000000 0.000000 51.808199 0.000000 65.000000 -0.080433 0.912027 -0.402165
-10.38000011 16.50000000 -0.14000000 226 26 129 0.000000 0.000000 0.000000 0.000000 51.808199 0.000000 65.000000 -0.043087 0.843678 -0.535117
-10.43999958 16.52000046 -0.10000000 226 26 129 0.000000 0.000000 0.000000 0.000000 51.808199 0.000000 65.000000 0.144209 0.932549 -0.330993
-10.35999966 16.56999969 -0.20000000 226 26 129 0.000000 0.000000 0.000000 0.000000 51.808199 0.000000 65.000000 0.926058 -0.345710 0.151335
-10.35999966 16.57999992 -0.20999999 226 26 129 0.000000 0.000000 0.000000 0.000000 51.808199 0.000000 65.000000 0.911329 0.350956 -0.215195
-10.38000011 16.52000046 -0.20000000 226 26 129 0.000000 0.000000 0.000000 0.000000 51.808199 0.000000 65.000000 -0.375270 0.812818 -0.445533
-10.40999985 16.55999947 -0.23000000 226 26 129 0.000000 0.000000 0.000000 0.000000 51.808199 0.000000 65.000000 0.955777 0.152871 0.251240
-10.39999962 16.53000069 -0.18000001 226 26 129 0.000000 0.000000 0.000000 0.000000 51.808199 0.000000 65.000000 0.656364 0.626454 -0.420406
-10.39999962 16.52000046 -0.20999999 226 26 129 0.000000 0.000000 0.000000 0.000000 51.808199 0.000000 65.000000 0.632175 0.547885 -0.547885
-10.36999989 16.57999992 -0.25000000 226 26 129 0.000000 0.000000 0.000000 0.000000 51.808199 0.000000 65.000000 0.030910 0.891024 -0.452903
-10.42000008 16.52000046 -0.28999999 226 26 129 0.000000 0.000000 0.000000 0.000000 51.808199 0.000000 65.000000 0.926052 0.090577 0.366365
-10.43000031 16.53000069 -0.31999999 226 26 129 0.000000 0.000000 0.000000 0.000000 51.808199 0.000000 65.000000 0.950259 -0.221591 0.218872
-10.40999985 16.54999924 -0.31000000 226 26 129 0.000000 0.000000 0.000000 0.000000 51.808199 0.000000 65.000000 -0.534202 0.795787 -0.285223
-10.43000031 16.52000046 -0.31999999 226 26 129 0.000000 0.000000 0.000000 0.000000 51.808199 0.000000 65.000000 0.872483 -0.094743 0.479371
-10.35999966 16.44000053 -0.19000000 226 26 129 0.000000 0.000000 0.000000 0.000000 51.808199 0.000000 65.000000 -0.504792 0.759639 -0.410041
-10.38000011 16.46999931 -0.17000000 226 26 129 0.000000 0.000000 0.000000 0.000000 51.808199 0.000000 65.000000 0.182753 0.820123 -0.542218
-10.39000034 16.46999931 -0.19000000 226 26 129 0.000000 0.000000 0.000000 0.000000 51.808199 0.000000 65.000000 0.467115 0.654631 -0.594358
-10.42000008 16.50000000 -0.19000000 226 26 129 0.000000 0.000000 0.000000 0.000000 51.808199 0.000000 65.000000 0.143996 0.812017 -0.565591
-10.40999985 16.47999954 -0.23999999 226 26 129 0.000000 0.000000 0.000000 0.000000 51.808199 0.000000 65.000000 -0.474187 -0.510791 0.717104
-10.39999962 16.46999931 -0.23999999 226 26 129 0.000000 0.000000 0.000000 0.000000 51.808199 0.000000 65.000000 0.434006 0.683435 -0.586989
-10.38000011 16.51000023 -0.31000000 226 26 129 0.000000 0.000000 0.000000 0.000000 51.808199 0.000000 65.000000 -0.491609 0.568790 -0.659393
-10.38000011 16.51000023 -0.31000000 226 26 129 0.000000 0.000000 0.000000 0.000000 51.808199 0.000000 65.000000 -0.491609 0.568790 -0.659393
-10.42000008 16.51000023 -0.28999999 226 26 129 0.000000 0.000000 0.000000 0.000000 51.808199 0.000000 65.000000 0.977089 0.199331 0.074596
-10.39999962 16.45999908 -0.27000001 226 26 129 0.000000 0.000000 0.000000 0.000000 51.808199 0.000000 65.000000 0.604738 0.747590 -0.274592
