//X Y Z R G B PointSourceId ScanDirectionFlag NumberOfReturns ReturnNumber GpsTime Intensity Classification Nx Ny Nz
-10.98999977 0.09000000 0.20000000 213 196 51 0.000000 0.000000 0.000000 0.000000 179.808199 0.000000 20.000000 0.253348 0.960123 -0.118229
-10.97999954 0.06000000 0.23999999 213 196 51 0.000000 0.000000 0.000000 0.000000 179.808199 0.000000 20.000000 0.615642 0.722289 -0.315093
-10.96000004 0.05000000 0.27000001 213 196 51 0.000000 0.000000 0.000000 0.000000 179.808199 0.000000 20.000000 0.421137 0.879477 -0.221729
-10.86999989 -0.04000000 0.18000001 213 196 51 0.000000 0.000000 0.000000 0.000000 179.808199 0.000000 20.000000 0.116912 0.855912 -0.503732
-10.86999989 -0.05000000 0.08000000 213 196 51 0.000000 0.000000 0.000000 0.000000 179.808199 0.000000 20.000000 -0.032943 0.997869 0.056323
-10.86999989 -0.04000000 0.06000000 213 196 51 0.000000 0.000000 0.000000 0.000000 179.808199 0.000000 20.000000 0.169516 0.982230 -0.080550
-10.97999954 0.07000000 0.07000000 213 196 51 0.000000 0.000000 0.000000 0.000000 179.808199 0.000000 20.000000 -0.012130 0.861212 -0.508101
-10.96000004 0.03000000 0.03000000 213 196 51 0.000000 0.000000 0.000000 0.000000 179.808199 0.000000 20.000000 0.519351 0.844128 -0.133129
-11.03999996 0.06000000 0.08000000 213 196 51 0.000000 0.000000 0.000000 0.000000 179.808199 0.000000 20.000000 0.123423 0.981276 -0.147864
-11.02000046 0.06000000 0.09000000 213 196 51 0.000000 0.000000 0.000000 0.000000 179.808199 0.000000 20.000000 0.535196 0.838138 0.105308
-11.01000023 0.05000000 0.07000000 213 196 51 0.000000 0.000000 0.000000 0.000000 179.808199 0.000000 20.000000 0.056494 0.874962 -0.480885
-11.01000023 0.05000000 0.08000000 213 196 51 0.000000 0.000000 0.000000 0.000000 179.808199 0.000000 20.000000 0.190403 0.802739 -0.565116
-11.00000000 0.04000000 0.04000000 213 196 51 0.000000 0.000000 0.000000 0.000000 179.808199 0.000000 20.000000 0.286124 0.913562 -0.289028
-10.85999966 0.20999999 0.00000000 213 196 51 0.000000 0.000000 0.000000 0.000000 179.808199 0.000000 20.000000 -0.022791 0.883493 -0.467889
-10.85999966 0.18000001 -0.13000000 213 196 51 0.000000 0.000000 0.000000 0.000000 179.808199 0.000000 20.000000 0.319916 0.919578 -0.228101
-10.84000015 -0.02000000 -0.01000000 213 196 51 0.000000 0.000000 0.000000 0.000000 179.808199 0.000000 20.000000 0.345201 0.892143 -0.291404
-10.84000015 -0.02000000 0.00000000 213 196 51 0.000000 0.000000 0.000000 0.000000 179.808199 0.000000 20.000000 0.060750 0.947447 -0.314092
-10.85000038 -0.02000000 -0.01000000 213 196 51 0.000000 0.000000 0.000000 0.000000 179.808199 0.000000 20.000000 0.103049 0.993920 -0.038782
-10.84000015 -0.02000000 -0.01000000 213 196 51 0.000000 0.000000 0.000000 0.000000 179.808199 0.000000 20.000000 0.345201 0.892143 -0.291404
-10.84000015 -0.04000000 -0.04000000 213 196 51 0.000000 0.000000 0.000000 0.000000 179.808199 0.000000 20.000000 0.069495 0.976583 -0.203607
-10.85000038 -0.02000000 -0.08000000 213 196 51 0.000000 0.000000 0.000000 0.000000 179.808199 0.000000 20.000000 0.268398 0.960380 0.075050
-10.85000038 -0.03000000 -0.10000000 213 196 51 0.000000 0.000000 0.000000 0.000000 179.808199 0.000000 20.000000 0.294304 0.909269 -0.294304
-10.85000038 -0.04000000 -0.15000001 213 196 51 0.000000 0.000000 0.000000 0.000000 179.808199 0.000000 20.000000 -0.100119 0.993320 0.057372
-10.82999992 -0.04000000 -0.15000001 213 196 51 0.000000 0.000000 0.000000 0.000000 179.808199 0.000000 20.000000 0.255349 0.965885 -0.043175
-10.82999992 -0.03000000 -0.17000000 213 196 51 0.000000 0.000000 0.000000 0.000000 179.808199 0.000000 20.000000 -0.047731 0.986045 0.159490
-10.82999992 -0.05000000 -0.17000000 213 196 51 0.000000 0.000000 0.000000 0.000000 179.808199 0.000000 20.000000 0.088198 0.982255 0.165521
-10.90999985 0.25999999 -0.02000000 213 196 51 0.000000 0.000000 0.000000 0.000000 179.808199 0.000000 20.000000 0.500618 0.863183 0.065541
-10.89999962 0.25000000 -0.01000000 213 196 51 0.000000 0.000000 0.000000 0.000000 179.808199 0.000000 20.000000 0.166415 0.986039 -0.005660
-10.88000011 0.23999999 -0.04000000 213 196 51 0.000000 0.000000 0.000000 0.000000 179.808199 0.000000 20.000000 0.181280 0.982231 0.048578
-10.88000011 0.22000000 -0.02000000 213 196 51 0.000000 0.000000 0.000000 0.000000 179.808199 0.000000 20.000000 0.283871 0.951957 -0.114869
-10.89999962 0.23000000 0.00000000 213 196 51 0.000000 0.000000 0.000000 0.000000 179.808199 0.000000 20.000000 0.258998 0.922949 -0.284755
-10.88000011 0.22000000 -0.06000000 213 196 51 0.000000 0.000000 0.000000 0.000000 179.808199 0.000000 20.000000 0.254733 0.960745 -0.109910
-10.89000034 0.22000000 -0.03000000 213 196 51 0.000000 0.000000 0.000000 0.000000 179.808199 0.000000 20.000000 -0.003073 0.998835 -0.048149
-10.94999981 0.25999999 -0.01000000 213 196 51 0.000000 0.000000 0.000000 0.000000 179.808199 0.000000 20.000000 0.200357 0.845114 -0.495620
-10.94999981 0.25999999 -0.01000000 213 196 51 0.000000 0.000000 0.000000 0.000000 179.808199 0.000000 20.000000 0.200357 0.845114 -0.495620
-10.94999981 0.25999999 -0.01000000 213 196 51 0.000000 0.000000 0.000000 0.000000 179.808199 0.000000 20.000000 0.200357 0.845114 -0.495620
-10.92000008 0.25999999 -0.02000000 213 196 51 0.000000 0.000000 0.000000 0.000000 179.808199 0.000000 20.000000 0.489933 0.871734 0.006675
-10.93999958 0.27000001 0.01000000 213 196 51 0.000000 0.000000 0.000000 0.000000 179.808199 0.000000 20.000000 0.521188 0.741501 -0.422540
-10.92000008 0.23999999 -0.03000000 213 196 51 0.000000 0.000000 0.000000 0.000000 179.808199 0.000000 20.000000 0.443434 0.767419 -0.463070
-10.92000008 0.25999999 -0.06000000 213 196 51 0.000000 0.000000 0.000000 0.000000 179.808199 0.000000 20.000000 0.677717 0.719980 -0.149430
-10.92000008 0.25999999 -0.07000000 213 196 51 0.000000 0.000000 0.000000 0.000000 179.808199 0.000000 20.000000 0.051898 0.834579 -0.548438
-10.92000008 0.22000000 -0.01000000 213 196 51 0.000000 0.000000 0.000000 0.000000 179.808199 0.000000 20.000000 0.255930 0.965612 -0.045746
-10.93000031 0.22000000 -0.07000000 213 196 51 0.000000 0.000000 0.000000 0.000000 179.808199 0.000000 20.000000 0.238284 0.962250 0.131512
-10.89000034 0.25000000 -0.09000000 213 196 51 0.000000 0.000000 0.000000 0.000000 179.808199 0.000000 20.000000 0.574134 0.759648 -0.305458
-10.90999985 0.20000000 -0.12000000 213 196 51 0.000000 0.000000 0.000000 0.000000 179.808199 0.000000 20.000000 0.150564 0.962303 -0.226501
-10.93000031 0.23999999 -0.10000000 213 196 51 0.000000 0.000000 0.000000 0.000000 179.808199 0.000000 20.000000 0.278497 0.865927 -0.415463
-10.93999958 0.23999999 -0.12000000 213 196 51 0.000000 0.000000 0.000000 0.000000 179.808199 0.000000 20.000000 0.306601 0.899068 -0.312526
-10.92000008 0.23000000 -0.10000000 213 196 51 0.000000 0.000000 0.000000 0.000000 179.808199 0.000000 20.000000 0.530856 0.729306 -0.431630
-10.93000031 0.20000000 -0.10000000 213 196 51 0.000000 0.000000 0.000000 0.000000 179.808199 0.000000 20.000000 -0.058324 0.981985 -0.179733
-10.86999989 0.18000001 -0.12000000 213 196 51 0.000000 0.000000 0.000000 0.000000 179.808199 0.000000 20.000000 0.034312 0.855044 -0.517419
-10.92000008 0.19000000 -0.08000000 213 196 51 0.000000 0.000000 0.000000 0.000000 179.808199 0.000000 20.000000 0.374896 0.924566 0.068042
-10.94999981 0.19000000 -0.12000000 213 196 51 0.000000 0.000000 0.000000 0.000000 179.808199 0.000000 20.000000 0.368817 0.827860 -0.422636
-10.94999981 0.19000000 -0.15000001 213 196 51 0.000000 0.000000 0.000000 0.000000 179.808199 0.000000 20.000000 0.015050 0.835934 -0.548624
-10.93999958 0.15000001 -0.11000000 213 196 51 0.000000 0.000000 0.000000 0.000000 179.808199 0.000000 20.000000 0.087325 0.894039 -0.439396
-10.97999954 0.27000001 -0.01000000 213 196 51 0.000000 0.000000 0.000000 0.000000 179.808199 0.000000 20.000000 0.561908 0.619280 -0.548409
-10.96000004 0.20999999 -0.07000000 213 196 51 0.000000 0.000000 0.000000 0.000000 179.808199 0.000000 20.000000 0.518403 0.822984 -0.232282
-10.96000004 0.20000000 -0.11000000 213 196 51 0.000000 0.000000 0.000000 0.000000 179.808199 0.000000 20.000000 0.665502 0.731901 -0.146380
-11.00000000 0.16000000 -0.09000000 213 196 51 0.000000 0.000000 0.000000 0.000000 179.808199 0.000000 20.000000 0.503242 0.621058 -0.600861
-10.93999958 0.23999999 -0.20999999 213 196 51 0.000000 0.000000 0.000000 0.000000 179.808199 0.000000 20.000000 0.359044 0.933000 0.024451
-10.93000031 0.20999999 -0.19000000 213 196 51 0.000000 0.000000 0.000000 0.000000 179.808199 0.000000 20.000000 0.257984 0.961342 -0.096263
-10.93999958 0.22000000 -0.19000000 213 196 51 0.000000 0.000000 0.000000 0.000000 179.808199 0.000000 20.000000 0.162093 0.960699 -0.225349
-10.93000031 0.22000000 -0.19000000 213 196 51 0.000000 0.000000 0.000000 0.000000 179.808199 0.000000 20.000000 0.402937 0.914812 -0.027562
-10.92000008 0.20999999 -0.20999999 213 196 51 0.000000 0.000000 0.000000 0.000000 179.808199 0.000000 20.000000 0.099088 0.845836 -0.524160
-10.92000008 0.20000000 -0.25000000 213 196 51 0.000000 0.000000 0.000000 0.000000 179.808199 0.000000 20.000000 0.305189 0.801715 -0.513920
-10.92000008 0.20000000 -0.25000000 213 196 51 0.000000 0.000000 0.000000 0.000000 179.808199 0.000000 20.000000 0.305189 0.801715 -0.513920
-10.92000008 0.18000001 -0.23000000 213 196 51 0.000000 0.000000 0.000000 0.000000 179.808199 0.000000 20.000000 0.162130 0.981314 -0.103617
-10.94999981 0.17000000 -0.23999999 213 196 51 0.000000 0.000000 0.000000 0.000000 179.808199 0.000000 20.000000 0.193773 0.949893 -0.245265
-10.94999981 0.17000000 -0.23000000 213 196 51 0.000000 0.000000 0.000000 0.000000 179.808199 0.000000 20.000000 0.225577 0.970852 -0.081008
-10.94999981 0.17000000 -0.25999999 213 196 51 0.000000 0.000000 0.000000 0.000000 179.808199 0.000000 20.000000 0.449737 0.892801 -0.025356
-10.93000031 0.19000000 -0.28000000 213 196 51 0.000000 0.000000 0.000000 0.000000 179.808199 0.000000 20.000000 0.095423 0.993520 0.061744
-10.93999958 0.16000000 -0.25000000 213 196 51 0.000000 0.000000 0.000000 0.000000 179.808199 0.000000 20.000000 0.200578 0.963559 0.176980
-10.97000027 0.22000000 -0.23000000 213 196 51 0.000000 0.000000 0.000000 0.000000 179.808199 0.000000 20.000000 0.480863 0.875906 0.039504
-10.98999977 0.25000000 -0.16000000 213 196 51 0.000000 0.000000 0.000000 0.000000 179.808199 0.000000 20.000000 0.269248 0.962656 0.028277
-10.97000027 0.20999999 -0.25000000 213 196 51 0.000000 0.000000 0.000000 0.000000 179.808199 0.000000 20.000000 0.232258 0.938766 -0.254510
-10.97000027 0.23000000 -0.31000000 213 196 51 0.000000 0.000000 0.000000 0.000000 179.808199 0.000000 20.000000 0.368572 0.919345 -0.137693
-10.96000004 0.12000000 -0.23000000 213 196 51 0.000000 0.000000 0.000000 0.000000 179.808199 0.000000 20.000000 -0.017269 0.891352 -0.452982
-10.97000027 0.17000000 -0.27000001 213 196 51 0.000000 0.000000 0.000000 0.000000 179.808199 0.000000 20.000000 0.044692 0.998806 0.019747
-11.00000000 0.19000000 -0.30000001 213 196 51 0.000000 0.000000 0.000000 0.000000 179.808199 0.000000 20.000000 0.199226 0.956017 -0.215271
-10.96000004 0.19000000 -0.31000000 213 196 51 0.000000 0.000000 0.000000 0.000000 179.808199 0.000000 20.000000 0.100615 0.874360 -0.474733
-10.90999985 -0.01000000 -0.05000000 213 196 51 0.000000 0.000000 0.000000 0.000000 179.808199 0.000000 20.000000 0.049203 0.916234 -0.397611
-10.89000034 -0.03000000 0.01000000 213 196 51 0.000000 0.000000 0.000000 0.000000 179.808199 0.000000 20.000000 -0.065051 0.995613 -0.067256
-10.89000034 -0.03000000 0.01000000 213 196 51 0.000000 0.000000 0.000000 0.000000 179.808199 0.000000 20.000000 -0.065051 0.995613 -0.067256
-10.86999989 -0.04000000 -0.05000000 213 196 51 0.000000 0.000000 0.000000 0.000000 179.808199 0.000000 20.000000 -0.046494 0.801664 -0.595964
-10.86999989 -0.04000000 -0.05000000 213 196 51 0.000000 0.000000 0.000000 0.000000 179.808199 0.000000 20.000000 -0.046494 0.801664 -0.595964
-10.90999985 -0.06000000 -0.05000000 213 196 51 0.000000 0.000000 0.000000 0.000000 179.808199 0.000000 20.000000 0.274189 0.950967 0.143113
-10.98999977 0.06000000 0.01000000 213 196 51 0.000000 0.000000 0.000000 0.000000 179.808199 0.000000 20.000000 0.504004 0.861414 0.062826
-10.97999954 0.03000000 -0.01000000 213 196 51 0.000000 0.000000 0.000000 0.000000 179.808199 0.000000 20.000000 0.560463 0.771236 -0.301788
-11.01000023 0.06000000 -0.06000000 213 196 51 0.000000 0.000000 0.000000 0.000000 179.808199 0.000000 20.000000 0.431830 0.855976 -0.284301
-11.01000023 0.06000000 -0.06000000 213 196 51 0.000000 0.000000 0.000000 0.000000 179.808199 0.000000 20.000000 0.431830 0.855976 -0.284301
-11.01000023 0.05000000 -0.07000000 213 196 51 0.000000 0.000000 0.000000 0.000000 179.808199 0.000000 20.000000 0.022891 0.876583 -0.480707
-11.00000000 0.05000000 -0.06000000 213 196 51 0.000000 0.000000 0.000000 0.000000 179.808199 0.000000 20.000000 0.269523 0.937046 -0.222042
-11.01000023 0.04000000 -0.11000000 213 196 51 0.000000 0.000000 0.000000 0.000000 179.808199 0.000000 20.000000 0.588186 0.808584 0.015152
-11.01000023 0.04000000 -0.15000001 213 196 51 0.000000 0.000000 0.000000 0.000000 179.808199 0.000000 20.000000 0.609430 0.701420 -0.369601
-11.02999973 0.02000000 -0.04000000 213 196 51 0.000000 0.000000 0.000000 0.000000 179.808199 0.000000 20.000000 0.331521 0.903212 -0.272584
-10.97000027 0.00000000 -0.03000000 213 196 51 0.000000 0.000000 0.000000 0.000000 179.808199 0.000000 20.000000 0.255934 0.965060 -0.056181
-10.94999981 0.06000000 -0.23000000 213 196 51 0.000000 0.000000 0.000000 0.000000 179.808199 0.000000 20.000000 0.109339 0.935453 -0.336115
-10.88000011 0.00000000 -0.23999999 213 196 51 0.000000 0.000000 0.000000 0.000000 179.808199 0.000000 20.000000 -0.052335 0.908474 -0.414651
-10.86999989 -0.04000000 -0.28999999 213 196 51 0.000000 0.000000 0.000000 0.000000 179.808199 0.000000 20.000000 0.092191 0.906772 -0.411419
-10.89999962 -0.04000000 -0.30000001 213 196 51 0.000000 0.000000 0.000000 0.000000 179.808199 0.000000 20.000000 0.102572 0.889428 -0.445417
-10.89999962 0.00000000 -0.28999999 213 196 51 0.000000 0.000000 0.000000 0.000000 179.808199 0.000000 20.000000 0.108352 0.940389 -0.322381
-11.01000023 0.03000000 -0.16000000 213 196 51 0.000000 0.000000 0.000000 0.000000 179.808199 0.000000 20.000000 0.426568 0.878404 -0.215514
-11.01000023 0.03000000 -0.16000000 213 196 51 0.000000 0.000000 0.000000 0.000000 179.808199 0.000000 20.000000 0.426568 0.878404 -0.215514
-11.01000023 0.03000000 -0.18000001 213 196 51 0.000000 0.000000 0.000000 0.000000 179.808199 0.000000 20.000000 0.383694 0.921134 -0.065509
-11.02000046 0.04000000 -0.16000000 213 196 51 0.000000 0.000000 0.000000 0.000000 179.808199 0.000000 20.000000 0.253019 0.811835 -0.526218
-11.03999996 0.03000000 -0.16000000 213 196 51 0.000000 0.000000 0.000000 0.000000 179.808199 0.000000 20.000000 -0.015015 0.982879 -0.183640
-11.01000023 0.04000000 -0.20999999 213 196 51 0.000000 0.000000 0.000000 0.000000 179.808199 0.000000 20.000000 0.427544 0.898260 0.101664
-11.02000046 0.06000000 -0.23999999 213 196 51 0.000000 0.000000 0.000000 0.000000 179.808199 0.000000 20.000000 0.017122 0.904835 -0.425417
-11.01000023 -0.20000000 0.20999999 213 196 51 0.000000 0.000000 0.000000 0.000000 179.808199 0.000000 20.000000 -0.025664 0.991968 -0.123857
-11.02999973 -0.14000000 0.07000000 213 196 51 0.000000 0.000000 0.000000 0.000000 179.808199 0.000000 20.000000 0.516295 0.855928 -0.028759
-11.02999973 -0.18000001 0.16000000 213 196 51 0.000000 0.000000 0.000000 0.000000 179.808199 0.000000 20.000000 0.140128 0.922627 -0.359339
-11.00000000 -0.18000001 0.17000000 213 196 51 0.000000 0.000000 0.000000 0.000000 179.808199 0.000000 20.000000 0.415380 0.743744 -0.523740
-11.02000046 -0.20000000 0.18000001 213 196 51 0.000000 0.000000 0.000000 0.000000 179.808199 0.000000 20.000000 0.186846 0.982373 -0.005731
-11.02999973 -0.19000000 0.08000000 213 196 51 0.000000 0.000000 0.000000 0.000000 179.808199 0.000000 20.000000 0.412486 0.817008 -0.402930
-10.97999954 -0.18000001 -0.14000000 213 196 51 0.000000 0.000000 0.000000 0.000000 179.808199 0.000000 20.000000 -0.162994 0.986057 0.033524
-10.97000027 -0.17000000 -0.12000000 213 196 51 0.000000 0.000000 0.000000 0.000000 179.808199 0.000000 20.000000 -0.240725 0.956250 -0.166246
-10.98999977 -0.20000000 -0.11000000 213 196 51 0.000000 0.000000 0.000000 0.000000 179.808199 0.000000 20.000000 -0.143597 0.989351 -0.023744
-11.02000046 -0.17000000 -0.11000000 213 196 51 0.000000 0.000000 0.000000 0.000000 179.808199 0.000000 20.000000 0.151444 0.848380 -0.507264
-11.02999973 -0.19000000 -0.14000000 213 196 51 0.000000 0.000000 0.000000 0.000000 179.808199 0.000000 20.000000 0.233394 0.911833 -0.337770
-11.01000023 -0.19000000 -0.12000000 213 196 51 0.000000 0.000000 0.000000 0.000000 179.808199 0.000000 20.000000 0.234203 0.961670 0.142615
-11.02999973 -0.18000001 -0.13000000 213 196 51 0.000000 0.000000 0.000000 0.000000 179.808199 0.000000 20.000000 0.104134 0.865883 -0.489288
-11.02000046 -0.19000000 -0.14000000 213 196 51 0.000000 0.000000 0.000000 0.000000 179.808199 0.000000 20.000000 0.101782 0.971324 -0.214872
-10.89000034 -0.11000000 -0.31999999 213 196 51 0.000000 0.000000 0.000000 0.000000 179.808199 0.000000 20.000000 -0.070857 0.952058 -0.297599
-11.00000000 -0.20999999 -0.17000000 213 196 51 0.000000 0.000000 0.000000 0.000000 179.808199 0.000000 20.000000 0.204400 0.974928 0.087954
-11.01000023 -0.20000000 -0.20000000 213 196 51 0.000000 0.000000 0.000000 0.000000 179.808199 0.000000 20.000000 0.292010 0.934712 -0.202591
-11.00000000 -0.20000000 -0.20000000 213 196 51 0.000000 0.000000 0.000000 0.000000 179.808199 0.000000 20.000000 -0.114251 0.993437 0.005441
-11.02999973 -0.23000000 -0.23999999 213 196 51 0.000000 0.000000 0.000000 0.000000 179.808199 0.000000 20.000000 0.057895 0.826064 -0.560594
-11.00000000 -0.20999999 -0.20999999 213 196 51 0.000000 0.000000 0.000000 0.000000 179.808199 0.000000 20.000000 0.431846 0.895836 -0.104817
-11.02000046 -0.20000000 -0.20999999 213 196 51 0.000000 0.000000 0.000000 0.000000 179.808199 0.000000 20.000000 0.147156 0.946390 -0.287562
-10.96000004 -0.19000000 -0.27000001 213 196 51 0.000000 0.000000 0.000000 0.000000 179.808199 0.000000 20.000000 -0.140800 0.990032 -0.003326
-11.01000023 -0.20999999 -0.25000000 213 196 51 0.000000 0.000000 0.000000 0.000000 179.808199 0.000000 20.000000 -0.111782 0.984407 -0.135822
-11.06999969 0.00000000 0.02000000 213 196 51 0.000000 0.000000 0.000000 0.000000 179.808199 0.000000 20.000000 0.495827 0.868038 0.025810
-11.05000019 0.07000000 0.09000000 213 196 51 0.000000 0.000000 0.000000 0.000000 179.808199 0.000000 20.000000 0.387209 0.918779 0.076902
-11.27999973 0.15000001 0.25000000 213 196 51 0.000000 0.000000 0.000000 0.000000 179.808199 0.000000 20.000000 0.832862 0.417218 -0.363688
-11.27999973 0.16000000 0.25000000 213 196 51 0.000000 0.000000 0.000000 0.000000 179.808199 0.000000 20.000000 0.792333 0.608069 -0.049609
-11.28999996 0.17000000 0.23999999 213 196 51 0.000000 0.000000 0.000000 0.000000 179.808199 0.000000 20.000000 0.778423 0.304046 -0.549194
-11.28999996 0.17000000 0.23999999 213 196 51 0.000000 0.000000 0.000000 0.000000 179.808199 0.000000 20.000000 0.778423 0.304046 -0.549194
-11.32999992 0.20000000 0.28999999 213 196 51 0.000000 0.000000 0.000000 0.000000 179.808199 0.000000 20.000000 0.955321 0.295548 -0.003679
-11.34000015 0.15000001 0.34999999 213 196 51 0.000000 0.000000 0.000000 0.000000 179.808199 0.000000 20.000000 0.764129 0.620759 -0.175399
-11.34000015 0.15000001 0.34999999 213 196 51 0.000000 0.000000 0.000000 0.000000 179.808199 0.000000 20.000000 0.764129 0.620759 -0.175399
-11.30000019 0.15000001 0.31000000 213 196 51 0.000000 0.000000 0.000000 0.000000 179.808199 0.000000 20.000000 0.882213 0.337450 -0.328371
-11.32999992 0.18000001 0.19000000 213 196 51 0.000000 0.000000 0.000000 0.000000 179.808199 0.000000 20.000000 0.526082 0.816122 -0.239128
-11.31000042 0.15000001 0.25999999 213 196 51 0.000000 0.000000 0.000000 0.000000 179.808199 0.000000 20.000000 0.853492 0.173667 -0.491315
-11.31999969 0.15000001 0.25000000 213 196 51 0.000000 0.000000 0.000000 0.000000 179.808199 0.000000 20.000000 0.473263 0.764753 -0.437236
-11.27999973 0.17000000 0.15000001 213 196 51 0.000000 0.000000 0.000000 0.000000 179.808199 0.000000 20.000000 0.634221 0.773001 -0.015266
-11.27999973 0.15000001 0.11000000 213 196 51 0.000000 0.000000 0.000000 0.000000 179.808199 0.000000 20.000000 0.559927 0.821711 -0.106168
-11.28999996 0.16000000 0.02000000 213 196 51 0.000000 0.000000 0.000000 0.000000 179.808199 0.000000 20.000000 0.900640 0.430623 -0.058413
-11.27999973 0.13000000 0.05000000 213 196 51 0.000000 0.000000 0.000000 0.000000 179.808199 0.000000 20.000000 0.827016 0.523524 -0.204857
-11.30000019 0.20000000 0.12000000 213 196 51 0.000000 0.000000 0.000000 0.000000 179.808199 0.000000 20.000000 0.778542 0.622544 0.079443
-11.30000019 0.15000001 0.10000000 213 196 51 0.000000 0.000000 0.000000 0.000000 179.808199 0.000000 20.000000 0.932203 0.346709 -0.103878
-11.32999992 0.12000000 0.09000000 213 196 51 0.000000 0.000000 0.000000 0.000000 179.808199 0.000000 20.000000 0.517815 0.779143 -0.353276
-11.31999969 -0.05000000 0.04000000 213 196 51 0.000000 0.000000 0.000000 0.000000 179.808199 0.000000 213.000000 0.295452 0.761787 -0.576531
-11.19999981 0.14000000 -0.14000000 213 196 51 0.000000 0.000000 0.000000 0.000000 179.808199 0.000000 20.000000 0.736477 0.673062 -0.067739
-11.18000031 0.12000000 -0.12000000 213 196 51 0.000000 0.000000 0.000000 0.000000 179.808199 0.000000 20.000000 0.447676 0.850738 -0.275375
-11.15999985 0.23999999 -0.27000001 213 196 51 0.000000 0.000000 0.000000 0.000000 179.808199 0.000000 20.000000 0.747568 0.504403 -0.432111
-11.21000004 0.20999999 -0.30000001 213 196 51 0.000000 0.000000 0.000000 0.000000 179.808199 0.000000 20.000000 0.851660 0.321118 -0.414195
-11.15999985 0.13000000 -0.20999999 213 196 51 0.000000 0.000000 0.000000 0.000000 179.808199 0.000000 20.000000 0.588498 0.804328 0.082016
-11.21000004 0.18000001 -0.20000000 213 196 51 0.000000 0.000000 0.000000 0.000000 179.808199 0.000000 20.000000 0.824281 0.362304 -0.435081
-11.15999985 0.15000001 -0.30000001 213 196 51 0.000000 0.000000 0.000000 0.000000 179.808199 0.000000 20.000000 0.279463 0.822776 -0.494915
-11.18999958 0.17000000 -0.28000000 213 196 51 0.000000 0.000000 0.000000 0.000000 179.808199 0.000000 20.000000 0.730716 0.594618 -0.335384
-11.09000015 0.04000000 0.00000000 213 196 51 0.000000 0.000000 0.000000 0.000000 179.808199 0.000000 20.000000 0.767787 0.599590 -0.225820
-11.10999966 0.07000000 -0.14000000 213 196 51 0.000000 0.000000 0.000000 0.000000 179.808199 0.000000 20.000000 0.593246 0.749953 -0.292626
-11.09000015 0.02000000 -0.06000000 213 196 51 0.000000 0.000000 0.000000 0.000000 179.808199 0.000000 20.000000 0.757211 0.629232 -0.175210
-11.18999958 0.11000000 -0.13000000 213 196 51 0.000000 0.000000 0.000000 0.000000 179.808199 0.000000 20.000000 0.526742 0.849628 -0.025995
-11.11999989 0.06000000 -0.19000000 213 196 51 0.000000 0.000000 0.000000 0.000000 179.808199 0.000000 20.000000 0.529761 0.840361 -0.114661
-11.11999989 0.10000000 -0.20999999 213 196 51 0.000000 0.000000 0.000000 0.000000 179.808199 0.000000 20.000000 0.684509 0.728940 0.009719
-11.05000019 0.09000000 -0.20999999 213 196 51 0.000000 0.000000 0.000000 0.000000 179.808199 0.000000 20.000000 0.503675 0.767738 -0.396094
-11.14000034 0.10000000 -0.16000000 213 196 51 0.000000 0.000000 0.000000 0.000000 179.808199 0.000000 20.000000 0.840058 0.505241 -0.197572
-11.14000034 0.09000000 -0.16000000 213 196 51 0.000000 0.000000 0.000000 0.000000 179.808199 0.000000 20.000000 0.774331 0.504857 -0.381484
-11.14999962 0.07000000 -0.20999999 213 196 51 0.000000 0.000000 0.000000 0.000000 179.808199 0.000000 20.000000 0.406364 0.912653 0.043967
-11.14999962 0.11000000 -0.20000000 213 196 51 0.000000 0.000000 0.000000 0.000000 179.808199 0.000000 20.000000 0.567918 0.814457 -0.118867
-11.23999977 0.18000001 -0.08000000 213 196 51 0.000000 0.000000 0.000000 0.000000 179.808199 0.000000 20.000000 0.511649 0.843851 -0.161652
-11.26000023 0.19000000 -0.08000000 213 196 51 0.000000 0.000000 0.000000 0.000000 179.808199 0.000000 20.000000 0.855379 0.185952 -0.483475
-11.26000023 0.19000000 -0.08000000 213 196 51 0.000000 0.000000 0.000000 0.000000 179.808199 0.000000 20.000000 0.855379 0.185952 -0.483475
-11.23999977 0.23999999 -0.17000000 213 196 51 0.000000 0.000000 0.000000 0.000000 179.808199 0.000000 20.000000 0.910114 0.388033 -0.145336
-11.27999973 0.27000001 -0.20000000 213 196 51 0.000000 0.000000 0.000000 0.000000 179.808199 0.000000 20.000000 0.854788 0.518834 -0.012192
-11.27000046 0.25000000 -0.23000000 213 196 51 0.000000 0.000000 0.000000 0.000000 179.808199 0.000000 20.000000 0.724865 0.670158 -0.159561
-11.25000000 0.25000000 -0.28000000 213 196 51 0.000000 0.000000 0.000000 0.000000 179.808199 0.000000 20.000000 0.734097 0.615746 -0.286282
-11.22000027 0.28000000 -0.28999999 213 196 51 0.000000 0.000000 0.000000 0.000000 179.808199 0.000000 20.000000 0.883929 0.305686 -0.353873
-11.22000027 0.25000000 -0.31999999 213 196 51 0.000000 0.000000 0.000000 0.000000 179.808199 0.000000 20.000000 0.894686 0.368226 -0.252878
-11.28999996 0.28000000 -0.25999999 213 196 51 0.000000 0.000000 0.000000 0.000000 179.808199 0.000000 20.000000 0.855515 0.517129 0.025925
-11.26000023 0.25999999 -0.28000000 213 196 51 0.000000 0.000000 0.000000 0.000000 179.808199 0.000000 20.000000 0.781622 0.542837 -0.307236
-11.28999996 0.25999999 -0.28000000 213 196 51 0.000000 0.000000 0.000000 0.000000 179.808199 0.000000 20.000000 0.647425 0.417747 -0.637439
-11.26000023 0.25000000 -0.28999999 213 196 51 0.000000 0.000000 0.000000 0.000000 179.808199 0.000000 20.000000 0.613621 0.705256 -0.355082
-11.23999977 0.17000000 -0.23000000 213 196 51 0.000000 0.000000 0.000000 0.000000 179.808199 0.000000 20.000000 0.906746 0.388606 -0.163698
-11.25000000 0.18000001 -0.23000000 213 196 51 0.000000 0.000000 0.000000 0.000000 179.808199 0.000000 20.000000 0.653059 0.449291 -0.609633
-11.23999977 0.17000000 -0.23000000 213 196 51 0.000000 0.000000 0.000000 0.000000 179.808199 0.000000 20.000000 0.906746 0.388606 -0.163698
-11.22999954 0.15000001 -0.23999999 213 196 51 0.000000 0.000000 0.000000 0.000000 179.808199 0.000000 20.000000 0.460478 0.872715 -0.162264
-11.27000046 0.16000000 -0.18000001 213 196 51 0.000000 0.000000 0.000000 0.000000 179.808199 0.000000 20.000000 0.808808 0.539721 -0.233518
-11.27000046 0.16000000 -0.18000001 213 196 51 0.000000 0.000000 0.000000 0.000000 179.808199 0.000000 20.000000 0.808808 0.539721 -0.233518
-11.22999954 0.16000000 -0.30000001 213 196 51 0.000000 0.000000 0.000000 0.000000 179.808199 0.000000 20.000000 0.644937 0.737734 -0.199513
-11.22999954 0.17000000 -0.30000001 213 196 51 0.000000 0.000000 0.000000 0.000000 179.808199 0.000000 20.000000 0.461304 0.629050 -0.625695
-11.31000042 0.23999999 -0.17000000 213 196 51 0.000000 0.000000 0.000000 0.000000 179.808199 0.000000 20.000000 0.774370 0.346132 -0.529663
-11.22999954 0.11000000 -0.06000000 213 196 51 0.000000 0.000000 0.000000 0.000000 179.808199 0.000000 20.000000 0.732475 0.670073 -0.120346
-11.26000023 0.10000000 -0.13000000 213 196 51 0.000000 0.000000 0.000000 0.000000 179.808199 0.000000 20.000000 0.820331 0.293311 -0.490944
-11.36999989 0.11000000 -0.16000000 213 196 51 0.000000 0.000000 0.000000 0.000000 179.808199 0.000000 213.000000 0.910182 0.414191 0.003895
-11.38000011 0.04000000 -0.25000000 213 196 51 0.000000 0.000000 0.000000 0.000000 179.808199 0.000000 213.000000 0.719447 0.643215 -0.262050
-11.05000019 -0.18000001 0.13000000 213 196 51 0.000000 0.000000 0.000000 0.000000 179.808199 0.000000 20.000000 0.174496 0.968128 -0.179666
-11.05000019 -0.15000001 -0.07000000 213 196 51 0.000000 0.000000 0.000000 0.000000 179.808199 0.000000 20.000000 0.010923 0.999916 -0.006951
-11.05000019 -0.18000001 -0.10000000 213 196 51 0.000000 0.000000 0.000000 0.000000 179.808199 0.000000 20.000000 0.540737 0.725943 -0.424983
-11.06000042 -0.22000000 -0.31000000 213 196 51 0.000000 0.000000 0.000000 0.000000 179.808199 0.000000 20.000000 0.331295 0.942321 0.047696
-11.10999966 -0.23000000 -0.30000001 213 196 51 0.000000 0.000000 0.000000 0.000000 179.808199 0.000000 20.000000 0.148713 0.987960 0.042654
-11.10000038 -0.25999999 -0.23999999 213 196 51 0.000000 0.000000 0.000000 0.000000 179.808199 0.000000 20.000000 0.180753 0.976067 0.120918
-11.38000011 -0.09000000 -0.19000000 213 196 51 0.000000 0.000000 0.000000 0.000000 179.808199 0.000000 213.000000 0.761679 0.602149 -0.239295
-11.38000011 -0.08000000 -0.25999999 213 196 51 0.000000 0.000000 0.000000 0.000000 179.808199 0.000000 213.000000 0.502216 0.724317 -0.472381
-11.43000031 0.58999997 0.28000000 213 196 51 0.000000 0.000000 0.000000 0.000000 179.808199 0.000000 20.000000 0.998017 -0.028575 -0.056092
-11.39000034 0.54000002 0.20000000 213 196 51 0.000000 0.000000 0.000000 0.000000 179.808199 0.000000 20.000000 0.798044 -0.106894 -0.593042
-11.39000034 0.54000002 0.20000000 213 196 51 0.000000 0.000000 0.000000 0.000000 179.808199 0.000000 20.000000 0.798044 -0.106894 -0.593042
-11.43000031 0.55000001 0.23000000 213 196 51 0.000000 0.000000 0.000000 0.000000 179.808199 0.000000 20.000000 0.935934 0.247624 -0.250422
-11.42000008 0.50999999 0.23000000 213 196 51 0.000000 0.000000 0.000000 0.000000 179.808199 0.000000 20.000000 0.963474 -0.064064 -0.260025
-11.40999985 0.50000000 0.19000000 213 196 51 0.000000 0.000000 0.000000 0.000000 179.808199 0.000000 20.000000 0.986112 0.166046 -0.003389
-11.43000031 0.52999997 0.23000000 213 196 51 0.000000 0.000000 0.000000 0.000000 179.808199 0.000000 20.000000 0.955195 0.292252 -0.046811
-11.47000027 0.13000000 0.07000000 213 196 51 0.000000 0.000000 0.000000 0.000000 179.808199 0.000000 213.000000 0.911362 0.172036 -0.373929
-11.50000000 0.17000000 0.16000000 213 196 51 0.000000 0.000000 0.000000 0.000000 179.808199 0.000000 213.000000 0.759415 0.319500 -0.566752
-11.50000000 0.15000001 0.09000000 213 196 51 0.000000 0.000000 0.000000 0.000000 179.808199 0.000000 213.000000 0.931623 0.272017 -0.241010
-11.50000000 0.15000001 0.05000000 213 196 51 0.000000 0.000000 0.000000 0.000000 179.808199 0.000000 213.000000 0.812017 0.565591 -0.143996
-11.50000000 0.09000000 0.04000000 213 196 51 0.000000 0.000000 0.000000 0.000000 179.808199 0.000000 213.000000 0.856401 0.433562 -0.280360
-11.46000004 0.12000000 -0.14000000 213 196 51 0.000000 0.000000 0.000000 0.000000 179.808199 0.000000 213.000000 0.729026 0.557877 -0.396603
-11.48999977 0.15000001 -0.01000000 213 196 51 0.000000 0.000000 0.000000 0.000000 179.808199 0.000000 213.000000 0.972137 0.172003 -0.159262
-11.47000027 0.08000000 0.00000000 213 196 51 0.000000 0.000000 0.000000 0.000000 179.808199 0.000000 213.000000 0.947008 0.310430 -0.082519
-11.47000027 0.08000000 0.00000000 213 196 51 0.000000 0.000000 0.000000 0.000000 179.808199 0.000000 213.000000 0.947008 0.310430 -0.082519
-11.44999981 0.09000000 -0.02000000 213 196 51 0.000000 0.000000 0.000000 0.000000 179.808199 0.000000 213.000000 0.789664 0.334766 -0.514162
-11.44999981 0.10000000 -0.06000000 213 196 51 0.000000 0.000000 0.000000 0.000000 179.808199 0.000000 213.000000 0.899144 0.432517 -0.066856
-11.44999981 0.10000000 -0.06000000 213 196 51 0.000000 0.000000 0.000000 0.000000 179.808199 0.000000 213.000000 0.899144 0.432517 -0.066856
-11.44999981 0.10000000 -0.06000000 213 196 51 0.000000 0.000000 0.000000 0.000000 179.808199 0.000000 213.000000 0.899144 0.432517 -0.066856
-11.46000004 0.03000000 -0.06000000 213 196 51 0.000000 0.000000 0.000000 0.000000 179.808199 0.000000 213.000000 0.863458 0.455005 -0.217742
-11.44999981 0.04000000 -0.05000000 213 196 51 0.000000 0.000000 0.000000 0.000000 179.808199 0.000000 213.000000 0.949363 0.273363 -0.154861
-11.42000008 0.09000000 -0.09000000 213 196 51 0.000000 0.000000 0.000000 0.000000 179.808199 0.000000 213.000000 0.840599 0.482311 -0.246514
-11.47000027 0.09000000 -0.11000000 213 196 51 0.000000 0.000000 0.000000 0.000000 179.808199 0.000000 213.000000 0.643958 0.613851 -0.456625
-11.43999958 0.10000000 -0.09000000 213 196 51 0.000000 0.000000 0.000000 0.000000 179.808199 0.000000 213.000000 0.499273 0.746437 -0.439953
-11.40999985 0.01000000 -0.01000000 213 196 51 0.000000 0.000000 0.000000 0.000000 179.808199 0.000000 213.000000 0.777088 0.461040 -0.428458
-11.44999981 0.00000000 -0.03000000 213 196 51 0.000000 0.000000 0.000000 0.000000 179.808199 0.000000 213.000000 0.888261 0.405094 -0.216541
-11.40999985 -0.03000000 -0.10000000 213 196 51 0.000000 0.000000 0.000000 0.000000 179.808199 0.000000 213.000000 0.857448 0.491017 -0.153901
-11.47999954 0.11000000 -0.06000000 213 196 51 0.000000 0.000000 0.000000 0.000000 179.808199 0.000000 213.000000 0.893879 0.418871 -0.159775
-11.53999996 0.07000000 -0.08000000 213 196 51 0.000000 0.000000 0.000000 0.000000 179.808199 0.000000 213.000000 0.936955 0.340590 -0.078190
-11.53999996 0.06000000 -0.09000000 213 196 51 0.000000 0.000000 0.000000 0.000000 179.808199 0.000000 213.000000 0.659755 0.643220 -0.388577
-11.52999973 0.03000000 -0.13000000 213 196 51 0.000000 0.000000 0.000000 0.000000 179.808199 0.000000 213.000000 0.948571 0.163268 -0.271213
-11.52999973 0.03000000 -0.13000000 213 196 51 0.000000 0.000000 0.000000 0.000000 179.808199 0.000000 213.000000 0.948571 0.163268 -0.271213
-11.53999996 0.03000000 -0.15000001 213 196 51 0.000000 0.000000 0.000000 0.000000 179.808199 0.000000 213.000000 0.473255 0.690652 -0.546836
-11.47999954 -0.01000000 -0.14000000 213 196 51 0.000000 0.000000 0.000000 0.000000 179.808199 0.000000 213.000000 0.846861 0.531813 0.001346
-11.42000008 0.10000000 -0.16000000 213 196 51 0.000000 0.000000 0.000000 0.000000 179.808199 0.000000 213.000000 0.792890 0.463461 -0.395638
-11.42000008 0.09000000 -0.23000000 213 196 51 0.000000 0.000000 0.000000 0.000000 179.808199 0.000000 213.000000 0.789487 0.300227 -0.535326
-11.39000034 0.06000000 -0.20999999 213 196 51 0.000000 0.000000 0.000000 0.000000 179.808199 0.000000 213.000000 0.511041 0.688649 -0.514392
-11.43999958 0.09000000 -0.23999999 213 196 51 0.000000 0.000000 0.000000 0.000000 179.808199 0.000000 213.000000 0.788518 0.261794 -0.556509
-11.39999962 0.08000000 -0.28999999 213 196 51 0.000000 0.000000 0.000000 0.000000 179.808199 0.000000 213.000000 -0.626116 -0.394833 0.672373
-11.39000034 0.05000000 -0.25999999 213 196 51 0.000000 0.000000 0.000000 0.000000 179.808199 0.000000 213.000000 0.755895 0.520801 -0.396723
-11.39999962 0.06000000 -0.25999999 213 196 51 0.000000 0.000000 0.000000 0.000000 179.808199 0.000000 213.000000 0.710563 0.598973 -0.369230
-11.42000008 0.04000000 -0.28999999 213 196 51 0.000000 0.000000 0.000000 0.000000 179.808199 0.000000 213.000000 0.419825 0.762873 -0.491702
-11.46000004 0.08000000 -0.28000000 213 196 51 0.000000 0.000000 0.000000 0.000000 179.808199 0.000000 213.000000 0.783632 0.556584 -0.275927
-11.39999962 -0.05000000 -0.17000000 213 196 51 0.000000 0.000000 0.000000 0.000000 179.808199 0.000000 213.000000 0.881875 0.470062 -0.036575
-11.43999958 -0.01000000 -0.20000000 213 196 51 0.000000 0.000000 0.000000 0.000000 179.808199 0.000000 213.000000 0.711215 0.589667 -0.382709
-11.44999981 -0.05000000 -0.16000000 213 196 51 0.000000 0.000000 0.000000 0.000000 179.808199 0.000000 213.000000 0.565256 0.662540 -0.491454
-11.44999981 -0.05000000 -0.16000000 213 196 51 0.000000 0.000000 0.000000 0.000000 179.808199 0.000000 213.000000 0.565256 0.662540 -0.491454
-11.43000031 -0.05000000 -0.23999999 213 196 51 0.000000 0.000000 0.000000 0.000000 179.808199 0.000000 213.000000 0.853455 0.481475 -0.199490
-11.43000031 -0.05000000 -0.22000000 213 196 51 0.000000 0.000000 0.000000 0.000000 179.808199 0.000000 213.000000 0.857503 0.513957 0.023176
-11.39999962 -0.05000000 -0.31000000 213 196 51 0.000000 0.000000 0.000000 0.000000 179.808199 0.000000 213.000000 0.682135 0.642876 -0.348429
-11.46000004 0.00000000 -0.25999999 213 196 51 0.000000 0.000000 0.000000 0.000000 179.808199 0.000000 213.000000 0.552445 0.727249 -0.407325
-11.46000004 0.00000000 -0.25000000 213 196 51 0.000000 0.000000 0.000000 0.000000 179.808199 0.000000 213.000000 0.828093 0.291626 -0.478766
-11.46000004 0.00000000 -0.28000000 213 196 51 0.000000 0.000000 0.000000 0.000000 179.808199 0.000000 213.000000 0.854316 0.218476 -0.471606
-11.44999981 -0.06000000 -0.28000000 213 196 51 0.000000 0.000000 0.000000 0.000000 179.808199 0.000000 213.000000 0.864930 0.500316 -0.039751
-11.44999981 -0.05000000 -0.28000000 213 196 51 0.000000 0.000000 0.000000 0.000000 179.808199 0.000000 213.000000 0.866391 0.484202 -0.122128
-11.43999958 -0.03000000 -0.31000000 213 196 51 0.000000 0.000000 0.000000 0.000000 179.808199 0.000000 213.000000 0.928179 0.349609 -0.127505
-11.46000004 -0.04000000 -0.30000001 213 196 51 0.000000 0.000000 0.000000 0.000000 179.808199 0.000000 213.000000 0.761043 0.571984 -0.306019
-11.50000000 0.04000000 -0.16000000 213 196 51 0.000000 0.000000 0.000000 0.000000 179.808199 0.000000 213.000000 0.690187 0.634711 -0.347541
-11.52000046 0.05000000 -0.18000001 213 196 51 0.000000 0.000000 0.000000 0.000000 179.808199 0.000000 213.000000 0.497409 0.764868 -0.409343
-11.51000023 0.02000000 -0.19000000 213 196 51 0.000000 0.000000 0.000000 0.000000 179.808199 0.000000 213.000000 0.766964 0.315432 -0.558811
-11.51000023 0.01000000 -0.19000000 213 196 51 0.000000 0.000000 0.000000 0.000000 179.808199 0.000000 213.000000 0.797066 0.248011 -0.550615
-11.47999954 0.00000000 -0.22000000 213 196 51 0.000000 0.000000 0.000000 0.000000 179.808199 0.000000 213.000000 0.890920 0.454065 -0.009267
-11.48999977 -0.03000000 -0.17000000 213 196 51 0.000000 0.000000 0.000000 0.000000 179.808199 0.000000 213.000000 0.464966 0.757418 -0.458394
-11.51000023 -0.02000000 -0.22000000 213 196 51 0.000000 0.000000 0.000000 0.000000 179.808199 0.000000 213.000000 0.888279 0.364000 -0.280115
-11.52000046 0.00000000 -0.17000000 213 196 51 0.000000 0.000000 0.000000 0.000000 179.808199 0.000000 213.000000 0.915135 0.392592 -0.091650
-11.52000046 -0.02000000 -0.17000000 213 196 51 0.000000 0.000000 0.000000 0.000000 179.808199 0.000000 213.000000 0.893167 0.431721 -0.125978
-11.47999954 -0.01000000 -0.28000000 213 196 51 0.000000 0.000000 0.000000 0.000000 179.808199 0.000000 213.000000 0.582227 0.682324 -0.442092
-11.51000023 0.02000000 -0.28000000 213 196 51 0.000000 0.000000 0.000000 0.000000 179.808199 0.000000 213.000000 0.734749 0.396140 -0.550651
-11.42000008 -0.07000000 -0.23999999 213 196 51 0.000000 0.000000 0.000000 0.000000 179.808199 0.000000 213.000000 0.548703 0.738702 -0.391463
-11.42000008 -0.10000000 -0.18000001 213 196 51 0.000000 0.000000 0.000000 0.000000 179.808199 0.000000 213.000000 0.510356 0.601311 -0.614786
-11.39000034 -0.08000000 -0.27000001 213 196 51 0.000000 0.000000 0.000000 0.000000 179.808199 0.000000 213.000000 0.888740 0.430686 -0.157006
-11.43000031 -0.08000000 -0.28999999 213 196 51 0.000000 0.000000 0.000000 0.000000 179.808199 0.000000 213.000000 0.716771 0.520532 -0.463989
-11.23999977 0.31000000 -0.34999999 213 196 51 0.000000 0.000000 0.000000 0.000000 179.808199 0.000000 20.000000 0.891220 0.291102 -0.347830
-11.22999954 0.31000000 -0.34999999 213 196 51 0.000000 0.000000 0.000000 0.000000 179.808199 0.000000 20.000000 0.808076 0.546413 -0.220104
-11.26000023 0.30000001 -0.34000000 213 196 51 0.000000 0.000000 0.000000 0.000000 179.808199 0.000000 20.000000 0.701615 0.223454 -0.676613
-11.26000023 0.30000001 -0.34000000 213 196 51 0.000000 0.000000 0.000000 0.000000 179.808199 0.000000 20.000000 0.701615 0.223454 -0.676613
-10.82999992 -0.06000000 -0.43000001 213 196 51 0.000000 0.000000 0.000000 0.000000 179.808199 0.000000 20.000000 -0.035000 0.998035 0.051970
-10.84000015 -0.06000000 -0.44999999 213 196 51 0.000000 0.000000 0.000000 0.000000 179.808199 0.000000 20.000000 -0.481959 0.875171 0.042325
-10.84000015 -0.06000000 -0.43000001 213 196 51 0.000000 0.000000 0.000000 0.000000 179.808199 0.000000 20.000000 -0.079613 0.996757 0.011677
-10.90999985 0.16000000 -0.36000001 213 196 51 0.000000 0.000000 0.000000 0.000000 179.808199 0.000000 20.000000 0.365136 0.907790 -0.206381
-10.94999981 0.19000000 -0.33000001 213 196 51 0.000000 0.000000 0.000000 0.000000 179.808199 0.000000 20.000000 0.316269 0.940731 0.122470
-10.94999981 0.18000001 -0.41000000 213 196 51 0.000000 0.000000 0.000000 0.000000 179.808199 0.000000 20.000000 0.342460 0.853827 -0.392047
-10.93000031 0.15000001 -0.34999999 213 196 51 0.000000 0.000000 0.000000 0.000000 179.808199 0.000000 20.000000 0.090203 0.992235 0.085636
-11.02000046 0.20000000 -0.38000000 213 196 51 0.000000 0.000000 0.000000 0.000000 179.808199 0.000000 20.000000 0.330488 0.865418 -0.376603
-10.96000004 0.14000000 -0.36000001 213 196 51 0.000000 0.000000 0.000000 0.000000 179.808199 0.000000 20.000000 0.272489 0.918387 -0.286906
-10.97000027 0.18000001 -0.44000000 213 196 51 0.000000 0.000000 0.000000 0.000000 179.808199 0.000000 20.000000 0.438753 0.838470 -0.323209
-10.97000027 0.18000001 -0.44000000 213 196 51 0.000000 0.000000 0.000000 0.000000 179.808199 0.000000 20.000000 0.438753 0.838470 -0.323209
-10.93999958 0.19000000 -0.51999998 213 196 51 0.000000 0.000000 0.000000 0.000000 179.808199 0.000000 20.000000 0.321360 0.924441 -0.205274
-10.97000027 0.12000000 -0.50999999 213 196 51 0.000000 0.000000 0.000000 0.000000 179.808199 0.000000 20.000000 0.241408 0.831860 -0.499731
-10.97000027 0.12000000 -0.55000001 213 196 51 0.000000 0.000000 0.000000 0.000000 179.808199 0.000000 20.000000 0.254097 0.965070 -0.063837
-11.02000046 0.13000000 -0.56000000 213 196 51 0.000000 0.000000 0.000000 0.000000 179.808199 0.000000 20.000000 -0.103993 -0.789468 0.604917
-11.00000000 0.13000000 -0.56000000 213 196 51 0.000000 0.000000 0.000000 0.000000 179.808199 0.000000 20.000000 0.446108 0.893572 -0.050170
-10.98999977 0.12000000 -0.63999999 213 196 51 0.000000 0.000000 0.000000 0.000000 179.808199 0.000000 20.000000 0.226342 0.867892 -0.442190
-10.90999985 0.05000000 -0.38999999 213 196 51 0.000000 0.000000 0.000000 0.000000 179.808199 0.000000 20.000000 0.226845 0.972367 -0.055178
-10.93999958 0.06000000 -0.46000001 213 196 51 0.000000 0.000000 0.000000 0.000000 179.808199 0.000000 20.000000 0.352994 0.872551 -0.337712
-10.89999962 -0.05000000 -0.38000000 213 196 51 0.000000 0.000000 0.000000 0.000000 179.808199 0.000000 20.000000 0.186121 0.977441 -0.099840
-10.97000027 0.10000000 -0.36000001 213 196 51 0.000000 0.000000 0.000000 0.000000 179.808199 0.000000 20.000000 0.123317 0.992093 -0.023330
-11.03999996 0.08000000 -0.38999999 213 196 51 0.000000 0.000000 0.000000 0.000000 179.808199 0.000000 20.000000 0.434214 0.897376 -0.078572
-11.03999996 0.07000000 -0.46000001 213 196 51 0.000000 0.000000 0.000000 0.000000 179.808199 0.000000 20.000000 0.128871 0.961976 -0.240819
-11.03999996 0.06000000 -0.41999999 213 196 51 0.000000 0.000000 0.000000 0.000000 179.808199 0.000000 20.000000 0.133741 0.984384 0.114463
-11.00000000 0.04000000 -0.49000001 213 196 51 0.000000 0.000000 0.000000 0.000000 179.808199 0.000000 20.000000 0.189822 0.976404 -0.102975
-11.00000000 0.04000000 -0.54000002 213 196 51 0.000000 0.000000 0.000000 0.000000 179.808199 0.000000 20.000000 0.413107 0.903235 -0.116230
-11.02999973 0.06000000 -0.51999998 213 196 51 0.000000 0.000000 0.000000 0.000000 179.808199 0.000000 20.000000 0.130554 0.956079 -0.262427
-11.02000046 0.08000000 -0.61000001 213 196 51 0.000000 0.000000 0.000000 0.000000 179.808199 0.000000 20.000000 0.358674 0.852432 -0.380411
-10.97999954 -0.03000000 -0.58999997 213 196 51 0.000000 0.000000 0.000000 0.000000 179.808199 0.000000 20.000000 0.168541 0.984137 0.055395
-10.85000038 0.13000000 -0.73000002 213 196 51 0.000000 0.000000 0.000000 0.000000 179.808199 0.000000 20.000000 0.628627 -0.684432 0.369298
-10.82999992 0.00000000 -0.81000000 213 196 51 0.000000 0.000000 0.000000 0.000000 179.808199 0.000000 20.000000 0.604487 -0.752847 -0.260419
-10.85999966 -0.03000000 -0.81999999 213 196 51 0.000000 0.000000 0.000000 0.000000 179.808199 0.000000 20.000000 -0.077430 0.990411 -0.114412
-10.81999969 0.03000000 -0.87000000 213 196 51 0.000000 0.000000 0.000000 0.000000 179.808199 0.000000 20.000000 0.735303 -0.666972 -0.120322
-10.84000015 0.00000000 -0.87000000 213 196 51 0.000000 0.000000 0.000000 0.000000 179.808199 0.000000 20.000000 0.703126 -0.665205 -0.251229
-10.86999989 0.14000000 -0.69999999 213 196 51 0.000000 0.000000 0.000000 0.000000 179.808199 0.000000 20.000000 -0.383396 0.919879 0.082640
-10.98999977 0.14000000 -0.91000003 213 196 51 0.000000 0.000000 0.000000 0.000000 179.808199 0.000000 20.000000 -0.531812 0.845622 0.045822
-10.86999989 0.08000000 -0.70999998 213 196 51 0.000000 0.000000 0.000000 0.000000 179.808199 0.000000 20.000000 -0.233400 0.943267 -0.236162
-10.92000008 0.09000000 -0.70999998 213 196 51 0.000000 0.000000 0.000000 0.000000 179.808199 0.000000 20.000000 -0.465759 0.884268 0.033751
-10.92000008 0.07000000 -0.81000000 213 196 51 0.000000 0.000000 0.000000 0.000000 179.808199 0.000000 20.000000 -0.068506 0.993896 0.086475
-10.89000034 -0.06000000 -0.81000000 213 196 51 0.000000 0.000000 0.000000 0.000000 179.808199 0.000000 20.000000 -0.256863 0.954252 0.153053
-10.93999958 0.04000000 -0.91000003 213 196 51 0.000000 0.000000 0.000000 0.000000 179.808199 0.000000 20.000000 -0.356441 0.910585 0.209247
-10.94999981 0.04000000 -0.94999999 213 196 51 0.000000 0.000000 0.000000 0.000000 179.808199 0.000000 20.000000 0.730283 -0.682071 0.038287
-10.92000008 0.02000000 -0.97000003 213 196 51 0.000000 0.000000 0.000000 0.000000 179.808199 0.000000 20.000000 -0.600561 0.786271 0.145273
-10.92000008 0.01000000 -1.00999999 213 196 51 0.000000 0.000000 0.000000 0.000000 179.808199 0.000000 20.000000 -0.585872 0.744041 -0.321180
-10.92000008 -0.02000000 -0.95999998 213 196 51 0.000000 0.000000 0.000000 0.000000 179.808199 0.000000 20.000000 -0.221879 0.957934 0.182021
-11.00000000 0.08000000 -0.99000001 213 196 51 0.000000 0.000000 0.000000 0.000000 179.808199 0.000000 20.000000 -0.380788 0.921696 0.074005
-10.96000004 0.01000000 -0.95999998 213 196 51 0.000000 0.000000 0.000000 0.000000 179.808199 0.000000 20.000000 0.713333 -0.699037 0.050033
-10.98999977 0.01000000 -0.94000000 213 196 51 0.000000 0.000000 0.000000 0.000000 179.808199 0.000000 20.000000 -0.490735 0.870127 -0.045362
-10.90999985 -0.08000000 -0.33000001 213 196 51 0.000000 0.000000 0.000000 0.000000 179.808199 0.000000 20.000000 -0.045930 0.844828 -0.533063
-10.89999962 -0.08000000 -0.38000000 213 196 51 0.000000 0.000000 0.000000 0.000000 179.808199 0.000000 20.000000 0.204050 0.968915 0.139883
-10.89999962 -0.11000000 -0.33000001 213 196 51 0.000000 0.000000 0.000000 0.000000 179.808199 0.000000 20.000000 -0.061501 0.895181 -0.441440
-11.02999973 -0.14000000 -0.47999999 213 196 51 0.000000 0.000000 0.000000 0.000000 179.808199 0.000000 20.000000 0.230629 0.921083 -0.313713
-10.96000004 -0.15000001 -0.37000000 213 196 51 0.000000 0.000000 0.000000 0.000000 179.808199 0.000000 20.000000 0.086285 0.986954 -0.135928
-11.03999996 -0.19000000 -0.38000000 213 196 51 0.000000 0.000000 0.000000 0.000000 179.808199 0.000000 20.000000 0.339442 0.822554 -0.456273
-11.00000000 -0.20000000 -0.38999999 213 196 51 0.000000 0.000000 0.000000 0.000000 179.808199 0.000000 20.000000 0.150070 0.954872 -0.256315
-10.98999977 -0.18000001 -0.43000001 213 196 51 0.000000 0.000000 0.000000 0.000000 179.808199 0.000000 20.000000 0.467327 0.861494 -0.198577
-10.97999954 -0.20000000 -0.47999999 213 196 51 0.000000 0.000000 0.000000 0.000000 179.808199 0.000000 20.000000 0.338787 0.940795 -0.011335
