//X Y Z R G B PointSourceId ScanDirectionFlag NumberOfReturns ReturnNumber GpsTime Intensity Classification Nx Ny Nz
18.71999931 2.43000007 -1.48000002 86 41 192 0.000000 0.000000 0.000000 0.000000 51.808199 0.000000 186.000000 -0.130076 0.957829 -0.256209
18.69000053 2.41000009 -1.37000000 86 41 192 0.000000 0.000000 0.000000 0.000000 51.808199 0.000000 186.000000 -0.202754 0.948452 0.243577
18.69000053 2.42000008 -1.50999999 86 41 192 0.000000 0.000000 0.000000 0.000000 51.808199 0.000000 186.000000 -0.587185 0.766646 0.259747
18.79000092 2.46000004 -1.60000002 86 41 192 0.000000 0.000000 0.000000 0.000000 51.808199 0.000000 186.000000 -0.507146 0.847215 0.158206
18.77000046 2.46000004 -1.59000003 86 41 192 0.000000 0.000000 0.000000 0.000000 51.808199 0.000000 186.000000 -0.417287 0.813790 -0.404497
18.77000046 2.38000011 -1.70000005 86 41 192 0.000000 0.000000 0.000000 0.000000 51.808199 0.000000 186.000000 -0.305910 0.920602 0.242717
18.71999931 2.45000005 -1.59000003 86 41 192 0.000000 0.000000 0.000000 0.000000 51.808199 0.000000 186.000000 -0.349723 0.879606 0.322472
18.69000053 2.44000006 -1.53999996 86 41 192 0.000000 0.000000 0.000000 0.000000 51.808199 0.000000 186.000000 -0.630074 0.773599 -0.067457
18.70999908 2.49000001 -1.62000000 86 41 192 0.000000 0.000000 0.000000 0.000000 51.808199 0.000000 186.000000 -0.097542 0.976657 -0.191380
18.73999977 2.48000002 -1.69000006 86 41 192 0.000000 0.000000 0.000000 0.000000 51.808199 0.000000 186.000000 -0.462939 0.820018 0.336539
18.67000008 2.45000005 -1.40999997 86 41 192 0.000000 0.000000 0.000000 0.000000 51.808199 0.000000 186.000000 -0.177972 0.926295 0.332121
18.62999916 2.42000008 -1.38000000 86 41 192 0.000000 0.000000 0.000000 0.000000 51.808199 0.000000 186.000000 -0.357867 0.887928 0.288989
18.62999916 2.42000008 -1.38000000 86 41 192 0.000000 0.000000 0.000000 0.000000 51.808199 0.000000 186.000000 -0.357867 0.887928 0.288989
18.95999908 2.40000010 -1.72000003 86 41 192 0.000000 0.000000 0.000000 0.000000 51.808199 0.000000 186.000000 -0.155619 0.984795 0.077216
18.94000053 2.40000010 -1.77999997 86 41 192 0.000000 0.000000 0.000000 0.000000 51.808199 0.000000 186.000000 -0.258505 0.952318 0.162068
18.90999985 2.40000010 -1.73000002 86 41 192 0.000000 0.000000 0.000000 0.000000 51.808199 0.000000 186.000000 -0.020876 0.961546 -0.273850
18.88999939 2.39000010 -1.72000003 86 41 192 0.000000 0.000000 0.000000 0.000000 51.808199 0.000000 186.000000 -0.496537 0.867931 0.012111
18.92000008 2.39000010 -1.73000002 86 41 192 0.000000 0.000000 0.000000 0.000000 51.808199 0.000000 186.000000 0.049097 0.996115 -0.073099
18.79000092 2.47000003 -1.71000004 86 41 192 0.000000 0.000000 0.000000 0.000000 51.808199 0.000000 186.000000 0.168243 0.985745 -0.001129
18.86000061 2.18000007 -0.99000001 86 41 192 0.000000 0.000000 0.000000 0.000000 51.808199 0.000000 241.000000 -0.448696 0.843051 0.296543
18.92000008 2.21000004 -1.09000003 86 41 192 0.000000 0.000000 0.000000 0.000000 51.808199 0.000000 241.000000 -0.271401 0.905160 -0.327149
18.89999962 2.25999999 -1.32000005 86 41 192 0.000000 0.000000 0.000000 0.000000 51.808199 0.000000 186.000000 -0.548438 0.834579 -0.051898
18.94000053 2.28999996 -1.44000006 86 41 192 0.000000 0.000000 0.000000 0.000000 51.808199 0.000000 186.000000 -0.188218 0.957111 -0.220256
18.93000031 2.30999994 -1.39999998 86 41 192 0.000000 0.000000 0.000000 0.000000 51.808199 0.000000 186.000000 0.159309 0.979318 -0.124730
18.93000031 2.30999994 -1.39999998 86 41 192 0.000000 0.000000 0.000000 0.000000 51.808199 0.000000 186.000000 0.159309 0.979318 -0.124730
18.93000031 2.27999997 -1.38000000 86 41 192 0.000000 0.000000 0.000000 0.000000 51.808199 0.000000 186.000000 -0.507999 0.860432 0.039924
18.51000023 2.30999994 -0.88000000 86 41 192 0.000000 0.000000 0.000000 0.000000 51.808199 0.000000 186.000000 0.826330 -0.554263 -0.099854
18.53000069 2.31999993 -1.00000000 86 41 192 0.000000 0.000000 0.000000 0.000000 51.808199 0.000000 186.000000 0.718317 -0.648854 -0.251016
18.43000031 2.18000007 -0.51999998 86 41 192 0.000000 0.000000 0.000000 0.000000 51.808199 0.000000 186.000000 0.969727 -0.139262 -0.200589
18.45999908 2.22000003 -0.56999999 86 41 192 0.000000 0.000000 0.000000 0.000000 51.808199 0.000000 186.000000 -0.570698 0.814661 0.103103
18.44000053 2.18000007 -0.62000000 86 41 192 0.000000 0.000000 0.000000 0.000000 51.808199 0.000000 186.000000 0.983577 -0.179147 -0.021960
18.42000008 2.21000004 -0.62000000 86 41 192 0.000000 0.000000 0.000000 0.000000 51.808199 0.000000 186.000000 0.977450 -0.206975 -0.041874
18.40999985 2.18000007 -0.52999997 86 41 192 0.000000 0.000000 0.000000 0.000000 51.808199 0.000000 186.000000 0.860991 -0.500708 -0.089362
18.42000008 2.16000009 -0.37000000 86 41 192 0.000000 0.000000 0.000000 0.000000 51.808199 0.000000 186.000000 0.743796 -0.621141 0.246884
18.42000008 2.16000009 -0.37000000 86 41 192 0.000000 0.000000 0.000000 0.000000 51.808199 0.000000 186.000000 0.743796 -0.621141 0.246884
18.42000008 2.15000010 -0.50000000 86 41 192 0.000000 0.000000 0.000000 0.000000 51.808199 0.000000 186.000000 0.958844 -0.281277 0.038754
18.44000053 2.13000011 -0.49000001 86 41 192 0.000000 0.000000 0.000000 0.000000 51.808199 0.000000 186.000000 0.807163 -0.557870 0.193050
18.39999962 2.14000010 -0.37000000 86 41 192 0.000000 0.000000 0.000000 0.000000 51.808199 0.000000 186.000000 0.895757 -0.437527 0.078672
18.40999985 2.15000010 -0.37000000 86 41 192 0.000000 0.000000 0.000000 0.000000 51.808199 0.000000 186.000000 -0.688657 0.675934 0.262421
18.37999916 2.13000011 -0.38999999 86 41 192 0.000000 0.000000 0.000000 0.000000 51.808199 0.000000 186.000000 0.919439 -0.377946 -0.108574
18.39999962 2.17000008 -0.50000000 86 41 192 0.000000 0.000000 0.000000 0.000000 51.808199 0.000000 186.000000 0.916354 -0.395790 -0.060375
18.42000008 2.17000008 -0.50999999 86 41 192 0.000000 0.000000 0.000000 0.000000 51.808199 0.000000 186.000000 0.941856 -0.276369 -0.191121
18.42000008 2.16000009 -0.63000000 86 41 192 0.000000 0.000000 0.000000 0.000000 51.808199 0.000000 186.000000 0.655074 -0.648473 -0.387764
18.40999985 2.17000008 -0.52999997 86 41 192 0.000000 0.000000 0.000000 0.000000 51.808199 0.000000 186.000000 0.986299 -0.113026 -0.120164
18.40999985 2.15000010 -0.62000000 86 41 192 0.000000 0.000000 0.000000 0.000000 51.808199 0.000000 186.000000 0.883644 -0.220541 -0.412959
18.48999977 2.26999998 -0.81999999 86 41 192 0.000000 0.000000 0.000000 0.000000 51.808199 0.000000 186.000000 0.862189 -0.443975 -0.243959
18.45000076 2.28999996 -0.82999998 86 41 192 0.000000 0.000000 0.000000 0.000000 51.808199 0.000000 186.000000 0.803152 -0.590511 -0.079022
18.47999954 2.25999999 -0.83999997 86 41 192 0.000000 0.000000 0.000000 0.000000 51.808199 0.000000 186.000000 0.714285 -0.647470 0.265669
18.47999954 2.23000002 -0.75000000 86 41 192 0.000000 0.000000 0.000000 0.000000 51.808199 0.000000 186.000000 0.666912 -0.596711 -0.446279
18.45999908 2.23000002 -0.74000001 86 41 192 0.000000 0.000000 0.000000 0.000000 51.808199 0.000000 186.000000 -0.580343 0.777441 0.242461
18.45999908 2.23000002 -0.74000001 86 41 192 0.000000 0.000000 0.000000 0.000000 51.808199 0.000000 186.000000 -0.580343 0.777441 0.242461
18.45000076 2.22000003 -0.68000001 86 41 192 0.000000 0.000000 0.000000 0.000000 51.808199 0.000000 186.000000 -0.663437 0.742522 -0.092266
18.45999908 2.23000002 -0.75999999 86 41 192 0.000000 0.000000 0.000000 0.000000 51.808199 0.000000 186.000000 0.918546 -0.395143 0.011660
18.44000053 2.22000003 -0.76999998 86 41 192 0.000000 0.000000 0.000000 0.000000 51.808199 0.000000 186.000000 0.610025 -0.764462 -0.208490
18.45999908 2.25999999 -0.86000001 86 41 192 0.000000 0.000000 0.000000 0.000000 51.808199 0.000000 186.000000 0.630765 -0.731940 -0.257681
18.48999977 2.25999999 -0.88000000 86 41 192 0.000000 0.000000 0.000000 0.000000 51.808199 0.000000 186.000000 0.783011 -0.607020 -0.135722
18.48999977 2.25999999 -0.88000000 86 41 192 0.000000 0.000000 0.000000 0.000000 51.808199 0.000000 186.000000 0.783011 -0.607020 -0.135722
18.50000000 2.28999996 -0.93000001 86 41 192 0.000000 0.000000 0.000000 0.000000 51.808199 0.000000 186.000000 -0.616661 0.780714 0.101068
18.50000000 2.28999996 -0.97000003 86 41 192 0.000000 0.000000 0.000000 0.000000 51.808199 0.000000 186.000000 0.859795 -0.495647 0.122828
18.62000084 2.29999995 -1.21000004 86 41 192 0.000000 0.000000 0.000000 0.000000 51.808199 0.000000 186.000000 -0.448064 0.858156 -0.250612
18.92000008 2.33999991 -1.82000005 86 41 192 0.000000 0.000000 0.000000 0.000000 51.808199 0.000000 186.000000 -0.127103 0.884009 -0.449859
18.90999985 2.33999991 -1.78999996 86 41 192 0.000000 0.000000 0.000000 0.000000 51.808199 0.000000 186.000000 -0.319512 0.942627 -0.096782
19.09000015 2.61999989 -0.04000000 86 41 192 0.000000 0.000000 0.000000 0.000000 51.808199 0.000000 186.000000 0.042875 0.998681 -0.028235
19.02000046 2.60999990 -0.09000000 86 41 192 0.000000 0.000000 0.000000 0.000000 51.808199 0.000000 186.000000 -0.582808 0.809058 0.075894
19.03000069 2.63000011 -0.09000000 86 41 192 0.000000 0.000000 0.000000 0.000000 51.808199 0.000000 186.000000 -0.549555 0.833468 0.057626
19.04999924 2.59999990 -0.04000000 86 41 192 0.000000 0.000000 0.000000 0.000000 51.808199 0.000000 186.000000 -0.589754 0.800486 0.106829
19.05999947 2.58999991 -0.15000001 86 41 192 0.000000 0.000000 0.000000 0.000000 51.808199 0.000000 186.000000 -0.236494 0.967475 0.089792
19.02000046 2.59999990 -0.13000000 86 41 192 0.000000 0.000000 0.000000 0.000000 51.808199 0.000000 186.000000 0.477494 -0.825047 -0.302152
19.01000023 2.67000008 -0.12000000 86 41 192 0.000000 0.000000 0.000000 0.000000 51.808199 0.000000 186.000000 -0.490731 0.868858 -0.065338
18.94000053 2.57999992 -0.09000000 86 41 192 0.000000 0.000000 0.000000 0.000000 51.808199 0.000000 186.000000 -0.058324 0.981985 -0.179733
18.93000031 2.55999994 -0.14000000 86 41 192 0.000000 0.000000 0.000000 0.000000 51.808199 0.000000 186.000000 -0.182958 0.931547 0.314240
18.85000038 2.53999996 -0.10000000 86 41 192 0.000000 0.000000 0.000000 0.000000 51.808199 0.000000 186.000000 -0.614253 0.788962 -0.015252
18.86000061 2.54999995 -0.10000000 86 41 192 0.000000 0.000000 0.000000 0.000000 51.808199 0.000000 186.000000 -0.503654 0.818632 0.275996
19.01000023 2.66000009 -0.27000001 86 41 192 0.000000 0.000000 0.000000 0.000000 51.808199 0.000000 186.000000 -0.424407 0.877107 0.224861
19.01000023 2.51999998 -0.17000000 86 41 192 0.000000 0.000000 0.000000 0.000000 51.808199 0.000000 186.000000 -0.167643 0.959658 0.225724
19.00000000 2.57999992 -0.28000000 86 41 192 0.000000 0.000000 0.000000 0.000000 51.808199 0.000000 186.000000 -0.317196 0.878740 -0.356656
18.95999908 2.53999996 -0.28000000 86 41 192 0.000000 0.000000 0.000000 0.000000 51.808199 0.000000 186.000000 -0.553249 0.826244 -0.106003
18.93000031 2.55999994 -0.19000000 86 41 192 0.000000 0.000000 0.000000 0.000000 51.808199 0.000000 186.000000 -0.519538 0.848721 0.098755
18.98999977 2.49000001 -0.28000000 86 41 192 0.000000 0.000000 0.000000 0.000000 51.808199 0.000000 186.000000 -0.468138 0.821212 -0.326278
18.79000092 2.64000010 0.22000000 86 41 192 0.000000 0.000000 0.000000 0.000000 51.808199 0.000000 186.000000 -0.276378 0.954880 0.108717
18.78000069 2.64000010 0.20999999 86 41 192 0.000000 0.000000 0.000000 0.000000 51.808199 0.000000 186.000000 -0.362545 0.895265 0.258961
18.78000069 2.64000010 0.23999999 86 41 192 0.000000 0.000000 0.000000 0.000000 51.808199 0.000000 186.000000 -0.464452 0.883424 -0.062019
18.80999947 2.61999989 0.07000000 86 41 192 0.000000 0.000000 0.000000 0.000000 51.808199 0.000000 186.000000 0.714953 -0.654979 0.244631
18.79000092 2.57999992 0.13000000 86 41 192 0.000000 0.000000 0.000000 0.000000 51.808199 0.000000 186.000000 0.771266 -0.567715 -0.287833
18.76000023 2.56999993 0.14000000 86 41 192 0.000000 0.000000 0.000000 0.000000 51.808199 0.000000 186.000000 -0.506633 0.861685 -0.028677
18.81999969 2.52999997 0.04000000 86 41 192 0.000000 0.000000 0.000000 0.000000 51.808199 0.000000 186.000000 -0.583933 0.810785 -0.040609
18.81999969 2.51999998 -0.09000000 86 41 192 0.000000 0.000000 0.000000 0.000000 51.808199 0.000000 186.000000 -0.640064 0.767229 -0.040975
18.84000015 2.51999998 -0.14000000 86 41 192 0.000000 0.000000 0.000000 0.000000 51.808199 0.000000 186.000000 -0.283579 0.955956 -0.075707
18.81999969 2.49000001 -0.25000000 86 41 192 0.000000 0.000000 0.000000 0.000000 51.808199 0.000000 186.000000 -0.163028 0.984120 -0.070209
18.34000015 2.25000000 -0.06000000 86 41 192 0.000000 0.000000 0.000000 0.000000 51.808199 0.000000 186.000000 0.902743 -0.427897 0.044265
18.37999916 2.25000000 -0.10000000 86 41 192 0.000000 0.000000 0.000000 0.000000 51.808199 0.000000 186.000000 0.827081 -0.502432 0.251989
18.37000084 2.21000004 -0.20999999 86 41 192 0.000000 0.000000 0.000000 0.000000 51.808199 0.000000 186.000000 0.910342 -0.345901 0.227224
18.37000084 2.18000007 -0.30000001 86 41 192 0.000000 0.000000 0.000000 0.000000 51.808199 0.000000 186.000000 0.904955 -0.423738 0.038765
18.36000061 2.17000008 -0.20000000 86 41 192 0.000000 0.000000 0.000000 0.000000 51.808199 0.000000 186.000000 0.850932 -0.480437 -0.212356
18.35000038 2.14000010 -0.31999999 86 41 192 0.000000 0.000000 0.000000 0.000000 51.808199 0.000000 186.000000 -0.705556 0.696568 -0.130326
19.14999962 2.59999990 -0.43000001 86 41 192 0.000000 0.000000 0.000000 0.000000 51.808199 0.000000 186.000000 0.162056 0.978521 0.127418
19.07999992 2.65000010 -0.44999999 86 41 192 0.000000 0.000000 0.000000 0.000000 51.808199 0.000000 186.000000 -0.545242 0.831603 -0.105577
19.04000092 2.56999993 -0.44000000 86 41 192 0.000000 0.000000 0.000000 0.000000 51.808199 0.000000 186.000000 -0.096564 0.923480 -0.371296
19.05999947 2.57999992 -0.51999998 86 41 192 0.000000 0.000000 0.000000 0.000000 51.808199 0.000000 186.000000 0.138097 0.966682 -0.215535
19.07999992 2.55999994 -0.66000003 86 41 192 0.000000 0.000000 0.000000 0.000000 51.808199 0.000000 186.000000 0.550938 -0.819689 0.156771
19.05999947 2.54999995 -0.67000002 86 41 192 0.000000 0.000000 0.000000 0.000000 51.808199 0.000000 186.000000 -0.500875 0.865392 0.014851
19.03000069 2.50999999 -0.38999999 86 41 192 0.000000 0.000000 0.000000 0.000000 51.808199 0.000000 186.000000 -0.498031 0.859714 0.113385
19.01000023 2.56999993 -0.36000001 86 41 192 0.000000 0.000000 0.000000 0.000000 51.808199 0.000000 186.000000 -0.489288 0.865883 0.104134
18.96999931 2.61999989 -0.56999999 86 41 192 0.000000 0.000000 0.000000 0.000000 51.808199 0.000000 186.000000 -0.165665 0.985991 -0.019423
18.98999977 2.55999994 -0.56000000 86 41 192 0.000000 0.000000 0.000000 0.000000 51.808199 0.000000 186.000000 -0.490445 0.826751 0.275584
18.95999908 2.59999990 -0.57999998 86 41 192 0.000000 0.000000 0.000000 0.000000 51.808199 0.000000 186.000000 -0.503812 0.807047 0.307973
19.01000023 2.54999995 -0.63999999 86 41 192 0.000000 0.000000 0.000000 0.000000 51.808199 0.000000 186.000000 -0.209693 0.961421 -0.178041
18.87000084 2.51999998 -0.52999997 86 41 192 0.000000 0.000000 0.000000 0.000000 51.808199 0.000000 186.000000 -0.437102 0.899295 -0.014526
18.94000053 2.43000007 -0.34000000 86 41 192 0.000000 0.000000 0.000000 0.000000 51.808199 0.000000 186.000000 -0.108262 0.981660 0.156920
18.96999931 2.45000005 -0.34000000 86 41 192 0.000000 0.000000 0.000000 0.000000 51.808199 0.000000 186.000000 -0.073251 0.995989 0.051385
19.01000023 2.46000004 -0.41000000 86 41 192 0.000000 0.000000 0.000000 0.000000 51.808199 0.000000 186.000000 -0.289614 0.938128 0.189843
19.01000023 2.50999999 -0.47000000 86 41 192 0.000000 0.000000 0.000000 0.000000 51.808199 0.000000 186.000000 -0.341366 0.936432 -0.081025
18.95000076 2.46000004 -0.43000001 86 41 192 0.000000 0.000000 0.000000 0.000000 51.808199 0.000000 186.000000 -0.674900 0.714871 -0.182946
18.89999962 2.45000005 -0.34999999 86 41 192 0.000000 0.000000 0.000000 0.000000 51.808199 0.000000 186.000000 0.741741 -0.666260 -0.076932
18.89999962 2.49000001 -0.38999999 86 41 192 0.000000 0.000000 0.000000 0.000000 51.808199 0.000000 186.000000 -0.598247 0.789209 0.138746
18.93000031 2.44000006 -0.40000001 86 41 192 0.000000 0.000000 0.000000 0.000000 51.808199 0.000000 186.000000 -0.597580 0.750561 -0.282058
18.87000084 2.47000003 -0.34999999 86 41 192 0.000000 0.000000 0.000000 0.000000 51.808199 0.000000 186.000000 -0.329039 0.908148 -0.258844
18.87000084 2.46000004 -0.37000000 86 41 192 0.000000 0.000000 0.000000 0.000000 51.808199 0.000000 186.000000 -0.326078 0.937642 0.120419
18.89999962 2.49000001 -0.37000000 86 41 192 0.000000 0.000000 0.000000 0.000000 51.808199 0.000000 186.000000 -0.152730 0.981136 -0.118518
18.87999916 2.43000007 -0.43000001 86 41 192 0.000000 0.000000 0.000000 0.000000 51.808199 0.000000 186.000000 -0.115168 0.986647 0.115168
19.14999962 2.66000009 -0.72000003 86 41 192 0.000000 0.000000 0.000000 0.000000 51.808199 0.000000 186.000000 -0.123483 0.991259 -0.046448
19.06999969 2.54999995 -0.69000000 86 41 192 0.000000 0.000000 0.000000 0.000000 51.808199 0.000000 186.000000 -0.220708 0.956400 -0.191280
19.02000046 2.44000006 -0.80000001 86 41 192 0.000000 0.000000 0.000000 0.000000 51.808199 0.000000 186.000000 -0.157789 0.977795 0.137910
18.96999931 2.52999997 -0.77999997 86 41 192 0.000000 0.000000 0.000000 0.000000 51.808199 0.000000 186.000000 -0.607653 0.794201 0.001372
18.97999954 2.53999996 -0.76999998 86 41 192 0.000000 0.000000 0.000000 0.000000 51.808199 0.000000 186.000000 0.041894 0.977931 -0.204683
18.97999954 2.54999995 -0.81000000 86 41 192 0.000000 0.000000 0.000000 0.000000 51.808199 0.000000 186.000000 -0.073028 0.957048 0.280580
18.97999954 2.52999997 -0.77999997 86 41 192 0.000000 0.000000 0.000000 0.000000 51.808199 0.000000 186.000000 -0.157914 0.937873 -0.308962
18.96999931 2.51999998 -0.83999997 86 41 192 0.000000 0.000000 0.000000 0.000000 51.808199 0.000000 186.000000 0.010458 0.979532 -0.201019
18.96999931 2.60999990 -0.98000002 86 41 192 0.000000 0.000000 0.000000 0.000000 51.808199 0.000000 186.000000 -0.267006 0.957314 0.110710
19.01000023 2.58999991 -0.86000001 86 41 192 0.000000 0.000000 0.000000 0.000000 51.808199 0.000000 186.000000 -0.516157 0.840429 0.165111
19.01000023 2.57999992 -0.92000002 86 41 192 0.000000 0.000000 0.000000 0.000000 51.808199 0.000000 186.000000 -0.320680 0.853597 -0.410532
19.01000023 2.52999997 -0.87000000 86 41 192 0.000000 0.000000 0.000000 0.000000 51.808199 0.000000 186.000000 -0.338418 0.893005 0.296674
18.95000076 2.55999994 -0.88999999 86 41 192 0.000000 0.000000 0.000000 0.000000 51.808199 0.000000 186.000000 -0.399209 0.885976 0.235963
18.95000076 2.54999995 -0.86000001 86 41 192 0.000000 0.000000 0.000000 0.000000 51.808199 0.000000 186.000000 -0.227662 0.879399 -0.418124
19.01000023 2.57999992 -0.99000001 86 41 192 0.000000 0.000000 0.000000 0.000000 51.808199 0.000000 186.000000 -0.025409 0.993180 -0.113790
18.85000038 2.46000004 -0.74000001 86 41 192 0.000000 0.000000 0.000000 0.000000 51.808199 0.000000 186.000000 -0.247509 0.941640 0.228151
18.95000076 2.46000004 -0.91000003 86 41 192 0.000000 0.000000 0.000000 0.000000 51.808199 0.000000 186.000000 0.015587 0.998581 -0.050916
18.95999908 2.46000004 -0.86000001 86 41 192 0.000000 0.000000 0.000000 0.000000 51.808199 0.000000 186.000000 -0.182958 0.931547 -0.314240
18.98999977 2.46000004 -0.88000000 86 41 192 0.000000 0.000000 0.000000 0.000000 51.808199 0.000000 186.000000 0.018335 0.961960 0.272576
19.00000000 2.49000001 -0.87000000 86 41 192 0.000000 0.000000 0.000000 0.000000 51.808199 0.000000 186.000000 -0.016077 0.955949 -0.293092
19.01000023 2.50999999 -1.00000000 86 41 192 0.000000 0.000000 0.000000 0.000000 51.808199 0.000000 186.000000 -0.033405 0.961313 0.273424
18.86000061 2.49000001 -0.98000002 86 41 192 0.000000 0.000000 0.000000 0.000000 51.808199 0.000000 186.000000 -0.462576 0.874399 -0.146458
18.93000031 2.41000009 -0.85000002 86 41 192 0.000000 0.000000 0.000000 0.000000 51.808199 0.000000 186.000000 -0.376993 0.919863 -0.108300
18.86000061 2.41000009 -0.86000001 86 41 192 0.000000 0.000000 0.000000 0.000000 51.808199 0.000000 186.000000 -0.189495 0.947473 0.257658
18.87000084 2.41000009 -0.85000002 86 41 192 0.000000 0.000000 0.000000 0.000000 51.808199 0.000000 186.000000 -0.635886 0.768542 -0.070654
18.87000084 2.39000010 -0.95999998 86 41 192 0.000000 0.000000 0.000000 0.000000 51.808199 0.000000 186.000000 -0.489492 0.836280 -0.247048
19.03000069 2.70000005 -1.09000003 86 41 192 0.000000 0.000000 0.000000 0.000000 51.808199 0.000000 186.000000 -0.378329 0.851629 -0.362760
19.03000069 2.51999998 -1.13999999 86 41 192 0.000000 0.000000 0.000000 0.000000 51.808199 0.000000 186.000000 -0.019205 0.999668 -0.017183
19.04000092 2.50000000 -1.16999996 86 41 192 0.000000 0.000000 0.000000 0.000000 51.808199 0.000000 186.000000 0.227120 0.964285 -0.136272
19.07999992 2.50999999 -1.12000000 86 41 192 0.000000 0.000000 0.000000 0.000000 51.808199 0.000000 186.000000 0.206381 0.907790 -0.365136
19.04000092 2.50000000 -1.20000005 86 41 192 0.000000 0.000000 0.000000 0.000000 51.808199 0.000000 186.000000 0.174065 0.918439 -0.355205
19.06999969 2.49000001 -1.22000003 86 41 192 0.000000 0.000000 0.000000 0.000000 51.808199 0.000000 186.000000 -0.167354 0.945619 0.278923
19.03000069 2.45000005 -1.32000005 86 41 192 0.000000 0.000000 0.000000 0.000000 51.808199 0.000000 186.000000 -0.031172 0.956360 -0.290524
18.86000061 2.51999998 -1.03999996 86 41 192 0.000000 0.000000 0.000000 0.000000 51.808199 0.000000 186.000000 0.035156 0.971022 -0.236391
18.98999977 2.49000001 -1.02999997 86 41 192 0.000000 0.000000 0.000000 0.000000 51.808199 0.000000 186.000000 -0.356749 0.933730 0.029622
18.97999954 2.50999999 -1.09000003 86 41 192 0.000000 0.000000 0.000000 0.000000 51.808199 0.000000 186.000000 0.010059 0.989171 -0.146420
19.01000023 2.46000004 -1.16999996 86 41 192 0.000000 0.000000 0.000000 0.000000 51.808199 0.000000 186.000000 -0.034270 0.948126 0.316042
18.97999954 2.50000000 -1.11000001 86 41 192 0.000000 0.000000 0.000000 0.000000 51.808199 0.000000 186.000000 -0.575700 0.817521 -0.015114
18.95000076 2.41000009 -1.16999996 86 41 192 0.000000 0.000000 0.000000 0.000000 51.808199 0.000000 186.000000 0.041673 0.999131 -0.001016
18.85000038 2.48000002 -1.08000004 86 41 192 0.000000 0.000000 0.000000 0.000000 51.808199 0.000000 186.000000 -0.647141 0.760924 -0.046936
18.87999916 2.50000000 -1.02999997 86 41 192 0.000000 0.000000 0.000000 0.000000 51.808199 0.000000 186.000000 -0.622628 0.760310 -0.185106
18.87999916 2.47000003 -1.01999998 86 41 192 0.000000 0.000000 0.000000 0.000000 51.808199 0.000000 186.000000 -0.206908 0.930382 0.302620
18.87999916 2.49000001 -1.12000000 86 41 192 0.000000 0.000000 0.000000 0.000000 51.808199 0.000000 186.000000 -0.566128 0.802900 0.186686
18.92000008 2.49000001 -1.13000000 86 41 192 0.000000 0.000000 0.000000 0.000000 51.808199 0.000000 186.000000 -0.321942 0.897580 -0.301171
18.87999916 2.40000010 -1.03999996 86 41 192 0.000000 0.000000 0.000000 0.000000 51.808199 0.000000 186.000000 -0.170047 0.983419 0.063024
18.87000084 2.40000010 -1.05999994 86 41 192 0.000000 0.000000 0.000000 0.000000 51.808199 0.000000 186.000000 -0.380472 0.917284 -0.117601
18.88999939 2.40000010 -1.03999996 86 41 192 0.000000 0.000000 0.000000 0.000000 51.808199 0.000000 186.000000 -0.296513 0.954595 -0.028775
18.95000076 2.50000000 -1.21000004 86 41 192 0.000000 0.000000 0.000000 0.000000 51.808199 0.000000 186.000000 -0.372487 0.882206 0.288037
18.95000076 2.47000003 -1.25999999 86 41 192 0.000000 0.000000 0.000000 0.000000 51.808199 0.000000 186.000000 -0.383312 0.868943 -0.313064
18.97999954 2.47000003 -1.36000001 86 41 192 0.000000 0.000000 0.000000 0.000000 51.808199 0.000000 186.000000 -0.209841 0.944972 -0.250987
18.94000053 2.41000009 -1.24000001 86 41 192 0.000000 0.000000 0.000000 0.000000 51.808199 0.000000 186.000000 -0.054456 0.994649 -0.087796
18.94000053 2.40000010 -1.24000001 86 41 192 0.000000 0.000000 0.000000 0.000000 51.808199 0.000000 186.000000 0.014185 0.994047 -0.108025
18.95999908 2.41000009 -1.35000002 86 41 192 0.000000 0.000000 0.000000 0.000000 51.808199 0.000000 186.000000 -0.205093 0.978585 -0.017579
18.95999908 2.41000009 -1.32000005 86 41 192 0.000000 0.000000 0.000000 0.000000 51.808199 0.000000 186.000000 0.022792 0.995271 -0.094426
18.92000008 2.45000005 -1.30999994 86 41 192 0.000000 0.000000 0.000000 0.000000 51.808199 0.000000 186.000000 -0.327118 0.934818 0.138238
18.87000084 2.43000007 -1.32000005 86 41 192 0.000000 0.000000 0.000000 0.000000 51.808199 0.000000 186.000000 -0.061319 0.997236 -0.041955
18.88999939 2.39000010 -1.25000000 86 41 192 0.000000 0.000000 0.000000 0.000000 51.808199 0.000000 186.000000 -0.185144 0.887816 -0.421312
18.96999931 2.46000004 -1.37000000 86 41 192 0.000000 0.000000 0.000000 0.000000 51.808199 0.000000 186.000000 0.032675 0.971791 -0.233569
18.95000076 2.39000010 -1.40999997 86 41 192 0.000000 0.000000 0.000000 0.000000 51.808199 0.000000 186.000000 -0.346435 0.929761 -0.124607
18.95999908 2.42000008 -1.38000000 86 41 192 0.000000 0.000000 0.000000 0.000000 51.808199 0.000000 186.000000 -0.264009 0.918983 -0.292863
18.92000008 2.46000004 -1.38999999 86 41 192 0.000000 0.000000 0.000000 0.000000 51.808199 0.000000 186.000000 -0.096853 0.920782 0.377862
18.92000008 2.46000004 -1.44000006 86 41 192 0.000000 0.000000 0.000000 0.000000 51.808199 0.000000 186.000000 0.048115 0.997577 -0.050253
18.93000031 2.47000003 -1.39999998 86 41 192 0.000000 0.000000 0.000000 0.000000 51.808199 0.000000 186.000000 0.144910 0.943946 -0.296591
18.88999939 2.47000003 -1.42999995 86 41 192 0.000000 0.000000 0.000000 0.000000 51.808199 0.000000 186.000000 0.354891 -0.842670 0.404919
18.90999985 2.46000004 -1.44000006 86 41 192 0.000000 0.000000 0.000000 0.000000 51.808199 0.000000 186.000000 -0.316068 0.942869 -0.105356
18.86000061 2.41000009 -1.47000003 86 41 192 0.000000 0.000000 0.000000 0.000000 51.808199 0.000000 186.000000 -0.192342 0.964327 -0.181874
18.97999954 2.45000005 -1.54999995 86 41 192 0.000000 0.000000 0.000000 0.000000 51.808199 0.000000 186.000000 0.223291 0.974033 -0.037416
18.94000053 2.41000009 -1.57000005 86 41 192 0.000000 0.000000 0.000000 0.000000 51.808199 0.000000 186.000000 0.033220 0.907575 -0.418574
18.82999992 2.43000007 -0.51999998 86 41 192 0.000000 0.000000 0.000000 0.000000 51.808199 0.000000 186.000000 -0.427419 0.885473 0.182346
18.82999992 2.43000007 -0.50999999 86 41 192 0.000000 0.000000 0.000000 0.000000 51.808199 0.000000 186.000000 -0.101969 0.994468 0.025218
18.84000015 2.43000007 -0.63000000 86 41 192 0.000000 0.000000 0.000000 0.000000 51.808199 0.000000 186.000000 -0.118737 0.991734 -0.048626
18.81999969 2.46000004 -0.58999997 86 41 192 0.000000 0.000000 0.000000 0.000000 51.808199 0.000000 186.000000 -0.636319 0.768466 0.067510
18.81999969 2.46000004 -0.63999999 86 41 192 0.000000 0.000000 0.000000 0.000000 51.808199 0.000000 186.000000 -0.499116 0.838940 -0.216941
18.82999992 2.45000005 -0.81000000 86 41 192 0.000000 0.000000 0.000000 0.000000 51.808199 0.000000 186.000000 -0.328862 0.887476 -0.322855
18.84000015 2.44000006 -0.70999998 86 41 192 0.000000 0.000000 0.000000 0.000000 51.808199 0.000000 186.000000 -0.589568 0.800232 0.109721
18.80999947 2.44000006 -0.81000000 86 41 192 0.000000 0.000000 0.000000 0.000000 51.808199 0.000000 186.000000 -0.224303 0.973595 0.042436
18.79999924 2.44000006 -0.88999999 86 41 192 0.000000 0.000000 0.000000 0.000000 51.808199 0.000000 186.000000 -0.358104 0.873164 0.330675
18.82999992 2.45000005 -0.91000003 86 41 192 0.000000 0.000000 0.000000 0.000000 51.808199 0.000000 186.000000 0.679502 -0.713095 -0.172548
18.79000092 2.50000000 -0.97000003 86 41 192 0.000000 0.000000 0.000000 0.000000 51.808199 0.000000 186.000000 -0.096351 0.990210 -0.100994
18.81999969 2.45000005 -0.97000003 86 41 192 0.000000 0.000000 0.000000 0.000000 51.808199 0.000000 186.000000 -0.147297 0.986302 -0.074238
18.78000069 2.42000008 -0.99000001 86 41 192 0.000000 0.000000 0.000000 0.000000 51.808199 0.000000 186.000000 -0.271531 0.913331 0.303476
18.81999969 2.43000007 -1.09000003 86 41 192 0.000000 0.000000 0.000000 0.000000 51.808199 0.000000 186.000000 0.025117 0.999672 -0.005023
18.79000092 2.48000002 -1.03999996 86 41 192 0.000000 0.000000 0.000000 0.000000 51.808199 0.000000 186.000000 -0.455094 0.876747 -0.155575
18.81999969 2.45000005 -1.17999995 86 41 192 0.000000 0.000000 0.000000 0.000000 51.808199 0.000000 186.000000 -0.174507 0.979925 0.096406
18.80999947 2.44000006 -1.11000001 86 41 192 0.000000 0.000000 0.000000 0.000000 51.808199 0.000000 186.000000 -0.524156 0.850543 -0.042873
18.79999924 2.48000002 -1.25999999 86 41 192 0.000000 0.000000 0.000000 0.000000 51.808199 0.000000 186.000000 -0.541003 0.798175 -0.265013
18.82999992 2.42000008 -1.30999994 86 41 192 0.000000 0.000000 0.000000 0.000000 51.808199 0.000000 186.000000 -0.583227 0.771872 -0.253099
18.72999954 2.43000007 -1.36000001 86 41 192 0.000000 0.000000 0.000000 0.000000 51.808199 0.000000 186.000000 -0.055309 0.984979 0.163575
18.73999977 2.42000008 -1.29999995 86 41 192 0.000000 0.000000 0.000000 0.000000 51.808199 0.000000 186.000000 -0.225538 0.963427 0.144710
18.61000061 2.44000006 -1.16999996 86 41 192 0.000000 0.000000 0.000000 0.000000 51.808199 0.000000 186.000000 -0.402313 0.896126 -0.187359
18.64999962 2.43000007 -1.32000005 86 41 192 0.000000 0.000000 0.000000 0.000000 51.808199 0.000000 186.000000 -0.208364 0.912489 0.352063
18.62000084 2.38000011 -1.29999995 86 41 192 0.000000 0.000000 0.000000 0.000000 51.808199 0.000000 186.000000 0.550839 -0.716256 -0.428431
18.63999939 2.38000011 -1.29999995 86 41 192 0.000000 0.000000 0.000000 0.000000 51.808199 0.000000 186.000000 -0.401770 0.851628 0.336618
18.65999985 2.40000010 -1.36000001 86 41 192 0.000000 0.000000 0.000000 0.000000 51.808199 0.000000 186.000000 0.751819 -0.643773 -0.142561
18.69000053 2.45000005 -1.44000006 86 41 192 0.000000 0.000000 0.000000 0.000000 51.808199 0.000000 186.000000 -0.214081 0.967851 0.132038
18.69000053 2.45000005 -1.51999998 86 41 192 0.000000 0.000000 0.000000 0.000000 51.808199 0.000000 186.000000 -0.602279 0.796927 0.046546
18.68000031 2.42000008 -1.50000000 86 41 192 0.000000 0.000000 0.000000 0.000000 51.808199 0.000000 186.000000 -0.230389 0.972887 0.020293
18.76000023 2.38000011 -1.70000005 86 41 192 0.000000 0.000000 0.000000 0.000000 51.808199 0.000000 186.000000 -0.223706 0.955106 0.194236
18.62999916 2.41000009 -1.38000000 86 41 192 0.000000 0.000000 0.000000 0.000000 51.808199 0.000000 186.000000 -0.444588 0.895734 0.001311
18.64999962 2.42000008 -1.39999998 86 41 192 0.000000 0.000000 0.000000 0.000000 51.808199 0.000000 186.000000 -0.631351 0.748668 0.202218
18.65999985 2.41000009 -1.53999996 86 41 192 0.000000 0.000000 0.000000 0.000000 51.808199 0.000000 186.000000 -0.620171 0.743258 -0.250909
18.95999908 2.46000004 -1.75999999 86 41 192 0.000000 0.000000 0.000000 0.000000 51.808199 0.000000 186.000000 -0.112382 0.971032 0.210874
18.96999931 2.40000010 -1.71000004 86 41 192 0.000000 0.000000 0.000000 0.000000 51.808199 0.000000 186.000000 -0.045913 0.983001 0.177764
18.90999985 2.39000010 -1.72000003 86 41 192 0.000000 0.000000 0.000000 0.000000 51.808199 0.000000 186.000000 -0.166817 0.982897 0.078008
18.78000069 2.42000008 -1.72000003 86 41 192 0.000000 0.000000 0.000000 0.000000 51.808199 0.000000 186.000000 0.026213 0.988098 -0.151577
18.88999939 2.19000006 -0.93000001 86 41 192 0.000000 0.000000 0.000000 0.000000 51.808199 0.000000 241.000000 0.666814 -0.707607 -0.233777
18.93000031 2.23000002 -1.03999996 86 41 192 0.000000 0.000000 0.000000 0.000000 51.808199 0.000000 241.000000 -0.326179 0.888350 0.323173
18.90999985 2.27999997 -1.37000000 86 41 192 0.000000 0.000000 0.000000 0.000000 51.808199 0.000000 186.000000 -0.109830 0.978602 0.174001
18.93000031 2.27999997 -1.44000006 86 41 192 0.000000 0.000000 0.000000 0.000000 51.808199 0.000000 186.000000 -0.389866 0.920189 0.035442
18.90999985 2.27999997 -1.38999999 86 41 192 0.000000 0.000000 0.000000 0.000000 51.808199 0.000000 186.000000 -0.157488 0.948964 0.273248
18.54000092 2.33999991 -0.92000002 86 41 192 0.000000 0.000000 0.000000 0.000000 51.808199 0.000000 186.000000 0.674267 -0.621254 -0.399259
18.52000046 2.26999998 -0.91000003 86 41 192 0.000000 0.000000 0.000000 0.000000 51.808199 0.000000 186.000000 -0.448281 0.842272 0.299371
18.54999924 2.32999992 -1.00999999 86 41 192 0.000000 0.000000 0.000000 0.000000 51.808199 0.000000 186.000000 -0.325029 0.914416 0.241244
18.44000053 2.18000007 -0.62000000 86 41 192 0.000000 0.000000 0.000000 0.000000 51.808199 0.000000 186.000000 0.983577 -0.179147 -0.021960
18.42000008 2.15000010 -0.46000001 86 41 192 0.000000 0.000000 0.000000 0.000000 51.808199 0.000000 186.000000 0.705197 -0.686841 -0.175917
18.37999916 2.13000011 -0.34999999 86 41 192 0.000000 0.000000 0.000000 0.000000 51.808199 0.000000 186.000000 0.943051 -0.249915 0.219539
18.38999939 2.13000011 -0.38999999 86 41 192 0.000000 0.000000 0.000000 0.000000 51.808199 0.000000 186.000000 0.754260 -0.654453 -0.052755
18.38999939 2.13000011 -0.43000001 86 41 192 0.000000 0.000000 0.000000 0.000000 51.808199 0.000000 186.000000 0.961370 -0.243270 0.128790
18.43000031 2.16000009 -0.54000002 86 41 192 0.000000 0.000000 0.000000 0.000000 51.808199 0.000000 186.000000 0.792638 -0.598522 -0.116175
18.43000031 2.16000009 -0.54000002 86 41 192 0.000000 0.000000 0.000000 0.000000 51.808199 0.000000 186.000000 0.792638 -0.598522 -0.116175
18.46999931 2.29999995 -0.81000000 86 41 192 0.000000 0.000000 0.000000 0.000000 51.808199 0.000000 186.000000 0.914496 -0.371735 -0.159719
18.45999908 2.28999996 -0.82999998 86 41 192 0.000000 0.000000 0.000000 0.000000 51.808199 0.000000 186.000000 0.750644 -0.587391 -0.302498
18.45999908 2.29999995 -0.83999997 86 41 192 0.000000 0.000000 0.000000 0.000000 51.808199 0.000000 186.000000 0.672069 -0.728948 0.130223
18.44000053 2.23000002 -0.68000001 86 41 192 0.000000 0.000000 0.000000 0.000000 51.808199 0.000000 186.000000 0.881132 -0.472179 0.025560
18.50000000 2.24000001 -0.81999999 86 41 192 0.000000 0.000000 0.000000 0.000000 51.808199 0.000000 186.000000 0.711797 -0.668186 -0.216499
18.47999954 2.24000001 -0.86000001 86 41 192 0.000000 0.000000 0.000000 0.000000 51.808199 0.000000 186.000000 0.700002 -0.705922 -0.108034
18.45999908 2.25999999 -0.87000000 86 41 192 0.000000 0.000000 0.000000 0.000000 51.808199 0.000000 186.000000 -0.427288 0.902053 0.061041
18.57999992 2.31999993 -1.07000005 86 41 192 0.000000 0.000000 0.000000 0.000000 51.808199 0.000000 186.000000 0.863661 -0.496145 0.089052
18.57999992 2.31999993 -1.05999994 86 41 192 0.000000 0.000000 0.000000 0.000000 51.808199 0.000000 186.000000 -0.630732 0.729234 -0.265320
18.54999924 2.33999991 -1.03999996 86 41 192 0.000000 0.000000 0.000000 0.000000 51.808199 0.000000 186.000000 -0.326553 0.916363 0.231608
18.57999992 2.31999993 -1.11000001 86 41 192 0.000000 0.000000 0.000000 0.000000 51.808199 0.000000 186.000000 -0.488782 0.845911 -0.213369
18.94000053 2.33999991 -1.82000005 86 41 192 0.000000 0.000000 0.000000 0.000000 51.808199 0.000000 186.000000 0.009026 0.919374 -0.393281
19.05999947 2.59999990 0.03000000 86 41 192 0.000000 0.000000 0.000000 0.000000 51.808199 0.000000 186.000000 -0.081405 0.954896 0.285564
18.87999916 2.56999993 0.06000000 86 41 192 0.000000 0.000000 0.000000 0.000000 51.808199 0.000000 186.000000 -0.576880 0.789172 0.210754
19.07999992 2.60999990 -0.01000000 86 41 192 0.000000 0.000000 0.000000 0.000000 51.808199 0.000000 186.000000 -0.364873 0.892078 -0.266581
19.03000069 2.58999991 -0.27000001 86 41 192 0.000000 0.000000 0.000000 0.000000 51.808199 0.000000 186.000000 -0.462553 0.886225 0.025474
18.97999954 2.63000011 -0.03000000 86 41 192 0.000000 0.000000 0.000000 0.000000 51.808199 0.000000 186.000000 -0.065013 0.984656 0.161942
18.94000053 2.52999997 -0.28000000 86 41 192 0.000000 0.000000 0.000000 0.000000 51.808199 0.000000 186.000000 -0.445631 0.859323 -0.250953
18.92000008 2.55999994 -0.19000000 86 41 192 0.000000 0.000000 0.000000 0.000000 51.808199 0.000000 186.000000 -0.187691 0.979626 0.071444
18.79000092 2.65000010 0.28000000 86 41 192 0.000000 0.000000 0.000000 0.000000 51.808199 0.000000 186.000000 -0.640356 0.640356 0.424132
18.79999924 2.58999991 0.11000000 86 41 192 0.000000 0.000000 0.000000 0.000000 51.808199 0.000000 186.000000 -0.568080 0.811331 0.137941
18.79999924 2.58999991 0.13000000 86 41 192 0.000000 0.000000 0.000000 0.000000 51.808199 0.000000 186.000000 -0.557043 0.779225 0.287250
18.80999947 2.48000002 0.22000000 86 41 192 0.000000 0.000000 0.000000 0.000000 51.808199 0.000000 186.000000 -0.312151 0.946902 0.077058
18.80999947 2.50999999 -0.15000001 86 41 192 0.000000 0.000000 0.000000 0.000000 51.808199 0.000000 186.000000 -0.359339 0.922627 -0.140128
18.79999924 2.50000000 -0.01000000 86 41 192 0.000000 0.000000 0.000000 0.000000 51.808199 0.000000 186.000000 -0.439058 0.888127 0.135865
18.35000038 2.23000002 -0.23999999 86 41 192 0.000000 0.000000 0.000000 0.000000 51.808199 0.000000 186.000000 0.782549 -0.610950 -0.119823
18.36000061 2.11999989 -0.28000000 86 41 192 0.000000 0.000000 0.000000 0.000000 51.808199 0.000000 186.000000 0.752747 -0.658132 -0.015305
18.39999962 2.10999990 -0.19000000 86 41 192 0.000000 0.000000 0.000000 0.000000 51.808199 0.000000 186.000000 0.979733 -0.195947 -0.041564
19.14999962 2.67000008 -0.43000001 86 41 192 0.000000 0.000000 0.000000 0.000000 51.808199 0.000000 186.000000 0.119285 0.980105 0.158637
19.10000038 2.63000011 -0.38000000 86 41 192 0.000000 0.000000 0.000000 0.000000 51.808199 0.000000 186.000000 -0.146109 0.988250 -0.044868
18.98999977 2.54999995 -0.51999998 86 41 192 0.000000 0.000000 0.000000 0.000000 51.808199 0.000000 186.000000 0.086295 0.994073 -0.066122
18.87000084 2.46000004 -0.38000000 86 41 192 0.000000 0.000000 0.000000 0.000000 51.808199 0.000000 186.000000 -0.452939 0.891180 0.025386
18.94000053 2.45000005 -0.44000000 86 41 192 0.000000 0.000000 0.000000 0.000000 51.808199 0.000000 186.000000 -0.001069 0.995047 0.099398
19.07999992 2.55999994 -0.85000002 86 41 192 0.000000 0.000000 0.000000 0.000000 51.808199 0.000000 186.000000 -0.440771 0.871082 -0.216650
19.00000000 2.52999997 -0.74000001 86 41 192 0.000000 0.000000 0.000000 0.000000 51.808199 0.000000 186.000000 -0.475690 0.865024 0.159539
18.97999954 2.55999994 -0.88000000 86 41 192 0.000000 0.000000 0.000000 0.000000 51.808199 0.000000 186.000000 -0.072557 0.937969 -0.339041
18.98999977 2.54999995 -0.88000000 86 41 192 0.000000 0.000000 0.000000 0.000000 51.808199 0.000000 186.000000 -0.150252 0.988502 0.016946
18.96999931 2.52999997 -0.95999998 86 41 192 0.000000 0.000000 0.000000 0.000000 51.808199 0.000000 186.000000 0.073032 0.982939 0.168812
18.88999939 2.49000001 -0.75000000 86 41 192 0.000000 0.000000 0.000000 0.000000 51.808199 0.000000 186.000000 -0.172661 0.977584 0.120490
18.89999962 2.43000007 -0.69999999 86 41 192 0.000000 0.000000 0.000000 0.000000 51.808199 0.000000 186.000000 -0.627307 0.760970 0.165560
18.89999962 2.43000007 -0.76999998 86 41 192 0.000000 0.000000 0.000000 0.000000 51.808199 0.000000 186.000000 -0.609410 0.792650 0.018046
18.92000008 2.48000002 -0.87000000 86 41 192 0.000000 0.000000 0.000000 0.000000 51.808199 0.000000 186.000000 0.025714 0.991655 0.126333
18.87000084 2.47000003 -0.89999998 86 41 192 0.000000 0.000000 0.000000 0.000000 51.808199 0.000000 186.000000 -0.075443 0.983159 0.166454
18.85000038 2.47000003 -0.89999998 86 41 192 0.000000 0.000000 0.000000 0.000000 51.808199 0.000000 186.000000 -0.575396 0.809655 0.115665
18.87000084 2.40000010 -0.94000000 86 41 192 0.000000 0.000000 0.000000 0.000000 51.808199 0.000000 186.000000 -0.502800 0.858054 0.104571
19.02000046 2.69000006 -1.10000002 86 41 192 0.000000 0.000000 0.000000 0.000000 51.808199 0.000000 186.000000 -0.384469 0.922984 0.016829
19.02000046 2.51999998 -1.03999996 86 41 192 0.000000 0.000000 0.000000 0.000000 51.808199 0.000000 186.000000 -0.401263 0.879173 0.256989
19.05999947 2.50000000 -1.15999997 86 41 192 0.000000 0.000000 0.000000 0.000000 51.808199 0.000000 186.000000 0.181194 0.975949 0.121213
19.03000069 2.46000004 -1.13000000 86 41 192 0.000000 0.000000 0.000000 0.000000 51.808199 0.000000 186.000000 -0.445735 0.884304 -0.139023
18.90999985 2.49000001 -1.11000001 86 41 192 0.000000 0.000000 0.000000 0.000000 51.808199 0.000000 186.000000 -0.018517 0.994460 -0.103476
18.97999954 2.41000009 -1.13999999 86 41 192 0.000000 0.000000 0.000000 0.000000 51.808199 0.000000 186.000000 0.215540 0.976409 0.012956
18.90999985 2.50000000 -1.09000003 86 41 192 0.000000 0.000000 0.000000 0.000000 51.808199 0.000000 186.000000 -0.093451 0.946358 -0.309310
18.96999931 2.43000007 -1.10000002 86 41 192 0.000000 0.000000 0.000000 0.000000 51.808199 0.000000 186.000000 -0.155983 0.945390 -0.286194
18.87000084 2.40000010 -1.03999996 86 41 192 0.000000 0.000000 0.000000 0.000000 51.808199 0.000000 186.000000 -0.235897 0.888694 0.393162
18.89999962 2.48000002 -1.16999996 86 41 192 0.000000 0.000000 0.000000 0.000000 51.808199 0.000000 186.000000 -0.084435 0.977732 0.192120
19.01000023 2.48000002 -1.26999998 86 41 192 0.000000 0.000000 0.000000 0.000000 51.808199 0.000000 186.000000 -0.113058 0.986578 0.117818
18.96999931 2.40000010 -1.24000001 86 41 192 0.000000 0.000000 0.000000 0.000000 51.808199 0.000000 186.000000 0.111709 0.964296 -0.240111
18.94000053 2.40000010 -1.21000004 86 41 192 0.000000 0.000000 0.000000 0.000000 51.808199 0.000000 186.000000 -0.062388 0.927853 -0.367690
18.90999985 2.48000002 -1.24000001 86 41 192 0.000000 0.000000 0.000000 0.000000 51.808199 0.000000 186.000000 -0.233610 0.970285 0.063038
18.98999977 2.39000010 -1.50999999 86 41 192 0.000000 0.000000 0.000000 0.000000 51.808199 0.000000 186.000000 0.155693 0.901308 -0.404232
18.98999977 2.39000010 -1.50999999 86 41 192 0.000000 0.000000 0.000000 0.000000 51.808199 0.000000 186.000000 0.155693 0.901308 -0.404232
18.85000038 2.42000008 -1.44000006 86 41 192 0.000000 0.000000 0.000000 0.000000 51.808199 0.000000 186.000000 -0.045548 0.994276 -0.096650
18.88999939 2.39000010 -1.38000000 86 41 192 0.000000 0.000000 0.000000 0.000000 51.808199 0.000000 186.000000 -0.119788 0.921125 0.370378
18.93000031 2.41000009 -1.49000001 86 41 192 0.000000 0.000000 0.000000 0.000000 51.808199 0.000000 186.000000 -0.016622 0.932092 -0.361841
18.88999939 2.43000007 -1.55999994 86 41 192 0.000000 0.000000 0.000000 0.000000 51.808199 0.000000 186.000000 -0.353703 0.910965 -0.212222
18.84000015 2.49000001 -0.49000001 86 41 192 0.000000 0.000000 0.000000 0.000000 51.808199 0.000000 186.000000 0.747468 -0.664262 -0.006934
18.77000046 2.48000002 -0.33000001 86 41 192 0.000000 0.000000 0.000000 0.000000 51.808199 0.000000 186.000000 -0.601764 0.719181 0.347360
18.84000015 2.45000005 -0.40000001 86 41 192 0.000000 0.000000 0.000000 0.000000 51.808199 0.000000 186.000000 -0.208912 0.971123 0.115218
18.82999992 2.46000004 -0.63000000 86 41 192 0.000000 0.000000 0.000000 0.000000 51.808199 0.000000 186.000000 -0.613622 0.788539 -0.040908
18.84000015 2.45000005 -0.58999997 86 41 192 0.000000 0.000000 0.000000 0.000000 51.808199 0.000000 186.000000 -0.276132 0.934923 0.222868
18.79999924 2.44000006 -0.80000001 86 41 192 0.000000 0.000000 0.000000 0.000000 51.808199 0.000000 186.000000 -0.146034 0.987191 -0.064255
18.80999947 2.44000006 -0.86000001 86 41 192 0.000000 0.000000 0.000000 0.000000 51.808199 0.000000 186.000000 0.692816 -0.720809 0.020994
18.75000000 2.44000006 -1.02999997 86 41 192 0.000000 0.000000 0.000000 0.000000 51.808199 0.000000 186.000000 -0.273167 0.954106 0.122727
18.77000046 2.44000006 -1.34000003 86 41 192 0.000000 0.000000 0.000000 0.000000 51.808199 0.000000 186.000000 -0.238698 0.970543 -0.032715
18.79000092 2.45000005 -1.28999996 86 41 192 0.000000 0.000000 0.000000 0.000000 51.808199 0.000000 186.000000 0.050253 0.997577 -0.048115
18.77000046 2.44000006 -1.29999995 86 41 192 0.000000 0.000000 0.000000 0.000000 51.808199 0.000000 186.000000 -0.368427 0.890490 0.266998
18.78000069 2.40000010 -1.22000003 86 41 192 0.000000 0.000000 0.000000 0.000000 51.808199 0.000000 186.000000 -0.416209 0.896781 0.150179
18.57999992 2.43000007 -1.13999999 86 41 192 0.000000 0.000000 0.000000 0.000000 51.808199 0.000000 186.000000 0.564322 -0.743213 -0.359409
18.57999992 2.39000010 -1.10000002 86 41 192 0.000000 0.000000 0.000000 0.000000 51.808199 0.000000 186.000000 -0.718782 0.662894 0.209580
18.78000069 2.44000006 -1.42999995 86 41 192 0.000000 0.000000 0.000000 0.000000 51.808199 0.000000 186.000000 -0.563084 0.819163 0.109125
18.79000092 2.43000007 -1.37000000 86 41 192 0.000000 0.000000 0.000000 0.000000 51.808199 0.000000 186.000000 -0.450303 0.881903 -0.139551
18.77000046 2.41000009 -1.50999999 86 41 192 0.000000 0.000000 0.000000 0.000000 51.808199 0.000000 186.000000 -0.400595 0.911935 -0.088869
18.70000076 2.45000005 -1.50999999 86 41 192 0.000000 0.000000 0.000000 0.000000 51.808199 0.000000 186.000000 -0.488383 0.867765 0.092014
18.72999954 2.47000003 -1.50999999 86 41 192 0.000000 0.000000 0.000000 0.000000 51.808199 0.000000 186.000000 -0.116506 0.991998 0.048638
18.76000023 2.38000011 -1.67999995 86 41 192 0.000000 0.000000 0.000000 0.000000 51.808199 0.000000 186.000000 -0.003582 0.968355 -0.249551
18.80999947 2.42000008 -1.67999995 86 41 192 0.000000 0.000000 0.000000 0.000000 51.808199 0.000000 186.000000 -0.027397 0.975568 -0.217984
18.75000000 2.48000002 -1.63000000 86 41 192 0.000000 0.000000 0.000000 0.000000 51.808199 0.000000 186.000000 -0.658713 0.748472 -0.076729
18.63999939 2.45000005 -1.39999998 86 41 192 0.000000 0.000000 0.000000 0.000000 51.808199 0.000000 186.000000 0.749002 -0.660210 0.055853
18.75000000 2.47000003 -1.79999995 86 41 192 0.000000 0.000000 0.000000 0.000000 51.808199 0.000000 186.000000 -0.423445 0.860648 0.282806
18.75000000 2.52999997 -1.82000005 86 41 192 0.000000 0.000000 0.000000 0.000000 51.808199 0.000000 186.000000 -0.366628 0.882624 0.294208
18.71999931 2.52999997 -1.77999997 86 41 192 0.000000 0.000000 0.000000 0.000000 51.808199 0.000000 186.000000 -0.562165 0.817561 -0.124762
18.92000008 2.33999991 -1.65999997 86 41 192 0.000000 0.000000 0.000000 0.000000 51.808199 0.000000 186.000000 0.149607 0.963992 -0.219858
18.53000069 2.26999998 -0.93000001 86 41 192 0.000000 0.000000 0.000000 0.000000 51.808199 0.000000 186.000000 0.843658 -0.536374 0.023321
18.51000023 2.29999995 -0.93000001 86 41 192 0.000000 0.000000 0.000000 0.000000 51.808199 0.000000 186.000000 0.770716 -0.636921 -0.018118
18.38999939 2.11999989 -0.44000000 86 41 192 0.000000 0.000000 0.000000 0.000000 51.808199 0.000000 186.000000 0.926972 -0.367846 0.073569
18.38999939 2.11999989 -0.33000001 86 41 192 0.000000 0.000000 0.000000 0.000000 51.808199 0.000000 186.000000 0.846180 -0.457770 -0.272812
18.40999985 2.14000010 -0.43000001 86 41 192 0.000000 0.000000 0.000000 0.000000 51.808199 0.000000 186.000000 0.748467 -0.634737 0.192112
18.48999977 2.15000010 -0.54000002 86 41 192 0.000000 0.000000 0.000000 0.000000 51.808199 0.000000 186.000000 0.814406 -0.479155 -0.327344
18.44000053 2.21000004 -0.75999999 86 41 192 0.000000 0.000000 0.000000 0.000000 51.808199 0.000000 186.000000 0.616255 -0.633047 -0.468488
18.93000031 2.33999991 -1.84000003 86 41 192 0.000000 0.000000 0.000000 0.000000 51.808199 0.000000 186.000000 -0.140404 0.959206 -0.245378
18.85000038 2.64000010 0.23000000 86 41 192 0.000000 0.000000 0.000000 0.000000 51.808199 0.000000 186.000000 -0.187548 0.982006 -0.022133
19.06999969 2.60999990 -0.01000000 86 41 192 0.000000 0.000000 0.000000 0.000000 51.808199 0.000000 186.000000 -0.331192 0.871477 -0.361717
19.05999947 2.59999990 -0.12000000 86 41 192 0.000000 0.000000 0.000000 0.000000 51.808199 0.000000 186.000000 -0.609322 0.773429 -0.174743
