//X Y Z R G B PointSourceId ScanDirectionFlag NumberOfReturns ReturnNumber GpsTime Intensity Classification Nx Ny Nz
-16.18000031 -11.03999996 -0.73000002 255 66 95 0.000000 0.000000 0.000000 0.000000 51.808199 0.000000 25.000000 -0.521441 0.851360 0.057317
-16.12999916 -11.01000023 -0.82999998 255 66 95 0.000000 0.000000 0.000000 0.000000 51.808199 0.000000 25.000000 0.696078 -0.696078 0.175932
-16.17000008 -11.00000000 -0.80000001 255 66 95 0.000000 0.000000 0.000000 0.000000 51.808199 0.000000 25.000000 -0.306751 0.816430 -0.489229
-16.18000031 -10.98999977 -0.83999997 255 66 95 0.000000 0.000000 0.000000 0.000000 51.808199 0.000000 25.000000 -0.591473 0.805795 0.029226
-16.18000031 -10.98999977 -0.82999998 255 66 95 0.000000 0.000000 0.000000 0.000000 51.808199 0.000000 25.000000 0.745047 -0.435844 0.504921
-16.19000053 -11.00000000 -0.82999998 255 66 95 0.000000 0.000000 0.000000 0.000000 51.808199 0.000000 25.000000 -0.645787 0.442206 -0.622425
-16.19000053 -10.97000027 -0.81000000 255 66 95 0.000000 0.000000 0.000000 0.000000 51.808199 0.000000 25.000000 -0.526629 0.812469 -0.250110
-16.19000053 -11.01000023 -0.88999999 255 66 95 0.000000 0.000000 0.000000 0.000000 51.808199 0.000000 25.000000 -0.471424 0.701305 -0.534725
-16.19000053 -11.02999973 -0.95999998 255 66 95 0.000000 0.000000 0.000000 0.000000 51.808199 0.000000 25.000000 -0.488258 0.656045 -0.575507
-16.19000053 -11.10999966 -0.34000000 255 66 95 0.000000 0.000000 0.000000 0.000000 51.808199 0.000000 25.000000 0.759362 -0.632550 0.152476
-16.19000053 -11.13000011 -0.38999999 255 66 95 0.000000 0.000000 0.000000 0.000000 51.808199 0.000000 25.000000 0.628975 -0.548034 0.551407
-16.12999916 -11.11999989 -0.46000001 255 66 95 0.000000 0.000000 0.000000 0.000000 51.808199 0.000000 25.000000 0.833249 -0.314227 0.454926
-16.19000053 -11.13000011 -0.46000001 255 66 95 0.000000 0.000000 0.000000 0.000000 51.808199 0.000000 25.000000 0.605402 -0.474595 0.638943
-16.17000008 -11.15999985 -0.37000000 255 66 95 0.000000 0.000000 0.000000 0.000000 51.808199 0.000000 25.000000 0.959073 -0.282945 0.011024
-16.17000008 -11.15999985 -0.38000000 255 66 95 0.000000 0.000000 0.000000 0.000000 51.808199 0.000000 25.000000 0.815118 -0.578246 -0.034834
-16.15999985 -11.17000008 -0.44999999 255 66 95 0.000000 0.000000 0.000000 0.000000 51.808199 0.000000 25.000000 0.814029 -0.150305 0.561040
-16.17000008 -11.14000034 -0.44000000 255 66 95 0.000000 0.000000 0.000000 0.000000 51.808199 0.000000 25.000000 -0.584183 0.733890 -0.346605
-16.19000053 -11.18000031 -0.50000000 255 66 95 0.000000 0.000000 0.000000 0.000000 51.808199 0.000000 25.000000 0.758127 -0.225726 0.611794
-16.07999992 -11.09000015 -0.66000003 255 66 95 0.000000 0.000000 0.000000 0.000000 51.808199 0.000000 25.000000 -0.459875 0.778374 -0.427375
-16.10000038 -11.06000042 -0.64999998 255 66 95 0.000000 0.000000 0.000000 0.000000 51.808199 0.000000 25.000000 -0.694959 0.717698 -0.044057
-16.13999939 -11.07999992 -0.63999999 255 66 95 0.000000 0.000000 0.000000 0.000000 51.808199 0.000000 25.000000 0.749658 -0.618194 0.236322
-16.17000008 -11.07999992 -0.64999998 255 66 95 0.000000 0.000000 0.000000 0.000000 51.808199 0.000000 25.000000 -0.573822 0.818356 -0.031956
-16.19000053 -11.14999962 -0.56000000 255 66 95 0.000000 0.000000 0.000000 0.000000 51.808199 0.000000 25.000000 0.766673 -0.420117 0.485505
-16.19000053 -11.14999962 -0.56999999 255 66 95 0.000000 0.000000 0.000000 0.000000 51.808199 0.000000 25.000000 0.753370 -0.541840 0.372617
-16.18000031 -11.14999962 -0.57999998 255 66 95 0.000000 0.000000 0.000000 0.000000 51.808199 0.000000 25.000000 0.819194 -0.215900 0.531328
-16.18000031 -11.22000027 -0.51999998 255 66 95 0.000000 0.000000 0.000000 0.000000 51.808199 0.000000 25.000000 0.984900 0.118764 0.125962
-16.15999985 -11.21000004 -0.57999998 255 66 95 0.000000 0.000000 0.000000 0.000000 51.808199 0.000000 25.000000 0.992533 -0.007677 0.121736
-16.15999985 -11.18000031 -0.66000003 255 66 95 0.000000 0.000000 0.000000 0.000000 51.808199 0.000000 25.000000 0.800710 -0.220619 0.556948
-16.15999985 -11.17000008 -0.64999998 255 66 95 0.000000 0.000000 0.000000 0.000000 51.808199 0.000000 25.000000 0.930379 -0.043061 0.364061
-16.15999985 -11.18999958 -0.66000003 255 66 95 0.000000 0.000000 0.000000 0.000000 51.808199 0.000000 25.000000 0.891562 -0.076025 0.446472
-16.18000031 -11.28999996 -0.38999999 255 66 95 0.000000 0.000000 0.000000 0.000000 51.808199 0.000000 25.000000 0.863719 0.501648 0.048368
-16.17000008 -11.27999973 -0.40000001 255 66 95 0.000000 0.000000 0.000000 0.000000 51.808199 0.000000 25.000000 0.823818 0.520064 0.225515
-16.18000031 -11.26000023 -0.41999999 255 66 95 0.000000 0.000000 0.000000 0.000000 51.808199 0.000000 25.000000 0.975324 0.090239 0.201493
-16.19000053 -11.23999977 -0.50000000 255 66 95 0.000000 0.000000 0.000000 0.000000 51.808199 0.000000 25.000000 0.968072 0.209556 0.137561
-16.18000031 -11.23999977 -0.49000001 255 66 95 0.000000 0.000000 0.000000 0.000000 51.808199 0.000000 25.000000 0.823205 0.127663 0.553205
-16.18000031 -11.23999977 -0.49000001 255 66 95 0.000000 0.000000 0.000000 0.000000 51.808199 0.000000 25.000000 0.823205 0.127663 0.553205
-16.18000031 -11.28999996 -0.43000001 255 66 95 0.000000 0.000000 0.000000 0.000000 51.808199 0.000000 25.000000 0.751097 0.404185 0.522004
-16.18000031 -11.27999973 -0.44000000 255 66 95 0.000000 0.000000 0.000000 0.000000 51.808199 0.000000 25.000000 0.841340 0.472196 0.263015
-16.15999985 -11.30000019 -0.44999999 255 66 95 0.000000 0.000000 0.000000 0.000000 51.808199 0.000000 25.000000 0.901822 0.017165 0.431766
-16.17000008 -11.31000042 -0.49000001 255 66 95 0.000000 0.000000 0.000000 0.000000 51.808199 0.000000 25.000000 0.858009 0.086510 0.506296
-16.13999939 -11.38000011 -0.41999999 255 66 95 0.000000 0.000000 0.000000 0.000000 51.808199 0.000000 25.000000 0.759051 0.613139 0.218867
-16.13999939 -11.39000034 -0.47000000 255 66 95 0.000000 0.000000 0.000000 0.000000 51.808199 0.000000 25.000000 0.506922 0.823167 0.255786
-16.15999985 -11.32999992 -0.49000001 255 66 95 0.000000 0.000000 0.000000 0.000000 51.808199 0.000000 25.000000 0.852377 0.258621 0.454499
-16.17000008 -11.32999992 -0.50000000 255 66 95 0.000000 0.000000 0.000000 0.000000 51.808199 0.000000 25.000000 0.978967 0.107132 -0.173628
-16.17000008 -11.32999992 -0.49000001 255 66 95 0.000000 0.000000 0.000000 0.000000 51.808199 0.000000 25.000000 0.941727 0.239235 0.236469
-16.17000008 -11.32999992 -0.49000001 255 66 95 0.000000 0.000000 0.000000 0.000000 51.808199 0.000000 25.000000 0.941727 0.239235 0.236469
-16.18000031 -11.31999969 -0.49000001 255 66 95 0.000000 0.000000 0.000000 0.000000 51.808199 0.000000 25.000000 0.750479 0.316583 0.580135
-16.18000031 -11.35999966 -0.47999999 255 66 95 0.000000 0.000000 0.000000 0.000000 51.808199 0.000000 25.000000 0.784927 0.616830 -0.058407
-16.14999962 -11.27000046 -0.52999997 255 66 95 0.000000 0.000000 0.000000 0.000000 51.808199 0.000000 25.000000 0.979883 0.022297 0.198324
-16.18000031 -11.26000023 -0.51999998 255 66 95 0.000000 0.000000 0.000000 0.000000 51.808199 0.000000 25.000000 0.973287 -0.183520 0.137956
-16.18000031 -11.25000000 -0.57999998 255 66 95 0.000000 0.000000 0.000000 0.000000 51.808199 0.000000 25.000000 0.990081 0.001106 -0.140492
-16.15999985 -11.23999977 -0.61000001 255 66 95 0.000000 0.000000 0.000000 0.000000 51.808199 0.000000 25.000000 0.997429 -0.061067 -0.037497
-16.15999985 -11.23999977 -0.58999997 255 66 95 0.000000 0.000000 0.000000 0.000000 51.808199 0.000000 25.000000 0.918456 0.030135 0.394373
-16.15999985 -11.34000015 -0.51999998 255 66 95 0.000000 0.000000 0.000000 0.000000 51.808199 0.000000 25.000000 0.895433 0.268778 0.354906
-16.09000015 -11.06999969 -0.73000002 255 66 95 0.000000 0.000000 0.000000 0.000000 51.808199 0.000000 25.000000 0.857691 -0.467149 0.214798
-16.10000038 -11.07999992 -0.70999998 255 66 95 0.000000 0.000000 0.000000 0.000000 51.808199 0.000000 25.000000 0.692371 -0.613431 0.379900
-16.06999969 -11.06999969 -0.76999998 255 66 95 0.000000 0.000000 0.000000 0.000000 51.808199 0.000000 25.000000 0.821582 -0.570049 0.006835
-16.07999992 -11.17000008 -0.81000000 255 66 95 0.000000 0.000000 0.000000 0.000000 51.808199 0.000000 25.000000 -0.532743 0.699747 -0.475961
-16.11000061 -11.10000038 -0.72000003 255 66 95 0.000000 0.000000 0.000000 0.000000 51.808199 0.000000 25.000000 -0.636606 0.695219 -0.333770
-16.15999985 -11.11999989 -0.69000000 255 66 95 0.000000 0.000000 0.000000 0.000000 51.808199 0.000000 25.000000 0.826925 -0.338646 0.448902
-16.12000084 -11.07999992 -0.76999998 255 66 95 0.000000 0.000000 0.000000 0.000000 51.808199 0.000000 25.000000 -0.599283 0.783446 -0.164539
-16.12999916 -11.09000015 -0.75999999 255 66 95 0.000000 0.000000 0.000000 0.000000 51.808199 0.000000 25.000000 0.679105 -0.697925 0.227414
-16.12000084 -11.07999992 -0.77999997 255 66 95 0.000000 0.000000 0.000000 0.000000 51.808199 0.000000 25.000000 -0.438103 0.898706 -0.019854
-16.17000008 -11.13000011 -0.80000001 255 66 95 0.000000 0.000000 0.000000 0.000000 51.808199 0.000000 25.000000 -0.533772 0.807660 -0.250546
-16.15999985 -11.11999989 -0.75999999 255 66 95 0.000000 0.000000 0.000000 0.000000 51.808199 0.000000 25.000000 0.825414 -0.362802 0.432511
-16.15999985 -11.11999989 -0.81999999 255 66 95 0.000000 0.000000 0.000000 0.000000 51.808199 0.000000 25.000000 0.934776 -0.220030 0.278891
-16.17000008 -11.18000031 -0.75999999 255 66 95 0.000000 0.000000 0.000000 0.000000 51.808199 0.000000 25.000000 0.669166 -0.548415 0.501456
-16.17000008 -11.14999962 -0.81999999 255 66 95 0.000000 0.000000 0.000000 0.000000 51.808199 0.000000 25.000000 -0.617389 0.647506 -0.446729
-16.13999939 -11.13000011 -0.86000001 255 66 95 0.000000 0.000000 0.000000 0.000000 51.808199 0.000000 25.000000 0.743109 -0.489365 0.456411
-16.12999916 -11.06000042 -1.00000000 255 66 95 0.000000 0.000000 0.000000 0.000000 51.808199 0.000000 25.000000 0.637927 -0.431392 0.637927
-16.12000084 -11.06999969 -1.00999999 255 66 95 0.000000 0.000000 0.000000 0.000000 51.808199 0.000000 25.000000 0.765235 -0.330259 0.552580
-16.18000031 -11.09000015 -0.99000001 255 66 95 0.000000 0.000000 0.000000 0.000000 51.808199 0.000000 25.000000 0.618986 -0.474723 0.625695
-16.15999985 -11.10999966 -0.98000002 255 66 95 0.000000 0.000000 0.000000 0.000000 51.808199 0.000000 25.000000 0.775255 -0.523821 0.352975
-16.15999985 -11.10000038 -1.00999999 255 66 95 0.000000 0.000000 0.000000 0.000000 51.808199 0.000000 25.000000 0.872872 -0.367124 0.321424
-16.15999985 -11.10000038 -1.00999999 255 66 95 0.000000 0.000000 0.000000 0.000000 51.808199 0.000000 25.000000 0.872872 -0.367124 0.321424
-16.10000038 -10.98999977 -1.13999999 255 66 95 0.000000 0.000000 0.000000 0.000000 51.808199 0.000000 25.000000 0.719380 -0.626037 0.300949
-16.10000038 -11.00000000 -1.17999995 255 66 95 0.000000 0.000000 0.000000 0.000000 51.808199 0.000000 25.000000 0.792692 -0.427827 0.434285
-16.11000061 -11.02999973 -1.07000005 255 66 95 0.000000 0.000000 0.000000 0.000000 51.808199 0.000000 25.000000 0.778202 -0.485767 0.398036
-16.12999916 -11.05000019 -1.10000002 255 66 95 0.000000 0.000000 0.000000 0.000000 51.808199 0.000000 25.000000 -0.400755 0.720699 -0.565675
-16.18000031 -11.01000023 -1.01999998 255 66 95 0.000000 0.000000 0.000000 0.000000 51.808199 0.000000 25.000000 -0.392047 0.853827 -0.342460
-16.15999985 -10.98999977 -1.05999994 255 66 95 0.000000 0.000000 0.000000 0.000000 51.808199 0.000000 25.000000 -0.468986 0.882559 -0.033789
-16.13999939 -11.00000000 -1.15999997 255 66 95 0.000000 0.000000 0.000000 0.000000 51.808199 0.000000 25.000000 -0.456267 0.660167 -0.596657
-16.12000084 -11.03999996 -1.11000001 255 66 95 0.000000 0.000000 0.000000 0.000000 51.808199 0.000000 25.000000 0.623358 -0.528756 0.576057
-16.12999916 -11.03999996 -1.13000000 255 66 95 0.000000 0.000000 0.000000 0.000000 51.808199 0.000000 25.000000 0.894079 -0.329869 0.303002
-16.11000061 -11.02999973 -1.17999995 255 66 95 0.000000 0.000000 0.000000 0.000000 51.808199 0.000000 25.000000 0.799847 -0.490126 0.346441
-16.10000038 -11.06999969 -1.05999994 255 66 95 0.000000 0.000000 0.000000 0.000000 51.808199 0.000000 25.000000 0.611348 -0.747204 0.260652
-16.14999962 -11.06000042 -1.09000003 255 66 95 0.000000 0.000000 0.000000 0.000000 51.808199 0.000000 25.000000 0.681997 -0.585284 0.438546
-16.31999969 -10.97999954 -0.38000000 255 66 95 0.000000 0.000000 0.000000 0.000000 51.808199 0.000000 60.000000 0.911833 -0.337770 0.233394
-16.28000069 -11.02999973 -0.34999999 255 66 95 0.000000 0.000000 0.000000 0.000000 51.808199 0.000000 60.000000 0.767379 -0.638768 0.055731
-16.28000069 -11.02999973 -0.34000000 255 66 95 0.000000 0.000000 0.000000 0.000000 51.808199 0.000000 60.000000 0.786715 -0.607982 0.106946
-16.31999969 -11.05000019 -0.40000001 255 66 95 0.000000 0.000000 0.000000 0.000000 51.808199 0.000000 60.000000 0.839697 -0.483555 0.247150
-16.34000015 -11.01000023 -0.36000001 255 66 95 0.000000 0.000000 0.000000 0.000000 51.808199 0.000000 60.000000 0.866254 -0.482854 0.128281
-16.21999931 -11.02999973 -0.63999999 255 66 95 0.000000 0.000000 0.000000 0.000000 51.808199 0.000000 25.000000 -0.377352 0.869284 -0.319298
-16.22999954 -11.03999996 -0.63000000 255 66 95 0.000000 0.000000 0.000000 0.000000 51.808199 0.000000 25.000000 0.793251 -0.515533 0.324004
-16.32999992 -11.03999996 -0.57999998 255 66 95 0.000000 0.000000 0.000000 0.000000 51.808199 0.000000 25.000000 0.883280 -0.393067 0.255568
-16.31999969 -10.97000027 -0.60000002 255 66 95 0.000000 0.000000 0.000000 0.000000 51.808199 0.000000 25.000000 -0.648872 0.752337 -0.113811
-16.45000076 -11.03999996 -0.34000000 255 66 95 0.000000 0.000000 0.000000 0.000000 51.808199 0.000000 60.000000 -0.677547 0.573823 -0.460062
-16.45999908 -11.03999996 -0.34000000 255 66 95 0.000000 0.000000 0.000000 0.000000 51.808199 0.000000 60.000000 -0.688193 0.438244 -0.578215
-16.48999977 -11.05000019 -0.37000000 255 66 95 0.000000 0.000000 0.000000 0.000000 51.808199 0.000000 60.000000 0.865753 -0.023033 0.499942
-16.45999908 -11.03999996 -0.34000000 255 66 95 0.000000 0.000000 0.000000 0.000000 51.808199 0.000000 60.000000 -0.688193 0.438244 -0.578215
-16.48999977 -11.03999996 -0.38000000 255 66 95 0.000000 0.000000 0.000000 0.000000 51.808199 0.000000 60.000000 0.858822 -0.098273 0.502760
-16.50000000 -11.03999996 -0.34999999 255 66 95 0.000000 0.000000 0.000000 0.000000 51.808199 0.000000 60.000000 0.882320 -0.447637 0.145374
-16.26000023 -10.98999977 -0.72000003 255 66 95 0.000000 0.000000 0.000000 0.000000 51.808199 0.000000 25.000000 0.896544 -0.439429 0.055779
-16.22999954 -10.98999977 -0.80000001 255 66 95 0.000000 0.000000 0.000000 0.000000 51.808199 0.000000 25.000000 -0.565712 0.738523 -0.366816
-16.21999931 -11.01000023 -0.76999998 255 66 95 0.000000 0.000000 0.000000 0.000000 51.808199 0.000000 25.000000 0.632427 -0.741736 0.223302
-16.22999954 -11.02000046 -0.81999999 255 66 95 0.000000 0.000000 0.000000 0.000000 51.808199 0.000000 25.000000 0.644940 -0.453971 0.614787
-16.22999954 -11.02999973 -0.82999998 255 66 95 0.000000 0.000000 0.000000 0.000000 51.808199 0.000000 25.000000 0.768552 -0.564031 0.301988
-16.22999954 -11.02999973 -0.81999999 255 66 95 0.000000 0.000000 0.000000 0.000000 51.808199 0.000000 25.000000 -0.493577 0.694354 -0.523693
-16.25000000 -11.05000019 -0.79000002 255 66 95 0.000000 0.000000 0.000000 0.000000 51.808199 0.000000 25.000000 0.712264 -0.549556 0.436656
-16.23999977 -11.02999973 -0.81000000 255 66 95 0.000000 0.000000 0.000000 0.000000 51.808199 0.000000 25.000000 -0.690281 0.553228 -0.466316
-16.21999931 -10.97000027 -0.87000000 255 66 95 0.000000 0.000000 0.000000 0.000000 51.808199 0.000000 25.000000 0.722449 -0.513188 0.463364
-16.20999908 -10.97999954 -0.92000002 255 66 95 0.000000 0.000000 0.000000 0.000000 51.808199 0.000000 25.000000 -0.385894 0.824193 -0.414478
-16.22999954 -11.02999973 -0.94000000 255 66 95 0.000000 0.000000 0.000000 0.000000 51.808199 0.000000 25.000000 0.605685 -0.682018 0.409875
-16.29000092 -11.05000019 -0.88000000 255 66 95 0.000000 0.000000 0.000000 0.000000 51.808199 0.000000 25.000000 -0.592085 0.762605 -0.260517
-16.37000084 -11.02999973 -0.95999998 255 66 95 0.000000 0.000000 0.000000 0.000000 51.808199 0.000000 25.000000 -0.552852 0.705592 -0.443278
-16.39999962 -11.03999996 -1.00000000 255 66 95 0.000000 0.000000 0.000000 0.000000 51.808199 0.000000 25.000000 0.979515 -0.151930 0.132167
-16.20999908 -11.07999992 -0.36000001 255 66 95 0.000000 0.000000 0.000000 0.000000 51.808199 0.000000 25.000000 0.905340 -0.336017 0.259717
-16.22999954 -11.07999992 -0.40000001 255 66 95 0.000000 0.000000 0.000000 0.000000 51.808199 0.000000 25.000000 0.847208 -0.252784 0.467267
-16.21999931 -11.10999966 -0.40000001 255 66 95 0.000000 0.000000 0.000000 0.000000 51.808199 0.000000 25.000000 0.922784 -0.381063 -0.057093
-16.23999977 -11.18999958 -0.34000000 255 66 95 0.000000 0.000000 0.000000 0.000000 51.808199 0.000000 25.000000 0.904490 -0.409607 0.118828
-16.20999908 -11.21000004 -0.44000000 255 66 95 0.000000 0.000000 0.000000 0.000000 51.808199 0.000000 25.000000 0.741648 -0.331237 0.583301
-16.29000092 -11.06000042 -0.34000000 255 66 95 0.000000 0.000000 0.000000 0.000000 51.808199 0.000000 60.000000 0.920307 -0.283725 0.269323
-16.21999931 -11.09000015 -0.50999999 255 66 95 0.000000 0.000000 0.000000 0.000000 51.808199 0.000000 25.000000 0.792488 -0.268347 0.547680
-16.21999931 -11.10000038 -0.52999997 255 66 95 0.000000 0.000000 0.000000 0.000000 51.808199 0.000000 25.000000 0.864926 -0.491597 -0.101169
-16.25000000 -11.09000015 -0.54000002 255 66 95 0.000000 0.000000 0.000000 0.000000 51.808199 0.000000 25.000000 -0.632018 0.770860 -0.079545
-16.23999977 -11.09000015 -0.56000000 255 66 95 0.000000 0.000000 0.000000 0.000000 51.808199 0.000000 25.000000 0.805441 -0.589520 -0.061083
-16.27000046 -11.13000011 -0.56000000 255 66 95 0.000000 0.000000 0.000000 0.000000 51.808199 0.000000 25.000000 0.647028 -0.593249 0.478969
-16.20999908 -11.06000042 -0.63000000 255 66 95 0.000000 0.000000 0.000000 0.000000 51.808199 0.000000 25.000000 0.856822 -0.507273 0.092361
-16.20000076 -11.09000015 -0.62000000 255 66 95 0.000000 0.000000 0.000000 0.000000 51.808199 0.000000 25.000000 -0.678536 0.728364 -0.095259
-16.22999954 -11.13000011 -0.63999999 255 66 95 0.000000 0.000000 0.000000 0.000000 51.808199 0.000000 25.000000 0.727217 -0.485364 0.485364
-16.25000000 -11.09000015 -0.60000002 255 66 95 0.000000 0.000000 0.000000 0.000000 51.808199 0.000000 25.000000 0.905451 -0.399755 0.142669
-16.21999931 -11.14000034 -0.56999999 255 66 95 0.000000 0.000000 0.000000 0.000000 51.808199 0.000000 25.000000 0.773761 -0.538898 0.332991
-16.20000076 -11.21000004 -0.55000001 255 66 95 0.000000 0.000000 0.000000 0.000000 51.808199 0.000000 25.000000 0.986178 0.108515 0.125210
-16.23999977 -11.22000027 -0.56000000 255 66 95 0.000000 0.000000 0.000000 0.000000 51.808199 0.000000 25.000000 0.978753 -0.204638 0.012863
-16.20000076 -11.14999962 -0.61000001 255 66 95 0.000000 0.000000 0.000000 0.000000 51.808199 0.000000 25.000000 0.889351 -0.067354 0.452236
-16.21999931 -11.19999981 -0.61000001 255 66 95 0.000000 0.000000 0.000000 0.000000 51.808199 0.000000 25.000000 0.781723 -0.279525 0.557471
-16.23999977 -11.22000027 -0.58999997 255 66 95 0.000000 0.000000 0.000000 0.000000 51.808199 0.000000 25.000000 0.841300 0.168260 0.513714
-16.23999977 -11.22000027 -0.58999997 255 66 95 0.000000 0.000000 0.000000 0.000000 51.808199 0.000000 25.000000 0.841300 0.168260 0.513714
-16.28000069 -11.07999992 -0.60000002 255 66 95 0.000000 0.000000 0.000000 0.000000 51.808199 0.000000 25.000000 0.704678 -0.673428 0.223434
-16.28000069 -11.07999992 -0.60000002 255 66 95 0.000000 0.000000 0.000000 0.000000 51.808199 0.000000 25.000000 0.704678 -0.673428 0.223434
-16.20000076 -11.22999954 -0.33000001 255 66 95 0.000000 0.000000 0.000000 0.000000 51.808199 0.000000 25.000000 0.871299 -0.094614 0.481545
-16.20999908 -11.22999954 -0.38000000 255 66 95 0.000000 0.000000 0.000000 0.000000 51.808199 0.000000 25.000000 0.787639 -0.119697 0.604398
-16.20000076 -11.27999973 -0.34999999 255 66 95 0.000000 0.000000 0.000000 0.000000 51.808199 0.000000 25.000000 0.827644 0.221827 0.515556
-16.20000076 -11.28999996 -0.36000001 255 66 95 0.000000 0.000000 0.000000 0.000000 51.808199 0.000000 25.000000 0.790978 0.488119 0.368908
-16.20000076 -11.28999996 -0.36000001 255 66 95 0.000000 0.000000 0.000000 0.000000 51.808199 0.000000 25.000000 0.790978 0.488119 0.368908
-16.20000076 -11.27000046 -0.40000001 255 66 95 0.000000 0.000000 0.000000 0.000000 51.808199 0.000000 25.000000 0.951617 -0.023759 0.306368
-16.20000076 -11.27000046 -0.41000000 255 66 95 0.000000 0.000000 0.000000 0.000000 51.808199 0.000000 25.000000 0.847982 0.450923 0.278557
-16.23999977 -11.31000042 -0.34000000 255 66 95 0.000000 0.000000 0.000000 0.000000 51.808199 0.000000 25.000000 0.980744 0.111420 0.160396
-16.21999931 -11.26000023 -0.43000001 255 66 95 0.000000 0.000000 0.000000 0.000000 51.808199 0.000000 25.000000 0.999987 0.000983 0.004916
-16.20000076 -11.30000019 -0.44000000 255 66 95 0.000000 0.000000 0.000000 0.000000 51.808199 0.000000 25.000000 0.983577 0.179147 0.021960
-16.20000076 -11.28999996 -0.44999999 255 66 95 0.000000 0.000000 0.000000 0.000000 51.808199 0.000000 25.000000 0.996241 -0.062333 0.060146
-16.20000076 -11.30000019 -0.44999999 255 66 95 0.000000 0.000000 0.000000 0.000000 51.808199 0.000000 25.000000 0.989923 -0.056337 0.129920
-16.20000076 -11.28999996 -0.49000001 255 66 95 0.000000 0.000000 0.000000 0.000000 51.808199 0.000000 25.000000 0.861028 0.095353 0.499538
-16.22999954 -11.30000019 -0.46000001 255 66 95 0.000000 0.000000 0.000000 0.000000 51.808199 0.000000 25.000000 0.920273 -0.203399 0.334257
-16.25000000 -11.23999977 -0.41999999 255 66 95 0.000000 0.000000 0.000000 0.000000 51.808199 0.000000 25.000000 0.996055 -0.007457 0.088420
-16.20999908 -11.36999989 -0.34000000 255 66 95 0.000000 0.000000 0.000000 0.000000 51.808199 0.000000 25.000000 0.668839 0.615730 0.416572
-16.21999931 -11.39000034 -0.41000000 255 66 95 0.000000 0.000000 0.000000 0.000000 51.808199 0.000000 25.000000 0.620257 0.640319 0.453072
-16.26000023 -11.34000015 -0.37000000 255 66 95 0.000000 0.000000 0.000000 0.000000 51.808199 0.000000 25.000000 0.943866 0.328246 -0.037039
-16.22999954 -11.36999989 -0.44000000 255 66 95 0.000000 0.000000 0.000000 0.000000 51.808199 0.000000 25.000000 0.837352 0.394325 0.378615
-16.20000076 -11.31999969 -0.47999999 255 66 95 0.000000 0.000000 0.000000 0.000000 51.808199 0.000000 25.000000 0.755381 0.427667 0.496487
-16.21999931 -11.35999966 -0.44000000 255 66 95 0.000000 0.000000 0.000000 0.000000 51.808199 0.000000 25.000000 0.763828 0.449792 0.462876
-16.29000092 -11.35000038 -0.34000000 255 66 95 0.000000 0.000000 0.000000 0.000000 51.808199 0.000000 25.000000 0.720172 0.442037 0.534748
-16.29999924 -11.31999969 -0.34000000 255 66 95 0.000000 0.000000 0.000000 0.000000 51.808199 0.000000 25.000000 0.788060 0.435294 0.435294
-16.25000000 -11.25000000 -0.50999999 255 66 95 0.000000 0.000000 0.000000 0.000000 51.808199 0.000000 25.000000 0.828959 0.124271 0.545329
-16.23999977 -11.23999977 -0.58999997 255 66 95 0.000000 0.000000 0.000000 0.000000 51.808199 0.000000 25.000000 0.860738 0.166262 0.481131
-16.20999908 -11.25000000 -0.60000002 255 66 95 0.000000 0.000000 0.000000 0.000000 51.808199 0.000000 25.000000 0.916446 0.040995 0.398052
-16.20999908 -11.23999977 -0.58999997 255 66 95 0.000000 0.000000 0.000000 0.000000 51.808199 0.000000 25.000000 0.819944 -0.421913 0.386886
-16.20999908 -11.26000023 -0.58999997 255 66 95 0.000000 0.000000 0.000000 0.000000 51.808199 0.000000 25.000000 0.938915 0.148969 0.310238
-16.20999908 -11.26000023 -0.60000002 255 66 95 0.000000 0.000000 0.000000 0.000000 51.808199 0.000000 25.000000 0.875945 0.253919 0.410177
-16.51000023 -11.07999992 -0.34999999 255 66 95 0.000000 0.000000 0.000000 0.000000 51.808199 0.000000 60.000000 0.823240 -0.208473 0.528030
-16.20999908 -11.07999992 -0.70999998 255 66 95 0.000000 0.000000 0.000000 0.000000 51.808199 0.000000 25.000000 0.783345 -0.436273 0.442760
-16.20000076 -11.10999966 -0.74000001 255 66 95 0.000000 0.000000 0.000000 0.000000 51.808199 0.000000 25.000000 -0.618894 0.684909 -0.384539
-16.25000000 -11.09000015 -0.76999998 255 66 95 0.000000 0.000000 0.000000 0.000000 51.808199 0.000000 25.000000 0.696920 -0.533136 0.479655
-16.25000000 -11.10000038 -0.79000002 255 66 95 0.000000 0.000000 0.000000 0.000000 51.808199 0.000000 25.000000 -0.557354 0.655017 -0.510206
-16.26000023 -11.10000038 -0.76999998 255 66 95 0.000000 0.000000 0.000000 0.000000 51.808199 0.000000 25.000000 0.920615 -0.224785 0.319280
-16.27000046 -11.14000034 -0.70999998 255 66 95 0.000000 0.000000 0.000000 0.000000 51.808199 0.000000 25.000000 0.895573 0.019902 0.444469
-16.27000046 -11.15999985 -0.74000001 255 66 95 0.000000 0.000000 0.000000 0.000000 51.808199 0.000000 25.000000 0.800504 -0.564792 0.200509
-16.27000046 -11.14000034 -0.73000002 255 66 95 0.000000 0.000000 0.000000 0.000000 51.808199 0.000000 25.000000 0.826013 -0.497468 0.265006
-16.27000046 -11.14000034 -0.72000003 255 66 95 0.000000 0.000000 0.000000 0.000000 51.808199 0.000000 25.000000 0.923055 -0.264752 0.279063
-16.31999969 -11.07999992 -0.80000001 255 66 95 0.000000 0.000000 0.000000 0.000000 51.808199 0.000000 25.000000 -0.693485 0.546432 -0.469564
-16.31999969 -11.06000042 -0.83999997 255 66 95 0.000000 0.000000 0.000000 0.000000 51.808199 0.000000 25.000000 0.705014 -0.361504 0.610140
-16.31999969 -11.13000011 -0.75999999 255 66 95 0.000000 0.000000 0.000000 0.000000 51.808199 0.000000 25.000000 0.984402 -0.145082 0.099519
-16.28000069 -11.15999985 -0.70999998 255 66 95 0.000000 0.000000 0.000000 0.000000 51.808199 0.000000 25.000000 0.902232 -0.210666 0.376293
-16.28000069 -11.14999962 -0.70999998 255 66 95 0.000000 0.000000 0.000000 0.000000 51.808199 0.000000 25.000000 0.793903 -0.465392 0.391315
-16.28000069 -11.14999962 -0.72000003 255 66 95 0.000000 0.000000 0.000000 0.000000 51.808199 0.000000 25.000000 0.717664 -0.637746 0.279713
-16.22999954 -11.13000011 -0.93000001 255 66 95 0.000000 0.000000 0.000000 0.000000 51.808199 0.000000 25.000000 0.862368 -0.489687 0.128561
-16.31999969 -11.06000042 -0.95999998 255 66 95 0.000000 0.000000 0.000000 0.000000 51.808199 0.000000 25.000000 0.905368 -0.416277 -0.083805
-16.32999992 -11.09000015 -1.00999999 255 66 95 0.000000 0.000000 0.000000 0.000000 51.808199 0.000000 25.000000 0.859320 -0.494145 0.131869
-16.35000038 -11.10999966 -0.94000000 255 66 95 0.000000 0.000000 0.000000 0.000000 51.808199 0.000000 25.000000 0.792592 -0.528924 0.303377
-16.22999954 -11.02999973 -1.09000003 255 66 95 0.000000 0.000000 0.000000 0.000000 51.808199 0.000000 25.000000 -0.492141 0.699006 -0.518833
-16.36000061 -10.98999977 -1.09000003 255 66 95 0.000000 0.000000 0.000000 0.000000 51.808199 0.000000 25.000000 0.890586 -0.129256 0.436061
-16.35000038 -11.05000019 -1.02999997 255 66 95 0.000000 0.000000 0.000000 0.000000 51.808199 0.000000 25.000000 0.833457 -0.389157 0.392308
-16.32999992 -11.02999973 -1.02999997 255 66 95 0.000000 0.000000 0.000000 0.000000 51.808199 0.000000 25.000000 -0.590138 0.603665 -0.536028
-16.32999992 -11.02999973 -1.02999997 255 66 95 0.000000 0.000000 0.000000 0.000000 51.808199 0.000000 25.000000 -0.590138 0.603665 -0.536028
-16.32999992 -11.03999996 -1.04999995 255 66 95 0.000000 0.000000 0.000000 0.000000 51.808199 0.000000 25.000000 0.910561 -0.405452 -0.080544
-16.35000038 -11.02999973 -1.09000003 255 66 95 0.000000 0.000000 0.000000 0.000000 51.808199 0.000000 25.000000 0.982524 -0.120235 0.142095
-16.36000061 -11.02999973 -1.08000004 255 66 95 0.000000 0.000000 0.000000 0.000000 51.808199 0.000000 25.000000 0.853359 -0.332981 0.401125
-16.37999916 -10.96000004 -1.07000005 255 66 95 0.000000 0.000000 0.000000 0.000000 51.808199 0.000000 25.000000 -0.771592 0.550220 -0.319224
-16.31999969 -11.06000042 -1.01999998 255 66 95 0.000000 0.000000 0.000000 0.000000 51.808199 0.000000 25.000000 -0.685896 0.727634 0.009739
-16.36000061 -11.06999969 -1.04999995 255 66 95 0.000000 0.000000 0.000000 0.000000 51.808199 0.000000 25.000000 -0.616841 0.734789 -0.282121
-16.36000061 -11.06000042 -1.05999994 255 66 95 0.000000 0.000000 0.000000 0.000000 51.808199 0.000000 25.000000 0.848620 -0.517240 -0.110940
-16.34000015 -11.06000042 -1.10000002 255 66 95 0.000000 0.000000 0.000000 0.000000 51.808199 0.000000 25.000000 0.859934 -0.163167 0.483621
-16.35000038 -11.09000015 -1.13999999 255 66 95 0.000000 0.000000 0.000000 0.000000 51.808199 0.000000 25.000000 0.877255 -0.479602 0.020151
-16.40999985 -11.10000038 -1.10000002 255 66 95 0.000000 0.000000 0.000000 0.000000 51.808199 0.000000 25.000000 0.844294 -0.534766 0.034546
-16.39999962 -11.11999989 -1.04999995 255 66 95 0.000000 0.000000 0.000000 0.000000 51.808199 0.000000 25.000000 0.986514 0.057342 0.153302
-16.13999939 -11.43999958 -0.36000001 255 66 95 0.000000 0.000000 1.000000 1.000000 1686671961.594454 2056.000000 25.000000 0.476554 0.877136 -0.059397
-16.14999962 -11.40999985 -0.38999999 255 66 95 0.000000 0.000000 1.000000 1.000000 1686671449.303164 4112.000000 25.000000 0.871914 0.420145 0.251485
-16.14999962 -11.40999985 -0.38999999 255 66 95 0.000000 0.000000 1.000000 1.000000 1686671449.101168 7453.000000 25.000000 0.871914 0.420145 0.251485
-16.17000008 -11.39999962 -0.36000001 255 66 95 0.000000 0.000000 0.000000 0.000000 51.808199 0.000000 25.000000 0.852507 0.508031 0.123027
-16.20000076 -11.39999962 -0.41000000 255 66 95 0.000000 0.000000 0.000000 0.000000 51.808199 0.000000 25.000000 0.607981 0.792218 0.052437
-16.29000092 -11.43999958 -0.34000000 255 66 95 0.000000 0.000000 1.000000 1.000000 1686671438.758028 5911.000000 47.000000 0.720097 0.497250 0.483945
-16.34000015 -11.47999954 -0.33000001 255 66 95 0.000000 0.000000 1.000000 1.000000 1686671108.593752 5911.000000 47.000000 0.875623 0.451699 0.171032
-16.36000061 -11.47000027 -0.34999999 255 66 95 0.000000 0.000000 1.000000 1.000000 1686671451.710543 3855.000000 47.000000 0.618944 0.635717 0.461272
-16.29999924 -11.52000046 -0.38000000 255 66 95 0.000000 0.000000 1.000000 1.000000 1686671123.996134 5140.000000 47.000000 0.717327 0.497635 0.487649
-16.31999969 -11.53999996 -0.33000001 255 66 95 0.000000 0.000000 1.000000 1.000000 1686671447.784670 20046.000000 47.000000 0.939865 0.339787 -0.034620
-16.36000061 -11.53999996 -0.37000000 255 66 95 0.000000 0.000000 1.000000 1.000000 1686671152.865114 2827.000000 47.000000 0.448859 0.846816 0.285357
-16.39999962 -11.48999977 -0.37000000 255 66 95 0.000000 0.000000 1.000000 1.000000 1686671106.006647 5140.000000 47.000000 0.913716 0.168577 0.369736
-16.42000008 -11.51000023 -0.33000001 255 66 95 0.000000 0.000000 1.000000 1.000000 1686671446.511477 4112.000000 47.000000 0.875978 0.465946 0.124730
-16.45999908 -11.55000019 -0.40000001 255 66 95 0.000000 0.000000 1.000000 1.000000 1686671447.784273 257.000000 47.000000 0.877110 0.401695 0.263284
-16.37999916 -11.57999992 -0.34999999 255 66 95 0.000000 0.000000 1.000000 1.000000 1686671110.070993 3855.000000 47.000000 0.739819 0.637023 -0.216494
-16.43000031 -11.67000008 -0.34999999 255 66 95 0.000000 0.000000 1.000000 1.000000 1686671104.746172 5654.000000 47.000000 0.409669 0.908397 -0.083578
-16.45000076 -11.65999985 -0.41999999 255 66 95 0.000000 0.000000 1.000000 1.000000 1686671446.509890 8995.000000 47.000000 0.685415 0.718125 -0.120431
-16.45000076 -11.65999985 -0.41999999 255 66 95 0.000000 0.000000 1.000000 1.000000 1686671438.757387 6682.000000 47.000000 0.685415 0.718125 -0.120431
-16.43000031 -11.71000004 -0.46000001 255 66 95 0.000000 0.000000 1.000000 1.000000 1686671106.007891 1799.000000 47.000000 0.687581 0.625223 0.369226
-16.50000000 -11.59000015 -0.41000000 255 66 95 0.000000 0.000000 1.000000 1.000000 1686671446.510317 7710.000000 47.000000 0.712305 0.700976 0.035403
-16.45999908 -11.68000031 -0.40000001 255 66 95 0.000000 0.000000 1.000000 1.000000 1686671446.510042 12850.000000 47.000000 0.895860 0.349133 0.274849
-16.57999992 -11.60999966 -0.34000000 255 66 95 0.000000 0.000000 1.000000 1.000000 1686671913.753511 8224.000000 47.000000 0.885976 0.399209 0.235963
-16.18000031 -11.25000000 0.34999999 255 66 95 0.000000 0.000000 0.000000 0.000000 51.808199 0.000000 25.000000 0.039830 0.861144 -0.506798
-16.14999962 -11.18000031 -0.12000000 255 66 95 0.000000 0.000000 0.000000 0.000000 51.808199 0.000000 25.000000 0.947263 -0.247409 0.203668
-16.13999939 -11.22000027 -0.15000001 255 66 95 0.000000 0.000000 0.000000 0.000000 51.808199 0.000000 25.000000 0.842257 -0.374859 0.387407
-16.13999939 -11.18000031 -0.18000001 255 66 95 0.000000 0.000000 0.000000 0.000000 51.808199 0.000000 25.000000 0.841304 -0.540548 -0.004064
-16.13999939 -11.15999985 -0.25999999 255 66 95 0.000000 0.000000 0.000000 0.000000 51.808199 0.000000 25.000000 0.896771 -0.441013 0.036193
-16.13999939 -11.15999985 -0.30000001 255 66 95 0.000000 0.000000 0.000000 0.000000 51.808199 0.000000 25.000000 0.947029 -0.314813 0.063481
-16.12999916 -11.21000004 -0.25999999 255 66 95 0.000000 0.000000 0.000000 0.000000 51.808199 0.000000 25.000000 0.702781 -0.358762 0.614319
-16.18000031 -11.18999958 -0.28999999 255 66 95 0.000000 0.000000 0.000000 0.000000 51.808199 0.000000 25.000000 0.839452 -0.495140 0.223956
-16.17000008 -11.18999958 -0.31000000 255 66 95 0.000000 0.000000 0.000000 0.000000 51.808199 0.000000 25.000000 0.842065 -0.507034 0.183968
-16.12999916 -11.27000046 -0.28000000 255 66 95 0.000000 0.000000 0.000000 0.000000 51.808199 0.000000 25.000000 0.885403 -0.011983 0.464670
-16.17000008 -11.39000034 -0.16000000 255 66 95 0.000000 0.000000 0.000000 0.000000 51.808199 0.000000 25.000000 0.559663 0.721453 0.407778
-16.26000023 -11.35000038 0.47000000 255 66 95 0.000000 0.000000 0.000000 0.000000 51.808199 0.000000 25.000000 -0.003920 0.902878 -0.429880
-16.20999908 -11.31999969 0.44000000 255 66 95 0.000000 0.000000 0.000000 0.000000 51.808199 0.000000 25.000000 0.077321 0.975711 0.204961
-16.26000023 -11.35000038 0.38000000 255 66 95 0.000000 0.000000 0.000000 0.000000 51.808199 0.000000 25.000000 0.419508 0.858993 -0.293502
-16.62000084 -11.31000042 0.40000001 255 66 95 0.000000 0.000000 0.000000 0.000000 51.808199 0.000000 188.000000 0.935699 0.278332 0.216791
-16.59000015 -11.31999969 0.44999999 255 66 95 0.000000 0.000000 0.000000 0.000000 51.808199 0.000000 188.000000 0.915638 0.114627 0.385314
-16.65999985 -11.27999973 0.46000001 255 66 95 0.000000 0.000000 0.000000 0.000000 51.808199 0.000000 188.000000 0.795266 0.395213 0.459738
-16.87000084 -11.22999954 0.44999999 255 66 95 0.000000 0.000000 0.000000 0.000000 51.808199 0.000000 25.000000 0.997068 0.050772 0.057253
-16.20999908 -11.28999996 0.27000001 255 66 95 0.000000 0.000000 0.000000 0.000000 51.808199 0.000000 25.000000 0.032505 0.991976 0.122176
-16.43000031 -11.39000034 0.28000000 255 66 95 0.000000 0.000000 0.000000 0.000000 51.808199 0.000000 25.000000 0.848687 0.518403 -0.104829
-16.42000008 -11.34000015 0.14000000 255 66 95 0.000000 0.000000 0.000000 0.000000 51.808199 0.000000 25.000000 0.981229 0.192055 -0.017460
-16.37999916 -11.36999989 0.12000000 255 66 95 0.000000 0.000000 0.000000 0.000000 51.808199 0.000000 25.000000 0.671728 0.557819 0.487463
-16.23999977 -11.14000034 -0.25999999 255 66 95 0.000000 0.000000 0.000000 0.000000 51.808199 0.000000 25.000000 0.940218 -0.197432 0.277509
-16.20999908 -11.11999989 -0.28000000 255 66 95 0.000000 0.000000 0.000000 0.000000 51.808199 0.000000 25.000000 -0.608398 0.760886 -0.225621
-16.25000000 -11.32999992 -0.11000000 255 66 95 0.000000 0.000000 0.000000 0.000000 51.808199 0.000000 25.000000 0.654398 0.683626 0.323139
-16.29000092 -11.31999969 -0.12000000 255 66 95 0.000000 0.000000 0.000000 0.000000 51.808199 0.000000 25.000000 0.964884 0.151940 0.214274
-16.20000076 -11.27000046 -0.31000000 255 66 95 0.000000 0.000000 0.000000 0.000000 51.808199 0.000000 25.000000 0.762204 0.270970 0.587895
-16.23999977 -11.28999996 -0.31999999 255 66 95 0.000000 0.000000 0.000000 0.000000 51.808199 0.000000 25.000000 0.986951 0.152286 -0.052312
-16.23999977 -11.31000042 -0.31000000 255 66 95 0.000000 0.000000 0.000000 0.000000 51.808199 0.000000 25.000000 0.988494 0.106959 -0.106959
-16.23999977 -11.30000019 -0.31000000 255 66 95 0.000000 0.000000 0.000000 0.000000 51.808199 0.000000 25.000000 0.949320 0.275263 0.151730
-16.23999977 -11.38000011 -0.23999999 255 66 95 0.000000 0.000000 0.000000 0.000000 51.808199 0.000000 25.000000 0.958999 0.265310 -0.099653
-16.26000023 -11.36999989 -0.19000000 255 66 95 0.000000 0.000000 0.000000 0.000000 51.808199 0.000000 25.000000 0.923356 0.211988 0.320116
-16.30999947 -11.30000019 -0.31999999 255 66 95 0.000000 0.000000 0.000000 0.000000 51.808199 0.000000 25.000000 0.870580 -0.112932 0.478891
-16.36000061 -11.31000042 -0.25999999 255 66 95 0.000000 0.000000 0.000000 0.000000 51.808199 0.000000 25.000000 0.879512 0.148752 0.452031
-16.31999969 -11.31999969 -0.28999999 255 66 95 0.000000 0.000000 0.000000 0.000000 51.808199 0.000000 25.000000 0.942876 0.034542 0.331350
-16.29000092 -11.36999989 -0.25999999 255 66 95 0.000000 0.000000 0.000000 0.000000 51.808199 0.000000 25.000000 0.992154 0.124432 -0.012113
-16.30999947 -11.32999992 -0.31999999 255 66 95 0.000000 0.000000 0.000000 0.000000 51.808199 0.000000 25.000000 0.966288 0.238071 -0.098029
-16.52000046 -11.10999966 -0.27000001 255 66 95 0.000000 0.000000 0.000000 0.000000 51.808199 0.000000 60.000000 0.835646 0.031768 0.548349
-16.52000046 -11.11999989 -0.27000001 255 66 95 0.000000 0.000000 0.000000 0.000000 51.808199 0.000000 60.000000 0.868810 0.004004 0.495129
-16.39999962 -11.38000011 -0.02000000 255 66 95 0.000000 0.000000 0.000000 0.000000 51.808199 0.000000 25.000000 0.892758 0.324503 0.312540
-16.37999916 -11.34000015 -0.03000000 255 66 95 0.000000 0.000000 0.000000 0.000000 51.808199 0.000000 25.000000 0.926425 0.119053 0.357159
-16.40999985 -11.31000042 -0.25000000 255 66 95 0.000000 0.000000 0.000000 0.000000 51.808199 0.000000 25.000000 0.999271 -0.013296 0.035798
-16.37000084 -11.35000038 -0.16000000 255 66 95 0.000000 0.000000 0.000000 0.000000 51.808199 0.000000 25.000000 0.996516 0.082242 0.013885
-16.40999985 -11.35999966 -0.19000000 255 66 95 0.000000 0.000000 0.000000 0.000000 51.808199 0.000000 25.000000 0.975451 0.134329 0.174502
-16.40999985 -11.35999966 -0.22000000 255 66 95 0.000000 0.000000 0.000000 0.000000 51.808199 0.000000 25.000000 0.898241 0.064063 0.434809
-16.57999992 -11.10999966 -0.25999999 255 66 95 0.000000 0.000000 0.000000 0.000000 51.808199 0.000000 60.000000 0.803410 -0.392885 0.447408
-16.67000008 -11.15999985 -0.23999999 255 66 95 0.000000 0.000000 0.000000 0.000000 51.808199 0.000000 16.000000 0.862055 -0.249981 0.440875
-16.65999985 -11.18000031 -0.28999999 255 66 95 0.000000 0.000000 0.000000 0.000000 51.808199 0.000000 16.000000 0.963176 -0.122821 0.239178
-16.63999939 -11.21000004 -0.28999999 255 66 95 0.000000 0.000000 0.000000 0.000000 51.808199 0.000000 16.000000 0.886669 0.280553 0.367570
-16.69000053 -11.15999985 -0.25999999 255 66 95 0.000000 0.000000 0.000000 0.000000 51.808199 0.000000 16.000000 0.905221 -0.025108 0.424199
-16.64999962 -11.31000042 -0.30000001 255 66 95 0.000000 0.000000 0.000000 0.000000 51.808199 0.000000 16.000000 0.850461 0.503813 0.151291
-16.70000076 -11.30000019 -0.25999999 255 66 95 0.000000 0.000000 0.000000 0.000000 51.808199 0.000000 16.000000 0.964922 -0.058669 0.255898
-16.65999985 -11.27999973 -0.31000000 255 66 95 0.000000 0.000000 0.000000 0.000000 51.808199 0.000000 16.000000 0.967443 0.252950 0.008392
-16.17000008 -11.52000046 0.20999999 255 66 95 0.000000 0.000000 1.000000 1.000000 1686671447.478792 7967.000000 67.000000 0.072771 0.973162 -0.218314
-16.17000008 -11.52999973 0.20999999 255 66 95 0.000000 0.000000 1.000000 1.000000 1686671447.478853 7196.000000 67.000000 0.018230 0.996238 -0.084718
-16.17000008 -11.52000046 0.23000000 255 66 95 0.000000 0.000000 1.000000 1.000000 1686671959.007051 1028.000000 67.000000 -0.116506 0.991998 -0.048638
-16.18000031 -11.59000015 0.22000000 255 66 95 0.000000 0.000000 1.000000 1.000000 1686671447.681673 4883.000000 67.000000 -0.238890 0.971011 0.008320
-16.12000084 -11.65999985 0.19000000 255 66 95 0.000000 0.000000 1.000000 1.000000 1686671454.497133 1285.000000 67.000000 0.200661 0.967056 -0.156645
-16.13999939 -11.65999985 0.25000000 255 66 95 0.000000 0.000000 1.000000 1.000000 1686671360.075228 1285.000000 67.000000 -0.072265 0.976186 -0.204546
-16.13999939 -11.64999962 0.04000000 255 66 95 0.000000 0.000000 1.000000 1.000000 1686671959.108736 3855.000000 25.000000 0.069935 0.985016 -0.157650
-16.12999916 -11.53999996 0.00000000 255 66 95 0.000000 0.000000 1.000000 1.000000 1686671456.996431 2570.000000 25.000000 -0.175867 0.934725 -0.308805
-16.18000031 -11.64999962 -0.02000000 255 66 95 0.000000 0.000000 1.000000 1.000000 1686671103.407869 1028.000000 25.000000 0.096406 0.979925 -0.174507
-16.19000053 -11.64000034 -0.03000000 255 66 95 0.000000 0.000000 1.000000 1.000000 1686671108.491968 4112.000000 25.000000 0.383697 0.913897 0.132550
-16.34000015 -11.40999985 0.55000001 255 66 95 0.000000 0.000000 1.000000 1.000000 1686671437.421541 3855.000000 25.000000 0.570343 0.808606 -0.144447
-16.20000076 -11.39999962 0.43000001 255 66 95 0.000000 0.000000 0.000000 0.000000 51.808199 0.000000 25.000000 -0.122593 0.971900 -0.200952
-16.25000000 -11.42000008 0.44000000 255 66 95 0.000000 0.000000 1.000000 1.000000 1686671448.908815 4369.000000 25.000000 0.143967 0.957579 -0.249631
-16.36000061 -11.44999981 0.50999999 255 66 95 0.000000 0.000000 1.000000 1.000000 1686671104.650278 5397.000000 25.000000 0.049896 0.987474 0.149688
-16.35000038 -11.47999954 0.46000001 255 66 95 0.000000 0.000000 1.000000 1.000000 1686671422.440920 771.000000 25.000000 0.207814 0.925974 -0.315255
-16.35000038 -11.47000027 0.36000001 255 66 95 0.000000 0.000000 1.000000 1.000000 1686671427.524935 5140.000000 25.000000 0.198856 0.977199 -0.074418
-16.35000038 -11.52000046 0.50000000 255 66 95 0.000000 0.000000 1.000000 1.000000 1686671450.384645 2570.000000 25.000000 0.611468 0.763173 -0.208983
-16.29999924 -11.50000000 0.43000001 255 66 95 0.000000 0.000000 1.000000 1.000000 1686671107.258753 3598.000000 25.000000 0.098652 0.994277 0.041013
-16.40999985 -11.47999954 0.52999997 255 66 95 0.000000 0.000000 1.000000 1.000000 1686671100.809320 2056.000000 25.000000 0.275852 0.948662 -0.154746
-16.37999916 -11.43000031 0.41999999 255 66 95 0.000000 0.000000 1.000000 1.000000 1686671447.380434 2827.000000 25.000000 0.457448 0.885697 -0.079254
-16.37999916 -11.43999958 0.38000000 255 66 95 0.000000 0.000000 1.000000 1.000000 1686671384.412905 8995.000000 25.000000 0.343439 0.939071 -0.013940
-16.44000053 -11.44999981 0.41999999 255 66 95 0.000000 0.000000 1.000000 1.000000 1686671438.760195 12850.000000 25.000000 0.788367 0.575462 0.217534
-16.37999916 -11.53999996 0.50000000 255 66 95 0.000000 0.000000 1.000000 1.000000 1686671438.760927 3855.000000 25.000000 0.658602 0.752490 -0.001381
-16.45999908 -11.46000004 0.47999999 255 66 95 0.000000 0.000000 1.000000 1.000000 1686671446.211245 5654.000000 25.000000 0.515092 0.804930 -0.294563
-16.46999931 -11.43999958 0.38999999 255 66 95 0.000000 0.000000 1.000000 1.000000 1686671059.364046 2056.000000 25.000000 0.378690 0.913643 -0.147816
-16.45999908 -11.48999977 0.50000000 255 66 95 0.000000 0.000000 1.000000 1.000000 1686671446.210848 3341.000000 25.000000 0.487672 0.873026 -0.001329
-16.38999939 -11.59000015 0.41999999 255 66 95 0.000000 0.000000 1.000000 1.000000 1686671447.579866 12593.000000 25.000000 0.431766 0.901822 0.017165
-16.45999908 -11.59000015 0.36000001 255 66 95 0.000000 0.000000 1.000000 1.000000 1686671956.480440 5397.000000 25.000000 0.451376 0.871673 0.190910
-16.48999977 -11.59000015 0.40000001 255 66 95 0.000000 0.000000 1.000000 1.000000 1686671447.579348 13878.000000 25.000000 0.380411 0.852432 -0.358674
-16.73999977 -11.43000031 0.44000000 255 66 95 0.000000 0.000000 1.000000 1.000000 1686671430.035189 2056.000000 25.000000 0.765338 0.636562 -0.095118
-16.75000000 -11.40999985 0.41999999 255 66 95 0.000000 0.000000 1.000000 1.000000 1686671451.399080 3084.000000 25.000000 0.822119 0.543587 -0.169216
-16.73999977 -11.43000031 0.43000001 255 66 95 0.000000 0.000000 1.000000 1.000000 1686671442.050783 257.000000 25.000000 0.814967 0.548855 -0.185976
-16.72999954 -11.52000046 0.38000000 255 66 95 0.000000 0.000000 1.000000 1.000000 1686671447.681337 6939.000000 25.000000 0.645662 0.738120 0.195702
-16.20000076 -11.52000046 0.22000000 255 66 95 0.000000 0.000000 1.000000 1.000000 1686671447.680941 7196.000000 67.000000 -0.012000 0.993839 0.110184
-16.36000061 -11.43000031 0.31000000 255 66 95 0.000000 0.000000 1.000000 1.000000 1686671132.564325 8995.000000 25.000000 0.375935 0.922994 0.082194
-16.32999992 -11.39999962 0.31000000 255 66 95 0.000000 0.000000 0.000000 0.000000 51.808199 0.000000 25.000000 0.606609 0.791041 -0.079248
-16.32999992 -11.39999962 0.31000000 255 66 95 0.000000 0.000000 0.000000 0.000000 51.808199 0.000000 25.000000 0.606609 0.791041 -0.079248
-16.36000061 -11.47000027 0.30000001 255 66 95 0.000000 0.000000 1.000000 1.000000 1686671118.987467 9766.000000 25.000000 0.558713 0.811715 -0.170174
-16.28000069 -11.43999958 0.27000001 255 66 95 0.000000 0.000000 1.000000 1.000000 1686671422.536745 514.000000 25.000000 0.415064 0.887327 -0.200932
-16.29999924 -11.50000000 0.30000001 255 66 95 0.000000 0.000000 1.000000 1.000000 1686671109.861849 7710.000000 25.000000 0.668303 0.742401 0.047023
-16.29000092 -11.55000019 0.31999999 255 66 95 0.000000 0.000000 1.000000 1.000000 1686671359.094362 3855.000000 25.000000 -0.028979 0.984136 -0.175035
-16.35000038 -11.42000008 0.02000000 255 66 95 0.000000 0.000000 1.000000 1.000000 1686671106.108141 13878.000000 25.000000 0.843190 0.377011 0.383268
-16.36000061 -11.51000023 0.06000000 255 66 95 0.000000 0.000000 1.000000 1.000000 1686671438.759371 3855.000000 25.000000 0.568988 0.771859 0.283702
-16.21999931 -11.60999966 0.23999999 255 66 95 0.000000 0.000000 1.000000 1.000000 1686671436.153536 1285.000000 67.000000 0.458224 0.870774 -0.178280
-16.20000076 -11.60999966 0.19000000 255 66 95 0.000000 0.000000 1.000000 1.000000 1686671449.000917 5911.000000 67.000000 0.133379 0.944429 0.300439
-16.20999908 -11.60999966 0.23999999 255 66 95 0.000000 0.000000 1.000000 1.000000 1686671099.556147 3341.000000 67.000000 -0.144530 0.988950 -0.033003
-16.37000084 -11.42000008 0.28000000 255 66 95 0.000000 0.000000 1.000000 1.000000 1686671446.214022 7196.000000 25.000000 0.401776 0.909864 0.103551
-16.39999962 -11.47999954 0.31000000 255 66 95 0.000000 0.000000 1.000000 1.000000 1686671438.760042 5911.000000 25.000000 0.343042 0.895472 0.283640
-16.42000008 -11.43000031 0.31999999 255 66 95 0.000000 0.000000 1.000000 1.000000 1686671116.198626 6425.000000 25.000000 0.840349 0.493876 -0.223384
-16.42000008 -11.44999981 0.34000000 255 66 95 0.000000 0.000000 1.000000 1.000000 1686671112.462549 12850.000000 25.000000 0.747873 0.626597 -0.219231
-16.48999977 -11.48999977 0.20000000 255 66 95 0.000000 0.000000 1.000000 1.000000 1686671042.913860 1285.000000 25.000000 0.916351 0.397662 -0.046549
-16.37999916 -11.42000008 0.16000000 255 66 95 0.000000 0.000000 1.000000 1.000000 1686671132.468790 2570.000000 25.000000 0.923961 0.377318 -0.062664
-16.40999985 -11.43000031 0.16000000 255 66 95 0.000000 0.000000 1.000000 1.000000 1686671106.107454 6168.000000 25.000000 0.566321 0.753482 0.333984
-16.43000031 -11.42000008 0.17000000 255 66 95 0.000000 0.000000 1.000000 1.000000 1686671116.396441 2827.000000 25.000000 0.740015 0.522460 0.423572
