//X Y Z R G B PointSourceId ScanDirectionFlag NumberOfReturns ReturnNumber GpsTime Intensity Classification Nx Ny Nz
-0.38999999 -1.28999996 -0.19000000 226 254 15 97.000000 1.000000 4.000000 1.000000 51.808199 114.000000 202.000000 0.434282 -0.352163 0.829084
-0.38000000 -1.27999997 -0.19000000 226 254 15 97.000000 1.000000 4.000000 1.000000 51.808199 114.000000 202.000000 0.280383 -0.515340 0.809821
-0.38999999 -1.28999996 -0.19000000 226 254 15 97.000000 1.000000 4.000000 1.000000 51.808199 114.000000 202.000000 0.434282 -0.352163 0.829084
-0.38000000 -1.26999998 -0.17000000 226 254 15 97.000000 1.000000 4.000000 1.000000 51.808199 114.000000 202.000000 -0.345465 0.750940 -0.562800
-0.38999999 -1.27999997 -0.20999999 226 254 15 97.000000 1.000000 4.000000 1.000000 51.808199 114.000000 202.000000 0.280383 -0.515340 0.809821
-0.38999999 -1.27999997 -0.20999999 226 254 15 97.000000 1.000000 4.000000 1.000000 51.808199 114.000000 202.000000 0.280383 -0.515340 0.809821
-0.31999999 -1.27999997 -0.27000001 226 254 15 97.000000 1.000000 4.000000 1.000000 51.808199 114.000000 202.000000 0.637203 -0.630513 0.443199
-0.33000001 -1.34000003 -0.25999999 226 254 15 97.000000 1.000000 4.000000 1.000000 51.808199 114.000000 202.000000 0.615656 -0.354369 0.703840
-0.37000000 -1.27999997 -0.27000001 226 254 15 97.000000 1.000000 4.000000 1.000000 51.808199 114.000000 202.000000 0.223730 -0.655544 0.721254
-0.38999999 -1.29999995 -0.30000001 226 254 15 97.000000 1.000000 4.000000 1.000000 51.808199 114.000000 202.000000 0.343539 -0.724526 0.597530
-0.38999999 -1.29999995 -0.30000001 226 254 15 97.000000 1.000000 4.000000 1.000000 51.808199 114.000000 202.000000 0.343539 -0.724526 0.597530
-0.36000001 -1.29999995 -0.31000000 226 254 15 97.000000 1.000000 4.000000 1.000000 51.808199 114.000000 202.000000 -0.566290 0.620383 -0.542624
-0.38999999 -1.33000004 -0.31000000 226 254 15 97.000000 1.000000 4.000000 1.000000 51.808199 114.000000 202.000000 0.295236 -0.479564 0.826350
-0.38999999 -1.34000003 -0.31999999 226 254 15 97.000000 1.000000 4.000000 1.000000 51.808199 114.000000 202.000000 0.200491 -0.447021 0.871766
-0.31999999 -1.37000000 -0.18000001 226 254 15 97.000000 1.000000 4.000000 1.000000 51.808199 114.000000 202.000000 0.070822 -0.706775 0.703884
-0.31999999 -1.41999996 -0.18000001 226 254 15 97.000000 1.000000 4.000000 1.000000 51.808199 114.000000 202.000000 -0.561161 0.513976 -0.648789
-0.34999999 -1.39999998 -0.23999999 226 254 15 97.000000 1.000000 4.000000 1.000000 51.808199 114.000000 202.000000 0.187098 -0.443437 0.876561
-0.34999999 -1.39999998 -0.23999999 226 254 15 97.000000 1.000000 4.000000 1.000000 51.808199 114.000000 202.000000 0.187098 -0.443437 0.876561
-0.34000000 -1.41999996 -0.31000000 226 254 15 97.000000 1.000000 4.000000 1.000000 51.808199 114.000000 202.000000 0.614183 -0.340489 0.711931
-0.31999999 -1.39999998 -0.28999999 226 254 15 97.000000 1.000000 4.000000 1.000000 51.808199 114.000000 202.000000 0.148199 -0.506223 0.849574
-0.37000000 -1.36000001 -0.27000001 226 254 15 97.000000 1.000000 4.000000 1.000000 51.808199 114.000000 202.000000 0.164718 -0.447507 0.878980
-0.34999999 -1.41999996 -0.30000001 226 254 15 97.000000 1.000000 4.000000 1.000000 51.808199 114.000000 202.000000 0.494510 -0.350478 0.795377
-0.40000001 -1.24000001 0.04000000 226 254 15 97.000000 1.000000 4.000000 1.000000 51.808199 114.000000 202.000000 -0.004132 -0.634881 0.772599
-0.40000001 -1.26999998 0.03000000 226 254 15 97.000000 1.000000 4.000000 1.000000 51.808199 114.000000 202.000000 0.532669 -0.529309 0.660375
-0.40000001 -1.26999998 0.03000000 226 254 15 97.000000 1.000000 4.000000 1.000000 51.808199 114.000000 202.000000 0.532669 -0.529309 0.660375
-0.41999999 -1.28999996 0.02000000 226 254 15 97.000000 1.000000 4.000000 1.000000 51.808199 114.000000 202.000000 0.015363 -0.727663 0.685763
-0.41999999 -1.27999997 -0.06000000 226 254 15 97.000000 1.000000 4.000000 1.000000 51.808199 114.000000 202.000000 0.149061 -0.624851 0.766383
-0.41999999 -1.28999996 -0.07000000 226 254 15 97.000000 1.000000 4.000000 1.000000 51.808199 114.000000 202.000000 -0.108607 0.832656 -0.543036
-0.41000000 -1.26999998 -0.05000000 226 254 15 97.000000 1.000000 4.000000 1.000000 51.808199 114.000000 202.000000 0.221549 -0.590282 0.776198
-0.40000001 -1.33000004 -0.02000000 226 254 15 97.000000 1.000000 4.000000 1.000000 51.808199 114.000000 202.000000 0.237816 -0.700848 0.672499
-0.40000001 -1.27999997 -0.11000000 226 254 15 97.000000 1.000000 4.000000 1.000000 51.808199 114.000000 202.000000 -0.043059 0.840353 -0.540326
-0.43000001 -1.33000004 -0.10000000 226 254 15 97.000000 1.000000 4.000000 1.000000 51.808199 114.000000 202.000000 0.043087 0.843678 -0.535117
-0.40000001 -1.30999994 -0.08000000 226 254 15 97.000000 1.000000 4.000000 1.000000 51.808199 114.000000 202.000000 0.273137 -0.461401 0.844101
-0.41000000 -1.34000003 -0.12000000 226 254 15 97.000000 1.000000 4.000000 1.000000 51.808199 114.000000 202.000000 0.179128 -0.472248 0.863073
-0.41000000 -1.34000003 -0.12000000 226 254 15 97.000000 1.000000 4.000000 1.000000 51.808199 114.000000 202.000000 0.179128 -0.472248 0.863073
-0.44000000 -1.33000004 -0.10000000 226 254 15 97.000000 1.000000 4.000000 1.000000 51.808199 114.000000 202.000000 0.543396 -0.651066 0.529937
-0.44000000 -1.30999994 -0.08000000 226 254 15 97.000000 1.000000 4.000000 1.000000 51.808199 114.000000 202.000000 0.120628 -0.674625 0.728238
-0.41000000 -1.35000002 -0.15000001 226 254 15 97.000000 1.000000 4.000000 1.000000 51.808199 114.000000 202.000000 0.219907 -0.552073 0.804274
-0.41000000 -1.27999997 -0.20999999 226 254 15 97.000000 1.000000 4.000000 1.000000 51.808199 114.000000 202.000000 -0.309303 0.901271 -0.303384
-0.41000000 -1.27999997 -0.20999999 226 254 15 97.000000 1.000000 4.000000 1.000000 51.808199 114.000000 202.000000 -0.309303 0.901271 -0.303384
-0.41000000 -1.34000003 -0.19000000 226 254 15 97.000000 1.000000 4.000000 1.000000 51.808199 114.000000 202.000000 -0.067520 -0.780067 0.622042
-0.43000001 -1.30999994 -0.19000000 226 254 15 97.000000 1.000000 4.000000 1.000000 51.808199 114.000000 202.000000 -0.268611 0.920746 -0.282975
-0.41000000 -1.34000003 -0.19000000 226 254 15 97.000000 1.000000 4.000000 1.000000 51.808199 114.000000 202.000000 -0.067520 -0.780067 0.622042
-0.43000001 -1.30999994 -0.19000000 226 254 15 97.000000 1.000000 4.000000 1.000000 51.808199 114.000000 202.000000 -0.268611 0.920746 -0.282975
-0.43000001 -1.33000004 -0.23999999 226 254 15 97.000000 1.000000 4.000000 1.000000 51.808199 114.000000 202.000000 -0.480460 0.713208 -0.510385
-0.40000001 -1.32000005 -0.20999999 226 254 15 97.000000 1.000000 4.000000 1.000000 51.808199 114.000000 202.000000 0.070895 0.736439 -0.672779
-0.43000001 -1.33000004 -0.23000000 226 254 15 97.000000 1.000000 4.000000 1.000000 51.808199 114.000000 202.000000 0.168902 0.759300 -0.628439
-0.43000001 -1.33000004 -0.23999999 226 254 15 97.000000 1.000000 4.000000 1.000000 51.808199 114.000000 202.000000 -0.480460 0.713208 -0.510385
-0.44999999 -1.28999996 -0.18000001 226 254 15 97.000000 1.000000 4.000000 1.000000 51.808199 114.000000 202.000000 0.285611 0.735567 -0.614302
-0.44000000 -1.33000004 -0.23999999 226 254 15 97.000000 1.000000 4.000000 1.000000 51.808199 114.000000 202.000000 -0.220132 0.924556 -0.311026
-0.40000001 -1.27999997 -0.25000000 226 254 15 97.000000 1.000000 4.000000 1.000000 51.808199 114.000000 202.000000 0.318509 -0.492818 0.809742
-0.41000000 -1.32000005 -0.25000000 226 254 15 97.000000 1.000000 4.000000 1.000000 51.808199 114.000000 202.000000 -0.283791 0.835866 -0.469884
-0.41000000 -1.32000005 -0.25000000 226 254 15 97.000000 1.000000 4.000000 1.000000 51.808199 114.000000 202.000000 -0.283791 0.835866 -0.469884
-0.41000000 -1.32000005 -0.25000000 226 254 15 97.000000 1.000000 4.000000 1.000000 51.808199 114.000000 202.000000 -0.283791 0.835866 -0.469884
-0.41000000 -1.30999994 -0.27000001 226 254 15 97.000000 1.000000 4.000000 1.000000 51.808199 114.000000 202.000000 0.304888 -0.563484 0.767807
-0.41000000 -1.32000005 -0.28000000 226 254 15 97.000000 1.000000 4.000000 1.000000 51.808199 114.000000 202.000000 0.478472 -0.448875 0.754703
-0.41000000 -1.30999994 -0.27000001 226 254 15 97.000000 1.000000 4.000000 1.000000 51.808199 114.000000 202.000000 0.304888 -0.563484 0.767807
-0.41000000 -1.32000005 -0.31000000 226 254 15 97.000000 1.000000 4.000000 1.000000 51.808199 114.000000 202.000000 -0.267554 0.748835 -0.606351
-0.40000001 -1.30999994 -0.31000000 226 254 15 97.000000 1.000000 4.000000 1.000000 51.808199 114.000000 202.000000 0.455647 -0.559127 0.692650
-0.44000000 -1.34000003 -0.25000000 226 254 15 97.000000 1.000000 4.000000 1.000000 51.808199 114.000000 202.000000 -0.204473 0.831525 -0.516485
-0.40000001 -1.38999999 -0.20999999 226 254 15 97.000000 1.000000 4.000000 1.000000 51.808199 114.000000 202.000000 0.057716 -0.556047 0.829144
-0.40000001 -1.38999999 -0.20999999 226 254 15 97.000000 1.000000 4.000000 1.000000 51.808199 114.000000 202.000000 0.057716 -0.556047 0.829144
-0.44000000 -1.38999999 -0.23000000 226 254 15 97.000000 1.000000 4.000000 1.000000 51.808199 114.000000 202.000000 -0.400454 0.753506 -0.521407
-0.43000001 -1.36000001 -0.28000000 226 254 15 97.000000 1.000000 4.000000 1.000000 51.808199 114.000000 202.000000 0.108399 0.888310 -0.446267
-0.41999999 -1.40999997 -0.28999999 226 254 15 97.000000 1.000000 4.000000 1.000000 51.808199 114.000000 202.000000 0.378881 -0.452419 0.807320
-0.40000001 -1.41999996 -0.31999999 226 254 15 97.000000 1.000000 4.000000 1.000000 51.808199 114.000000 202.000000 -0.294304 0.909269 -0.294304
-0.44000000 -1.36000001 -0.31999999 226 254 15 97.000000 1.000000 4.000000 1.000000 51.808199 114.000000 202.000000 -0.327630 0.753709 -0.569720
-0.44999999 -1.36000001 -0.31000000 226 254 15 97.000000 1.000000 4.000000 1.000000 51.808199 114.000000 202.000000 0.298641 0.830252 -0.470633
-0.44999999 -1.36000001 -0.31000000 226 254 15 97.000000 1.000000 4.000000 1.000000 51.808199 114.000000 202.000000 0.298641 0.830252 -0.470633
-0.31999999 -1.25999999 -0.38999999 226 254 15 97.000000 1.000000 4.000000 1.000000 51.808199 114.000000 202.000000 0.819370 -0.556581 0.137300
-0.36000001 -1.25999999 -0.37000000 226 254 15 97.000000 1.000000 4.000000 1.000000 51.808199 114.000000 202.000000 -0.467561 0.668663 -0.578167
-0.30000001 -1.26999998 -0.33000001 226 254 15 97.000000 1.000000 4.000000 1.000000 51.808199 114.000000 202.000000 0.915570 -0.120506 0.383680
-0.30000001 -1.27999997 -0.34999999 226 254 15 97.000000 1.000000 4.000000 1.000000 51.808199 114.000000 202.000000 0.866595 -0.097864 0.489321
-0.28999999 -1.33000004 -0.41000000 226 254 15 97.000000 1.000000 4.000000 1.000000 51.808199 114.000000 202.000000 0.756793 -0.216004 0.616934
-0.28000000 -1.34000003 -0.38000000 226 254 15 97.000000 1.000000 4.000000 1.000000 51.808199 114.000000 202.000000 -0.672564 0.675790 -0.301605
-0.28999999 -1.33000004 -0.41000000 226 254 15 97.000000 1.000000 4.000000 1.000000 51.808199 114.000000 202.000000 0.756793 -0.216004 0.616934
-0.28000000 -1.33000004 -0.41000000 226 254 15 97.000000 1.000000 4.000000 1.000000 51.808199 114.000000 202.000000 0.895605 -0.193684 0.400474
-0.28000000 -1.33000004 -0.41000000 226 254 15 97.000000 1.000000 4.000000 1.000000 51.808199 114.000000 202.000000 0.895605 -0.193684 0.400474
-0.27000001 -1.32000005 -0.43000001 226 254 15 97.000000 1.000000 4.000000 1.000000 51.808199 114.000000 202.000000 0.762198 -0.476988 0.437649
-0.28999999 -1.32000005 -0.46000001 226 254 15 97.000000 1.000000 4.000000 1.000000 51.808199 114.000000 202.000000 0.649365 -0.248054 0.718884
-0.30000001 -1.32000005 -0.47999999 226 254 15 97.000000 1.000000 4.000000 1.000000 51.808199 114.000000 202.000000 0.876063 -0.269906 0.399581
-0.28999999 -1.32000005 -0.49000001 226 254 15 97.000000 1.000000 4.000000 1.000000 51.808199 114.000000 202.000000 0.953616 -0.200407 0.224618
-0.28999999 -1.32000005 -0.46000001 226 254 15 97.000000 1.000000 4.000000 1.000000 51.808199 114.000000 202.000000 0.649365 -0.248054 0.718884
-0.25999999 -1.38999999 -0.34999999 226 254 15 97.000000 1.000000 4.000000 1.000000 51.808199 114.000000 202.000000 0.545930 -0.623678 0.559451
-0.27000001 -1.38000000 -0.34999999 226 254 15 97.000000 1.000000 4.000000 1.000000 51.808199 114.000000 202.000000 -0.400103 0.729405 -0.554875
-0.28999999 -1.38000000 -0.40000001 226 254 15 97.000000 1.000000 4.000000 1.000000 51.808199 114.000000 202.000000 -0.320355 0.788934 -0.524362
-0.28999999 -1.36000001 -0.38999999 226 254 15 97.000000 1.000000 4.000000 1.000000 51.808199 114.000000 202.000000 0.565893 -0.294902 0.769934
-0.28999999 -1.38000000 -0.40000001 226 254 15 97.000000 1.000000 4.000000 1.000000 51.808199 114.000000 202.000000 -0.320355 0.788934 -0.524362
-0.28999999 -1.38000000 -0.40000001 226 254 15 97.000000 1.000000 4.000000 1.000000 51.808199 114.000000 202.000000 -0.320355 0.788934 -0.524362
-0.28999999 -1.40999997 -0.38999999 226 254 15 97.000000 1.000000 4.000000 1.000000 51.808199 114.000000 202.000000 -0.246348 0.757874 -0.604102
-0.28000000 -1.35000002 -0.46000001 226 254 15 97.000000 1.000000 4.000000 1.000000 51.808199 114.000000 202.000000 0.544104 -0.365443 0.755249
-0.28000000 -1.35000002 -0.46000001 226 254 15 97.000000 1.000000 4.000000 1.000000 51.808199 114.000000 202.000000 0.544104 -0.365443 0.755249
-0.27000001 -1.36000001 -0.46000001 226 254 15 97.000000 1.000000 4.000000 1.000000 51.808199 114.000000 202.000000 0.922406 -0.362027 0.134546
-0.27000001 -1.37000000 -0.47999999 226 254 15 97.000000 1.000000 4.000000 1.000000 51.808199 114.000000 202.000000 -0.590428 0.644256 -0.486136
-0.28999999 -1.35000002 -0.50000000 226 254 15 97.000000 1.000000 4.000000 1.000000 51.808199 114.000000 202.000000 0.814721 -0.222476 0.535476
-0.28000000 -1.39999998 -0.47999999 226 254 15 97.000000 1.000000 4.000000 1.000000 51.808199 114.000000 202.000000 0.715900 -0.536510 0.446815
-0.28000000 -1.39999998 -0.47999999 226 254 15 97.000000 1.000000 4.000000 1.000000 51.808199 114.000000 202.000000 0.715900 -0.536510 0.446815
-0.34000000 -1.27999997 -0.33000001 226 254 15 97.000000 1.000000 4.000000 1.000000 51.808199 114.000000 202.000000 0.617045 -0.573091 0.539280
-0.33000001 -1.28999996 -0.38999999 226 254 15 97.000000 1.000000 4.000000 1.000000 51.808199 114.000000 202.000000 0.686567 -0.165933 0.707879
-0.31999999 -1.27999997 -0.38999999 226 254 15 97.000000 1.000000 4.000000 1.000000 51.808199 114.000000 202.000000 0.699611 -0.648145 0.300752
-0.33000001 -1.28999996 -0.38999999 226 254 15 97.000000 1.000000 4.000000 1.000000 51.808199 114.000000 202.000000 0.686567 -0.165933 0.707879
-0.31999999 -1.32000005 -0.37000000 226 254 15 97.000000 1.000000 4.000000 1.000000 51.808199 114.000000 202.000000 -0.838114 0.433940 -0.330546
-0.37000000 -1.26999998 -0.37000000 226 254 15 97.000000 1.000000 4.000000 1.000000 51.808199 114.000000 202.000000 0.493155 -0.479871 0.725618
-0.34999999 -1.27999997 -0.36000001 226 254 15 97.000000 1.000000 4.000000 1.000000 51.808199 114.000000 202.000000 0.710072 -0.543779 0.447329
-0.38000000 -1.26999998 -0.36000001 226 254 15 97.000000 1.000000 4.000000 1.000000 51.808199 114.000000 202.000000 0.572021 -0.263161 0.776877
-0.34999999 -1.26999998 -0.34999999 226 254 15 97.000000 1.000000 4.000000 1.000000 51.808199 114.000000 202.000000 0.760760 -0.485905 0.430279
-0.36000001 -1.26999998 -0.38000000 226 254 15 97.000000 1.000000 4.000000 1.000000 51.808199 114.000000 202.000000 -0.544494 0.747248 -0.380982
-0.36000001 -1.26999998 -0.38000000 226 254 15 97.000000 1.000000 4.000000 1.000000 51.808199 114.000000 202.000000 -0.544494 0.747248 -0.380982
-0.31000000 -1.29999995 -0.46000001 226 254 15 97.000000 1.000000 4.000000 1.000000 51.808199 114.000000 202.000000 0.887284 -0.340801 0.310775
-0.31000000 -1.29999995 -0.46000001 226 254 15 97.000000 1.000000 4.000000 1.000000 51.808199 114.000000 202.000000 0.887284 -0.340801 0.310775
-0.34000000 -1.27999997 -0.47999999 226 254 15 97.000000 1.000000 4.000000 1.000000 51.808199 114.000000 202.000000 0.853354 -0.456445 0.251884
-0.31000000 -1.34000003 -0.44999999 226 254 15 97.000000 1.000000 4.000000 1.000000 51.808199 114.000000 202.000000 0.920802 -0.326920 0.212712
-0.36000001 -1.28999996 -0.41999999 226 254 15 97.000000 1.000000 4.000000 1.000000 51.808199 114.000000 202.000000 0.489472 -0.382855 0.783479
-0.37000000 -1.27999997 -0.44000000 226 254 15 97.000000 1.000000 4.000000 1.000000 51.808199 114.000000 202.000000 0.854872 -0.476264 0.205830
-0.36000001 -1.26999998 -0.44999999 226 254 15 97.000000 1.000000 4.000000 1.000000 51.808199 114.000000 202.000000 0.881706 -0.243178 0.404302
-0.38000000 -1.27999997 -0.41999999 226 254 15 97.000000 1.000000 4.000000 1.000000 51.808199 114.000000 202.000000 0.361844 -0.533841 0.764253
-0.36000001 -1.28999996 -0.46000001 226 254 15 97.000000 1.000000 4.000000 1.000000 51.808199 114.000000 202.000000 0.869249 -0.411111 0.274580
-0.31000000 -1.41999996 -0.34999999 226 254 15 97.000000 1.000000 4.000000 1.000000 51.808199 114.000000 202.000000 0.567084 -0.337665 0.751265
-0.31000000 -1.41999996 -0.34999999 226 254 15 97.000000 1.000000 4.000000 1.000000 51.808199 114.000000 202.000000 0.567084 -0.337665 0.751265
-0.34999999 -1.38999999 -0.41000000 226 254 15 97.000000 1.000000 4.000000 1.000000 51.808199 114.000000 202.000000 0.350429 -0.528066 0.773528
-0.38999999 -1.41999996 -0.36000001 226 254 15 97.000000 1.000000 4.000000 1.000000 51.808199 114.000000 202.000000 -0.393395 0.829448 -0.396555
-0.38000000 -1.41999996 -0.34000000 226 254 15 97.000000 1.000000 4.000000 1.000000 51.808199 114.000000 202.000000 -0.079849 -0.672185 0.736065
-0.31999999 -1.38000000 -0.47000000 226 254 15 97.000000 1.000000 4.000000 1.000000 51.808199 114.000000 202.000000 0.563791 -0.245194 0.788682
-0.31000000 -1.36000001 -0.47000000 226 254 15 97.000000 1.000000 4.000000 1.000000 51.808199 114.000000 202.000000 0.749175 -0.240302 0.617245
-0.33000001 -1.42999995 -0.44999999 226 254 15 97.000000 1.000000 4.000000 1.000000 51.808199 114.000000 202.000000 0.230924 -0.457321 0.858797
-0.33000001 -1.42999995 -0.44999999 226 254 15 97.000000 1.000000 4.000000 1.000000 51.808199 114.000000 202.000000 0.230924 -0.457321 0.858797
-0.34000000 -1.42999995 -0.43000001 226 254 15 97.000000 1.000000 4.000000 1.000000 51.808199 114.000000 202.000000 0.681906 -0.575202 0.451825
-0.37000000 -1.38999999 -0.43000001 226 254 15 97.000000 1.000000 4.000000 1.000000 51.808199 114.000000 202.000000 -0.147995 0.889409 -0.432491
-0.34999999 -1.42999995 -0.41999999 226 254 15 97.000000 1.000000 4.000000 1.000000 51.808199 114.000000 202.000000 0.585365 -0.612356 0.531383
-0.38000000 -1.42999995 -0.47000000 226 254 15 97.000000 1.000000 4.000000 1.000000 51.808199 114.000000 202.000000 -0.483827 0.713271 -0.507104
-0.36000001 -1.41999996 -0.47999999 226 254 15 97.000000 1.000000 4.000000 1.000000 51.808199 114.000000 202.000000 0.366881 -0.407820 0.836111
-0.38000000 -1.42999995 -0.47999999 226 254 15 97.000000 1.000000 4.000000 1.000000 51.808199 114.000000 202.000000 0.318269 -0.535779 0.782078
-0.36000001 -1.40999997 -0.47000000 226 254 15 97.000000 1.000000 4.000000 1.000000 51.808199 114.000000 202.000000 0.214482 -0.506543 0.835112
-0.28999999 -1.33000004 -0.54000002 226 254 15 97.000000 1.000000 4.000000 1.000000 51.808199 114.000000 202.000000 0.904940 0.143034 0.400780
-0.30000001 -1.34000003 -0.67000002 226 254 15 97.000000 1.000000 4.000000 1.000000 51.808199 114.000000 202.000000 0.974108 0.070018 0.214967
-0.28000000 -1.37000000 -0.51999998 226 254 15 97.000000 1.000000 4.000000 1.000000 51.808199 114.000000 202.000000 0.900500 0.033352 0.433574
-0.28999999 -1.35000002 -0.50999999 226 254 15 97.000000 1.000000 4.000000 1.000000 51.808199 114.000000 202.000000 0.942590 -0.150978 0.297875
-0.28000000 -1.37000000 -0.51999998 226 254 15 97.000000 1.000000 4.000000 1.000000 51.808199 114.000000 202.000000 0.900500 0.033352 0.433574
-0.28000000 -1.37000000 -0.51999998 226 254 15 97.000000 1.000000 4.000000 1.000000 51.808199 114.000000 202.000000 0.900500 0.033352 0.433574
-0.28999999 -1.35000002 -0.54000002 226 254 15 97.000000 1.000000 4.000000 1.000000 51.808199 114.000000 202.000000 0.909272 0.121516 0.398068
-0.27000001 -1.37000000 -0.55000001 226 254 15 97.000000 1.000000 4.000000 1.000000 51.808199 114.000000 202.000000 0.803007 -0.055233 0.593404
-0.30000001 -1.38000000 -0.57999998 226 254 15 97.000000 1.000000 4.000000 1.000000 51.808199 114.000000 202.000000 0.919229 -0.126169 0.372960
-0.27000001 -1.36000001 -0.56000000 226 254 15 97.000000 1.000000 4.000000 1.000000 51.808199 114.000000 202.000000 0.971491 -0.218804 0.091273
-0.28000000 -1.38999999 -0.56000000 226 254 15 97.000000 1.000000 4.000000 1.000000 51.808199 114.000000 202.000000 0.799022 -0.561933 0.213996
-0.28999999 -1.41999996 -0.51999998 226 254 15 97.000000 1.000000 4.000000 1.000000 51.808199 114.000000 202.000000 -0.655590 0.691027 -0.304439
-0.28999999 -1.41999996 -0.51999998 226 254 15 97.000000 1.000000 4.000000 1.000000 51.808199 114.000000 202.000000 -0.655590 0.691027 -0.304439
-0.28999999 -1.39999998 -0.56000000 226 254 15 97.000000 1.000000 4.000000 1.000000 51.808199 114.000000 202.000000 0.849895 -0.431914 0.301875
-0.28999999 -1.39999998 -0.56000000 226 254 15 97.000000 1.000000 4.000000 1.000000 51.808199 114.000000 202.000000 0.849895 -0.431914 0.301875
-0.28000000 -1.39999998 -0.56999999 226 254 15 97.000000 1.000000 4.000000 1.000000 51.808199 114.000000 202.000000 0.924268 -0.295709 0.241424
-0.28999999 -1.41999996 -0.56000000 226 254 15 97.000000 1.000000 4.000000 1.000000 51.808199 114.000000 202.000000 0.841077 -0.120569 0.527307
-0.28999999 -1.42999995 -0.56999999 226 254 15 97.000000 1.000000 4.000000 1.000000 51.808199 114.000000 202.000000 0.628933 -0.391226 0.671852
-0.28000000 -1.39999998 -0.56999999 226 254 15 97.000000 1.000000 4.000000 1.000000 51.808199 114.000000 202.000000 0.924268 -0.295709 0.241424
-0.28999999 -1.40999997 -0.55000001 226 254 15 97.000000 1.000000 4.000000 1.000000 51.808199 114.000000 202.000000 0.843977 -0.465802 0.265953
-0.30000001 -1.39999998 -0.56000000 226 254 15 97.000000 1.000000 4.000000 1.000000 51.808199 114.000000 202.000000 -0.493488 0.684192 -0.536982
-0.28999999 -1.39999998 -0.56999999 226 254 15 97.000000 1.000000 4.000000 1.000000 51.808199 114.000000 202.000000 0.903367 -0.392082 0.173780
-0.28000000 -1.38000000 -0.62000000 226 254 15 97.000000 1.000000 4.000000 1.000000 51.808199 114.000000 202.000000 0.957241 -0.100010 0.271456
-0.30000001 -1.37000000 -0.63999999 226 254 15 97.000000 1.000000 4.000000 1.000000 51.808199 114.000000 202.000000 0.919184 0.210140 0.333079
-0.30000001 -1.38000000 -0.64999998 226 254 15 97.000000 1.000000 4.000000 1.000000 51.808199 114.000000 202.000000 0.982456 -0.171540 -0.073174
-0.30000001 -1.38000000 -0.64999998 226 254 15 97.000000 1.000000 4.000000 1.000000 51.808199 114.000000 202.000000 0.982456 -0.171540 -0.073174
-0.28000000 -1.39999998 -0.66000003 226 254 15 97.000000 1.000000 4.000000 1.000000 51.808199 114.000000 202.000000 0.917229 -0.278780 0.284558
-0.30000001 -1.39999998 -0.64999998 226 254 15 97.000000 1.000000 4.000000 1.000000 51.808199 114.000000 202.000000 0.784807 -0.470884 0.402922
-0.31000000 -1.34000003 -0.51999998 226 254 15 97.000000 1.000000 4.000000 1.000000 51.808199 114.000000 202.000000 0.593011 -0.426901 0.682710
-0.34000000 -1.30999994 -0.50999999 226 254 15 97.000000 1.000000 4.000000 1.000000 51.808199 114.000000 202.000000 0.796839 -0.574394 0.187402
-0.34000000 -1.32000005 -0.51999998 226 254 15 97.000000 1.000000 4.000000 1.000000 51.808199 114.000000 202.000000 0.920407 -0.088110 0.380905
-0.34000000 -1.34000003 -0.57999998 226 254 15 97.000000 1.000000 4.000000 1.000000 51.808199 114.000000 202.000000 0.820641 0.029160 0.570700
-0.37000000 -1.29999995 -0.51999998 226 254 15 97.000000 1.000000 4.000000 1.000000 51.808199 114.000000 202.000000 0.747630 -0.020962 0.663784
-0.38000000 -1.29999995 -0.50999999 226 254 15 97.000000 1.000000 4.000000 1.000000 51.808199 114.000000 202.000000 0.689567 -0.230903 0.686426
-0.38000000 -1.28999996 -0.50999999 226 254 15 97.000000 1.000000 4.000000 1.000000 51.808199 114.000000 202.000000 0.851229 -0.189993 0.489195
-0.36000001 -1.29999995 -0.54000002 226 254 15 97.000000 1.000000 4.000000 1.000000 51.808199 114.000000 202.000000 0.682397 -0.613000 0.398202
-0.38000000 -1.30999994 -0.50999999 226 254 15 97.000000 1.000000 4.000000 1.000000 51.808199 114.000000 202.000000 0.685811 -0.146206 0.712942
-0.38999999 -1.30999994 -0.56000000 226 254 15 97.000000 1.000000 4.000000 1.000000 51.808199 114.000000 202.000000 0.907745 -0.019705 0.419060
-0.38999999 -1.30999994 -0.56999999 226 254 15 97.000000 1.000000 4.000000 1.000000 51.808199 114.000000 202.000000 0.963797 -0.266168 0.015800
-0.38999999 -1.30999994 -0.56000000 226 254 15 97.000000 1.000000 4.000000 1.000000 51.808199 114.000000 202.000000 0.907745 -0.019705 0.419060
-0.34000000 -1.29999995 -0.62000000 226 254 15 97.000000 1.000000 4.000000 1.000000 51.808199 114.000000 202.000000 0.981051 -0.191511 0.029373
-0.34000000 -1.29999995 -0.62000000 226 254 15 97.000000 1.000000 4.000000 1.000000 51.808199 114.000000 202.000000 0.981051 -0.191511 0.029373
-0.34000000 -1.28999996 -0.58999997 226 254 15 97.000000 1.000000 4.000000 1.000000 51.808199 114.000000 202.000000 0.904024 -0.158026 0.397201
-0.33000001 -1.29999995 -0.60000002 226 254 15 97.000000 1.000000 4.000000 1.000000 51.808199 114.000000 202.000000 0.980239 0.066151 -0.186426
-0.34000000 -1.29999995 -0.62000000 226 254 15 97.000000 1.000000 4.000000 1.000000 51.808199 114.000000 202.000000 0.981051 -0.191511 0.029373
-0.34000000 -1.32000005 -0.60000002 226 254 15 97.000000 1.000000 4.000000 1.000000 51.808199 114.000000 202.000000 0.903392 -0.404186 0.143238
-0.31999999 -1.33000004 -0.58999997 226 254 15 97.000000 1.000000 4.000000 1.000000 51.808199 114.000000 202.000000 0.958045 -0.255566 0.129749
-0.34000000 -1.30999994 -0.58999997 226 254 15 97.000000 1.000000 4.000000 1.000000 51.808199 114.000000 202.000000 0.899400 0.036190 0.435626
-0.31999999 -1.33000004 -0.60000002 226 254 15 97.000000 1.000000 4.000000 1.000000 51.808199 114.000000 202.000000 0.947610 0.107352 0.300850
-0.34000000 -1.30999994 -0.58999997 226 254 15 97.000000 1.000000 4.000000 1.000000 51.808199 114.000000 202.000000 0.899400 0.036190 0.435626
-0.34000000 -1.30999994 -0.60000002 226 254 15 97.000000 1.000000 4.000000 1.000000 51.808199 114.000000 202.000000 0.995753 -0.091304 0.011816
-0.34000000 -1.32000005 -0.60000002 226 254 15 97.000000 1.000000 4.000000 1.000000 51.808199 114.000000 202.000000 0.903392 -0.404186 0.143238
-0.34000000 -1.33000004 -0.63000000 226 254 15 97.000000 1.000000 4.000000 1.000000 51.808199 114.000000 202.000000 0.980117 0.190279 -0.056246
-0.31999999 -1.33000004 -0.63000000 226 254 15 97.000000 1.000000 4.000000 1.000000 51.808199 114.000000 202.000000 0.918629 -0.332878 0.212870
-0.33000001 -1.34000003 -0.67000002 226 254 15 97.000000 1.000000 4.000000 1.000000 51.808199 114.000000 202.000000 0.989929 0.096550 -0.103530
-0.33000001 -1.34000003 -0.66000003 226 254 15 97.000000 1.000000 4.000000 1.000000 51.808199 114.000000 202.000000 0.997448 0.067064 0.024484
-0.33000001 -1.34000003 -0.66000003 226 254 15 97.000000 1.000000 4.000000 1.000000 51.808199 114.000000 202.000000 0.997448 0.067064 0.024484
-0.33000001 -1.34000003 -0.66000003 226 254 15 97.000000 1.000000 4.000000 1.000000 51.808199 114.000000 202.000000 0.997448 0.067064 0.024484
-0.36000001 -1.30999994 -0.60000002 226 254 15 97.000000 1.000000 4.000000 1.000000 51.808199 114.000000 202.000000 0.990941 -0.018992 0.132945
-0.38000000 -1.32000005 -0.61000001 226 254 15 97.000000 1.000000 4.000000 1.000000 51.808199 114.000000 202.000000 0.990023 0.140798 -0.005543
-0.36000001 -1.30999994 -0.58999997 226 254 15 97.000000 1.000000 4.000000 1.000000 51.808199 114.000000 202.000000 0.967088 -0.253603 -0.020628
-0.36000001 -1.30999994 -0.60000002 226 254 15 97.000000 1.000000 4.000000 1.000000 51.808199 114.000000 202.000000 0.990941 -0.018992 0.132945
-0.36000001 -1.30999994 -0.60000002 226 254 15 97.000000 1.000000 4.000000 1.000000 51.808199 114.000000 202.000000 0.990941 -0.018992 0.132945
-0.36000001 -1.30999994 -0.60000002 226 254 15 97.000000 1.000000 4.000000 1.000000 51.808199 114.000000 202.000000 0.990941 -0.018992 0.132945
-0.36000001 -1.30999994 -0.60000002 226 254 15 97.000000 1.000000 4.000000 1.000000 51.808199 114.000000 202.000000 0.990941 -0.018992 0.132945
-0.38000000 -1.32000005 -0.61000001 226 254 15 97.000000 1.000000 4.000000 1.000000 51.808199 114.000000 202.000000 0.990023 0.140798 -0.005543
-0.38999999 -1.33000004 -0.63000000 226 254 15 97.000000 1.000000 4.000000 1.000000 51.808199 114.000000 202.000000 0.981586 -0.163800 -0.098280
-0.38999999 -1.32000005 -0.58999997 226 254 15 97.000000 1.000000 4.000000 1.000000 51.808199 114.000000 202.000000 0.953207 -0.253384 0.164901
-0.34999999 -1.34000003 -0.66000003 226 254 15 97.000000 1.000000 4.000000 1.000000 51.808199 114.000000 202.000000 0.982379 0.015042 0.186293
-0.31000000 -1.38000000 -0.56999999 226 254 15 97.000000 1.000000 4.000000 1.000000 51.808199 114.000000 202.000000 0.584844 -0.375152 0.719178
-0.33000001 -1.37000000 -0.56000000 226 254 15 97.000000 1.000000 4.000000 1.000000 51.808199 114.000000 202.000000 0.621834 -0.168762 0.764750
-0.31999999 -1.35000002 -0.56000000 226 254 15 97.000000 1.000000 4.000000 1.000000 51.808199 114.000000 202.000000 0.910346 -0.151019 0.385309
-0.31999999 -1.36000001 -0.56999999 226 254 15 97.000000 1.000000 4.000000 1.000000 51.808199 114.000000 202.000000 0.827669 -0.525047 0.198217
-0.34000000 -1.40999997 -0.51999998 226 254 15 97.000000 1.000000 4.000000 1.000000 51.808199 114.000000 202.000000 0.461560 -0.432202 0.774702
-0.31999999 -1.39999998 -0.51999998 226 254 15 97.000000 1.000000 4.000000 1.000000 51.808199 114.000000 202.000000 -0.482825 0.728385 -0.486143
-0.34000000 -1.40999997 -0.56000000 226 254 15 97.000000 1.000000 4.000000 1.000000 51.808199 114.000000 202.000000 -0.322294 0.801766 -0.503287
-0.31000000 -1.42999995 -0.57999998 226 254 15 97.000000 1.000000 4.000000 1.000000 51.808199 114.000000 202.000000 0.686750 -0.280143 0.670742
-0.31000000 -1.42999995 -0.57999998 226 254 15 97.000000 1.000000 4.000000 1.000000 51.808199 114.000000 202.000000 0.686750 -0.280143 0.670742
-0.31000000 -1.38000000 -0.61000001 226 254 15 97.000000 1.000000 4.000000 1.000000 51.808199 114.000000 202.000000 0.989041 -0.147635 -0.001110
-0.31000000 -1.38000000 -0.62000000 226 254 15 97.000000 1.000000 4.000000 1.000000 51.808199 114.000000 202.000000 0.991785 0.037066 0.122429
-0.31000000 -1.37000000 -0.63000000 226 254 15 97.000000 1.000000 4.000000 1.000000 51.808199 114.000000 202.000000 0.962363 -0.253118 0.098935
-0.31000000 -1.37000000 -0.62000000 226 254 15 97.000000 1.000000 4.000000 1.000000 51.808199 114.000000 202.000000 0.964572 -0.261725 0.033176
-0.31000000 -1.35000002 -0.64999998 226 254 15 97.000000 1.000000 4.000000 1.000000 51.808199 114.000000 202.000000 0.915001 -0.259565 0.308867
-0.33000001 -1.35000002 -0.66000003 226 254 15 97.000000 1.000000 4.000000 1.000000 51.808199 114.000000 202.000000 0.968400 -0.220729 0.116106
-0.31000000 -1.35000002 -0.64999998 226 254 15 97.000000 1.000000 4.000000 1.000000 51.808199 114.000000 202.000000 0.915001 -0.259565 0.308867
-0.33000001 -1.35000002 -0.66000003 226 254 15 97.000000 1.000000 4.000000 1.000000 51.808199 114.000000 202.000000 0.968400 -0.220729 0.116106
-0.33000001 -1.37000000 -0.64999998 226 254 15 97.000000 1.000000 4.000000 1.000000 51.808199 114.000000 202.000000 0.993026 0.108595 -0.045901
-0.33000001 -1.35000002 -0.64999998 226 254 15 97.000000 1.000000 4.000000 1.000000 51.808199 114.000000 202.000000 0.981865 -0.083332 -0.170287
-0.33000001 -1.35000002 -0.64999998 226 254 15 97.000000 1.000000 4.000000 1.000000 51.808199 114.000000 202.000000 0.981865 -0.083332 -0.170287
-0.31999999 -1.41999996 -0.63000000 226 254 15 97.000000 1.000000 4.000000 1.000000 51.808199 114.000000 202.000000 0.752089 -0.482193 0.449279
-0.31999999 -1.42999995 -0.63000000 226 254 15 97.000000 1.000000 4.000000 1.000000 51.808199 114.000000 202.000000 0.893738 -0.144428 0.424704
-0.31999999 -1.39999998 -0.60000002 226 254 15 97.000000 1.000000 4.000000 1.000000 51.808199 114.000000 202.000000 0.931976 -0.156020 0.327227
-0.31000000 -1.41999996 -0.63000000 226 254 15 97.000000 1.000000 4.000000 1.000000 51.808199 114.000000 202.000000 0.824193 -0.414478 0.385894
-0.38999999 -1.35000002 -0.67000002 226 254 15 97.000000 1.000000 4.000000 1.000000 51.808199 114.000000 202.000000 0.958999 -0.099653 0.265310
-0.38999999 -1.35000002 -0.67000002 226 254 15 97.000000 1.000000 4.000000 1.000000 51.808199 114.000000 202.000000 0.958999 -0.099653 0.265310
-0.38999999 -1.35000002 -0.67000002 226 254 15 97.000000 1.000000 4.000000 1.000000 51.808199 114.000000 202.000000 0.958999 -0.099653 0.265310
-0.38999999 -1.36000001 -0.67000002 226 254 15 97.000000 1.000000 4.000000 1.000000 51.808199 114.000000 202.000000 0.821216 -0.337031 0.460451
-0.28999999 -1.40999997 -0.69000000 226 254 15 97.000000 1.000000 4.000000 1.000000 51.808199 114.000000 202.000000 0.973709 -0.214043 0.077946
-0.30000001 -1.40999997 -0.70999998 226 254 15 97.000000 1.000000 4.000000 1.000000 51.808199 114.000000 202.000000 0.935026 -0.354578 0.001262
-0.30000001 -1.39999998 -0.72000003 226 254 15 97.000000 1.000000 4.000000 1.000000 51.808199 114.000000 202.000000 0.968005 -0.010796 0.250698
-0.36000001 -1.33000004 -0.69000000 226 254 15 97.000000 1.000000 4.000000 1.000000 51.808199 114.000000 202.000000 0.976034 0.105685 0.190233
-0.33000001 -1.35000002 -0.68000001 226 254 15 97.000000 1.000000 4.000000 1.000000 51.808199 114.000000 202.000000 0.994194 0.107334 -0.007589
-0.31999999 -1.38999999 -0.69999999 226 254 15 97.000000 1.000000 4.000000 1.000000 51.808199 114.000000 202.000000 0.953654 -0.297621 -0.044327
-0.33000001 -1.38000000 -0.73000002 226 254 15 97.000000 1.000000 4.000000 1.000000 51.808199 114.000000 202.000000 0.988357 0.127492 -0.083045
-0.34000000 -1.37000000 -0.73000002 226 254 15 97.000000 1.000000 4.000000 1.000000 51.808199 114.000000 202.000000 0.974834 -0.157638 -0.157638
-0.31999999 -1.37000000 -0.75000000 226 254 15 97.000000 1.000000 4.000000 1.000000 51.808199 114.000000 202.000000 0.998115 0.051864 -0.032812
-0.31999999 -1.39999998 -0.70999998 226 254 15 97.000000 1.000000 4.000000 1.000000 51.808199 114.000000 202.000000 0.971228 -0.047645 0.233339
-0.31999999 -1.40999997 -0.69999999 226 254 15 97.000000 1.000000 4.000000 1.000000 51.808199 114.000000 202.000000 0.969937 -0.160161 0.183224
-0.31000000 -1.40999997 -0.75000000 226 254 15 97.000000 1.000000 4.000000 1.000000 51.808199 114.000000 202.000000 0.859151 0.237895 0.453062
-0.31999999 -1.40999997 -0.72000003 226 254 15 97.000000 1.000000 4.000000 1.000000 51.808199 114.000000 202.000000 0.960943 -0.018409 0.276133
-0.38000000 -1.35000002 -0.70999998 226 254 15 97.000000 1.000000 4.000000 1.000000 51.808199 114.000000 202.000000 0.921899 -0.001279 -0.387428
-0.38000000 -1.36000001 -0.69999999 226 254 15 97.000000 1.000000 4.000000 1.000000 51.808199 114.000000 202.000000 0.976680 -0.020077 -0.213759
-0.38000000 -1.35000002 -0.70999998 226 254 15 97.000000 1.000000 4.000000 1.000000 51.808199 114.000000 202.000000 0.921899 -0.001279 -0.387428
-0.38000000 -1.36000001 -0.69999999 226 254 15 97.000000 1.000000 4.000000 1.000000 51.808199 114.000000 202.000000 0.976680 -0.020077 -0.213759
-0.38999999 -1.40999997 -0.73000002 226 254 15 97.000000 1.000000 4.000000 1.000000 51.808199 114.000000 202.000000 0.826205 0.159286 0.540383
-0.33000001 -1.41999996 -0.76999998 226 254 15 97.000000 1.000000 4.000000 1.000000 51.808199 114.000000 202.000000 0.990325 -0.084554 0.110036
-0.33000001 -1.42999995 -0.76999998 226 254 15 97.000000 1.000000 4.000000 1.000000 51.808199 114.000000 202.000000 0.950984 -0.247554 0.185327
-0.33000001 -1.40999997 -0.76999998 226 254 15 97.000000 1.000000 4.000000 1.000000 51.808199 114.000000 202.000000 0.938947 0.194980 0.283482
-0.33000001 -1.40999997 -0.76999998 226 254 15 97.000000 1.000000 4.000000 1.000000 51.808199 114.000000 202.000000 0.938947 0.194980 0.283482
-0.33000001 -1.42999995 -0.77999997 226 254 15 97.000000 1.000000 4.000000 1.000000 51.808199 114.000000 202.000000 0.973265 -0.227376 -0.032482
-0.30000001 -1.44000006 -0.41000000 226 254 15 97.000000 1.000000 4.000000 1.000000 51.808199 114.000000 202.000000 0.832289 -0.315047 0.456113
-0.37000000 -1.45000005 -0.40000001 226 254 15 97.000000 1.000000 4.000000 1.000000 51.808199 114.000000 202.000000 0.503835 -0.720002 0.477230
-0.37000000 -1.45000005 -0.38999999 226 254 15 97.000000 1.000000 4.000000 1.000000 51.808199 114.000000 202.000000 0.630029 -0.562465 0.535440
-0.33000001 -1.45000005 -0.47999999 226 254 15 97.000000 1.000000 4.000000 1.000000 51.808199 114.000000 202.000000 0.678165 -0.312377 0.665217
-0.36000001 -1.46000004 -0.47999999 226 254 15 97.000000 1.000000 4.000000 1.000000 51.808199 114.000000 202.000000 0.213082 -0.710791 0.670352
-0.34999999 -1.47000003 -0.50000000 226 254 15 97.000000 1.000000 4.000000 1.000000 51.808199 114.000000 202.000000 -0.548734 0.606140 -0.575748
-0.36000001 -1.46000004 -0.47999999 226 254 15 97.000000 1.000000 4.000000 1.000000 51.808199 114.000000 202.000000 0.213082 -0.710791 0.670352
-0.28000000 -1.44000006 -0.63999999 226 254 15 97.000000 1.000000 4.000000 1.000000 51.808199 114.000000 202.000000 0.858334 -0.464493 0.217966
-0.34000000 -1.44000006 -0.52999997 226 254 15 97.000000 1.000000 4.000000 1.000000 51.808199 114.000000 202.000000 0.353569 -0.341324 0.870912
-0.31999999 -1.46000004 -0.54000002 226 254 15 97.000000 1.000000 4.000000 1.000000 51.808199 114.000000 202.000000 0.805494 -0.342933 0.483297
-0.33000001 -1.46000004 -0.52999997 226 254 15 97.000000 1.000000 4.000000 1.000000 51.808199 114.000000 202.000000 0.776970 -0.269497 0.568937
-0.31999999 -1.46000004 -0.54000002 226 254 15 97.000000 1.000000 4.000000 1.000000 51.808199 114.000000 202.000000 0.805494 -0.342933 0.483297
-0.31999999 -1.44000006 -0.54000002 226 254 15 97.000000 1.000000 4.000000 1.000000 51.808199 114.000000 202.000000 0.851527 -0.225360 0.473407
-0.31999999 -1.44000006 -0.54000002 226 254 15 97.000000 1.000000 4.000000 1.000000 51.808199 114.000000 202.000000 0.851527 -0.225360 0.473407
-0.33000001 -1.47000003 -0.55000001 226 254 15 97.000000 1.000000 4.000000 1.000000 51.808199 114.000000 202.000000 0.518945 -0.539099 0.663377
-0.31000000 -1.44000006 -0.57999998 226 254 15 97.000000 1.000000 4.000000 1.000000 51.808199 114.000000 202.000000 0.491836 -0.673127 0.552266
-0.31999999 -1.45000005 -0.56000000 226 254 15 97.000000 1.000000 4.000000 1.000000 51.808199 114.000000 202.000000 0.430279 -0.485905 0.760760
-0.37000000 -1.47000003 -0.57999998 226 254 15 97.000000 1.000000 4.000000 1.000000 51.808199 114.000000 202.000000 -0.323728 0.748922 -0.578200
-0.37000000 -1.49000001 -0.54000002 226 254 15 97.000000 1.000000 4.000000 1.000000 51.808199 114.000000 202.000000 -0.181324 0.784723 -0.592732
-0.38000000 -1.49000001 -0.54000002 226 254 15 97.000000 1.000000 4.000000 1.000000 51.808199 114.000000 202.000000 0.342099 -0.410832 0.845095
-0.38000000 -1.48000002 -0.57999998 226 254 15 97.000000 1.000000 4.000000 1.000000 51.808199 114.000000 202.000000 -0.499100 0.757650 -0.420553
-0.38000000 -1.48000002 -0.57999998 226 254 15 97.000000 1.000000 4.000000 1.000000 51.808199 114.000000 202.000000 -0.499100 0.757650 -0.420553
-0.34000000 -1.47000003 -0.60000002 226 254 15 97.000000 1.000000 4.000000 1.000000 51.808199 114.000000 202.000000 0.477127 -0.389789 0.787664
-0.33000001 -1.45000005 -0.60000002 226 254 15 97.000000 1.000000 4.000000 1.000000 51.808199 114.000000 202.000000 0.464636 -0.403116 0.788423
-0.33000001 -1.45000005 -0.60000002 226 254 15 97.000000 1.000000 4.000000 1.000000 51.808199 114.000000 202.000000 0.464636 -0.403116 0.788423
-0.31999999 -1.46000004 -0.67000002 226 254 15 97.000000 1.000000 4.000000 1.000000 51.808199 114.000000 202.000000 0.632640 -0.727773 0.264789
-0.31999999 -1.45000005 -0.66000003 226 254 15 97.000000 1.000000 4.000000 1.000000 51.808199 114.000000 202.000000 0.740988 -0.415676 0.527399
-0.34000000 -1.46000004 -0.63999999 226 254 15 97.000000 1.000000 4.000000 1.000000 51.808199 114.000000 202.000000 0.590233 -0.194700 0.783401
-0.31999999 -1.44000006 -0.66000003 226 254 15 97.000000 1.000000 4.000000 1.000000 51.808199 114.000000 202.000000 -0.749245 0.442960 -0.492361
-0.33000001 -1.48000002 -0.67000002 226 254 15 97.000000 1.000000 4.000000 1.000000 51.808199 114.000000 202.000000 0.482871 -0.427218 0.764409
-0.33000001 -1.48000002 -0.67000002 226 254 15 97.000000 1.000000 4.000000 1.000000 51.808199 114.000000 202.000000 0.482871 -0.427218 0.764409
-0.34999999 -1.47000003 -0.58999997 226 254 15 97.000000 1.000000 4.000000 1.000000 51.808199 114.000000 202.000000 0.745638 -0.404775 0.529321
-0.36000001 -1.47000003 -0.62000000 226 254 15 97.000000 1.000000 4.000000 1.000000 51.808199 114.000000 202.000000 0.801450 -0.484709 0.350335
-0.37000000 -1.48000002 -0.58999997 226 254 15 97.000000 1.000000 4.000000 1.000000 51.808199 114.000000 202.000000 0.663504 -0.676482 0.319585
-0.38999999 -1.50000000 -0.61000001 226 254 15 97.000000 1.000000 4.000000 1.000000 51.808199 114.000000 202.000000 -0.186133 0.730687 -0.656849
-0.37000000 -1.48000002 -0.63000000 226 254 15 97.000000 1.000000 4.000000 1.000000 51.808199 114.000000 202.000000 0.770580 -0.496886 0.399138
-0.38000000 -1.49000001 -0.61000001 226 254 15 97.000000 1.000000 4.000000 1.000000 51.808199 114.000000 202.000000 -0.272204 0.733836 -0.622407
-0.30000001 -1.46000004 -0.75000000 226 254 15 97.000000 1.000000 4.000000 1.000000 51.808199 114.000000 202.000000 0.939035 -0.016474 0.343426
-0.30000001 -1.46000004 -0.76999998 226 254 15 97.000000 1.000000 4.000000 1.000000 51.808199 114.000000 202.000000 0.858149 -0.440506 0.263694
-0.30000001 -1.45000005 -0.75999999 226 254 15 97.000000 1.000000 4.000000 1.000000 51.808199 114.000000 202.000000 0.930352 -0.317579 0.183272
-0.31999999 -1.44000006 -0.69999999 226 254 15 97.000000 1.000000 4.000000 1.000000 51.808199 114.000000 202.000000 0.837376 -0.508461 0.200669
-0.31999999 -1.44000006 -0.69999999 226 254 15 97.000000 1.000000 4.000000 1.000000 51.808199 114.000000 202.000000 0.837376 -0.508461 0.200669
-0.34000000 -1.50000000 -0.73000002 226 254 15 97.000000 1.000000 4.000000 1.000000 51.808199 114.000000 202.000000 0.776580 -0.377752 0.504209
-0.33000001 -1.48000002 -0.74000001 226 254 15 97.000000 1.000000 4.000000 1.000000 51.808199 114.000000 202.000000 0.743182 -0.486117 0.459751
-0.34999999 -1.45000005 -0.69999999 226 254 15 97.000000 1.000000 4.000000 1.000000 51.808199 114.000000 202.000000 0.658337 -0.226743 0.717760
-0.34999999 -1.45000005 -0.69000000 226 254 15 97.000000 1.000000 4.000000 1.000000 51.808199 114.000000 202.000000 0.644457 -0.123533 0.754595
-0.36000001 -1.49000001 -0.69999999 226 254 15 97.000000 1.000000 4.000000 1.000000 51.808199 114.000000 202.000000 0.760272 -0.420193 0.495403
-0.34999999 -1.48000002 -0.69999999 226 254 15 97.000000 1.000000 4.000000 1.000000 51.808199 114.000000 202.000000 0.644937 -0.199513 0.737734
-0.36000001 -1.50000000 -0.73000002 226 254 15 97.000000 1.000000 4.000000 1.000000 51.808199 114.000000 202.000000 0.573342 -0.673635 0.466363
-0.33000001 -1.46000004 -0.76999998 226 254 15 97.000000 1.000000 4.000000 1.000000 51.808199 114.000000 202.000000 0.884212 -0.148571 0.442827
-0.33000001 -1.46000004 -0.76999998 226 254 15 97.000000 1.000000 4.000000 1.000000 51.808199 114.000000 202.000000 0.884212 -0.148571 0.442827
-0.33000001 -1.45000005 -0.81999999 226 254 15 97.000000 1.000000 4.000000 1.000000 51.808199 114.000000 202.000000 0.873009 0.480645 0.082677
-0.33000001 -1.45000005 -0.81999999 226 254 15 97.000000 1.000000 4.000000 1.000000 51.808199 114.000000 202.000000 0.873009 0.480645 0.082677
-0.34999999 -1.47000003 -0.79000002 226 254 15 97.000000 1.000000 4.000000 1.000000 51.808199 114.000000 202.000000 0.849381 -0.479953 0.219537
-0.36000001 -1.49000001 -0.79000002 226 254 15 97.000000 1.000000 4.000000 1.000000 51.808199 114.000000 202.000000 0.872254 -0.103536 0.477967
-0.38000000 -1.50999999 -0.79000002 226 254 15 97.000000 1.000000 4.000000 1.000000 51.808199 114.000000 202.000000 0.844930 -0.392010 0.363898
-0.38000000 -1.50999999 -0.79000002 226 254 15 97.000000 1.000000 4.000000 1.000000 51.808199 114.000000 202.000000 0.844930 -0.392010 0.363898
-0.34999999 -1.51999998 -0.81999999 226 254 15 97.000000 1.000000 4.000000 1.000000 51.808199 114.000000 202.000000 0.834455 0.054695 0.548356
-0.38000000 -1.50999999 -0.83999997 226 254 15 97.000000 1.000000 4.000000 1.000000 51.808199 114.000000 202.000000 0.889117 0.079063 0.450800
-0.34999999 -1.52999997 -0.75000000 226 254 15 97.000000 1.000000 4.000000 1.000000 51.808199 114.000000 202.000000 0.743578 -0.436914 0.506160
-0.43000001 -1.32000005 -0.37000000 226 254 15 97.000000 1.000000 4.000000 1.000000 51.808199 114.000000 202.000000 -0.551250 0.544507 -0.632167
-0.41999999 -1.34000003 -0.33000001 226 254 15 97.000000 1.000000 4.000000 1.000000 51.808199 114.000000 202.000000 0.435822 -0.652898 0.619502
-0.41000000 -1.32000005 -0.37000000 226 254 15 97.000000 1.000000 4.000000 1.000000 51.808199 114.000000 202.000000 -0.049886 -0.674173 0.736887
-0.41999999 -1.34000003 -0.33000001 226 254 15 97.000000 1.000000 4.000000 1.000000 51.808199 114.000000 202.000000 0.435822 -0.652898 0.619502
-0.41999999 -1.30999994 -0.40000001 226 254 15 97.000000 1.000000 4.000000 1.000000 51.808199 114.000000 202.000000 -0.283676 0.690759 -0.665116
-0.43000001 -1.33000004 -0.38000000 226 254 15 97.000000 1.000000 4.000000 1.000000 51.808199 114.000000 202.000000 0.110357 -0.772498 0.625355
-0.40000001 -1.30999994 -0.40000001 226 254 15 97.000000 1.000000 4.000000 1.000000 51.808199 114.000000 202.000000 0.523043 -0.331101 0.785365
-0.40000001 -1.30999994 -0.40000001 226 254 15 97.000000 1.000000 4.000000 1.000000 51.808199 114.000000 202.000000 0.523043 -0.331101 0.785365
-0.43000001 -1.33000004 -0.38000000 226 254 15 97.000000 1.000000 4.000000 1.000000 51.808199 114.000000 202.000000 0.110357 -0.772498 0.625355
-0.40000001 -1.30999994 -0.40000001 226 254 15 97.000000 1.000000 4.000000 1.000000 51.808199 114.000000 202.000000 0.523043 -0.331101 0.785365
-0.41999999 -1.30999994 -0.40000001 226 254 15 97.000000 1.000000 4.000000 1.000000 51.808199 114.000000 202.000000 -0.283676 0.690759 -0.665116
-0.40000001 -1.34000003 -0.40000001 226 254 15 97.000000 1.000000 4.000000 1.000000 51.808199 114.000000 202.000000 -0.338188 0.783764 -0.520906
-0.47000000 -1.27999997 -0.37000000 226 254 15 97.000000 1.000000 4.000000 1.000000 51.808199 114.000000 202.000000 0.301582 0.773901 -0.556889
-0.47000000 -1.33000004 -0.37000000 226 254 15 97.000000 1.000000 4.000000 1.000000 51.808199 114.000000 202.000000 -0.176006 -0.653517 0.736164
-0.47000000 -1.33000004 -0.37000000 226 254 15 97.000000 1.000000 4.000000 1.000000 51.808199 114.000000 202.000000 -0.176006 -0.653517 0.736164
-0.40000001 -1.33000004 -0.44000000 226 254 15 97.000000 1.000000 4.000000 1.000000 51.808199 114.000000 202.000000 0.288017 -0.571260 0.768575
-0.40000001 -1.33000004 -0.44000000 226 254 15 97.000000 1.000000 4.000000 1.000000 51.808199 114.000000 202.000000 0.288017 -0.571260 0.768575
-0.43000001 -1.34000003 -0.44999999 226 254 15 97.000000 1.000000 4.000000 1.000000 51.808199 114.000000 202.000000 -0.494375 0.551353 -0.672014
-0.41000000 -1.41999996 -0.34000000 226 254 15 97.000000 1.000000 4.000000 1.000000 51.808199 114.000000 202.000000 -0.035074 0.787050 -0.615891
