//X Y Z R G B PointSourceId ScanDirectionFlag NumberOfReturns ReturnNumber GpsTime Intensity Classification Nx Ny Nz
12.42000008 10.72999954 -0.81000000 75 109 163 0.000000 0.000000 0.000000 0.000000 51.808199 0.000000 217.000000 -0.402476 0.284011 0.870259
12.44999981 10.64000034 -0.74000001 75 109 163 0.000000 0.000000 0.000000 0.000000 51.808199 0.000000 217.000000 0.877809 -0.454139 -0.152347
12.43999958 10.59000015 -0.70999998 75 109 163 0.000000 0.000000 0.000000 0.000000 51.808199 0.000000 217.000000 0.917193 -0.398272 -0.011676
12.43999958 10.59000015 -0.69999999 75 109 163 0.000000 0.000000 0.000000 0.000000 51.808199 0.000000 217.000000 0.805459 -0.584067 0.100500
12.43999958 10.60000038 -0.68000001 75 109 163 0.000000 0.000000 0.000000 0.000000 51.808199 0.000000 217.000000 0.805441 -0.589520 0.061083
12.43999958 10.60999966 -0.72000003 75 109 163 0.000000 0.000000 0.000000 0.000000 51.808199 0.000000 217.000000 0.816586 -0.542870 0.196163
12.42000008 10.63000011 -0.80000001 75 109 163 0.000000 0.000000 0.000000 0.000000 51.808199 0.000000 217.000000 0.863409 -0.134953 -0.486121
12.39999962 10.68999958 -0.89999998 75 109 163 0.000000 0.000000 0.000000 0.000000 51.808199 0.000000 217.000000 -0.536401 0.289562 0.792734
12.39999962 10.72999954 -0.86000001 75 109 163 0.000000 0.000000 0.000000 0.000000 51.808199 0.000000 217.000000 0.742334 -0.139469 -0.655354
12.48999977 10.31000042 -0.66000003 75 109 163 0.000000 0.000000 0.000000 0.000000 51.808199 0.000000 217.000000 0.817552 -0.575722 0.012366
12.43999958 10.56000042 -0.66000003 75 109 163 0.000000 0.000000 0.000000 0.000000 51.808199 0.000000 217.000000 0.785650 -0.286122 0.548532
12.47999954 10.30000019 -0.67000002 75 109 163 0.000000 0.000000 0.000000 0.000000 51.808199 0.000000 217.000000 0.819284 -0.562254 -0.112451
12.47000027 10.30000019 -0.64999998 75 109 163 0.000000 0.000000 0.000000 0.000000 51.808199 0.000000 217.000000 -0.589471 0.589471 -0.552312
12.47999954 10.30000019 -0.66000003 75 109 163 0.000000 0.000000 0.000000 0.000000 51.808199 0.000000 217.000000 -0.653241 0.733167 -0.189056
12.42000008 10.31999969 -0.61000001 75 109 163 0.000000 0.000000 0.000000 0.000000 51.808199 0.000000 217.000000 0.491558 -0.475007 0.729889
12.36999989 10.40999985 -0.64999998 75 109 163 0.000000 0.000000 0.000000 0.000000 51.808199 0.000000 217.000000 0.664590 -0.661324 0.347808
12.59000015 10.55000019 -0.83999997 75 109 163 0.000000 0.000000 0.000000 0.000000 51.808199 0.000000 217.000000 0.964828 -0.258856 0.045826
12.59000015 10.55000019 -0.83999997 75 109 163 0.000000 0.000000 0.000000 0.000000 51.808199 0.000000 217.000000 0.964828 -0.258856 0.045826
12.60000038 10.47999954 -0.68000001 75 109 163 0.000000 0.000000 0.000000 0.000000 51.808199 0.000000 217.000000 0.729023 -0.668648 0.146408
12.59000015 10.50000000 -0.74000001 75 109 163 0.000000 0.000000 0.000000 0.000000 51.808199 0.000000 217.000000 0.809416 -0.424743 -0.405510
12.57999992 10.46000004 -0.79000002 75 109 163 0.000000 0.000000 0.000000 0.000000 51.808199 0.000000 217.000000 0.999346 0.031709 -0.017389
12.56000042 10.42000008 -0.70999998 75 109 163 0.000000 0.000000 0.000000 0.000000 51.808199 0.000000 217.000000 0.696305 -0.693230 0.185989
12.52999973 10.42000008 -0.80000001 75 109 163 0.000000 0.000000 0.000000 0.000000 51.808199 0.000000 217.000000 0.949173 -0.300637 -0.093211
12.56999969 10.46000004 -0.81000000 75 109 163 0.000000 0.000000 0.000000 0.000000 51.808199 0.000000 217.000000 0.971914 -0.230479 0.047559
12.52000046 10.35999966 -0.73000002 75 109 163 0.000000 0.000000 0.000000 0.000000 51.808199 0.000000 217.000000 0.730404 -0.590505 0.343241
12.51000023 10.36999989 -0.82999998 75 109 163 0.000000 0.000000 0.000000 0.000000 51.808199 0.000000 217.000000 0.685075 -0.544375 -0.484075
12.55000019 10.35000038 -0.76999998 75 109 163 0.000000 0.000000 0.000000 0.000000 51.808199 0.000000 217.000000 0.792734 -0.536401 0.289562
12.52999973 10.40999985 -0.81999999 75 109 163 0.000000 0.000000 0.000000 0.000000 51.808199 0.000000 217.000000 0.817441 -0.509149 -0.269366
12.51000023 10.32999992 -0.76999998 75 109 163 0.000000 0.000000 0.000000 0.000000 51.808199 0.000000 217.000000 0.808950 -0.580303 -0.094064
12.51000023 10.32999992 -0.76999998 75 109 163 0.000000 0.000000 0.000000 0.000000 51.808199 0.000000 217.000000 0.808950 -0.580303 -0.094064
12.48999977 10.26000023 -0.75000000 75 109 163 0.000000 0.000000 0.000000 0.000000 51.808199 0.000000 217.000000 0.916983 -0.380347 -0.120328
12.48999977 10.27999973 -0.75000000 75 109 163 0.000000 0.000000 0.000000 0.000000 51.808199 0.000000 217.000000 0.903857 -0.427589 0.014472
12.50000000 10.31000042 -0.74000001 75 109 163 0.000000 0.000000 0.000000 0.000000 51.808199 0.000000 217.000000 0.905541 -0.351426 0.237686
12.51000023 10.27999973 -0.76999998 75 109 163 0.000000 0.000000 0.000000 0.000000 51.808199 0.000000 217.000000 0.837766 -0.531799 0.123844
12.43999958 10.56999969 -0.69999999 75 109 163 0.000000 0.000000 0.000000 0.000000 51.808199 0.000000 217.000000 0.910357 -0.405362 0.083256
12.40999985 10.52999973 -0.68000001 75 109 163 0.000000 0.000000 0.000000 0.000000 51.808199 0.000000 217.000000 0.792441 -0.550786 0.262055
12.36999989 10.52999973 -0.77999997 75 109 163 0.000000 0.000000 0.000000 0.000000 51.808199 0.000000 217.000000 0.936746 -0.261060 -0.233140
12.36999989 10.52999973 -0.77999997 75 109 163 0.000000 0.000000 0.000000 0.000000 51.808199 0.000000 217.000000 0.936746 -0.261060 -0.233140
12.34000015 10.43999958 -0.75999999 75 109 163 0.000000 0.000000 0.000000 0.000000 51.808199 0.000000 217.000000 0.901545 -0.428336 -0.061191
12.31999969 10.43999958 -0.81000000 75 109 163 0.000000 0.000000 0.000000 0.000000 51.808199 0.000000 217.000000 0.956790 -0.277611 -0.086511
12.47999954 10.35000038 -0.81999999 75 109 163 0.000000 0.000000 0.000000 0.000000 51.808199 0.000000 217.000000 0.848114 -0.511212 -0.139155
12.47000027 10.25000000 -0.73000002 75 109 163 0.000000 0.000000 0.000000 0.000000 51.808199 0.000000 217.000000 0.911362 -0.373929 0.172036
12.47000027 10.31999969 -0.82999998 75 109 163 0.000000 0.000000 0.000000 0.000000 51.808199 0.000000 217.000000 0.859078 -0.430304 -0.277171
12.46000004 10.28999996 -0.82999998 75 109 163 0.000000 0.000000 0.000000 0.000000 51.808199 0.000000 217.000000 0.811046 -0.243469 -0.531910
12.46000004 10.26000023 -0.81000000 75 109 163 0.000000 0.000000 0.000000 0.000000 51.808199 0.000000 217.000000 0.797265 -0.423597 -0.430040
12.35000038 10.39000034 -0.69999999 75 109 163 0.000000 0.000000 0.000000 0.000000 51.808199 0.000000 217.000000 0.755341 -0.407982 0.512845
12.31999969 10.39999962 -0.75999999 75 109 163 0.000000 0.000000 0.000000 0.000000 51.808199 0.000000 217.000000 0.848620 -0.517240 -0.110940
12.40999985 10.22000027 -0.63000000 75 109 163 0.000000 0.000000 0.000000 0.000000 51.808199 0.000000 217.000000 0.835162 -0.333751 0.437167
12.42000008 10.15999985 -0.63999999 75 109 163 0.000000 0.000000 0.000000 0.000000 51.808199 0.000000 217.000000 -0.701428 0.589200 -0.401052
12.43000031 10.18999958 -0.64999998 75 109 163 0.000000 0.000000 0.000000 0.000000 51.808199 0.000000 217.000000 0.715310 -0.251069 0.652148
12.42000008 10.14000034 -0.66000003 75 109 163 0.000000 0.000000 0.000000 0.000000 51.808199 0.000000 217.000000 0.705716 -0.206286 0.677798
12.34000015 10.07999992 -0.55000001 75 109 163 0.000000 0.000000 0.000000 0.000000 51.808199 0.000000 217.000000 0.812102 -0.118952 0.571262
12.38000011 9.93000031 -0.38000000 75 109 163 0.000000 0.000000 0.000000 0.000000 51.808199 0.000000 217.000000 0.713468 -0.169582 0.679857
12.39999962 10.02000046 -0.63000000 75 109 163 0.000000 0.000000 0.000000 0.000000 51.808199 0.000000 217.000000 0.854221 -0.355021 0.379826
12.39999962 10.01000023 -0.63999999 75 109 163 0.000000 0.000000 0.000000 0.000000 51.808199 0.000000 217.000000 0.899893 -0.332473 0.282232
12.46000004 10.22999954 -0.69000000 75 109 163 0.000000 0.000000 0.000000 0.000000 51.808199 0.000000 217.000000 0.781532 -0.608190 0.138972
12.46000004 10.22999954 -0.72000003 75 109 163 0.000000 0.000000 0.000000 0.000000 51.808199 0.000000 217.000000 0.815230 -0.531672 -0.229621
12.44999981 10.22000027 -0.68000001 75 109 163 0.000000 0.000000 0.000000 0.000000 51.808199 0.000000 217.000000 0.792592 -0.528924 0.303377
12.46000004 10.23999977 -0.80000001 75 109 163 0.000000 0.000000 0.000000 0.000000 51.808199 0.000000 217.000000 0.814567 -0.556546 -0.163514
12.47000027 10.21000004 -0.75999999 75 109 163 0.000000 0.000000 0.000000 0.000000 51.808199 0.000000 217.000000 0.909907 -0.354415 -0.215542
12.47000027 10.22000027 -0.75999999 75 109 163 0.000000 0.000000 0.000000 0.000000 51.808199 0.000000 217.000000 0.833847 -0.551790 -0.015061
12.31000042 10.27000046 -0.64999998 75 109 163 0.000000 0.000000 0.000000 0.000000 51.808199 0.000000 217.000000 0.476449 -0.370572 0.797291
12.31000042 10.27999973 -0.66000003 75 109 163 0.000000 0.000000 0.000000 0.000000 51.808199 0.000000 217.000000 0.635308 -0.588123 0.500495
12.30000019 10.32999992 -0.74000001 75 109 163 0.000000 0.000000 0.000000 0.000000 51.808199 0.000000 217.000000 0.768450 -0.608292 0.198657
12.31000042 10.39000034 -0.77999997 75 109 163 0.000000 0.000000 0.000000 0.000000 51.808199 0.000000 217.000000 0.857455 -0.514473 0.009452
12.28999996 10.36999989 -0.79000002 75 109 163 0.000000 0.000000 0.000000 0.000000 51.808199 0.000000 217.000000 0.932790 -0.048406 -0.357155
12.30000019 10.35000038 -0.79000002 75 109 163 0.000000 0.000000 0.000000 0.000000 51.808199 0.000000 217.000000 0.827735 -0.546452 0.127457
12.27999973 10.28999996 -0.69999999 75 109 163 0.000000 0.000000 0.000000 0.000000 51.808199 0.000000 217.000000 0.677385 -0.667684 0.308784
12.26000023 10.31000042 -0.77999997 75 109 163 0.000000 0.000000 0.000000 0.000000 51.808199 0.000000 217.000000 0.870042 -0.488616 -0.065427
12.25000000 10.17000008 -0.56000000 75 109 163 0.000000 0.000000 0.000000 0.000000 51.808199 0.000000 217.000000 0.324279 -0.183898 0.927914
12.23999977 10.23999977 -0.64999998 75 109 163 0.000000 0.000000 0.000000 0.000000 51.808199 0.000000 217.000000 0.645603 -0.258559 0.718571
12.31000042 10.10000038 -0.54000002 75 109 163 0.000000 0.000000 0.000000 0.000000 51.808199 0.000000 217.000000 0.731423 -0.049902 0.680095
12.18999958 10.13000011 -0.60000002 75 109 163 0.000000 0.000000 0.000000 0.000000 51.808199 0.000000 217.000000 0.250321 -0.618718 0.744666
12.26000023 9.93999958 -0.41000000 75 109 163 0.000000 0.000000 0.000000 0.000000 51.808199 0.000000 217.000000 0.543071 -0.424222 0.724644
12.23999977 9.97000027 -0.38999999 75 109 163 0.000000 0.000000 0.000000 0.000000 51.808199 0.000000 217.000000 0.467827 -0.377798 0.799003
12.25000000 9.93999958 -0.40000001 75 109 163 0.000000 0.000000 0.000000 0.000000 51.808199 0.000000 217.000000 0.581604 -0.148017 0.799892
12.21000004 9.94999981 -0.38999999 75 109 163 0.000000 0.000000 0.000000 0.000000 51.808199 0.000000 217.000000 0.319434 -0.464202 0.826122
12.31000042 10.02999973 -0.52999997 75 109 163 0.000000 0.000000 0.000000 0.000000 51.808199 0.000000 217.000000 0.592854 -0.109788 0.797791
12.14999962 9.90999985 -0.54000002 75 109 163 0.000000 0.000000 0.000000 0.000000 51.808199 0.000000 217.000000 0.403726 -0.478310 0.779888
12.02000046 10.14000034 -0.47999999 75 109 163 0.000000 0.000000 0.000000 0.000000 51.808199 0.000000 217.000000 -0.420991 -0.078164 0.903691
12.10999966 9.97000027 -0.41000000 75 109 163 0.000000 0.000000 0.000000 0.000000 51.808199 0.000000 217.000000 0.431561 -0.434793 0.790386
12.00000000 9.93999958 -0.41999999 75 109 163 0.000000 0.000000 0.000000 0.000000 51.808199 0.000000 217.000000 0.191698 -0.003444 0.981448
12.10000038 9.93000031 -0.52999997 75 109 163 0.000000 0.000000 0.000000 0.000000 51.808199 0.000000 217.000000 0.325620 -0.537354 0.777960
12.10000038 9.97000027 -0.66000003 75 109 163 0.000000 0.000000 0.000000 0.000000 51.808199 0.000000 217.000000 0.548415 -0.501456 0.669166
12.21000004 10.22999954 -0.73000002 75 109 163 0.000000 0.000000 0.000000 0.000000 51.808199 0.000000 217.000000 0.573257 -0.489201 0.657312
12.22999954 10.19999981 -0.75000000 75 109 163 0.000000 0.000000 0.000000 0.000000 51.808199 0.000000 217.000000 0.719234 -0.557200 0.415006
12.17000008 9.94999981 -0.69999999 75 109 163 0.000000 0.000000 0.000000 0.000000 51.808199 0.000000 217.000000 0.407991 -0.563259 0.718527
12.17000008 9.94999981 -0.69999999 75 109 163 0.000000 0.000000 0.000000 0.000000 51.808199 0.000000 217.000000 0.407991 -0.563259 0.718527
12.07999992 9.98999977 -0.68000001 75 109 163 0.000000 0.000000 0.000000 0.000000 51.808199 0.000000 217.000000 0.513291 -0.443972 0.734452
12.14000034 10.02999973 -0.70999998 75 109 163 0.000000 0.000000 0.000000 0.000000 51.808199 0.000000 217.000000 -0.549553 0.657111 -0.515942
12.05000019 10.00000000 -0.77999997 75 109 163 0.000000 0.000000 0.000000 0.000000 51.808199 0.000000 217.000000 0.344359 -0.429269 0.834952
12.02999973 9.97000027 -0.75999999 75 109 163 0.000000 0.000000 0.000000 0.000000 51.808199 0.000000 217.000000 0.496300 -0.167409 0.851857
12.02999973 9.97999954 -0.79000002 75 109 163 0.000000 0.000000 0.000000 0.000000 51.808199 0.000000 217.000000 0.127915 0.061077 0.989903
12.51000023 9.72999954 -0.73000002 75 109 163 0.000000 0.000000 0.000000 0.000000 51.808199 0.000000 217.000000 0.995979 -0.020458 0.087215
12.55000019 9.77999973 -0.77999997 75 109 163 0.000000 0.000000 0.000000 0.000000 51.808199 0.000000 217.000000 0.939515 -0.243578 -0.240794
12.44999981 9.60999966 -0.73000002 75 109 163 0.000000 0.000000 0.000000 0.000000 51.808199 0.000000 217.000000 0.650020 -0.659894 0.376847
12.43000031 9.69999981 -0.93000001 75 109 163 0.000000 0.000000 0.000000 0.000000 51.808199 0.000000 217.000000 0.999776 0.002996 0.020974
12.40999985 9.60000038 -0.91000003 75 109 163 0.000000 0.000000 0.000000 0.000000 51.808199 0.000000 217.000000 0.997238 -0.026664 0.069327
12.40999985 9.59000015 -0.92000002 75 109 163 0.000000 0.000000 0.000000 0.000000 51.808199 0.000000 217.000000 0.978789 -0.188932 -0.079229
12.40999985 9.59000015 -0.93000001 75 109 163 0.000000 0.000000 0.000000 0.000000 51.808199 0.000000 217.000000 0.944719 -0.133040 -0.299676
12.40999985 9.59000015 -0.91000003 75 109 163 0.000000 0.000000 0.000000 0.000000 51.808199 0.000000 217.000000 0.970640 -0.170086 -0.170086
12.42000008 9.60000038 -0.97000003 75 109 163 0.000000 0.000000 0.000000 0.000000 51.808199 0.000000 217.000000 0.959049 -0.003647 -0.283217
12.42000008 9.61999989 -0.98000002 75 109 163 0.000000 0.000000 0.000000 0.000000 51.808199 0.000000 217.000000 0.871451 -0.487516 -0.053861
12.35000038 9.67000008 -0.87000000 75 109 163 0.000000 0.000000 0.000000 0.000000 51.808199 0.000000 217.000000 0.959858 -0.020947 0.279702
12.38000011 9.60999966 -0.85000002 75 109 163 0.000000 0.000000 0.000000 0.000000 51.808199 0.000000 217.000000 0.985447 0.028882 0.167514
12.23999977 9.86999989 -0.44000000 75 109 163 0.000000 0.000000 0.000000 0.000000 51.808199 0.000000 217.000000 0.416792 -0.629340 0.655908
12.26000023 9.89999962 -0.57999998 75 109 163 0.000000 0.000000 0.000000 0.000000 51.808199 0.000000 217.000000 0.654240 -0.355815 0.667358
12.28999996 9.85999966 -0.60000002 75 109 163 0.000000 0.000000 0.000000 0.000000 51.808199 0.000000 217.000000 0.776613 -0.239078 0.582850
12.22999954 9.86999989 -0.56999999 75 109 163 0.000000 0.000000 0.000000 0.000000 51.808199 0.000000 217.000000 0.682884 0.015361 0.730365
12.18999958 9.86999989 -0.60000002 75 109 163 0.000000 0.000000 0.000000 0.000000 51.808199 0.000000 217.000000 0.499186 -0.515881 0.696189
12.14000034 9.89999962 -0.67000002 75 109 163 0.000000 0.000000 0.000000 0.000000 51.808199 0.000000 217.000000 0.462575 -0.439691 0.769868
11.97999954 9.85999966 -0.57999998 75 109 163 0.000000 0.000000 0.000000 0.000000 51.808199 0.000000 217.000000 0.032368 -0.363818 0.930908
12.26000023 9.85999966 -0.75000000 75 109 163 0.000000 0.000000 0.000000 0.000000 51.808199 0.000000 217.000000 0.951169 -0.098397 0.292567
12.19999981 9.89999962 -0.72000003 75 109 163 0.000000 0.000000 0.000000 0.000000 51.808199 0.000000 217.000000 0.701966 -0.373176 0.606617
12.43000031 9.60999966 -1.01999998 75 109 163 0.000000 0.000000 0.000000 0.000000 51.808199 0.000000 217.000000 0.747129 -0.299172 -0.593544
12.43000031 9.60000038 -1.02999997 75 109 163 0.000000 0.000000 0.000000 0.000000 51.808199 0.000000 217.000000 0.950505 -0.281286 -0.131978
12.43999958 9.57999992 -1.08000004 75 109 163 0.000000 0.000000 0.000000 0.000000 51.808199 0.000000 217.000000 0.988927 -0.142908 -0.040014
12.40999985 9.51000023 -1.04999995 75 109 163 0.000000 0.000000 0.000000 0.000000 51.808199 0.000000 217.000000 0.905185 0.046935 -0.422419
11.90999985 10.06000042 -0.46000001 75 109 163 0.000000 0.000000 0.000000 0.000000 51.808199 0.000000 217.000000 0.694169 0.086223 -0.714629
11.92000008 9.97000027 -0.41000000 75 109 163 0.000000 0.000000 0.000000 0.000000 51.808199 0.000000 217.000000 0.102820 -0.009741 0.994652
11.89999962 10.06999969 -0.50999999 75 109 163 0.000000 0.000000 0.000000 0.000000 51.808199 0.000000 217.000000 -0.496072 0.045347 0.867096
11.89999962 10.03999996 -0.61000001 75 109 163 0.000000 0.000000 0.000000 0.000000 51.808199 0.000000 217.000000 0.728884 0.004149 -0.684625
11.96000004 10.14000034 -0.69000000 75 109 163 0.000000 0.000000 0.000000 0.000000 51.808199 0.000000 217.000000 -0.348137 0.375988 0.858739
11.94999981 10.03999996 -0.70999998 75 109 163 0.000000 0.000000 0.000000 0.000000 51.808199 0.000000 217.000000 0.771040 0.067484 -0.633201
11.96000004 9.98999977 -0.72000003 75 109 163 0.000000 0.000000 0.000000 0.000000 51.808199 0.000000 217.000000 0.747024 -0.079779 -0.659992
11.94999981 9.84000015 -0.56000000 75 109 163 0.000000 0.000000 0.000000 0.000000 51.808199 0.000000 217.000000 0.247439 -0.374863 0.893449
11.96000004 9.82999992 -0.56999999 75 109 163 0.000000 0.000000 0.000000 0.000000 51.808199 0.000000 217.000000 0.140922 -0.326993 0.934461
11.96000004 9.85000038 -0.55000001 75 109 163 0.000000 0.000000 0.000000 0.000000 51.808199 0.000000 217.000000 -0.010671 -0.228828 0.973408
11.92000008 9.82999992 -0.62000000 75 109 163 0.000000 0.000000 0.000000 0.000000 51.808199 0.000000 217.000000 -0.201861 -0.285389 0.936913
11.84000015 9.85000038 -0.67000002 75 109 163 0.000000 0.000000 0.000000 0.000000 51.808199 0.000000 217.000000 -0.154100 -0.154100 0.975964
11.81999969 9.75000000 -0.56000000 75 109 163 0.000000 0.000000 0.000000 0.000000 51.808199 0.000000 217.000000 0.070840 -0.229918 0.970628
11.84000015 9.76000023 -0.55000001 75 109 163 0.000000 0.000000 0.000000 0.000000 51.808199 0.000000 217.000000 -0.365822 -0.152776 0.918060
11.81999969 9.80000019 -0.58999997 75 109 163 0.000000 0.000000 0.000000 0.000000 51.808199 0.000000 217.000000 -0.083535 -0.061259 0.994620
11.84000015 9.77999973 -0.63999999 75 109 163 0.000000 0.000000 0.000000 0.000000 51.808199 0.000000 217.000000 -0.691825 0.098413 0.715327
11.82999992 9.72999954 -0.63000000 75 109 163 0.000000 0.000000 0.000000 0.000000 51.808199 0.000000 217.000000 -0.022449 -0.211493 0.977122
11.81999969 9.69999981 -0.60000002 75 109 163 0.000000 0.000000 0.000000 0.000000 51.808199 0.000000 217.000000 -0.011275 -0.324464 0.945831
11.64999962 9.64999962 -0.44000000 75 109 163 0.000000 0.000000 0.000000 0.000000 51.808199 0.000000 217.000000 -0.227521 -0.073354 0.971006
11.64000034 9.64999962 -0.44999999 75 109 163 0.000000 0.000000 0.000000 0.000000 51.808199 0.000000 217.000000 -0.077623 -0.044824 0.995975
11.67000008 9.67000008 -0.50000000 75 109 163 0.000000 0.000000 0.000000 0.000000 51.808199 0.000000 217.000000 -0.348522 -0.050908 0.935917
11.72999954 9.68999958 -0.51999998 75 109 163 0.000000 0.000000 0.000000 0.000000 51.808199 0.000000 217.000000 -0.617611 -0.064484 0.783836
11.77000046 9.72999954 -0.68000001 75 109 163 0.000000 0.000000 0.000000 0.000000 51.808199 0.000000 217.000000 -0.293759 0.021071 0.955647
11.77999973 9.72999954 -0.70999998 75 109 163 0.000000 0.000000 0.000000 0.000000 51.808199 0.000000 217.000000 -0.590636 0.100627 0.800640
11.78999996 9.67000008 -0.68000001 75 109 163 0.000000 0.000000 0.000000 0.000000 51.808199 0.000000 217.000000 0.709979 -0.146217 -0.688876
11.77999973 9.68000031 -0.69000000 75 109 163 0.000000 0.000000 0.000000 0.000000 51.808199 0.000000 217.000000 0.735674 -0.009735 -0.677265
11.77000046 9.68000031 -0.72000003 75 109 163 0.000000 0.000000 0.000000 0.000000 51.808199 0.000000 217.000000 -0.673918 -0.247787 0.696014
11.72000027 9.65999985 -0.80000001 75 109 163 0.000000 0.000000 0.000000 0.000000 51.808199 0.000000 217.000000 0.967722 -0.030508 -0.250168
11.72999954 9.64000034 -0.73000002 75 109 163 0.000000 0.000000 0.000000 0.000000 51.808199 0.000000 217.000000 0.690123 0.012548 -0.723583
11.73999977 9.64000034 -0.72000003 75 109 163 0.000000 0.000000 0.000000 0.000000 51.808199 0.000000 217.000000 -0.638952 -0.304186 0.706549
11.72999954 9.64000034 -0.73000002 75 109 163 0.000000 0.000000 0.000000 0.000000 51.808199 0.000000 217.000000 0.690123 0.012548 -0.723583
11.71000004 9.65999985 -0.72000003 75 109 163 0.000000 0.000000 0.000000 0.000000 51.808199 0.000000 217.000000 -0.416953 0.140882 0.897943
11.68999958 9.60999966 -0.81999999 75 109 163 0.000000 0.000000 0.000000 0.000000 51.808199 0.000000 217.000000 -0.858904 0.363680 0.360585
11.67000008 9.60000038 -0.76999998 75 109 163 0.000000 0.000000 0.000000 0.000000 51.808199 0.000000 217.000000 -0.560018 -0.012323 0.828389
11.67000008 9.61999989 -0.79000002 75 109 163 0.000000 0.000000 0.000000 0.000000 51.808199 0.000000 217.000000 0.574480 -0.477337 -0.664923
11.65999985 9.57999992 -0.83999997 75 109 163 0.000000 0.000000 0.000000 0.000000 51.808199 0.000000 217.000000 0.746508 0.095330 -0.658511
11.68999958 9.56000042 -0.87000000 75 109 163 0.000000 0.000000 0.000000 0.000000 51.808199 0.000000 217.000000 0.831067 -0.539826 -0.133853
11.64000034 9.52000046 -0.86000001 75 109 163 0.000000 0.000000 0.000000 0.000000 51.808199 0.000000 217.000000 0.668658 -0.605293 -0.431876
11.64000034 9.52999973 -0.87000000 75 109 163 0.000000 0.000000 0.000000 0.000000 51.808199 0.000000 217.000000 0.881493 -0.463870 -0.088289
11.63000011 9.63000011 -0.43000001 75 109 163 0.000000 0.000000 0.000000 0.000000 51.808199 0.000000 217.000000 -0.408065 -0.210662 0.888315
11.63000011 9.64000034 -0.47999999 75 109 163 0.000000 0.000000 0.000000 0.000000 51.808199 0.000000 217.000000 -0.578782 -0.183813 0.794496
11.55000019 9.56999969 -0.49000001 75 109 163 0.000000 0.000000 0.000000 0.000000 51.808199 0.000000 217.000000 0.769084 -0.165345 -0.617391
11.52000046 9.56000042 -0.47999999 75 109 163 0.000000 0.000000 0.000000 0.000000 51.808199 0.000000 217.000000 -0.422425 -0.092795 0.901635
11.51000023 9.56000042 -0.46000001 75 109 163 0.000000 0.000000 0.000000 0.000000 51.808199 0.000000 217.000000 -0.274452 -0.232229 0.933138
11.57999992 9.56999969 -0.83999997 75 109 163 0.000000 0.000000 0.000000 0.000000 51.808199 0.000000 217.000000 0.706122 -0.082988 -0.703210
11.63000011 9.57999992 -0.77999997 75 109 163 0.000000 0.000000 0.000000 0.000000 51.808199 0.000000 217.000000 0.969497 -0.118169 -0.214738
11.63000011 9.52999973 -0.83999997 75 109 163 0.000000 0.000000 0.000000 0.000000 51.808199 0.000000 217.000000 0.806318 -0.250129 -0.535992
11.60000038 9.47999954 -0.88999999 75 109 163 0.000000 0.000000 0.000000 0.000000 51.808199 0.000000 217.000000 0.810182 -0.489914 -0.321853
11.56000042 9.46000004 -0.92000002 75 109 163 0.000000 0.000000 0.000000 0.000000 51.808199 0.000000 217.000000 0.935348 -0.301591 0.184846
12.14999962 9.98999977 -0.31000000 75 109 163 0.000000 0.000000 0.000000 0.000000 51.808199 0.000000 217.000000 -0.221150 -0.420037 0.880149
11.93000031 9.94999981 -0.27000001 75 109 163 0.000000 0.000000 0.000000 0.000000 51.808199 0.000000 217.000000 -0.495647 0.122828 0.859795
12.61999989 11.78999996 -0.57999998 75 109 163 0.000000 0.000000 0.000000 0.000000 51.808199 0.000000 217.000000 0.197648 -0.589878 0.782930
12.65999985 11.78999996 -0.60000002 75 109 163 0.000000 0.000000 0.000000 0.000000 51.808199 0.000000 217.000000 -0.049602 -0.416926 0.907586
12.64000034 11.71000004 -0.57999998 75 109 163 0.000000 0.000000 0.000000 0.000000 51.808199 0.000000 217.000000 -0.004106 -0.595386 0.803429
12.61999989 11.73999977 -0.57999998 75 109 163 0.000000 0.000000 0.000000 0.000000 51.808199 0.000000 217.000000 0.646703 -0.052821 0.760911
12.63000011 11.73999977 -0.64999998 75 109 163 0.000000 0.000000 0.000000 0.000000 51.808199 0.000000 217.000000 0.179389 -0.252223 0.950896
12.60999966 11.81000042 -0.81000000 75 109 163 0.000000 0.000000 0.000000 0.000000 51.808199 0.000000 217.000000 -0.104144 0.050392 0.993285
12.56999969 11.81999969 -0.72000003 75 109 163 0.000000 0.000000 0.000000 0.000000 51.808199 0.000000 217.000000 0.232816 -0.617197 0.751574
12.48999977 11.77000046 -0.91000003 75 109 163 0.000000 0.000000 0.000000 0.000000 51.808199 0.000000 217.000000 0.658795 -0.055733 0.750255
12.56000042 11.65999985 -0.95999998 75 109 163 0.000000 0.000000 0.000000 0.000000 51.808199 0.000000 217.000000 0.359552 -0.167791 0.917915
12.47999954 11.84000015 -0.93000001 75 109 163 0.000000 0.000000 0.000000 0.000000 51.808199 0.000000 217.000000 0.433247 -0.326890 0.839905
12.60999966 11.46000004 -0.75000000 75 109 163 0.000000 0.000000 0.000000 0.000000 51.808199 0.000000 217.000000 -0.304846 -0.255724 0.917428
12.63000011 11.48999977 -0.93000001 75 109 163 0.000000 0.000000 0.000000 0.000000 51.808199 0.000000 217.000000 -0.055648 0.243614 0.968274
12.59000015 11.47000027 -0.89999998 75 109 163 0.000000 0.000000 0.000000 0.000000 51.808199 0.000000 217.000000 -0.370313 -0.210570 0.904726
12.64999962 11.52000046 -0.94999999 75 109 163 0.000000 0.000000 0.000000 0.000000 51.808199 0.000000 217.000000 -0.495751 -0.283063 0.821039
12.63000011 11.42000008 -0.81999999 75 109 163 0.000000 0.000000 0.000000 0.000000 51.808199 0.000000 217.000000 -0.556948 -0.220619 0.800710
12.64999962 11.34000015 -0.81000000 75 109 163 0.000000 0.000000 0.000000 0.000000 51.808199 0.000000 217.000000 -0.624888 -0.268718 0.733011
12.53999996 11.28999996 -0.73000002 75 109 163 0.000000 0.000000 0.000000 0.000000 51.808199 0.000000 217.000000 -0.275445 -0.496423 0.823222
12.53999996 11.27999973 -0.73000002 75 109 163 0.000000 0.000000 0.000000 0.000000 51.808199 0.000000 217.000000 -0.207207 -0.335817 0.918854
12.60999966 11.43000031 -0.95999998 75 109 163 0.000000 0.000000 0.000000 0.000000 51.808199 0.000000 217.000000 -0.476351 -0.364080 0.800334
12.65999985 11.63000011 -1.02999997 75 109 163 0.000000 0.000000 0.000000 0.000000 51.808199 0.000000 217.000000 -0.380155 -0.156867 0.911524
12.47000027 11.76000023 -1.05999994 75 109 163 0.000000 0.000000 0.000000 0.000000 51.808199 0.000000 217.000000 0.278452 -0.596684 0.752617
12.51000023 11.26000023 -0.69000000 75 109 163 0.000000 0.000000 0.000000 0.000000 51.808199 0.000000 217.000000 0.006883 0.000983 0.999976
12.55000019 11.19999981 -0.81999999 75 109 163 0.000000 0.000000 0.000000 0.000000 51.808199 0.000000 217.000000 -0.181776 -0.246407 0.951967
12.65999985 11.22000027 -0.88000000 75 109 163 0.000000 0.000000 0.000000 0.000000 51.808199 0.000000 217.000000 -0.553025 0.388922 0.736819
12.51000023 11.18000031 -0.86000001 75 109 163 0.000000 0.000000 0.000000 0.000000 51.808199 0.000000 217.000000 -0.241644 0.272733 0.931249
12.52999973 11.06999969 -0.81000000 75 109 163 0.000000 0.000000 0.000000 0.000000 51.808199 0.000000 217.000000 -0.437167 -0.333751 0.835162
12.50000000 11.02000046 -0.82999998 75 109 163 0.000000 0.000000 0.000000 0.000000 51.808199 0.000000 217.000000 0.314319 0.341390 -0.885808
12.51000023 11.06000042 -0.83999997 75 109 163 0.000000 0.000000 0.000000 0.000000 51.808199 0.000000 217.000000 -0.649729 -0.237552 0.722095
12.61999989 11.02999973 -0.86000001 75 109 163 0.000000 0.000000 0.000000 0.000000 51.808199 0.000000 217.000000 0.853887 -0.117030 -0.507131
12.60999966 11.03999996 -0.86000001 75 109 163 0.000000 0.000000 0.000000 0.000000 51.808199 0.000000 217.000000 0.803435 -0.001369 -0.595391
12.57999992 10.96000004 -0.92000002 75 109 163 0.000000 0.000000 0.000000 0.000000 51.808199 0.000000 217.000000 -0.685157 -0.035317 0.727538
12.60000038 10.98999977 -0.88000000 75 109 163 0.000000 0.000000 0.000000 0.000000 51.808199 0.000000 217.000000 0.791119 0.164251 -0.589196
12.48999977 11.03999996 -0.85000002 75 109 163 0.000000 0.000000 0.000000 0.000000 51.808199 0.000000 217.000000 -0.378018 -0.233871 0.895771
12.56999969 11.02999973 -0.91000003 75 109 163 0.000000 0.000000 0.000000 0.000000 51.808199 0.000000 217.000000 0.511577 0.378405 -0.771426
12.50000000 10.93999958 -0.88999999 75 109 163 0.000000 0.000000 0.000000 0.000000 51.808199 0.000000 217.000000 -0.211187 0.258117 0.942749
12.56999969 10.98999977 -0.93000001 75 109 163 0.000000 0.000000 0.000000 0.000000 51.808199 0.000000 217.000000 0.655478 0.318837 -0.684610
12.47000027 11.18999958 -0.87000000 75 109 163 0.000000 0.000000 0.000000 0.000000 51.808199 0.000000 217.000000 -0.001098 -0.130653 0.991428
12.47000027 11.10999966 -0.85000002 75 109 163 0.000000 0.000000 0.000000 0.000000 51.808199 0.000000 217.000000 -0.314120 0.236666 0.919412
12.53999996 10.78999996 -0.66000003 75 109 163 0.000000 0.000000 0.000000 0.000000 51.808199 0.000000 217.000000 0.894116 -0.416102 0.165577
12.63000011 10.78999996 -0.69999999 75 109 163 0.000000 0.000000 0.000000 0.000000 51.808199 0.000000 217.000000 0.871761 -0.412462 0.264399
12.64999962 10.84000015 -0.76999998 75 109 163 0.000000 0.000000 0.000000 0.000000 51.808199 0.000000 217.000000 0.968306 -0.073716 -0.238641
12.48999977 10.88000011 -0.82999998 75 109 163 0.000000 0.000000 0.000000 0.000000 51.808199 0.000000 217.000000 -0.646274 0.301380 0.701070
12.48999977 10.82999992 -0.72000003 75 109 163 0.000000 0.000000 0.000000 0.000000 51.808199 0.000000 217.000000 0.802126 0.001366 -0.597153
12.61999989 10.68999958 -0.75000000 75 109 163 0.000000 0.000000 0.000000 0.000000 51.808199 0.000000 217.000000 0.934587 -0.354498 -0.029649
12.64000034 10.69999981 -0.82999998 75 109 163 0.000000 0.000000 0.000000 0.000000 51.808199 0.000000 217.000000 0.939508 0.142762 -0.311357
12.61999989 10.60000038 -0.75000000 75 109 163 0.000000 0.000000 0.000000 0.000000 51.808199 0.000000 217.000000 0.944338 0.055549 -0.324253
12.63000011 10.64999962 -0.76999998 75 109 163 0.000000 0.000000 0.000000 0.000000 51.808199 0.000000 217.000000 0.877716 -0.022920 -0.478632
12.64000034 10.65999985 -0.75999999 75 109 163 0.000000 0.000000 0.000000 0.000000 51.808199 0.000000 217.000000 0.993709 0.005430 -0.111860
12.57999992 10.67000008 -0.87000000 75 109 163 0.000000 0.000000 0.000000 0.000000 51.808199 0.000000 217.000000 0.917074 -0.129420 -0.377128
12.47000027 10.86999989 -0.83999997 75 109 163 0.000000 0.000000 0.000000 0.000000 51.808199 0.000000 217.000000 -0.442992 0.360427 0.820884
12.40999985 10.76000023 -0.85000002 75 109 163 0.000000 0.000000 0.000000 0.000000 51.808199 0.000000 217.000000 0.585758 0.249693 -0.771065
12.39999962 10.77000046 -0.85000002 75 109 163 0.000000 0.000000 0.000000 0.000000 51.808199 0.000000 217.000000 0.763580 -0.129496 -0.632595
12.47999954 10.65999985 -0.74000001 75 109 163 0.000000 0.000000 0.000000 0.000000 51.808199 0.000000 217.000000 0.941851 -0.295777 -0.159474
12.47000027 10.67000008 -0.72000003 75 109 163 0.000000 0.000000 0.000000 0.000000 51.808199 0.000000 217.000000 0.781889 -0.614656 -0.104154
12.39999962 10.60000038 -0.88000000 75 109 163 0.000000 0.000000 0.000000 0.000000 51.808199 0.000000 217.000000 -0.407343 0.445984 0.796975
12.51000023 10.34000015 -0.64999998 75 109 163 0.000000 0.000000 0.000000 0.000000 51.808199 0.000000 217.000000 0.684929 -0.547608 0.480622
12.44999981 10.56000042 -0.67000002 75 109 163 0.000000 0.000000 0.000000 0.000000 51.808199 0.000000 217.000000 0.798624 -0.390474 0.457963
12.43000031 10.57999992 -0.67000002 75 109 163 0.000000 0.000000 0.000000 0.000000 51.808199 0.000000 217.000000 0.731491 -0.676009 0.089064
12.42000008 10.52999973 -0.66000003 75 109 163 0.000000 0.000000 0.000000 0.000000 51.808199 0.000000 217.000000 0.769876 -0.208283 0.603249
12.42000008 10.50000000 -0.67000002 75 109 163 0.000000 0.000000 0.000000 0.000000 51.808199 0.000000 217.000000 0.808191 -0.476626 0.345912
12.47000027 10.44999981 -0.63000000 75 109 163 0.000000 0.000000 0.000000 0.000000 51.808199 0.000000 217.000000 -0.593249 0.647028 -0.478969
12.60000038 10.51000023 -0.73000002 75 109 163 0.000000 0.000000 0.000000 0.000000 51.808199 0.000000 217.000000 0.955518 -0.133482 -0.262999
12.50000000 10.32999992 -0.69000000 75 109 163 0.000000 0.000000 0.000000 0.000000 51.808199 0.000000 217.000000 0.728175 -0.682033 0.067771
12.50000000 10.35000038 -0.82999998 75 109 163 0.000000 0.000000 0.000000 0.000000 51.808199 0.000000 217.000000 0.806379 -0.233711 -0.543261
12.52000046 10.36999989 -0.79000002 75 109 163 0.000000 0.000000 0.000000 0.000000 51.808199 0.000000 217.000000 0.924019 -0.362171 -0.122560
12.48999977 10.35999966 -0.83999997 75 109 163 0.000000 0.000000 0.000000 0.000000 51.808199 0.000000 217.000000 0.813150 -0.439325 -0.381813
12.52000046 10.39999962 -0.83999997 75 109 163 0.000000 0.000000 0.000000 0.000000 51.808199 0.000000 217.000000 0.838742 -0.280614 -0.466657
12.50000000 10.30000019 -0.73000002 75 109 163 0.000000 0.000000 0.000000 0.000000 51.808199 0.000000 217.000000 0.922010 -0.344874 0.175956
12.48999977 10.30000019 -0.80000001 75 109 163 0.000000 0.000000 0.000000 0.000000 51.808199 0.000000 217.000000 0.724360 -0.679921 -0.114061
12.50000000 10.30000019 -0.75999999 75 109 163 0.000000 0.000000 0.000000 0.000000 51.808199 0.000000 217.000000 0.944368 -0.270015 -0.187777
12.50000000 10.31000042 -0.76999998 75 109 163 0.000000 0.000000 0.000000 0.000000 51.808199 0.000000 217.000000 0.960257 -0.259773 -0.102100
12.48999977 10.30000019 -0.79000002 75 109 163 0.000000 0.000000 0.000000 0.000000 51.808199 0.000000 217.000000 0.747055 -0.600511 -0.285123
12.43000031 10.56000042 -0.69999999 75 109 163 0.000000 0.000000 0.000000 0.000000 51.808199 0.000000 217.000000 0.737175 -0.665979 -0.114210
12.43999958 10.56999969 -0.69999999 75 109 163 0.000000 0.000000 0.000000 0.000000 51.808199 0.000000 217.000000 0.910357 -0.405362 0.083256
12.42000008 10.53999996 -0.69999999 75 109 163 0.000000 0.000000 0.000000 0.000000 51.808199 0.000000 217.000000 -0.676945 0.713786 -0.179598
12.35999966 10.43000031 -0.73000002 75 109 163 0.000000 0.000000 0.000000 0.000000 51.808199 0.000000 217.000000 0.897343 -0.292193 -0.330756
12.47999954 10.34000015 -0.83999997 75 109 163 0.000000 0.000000 0.000000 0.000000 51.808199 0.000000 217.000000 0.897682 -0.430052 -0.096031
12.46000004 10.25000000 -0.68000001 75 109 163 0.000000 0.000000 0.000000 0.000000 51.808199 0.000000 217.000000 0.802850 -0.426363 0.416710
12.47000027 10.26000023 -0.68000001 75 109 163 0.000000 0.000000 0.000000 0.000000 51.808199 0.000000 217.000000 0.790084 -0.296084 0.536751
12.47000027 10.31000042 -0.82999998 75 109 163 0.000000 0.000000 0.000000 0.000000 51.808199 0.000000 217.000000 0.763509 -0.410366 -0.498652
12.47999954 10.31999969 -0.82999998 75 109 163 0.000000 0.000000 0.000000 0.000000 51.808199 0.000000 217.000000 0.720385 -0.445480 -0.531595
12.35000038 10.39000034 -0.69999999 75 109 163 0.000000 0.000000 0.000000 0.000000 51.808199 0.000000 217.000000 0.755341 -0.407982 0.512845
12.31999969 10.40999985 -0.79000002 75 109 163 0.000000 0.000000 0.000000 0.000000 51.808199 0.000000 217.000000 0.855958 -0.516830 0.014922
12.40999985 10.15999985 -0.63000000 75 109 163 0.000000 0.000000 0.000000 0.000000 51.808199 0.000000 217.000000 0.540791 -0.527314 0.655351
12.36999989 10.14000034 -0.57999998 75 109 163 0.000000 0.000000 0.000000 0.000000 51.808199 0.000000 217.000000 0.526185 -0.133378 0.839845
12.36999989 9.97000027 -0.44000000 75 109 163 0.000000 0.000000 0.000000 0.000000 51.808199 0.000000 217.000000 0.710193 -0.227324 0.666296
12.32999992 10.02000046 -0.56999999 75 109 163 0.000000 0.000000 0.000000 0.000000 51.808199 0.000000 217.000000 0.741060 -0.023815 0.671016
12.35000038 10.03999996 -0.56999999 75 109 163 0.000000 0.000000 0.000000 0.000000 51.808199 0.000000 217.000000 0.550651 -0.343955 0.760577
12.48999977 10.23999977 -0.75000000 75 109 163 0.000000 0.000000 0.000000 0.000000 51.808199 0.000000 217.000000 0.858918 -0.509246 -0.054116
12.47999954 10.23999977 -0.75000000 75 109 163 0.000000 0.000000 0.000000 0.000000 51.808199 0.000000 217.000000 0.807902 -0.588951 0.020786
12.44999981 10.22000027 -0.68000001 75 109 163 0.000000 0.000000 0.000000 0.000000 51.808199 0.000000 217.000000 0.792592 -0.528924 0.303377
12.46000004 10.22999954 -0.69000000 75 109 163 0.000000 0.000000 0.000000 0.000000 51.808199 0.000000 217.000000 0.781532 -0.608190 0.138972
12.31000042 10.43999958 -0.76999998 75 109 163 0.000000 0.000000 0.000000 0.000000 51.808199 0.000000 217.000000 0.819689 -0.550938 -0.156771
12.28999996 10.32999992 -0.79000002 75 109 163 0.000000 0.000000 0.000000 0.000000 51.808199 0.000000 217.000000 0.897781 -0.395952 0.192900
12.27000046 10.32999992 -0.76999998 75 109 163 0.000000 0.000000 0.000000 0.000000 51.808199 0.000000 217.000000 0.801998 -0.532050 0.271518
12.28999996 10.34000015 -0.80000001 75 109 163 0.000000 0.000000 0.000000 0.000000 51.808199 0.000000 217.000000 0.939614 -0.309568 -0.145920
12.28999996 10.34000015 -0.79000002 75 109 163 0.000000 0.000000 0.000000 0.000000 51.808199 0.000000 217.000000 0.902478 -0.415559 0.113334
12.30000019 10.39000034 -0.80000001 75 109 163 0.000000 0.000000 0.000000 0.000000 51.808199 0.000000 217.000000 0.920307 -0.283725 -0.269323
12.19999981 10.15999985 -0.64999998 75 109 163 0.000000 0.000000 0.000000 0.000000 51.808199 0.000000 217.000000 0.470754 -0.143399 0.870533
12.22000027 9.96000004 -0.38999999 75 109 163 0.000000 0.000000 0.000000 0.000000 51.808199 0.000000 217.000000 0.290314 -0.422414 0.858653
12.06999969 10.10999966 -0.44000000 75 109 163 0.000000 0.000000 0.000000 0.000000 51.808199 0.000000 217.000000 -0.303932 -0.110159 0.946304
12.10999966 10.06000042 -0.58999997 75 109 163 0.000000 0.000000 0.000000 0.000000 51.808199 0.000000 217.000000 0.279585 -0.504503 0.816889
12.11999989 9.90999985 -0.63999999 75 109 163 0.000000 0.000000 0.000000 0.000000 51.808199 0.000000 217.000000 0.496854 -0.480237 0.722848
12.11999989 10.00000000 -0.73000002 75 109 163 0.000000 0.000000 0.000000 0.000000 51.808199 0.000000 217.000000 0.497771 -0.220724 0.838752
12.14000034 9.97999954 -0.72000003 75 109 163 0.000000 0.000000 0.000000 0.000000 51.808199 0.000000 217.000000 -0.650911 0.553359 -0.519720
11.97999954 9.98999977 -0.79000002 75 109 163 0.000000 0.000000 0.000000 0.000000 51.808199 0.000000 217.000000 -0.512307 -0.135740 0.848007
11.97999954 9.97999954 -0.79000002 75 109 163 0.000000 0.000000 0.000000 0.000000 51.808199 0.000000 217.000000 -0.513924 -0.117261 0.849784
11.97999954 9.97999954 -0.79000002 75 109 163 0.000000 0.000000 0.000000 0.000000 51.808199 0.000000 217.000000 -0.513924 -0.117261 0.849784
12.50000000 9.77999973 -0.75000000 75 109 163 0.000000 0.000000 0.000000 0.000000 51.808199 0.000000 217.000000 0.994694 0.031874 0.097821
12.35999966 9.76000023 -0.85000002 75 109 163 0.000000 0.000000 0.000000 0.000000 51.808199 0.000000 217.000000 0.968001 -0.247228 -0.043050
12.40999985 9.63000011 -0.95999998 75 109 163 0.000000 0.000000 0.000000 0.000000 51.808199 0.000000 217.000000 0.960739 -0.261084 0.093888
12.39000034 9.69999981 -0.92000002 75 109 163 0.000000 0.000000 0.000000 0.000000 51.808199 0.000000 217.000000 0.918922 -0.385704 0.082554
12.43000031 9.50000000 -0.93000001 75 109 163 0.000000 0.000000 0.000000 0.000000 51.808199 0.000000 217.000000 0.777766 -0.547790 -0.308232
12.42000008 9.52000046 -0.99000001 75 109 163 0.000000 0.000000 0.000000 0.000000 51.808199 0.000000 217.000000 0.973985 0.108776 -0.198798
12.39999962 9.55000019 -0.98000002 75 109 163 0.000000 0.000000 0.000000 0.000000 51.808199 0.000000 217.000000 0.998603 0.024050 -0.047055
12.27000046 9.89000034 -0.57999998 75 109 163 0.000000 0.000000 0.000000 0.000000 51.808199 0.000000 217.000000 0.555084 -0.451735 0.698439
12.18000031 9.86999989 -0.60000002 75 109 163 0.000000 0.000000 0.000000 0.000000 51.808199 0.000000 217.000000 -0.408446 0.696178 -0.590346
12.10999966 9.89000034 -0.63999999 75 109 163 0.000000 0.000000 0.000000 0.000000 51.808199 0.000000 217.000000 0.469977 -0.421191 0.775706
12.42000008 9.56999969 -1.01999998 75 109 163 0.000000 0.000000 0.000000 0.000000 51.808199 0.000000 217.000000 0.949723 -0.126541 -0.286382
12.40999985 9.51000023 -1.04999995 75 109 163 0.000000 0.000000 0.000000 0.000000 51.808199 0.000000 217.000000 0.905185 0.046935 -0.422419
12.39000034 9.51000023 -1.05999994 75 109 163 0.000000 0.000000 0.000000 0.000000 51.808199 0.000000 217.000000 0.959740 -0.124048 -0.252013
11.89999962 10.05000019 -0.41999999 75 109 163 0.000000 0.000000 0.000000 0.000000 51.808199 0.000000 217.000000 -0.487288 -0.028504 0.872776
11.89999962 10.03999996 -0.61000001 75 109 163 0.000000 0.000000 0.000000 0.000000 51.808199 0.000000 217.000000 0.728884 0.004149 -0.684625
11.90999985 10.05000019 -0.61000001 75 109 163 0.000000 0.000000 0.000000 0.000000 51.808199 0.000000 217.000000 0.715531 -0.095502 -0.692023
11.97000027 9.85999966 -0.56000000 75 109 163 0.000000 0.000000 0.000000 0.000000 51.808199 0.000000 217.000000 0.112579 -0.014209 0.993541
11.89999962 9.82999992 -0.63000000 75 109 163 0.000000 0.000000 0.000000 0.000000 51.808199 0.000000 217.000000 -0.423893 -0.195079 0.884454
11.86999989 9.82999992 -0.58999997 75 109 163 0.000000 0.000000 0.000000 0.000000 51.808199 0.000000 217.000000 -0.558931 -0.227598 0.797367
11.85999966 9.80000019 -0.58999997 75 109 163 0.000000 0.000000 0.000000 0.000000 51.808199 0.000000 217.000000 -0.517318 -0.117375 0.847706
11.65999985 9.64999962 -0.44999999 75 109 163 0.000000 0.000000 0.000000 0.000000 51.808199 0.000000 217.000000 -0.503813 -0.151291 0.850461
11.72999954 9.69999981 -0.51999998 75 109 163 0.000000 0.000000 0.000000 0.000000 51.808199 0.000000 217.000000 -0.406893 -0.055058 0.911815
11.78999996 9.72000027 -0.55000001 75 109 163 0.000000 0.000000 0.000000 0.000000 51.808199 0.000000 217.000000 0.003475 -0.205017 0.978752
11.72999954 9.63000011 -0.79000002 75 109 163 0.000000 0.000000 0.000000 0.000000 51.808199 0.000000 217.000000 0.561658 0.190264 -0.805196
11.69999981 9.67000008 -0.77999997 75 109 163 0.000000 0.000000 0.000000 0.000000 51.808199 0.000000 217.000000 -0.505221 0.363178 0.782850
11.69999981 9.63000011 -0.75000000 75 109 163 0.000000 0.000000 0.000000 0.000000 51.808199 0.000000 217.000000 0.785474 0.266022 -0.558804
11.64000034 9.53999996 -0.82999998 75 109 163 0.000000 0.000000 0.000000 0.000000 51.808199 0.000000 217.000000 0.827942 -0.315781 -0.463459
11.53999996 9.61999989 -0.44999999 75 109 163 0.000000 0.000000 0.000000 0.000000 51.808199 0.000000 217.000000 0.720263 0.210012 -0.661148
11.61999989 9.53999996 -0.87000000 75 109 163 0.000000 0.000000 0.000000 0.000000 51.808199 0.000000 217.000000 0.855209 -0.498507 -0.141804
12.63000011 11.78999996 -0.67000002 75 109 163 0.000000 0.000000 0.000000 0.000000 51.808199 0.000000 217.000000 -0.077823 -0.524953 0.847566
12.52000046 11.73999977 -0.60000002 75 109 163 0.000000 0.000000 0.000000 0.000000 51.808199 0.000000 217.000000 0.628266 -0.098121 0.771786
12.56000042 11.72999954 -0.62000000 75 109 163 0.000000 0.000000 0.000000 0.000000 51.808199 0.000000 217.000000 -0.585753 0.679206 -0.442235
12.59000015 11.80000019 -1.00999999 75 109 163 0.000000 0.000000 0.000000 0.000000 51.808199 0.000000 217.000000 -0.142965 -0.021388 0.989497
12.48999977 11.85999966 -0.93000001 75 109 163 0.000000 0.000000 0.000000 0.000000 51.808199 0.000000 217.000000 0.397674 0.097698 0.912311
12.51000023 11.72000027 -0.88000000 75 109 163 0.000000 0.000000 0.000000 0.000000 51.808199 0.000000 217.000000 0.012723 -0.188532 0.981985
12.52000046 11.72000027 -0.94999999 75 109 163 0.000000 0.000000 0.000000 0.000000 51.808199 0.000000 217.000000 0.127843 -0.403197 0.906139
12.56999969 11.64999962 -0.97000003 75 109 163 0.000000 0.000000 0.000000 0.000000 51.808199 0.000000 217.000000 0.330680 -0.153580 0.931163
12.46000004 11.77000046 -0.94000000 75 109 163 0.000000 0.000000 0.000000 0.000000 51.808199 0.000000 217.000000 0.351453 -0.158224 0.922738
12.63000011 11.47000027 -0.82999998 75 109 163 0.000000 0.000000 0.000000 0.000000 51.808199 0.000000 217.000000 -0.365258 -0.310696 0.877528
12.59000015 11.47000027 -0.89999998 75 109 163 0.000000 0.000000 0.000000 0.000000 51.808199 0.000000 217.000000 -0.370313 -0.210570 0.904726
12.59000015 11.46000004 -0.95999998 75 109 163 0.000000 0.000000 0.000000 0.000000 51.808199 0.000000 217.000000 0.070475 0.121309 0.990110
12.50000000 11.39999962 -0.72000003 75 109 163 0.000000 0.000000 0.000000 0.000000 51.808199 0.000000 217.000000 0.003562 -0.243372 0.969926
12.48999977 11.27999973 -0.69999999 75 109 163 0.000000 0.000000 0.000000 0.000000 51.808199 0.000000 217.000000 0.093150 -0.251376 0.963397
12.56000042 11.38000011 -0.97000003 75 109 163 0.000000 0.000000 0.000000 0.000000 51.808199 0.000000 217.000000 -0.232229 -0.274452 0.933138
12.56000042 11.72000027 -1.04999995 75 109 163 0.000000 0.000000 0.000000 0.000000 51.808199 0.000000 217.000000 0.087989 -0.165129 0.982339
12.65999985 11.22999954 -0.81000000 75 109 163 0.000000 0.000000 0.000000 0.000000 51.808199 0.000000 217.000000 0.837971 -0.227427 -0.496066
12.56999969 11.19999981 -0.94000000 75 109 163 0.000000 0.000000 0.000000 0.000000 51.808199 0.000000 217.000000 -0.621156 0.043863 0.782458
12.50000000 11.15999985 -0.88000000 75 109 163 0.000000 0.000000 0.000000 0.000000 51.808199 0.000000 217.000000 -0.008454 0.262086 0.965007
12.51000023 10.94999981 -0.82999998 75 109 163 0.000000 0.000000 0.000000 0.000000 51.808199 0.000000 217.000000 -0.631882 0.004130 0.775054
12.59000015 10.96000004 -0.88999999 75 109 163 0.000000 0.000000 0.000000 0.000000 51.808199 0.000000 217.000000 0.751630 0.020995 -0.659251
12.56000042 11.00000000 -0.91000003 75 109 163 0.000000 0.000000 0.000000 0.000000 51.808199 0.000000 217.000000 -0.432025 -0.183061 0.883087
12.56999969 11.02999973 -0.91000003 75 109 163 0.000000 0.000000 0.000000 0.000000 51.808199 0.000000 217.000000 0.511577 0.378405 -0.771426
12.47999954 11.14000034 -0.68000001 75 109 163 0.000000 0.000000 0.000000 0.000000 51.808199 0.000000 217.000000 -0.142660 0.001106 0.989771
12.47000027 11.26000023 -0.92000002 75 109 163 0.000000 0.000000 0.000000 0.000000 51.808199 0.000000 217.000000 -0.126706 0.073233 0.989233
12.47000027 10.97000027 -0.86000001 75 109 163 0.000000 0.000000 0.000000 0.000000 51.808199 0.000000 217.000000 -0.581620 -0.260074 0.770765
12.61999989 10.92000008 -0.69999999 75 109 163 0.000000 0.000000 0.000000 0.000000 51.808199 0.000000 217.000000 0.975124 0.100618 -0.197509
12.48999977 10.92000008 -0.69000000 75 109 163 0.000000 0.000000 0.000000 0.000000 51.808199 0.000000 217.000000 0.830325 -0.545310 -0.114879
12.50000000 10.92000008 -0.88000000 75 109 163 0.000000 0.000000 0.000000 0.000000 51.808199 0.000000 217.000000 -0.518225 0.171746 0.837822
12.50000000 10.89000034 -0.87000000 75 109 163 0.000000 0.000000 0.000000 0.000000 51.808199 0.000000 217.000000 -0.694788 0.076876 0.715095
12.64000034 10.72000027 -0.79000002 75 109 163 0.000000 0.000000 0.000000 0.000000 51.808199 0.000000 217.000000 0.784903 -0.177628 -0.593612
12.60000038 10.60999966 -0.76999998 75 109 163 0.000000 0.000000 0.000000 0.000000 51.808199 0.000000 217.000000 0.873458 -0.466325 -0.140042
12.63000011 10.65999985 -0.81999999 75 109 163 0.000000 0.000000 0.000000 0.000000 51.808199 0.000000 217.000000 0.742234 -0.098475 -0.662866
