//X Y Z R G B PointSourceId ScanDirectionFlag NumberOfReturns ReturnNumber GpsTime Intensity Classification Nx Ny Nz
-9.93999958 13.89000034 -0.67000002 142 161 104 0.000000 0.000000 0.000000 0.000000 51.808199 0.000000 181.000000 0.856383 0.447273 -0.257983
-9.92000008 13.85000038 -0.38999999 142 161 104 0.000000 0.000000 0.000000 0.000000 51.808199 0.000000 181.000000 0.985018 -0.060163 0.161614
-9.93000031 13.81000042 -0.37000000 142 161 104 0.000000 0.000000 0.000000 0.000000 51.808199 0.000000 181.000000 0.905269 0.420835 -0.058186
-9.93999958 13.81999969 -0.38000000 142 161 104 0.000000 0.000000 0.000000 0.000000 51.808199 0.000000 181.000000 0.918854 0.207207 0.335817
-9.93000031 13.78999996 -0.34999999 142 161 104 0.000000 0.000000 0.000000 0.000000 51.808199 0.000000 181.000000 0.886553 0.448225 0.114531
-9.93999958 13.85000038 -0.44000000 142 161 104 0.000000 0.000000 0.000000 0.000000 51.808199 0.000000 181.000000 0.967652 0.221141 -0.121436
-9.93000031 13.84000015 -0.44999999 142 161 104 0.000000 0.000000 0.000000 0.000000 51.808199 0.000000 181.000000 0.973138 -0.032559 0.227910
-9.93000031 13.82999992 -0.49000001 142 161 104 0.000000 0.000000 0.000000 0.000000 51.808199 0.000000 181.000000 0.979902 0.031838 0.196924
-9.72000027 13.92000008 -0.85000002 142 161 104 0.000000 0.000000 0.000000 0.000000 51.808199 0.000000 181.000000 0.928292 0.282031 0.242348
-10.01000023 13.94999981 -0.69000000 142 161 104 0.000000 0.000000 0.000000 0.000000 51.808199 0.000000 181.000000 0.896533 0.390497 -0.209142
-9.92000008 13.93999958 -1.00000000 142 161 104 0.000000 0.000000 0.000000 0.000000 51.808199 0.000000 181.000000 0.974956 -0.210236 0.072538
-9.92000008 13.92000008 -1.00999999 142 161 104 0.000000 0.000000 0.000000 0.000000 51.808199 0.000000 181.000000 0.982890 0.141798 0.117559
-9.93999958 13.98999977 -0.93000001 142 161 104 0.000000 0.000000 0.000000 0.000000 51.808199 0.000000 181.000000 0.953207 -0.164901 0.253384
-9.94999981 13.97999954 -0.92000002 142 161 104 0.000000 0.000000 0.000000 0.000000 51.808199 0.000000 181.000000 0.924120 0.163573 0.345322
-9.93999958 13.98999977 -0.93000001 142 161 104 0.000000 0.000000 0.000000 0.000000 51.808199 0.000000 181.000000 0.953207 -0.164901 0.253384
-9.96000004 13.97000027 -0.87000000 142 161 104 0.000000 0.000000 0.000000 0.000000 51.808199 0.000000 181.000000 0.910956 0.281303 0.301709
-9.96000004 13.94999981 -0.86000001 142 161 104 0.000000 0.000000 0.000000 0.000000 51.808199 0.000000 181.000000 0.887544 0.403161 0.222994
-9.96000004 14.00000000 -1.00000000 142 161 104 0.000000 0.000000 0.000000 0.000000 51.808199 0.000000 181.000000 0.919519 0.131756 0.370304
-9.93000031 13.89999962 -0.89999998 142 161 104 0.000000 0.000000 0.000000 0.000000 51.808199 0.000000 181.000000 0.870525 0.447911 -0.203867
-9.93999958 13.92000008 -0.88000000 142 161 104 0.000000 0.000000 0.000000 0.000000 51.808199 0.000000 181.000000 0.892272 0.444061 0.081619
-9.93000031 13.89999962 -0.91000003 142 161 104 0.000000 0.000000 0.000000 0.000000 51.808199 0.000000 181.000000 0.989137 -0.028391 0.144226
-9.93999958 13.90999985 -0.89999998 142 161 104 0.000000 0.000000 0.000000 0.000000 51.808199 0.000000 181.000000 0.931125 0.197427 0.306641
-9.93999958 13.90999985 -0.88999999 142 161 104 0.000000 0.000000 0.000000 0.000000 51.808199 0.000000 181.000000 0.882132 0.425603 -0.201756
-9.93000031 13.89999962 -0.86000001 142 161 104 0.000000 0.000000 0.000000 0.000000 51.808199 0.000000 181.000000 0.840403 0.537121 0.072277
-9.93000031 13.90999985 -0.93000001 142 161 104 0.000000 0.000000 0.000000 0.000000 51.808199 0.000000 181.000000 0.965282 0.241002 0.100736
-9.93000031 13.93000031 -0.98000002 142 161 104 0.000000 0.000000 0.000000 0.000000 51.808199 0.000000 181.000000 0.999072 -0.040210 0.015466
-9.93000031 13.92000008 -0.98000002 142 161 104 0.000000 0.000000 0.000000 0.000000 51.808199 0.000000 181.000000 0.931656 0.363231 -0.008921
-9.93000031 13.90999985 -0.98000002 142 161 104 0.000000 0.000000 0.000000 0.000000 51.808199 0.000000 181.000000 0.976676 0.214564 0.008207
-9.93000031 13.92000008 -0.94999999 142 161 104 0.000000 0.000000 0.000000 0.000000 51.808199 0.000000 181.000000 0.977292 0.170559 0.125741
-9.93000031 13.90999985 -0.94000000 142 161 104 0.000000 0.000000 0.000000 0.000000 51.808199 0.000000 181.000000 0.905628 0.283284 0.315575
-9.94999981 13.92000008 -0.94999999 142 161 104 0.000000 0.000000 0.000000 0.000000 51.808199 0.000000 181.000000 0.923065 0.217610 0.317170
-9.90999985 13.80000019 -0.81999999 142 161 104 0.000000 0.000000 0.000000 0.000000 51.808199 0.000000 181.000000 0.875503 0.464348 -0.133698
-9.90999985 13.77000046 -0.80000001 142 161 104 0.000000 0.000000 0.000000 0.000000 51.808199 0.000000 181.000000 0.854009 0.435468 0.284670
-9.89999962 13.71000004 -0.79000002 142 161 104 0.000000 0.000000 0.000000 0.000000 51.808199 0.000000 181.000000 0.797066 0.550615 -0.248011
-9.89999962 13.71000004 -0.81999999 142 161 104 0.000000 0.000000 0.000000 0.000000 51.808199 0.000000 181.000000 0.910708 0.324941 -0.254998
-9.97000027 13.77000046 -0.98000002 142 161 104 0.000000 0.000000 0.000000 0.000000 51.808199 0.000000 181.000000 0.918860 0.306287 -0.248768
-9.80000019 13.92000008 -1.09000003 142 161 104 0.000000 0.000000 0.000000 0.000000 51.808199 0.000000 181.000000 0.908619 0.112708 0.402130
-9.78999996 13.97999954 -1.25999999 142 161 104 0.000000 0.000000 0.000000 0.000000 51.808199 0.000000 181.000000 0.933103 -0.282036 0.223103
-9.76000023 13.90999985 -1.20000005 142 161 104 0.000000 0.000000 0.000000 0.000000 51.808199 0.000000 181.000000 0.866351 0.430908 0.252497
-9.92000008 13.93999958 -1.02999997 142 161 104 0.000000 0.000000 0.000000 0.000000 51.808199 0.000000 181.000000 0.941600 0.284542 0.180072
-9.92000008 13.97999954 -1.10000002 142 161 104 0.000000 0.000000 0.000000 0.000000 51.808199 0.000000 181.000000 0.991998 0.048638 0.116506
-9.90999985 13.96000004 -1.03999996 142 161 104 0.000000 0.000000 0.000000 0.000000 51.808199 0.000000 181.000000 0.936352 0.111823 0.332776
-9.92000008 13.92000008 -1.01999998 142 161 104 0.000000 0.000000 0.000000 0.000000 51.808199 0.000000 181.000000 0.993549 0.109412 -0.029840
-9.92000008 13.90999985 -1.03999996 142 161 104 0.000000 0.000000 0.000000 0.000000 51.808199 0.000000 181.000000 0.996659 0.033474 0.074506
-9.92000008 13.92000008 -1.04999995 142 161 104 0.000000 0.000000 0.000000 0.000000 51.808199 0.000000 181.000000 0.996830 0.072203 0.033407
-9.92000008 13.93000031 -1.08000004 142 161 104 0.000000 0.000000 0.000000 0.000000 51.808199 0.000000 181.000000 0.999162 0.009204 0.039885
-9.92000008 13.93000031 -1.05999994 142 161 104 0.000000 0.000000 0.000000 0.000000 51.808199 0.000000 181.000000 0.995785 0.079970 -0.044914
-9.92000008 13.92000008 -1.07000005 142 161 104 0.000000 0.000000 0.000000 0.000000 51.808199 0.000000 181.000000 0.996406 -0.035702 -0.076813
-9.93000031 13.97999954 -1.10000002 142 161 104 0.000000 0.000000 0.000000 0.000000 51.808199 0.000000 181.000000 0.989640 0.096749 -0.106075
-9.93000031 13.98999977 -1.08000004 142 161 104 0.000000 0.000000 0.000000 0.000000 51.808199 0.000000 181.000000 0.950135 0.306454 -0.057701
-9.94999981 13.97000027 -1.02999997 142 161 104 0.000000 0.000000 0.000000 0.000000 51.808199 0.000000 181.000000 0.945932 0.320459 0.050192
-9.93000031 13.96000004 -1.01999998 142 161 104 0.000000 0.000000 0.000000 0.000000 51.808199 0.000000 181.000000 0.948136 0.129717 0.290191
-9.93000031 13.96000004 -1.09000003 142 161 104 0.000000 0.000000 0.000000 0.000000 51.808199 0.000000 181.000000 0.936627 0.343825 -0.067184
-9.93999958 13.97000027 -1.08000004 142 161 104 0.000000 0.000000 0.000000 0.000000 51.808199 0.000000 181.000000 0.924737 0.208172 0.318631
-9.93999958 13.97999954 -1.15999997 142 161 104 0.000000 0.000000 0.000000 0.000000 51.808199 0.000000 181.000000 0.998212 0.007286 0.059331
-9.92000008 13.97999954 -1.20000005 142 161 104 0.000000 0.000000 0.000000 0.000000 51.808199 0.000000 181.000000 0.935177 0.126596 0.330783
-9.92000008 13.97999954 -1.21000004 142 161 104 0.000000 0.000000 0.000000 0.000000 51.808199 0.000000 181.000000 0.987462 0.045042 0.151295
-9.92000008 13.97999954 -1.20000005 142 161 104 0.000000 0.000000 0.000000 0.000000 51.808199 0.000000 181.000000 0.935177 0.126596 0.330783
-9.92000008 13.96000004 -1.21000004 142 161 104 0.000000 0.000000 0.000000 0.000000 51.808199 0.000000 181.000000 0.968831 0.027889 0.246149
-9.92000008 13.97000027 -1.23000002 142 161 104 0.000000 0.000000 0.000000 0.000000 51.808199 0.000000 181.000000 0.941526 -0.322695 0.096941
-9.92000008 13.96000004 -1.20000005 142 161 104 0.000000 0.000000 0.000000 0.000000 51.808199 0.000000 181.000000 0.977568 0.015256 0.210066
-9.92000008 13.97000027 -1.23000002 142 161 104 0.000000 0.000000 0.000000 0.000000 51.808199 0.000000 181.000000 0.941526 -0.322695 0.096941
-9.92000008 13.94999981 -1.25000000 142 161 104 0.000000 0.000000 0.000000 0.000000 51.808199 0.000000 181.000000 0.992966 -0.114530 0.030022
-9.92000008 13.96000004 -1.24000001 142 161 104 0.000000 0.000000 0.000000 0.000000 51.808199 0.000000 181.000000 0.947774 -0.317612 0.029104
-9.93999958 13.96000004 -1.19000006 142 161 104 0.000000 0.000000 0.000000 0.000000 51.808199 0.000000 181.000000 0.940218 0.197432 0.277509
-9.93000031 14.02000046 -1.33000004 142 161 104 0.000000 0.000000 0.000000 0.000000 51.808199 0.000000 181.000000 0.968928 0.078968 0.234398
-9.75000000 13.89000034 -1.44000006 142 161 104 0.000000 0.000000 0.000000 0.000000 51.808199 0.000000 181.000000 0.952605 0.052285 0.299682
-9.77000046 13.92000008 -1.38000000 142 161 104 0.000000 0.000000 0.000000 0.000000 51.808199 0.000000 181.000000 0.903072 0.428192 0.033348
-9.77000046 13.90999985 -1.38000000 142 161 104 0.000000 0.000000 0.000000 0.000000 51.808199 0.000000 181.000000 0.964721 0.216835 0.149318
-9.77999973 13.92000008 -1.41999996 142 161 104 0.000000 0.000000 0.000000 0.000000 51.808199 0.000000 181.000000 0.905961 0.374233 0.197953
-9.76000023 13.88000011 -1.42999995 142 161 104 0.000000 0.000000 0.000000 0.000000 51.808199 0.000000 181.000000 0.893362 0.284862 0.347502
-9.76000023 13.88000011 -1.42999995 142 161 104 0.000000 0.000000 0.000000 0.000000 51.808199 0.000000 181.000000 0.893362 0.284862 0.347502
-9.92000008 14.01000023 -1.38999999 142 161 104 0.000000 0.000000 0.000000 0.000000 51.808199 0.000000 181.000000 0.985950 -0.161422 -0.042968
-9.92000008 14.01000023 -1.42999995 142 161 104 0.000000 0.000000 0.000000 0.000000 51.808199 0.000000 181.000000 0.990300 -0.137635 0.019023
-9.92000008 14.01000023 -1.40999997 142 161 104 0.000000 0.000000 0.000000 0.000000 51.808199 0.000000 181.000000 0.984598 -0.165864 0.055288
-9.89000034 14.01000023 -1.46000004 142 161 104 0.000000 0.000000 0.000000 0.000000 51.808199 0.000000 181.000000 0.941187 0.091596 0.325234
-10.02999973 14.03999996 -1.13999999 142 161 104 0.000000 0.000000 0.000000 0.000000 51.808199 0.000000 181.000000 0.964730 -0.235708 -0.117210
-10.10000038 14.02999973 -1.17999995 142 161 104 0.000000 0.000000 0.000000 0.000000 51.808199 0.000000 181.000000 0.971163 -0.237074 -0.025272
-10.09000015 14.02999973 -1.22000003 142 161 104 0.000000 0.000000 0.000000 0.000000 51.808199 0.000000 181.000000 0.968727 -0.222185 -0.110458
-10.09000015 14.03999996 -1.26999998 142 161 104 0.000000 0.000000 0.000000 0.000000 51.808199 0.000000 181.000000 0.965190 -0.239060 -0.106107
-10.02000046 14.06999969 -1.36000001 142 161 104 0.000000 0.000000 0.000000 0.000000 51.808199 0.000000 181.000000 0.967682 -0.060868 -0.244716
-10.06000042 14.06999969 -1.35000002 142 161 104 0.000000 0.000000 0.000000 0.000000 51.808199 0.000000 181.000000 0.927399 -0.113364 0.356482
-10.06000042 14.06999969 -1.35000002 142 161 104 0.000000 0.000000 0.000000 0.000000 51.808199 0.000000 181.000000 0.927399 -0.113364 0.356482
-10.09000015 14.03999996 -1.34000003 142 161 104 0.000000 0.000000 0.000000 0.000000 51.808199 0.000000 181.000000 0.861852 -0.473203 0.182457
-10.10000038 14.03999996 -1.32000005 142 161 104 0.000000 0.000000 0.000000 0.000000 51.808199 0.000000 181.000000 0.869106 -0.335686 0.363277
-10.07999992 14.06000042 -1.37000000 142 161 104 0.000000 0.000000 0.000000 0.000000 51.808199 0.000000 181.000000 0.986121 -0.162623 0.033447
-10.02000046 13.94999981 -0.50000000 142 161 104 0.000000 0.000000 0.000000 0.000000 51.808199 0.000000 181.000000 0.905587 0.244318 0.346727
-10.09000015 13.89999962 -0.41000000 142 161 104 0.000000 0.000000 0.000000 0.000000 51.808199 0.000000 181.000000 0.910581 0.332572 0.245436
-10.09000015 13.89999962 -0.41999999 142 161 104 0.000000 0.000000 0.000000 0.000000 51.808199 0.000000 181.000000 0.865260 0.464539 0.188487
-10.09000015 13.89999962 -0.49000001 142 161 104 0.000000 0.000000 0.000000 0.000000 51.808199 0.000000 181.000000 0.882186 0.461430 -0.093969
-10.10999966 13.85999966 -0.33000001 142 161 104 0.000000 0.000000 0.000000 0.000000 51.808199 0.000000 181.000000 0.918050 0.395688 0.024812
-10.02000046 13.97000027 -0.52999997 142 161 104 0.000000 0.000000 0.000000 0.000000 51.808199 0.000000 181.000000 0.948841 0.268591 0.166013
-10.02000046 13.96000004 -0.52999997 142 161 104 0.000000 0.000000 0.000000 0.000000 51.808199 0.000000 181.000000 0.904312 0.426413 -0.019802
-10.02999973 13.93999958 -0.64999998 142 161 104 0.000000 0.000000 0.000000 0.000000 51.808199 0.000000 181.000000 0.981198 -0.181348 -0.066054
-10.09000015 13.88000011 -0.56999999 142 161 104 0.000000 0.000000 0.000000 0.000000 51.808199 0.000000 181.000000 0.892399 0.297466 -0.339321
-10.07999992 13.93000031 -0.60000002 142 161 104 0.000000 0.000000 0.000000 0.000000 51.808199 0.000000 181.000000 0.945402 -0.055460 0.321153
-10.10000038 13.90999985 -0.57999998 142 161 104 0.000000 0.000000 0.000000 0.000000 51.808199 0.000000 181.000000 0.999060 -0.023812 0.036235
-10.10000038 13.93000031 -0.56000000 142 161 104 0.000000 0.000000 0.000000 0.000000 51.808199 0.000000 181.000000 0.952059 -0.062957 0.299365
-10.11999989 13.88000011 -0.52999997 142 161 104 0.000000 0.000000 0.000000 0.000000 51.808199 0.000000 181.000000 0.991465 0.128255 0.023420
-10.10999966 13.92000008 -0.61000001 142 161 104 0.000000 0.000000 0.000000 0.000000 51.808199 0.000000 181.000000 0.986233 0.157564 0.050187
-10.13000011 13.86999989 -0.58999997 142 161 104 0.000000 0.000000 0.000000 0.000000 51.808199 0.000000 181.000000 0.915001 0.308867 -0.259565
-10.10000038 13.85999966 -0.64999998 142 161 104 0.000000 0.000000 0.000000 0.000000 51.808199 0.000000 181.000000 0.942883 0.099741 0.317841
-10.09000015 13.80000019 -0.38999999 142 161 104 0.000000 0.000000 0.000000 0.000000 51.808199 0.000000 181.000000 0.841944 0.538789 -0.028938
-10.06999969 13.80000019 -0.50000000 142 161 104 0.000000 0.000000 0.000000 0.000000 51.808199 0.000000 181.000000 0.830352 0.381171 0.406477
-10.10000038 13.81999969 -0.34000000 142 161 104 0.000000 0.000000 0.000000 0.000000 51.808199 0.000000 181.000000 0.915078 0.335769 0.223365
-10.10999966 13.81000042 -0.41000000 142 161 104 0.000000 0.000000 0.000000 0.000000 51.808199 0.000000 181.000000 0.887655 0.395666 0.235621
-10.10000038 13.81000042 -0.38000000 142 161 104 0.000000 0.000000 0.000000 0.000000 51.808199 0.000000 181.000000 0.863546 0.489965 0.119258
-10.09000015 13.84000015 -0.56000000 142 161 104 0.000000 0.000000 0.000000 0.000000 51.808199 0.000000 181.000000 0.849043 0.471013 -0.239317
-10.09000015 13.78999996 -0.56999999 142 161 104 0.000000 0.000000 0.000000 0.000000 51.808199 0.000000 181.000000 0.793706 0.481375 0.371899
-10.09000015 13.84000015 -0.66000003 142 161 104 0.000000 0.000000 0.000000 0.000000 51.808199 0.000000 181.000000 0.908513 0.185147 0.374600
-10.11999989 13.81999969 -0.56999999 142 161 104 0.000000 0.000000 0.000000 0.000000 51.808199 0.000000 181.000000 0.887895 0.267114 0.374557
-10.10000038 13.80000019 -0.51999998 142 161 104 0.000000 0.000000 0.000000 0.000000 51.808199 0.000000 181.000000 0.826919 0.560171 0.049138
-10.10000038 13.85000038 -0.64999998 142 161 104 0.000000 0.000000 0.000000 0.000000 51.808199 0.000000 181.000000 0.960407 0.277396 0.025890
-10.10000038 13.85000038 -0.63000000 142 161 104 0.000000 0.000000 0.000000 0.000000 51.808199 0.000000 181.000000 0.862077 0.377833 0.337737
-10.10000038 13.85000038 -0.62000000 142 161 104 0.000000 0.000000 0.000000 0.000000 51.808199 0.000000 181.000000 0.871761 0.412462 0.264399
-10.05000019 14.01000023 -0.72000003 142 161 104 0.000000 0.000000 0.000000 0.000000 51.808199 0.000000 181.000000 0.906378 -0.315837 -0.280581
-10.05000019 14.00000000 -0.74000001 142 161 104 0.000000 0.000000 0.000000 0.000000 51.808199 0.000000 181.000000 0.999156 -0.019591 0.036089
-10.06000042 14.01000023 -0.73000002 142 161 104 0.000000 0.000000 0.000000 0.000000 51.808199 0.000000 181.000000 0.930367 -0.357421 0.081658
-10.03999996 13.98999977 -0.79000002 142 161 104 0.000000 0.000000 0.000000 0.000000 51.808199 0.000000 181.000000 0.907477 -0.390542 -0.154797
-10.06000042 13.93999958 -0.75999999 142 161 104 0.000000 0.000000 0.000000 0.000000 51.808199 0.000000 181.000000 0.988547 -0.106711 0.106711
-10.09000015 13.89000034 -0.81999999 142 161 104 0.000000 0.000000 0.000000 0.000000 51.808199 0.000000 181.000000 0.979086 0.086569 0.184112
-10.10000038 13.90999985 -0.70999998 142 161 104 0.000000 0.000000 0.000000 0.000000 51.808199 0.000000 181.000000 0.901791 0.207659 -0.379014
-10.10000038 13.88000011 -0.81999999 142 161 104 0.000000 0.000000 0.000000 0.000000 51.808199 0.000000 181.000000 0.885425 0.412410 0.214335
-10.10000038 13.92000008 -0.77999997 142 161 104 0.000000 0.000000 0.000000 0.000000 51.808199 0.000000 181.000000 0.960878 0.246413 -0.126466
-10.05000019 14.00000000 -0.89999998 142 161 104 0.000000 0.000000 0.000000 0.000000 51.808199 0.000000 181.000000 0.918456 0.030135 0.394373
-10.07999992 13.93999958 -0.92000002 142 161 104 0.000000 0.000000 0.000000 0.000000 51.808199 0.000000 181.000000 0.961296 -0.054034 -0.270168
-10.09000015 13.93999958 -1.00000000 142 161 104 0.000000 0.000000 0.000000 0.000000 51.808199 0.000000 181.000000 0.979013 0.127161 0.159259
-10.07999992 13.85999966 -0.89999998 142 161 104 0.000000 0.000000 0.000000 0.000000 51.808199 0.000000 181.000000 0.877761 0.467856 0.103183
-10.09000015 13.86999989 -0.88000000 142 161 104 0.000000 0.000000 0.000000 0.000000 51.808199 0.000000 181.000000 0.930426 0.366299 -0.011487
-10.06999969 13.85999966 -0.89999998 142 161 104 0.000000 0.000000 0.000000 0.000000 51.808199 0.000000 181.000000 0.902445 0.195554 0.383865
-10.10000038 13.93999958 -0.93000001 142 161 104 0.000000 0.000000 0.000000 0.000000 51.808199 0.000000 181.000000 0.916983 0.349395 -0.192524
-10.10000038 13.94999981 -0.94000000 142 161 104 0.000000 0.000000 0.000000 0.000000 51.808199 0.000000 181.000000 0.986530 0.005637 0.163482
-10.10999966 13.97999954 -0.95999998 142 161 104 0.000000 0.000000 0.000000 0.000000 51.808199 0.000000 181.000000 0.949270 0.055235 0.309573
-10.10000038 13.96000004 -0.94999999 142 161 104 0.000000 0.000000 0.000000 0.000000 51.808199 0.000000 181.000000 0.999680 -0.003014 -0.025118
-10.10999966 13.96000004 -1.00000000 142 161 104 0.000000 0.000000 0.000000 0.000000 51.808199 0.000000 181.000000 0.917622 -0.049135 -0.394405
-10.10000038 13.93000031 -0.93000001 142 161 104 0.000000 0.000000 0.000000 0.000000 51.808199 0.000000 181.000000 0.976974 0.186975 -0.102774
-10.10000038 13.89999962 -0.92000002 142 161 104 0.000000 0.000000 0.000000 0.000000 51.808199 0.000000 181.000000 0.940474 0.339581 0.013886
-10.10999966 13.90999985 -0.88000000 142 161 104 0.000000 0.000000 0.000000 0.000000 51.808199 0.000000 181.000000 0.897179 0.434119 0.081311
-10.10000038 13.89999962 -0.97000003 142 161 104 0.000000 0.000000 0.000000 0.000000 51.808199 0.000000 181.000000 0.945555 0.264099 0.190206
-10.10000038 13.89999962 -0.99000001 142 161 104 0.000000 0.000000 0.000000 0.000000 51.808199 0.000000 181.000000 0.911049 0.319231 -0.260924
-10.10000038 13.89999962 -0.94999999 142 161 104 0.000000 0.000000 0.000000 0.000000 51.808199 0.000000 181.000000 0.956750 0.196154 -0.214835
-10.10000038 13.90999985 -0.94000000 142 161 104 0.000000 0.000000 0.000000 0.000000 51.808199 0.000000 181.000000 0.987712 0.155358 -0.017010
-10.10000038 13.92000008 -0.97000003 142 161 104 0.000000 0.000000 0.000000 0.000000 51.808199 0.000000 181.000000 0.994753 -0.005377 -0.102164
-10.10000038 13.89999962 -0.95999998 142 161 104 0.000000 0.000000 0.000000 0.000000 51.808199 0.000000 181.000000 0.911247 0.401497 -0.091810
-10.13000011 13.89999962 -1.00999999 142 161 104 0.000000 0.000000 0.000000 0.000000 51.808199 0.000000 181.000000 0.906820 0.115616 0.405353
-10.10000038 13.89000034 -0.97000003 142 161 104 0.000000 0.000000 0.000000 0.000000 51.808199 0.000000 181.000000 0.866681 0.496234 -0.051144
-10.09000015 13.81999969 -0.81000000 142 161 104 0.000000 0.000000 0.000000 0.000000 51.808199 0.000000 181.000000 0.874172 0.334107 0.352415
-10.09000015 13.92000008 -1.05999994 142 161 104 0.000000 0.000000 0.000000 0.000000 51.808199 0.000000 181.000000 0.981344 -0.034083 0.189217
-10.07999992 13.86999989 -1.01999998 142 161 104 0.000000 0.000000 0.000000 0.000000 51.808199 0.000000 181.000000 0.957314 0.267006 0.110710
-10.07999992 13.88000011 -1.12000000 142 161 104 0.000000 0.000000 0.000000 0.000000 51.808199 0.000000 181.000000 0.852238 0.492305 0.176992
-10.09000015 13.86999989 -1.11000001 142 161 104 0.000000 0.000000 0.000000 0.000000 51.808199 0.000000 181.000000 0.869113 0.421709 0.258467
-10.07999992 13.86999989 -1.12000000 142 161 104 0.000000 0.000000 0.000000 0.000000 51.808199 0.000000 181.000000 0.856055 0.376169 0.354496
-10.09000015 13.89999962 -1.14999998 142 161 104 0.000000 0.000000 0.000000 0.000000 51.808199 0.000000 181.000000 0.981609 0.056058 0.182486
-10.09000015 13.89000034 -1.12000000 142 161 104 0.000000 0.000000 0.000000 0.000000 51.808199 0.000000 181.000000 0.920366 0.297217 0.254142
-10.09000015 13.89000034 -1.11000001 142 161 104 0.000000 0.000000 0.000000 0.000000 51.808199 0.000000 181.000000 0.992954 0.084916 0.082652
-10.10000038 14.00000000 -1.04999995 142 161 104 0.000000 0.000000 0.000000 0.000000 51.808199 0.000000 181.000000 0.951353 0.252345 0.176776
-10.14000034 13.96000004 -1.11000001 142 161 104 0.000000 0.000000 0.000000 0.000000 51.808199 0.000000 181.000000 0.931917 0.126894 -0.339747
-10.10999966 13.93999958 -1.15999997 142 161 104 0.000000 0.000000 0.000000 0.000000 51.808199 0.000000 181.000000 0.988834 -0.078035 -0.126953
-10.10999966 13.93999958 -1.11000001 142 161 104 0.000000 0.000000 0.000000 0.000000 51.808199 0.000000 181.000000 0.985237 -0.033574 0.167872
-10.10999966 13.98999977 -1.16999996 142 161 104 0.000000 0.000000 0.000000 0.000000 51.808199 0.000000 181.000000 0.968379 -0.132110 -0.211633
-10.10999966 13.90999985 -1.12000000 142 161 104 0.000000 0.000000 0.000000 0.000000 51.808199 0.000000 181.000000 0.959241 0.281985 0.018471
-10.10999966 13.97999954 -1.23000002 142 161 104 0.000000 0.000000 0.000000 0.000000 51.808199 0.000000 181.000000 0.991668 -0.058066 0.114992
-10.10999966 13.97999954 -1.24000001 142 161 104 0.000000 0.000000 0.000000 0.000000 51.808199 0.000000 181.000000 0.981592 -0.043810 -0.185899
-10.10999966 13.97999954 -1.26999998 142 161 104 0.000000 0.000000 0.000000 0.000000 51.808199 0.000000 181.000000 0.999223 -0.025727 0.029843
-10.10000038 13.97999954 -1.26999998 142 161 104 0.000000 0.000000 0.000000 0.000000 51.808199 0.000000 181.000000 0.945287 -0.034351 -0.324426
-10.10999966 13.94999981 -1.19000006 142 161 104 0.000000 0.000000 0.000000 0.000000 51.808199 0.000000 181.000000 0.986362 -0.019430 -0.163441
-10.10999966 13.94999981 -1.20000005 142 161 104 0.000000 0.000000 0.000000 0.000000 51.808199 0.000000 181.000000 0.994160 0.027463 -0.104359
-10.10999966 13.94999981 -1.21000004 142 161 104 0.000000 0.000000 0.000000 0.000000 51.808199 0.000000 181.000000 0.985611 0.115884 0.123052
-10.10000038 13.93999958 -1.19000006 142 161 104 0.000000 0.000000 0.000000 0.000000 51.808199 0.000000 181.000000 0.999730 0.003008 0.023063
-10.10999966 14.00000000 -1.27999997 142 161 104 0.000000 0.000000 0.000000 0.000000 51.808199 0.000000 181.000000 0.996065 -0.068883 -0.055762
-10.10999966 14.01000023 -1.28999996 142 161 104 0.000000 0.000000 0.000000 0.000000 51.808199 0.000000 181.000000 0.993128 0.089257 0.075699
-10.10999966 14.00000000 -1.29999995 142 161 104 0.000000 0.000000 0.000000 0.000000 51.808199 0.000000 181.000000 0.925213 -0.128234 -0.357124
-10.10999966 14.01000023 -1.28999996 142 161 104 0.000000 0.000000 0.000000 0.000000 51.808199 0.000000 181.000000 0.993128 0.089257 0.075699
-10.10000038 14.01000023 -1.32000005 142 161 104 0.000000 0.000000 0.000000 0.000000 51.808199 0.000000 181.000000 0.995035 -0.098529 -0.014076
-10.10999966 13.97000027 -1.27999997 142 161 104 0.000000 0.000000 0.000000 0.000000 51.808199 0.000000 181.000000 0.921010 0.191582 -0.339170
-10.10000038 13.93999958 -1.33000004 142 161 104 0.000000 0.000000 0.000000 0.000000 51.808199 0.000000 181.000000 0.941542 0.159885 0.296538
-10.05000019 13.85000038 -1.13999999 142 161 104 0.000000 0.000000 0.000000 0.000000 51.808199 0.000000 181.000000 0.956790 0.086511 -0.277611
-10.10999966 14.02000046 -1.37000000 142 161 104 0.000000 0.000000 0.000000 0.000000 51.808199 0.000000 181.000000 0.964586 0.040757 -0.260599
-9.86999989 13.81000042 1.11000001 142 161 104 0.000000 0.000000 0.000000 0.000000 51.808199 0.000000 181.000000 0.684050 0.702580 -0.196105
-9.85000038 13.81999969 1.07000005 142 161 104 0.000000 0.000000 0.000000 0.000000 51.808199 0.000000 181.000000 0.565955 0.775216 0.280599
-9.86999989 13.84000015 1.07000005 142 161 104 0.000000 0.000000 0.000000 0.000000 51.808199 0.000000 181.000000 0.635273 0.758423 -0.145677
-9.80000019 13.77999973 0.99000001 142 161 104 0.000000 0.000000 0.000000 0.000000 51.808199 0.000000 181.000000 0.750060 0.657567 -0.070815
-9.77000046 13.77999973 0.88999999 142 161 104 0.000000 0.000000 0.000000 0.000000 51.808199 0.000000 181.000000 0.708880 0.661516 -0.244714
-9.82999992 13.80000019 0.92000002 142 161 104 0.000000 0.000000 0.000000 0.000000 51.808199 0.000000 181.000000 0.585857 0.808907 0.049410
-9.81999969 13.77999973 0.92000002 142 161 104 0.000000 0.000000 0.000000 0.000000 51.808199 0.000000 181.000000 0.840497 0.541774 -0.006789
-9.81999969 13.78999996 0.92000002 142 161 104 0.000000 0.000000 0.000000 0.000000 51.808199 0.000000 181.000000 0.719456 0.694504 0.006931
-9.81999969 13.78999996 0.89999998 142 161 104 0.000000 0.000000 0.000000 0.000000 51.808199 0.000000 181.000000 0.664818 0.733851 0.139567
-9.81999969 13.77999973 0.88000000 142 161 104 0.000000 0.000000 0.000000 0.000000 51.808199 0.000000 181.000000 0.906424 0.385194 -0.173266
-9.77999973 13.75000000 0.98000002 142 161 104 0.000000 0.000000 0.000000 0.000000 51.808199 0.000000 181.000000 0.751508 0.570500 0.331310
-9.77000046 13.75000000 0.95999998 142 161 104 0.000000 0.000000 0.000000 0.000000 51.808199 0.000000 181.000000 0.403123 0.912758 -0.066064
-9.78999996 13.77999973 0.87000000 142 161 104 0.000000 0.000000 0.000000 0.000000 51.808199 0.000000 181.000000 0.498112 0.773940 -0.391026
-9.78999996 13.77999973 0.81000000 142 161 104 0.000000 0.000000 0.000000 0.000000 51.808199 0.000000 181.000000 0.752366 0.540202 0.376999
-9.81999969 13.78999996 0.81000000 142 161 104 0.000000 0.000000 0.000000 0.000000 51.808199 0.000000 181.000000 0.763045 0.641421 0.079635
-9.82999992 13.80000019 0.87000000 142 161 104 0.000000 0.000000 0.000000 0.000000 51.808199 0.000000 181.000000 0.560481 0.793368 -0.237545
-9.81000042 13.77999973 0.85000002 142 161 104 0.000000 0.000000 0.000000 0.000000 51.808199 0.000000 181.000000 0.549978 0.835152 0.006790
-9.81999969 13.80000019 0.72000003 142 161 104 0.000000 0.000000 0.000000 0.000000 51.808199 0.000000 181.000000 0.697648 0.635851 0.330122
-9.85000038 13.82999992 0.94000000 142 161 104 0.000000 0.000000 0.000000 0.000000 51.808199 0.000000 181.000000 0.756487 0.639644 -0.136318
-9.85999966 13.84000015 0.82999998 142 161 104 0.000000 0.000000 0.000000 0.000000 51.808199 0.000000 181.000000 0.648872 0.752337 -0.113811
-9.84000015 13.82999992 0.86000001 142 161 104 0.000000 0.000000 0.000000 0.000000 51.808199 0.000000 181.000000 0.558817 0.816732 -0.143780
-9.85999966 13.84000015 0.82999998 142 161 104 0.000000 0.000000 0.000000 0.000000 51.808199 0.000000 181.000000 0.648872 0.752337 -0.113811
-9.86999989 13.84000015 0.82999998 142 161 104 0.000000 0.000000 0.000000 0.000000 51.808199 0.000000 181.000000 0.845590 0.415787 -0.334810
-9.85000038 13.81000042 0.75000000 142 161 104 0.000000 0.000000 0.000000 0.000000 51.808199 0.000000 181.000000 0.655200 0.677961 0.333290
-9.81999969 13.78999996 0.63000000 142 161 104 0.000000 0.000000 0.000000 0.000000 51.808199 0.000000 181.000000 0.619649 0.763469 0.182070
-9.80000019 13.80000019 0.61000001 142 161 104 0.000000 0.000000 0.000000 0.000000 51.808199 0.000000 181.000000 0.645568 0.642249 -0.413230
-9.81999969 13.78999996 0.52999997 142 161 104 0.000000 0.000000 0.000000 0.000000 51.808199 0.000000 181.000000 0.627914 0.680652 -0.377408
-9.82999992 13.81999969 0.60000002 142 161 104 0.000000 0.000000 0.000000 0.000000 51.808199 0.000000 181.000000 0.587694 0.799794 0.122252
-9.82999992 13.80000019 0.52999997 142 161 104 0.000000 0.000000 0.000000 0.000000 51.808199 0.000000 181.000000 0.569529 0.791785 -0.220712
-9.81999969 13.81000042 0.47000000 142 161 104 0.000000 0.000000 0.000000 0.000000 51.808199 0.000000 181.000000 0.526185 0.839845 0.133378
-9.82999992 13.81999969 0.44999999 142 161 104 0.000000 0.000000 0.000000 0.000000 51.808199 0.000000 181.000000 0.840361 0.381697 -0.384838
-9.81999969 13.78999996 0.44000000 142 161 104 0.000000 0.000000 0.000000 0.000000 51.808199 0.000000 181.000000 0.780531 0.551618 -0.294090
-9.81999969 13.78999996 0.41000000 142 161 104 0.000000 0.000000 0.000000 0.000000 51.808199 0.000000 181.000000 0.845444 0.521718 -0.114171
-9.82999992 13.80000019 0.44000000 142 161 104 0.000000 0.000000 0.000000 0.000000 51.808199 0.000000 181.000000 0.692490 0.720698 -0.032438
-9.82999992 13.80000019 0.44000000 142 161 104 0.000000 0.000000 0.000000 0.000000 51.808199 0.000000 181.000000 0.692490 0.720698 -0.032438
-9.81999969 13.75000000 0.37000000 142 161 104 0.000000 0.000000 0.000000 0.000000 51.808199 0.000000 181.000000 0.819011 0.562067 -0.115333
-9.88000011 13.85999966 0.46000001 142 161 104 0.000000 0.000000 0.000000 0.000000 51.808199 0.000000 181.000000 0.839897 0.406604 -0.359507
-9.86999989 13.86999989 0.41000000 142 161 104 0.000000 0.000000 0.000000 0.000000 51.808199 0.000000 181.000000 0.978212 0.152884 -0.140455
-9.84000015 13.85999966 0.41000000 142 161 104 0.000000 0.000000 0.000000 0.000000 51.808199 0.000000 181.000000 0.946804 0.220601 -0.234303
-9.84000015 13.81000042 0.55000001 142 161 104 0.000000 0.000000 0.000000 0.000000 51.808199 0.000000 181.000000 0.877608 0.377417 -0.295568
-9.86999989 13.85000038 0.40000001 142 161 104 0.000000 0.000000 0.000000 0.000000 51.808199 0.000000 181.000000 0.991008 0.109345 -0.077117
-9.86999989 13.81999969 0.37000000 142 161 104 0.000000 0.000000 0.000000 0.000000 51.808199 0.000000 181.000000 0.706752 0.662481 -0.248233
-9.97999954 13.84000015 0.37000000 142 161 104 0.000000 0.000000 0.000000 0.000000 51.808199 0.000000 181.000000 0.885953 0.332420 -0.323395
-9.93999958 13.72999954 0.49000001 142 161 104 0.000000 0.000000 0.000000 0.000000 51.808199 0.000000 181.000000 0.873310 0.339875 0.349019
-9.93000031 13.72000027 0.41999999 142 161 104 0.000000 0.000000 0.000000 0.000000 51.808199 0.000000 181.000000 0.791509 0.600607 -0.113073
-9.82999992 13.84000015 0.30000001 142 161 104 0.000000 0.000000 0.000000 0.000000 51.808199 0.000000 181.000000 0.859748 0.435219 -0.267240
-9.85999966 13.86999989 0.25999999 142 161 104 0.000000 0.000000 0.000000 0.000000 51.808199 0.000000 181.000000 0.944574 0.267332 -0.190560
-9.93999958 13.85999966 0.16000000 142 161 104 0.000000 0.000000 0.000000 0.000000 51.808199 0.000000 181.000000 0.934661 0.322534 -0.149601
-9.84000015 13.85000038 0.28999999 142 161 104 0.000000 0.000000 0.000000 0.000000 51.808199 0.000000 181.000000 0.739875 0.570760 -0.356115
-9.84000015 13.81999969 0.28000000 142 161 104 0.000000 0.000000 0.000000 0.000000 51.808199 0.000000 181.000000 0.684519 0.696993 -0.213620
-9.86999989 13.85000038 0.25999999 142 161 104 0.000000 0.000000 0.000000 0.000000 51.808199 0.000000 181.000000 0.925796 0.283873 -0.249637
-9.84000015 13.81999969 0.20000000 142 161 104 0.000000 0.000000 0.000000 0.000000 51.808199 0.000000 181.000000 0.689228 0.650307 -0.319477
-10.01000023 13.80000019 0.31999999 142 161 104 0.000000 0.000000 0.000000 0.000000 51.808199 0.000000 181.000000 0.943997 0.306632 0.121849
-9.93000031 13.71000004 0.30000001 142 161 104 0.000000 0.000000 0.000000 0.000000 51.808199 0.000000 181.000000 0.810128 0.583914 -0.052312
-9.93999958 13.75000000 0.19000000 142 161 104 0.000000 0.000000 0.000000 0.000000 51.808199 0.000000 181.000000 0.842670 0.404919 0.354891
-9.88000011 13.81999969 0.12000000 142 161 104 0.000000 0.000000 0.000000 0.000000 51.808199 0.000000 181.000000 0.889870 0.279674 -0.360435
-9.85999966 13.82999992 0.14000000 142 161 104 0.000000 0.000000 0.000000 0.000000 51.808199 0.000000 181.000000 0.848837 0.337977 -0.406507
-9.85999966 13.82999992 0.14000000 142 161 104 0.000000 0.000000 0.000000 0.000000 51.808199 0.000000 181.000000 0.848837 0.337977 -0.406507
-9.85999966 13.80000019 0.15000001 142 161 104 0.000000 0.000000 0.000000 0.000000 51.808199 0.000000 181.000000 0.760112 0.638612 -0.120018
-9.89000034 13.81999969 0.09000000 142 161 104 0.000000 0.000000 0.000000 0.000000 51.808199 0.000000 181.000000 0.857181 0.316616 -0.406196
-9.92000008 13.71000004 0.07000000 142 161 104 0.000000 0.000000 0.000000 0.000000 51.808199 0.000000 181.000000 0.863762 0.391224 0.317582
-9.93999958 13.69999981 0.10000000 142 161 104 0.000000 0.000000 0.000000 0.000000 51.808199 0.000000 181.000000 0.820622 0.534394 0.202491
-9.77000046 13.85999966 -0.28000000 142 161 104 0.000000 0.000000 0.000000 0.000000 51.808199 0.000000 181.000000 0.973132 0.178429 -0.145527
-9.94999981 13.86999989 -0.25000000 142 161 104 0.000000 0.000000 0.000000 0.000000 51.808199 0.000000 181.000000 0.968564 0.203976 -0.142398
-9.97999954 13.89999962 -0.27000001 142 161 104 0.000000 0.000000 0.000000 0.000000 51.808199 0.000000 181.000000 0.951115 0.001230 0.308835
-9.89000034 13.76000023 -0.11000000 142 161 104 0.000000 0.000000 0.000000 0.000000 51.808199 0.000000 181.000000 0.748805 0.662672 -0.012503
-9.93000031 13.84000015 -0.15000001 142 161 104 0.000000 0.000000 0.000000 0.000000 51.808199 0.000000 181.000000 0.939471 0.235216 -0.249134
-9.96000004 13.71000004 -0.03000000 142 161 104 0.000000 0.000000 0.000000 0.000000 51.808199 0.000000 181.000000 0.879538 0.392409 0.269124
-9.92000008 13.84000015 -0.25000000 142 161 104 0.000000 0.000000 0.000000 0.000000 51.808199 0.000000 181.000000 0.990155 -0.030484 0.136612
-9.90999985 13.82999992 -0.25999999 142 161 104 0.000000 0.000000 0.000000 0.000000 51.808199 0.000000 181.000000 0.984465 0.156321 0.079951
-9.93999958 13.84000015 -0.17000000 142 161 104 0.000000 0.000000 0.000000 0.000000 51.808199 0.000000 181.000000 0.928104 0.147999 0.341642
-9.93000031 13.81000042 -0.16000000 142 161 104 0.000000 0.000000 0.000000 0.000000 51.808199 0.000000 181.000000 0.815048 0.441817 -0.374826
-10.07999992 13.85999966 -0.23999999 142 161 104 0.000000 0.000000 0.000000 0.000000 51.808199 0.000000 181.000000 0.962652 0.248717 -0.106961
-10.09000015 13.81000042 -0.23999999 142 161 104 0.000000 0.000000 0.000000 0.000000 51.808199 0.000000 181.000000 0.878461 0.461371 -0.124270
-10.07999992 13.81999969 -0.17000000 142 161 104 0.000000 0.000000 0.000000 0.000000 51.808199 0.000000 181.000000 0.945644 0.118706 0.302766
-9.92000008 14.02999973 -1.32000005 142 161 104 0.000000 0.000000 0.000000 0.000000 51.808199 0.000000 181.000000 0.994137 -0.094627 -0.052323
-10.00000000 14.06999969 -1.19000006 142 161 104 0.000000 0.000000 0.000000 0.000000 51.808199 0.000000 181.000000 0.973319 -0.153149 0.170869
-9.93999958 14.03999996 -1.33000004 142 161 104 0.000000 0.000000 0.000000 0.000000 51.808199 0.000000 181.000000 0.978567 0.094542 0.182944
-9.93000031 14.05000019 -1.32000005 142 161 104 0.000000 0.000000 0.000000 0.000000 51.808199 0.000000 181.000000 0.961120 -0.170075 0.217537
-9.90999985 14.02999973 -1.42999995 142 161 104 0.000000 0.000000 0.000000 0.000000 51.808199 0.000000 181.000000 0.970376 0.015593 0.241095
-9.97999954 14.11999989 -1.40999997 142 161 104 0.000000 0.000000 0.000000 0.000000 51.808199 0.000000 181.000000 0.866786 -0.490660 -0.089082
-9.81999969 13.85000038 -0.34000000 142 161 104 0.000000 0.000000 0.000000 0.000000 51.808199 0.000000 181.000000 0.835112 0.506543 -0.214482
-9.96000004 13.90999985 -0.40000001 142 161 104 0.000000 0.000000 0.000000 0.000000 51.808199 0.000000 181.000000 0.918997 0.393482 0.024838
-9.94999981 13.88000011 -0.34999999 142 161 104 0.000000 0.000000 0.000000 0.000000 51.808199 0.000000 181.000000 0.993570 0.057257 0.097673
-9.94999981 13.89000034 -0.34000000 142 161 104 0.000000 0.000000 0.000000 0.000000 51.808199 0.000000 181.000000 0.897455 0.215214 0.385042
-9.93000031 13.89999962 -0.46000001 142 161 104 0.000000 0.000000 0.000000 0.000000 51.808199 0.000000 181.000000 0.890875 0.396108 -0.222351
-9.94999981 13.90999985 -0.50000000 142 161 104 0.000000 0.000000 0.000000 0.000000 51.808199 0.000000 181.000000 0.994870 0.100459 0.011882
-9.93000031 13.85999966 -0.41999999 142 161 104 0.000000 0.000000 0.000000 0.000000 51.808199 0.000000 181.000000 0.992849 0.064383 0.100527
-9.94999981 13.89000034 -0.47999999 142 161 104 0.000000 0.000000 0.000000 0.000000 51.808199 0.000000 181.000000 0.856465 0.514431 -0.042754
-9.94999981 13.88000011 -0.50000000 142 161 104 0.000000 0.000000 0.000000 0.000000 51.808199 0.000000 181.000000 0.994428 -0.090200 -0.054565
-9.97999954 13.96000004 -0.56000000 142 161 104 0.000000 0.000000 0.000000 0.000000 51.808199 0.000000 181.000000 0.930803 -0.283902 -0.230229
-9.97999954 13.96000004 -0.56000000 142 161 104 0.000000 0.000000 0.000000 0.000000 51.808199 0.000000 181.000000 0.930803 -0.283902 -0.230229
-9.97999954 13.93999958 -0.55000001 142 161 104 0.000000 0.000000 0.000000 0.000000 51.808199 0.000000 181.000000 0.982539 0.073002 0.171137
-9.94999981 13.96000004 -0.62000000 142 161 104 0.000000 0.000000 0.000000 0.000000 51.808199 0.000000 181.000000 0.996830 -0.072203 -0.033407
-9.96000004 13.90999985 -0.57999998 142 161 104 0.000000 0.000000 0.000000 0.000000 51.808199 0.000000 181.000000 0.952522 0.270436 0.139881
-9.93000031 13.88000011 -0.56000000 142 161 104 0.000000 0.000000 0.000000 0.000000 51.808199 0.000000 181.000000 0.983410 0.175483 0.045932
-9.92000008 13.85000038 -0.34000000 142 161 104 0.000000 0.000000 0.000000 0.000000 51.808199 0.000000 181.000000 0.997329 0.007372 0.072667
-9.93999958 13.85000038 -0.36000001 142 161 104 0.000000 0.000000 0.000000 0.000000 51.808199 0.000000 181.000000 0.985664 0.158599 0.057566
-9.93000031 13.78999996 -0.34999999 142 161 104 0.000000 0.000000 0.000000 0.000000 51.808199 0.000000 181.000000 0.886553 0.448225 0.114531
-9.93000031 13.84000015 -0.44999999 142 161 104 0.000000 0.000000 0.000000 0.000000 51.808199 0.000000 181.000000 0.973138 -0.032559 0.227910
-9.68000031 13.90999985 -1.00999999 142 161 104 0.000000 0.000000 0.000000 0.000000 51.808199 0.000000 181.000000 0.971904 -0.022826 0.234266
-9.90999985 13.86999989 -0.77999997 142 161 104 0.000000 0.000000 0.000000 0.000000 51.808199 0.000000 181.000000 0.870998 0.245203 0.425721
-9.92000008 13.97999954 -0.95999998 142 161 104 0.000000 0.000000 0.000000 0.000000 51.808199 0.000000 181.000000 0.978520 -0.071718 0.193273
-9.92000008 13.89000034 -0.99000001 142 161 104 0.000000 0.000000 0.000000 0.000000 51.808199 0.000000 181.000000 0.991048 0.005512 0.133389
-9.93999958 13.92000008 -0.93000001 142 161 104 0.000000 0.000000 0.000000 0.000000 51.808199 0.000000 181.000000 0.890725 0.428867 -0.150606
-9.93999958 13.89000034 -0.91000003 142 161 104 0.000000 0.000000 0.000000 0.000000 51.808199 0.000000 181.000000 0.964988 -0.087496 0.247270
-9.93000031 13.92000008 -0.97000003 142 161 104 0.000000 0.000000 0.000000 0.000000 51.808199 0.000000 181.000000 0.984880 0.146837 -0.091922
-9.93000031 13.92000008 -0.98000002 142 161 104 0.000000 0.000000 0.000000 0.000000 51.808199 0.000000 181.000000 0.931656 0.363231 -0.008921
-9.89999962 13.71000004 -0.81999999 142 161 104 0.000000 0.000000 0.000000 0.000000 51.808199 0.000000 181.000000 0.910708 0.324941 -0.254998
-9.77000046 13.97000027 -1.14999998 142 161 104 0.000000 0.000000 0.000000 0.000000 51.808199 0.000000 181.000000 0.968727 -0.222185 0.110458
-9.81999969 13.93000031 -1.36000001 142 161 104 0.000000 0.000000 0.000000 0.000000 51.808199 0.000000 181.000000 0.888895 0.394900 0.232207
-9.92000008 13.92000008 -1.03999996 142 161 104 0.000000 0.000000 0.000000 0.000000 51.808199 0.000000 181.000000 0.991285 -0.007736 0.131508
-9.92000008 13.93000031 -1.02999997 142 161 104 0.000000 0.000000 0.000000 0.000000 51.808199 0.000000 181.000000 0.999028 0.003068 0.043970
-9.93999958 13.97000027 -1.08000004 142 161 104 0.000000 0.000000 0.000000 0.000000 51.808199 0.000000 181.000000 0.924737 0.208172 0.318631
-10.00000000 13.98999977 -1.07000005 142 161 104 0.000000 0.000000 0.000000 0.000000 51.808199 0.000000 181.000000 0.992713 0.080552 0.089628
-9.92000008 13.97000027 -1.21000004 142 161 104 0.000000 0.000000 0.000000 0.000000 51.808199 0.000000 181.000000 0.990424 -0.023608 0.136029
-9.96000004 14.01000023 -1.26999998 142 161 104 0.000000 0.000000 0.000000 0.000000 51.808199 0.000000 181.000000 0.994786 0.022931 0.099369
-9.93000031 14.02000046 -1.30999994 142 161 104 0.000000 0.000000 0.000000 0.000000 51.808199 0.000000 181.000000 0.941640 -0.247509 0.228151
-9.77999973 13.92000008 -1.41999996 142 161 104 0.000000 0.000000 0.000000 0.000000 51.808199 0.000000 181.000000 0.905961 0.374233 0.197953
-9.92000008 14.01000023 -1.40999997 142 161 104 0.000000 0.000000 0.000000 0.000000 51.808199 0.000000 181.000000 0.984598 -0.165864 0.055288
-10.02999973 14.06999969 -1.21000004 142 161 104 0.000000 0.000000 0.000000 0.000000 51.808199 0.000000 181.000000 0.984120 0.070209 0.163028
-10.10000038 14.03999996 -1.32000005 142 161 104 0.000000 0.000000 0.000000 0.000000 51.808199 0.000000 181.000000 0.869106 -0.335686 0.363277
-10.11999989 14.02999973 -1.29999995 142 161 104 0.000000 0.000000 0.000000 0.000000 51.808199 0.000000 181.000000 0.939508 -0.142762 -0.311357
-10.10000038 14.06999969 -1.34000003 142 161 104 0.000000 0.000000 0.000000 0.000000 51.808199 0.000000 181.000000 0.972562 -0.232129 -0.015475
-10.10999966 14.02999973 -1.28999996 142 161 104 0.000000 0.000000 0.000000 0.000000 51.808199 0.000000 181.000000 0.970326 -0.240467 -0.025376
-10.05000019 13.97000027 -0.46000001 142 161 104 0.000000 0.000000 0.000000 0.000000 51.808199 0.000000 181.000000 0.943405 -0.176632 0.280694
-10.02000046 13.94999981 -0.50000000 142 161 104 0.000000 0.000000 0.000000 0.000000 51.808199 0.000000 181.000000 0.905587 0.244318 0.346727
-10.07999992 13.94999981 -0.44999999 142 161 104 0.000000 0.000000 0.000000 0.000000 51.808199 0.000000 181.000000 0.929066 0.127627 0.347199
-10.07999992 13.94999981 -0.44999999 142 161 104 0.000000 0.000000 0.000000 0.000000 51.808199 0.000000 181.000000 0.929066 0.127627 0.347199
-10.13000011 13.89000034 -0.38000000 142 161 104 0.000000 0.000000 0.000000 0.000000 51.808199 0.000000 181.000000 0.985166 0.047914 0.164779
-10.10999966 13.86999989 -0.44999999 142 161 104 0.000000 0.000000 0.000000 0.000000 51.808199 0.000000 181.000000 0.943956 0.289299 -0.158911
-10.06999969 13.93999958 -0.54000002 142 161 104 0.000000 0.000000 0.000000 0.000000 51.808199 0.000000 181.000000 0.985181 0.111327 -0.130480
-10.02999973 13.97000027 -0.54000002 142 161 104 0.000000 0.000000 0.000000 0.000000 51.808199 0.000000 181.000000 0.933330 0.268878 -0.237908
-10.09000015 13.89999962 -0.55000001 142 161 104 0.000000 0.000000 0.000000 0.000000 51.808199 0.000000 181.000000 0.963764 -0.066771 0.258264
-10.10000038 13.92000008 -0.55000001 142 161 104 0.000000 0.000000 0.000000 0.000000 51.808199 0.000000 181.000000 0.926688 0.329458 0.180851
-10.11999989 13.85999966 -0.60000002 142 161 104 0.000000 0.000000 0.000000 0.000000 51.808199 0.000000 181.000000 0.942865 0.319593 0.094154
-10.10000038 13.92000008 -0.58999997 142 161 104 0.000000 0.000000 0.000000 0.000000 51.808199 0.000000 181.000000 0.895921 0.373423 -0.240585
-10.10000038 13.90999985 -0.60000002 142 161 104 0.000000 0.000000 0.000000 0.000000 51.808199 0.000000 181.000000 0.968906 0.136952 -0.206069
-10.14999962 13.92000008 -0.67000002 142 161 104 0.000000 0.000000 0.000000 0.000000 51.808199 0.000000 181.000000 0.935385 0.303480 -0.181534
-10.09000015 13.80000019 -0.38000000 142 161 104 0.000000 0.000000 0.000000 0.000000 51.808199 0.000000 181.000000 0.774875 0.630383 -0.046748
-10.10999966 13.81000042 -0.38000000 142 161 104 0.000000 0.000000 0.000000 0.000000 51.808199 0.000000 181.000000 0.872874 0.487900 -0.006684
-10.10000038 13.84000015 -0.43000001 142 161 104 0.000000 0.000000 0.000000 0.000000 51.808199 0.000000 181.000000 0.909387 0.402788 0.103811
-10.10000038 13.85000038 -0.44999999 142 161 104 0.000000 0.000000 0.000000 0.000000 51.808199 0.000000 181.000000 0.945548 0.318651 0.066331
-10.10000038 13.85000038 -0.50000000 142 161 104 0.000000 0.000000 0.000000 0.000000 51.808199 0.000000 181.000000 0.947359 0.316641 -0.047432
-10.09000015 13.80000019 -0.60000002 142 161 104 0.000000 0.000000 0.000000 0.000000 51.808199 0.000000 181.000000 0.891596 0.436614 0.120104
-10.10000038 13.85000038 -0.50999999 142 161 104 0.000000 0.000000 0.000000 0.000000 51.808199 0.000000 181.000000 0.949256 0.306922 -0.068637
-10.10000038 13.84000015 -0.63000000 142 161 104 0.000000 0.000000 0.000000 0.000000 51.808199 0.000000 181.000000 0.892886 0.341354 0.293654
-10.10000038 13.84000015 -0.62000000 142 161 104 0.000000 0.000000 0.000000 0.000000 51.808199 0.000000 181.000000 0.894501 0.334880 0.296182
-10.03999996 13.94999981 -0.70999998 142 161 104 0.000000 0.000000 0.000000 0.000000 51.808199 0.000000 181.000000 0.905529 0.378623 -0.191471
-10.10999966 13.89999962 -0.73000002 142 161 104 0.000000 0.000000 0.000000 0.000000 51.808199 0.000000 181.000000 0.981157 0.188183 0.043791
-10.03999996 13.97000027 -0.85000002 142 161 104 0.000000 0.000000 0.000000 0.000000 51.808199 0.000000 181.000000 0.930729 -0.249983 -0.266931
-10.09000015 13.94999981 -0.97000003 142 161 104 0.000000 0.000000 0.000000 0.000000 51.808199 0.000000 181.000000 0.945709 0.029196 -0.323699
-10.09000015 13.88000011 -0.88999999 142 161 104 0.000000 0.000000 0.000000 0.000000 51.808199 0.000000 181.000000 0.982619 0.177038 0.055844
-10.09000015 13.85999966 -0.85000002 142 161 104 0.000000 0.000000 0.000000 0.000000 51.808199 0.000000 181.000000 0.962767 0.237768 0.128629
-10.09000015 13.88000011 -0.95999998 142 161 104 0.000000 0.000000 0.000000 0.000000 51.808199 0.000000 181.000000 0.942205 0.334978 0.006273
-10.07999992 13.85999966 -0.94000000 142 161 104 0.000000 0.000000 0.000000 0.000000 51.808199 0.000000 181.000000 0.860831 0.507740 -0.034214
-10.10000038 13.94999981 -0.94999999 142 161 104 0.000000 0.000000 0.000000 0.000000 51.808199 0.000000 181.000000 0.956602 0.171630 0.235492
-10.10000038 13.88000011 -0.87000000 142 161 104 0.000000 0.000000 0.000000 0.000000 51.808199 0.000000 181.000000 0.888887 0.439466 -0.129422
-10.10000038 13.89999962 -0.86000001 142 161 104 0.000000 0.000000 0.000000 0.000000 51.808199 0.000000 181.000000 0.917490 0.393973 -0.054756
