//X Y Z R G B PointSourceId ScanDirectionFlag NumberOfReturns ReturnNumber GpsTime Intensity Classification Nx Ny Nz
-3.69000006 20.95999908 -1.54999995 22 137 176 0.000000 0.000000 0.000000 0.000000 51.808199 0.000000 204.000000 0.942718 0.329757 -0.050433
-3.69000006 20.94000053 -1.54999995 22 137 176 0.000000 0.000000 0.000000 0.000000 51.808199 0.000000 204.000000 0.921474 0.328996 0.206513
-3.68000007 20.90999985 -1.54999995 22 137 176 0.000000 0.000000 0.000000 0.000000 51.808199 0.000000 204.000000 0.638417 0.557562 0.530611
-3.66000009 20.89999962 -1.65999997 22 137 176 0.000000 0.000000 0.000000 0.000000 51.808199 0.000000 204.000000 0.885473 0.427419 0.182346
-3.66000009 20.90999985 -1.66999996 22 137 176 0.000000 0.000000 0.000000 0.000000 51.808199 0.000000 204.000000 0.894805 0.411986 0.172022
-3.66000009 20.90999985 -1.66999996 22 137 176 0.000000 0.000000 0.000000 0.000000 51.808199 0.000000 204.000000 0.894805 0.411986 0.172022
-3.46000004 20.73999977 -0.82999998 22 137 176 0.000000 0.000000 0.000000 0.000000 51.808199 0.000000 204.000000 -0.520844 0.831841 0.191731
-3.54999995 20.62000084 -0.40000001 22 137 176 0.000000 0.000000 0.000000 0.000000 51.808199 0.000000 204.000000 0.014401 0.907290 0.420260
-3.54999995 20.56999969 -0.38000000 22 137 176 0.000000 0.000000 0.000000 0.000000 51.808199 0.000000 204.000000 -0.376390 0.924350 0.062510
-3.55999994 20.55999947 -0.38999999 22 137 176 0.000000 0.000000 0.000000 0.000000 51.808199 0.000000 204.000000 -0.052712 0.997218 0.052712
-3.50999999 20.61000061 -0.47000000 22 137 176 0.000000 0.000000 0.000000 0.000000 51.808199 0.000000 204.000000 -0.317582 0.863762 0.391224
-3.52999997 20.60000038 -0.44999999 22 137 176 0.000000 0.000000 0.000000 0.000000 51.808199 0.000000 204.000000 -0.180851 0.955161 0.234436
-3.53999996 20.60000038 -0.49000001 22 137 176 0.000000 0.000000 0.000000 0.000000 51.808199 0.000000 204.000000 -0.237615 0.969119 0.065935
-3.53999996 20.60000038 -0.50000000 22 137 176 0.000000 0.000000 0.000000 0.000000 51.808199 0.000000 204.000000 0.078436 0.934587 0.346980
-3.52999997 20.55999947 -0.43000001 22 137 176 0.000000 0.000000 0.000000 0.000000 51.808199 0.000000 204.000000 -0.578218 0.810085 -0.097094
-3.55999994 20.55999947 -0.47999999 22 137 176 0.000000 0.000000 0.000000 0.000000 51.808199 0.000000 204.000000 0.146837 0.984880 0.091922
-3.53999996 20.57999992 -0.46000001 22 137 176 0.000000 0.000000 0.000000 0.000000 51.808199 0.000000 204.000000 0.053709 0.990757 0.124559
-3.60999990 20.65999985 -0.49000001 22 137 176 0.000000 0.000000 0.000000 0.000000 51.808199 0.000000 204.000000 0.342217 0.810178 0.475920
-3.57999992 20.62999916 -0.38000000 22 137 176 0.000000 0.000000 0.000000 0.000000 51.808199 0.000000 204.000000 -0.248638 0.911673 0.327156
-3.56999993 20.54999924 -0.33000001 22 137 176 0.000000 0.000000 0.000000 0.000000 51.808199 0.000000 204.000000 0.216630 0.962361 0.164113
-3.57999992 20.54999924 -0.33000001 22 137 176 0.000000 0.000000 0.000000 0.000000 51.808199 0.000000 204.000000 0.082108 0.966344 0.243797
-3.60999990 20.60000038 -0.41999999 22 137 176 0.000000 0.000000 0.000000 0.000000 51.808199 0.000000 204.000000 0.251789 0.909643 0.330382
-3.59999990 20.62000084 -0.46000001 22 137 176 0.000000 0.000000 0.000000 0.000000 51.808199 0.000000 204.000000 -0.004054 0.847307 0.531087
-3.56999993 20.62999916 -0.46000001 22 137 176 0.000000 0.000000 0.000000 0.000000 51.808199 0.000000 204.000000 -0.227785 0.973694 0.005901
-3.57999992 20.62000084 -0.47000000 22 137 176 0.000000 0.000000 0.000000 0.000000 51.808199 0.000000 204.000000 -0.085942 0.996286 -0.005305
-3.61999989 20.57999992 -0.50000000 22 137 176 0.000000 0.000000 0.000000 0.000000 51.808199 0.000000 204.000000 -0.021826 0.933388 0.358205
-3.50000000 20.64999962 -0.51999998 22 137 176 0.000000 0.000000 0.000000 0.000000 51.808199 0.000000 204.000000 0.832436 -0.551682 0.051940
-3.50000000 20.63999939 -0.56000000 22 137 176 0.000000 0.000000 0.000000 0.000000 51.808199 0.000000 204.000000 -0.547704 0.829547 -0.108960
-3.50000000 20.63999939 -0.55000001 22 137 176 0.000000 0.000000 0.000000 0.000000 51.808199 0.000000 204.000000 -0.577897 0.811361 0.087909
-3.52999997 20.69000053 -0.56999999 22 137 176 0.000000 0.000000 0.000000 0.000000 51.808199 0.000000 204.000000 0.665528 -0.729201 -0.159181
-3.52999997 20.69000053 -0.55000001 22 137 176 0.000000 0.000000 0.000000 0.000000 51.808199 0.000000 204.000000 -0.410250 0.905331 0.109864
-3.55999994 20.69000053 -0.57999998 22 137 176 0.000000 0.000000 0.000000 0.000000 51.808199 0.000000 204.000000 -0.082298 0.789774 0.607852
-3.55999994 20.67000008 -0.54000002 22 137 176 0.000000 0.000000 0.000000 0.000000 51.808199 0.000000 204.000000 -0.435626 0.899400 0.036190
-3.50999999 20.67000008 -0.63000000 22 137 176 0.000000 0.000000 0.000000 0.000000 51.808199 0.000000 204.000000 -0.550476 0.817465 0.169493
-3.50999999 20.63999939 -0.63000000 22 137 176 0.000000 0.000000 0.000000 0.000000 51.808199 0.000000 204.000000 -0.530739 0.828435 -0.178918
-3.50000000 20.67000008 -0.64999998 22 137 176 0.000000 0.000000 0.000000 0.000000 51.808199 0.000000 204.000000 -0.685473 0.725710 -0.058919
-3.51999998 20.64999962 -0.64999998 22 137 176 0.000000 0.000000 0.000000 0.000000 51.808199 0.000000 204.000000 -0.335988 0.940507 -0.050593
-3.55999994 20.65999985 -0.63000000 22 137 176 0.000000 0.000000 0.000000 0.000000 51.808199 0.000000 204.000000 0.131484 0.923158 0.361236
-3.53999996 20.67000008 -0.61000001 22 137 176 0.000000 0.000000 0.000000 0.000000 51.808199 0.000000 204.000000 -0.013534 0.998385 0.055177
-3.50000000 20.62999916 -0.54000002 22 137 176 0.000000 0.000000 0.000000 0.000000 51.808199 0.000000 204.000000 -0.274546 0.957688 0.086359
-3.51999998 20.62999916 -0.54000002 22 137 176 0.000000 0.000000 0.000000 0.000000 51.808199 0.000000 204.000000 -0.080782 0.957847 0.275686
-3.51999998 20.62000084 -0.50999999 22 137 176 0.000000 0.000000 0.000000 0.000000 51.808199 0.000000 204.000000 -0.627343 0.771323 -0.107251
-3.51999998 20.62000084 -0.50999999 22 137 176 0.000000 0.000000 0.000000 0.000000 51.808199 0.000000 204.000000 -0.627343 0.771323 -0.107251
-3.50999999 20.62999916 -0.56000000 22 137 176 0.000000 0.000000 0.000000 0.000000 51.808199 0.000000 204.000000 -0.264622 0.929716 0.256132
-3.50000000 20.54999924 -0.52999997 22 137 176 0.000000 0.000000 0.000000 0.000000 51.808199 0.000000 204.000000 0.718591 -0.692670 -0.061923
-3.54999995 20.57999992 -0.56000000 22 137 176 0.000000 0.000000 0.000000 0.000000 51.808199 0.000000 204.000000 -0.381577 0.920908 0.079551
-3.55999994 20.54999924 -0.55000001 22 137 176 0.000000 0.000000 0.000000 0.000000 51.808199 0.000000 204.000000 -0.464526 0.872260 0.152900
-3.53999996 20.57999992 -0.56000000 22 137 176 0.000000 0.000000 0.000000 0.000000 51.808199 0.000000 204.000000 -0.188804 0.980098 0.061331
-3.54999995 20.59000015 -0.57999998 22 137 176 0.000000 0.000000 0.000000 0.000000 51.808199 0.000000 204.000000 -0.027398 0.999538 0.013192
-3.53999996 20.57999992 -0.56000000 22 137 176 0.000000 0.000000 0.000000 0.000000 51.808199 0.000000 204.000000 -0.188804 0.980098 0.061331
-3.55999994 20.54999924 -0.55000001 22 137 176 0.000000 0.000000 0.000000 0.000000 51.808199 0.000000 204.000000 -0.464526 0.872260 0.152900
-3.50999999 20.62999916 -0.58999997 22 137 176 0.000000 0.000000 0.000000 0.000000 51.808199 0.000000 204.000000 -0.654859 0.754296 -0.046877
-3.55999994 20.60000038 -0.61000001 22 137 176 0.000000 0.000000 0.000000 0.000000 51.808199 0.000000 204.000000 0.312355 0.907735 0.280093
-3.52999997 20.61000061 -0.58999997 22 137 176 0.000000 0.000000 0.000000 0.000000 51.808199 0.000000 204.000000 -0.539996 0.841068 0.031764
-3.53999996 20.60000038 -0.63999999 22 137 176 0.000000 0.000000 0.000000 0.000000 51.808199 0.000000 204.000000 -0.345160 0.933409 -0.098042
-3.53999996 20.60000038 -0.63999999 22 137 176 0.000000 0.000000 0.000000 0.000000 51.808199 0.000000 204.000000 -0.345160 0.933409 -0.098042
-3.53999996 20.60000038 -0.66000003 22 137 176 0.000000 0.000000 0.000000 0.000000 51.808199 0.000000 204.000000 0.073971 0.948648 0.307564
-3.54999995 20.56999969 -0.60000002 22 137 176 0.000000 0.000000 0.000000 0.000000 51.808199 0.000000 204.000000 0.000989 0.999917 0.012857
-3.54999995 20.59000015 -0.58999997 22 137 176 0.000000 0.000000 0.000000 0.000000 51.808199 0.000000 204.000000 -0.404441 0.913640 0.041107
-3.54999995 20.56999969 -0.60000002 22 137 176 0.000000 0.000000 0.000000 0.000000 51.808199 0.000000 204.000000 0.000989 0.999917 0.012857
-3.53999996 20.54999924 -0.58999997 22 137 176 0.000000 0.000000 0.000000 0.000000 51.808199 0.000000 204.000000 0.116990 0.965488 0.232694
-3.52999997 20.56999969 -0.60000002 22 137 176 0.000000 0.000000 0.000000 0.000000 51.808199 0.000000 204.000000 -0.042242 0.989827 0.135859
-3.55999994 20.59000015 -0.66000003 22 137 176 0.000000 0.000000 0.000000 0.000000 51.808199 0.000000 204.000000 -0.263022 0.961873 0.074968
-3.57999992 20.69000053 -0.63000000 22 137 176 0.000000 0.000000 0.000000 0.000000 51.808199 0.000000 204.000000 0.002990 0.999816 0.018940
-3.57999992 20.68000031 -0.64999998 22 137 176 0.000000 0.000000 0.000000 0.000000 51.808199 0.000000 204.000000 0.092851 0.991553 0.090558
-3.59999990 20.64999962 -0.64999998 22 137 176 0.000000 0.000000 0.000000 0.000000 51.808199 0.000000 204.000000 0.503086 0.700310 0.506429
-3.59999990 20.64999962 -0.64999998 22 137 176 0.000000 0.000000 0.000000 0.000000 51.808199 0.000000 204.000000 0.503086 0.700310 0.506429
-3.57999992 20.57999992 -0.52999997 22 137 176 0.000000 0.000000 0.000000 0.000000 51.808199 0.000000 204.000000 0.192709 0.973620 -0.122175
-3.60999990 20.57999992 -0.56000000 22 137 176 0.000000 0.000000 0.000000 0.000000 51.808199 0.000000 204.000000 0.518447 0.855100 0.004040
-3.60999990 20.56999969 -0.56999999 22 137 176 0.000000 0.000000 0.000000 0.000000 51.808199 0.000000 204.000000 0.099609 0.995021 0.003213
-3.59999990 20.56999969 -0.55000001 22 137 176 0.000000 0.000000 0.000000 0.000000 51.808199 0.000000 204.000000 0.339362 0.934259 -0.109515
-3.60999990 20.60000038 -0.62000000 22 137 176 0.000000 0.000000 0.000000 0.000000 51.808199 0.000000 204.000000 0.434846 0.893616 -0.111174
-3.60999990 20.60000038 -0.62000000 22 137 176 0.000000 0.000000 0.000000 0.000000 51.808199 0.000000 204.000000 0.434846 0.893616 -0.111174
-3.56999993 20.60000038 -0.62000000 22 137 176 0.000000 0.000000 0.000000 0.000000 51.808199 0.000000 204.000000 -0.334293 0.942327 0.016399
-3.60999990 20.60000038 -0.62000000 22 137 176 0.000000 0.000000 0.000000 0.000000 51.808199 0.000000 204.000000 0.434846 0.893616 -0.111174
-3.60999990 20.60000038 -0.63999999 22 137 176 0.000000 0.000000 0.000000 0.000000 51.808199 0.000000 204.000000 0.595890 0.783907 0.174370
-3.59999990 20.62000084 -0.66000003 22 137 176 0.000000 0.000000 0.000000 0.000000 51.808199 0.000000 204.000000 0.112729 0.991791 -0.060350
-3.60999990 20.62000084 -0.67000002 22 137 176 0.000000 0.000000 0.000000 0.000000 51.808199 0.000000 204.000000 -0.085746 0.994433 0.061247
-3.57999992 20.60000038 -0.64999998 22 137 176 0.000000 0.000000 0.000000 0.000000 51.808199 0.000000 204.000000 0.386161 0.922424 -0.003849
-3.57999992 20.60000038 -0.64999998 22 137 176 0.000000 0.000000 0.000000 0.000000 51.808199 0.000000 204.000000 0.386161 0.922424 -0.003849
-3.56999993 20.55999947 -0.61000001 22 137 176 0.000000 0.000000 0.000000 0.000000 51.808199 0.000000 204.000000 -0.085758 0.994566 0.059028
-3.57999992 20.59000015 -0.66000003 22 137 176 0.000000 0.000000 0.000000 0.000000 51.808199 0.000000 204.000000 0.234398 0.968928 0.078968
-3.56999993 20.59000015 -0.67000002 22 137 176 0.000000 0.000000 0.000000 0.000000 51.808199 0.000000 204.000000 0.261721 0.961346 0.085538
-3.50000000 20.78000069 -0.83999997 22 137 176 0.000000 0.000000 0.000000 0.000000 51.808199 0.000000 204.000000 0.970831 -0.234423 0.050321
-3.51999998 20.73999977 -0.79000002 22 137 176 0.000000 0.000000 0.000000 0.000000 51.808199 0.000000 204.000000 -0.370538 0.878704 0.300967
-3.50000000 20.72999954 -0.75999999 22 137 176 0.000000 0.000000 0.000000 0.000000 51.808199 0.000000 204.000000 0.779285 -0.626484 0.015280
-3.50999999 20.75000000 -0.80000001 22 137 176 0.000000 0.000000 0.000000 0.000000 51.808199 0.000000 204.000000 -0.484061 0.852727 0.196322
-3.50999999 20.73999977 -0.81000000 22 137 176 0.000000 0.000000 0.000000 0.000000 51.808199 0.000000 204.000000 0.795334 -0.596134 0.109853
-3.60999990 20.76000023 -0.80000001 22 137 176 0.000000 0.000000 0.000000 0.000000 51.808199 0.000000 204.000000 0.762647 0.646802 0.004137
-3.59999990 20.75000000 -0.79000002 22 137 176 0.000000 0.000000 0.000000 0.000000 51.808199 0.000000 204.000000 0.202786 0.932814 0.297885
-3.57999992 20.75000000 -0.79000002 22 137 176 0.000000 0.000000 0.000000 0.000000 51.808199 0.000000 204.000000 0.376001 0.926619 0.001275
-3.60999990 20.75000000 -0.83999997 22 137 176 0.000000 0.000000 0.000000 0.000000 51.808199 0.000000 204.000000 0.836786 0.547392 0.012286
-3.60999990 20.72999954 -0.82999998 22 137 176 0.000000 0.000000 0.000000 0.000000 51.808199 0.000000 204.000000 0.700453 0.709190 0.080093
-3.63000011 20.78000069 -0.83999997 22 137 176 0.000000 0.000000 0.000000 0.000000 51.808199 0.000000 204.000000 0.900661 0.406796 -0.152727
-3.61999989 20.78000069 -0.81999999 22 137 176 0.000000 0.000000 0.000000 0.000000 51.808199 0.000000 204.000000 0.990076 0.140491 0.003319
-3.61999989 20.75000000 -0.76999998 22 137 176 0.000000 0.000000 0.000000 0.000000 51.808199 0.000000 204.000000 0.842374 0.411028 0.348514
-3.61999989 20.76000023 -0.79000002 22 137 176 0.000000 0.000000 0.000000 0.000000 51.808199 0.000000 204.000000 0.782446 0.619971 0.058434
-3.61999989 20.76000023 -0.82999998 22 137 176 0.000000 0.000000 0.000000 0.000000 51.808199 0.000000 204.000000 0.813373 0.501868 0.294199
-3.61999989 20.72999954 -0.82999998 22 137 176 0.000000 0.000000 0.000000 0.000000 51.808199 0.000000 204.000000 0.808970 0.578669 0.103490
-3.50000000 20.81999969 -0.99000001 22 137 176 0.000000 0.000000 0.000000 0.000000 51.808199 0.000000 204.000000 -0.577040 0.805483 -0.134989
-3.54999995 20.80999947 -0.99000001 22 137 176 0.000000 0.000000 0.000000 0.000000 51.808199 0.000000 204.000000 -0.115512 0.877038 0.466327
-3.51999998 20.77000046 -0.86000001 22 137 176 0.000000 0.000000 0.000000 0.000000 51.808199 0.000000 204.000000 -0.523853 0.840806 0.136466
-3.51999998 20.77000046 -0.86000001 22 137 176 0.000000 0.000000 0.000000 0.000000 51.808199 0.000000 204.000000 -0.523853 0.840806 0.136466
-3.50999999 20.77000046 -0.92000002 22 137 176 0.000000 0.000000 0.000000 0.000000 51.808199 0.000000 204.000000 -0.551057 0.827312 0.109048
-3.51999998 20.79000092 -0.93000001 22 137 176 0.000000 0.000000 0.000000 0.000000 51.808199 0.000000 204.000000 -0.342512 0.932770 0.112366
-3.50000000 20.77000046 -0.92000002 22 137 176 0.000000 0.000000 0.000000 0.000000 51.808199 0.000000 204.000000 -0.500602 0.865652 -0.006710
-3.49000001 20.79999924 -0.93000001 22 137 176 0.000000 0.000000 0.000000 0.000000 51.808199 0.000000 204.000000 -0.642955 0.765689 -0.018131
-3.50000000 20.79000092 -0.93000001 22 137 176 0.000000 0.000000 0.000000 0.000000 51.808199 0.000000 204.000000 -0.382079 0.912195 0.148038
-3.50999999 20.79000092 -0.93000001 22 137 176 0.000000 0.000000 0.000000 0.000000 51.808199 0.000000 204.000000 -0.459695 0.850665 0.255047
-3.51999998 20.73999977 -0.87000000 22 137 176 0.000000 0.000000 0.000000 0.000000 51.808199 0.000000 204.000000 -0.007734 0.990994 0.133679
-3.51999998 20.76000023 -0.93000001 22 137 176 0.000000 0.000000 0.000000 0.000000 51.808199 0.000000 204.000000 -0.288411 0.939752 0.183535
-3.51999998 20.75000000 -0.89999998 22 137 176 0.000000 0.000000 0.000000 0.000000 51.808199 0.000000 204.000000 -0.176017 0.935521 0.306297
-3.51999998 20.75000000 -0.91000003 22 137 176 0.000000 0.000000 0.000000 0.000000 51.808199 0.000000 204.000000 -0.159800 0.965294 0.206570
-3.50999999 20.75000000 -0.88999999 22 137 176 0.000000 0.000000 0.000000 0.000000 51.808199 0.000000 204.000000 -0.394619 0.904633 -0.160982
-3.50999999 20.75000000 -0.88999999 22 137 176 0.000000 0.000000 0.000000 0.000000 51.808199 0.000000 204.000000 -0.394619 0.904633 -0.160982
-3.51999998 20.75000000 -0.93000001 22 137 176 0.000000 0.000000 0.000000 0.000000 51.808199 0.000000 204.000000 0.037484 0.973379 0.226114
-3.53999996 20.76000023 -0.88000000 22 137 176 0.000000 0.000000 0.000000 0.000000 51.808199 0.000000 204.000000 -0.144965 0.986467 0.076607
-3.52999997 20.73999977 -0.87000000 22 137 176 0.000000 0.000000 0.000000 0.000000 51.808199 0.000000 204.000000 -0.178062 0.872653 0.454721
-3.52999997 20.76000023 -0.86000001 22 137 176 0.000000 0.000000 0.000000 0.000000 51.808199 0.000000 204.000000 -0.316222 0.948665 -0.006200
-3.54999995 20.75000000 -0.87000000 22 137 176 0.000000 0.000000 0.000000 0.000000 51.808199 0.000000 204.000000 -0.169548 0.982418 0.078161
-3.53999996 20.75000000 -0.88000000 22 137 176 0.000000 0.000000 0.000000 0.000000 51.808199 0.000000 204.000000 -0.206680 0.945803 0.250480
-3.53999996 20.75000000 -0.92000002 22 137 176 0.000000 0.000000 0.000000 0.000000 51.808199 0.000000 204.000000 -0.217411 0.932765 0.287544
-3.53999996 20.75000000 -0.92000002 22 137 176 0.000000 0.000000 0.000000 0.000000 51.808199 0.000000 204.000000 -0.217411 0.932765 0.287544
-3.54999995 20.73999977 -0.88999999 22 137 176 0.000000 0.000000 0.000000 0.000000 51.808199 0.000000 204.000000 -0.357776 0.932820 -0.042933
-3.52999997 20.75000000 -0.91000003 22 137 176 0.000000 0.000000 0.000000 0.000000 51.808199 0.000000 204.000000 0.023434 0.999496 0.021396
-3.52999997 20.75000000 -0.93000001 22 137 176 0.000000 0.000000 0.000000 0.000000 51.808199 0.000000 204.000000 -0.076544 0.950961 0.299689
-3.55999994 20.73999977 -0.88999999 22 137 176 0.000000 0.000000 0.000000 0.000000 51.808199 0.000000 204.000000 0.067191 0.892680 0.445654
-3.54999995 20.73999977 -0.93000001 22 137 176 0.000000 0.000000 0.000000 0.000000 51.808199 0.000000 204.000000 -0.189485 0.981878 0.003445
-3.54999995 20.75000000 -0.92000002 22 137 176 0.000000 0.000000 0.000000 0.000000 51.808199 0.000000 204.000000 -0.154259 0.965737 0.208703
-3.52999997 20.75000000 -0.91000003 22 137 176 0.000000 0.000000 0.000000 0.000000 51.808199 0.000000 204.000000 0.023434 0.999496 0.021396
-3.54999995 20.73999977 -0.88999999 22 137 176 0.000000 0.000000 0.000000 0.000000 51.808199 0.000000 204.000000 -0.357776 0.932820 -0.042933
-3.53999996 20.75000000 -0.91000003 22 137 176 0.000000 0.000000 0.000000 0.000000 51.808199 0.000000 204.000000 -0.233522 0.959157 0.159640
-3.49000001 20.76000023 -0.94999999 22 137 176 0.000000 0.000000 0.000000 0.000000 51.808199 0.000000 204.000000 0.759509 -0.641527 0.107658
-3.50999999 20.76000023 -1.00000000 22 137 176 0.000000 0.000000 0.000000 0.000000 51.808199 0.000000 204.000000 -0.074621 0.994581 0.072394
-3.52999997 20.77000046 -0.99000001 22 137 176 0.000000 0.000000 0.000000 0.000000 51.808199 0.000000 204.000000 -0.402000 0.915302 -0.024879
-3.53999996 20.79000092 -1.00000000 22 137 176 0.000000 0.000000 0.000000 0.000000 51.808199 0.000000 204.000000 -0.131337 0.984424 0.116878
-3.53999996 20.77000046 -1.00000000 22 137 176 0.000000 0.000000 0.000000 0.000000 51.808199 0.000000 204.000000 -0.245433 0.965200 -0.090289
-3.52999997 20.77000046 -0.99000001 22 137 176 0.000000 0.000000 0.000000 0.000000 51.808199 0.000000 204.000000 -0.402000 0.915302 -0.024879
-3.52999997 20.76000023 -0.95999998 22 137 176 0.000000 0.000000 0.000000 0.000000 51.808199 0.000000 204.000000 -0.044967 0.884348 0.464657
-3.53999996 20.76000023 -0.94000000 22 137 176 0.000000 0.000000 0.000000 0.000000 51.808199 0.000000 204.000000 -0.153521 0.977295 0.146033
-3.53999996 20.76000023 -0.98000002 22 137 176 0.000000 0.000000 0.000000 0.000000 51.808199 0.000000 204.000000 -0.193785 0.980672 -0.027013
-3.57999992 20.81999969 -0.94999999 22 137 176 0.000000 0.000000 0.000000 0.000000 51.808199 0.000000 204.000000 0.408898 0.912557 0.006490
-3.63000011 20.80999947 -1.00999999 22 137 176 0.000000 0.000000 0.000000 0.000000 51.808199 0.000000 204.000000 0.511423 0.748223 0.422623
-3.65000010 20.80999947 -1.00999999 22 137 176 0.000000 0.000000 0.000000 0.000000 51.808199 0.000000 204.000000 0.866407 0.314360 0.387966
-3.60999990 20.75000000 -0.85000002 22 137 176 0.000000 0.000000 0.000000 0.000000 51.808199 0.000000 204.000000 0.678253 0.564374 0.470590
-3.56999993 20.72999954 -0.85000002 22 137 176 0.000000 0.000000 0.000000 0.000000 51.808199 0.000000 204.000000 0.280619 0.765758 0.578678
-3.60999990 20.75000000 -0.85000002 22 137 176 0.000000 0.000000 0.000000 0.000000 51.808199 0.000000 204.000000 0.678253 0.564374 0.470590
-3.57999992 20.73999977 -0.87000000 22 137 176 0.000000 0.000000 0.000000 0.000000 51.808199 0.000000 204.000000 -0.152544 0.983731 0.094890
-3.56999993 20.73999977 -0.87000000 22 137 176 0.000000 0.000000 0.000000 0.000000 51.808199 0.000000 204.000000 0.156071 0.973223 0.168760
-3.60999990 20.75000000 -0.92000002 22 137 176 0.000000 0.000000 0.000000 0.000000 51.808199 0.000000 204.000000 0.559410 0.666924 0.492213
-3.60999990 20.75000000 -0.92000002 22 137 176 0.000000 0.000000 0.000000 0.000000 51.808199 0.000000 204.000000 0.559410 0.666924 0.492213
-3.58999991 20.73999977 -0.88999999 22 137 176 0.000000 0.000000 0.000000 0.000000 51.808199 0.000000 204.000000 0.261153 0.853712 0.450528
-3.56999993 20.73999977 -0.89999998 22 137 176 0.000000 0.000000 0.000000 0.000000 51.808199 0.000000 204.000000 -0.102346 0.993094 -0.057359
-3.59999990 20.75000000 -0.93000001 22 137 176 0.000000 0.000000 0.000000 0.000000 51.808199 0.000000 204.000000 0.096299 0.945845 0.310005
-3.57999992 20.76000023 -0.91000003 22 137 176 0.000000 0.000000 0.000000 0.000000 51.808199 0.000000 204.000000 0.192993 0.981145 0.010401
-3.56999993 20.75000000 -0.91000003 22 137 176 0.000000 0.000000 0.000000 0.000000 51.808199 0.000000 204.000000 0.093448 0.973102 0.210569
-3.57999992 20.75000000 -0.88999999 22 137 176 0.000000 0.000000 0.000000 0.000000 51.808199 0.000000 204.000000 -0.076659 0.996566 0.031311
-3.61999989 20.73999977 -0.88000000 22 137 176 0.000000 0.000000 0.000000 0.000000 51.808199 0.000000 204.000000 0.644685 0.760583 -0.076783
-3.61999989 20.73999977 -0.88000000 22 137 176 0.000000 0.000000 0.000000 0.000000 51.808199 0.000000 204.000000 0.644685 0.760583 -0.076783
-3.61999989 20.73999977 -0.88000000 22 137 176 0.000000 0.000000 0.000000 0.000000 51.808199 0.000000 204.000000 0.644685 0.760583 -0.076783
-3.63000011 20.72999954 -0.86000001 22 137 176 0.000000 0.000000 0.000000 0.000000 51.808199 0.000000 204.000000 0.387340 0.893975 0.225335
-3.61999989 20.76000023 -0.85000002 22 137 176 0.000000 0.000000 0.000000 0.000000 51.808199 0.000000 204.000000 0.832682 0.534980 -0.142956
-3.61999989 20.76000023 -0.91000003 22 137 176 0.000000 0.000000 0.000000 0.000000 51.808199 0.000000 204.000000 0.543298 0.712767 0.443610
-3.59999990 20.77000046 -0.95999998 22 137 176 0.000000 0.000000 0.000000 0.000000 51.808199 0.000000 204.000000 0.257963 0.910886 0.322089
-3.60999990 20.77000046 -0.97000003 22 137 176 0.000000 0.000000 0.000000 0.000000 51.808199 0.000000 204.000000 0.248069 0.827409 0.503841
-3.56999993 20.77000046 -1.00999999 22 137 176 0.000000 0.000000 0.000000 0.000000 51.808199 0.000000 204.000000 -0.028846 0.844778 0.534339
-3.58999991 20.72999954 -0.95999998 22 137 176 0.000000 0.000000 0.000000 0.000000 51.808199 0.000000 204.000000 0.553566 0.829637 0.072575
-3.57999992 20.75000000 -0.94000000 22 137 176 0.000000 0.000000 0.000000 0.000000 51.808199 0.000000 204.000000 0.373772 0.898519 0.230126
-3.60999990 20.76000023 -0.94000000 22 137 176 0.000000 0.000000 0.000000 0.000000 51.808199 0.000000 204.000000 0.395952 0.897781 0.192900
-3.59999990 20.75000000 -0.97000003 22 137 176 0.000000 0.000000 0.000000 0.000000 51.808199 0.000000 204.000000 0.293557 0.954378 -0.054645
-3.59999990 20.76000023 -0.98000002 22 137 176 0.000000 0.000000 0.000000 0.000000 51.808199 0.000000 204.000000 0.237831 0.949964 0.202496
-3.63000011 20.77000046 -0.94999999 22 137 176 0.000000 0.000000 0.000000 0.000000 51.808199 0.000000 204.000000 0.494004 0.849209 0.186557
-3.63000011 20.79999924 -1.00000000 22 137 176 0.000000 0.000000 0.000000 0.000000 51.808199 0.000000 204.000000 0.850616 0.521618 -0.066081
-3.61999989 20.78000069 -1.00000000 22 137 176 0.000000 0.000000 0.000000 0.000000 51.808199 0.000000 204.000000 0.532158 0.733159 0.423420
-3.61999989 20.79000092 -1.00000000 22 137 176 0.000000 0.000000 0.000000 0.000000 51.808199 0.000000 204.000000 0.706749 0.694745 0.133547
-3.61999989 20.75000000 -0.98000002 22 137 176 0.000000 0.000000 0.000000 0.000000 51.808199 0.000000 204.000000 0.602933 0.795871 0.055328
-3.64000010 20.76000023 -1.00000000 22 137 176 0.000000 0.000000 0.000000 0.000000 51.808199 0.000000 204.000000 0.479147 0.832692 0.277564
-3.50999999 20.68000031 -0.68000001 22 137 176 0.000000 0.000000 0.000000 0.000000 51.808199 0.000000 204.000000 -0.190129 0.925294 0.328149
-3.50000000 20.71999931 -0.69000000 22 137 176 0.000000 0.000000 0.000000 0.000000 51.808199 0.000000 204.000000 0.742016 -0.662672 0.101384
-3.51999998 20.69000053 -0.70999998 22 137 176 0.000000 0.000000 0.000000 0.000000 51.808199 0.000000 204.000000 -0.286694 0.887100 0.361745
-3.50999999 20.70000076 -0.74000001 22 137 176 0.000000 0.000000 0.000000 0.000000 51.808199 0.000000 204.000000 -0.676192 0.735731 0.038275
-3.50999999 20.70999908 -0.74000001 22 137 176 0.000000 0.000000 0.000000 0.000000 51.808199 0.000000 204.000000 -0.522898 0.848824 0.077939
-3.50999999 20.70999908 -0.73000002 22 137 176 0.000000 0.000000 0.000000 0.000000 51.808199 0.000000 204.000000 -0.226772 0.931031 0.285929
-3.51999998 20.64999962 -0.69999999 22 137 176 0.000000 0.000000 0.000000 0.000000 51.808199 0.000000 204.000000 0.090793 -0.817133 -0.569255
-3.50000000 20.67000008 -0.68000001 22 137 176 0.000000 0.000000 0.000000 0.000000 51.808199 0.000000 204.000000 -0.275109 0.904769 0.325128
-3.51999998 20.64999962 -0.69999999 22 137 176 0.000000 0.000000 0.000000 0.000000 51.808199 0.000000 204.000000 0.090793 -0.817133 -0.569255
-3.51999998 20.63999939 -0.69000000 22 137 176 0.000000 0.000000 0.000000 0.000000 51.808199 0.000000 204.000000 -0.392924 0.919416 -0.016858
-3.51999998 20.67000008 -0.72000003 22 137 176 0.000000 0.000000 0.000000 0.000000 51.808199 0.000000 204.000000 -0.240131 0.909589 0.339095
-3.52999997 20.68000031 -0.68000001 22 137 176 0.000000 0.000000 0.000000 0.000000 51.808199 0.000000 204.000000 -0.283451 0.957124 0.059741
-3.53999996 20.69000053 -0.69999999 22 137 176 0.000000 0.000000 0.000000 0.000000 51.808199 0.000000 204.000000 -0.163019 0.890115 0.425582
-3.55999994 20.63999939 -0.68000001 22 137 176 0.000000 0.000000 0.000000 0.000000 51.808199 0.000000 204.000000 0.104652 0.978801 0.176061
-3.53999996 20.65999985 -0.70999998 22 137 176 0.000000 0.000000 0.000000 0.000000 51.808199 0.000000 204.000000 0.100081 0.977331 0.186570
-3.54999995 20.65999985 -0.69999999 22 137 176 0.000000 0.000000 0.000000 0.000000 51.808199 0.000000 204.000000 0.147915 0.952786 0.265181
-3.55999994 20.63999939 -0.68000001 22 137 176 0.000000 0.000000 0.000000 0.000000 51.808199 0.000000 204.000000 0.104652 0.978801 0.176061
-3.49000001 20.70000076 -0.80000001 22 137 176 0.000000 0.000000 0.000000 0.000000 51.808199 0.000000 204.000000 -0.266323 0.901967 0.339893
-3.50999999 20.68000031 -0.77999997 22 137 176 0.000000 0.000000 0.000000 0.000000 51.808199 0.000000 204.000000 -0.232116 0.963474 0.133564
-3.49000001 20.71999931 -0.81999999 22 137 176 0.000000 0.000000 0.000000 0.000000 51.808199 0.000000 204.000000 -0.435329 0.894454 0.102183
-3.51999998 20.70999908 -0.81999999 22 137 176 0.000000 0.000000 0.000000 0.000000 51.808199 0.000000 204.000000 -0.687265 0.726298 -0.012546
-3.55999994 20.69000053 -0.80000001 22 137 176 0.000000 0.000000 0.000000 0.000000 51.808199 0.000000 204.000000 -0.001240 0.946173 0.323658
-3.55999994 20.68000031 -0.76999998 22 137 176 0.000000 0.000000 0.000000 0.000000 51.808199 0.000000 204.000000 0.037646 0.989064 -0.142599
-3.52999997 20.68000031 -0.77999997 22 137 176 0.000000 0.000000 0.000000 0.000000 51.808199 0.000000 204.000000 -0.217994 0.966141 -0.138020
-3.55999994 20.68000031 -0.76999998 22 137 176 0.000000 0.000000 0.000000 0.000000 51.808199 0.000000 204.000000 0.037646 0.989064 -0.142599
-3.55999994 20.69000053 -0.80000001 22 137 176 0.000000 0.000000 0.000000 0.000000 51.808199 0.000000 204.000000 -0.001240 0.946173 0.323658
-3.53999996 20.70000076 -0.81000000 22 137 176 0.000000 0.000000 0.000000 0.000000 51.808199 0.000000 204.000000 -0.035993 0.995817 0.083985
-3.52999997 20.70000076 -0.81999999 22 137 176 0.000000 0.000000 0.000000 0.000000 51.808199 0.000000 204.000000 0.006263 0.943272 0.331962
-3.52999997 20.70999908 -0.81000000 22 137 176 0.000000 0.000000 0.000000 0.000000 51.808199 0.000000 204.000000 -0.246465 0.964150 -0.098331
-3.55999994 20.67000008 -0.76999998 22 137 176 0.000000 0.000000 0.000000 0.000000 51.808199 0.000000 204.000000 0.115973 0.990939 -0.067747
-3.54999995 20.67000008 -0.77999997 22 137 176 0.000000 0.000000 0.000000 0.000000 51.808199 0.000000 204.000000 -0.015435 0.999156 -0.038073
-3.54999995 20.67000008 -0.77999997 22 137 176 0.000000 0.000000 0.000000 0.000000 51.808199 0.000000 204.000000 -0.015435 0.999156 -0.038073
-3.55999994 20.67000008 -0.76999998 22 137 176 0.000000 0.000000 0.000000 0.000000 51.808199 0.000000 204.000000 0.115973 0.990939 -0.067747
-3.55999994 20.62000084 -0.72000003 22 137 176 0.000000 0.000000 0.000000 0.000000 51.808199 0.000000 204.000000 -0.311526 0.949714 0.031531
-3.55999994 20.62000084 -0.72000003 22 137 176 0.000000 0.000000 0.000000 0.000000 51.808199 0.000000 204.000000 -0.311526 0.949714 0.031531
-3.55999994 20.62000084 -0.69999999 22 137 176 0.000000 0.000000 0.000000 0.000000 51.808199 0.000000 204.000000 -0.183843 0.982447 -0.031616
-3.54999995 20.62999916 -0.70999998 22 137 176 0.000000 0.000000 0.000000 0.000000 51.808199 0.000000 204.000000 -0.304020 0.946577 -0.107535
-3.56999993 20.69000053 -0.69999999 22 137 176 0.000000 0.000000 0.000000 0.000000 51.808199 0.000000 204.000000 0.089721 0.977096 0.192961
-3.60999990 20.68000031 -0.69000000 22 137 176 0.000000 0.000000 0.000000 0.000000 51.808199 0.000000 204.000000 0.562707 0.803650 0.193669
-3.58999991 20.68000031 -0.74000001 22 137 176 0.000000 0.000000 0.000000 0.000000 51.808199 0.000000 204.000000 0.209180 0.940617 0.267363
-3.59999990 20.65999985 -0.70999998 22 137 176 0.000000 0.000000 0.000000 0.000000 51.808199 0.000000 204.000000 0.494693 0.868762 -0.023040
-3.57999992 20.67000008 -0.75000000 22 137 176 0.000000 0.000000 0.000000 0.000000 51.808199 0.000000 204.000000 0.286883 0.956697 0.049288
-3.56999993 20.70000076 -0.79000002 22 137 176 0.000000 0.000000 0.000000 0.000000 51.808199 0.000000 204.000000 0.125093 0.990417 -0.058530
-3.60999990 20.69000053 -0.79000002 22 137 176 0.000000 0.000000 0.000000 0.000000 51.808199 0.000000 204.000000 0.682967 0.721486 0.114075
-3.57999992 20.69000053 -0.80000001 22 137 176 0.000000 0.000000 0.000000 0.000000 51.808199 0.000000 204.000000 -0.116232 0.992950 0.023246
-3.58999991 20.69000053 -0.80000001 22 137 176 0.000000 0.000000 0.000000 0.000000 51.808199 0.000000 204.000000 0.433668 0.844020 0.315536
-3.57999992 20.70999908 -0.83999997 22 137 176 0.000000 0.000000 0.000000 0.000000 51.808199 0.000000 204.000000 0.321986 0.804172 0.499633
-3.58999991 20.70999908 -0.83999997 22 137 176 0.000000 0.000000 0.000000 0.000000 51.808199 0.000000 204.000000 0.334107 0.818642 0.467117
-3.58999991 20.69000053 -0.81000000 22 137 176 0.000000 0.000000 0.000000 0.000000 51.808199 0.000000 204.000000 0.448726 0.884631 0.126783
-3.56999993 20.70000076 -0.82999998 22 137 176 0.000000 0.000000 0.000000 0.000000 51.808199 0.000000 204.000000 0.064106 0.964101 0.257680
-3.58999991 20.67000008 -0.77999997 22 137 176 0.000000 0.000000 0.000000 0.000000 51.808199 0.000000 204.000000 0.465694 0.857540 0.218529
-3.57999992 20.67000008 -0.79000002 22 137 176 0.000000 0.000000 0.000000 0.000000 51.808199 0.000000 204.000000 0.374900 0.910879 0.172482
-3.60999990 20.67000008 -0.79000002 22 137 176 0.000000 0.000000 0.000000 0.000000 51.808199 0.000000 204.000000 0.283140 0.953802 0.100469
-3.58999991 20.67000008 -0.79000002 22 137 176 0.000000 0.000000 0.000000 0.000000 51.808199 0.000000 204.000000 0.171195 0.985221 0.005669
-3.59999990 20.65999985 -0.76999998 22 137 176 0.000000 0.000000 0.000000 0.000000 51.808199 0.000000 204.000000 0.366632 0.805309 0.465895
-3.58999991 20.67000008 -0.82999998 22 137 176 0.000000 0.000000 0.000000 0.000000 51.808199 0.000000 204.000000 0.539535 0.751437 0.379794
-3.57999992 20.67000008 -0.81000000 22 137 176 0.000000 0.000000 0.000000 0.000000 51.808199 0.000000 204.000000 0.080559 0.988890 0.124925
-3.61999989 20.70000076 -0.77999997 22 137 176 0.000000 0.000000 0.000000 0.000000 51.808199 0.000000 204.000000 0.318471 0.939149 -0.128743
-3.61999989 20.70000076 -0.80000001 22 137 176 0.000000 0.000000 0.000000 0.000000 51.808199 0.000000 204.000000 0.608332 0.648552 0.457506
-3.59999990 20.61000061 -0.68000001 22 137 176 0.000000 0.000000 0.000000 0.000000 51.808199 0.000000 204.000000 0.539397 0.779485 0.318517
-3.57999992 20.62000084 -0.69999999 22 137 176 0.000000 0.000000 0.000000 0.000000 51.808199 0.000000 204.000000 -0.208347 0.977445 0.034526
-3.57999992 20.62999916 -0.73000002 22 137 176 0.000000 0.000000 0.000000 0.000000 51.808199 0.000000 204.000000 0.142691 0.981764 0.125617
-3.57999992 20.62999916 -0.74000001 22 137 176 0.000000 0.000000 0.000000 0.000000 51.808199 0.000000 204.000000 0.112713 0.977262 0.179598
-3.61999989 20.62000084 -0.69999999 22 137 176 0.000000 0.000000 0.000000 0.000000 51.808199 0.000000 204.000000 0.394709 0.910759 0.121342
-3.54999995 20.70999908 -0.88999999 22 137 176 0.000000 0.000000 0.000000 0.000000 51.808199 0.000000 204.000000 -0.038705 0.994170 -0.100633
-3.55999994 20.71999931 -0.88999999 22 137 176 0.000000 0.000000 0.000000 0.000000 51.808199 0.000000 204.000000 -0.161437 0.986045 0.040650
-3.58999991 20.70999908 -0.85000002 22 137 176 0.000000 0.000000 0.000000 0.000000 51.808199 0.000000 204.000000 0.184073 0.980518 -0.068576
-3.56999993 20.70000076 -0.85000002 22 137 176 0.000000 0.000000 0.000000 0.000000 51.808199 0.000000 204.000000 0.116480 0.966404 0.229121
-3.57999992 20.70999908 -0.88999999 22 137 176 0.000000 0.000000 0.000000 0.000000 51.808199 0.000000 204.000000 -0.045216 0.986640 0.156517
-3.59999990 20.70999908 -0.88999999 22 137 176 0.000000 0.000000 0.000000 0.000000 51.808199 0.000000 204.000000 0.283432 0.709380 0.645327
-3.59999990 20.70999908 -0.88999999 22 137 176 0.000000 0.000000 0.000000 0.000000 51.808199 0.000000 204.000000 0.283432 0.709380 0.645327
-3.71000004 20.81999969 -1.00999999 22 137 176 0.000000 0.000000 0.000000 0.000000 51.808199 0.000000 204.000000 0.893205 0.421432 0.156778
-3.67000008 20.76000023 -0.93000001 22 137 176 0.000000 0.000000 0.000000 0.000000 51.808199 0.000000 204.000000 0.626077 0.710201 0.321936
-3.75999999 20.79999924 -0.93000001 22 137 176 0.000000 0.000000 0.000000 0.000000 51.808199 0.000000 204.000000 0.984521 0.140646 -0.104583
-3.75999999 20.79999924 -0.94000000 22 137 176 0.000000 0.000000 0.000000 0.000000 51.808199 0.000000 204.000000 0.983111 -0.153196 -0.100120
-3.76999998 20.78000069 -0.98000002 22 137 176 0.000000 0.000000 0.000000 0.000000 51.808199 0.000000 204.000000 0.951392 0.290011 -0.103669
-3.50000000 20.52000046 -0.36000001 22 137 176 0.000000 0.000000 0.000000 0.000000 51.808199 0.000000 204.000000 -0.334438 0.941333 0.045194
-3.50999999 20.51000023 -0.38000000 22 137 176 0.000000 0.000000 0.000000 0.000000 51.808199 0.000000 204.000000 -0.675513 0.737050 -0.020979
-3.53999996 20.52000046 -0.33000001 22 137 176 0.000000 0.000000 0.000000 0.000000 51.808199 0.000000 204.000000 -0.621876 0.778432 0.085526
-3.52999997 20.50000000 -0.37000000 22 137 176 0.000000 0.000000 0.000000 0.000000 51.808199 0.000000 204.000000 -0.512864 0.790865 0.333921
-3.54999995 20.50000000 -0.34999999 22 137 176 0.000000 0.000000 0.000000 0.000000 51.808199 0.000000 204.000000 -0.200212 0.976494 -0.079839
-3.54999995 20.48999977 -0.40000001 22 137 176 0.000000 0.000000 0.000000 0.000000 51.808199 0.000000 204.000000 -0.333854 0.908257 0.252213
-3.54999995 20.48999977 -0.41999999 22 137 176 0.000000 0.000000 0.000000 0.000000 51.808199 0.000000 204.000000 0.074763 0.997187 -0.005265
-3.55999994 20.47999954 -0.44999999 22 137 176 0.000000 0.000000 0.000000 0.000000 51.808199 0.000000 204.000000 -0.323420 0.925065 0.199136
-3.55999994 20.47999954 -0.44999999 22 137 176 0.000000 0.000000 0.000000 0.000000 51.808199 0.000000 204.000000 -0.323420 0.925065 0.199136
-3.54999995 20.48999977 -0.41999999 22 137 176 0.000000 0.000000 0.000000 0.000000 51.808199 0.000000 204.000000 0.074763 0.997187 -0.005265
-3.53999996 20.47999954 -0.46000001 22 137 176 0.000000 0.000000 0.000000 0.000000 51.808199 0.000000 204.000000 0.169866 0.975156 0.142184
-3.51999998 20.39999962 -0.34000000 22 137 176 0.000000 0.000000 0.000000 0.000000 51.808199 0.000000 204.000000 0.527236 -0.783643 -0.328521
-3.51999998 20.42000008 -0.38999999 22 137 176 0.000000 0.000000 0.000000 0.000000 51.808199 0.000000 204.000000 -0.451164 0.858275 0.244570
-3.51999998 20.42000008 -0.38000000 22 137 176 0.000000 0.000000 0.000000 0.000000 51.808199 0.000000 204.000000 -0.396015 0.912076 0.106248
-3.50999999 20.42000008 -0.38999999 22 137 176 0.000000 0.000000 0.000000 0.000000 51.808199 0.000000 204.000000 -0.603085 0.746298 0.281652
-3.52999997 20.44000053 -0.33000001 22 137 176 0.000000 0.000000 0.000000 0.000000 51.808199 0.000000 204.000000 -0.542013 0.714396 0.442561
-3.55999994 20.45999908 -0.37000000 22 137 176 0.000000 0.000000 0.000000 0.000000 51.808199 0.000000 204.000000 -0.276122 0.781030 0.560133
-3.53999996 20.45000076 -0.41000000 22 137 176 0.000000 0.000000 0.000000 0.000000 51.808199 0.000000 204.000000 -0.373734 0.922783 0.093773
-3.55999994 20.45999908 -0.38000000 22 137 176 0.000000 0.000000 0.000000 0.000000 51.808199 0.000000 204.000000 -0.329546 0.941374 0.072211
-3.55999994 20.42000008 -0.36000001 22 137 176 0.000000 0.000000 0.000000 0.000000 51.808199 0.000000 204.000000 -0.239921 0.927030 0.288189
-3.53999996 20.42000008 -0.33000001 22 137 176 0.000000 0.000000 0.000000 0.000000 51.808199 0.000000 204.000000 -0.166312 0.979395 -0.114571
-3.54999995 20.40999985 -0.38000000 22 137 176 0.000000 0.000000 0.000000 0.000000 51.808199 0.000000 204.000000 -0.235969 0.967852 0.087069
-3.53999996 20.45000076 -0.41999999 22 137 176 0.000000 0.000000 0.000000 0.000000 51.808199 0.000000 204.000000 -0.477882 0.863128 0.163215
-3.58999991 20.50000000 -0.36000001 22 137 176 0.000000 0.000000 0.000000 0.000000 51.808199 0.000000 204.000000 -0.358694 0.871551 0.334272
-3.56999993 20.50000000 -0.33000001 22 137 176 0.000000 0.000000 0.000000 0.000000 51.808199 0.000000 204.000000 -0.454754 0.889023 0.053259
-3.56999993 20.47999954 -0.40000001 22 137 176 0.000000 0.000000 0.000000 0.000000 51.808199 0.000000 204.000000 -0.393458 0.917174 0.063114
-3.58999991 20.47999954 -0.41000000 22 137 176 0.000000 0.000000 0.000000 0.000000 51.808199 0.000000 204.000000 -0.135430 0.934328 0.329682
-3.64000010 20.46999931 -0.34000000 22 137 176 0.000000 0.000000 0.000000 0.000000 51.808199 0.000000 204.000000 0.076018 0.996802 0.024626
-3.58999991 20.54000092 -0.43000001 22 137 176 0.000000 0.000000 0.000000 0.000000 51.808199 0.000000 204.000000 0.081300 0.996194 -0.031436
-3.58999991 20.47999954 -0.47999999 22 137 176 0.000000 0.000000 0.000000 0.000000 51.808199 0.000000 204.000000 0.164448 0.975390 -0.146873
-3.64000010 20.47999954 -0.49000001 22 137 176 0.000000 0.000000 0.000000 0.000000 51.808199 0.000000 204.000000 -0.135781 0.914072 0.382146
-3.64000010 20.47999954 -0.47999999 22 137 176 0.000000 0.000000 0.000000 0.000000 51.808199 0.000000 204.000000 -0.160743 0.963153 0.215631
-3.56999993 20.44000053 -0.33000001 22 137 176 0.000000 0.000000 0.000000 0.000000 51.808199 0.000000 204.000000 -0.170489 0.932836 0.317414
-3.60999990 20.45999908 -0.40000001 22 137 176 0.000000 0.000000 0.000000 0.000000 51.808199 0.000000 204.000000 0.072214 0.997389 -0.001047
-3.58999991 20.40999985 -0.34000000 22 137 176 0.000000 0.000000 0.000000 0.000000 51.808199 0.000000 204.000000 -0.001048 0.997066 -0.076536
-3.59999990 20.40999985 -0.34000000 22 137 176 0.000000 0.000000 0.000000 0.000000 51.808199 0.000000 204.000000 0.233610 0.970285 -0.063038
-3.56999993 20.38999939 -0.34999999 22 137 176 0.000000 0.000000 0.000000 0.000000 51.808199 0.000000 204.000000 -0.416340 0.908499 0.035914
-3.56999993 20.39999962 -0.38999999 22 137 176 0.000000 0.000000 0.000000 0.000000 51.808199 0.000000 204.000000 0.074020 0.995404 -0.060763
-3.64000010 20.45000076 -0.40000001 22 137 176 0.000000 0.000000 0.000000 0.000000 51.808199 0.000000 204.000000 0.014953 0.999864 -0.006978
-3.61999989 20.45999908 -0.41000000 22 137 176 0.000000 0.000000 0.000000 0.000000 51.808199 0.000000 204.000000 -0.179938 0.855076 0.486278
-3.63000011 20.45000076 -0.41000000 22 137 176 0.000000 0.000000 0.000000 0.000000 51.808199 0.000000 204.000000 -0.009035 0.920305 0.391097
-3.57999992 20.45999908 -0.44000000 22 137 176 0.000000 0.000000 0.000000 0.000000 51.808199 0.000000 204.000000 0.045698 0.997910 0.045698
-3.60999990 20.45000076 -0.44000000 22 137 176 0.000000 0.000000 0.000000 0.000000 51.808199 0.000000 204.000000 -0.096206 0.837137 0.538467
-3.57999992 20.44000053 -0.41999999 22 137 176 0.000000 0.000000 0.000000 0.000000 51.808199 0.000000 204.000000 0.193515 0.975066 -0.108618
-3.61999989 20.45999908 -0.44000000 22 137 176 0.000000 0.000000 0.000000 0.000000 51.808199 0.000000 204.000000 0.098854 0.989704 -0.103506
-3.64000010 20.45999908 -0.44999999 22 137 176 0.000000 0.000000 0.000000 0.000000 51.808199 0.000000 204.000000 0.332842 0.932780 -0.138342
-3.53999996 20.51000023 -0.51999998 22 137 176 0.000000 0.000000 0.000000 0.000000 51.808199 0.000000 204.000000 -0.213975 0.975581 0.049565
-3.58999991 20.52000046 -0.54000002 22 137 176 0.000000 0.000000 0.000000 0.000000 51.808199 0.000000 204.000000 -0.201515 0.969068 0.142472
-3.60999990 20.53000069 -0.50999999 22 137 176 0.000000 0.000000 0.000000 0.000000 51.808199 0.000000 204.000000 0.097536 0.983784 -0.150518
-3.66000009 20.45000076 -0.41000000 22 137 176 0.000000 0.000000 0.000000 0.000000 51.808199 0.000000 204.000000 0.062392 0.985318 0.158922
-3.67000008 20.45000076 -0.40000001 22 137 176 0.000000 0.000000 0.000000 0.000000 51.808199 0.000000 204.000000 0.246178 0.969099 -0.015611
-3.66000009 20.45999908 -0.43000001 22 137 176 0.000000 0.000000 0.000000 0.000000 51.808199 0.000000 204.000000 -0.045502 0.864530 0.500517
-3.48000002 20.86000061 -1.12000000 22 137 176 0.000000 0.000000 0.000000 0.000000 51.808199 0.000000 204.000000 0.682222 -0.726047 -0.086191
-3.47000003 20.84000015 -1.14999998 22 137 176 0.000000 0.000000 0.000000 0.000000 51.808199 0.000000 204.000000 -0.437003 0.889665 0.132382
-3.48000002 20.79000092 -1.01999998 22 137 176 0.000000 0.000000 0.000000 0.000000 51.808199 0.000000 204.000000 0.807869 -0.574517 0.131445
-3.43000007 20.87999916 -1.22000003 22 137 176 0.000000 0.000000 0.000000 0.000000 51.808199 0.000000 204.000000 0.827977 -0.558076 0.054824
-3.47000003 20.87000084 -1.20000005 22 137 176 0.000000 0.000000 0.000000 0.000000 51.808199 0.000000 204.000000 0.889676 -0.396887 0.225739
-3.48000002 20.86000061 -1.20000005 22 137 176 0.000000 0.000000 0.000000 0.000000 51.808199 0.000000 204.000000 -0.553354 0.824921 0.115343
-3.47000003 20.87000084 -1.20000005 22 137 176 0.000000 0.000000 0.000000 0.000000 51.808199 0.000000 204.000000 0.889676 -0.396887 0.225739
-3.47000003 20.87000084 -1.25000000 22 137 176 0.000000 0.000000 0.000000 0.000000 51.808199 0.000000 204.000000 -0.478724 0.835055 0.271122
-3.47000003 20.87000084 -1.25000000 22 137 176 0.000000 0.000000 0.000000 0.000000 51.808199 0.000000 204.000000 -0.478724 0.835055 0.271122
-3.46000004 20.85000038 -1.25000000 22 137 176 0.000000 0.000000 0.000000 0.000000 51.808199 0.000000 204.000000 -0.561560 0.798493 -0.216932
-3.36999989 20.88999939 -1.42999995 22 137 176 0.000000 0.000000 0.000000 0.000000 51.808199 0.000000 204.000000 0.979792 -0.191150 0.058908
-3.48000002 20.88999939 -1.38000000 22 137 176 0.000000 0.000000 0.000000 0.000000 51.808199 0.000000 204.000000 -0.680095 0.731423 0.049902
-3.41000009 20.87000084 -1.39999998 22 137 176 0.000000 0.000000 0.000000 0.000000 51.808199 0.000000 204.000000 0.751347 -0.591825 0.291925
-3.45000005 20.88999939 -1.42999995 22 137 176 0.000000 0.000000 0.000000 0.000000 51.808199 0.000000 204.000000 -0.336761 0.934546 0.114959
-3.48000002 20.88999939 -1.38000000 22 137 176 0.000000 0.000000 0.000000 0.000000 51.808199 0.000000 204.000000 -0.680095 0.731423 0.049902
-3.51999998 20.81999969 -1.03999996 22 137 176 0.000000 0.000000 0.000000 0.000000 51.808199 0.000000 204.000000 -0.437189 0.899323 0.009190
-3.51999998 20.81999969 -1.04999995 22 137 176 0.000000 0.000000 0.000000 0.000000 51.808199 0.000000 204.000000 -0.516185 0.850776 -0.098661
-3.50000000 20.82999992 -1.09000003 22 137 176 0.000000 0.000000 0.000000 0.000000 51.808199 0.000000 204.000000 -0.364396 0.908830 0.203083
-3.49000001 20.82999992 -1.05999994 22 137 176 0.000000 0.000000 0.000000 0.000000 51.808199 0.000000 204.000000 0.766514 -0.642214 0.004143
-3.50999999 20.81999969 -1.09000003 22 137 176 0.000000 0.000000 0.000000 0.000000 51.808199 0.000000 204.000000 -0.339877 0.938269 0.064301
-3.50999999 20.81999969 -1.10000002 22 137 176 0.000000 0.000000 0.000000 0.000000 51.808199 0.000000 204.000000 -0.201482 0.864134 0.461170
-3.55999994 20.87999916 -1.04999995 22 137 176 0.000000 0.000000 0.000000 0.000000 51.808199 0.000000 204.000000 0.961599 0.072215 -0.264788
-3.52999997 20.81999969 -1.10000002 22 137 176 0.000000 0.000000 0.000000 0.000000 51.808199 0.000000 204.000000 -0.116219 0.990740 0.070192
-3.53999996 20.81999969 -1.10000002 22 137 176 0.000000 0.000000 0.000000 0.000000 51.808199 0.000000 204.000000 0.154149 0.987698 0.026263
-3.54999995 20.81999969 -1.10000002 22 137 176 0.000000 0.000000 0.000000 0.000000 51.808199 0.000000 204.000000 -0.192781 0.980465 0.039029
-3.50000000 20.84000015 -1.11000001 22 137 176 0.000000 0.000000 0.000000 0.000000 51.808199 0.000000 204.000000 -0.315726 0.860931 0.398893
-3.50000000 20.84000015 -1.11000001 22 137 176 0.000000 0.000000 0.000000 0.000000 51.808199 0.000000 204.000000 -0.315726 0.860931 0.398893
-3.50999999 20.82999992 -1.11000001 22 137 176 0.000000 0.000000 0.000000 0.000000 51.808199 0.000000 204.000000 -0.386554 0.890111 0.241411
-3.50000000 20.82999992 -1.11000001 22 137 176 0.000000 0.000000 0.000000 0.000000 51.808199 0.000000 204.000000 -0.304617 0.951769 0.036655
-3.50000000 20.82999992 -1.11000001 22 137 176 0.000000 0.000000 0.000000 0.000000 51.808199 0.000000 204.000000 -0.304617 0.951769 0.036655
-3.52999997 20.86000061 -1.15999997 22 137 176 0.000000 0.000000 0.000000 0.000000 51.808199 0.000000 204.000000 -0.112901 0.929051 0.352305
-3.53999996 20.86000061 -1.16999996 22 137 176 0.000000 0.000000 0.000000 0.000000 51.808199 0.000000 204.000000 -0.115504 0.992440 0.041492
-3.54999995 20.81999969 -1.12000000 22 137 176 0.000000 0.000000 0.000000 0.000000 51.808199 0.000000 204.000000 0.289297 0.888878 0.355251
-3.53999996 20.82999992 -1.13999999 22 137 176 0.000000 0.000000 0.000000 0.000000 51.808199 0.000000 204.000000 -0.229271 0.915641 0.330207
-3.55999994 20.85000038 -1.13999999 22 137 176 0.000000 0.000000 0.000000 0.000000 51.808199 0.000000 204.000000 0.381297 0.898460 0.217676
