//X Y Z R G B PointSourceId ScanDirectionFlag NumberOfReturns ReturnNumber GpsTime Intensity Classification Nx Ny Nz
12.98999977 12.43000031 -0.28999999 62 42 203 0.000000 0.000000 0.000000 0.000000 51.808199 0.000000 217.000000 0.457961 0.876916 -0.145912
12.97000027 12.39999962 -0.31999999 62 42 203 0.000000 0.000000 0.000000 0.000000 51.808199 0.000000 217.000000 0.575130 0.763123 -0.294734
12.93000031 12.46000004 -0.27000001 62 42 203 0.000000 0.000000 0.000000 0.000000 51.808199 0.000000 217.000000 0.813639 0.578745 -0.055186
12.94999981 12.46000004 -0.25000000 62 42 203 0.000000 0.000000 0.000000 0.000000 51.808199 0.000000 217.000000 0.761574 0.386495 -0.520218
12.93999958 12.44999981 -0.30000001 62 42 203 0.000000 0.000000 0.000000 0.000000 51.808199 0.000000 217.000000 0.886099 0.424802 -0.185395
12.96000004 12.47000027 -0.31999999 62 42 203 0.000000 0.000000 0.000000 0.000000 51.808199 0.000000 217.000000 0.945168 0.173213 -0.276867
12.93000031 12.46000004 -0.30000001 62 42 203 0.000000 0.000000 0.000000 0.000000 51.808199 0.000000 217.000000 0.946976 0.317372 -0.050111
12.93000031 12.46000004 -0.30000001 62 42 203 0.000000 0.000000 0.000000 0.000000 51.808199 0.000000 217.000000 0.946976 0.317372 -0.050111
12.93000031 12.46000004 -0.31999999 62 42 203 0.000000 0.000000 0.000000 0.000000 51.808199 0.000000 217.000000 0.805613 0.592077 -0.020799
12.92000008 12.43999958 -0.30000001 62 42 203 0.000000 0.000000 0.000000 0.000000 51.808199 0.000000 217.000000 0.606294 0.776482 -0.171707
12.93999958 12.42000008 -0.30000001 62 42 203 0.000000 0.000000 0.000000 0.000000 51.808199 0.000000 217.000000 0.709089 0.665066 -0.234267
12.93999958 12.43000031 -0.30000001 62 42 203 0.000000 0.000000 0.000000 0.000000 51.808199 0.000000 217.000000 0.684577 0.297992 -0.665248
12.94999981 12.42000008 -0.31999999 62 42 203 0.000000 0.000000 0.000000 0.000000 51.808199 0.000000 217.000000 0.651701 0.709064 -0.269285
12.96000004 12.39999962 -0.31999999 62 42 203 0.000000 0.000000 0.000000 0.000000 51.808199 0.000000 217.000000 0.673807 0.722261 -0.155960
12.93000031 12.43000031 -0.30000001 62 42 203 0.000000 0.000000 0.000000 0.000000 51.808199 0.000000 217.000000 0.640524 0.714000 -0.282725
12.94999981 12.42000008 -0.31999999 62 42 203 0.000000 0.000000 0.000000 0.000000 51.808199 0.000000 217.000000 0.651701 0.709064 -0.269285
12.98999977 12.39000034 -0.25000000 62 42 203 0.000000 0.000000 0.000000 0.000000 51.808199 0.000000 217.000000 0.438044 0.859300 -0.264048
12.97999954 12.36999989 -0.25999999 62 42 203 0.000000 0.000000 0.000000 0.000000 51.808199 0.000000 217.000000 0.551909 0.562036 -0.616045
13.00000000 12.35000038 -0.31999999 62 42 203 0.000000 0.000000 0.000000 0.000000 51.808199 0.000000 217.000000 -0.281918 -0.594097 0.753373
13.14999962 12.52000046 -0.34000000 62 42 203 0.000000 0.000000 0.000000 0.000000 51.808199 0.000000 217.000000 0.947322 -0.163986 -0.275117
13.14000034 12.52000046 -0.36000001 62 42 203 0.000000 0.000000 0.000000 0.000000 51.808199 0.000000 217.000000 0.901674 -0.140135 -0.409080
13.14000034 12.47999954 -0.34999999 62 42 203 0.000000 0.000000 0.000000 0.000000 51.808199 0.000000 217.000000 0.991558 -0.028010 -0.126606
13.11999989 12.52000046 -0.34999999 62 42 203 0.000000 0.000000 0.000000 0.000000 51.808199 0.000000 217.000000 0.939565 0.340608 -0.034703
13.11999989 12.52000046 -0.34000000 62 42 203 0.000000 0.000000 0.000000 0.000000 51.808199 0.000000 217.000000 0.944413 0.224075 -0.240571
13.13000011 12.52999973 -0.41000000 62 42 203 0.000000 0.000000 0.000000 0.000000 51.808199 0.000000 217.000000 0.964214 0.204847 -0.168313
13.10999966 12.52999973 -0.38999999 62 42 203 0.000000 0.000000 0.000000 0.000000 51.808199 0.000000 217.000000 0.923009 0.281911 -0.261877
13.13000011 12.48999977 -0.36000001 62 42 203 0.000000 0.000000 0.000000 0.000000 51.808199 0.000000 217.000000 0.953755 -0.105973 -0.281286
13.13000011 12.47999954 -0.37000000 62 42 203 0.000000 0.000000 0.000000 0.000000 51.808199 0.000000 217.000000 0.971461 -0.070539 0.226468
13.13000011 12.47999954 -0.36000001 62 42 203 0.000000 0.000000 0.000000 0.000000 51.808199 0.000000 217.000000 0.933326 -0.059238 -0.354111
13.11999989 12.47999954 -0.37000000 62 42 203 0.000000 0.000000 0.000000 0.000000 51.808199 0.000000 217.000000 0.920993 -0.161209 0.354659
13.13000011 12.48999977 -0.38999999 62 42 203 0.000000 0.000000 0.000000 0.000000 51.808199 0.000000 217.000000 0.949158 0.104289 -0.297024
13.14999962 12.47999954 -0.43000001 62 42 203 0.000000 0.000000 0.000000 0.000000 51.808199 0.000000 217.000000 0.901967 -0.266323 -0.339893
13.10000038 12.52000046 -0.41999999 62 42 203 0.000000 0.000000 0.000000 0.000000 51.808199 0.000000 217.000000 0.935511 0.350003 -0.048142
13.11999989 12.48999977 -0.47000000 62 42 203 0.000000 0.000000 0.000000 0.000000 51.808199 0.000000 217.000000 0.956718 0.257324 0.135920
13.11999989 12.48999977 -0.47000000 62 42 203 0.000000 0.000000 0.000000 0.000000 51.808199 0.000000 217.000000 0.956718 0.257324 0.135920
13.06999969 12.56999969 -0.36000001 62 42 203 0.000000 0.000000 0.000000 0.000000 51.808199 0.000000 217.000000 -0.542807 -0.439889 0.715443
13.06999969 12.56999969 -0.36000001 62 42 203 0.000000 0.000000 0.000000 0.000000 51.808199 0.000000 217.000000 -0.542807 -0.439889 0.715443
13.06999969 12.56999969 -0.37000000 62 42 203 0.000000 0.000000 0.000000 0.000000 51.808199 0.000000 217.000000 0.446829 0.634263 -0.630916
13.06999969 12.57999992 -0.36000001 62 42 203 0.000000 0.000000 0.000000 0.000000 51.808199 0.000000 217.000000 0.525063 0.727137 -0.442245
13.07999992 12.53999996 -0.34999999 62 42 203 0.000000 0.000000 0.000000 0.000000 51.808199 0.000000 217.000000 0.839271 0.194373 -0.507782
13.07999992 12.56000042 -0.34999999 62 42 203 0.000000 0.000000 0.000000 0.000000 51.808199 0.000000 217.000000 0.782336 0.622844 0.004125
13.07999992 12.53999996 -0.34000000 62 42 203 0.000000 0.000000 0.000000 0.000000 51.808199 0.000000 217.000000 0.843628 0.239511 -0.480548
13.06999969 12.56000042 -0.36000001 62 42 203 0.000000 0.000000 0.000000 0.000000 51.808199 0.000000 217.000000 0.762427 0.284915 -0.580972
13.06000042 12.56000042 -0.38000000 62 42 203 0.000000 0.000000 0.000000 0.000000 51.808199 0.000000 217.000000 0.463035 0.559988 -0.687031
13.09000015 12.51000023 -0.47999999 62 42 203 0.000000 0.000000 0.000000 0.000000 51.808199 0.000000 217.000000 0.909253 0.416143 0.009132
13.10000038 12.52999973 -0.56000000 62 42 203 0.000000 0.000000 0.000000 0.000000 51.808199 0.000000 217.000000 0.566031 0.582927 -0.582927
13.10999966 12.50000000 -0.54000002 62 42 203 0.000000 0.000000 0.000000 0.000000 51.808199 0.000000 217.000000 0.733048 0.213222 -0.645892
13.10000038 12.50000000 -0.56999999 62 42 203 0.000000 0.000000 0.000000 0.000000 51.808199 0.000000 217.000000 0.731652 0.406108 -0.547506
13.10999966 12.50000000 -0.56999999 62 42 203 0.000000 0.000000 0.000000 0.000000 51.808199 0.000000 217.000000 0.566782 0.556631 -0.607388
13.10000038 12.47999954 -0.57999998 62 42 203 0.000000 0.000000 0.000000 0.000000 51.808199 0.000000 217.000000 0.522369 0.724684 -0.449404
13.10000038 12.51000023 -0.56000000 62 42 203 0.000000 0.000000 0.000000 0.000000 51.808199 0.000000 217.000000 0.691522 0.237858 -0.682071
13.11999989 12.47999954 -0.56999999 62 42 203 0.000000 0.000000 0.000000 0.000000 51.808199 0.000000 217.000000 -0.697737 -0.422619 0.578409
13.10000038 12.47999954 -0.57999998 62 42 203 0.000000 0.000000 0.000000 0.000000 51.808199 0.000000 217.000000 0.522369 0.724684 -0.449404
13.06999969 12.52999973 -0.51999998 62 42 203 0.000000 0.000000 0.000000 0.000000 51.808199 0.000000 217.000000 0.449983 0.709014 -0.542968
13.05000019 12.55000019 -0.52999997 62 42 203 0.000000 0.000000 0.000000 0.000000 51.808199 0.000000 217.000000 -0.271746 -0.535637 0.799529
13.06999969 12.51000023 -0.52999997 62 42 203 0.000000 0.000000 0.000000 0.000000 51.808199 0.000000 217.000000 0.457144 0.540262 -0.706496
13.06999969 12.50000000 -0.52999997 62 42 203 0.000000 0.000000 0.000000 0.000000 51.808199 0.000000 217.000000 -0.482045 -0.488671 0.727209
13.09000015 12.48999977 -0.56999999 62 42 203 0.000000 0.000000 0.000000 0.000000 51.808199 0.000000 217.000000 0.485300 0.708772 -0.511983
13.06000042 12.51000023 -0.56999999 62 42 203 0.000000 0.000000 0.000000 0.000000 51.808199 0.000000 217.000000 0.604262 0.503271 -0.617727
13.06999969 12.51000023 -0.56999999 62 42 203 0.000000 0.000000 0.000000 0.000000 51.808199 0.000000 217.000000 0.445474 0.575612 -0.685729
13.03999996 12.52999973 -0.57999998 62 42 203 0.000000 0.000000 0.000000 0.000000 51.808199 0.000000 217.000000 0.225033 0.774424 -0.591294
13.06999969 12.52000046 -0.60000002 62 42 203 0.000000 0.000000 0.000000 0.000000 51.808199 0.000000 217.000000 0.354150 0.608747 -0.709933
13.06000042 12.52000046 -0.67000002 62 42 203 0.000000 0.000000 0.000000 0.000000 51.808199 0.000000 217.000000 0.507789 0.622506 -0.595514
13.05000019 12.50000000 -0.64999998 62 42 203 0.000000 0.000000 0.000000 0.000000 51.808199 0.000000 217.000000 0.230835 0.705066 -0.670520
13.05000019 12.50000000 -0.64999998 62 42 203 0.000000 0.000000 0.000000 0.000000 51.808199 0.000000 217.000000 0.230835 0.705066 -0.670520
13.02999973 12.55000019 -0.63000000 62 42 203 0.000000 0.000000 0.000000 0.000000 51.808199 0.000000 217.000000 -0.095153 0.762692 -0.639724
13.03999996 12.52000046 -0.62000000 62 42 203 0.000000 0.000000 0.000000 0.000000 51.808199 0.000000 217.000000 0.085636 0.770726 -0.631386
13.03999996 12.52000046 -0.58999997 62 42 203 0.000000 0.000000 0.000000 0.000000 51.808199 0.000000 217.000000 0.466525 0.687246 -0.556820
13.14000034 12.43999958 -0.34000000 62 42 203 0.000000 0.000000 0.000000 0.000000 51.808199 0.000000 217.000000 0.888520 -0.449158 -0.093749
13.14000034 12.43999958 -0.34000000 62 42 203 0.000000 0.000000 0.000000 0.000000 51.808199 0.000000 217.000000 0.888520 -0.449158 -0.093749
13.14000034 12.44999981 -0.38999999 62 42 203 0.000000 0.000000 0.000000 0.000000 51.808199 0.000000 217.000000 0.889315 -0.392127 -0.235276
13.14000034 12.43999958 -0.40000001 62 42 203 0.000000 0.000000 0.000000 0.000000 51.808199 0.000000 217.000000 0.962511 -0.134152 0.235744
13.14000034 12.42000008 -0.37000000 62 42 203 0.000000 0.000000 0.000000 0.000000 51.808199 0.000000 217.000000 0.868743 -0.493884 -0.036939
13.13000011 12.47000027 -0.34000000 62 42 203 0.000000 0.000000 0.000000 0.000000 51.808199 0.000000 217.000000 0.922059 -0.361891 0.137269
13.11999989 12.47000027 -0.34999999 62 42 203 0.000000 0.000000 0.000000 0.000000 51.808199 0.000000 217.000000 0.922660 -0.276941 -0.268332
13.11999989 12.46000004 -0.36000001 62 42 203 0.000000 0.000000 0.000000 0.000000 51.808199 0.000000 217.000000 0.959412 -0.273210 -0.069891
13.10999966 12.44999981 -0.34000000 62 42 203 0.000000 0.000000 0.000000 0.000000 51.808199 0.000000 217.000000 0.951971 -0.302957 0.044366
13.10999966 12.44999981 -0.34000000 62 42 203 0.000000 0.000000 0.000000 0.000000 51.808199 0.000000 217.000000 0.951971 -0.302957 0.044366
13.11999989 12.42000008 -0.36000001 62 42 203 0.000000 0.000000 0.000000 0.000000 51.808199 0.000000 217.000000 0.781337 -0.621356 -0.058565
13.13000011 12.43000031 -0.34999999 62 42 203 0.000000 0.000000 0.000000 0.000000 51.808199 0.000000 217.000000 -0.691131 0.703337 0.166299
13.10000038 12.40999985 -0.37000000 62 42 203 0.000000 0.000000 0.000000 0.000000 51.808199 0.000000 217.000000 0.778112 -0.627779 -0.020880
13.10000038 12.42000008 -0.33000001 62 42 203 0.000000 0.000000 0.000000 0.000000 51.808199 0.000000 217.000000 -0.567524 0.822841 0.029139
13.13000011 12.43000031 -0.34999999 62 42 203 0.000000 0.000000 0.000000 0.000000 51.808199 0.000000 217.000000 -0.691131 0.703337 0.166299
13.11999989 12.43000031 -0.37000000 62 42 203 0.000000 0.000000 0.000000 0.000000 51.808199 0.000000 217.000000 0.925865 -0.291555 0.240355
13.13000011 12.43000031 -0.34999999 62 42 203 0.000000 0.000000 0.000000 0.000000 51.808199 0.000000 217.000000 -0.691131 0.703337 0.166299
13.10999966 12.39999962 -0.38999999 62 42 203 0.000000 0.000000 0.000000 0.000000 51.808199 0.000000 217.000000 0.821454 -0.352956 0.447922
13.10000038 12.40999985 -0.38999999 62 42 203 0.000000 0.000000 0.000000 0.000000 51.808199 0.000000 217.000000 0.837573 -0.530609 0.130094
13.11999989 12.43999958 -0.41999999 62 42 203 0.000000 0.000000 0.000000 0.000000 51.808199 0.000000 217.000000 0.826843 -0.458308 -0.326013
13.10999966 12.43999958 -0.44000000 62 42 203 0.000000 0.000000 0.000000 0.000000 51.808199 0.000000 217.000000 0.972566 -0.176715 0.151288
13.10999966 12.44999981 -0.44000000 62 42 203 0.000000 0.000000 0.000000 0.000000 51.808199 0.000000 217.000000 0.975485 -0.097920 0.197080
13.11999989 12.47000027 -0.44999999 62 42 203 0.000000 0.000000 0.000000 0.000000 51.808199 0.000000 217.000000 0.856341 -0.138590 -0.497466
13.11999989 12.46000004 -0.46000001 62 42 203 0.000000 0.000000 0.000000 0.000000 51.808199 0.000000 217.000000 0.965221 -0.254137 -0.061343
13.10999966 12.47000027 -0.50000000 62 42 203 0.000000 0.000000 0.000000 0.000000 51.808199 0.000000 217.000000 0.990040 -0.032813 -0.136908
13.10999966 12.46000004 -0.50000000 62 42 203 0.000000 0.000000 0.000000 0.000000 51.808199 0.000000 217.000000 0.996929 -0.059534 0.050875
13.10999966 12.43000031 -0.43000001 62 42 203 0.000000 0.000000 0.000000 0.000000 51.808199 0.000000 217.000000 0.845994 -0.469657 -0.252421
13.11999989 12.42000008 -0.43000001 62 42 203 0.000000 0.000000 0.000000 0.000000 51.808199 0.000000 217.000000 0.915302 -0.402000 0.024879
13.10999966 12.42000008 -0.44000000 62 42 203 0.000000 0.000000 0.000000 0.000000 51.808199 0.000000 217.000000 0.851527 -0.473407 -0.225360
13.13000011 12.43000031 -0.49000001 62 42 203 0.000000 0.000000 0.000000 0.000000 51.808199 0.000000 217.000000 0.880535 -0.347061 -0.322812
13.10000038 12.39000034 -0.41999999 62 42 203 0.000000 0.000000 0.000000 0.000000 51.808199 0.000000 217.000000 0.825025 -0.378466 0.419639
13.10000038 12.39000034 -0.41999999 62 42 203 0.000000 0.000000 0.000000 0.000000 51.808199 0.000000 217.000000 0.825025 -0.378466 0.419639
13.09000015 12.40999985 -0.33000001 62 42 203 0.000000 0.000000 0.000000 0.000000 51.808199 0.000000 217.000000 0.855979 -0.459047 0.237856
13.09000015 12.39000034 -0.37000000 62 42 203 0.000000 0.000000 0.000000 0.000000 51.808199 0.000000 217.000000 -0.684045 0.727066 0.058796
13.02000046 12.36999989 -0.34000000 62 42 203 0.000000 0.000000 0.000000 0.000000 51.808199 0.000000 217.000000 -0.179327 -0.651403 0.737235
13.10000038 12.44999981 -0.57999998 62 42 203 0.000000 0.000000 0.000000 0.000000 51.808199 0.000000 217.000000 0.644818 0.671070 -0.365889
13.10000038 12.44999981 -0.57999998 62 42 203 0.000000 0.000000 0.000000 0.000000 51.808199 0.000000 217.000000 0.644818 0.671070 -0.365889
13.10000038 12.46000004 -0.55000001 62 42 203 0.000000 0.000000 0.000000 0.000000 51.808199 0.000000 217.000000 0.656696 0.502179 -0.562642
13.11999989 12.47000027 -0.56999999 62 42 203 0.000000 0.000000 0.000000 0.000000 51.808199 0.000000 217.000000 0.826330 0.099854 -0.554263
13.10999966 12.44999981 -0.63000000 62 42 203 0.000000 0.000000 0.000000 0.000000 51.808199 0.000000 217.000000 0.778804 0.231620 -0.582937
13.10000038 12.46000004 -0.61000001 62 42 203 0.000000 0.000000 0.000000 0.000000 51.808199 0.000000 217.000000 0.716808 0.403720 -0.568503
13.10999966 12.44999981 -0.63000000 62 42 203 0.000000 0.000000 0.000000 0.000000 51.808199 0.000000 217.000000 0.778804 0.231620 -0.582937
13.10999966 12.43999958 -0.67000002 62 42 203 0.000000 0.000000 0.000000 0.000000 51.808199 0.000000 217.000000 0.590275 0.774054 -0.228946
13.10999966 12.43999958 -0.66000003 62 42 203 0.000000 0.000000 0.000000 0.000000 51.808199 0.000000 217.000000 0.556125 0.656933 -0.509081
13.10999966 12.40999985 -0.63000000 62 42 203 0.000000 0.000000 0.000000 0.000000 51.808199 0.000000 217.000000 0.714275 0.210081 -0.667590
13.11999989 12.42000008 -0.58999997 62 42 203 0.000000 0.000000 0.000000 0.000000 51.808199 0.000000 217.000000 0.862278 0.502880 -0.059900
13.10000038 12.43000031 -0.62000000 62 42 203 0.000000 0.000000 0.000000 0.000000 51.808199 0.000000 217.000000 0.767866 0.615208 -0.178609
13.10000038 12.43000031 -0.62000000 62 42 203 0.000000 0.000000 0.000000 0.000000 51.808199 0.000000 217.000000 0.767866 0.615208 -0.178609
13.10999966 12.39999962 -0.63999999 62 42 203 0.000000 0.000000 0.000000 0.000000 51.808199 0.000000 217.000000 0.793668 0.194212 -0.576518
13.10999966 12.39999962 -0.63999999 62 42 203 0.000000 0.000000 0.000000 0.000000 51.808199 0.000000 217.000000 0.793668 0.194212 -0.576518
13.09000015 12.46000004 -0.56999999 62 42 203 0.000000 0.000000 0.000000 0.000000 51.808199 0.000000 217.000000 0.584401 0.628189 -0.513667
13.09000015 12.44999981 -0.63000000 62 42 203 0.000000 0.000000 0.000000 0.000000 51.808199 0.000000 217.000000 0.767178 0.287493 -0.573398
13.09000015 12.46000004 -0.66000003 62 42 203 0.000000 0.000000 0.000000 0.000000 51.808199 0.000000 217.000000 0.528901 0.582974 -0.616770
13.09000015 12.44999981 -0.67000002 62 42 203 0.000000 0.000000 0.000000 0.000000 51.808199 0.000000 217.000000 0.642750 0.555026 -0.528033
13.06000042 12.51000023 -0.72000003 62 42 203 0.000000 0.000000 0.000000 0.000000 51.808199 0.000000 217.000000 -0.133021 -0.656137 0.742825
13.02999973 12.47999954 -0.70999998 62 42 203 0.000000 0.000000 0.000000 0.000000 51.808199 0.000000 217.000000 0.092630 0.850774 -0.517304
13.01000023 12.51000023 -0.75000000 62 42 203 0.000000 0.000000 0.000000 0.000000 51.808199 0.000000 217.000000 -0.186210 -0.663279 0.724836
13.05000019 12.50000000 -0.75999999 62 42 203 0.000000 0.000000 0.000000 0.000000 51.808199 0.000000 217.000000 0.347196 0.816466 -0.461343
13.06999969 12.47999954 -0.77999997 62 42 203 0.000000 0.000000 0.000000 0.000000 51.808199 0.000000 217.000000 0.416514 0.732603 -0.538340
13.02000046 12.48999977 -0.81999999 62 42 203 0.000000 0.000000 0.000000 0.000000 51.808199 0.000000 217.000000 0.084992 0.887539 -0.452826
13.10000038 12.43999958 -0.75000000 62 42 203 0.000000 0.000000 0.000000 0.000000 51.808199 0.000000 217.000000 0.747503 0.324510 -0.579597
13.10000038 12.40999985 -0.72000003 62 42 203 0.000000 0.000000 0.000000 0.000000 51.808199 0.000000 217.000000 0.678338 0.668671 -0.304527
13.10000038 12.39000034 -0.68000001 62 42 203 0.000000 0.000000 0.000000 0.000000 51.808199 0.000000 217.000000 0.890783 0.423014 -0.166029
13.10000038 12.38000011 -0.75999999 62 42 203 0.000000 0.000000 0.000000 0.000000 51.808199 0.000000 217.000000 0.687808 0.290194 -0.665362
13.10999966 12.38000011 -0.77999997 62 42 203 0.000000 0.000000 0.000000 0.000000 51.808199 0.000000 217.000000 0.916079 0.363883 -0.168491
13.09000015 12.44999981 -0.69999999 62 42 203 0.000000 0.000000 0.000000 0.000000 51.808199 0.000000 217.000000 0.657568 0.717205 -0.230698
13.09000015 12.44999981 -0.69999999 62 42 203 0.000000 0.000000 0.000000 0.000000 51.808199 0.000000 217.000000 0.657568 0.717205 -0.230698
13.09000015 12.43999958 -0.73000002 62 42 203 0.000000 0.000000 0.000000 0.000000 51.808199 0.000000 217.000000 0.641100 0.714642 -0.279782
13.07999992 12.43000031 -0.69000000 62 42 203 0.000000 0.000000 0.000000 0.000000 51.808199 0.000000 217.000000 0.739673 0.671526 -0.044011
13.02999973 12.46000004 -0.73000002 62 42 203 0.000000 0.000000 0.000000 0.000000 51.808199 0.000000 217.000000 0.121185 0.833696 -0.538763
13.06000042 12.44999981 -0.75999999 62 42 203 0.000000 0.000000 0.000000 0.000000 51.808199 0.000000 217.000000 0.220411 0.711254 -0.667485
13.06000042 12.46000004 -0.77999997 62 42 203 0.000000 0.000000 0.000000 0.000000 51.808199 0.000000 217.000000 0.246498 0.866525 -0.434019
13.06000042 12.47000027 -0.76999998 62 42 203 0.000000 0.000000 0.000000 0.000000 51.808199 0.000000 217.000000 0.425290 0.807248 -0.409241
13.06999969 12.47000027 -0.79000002 62 42 203 0.000000 0.000000 0.000000 0.000000 51.808199 0.000000 217.000000 0.123518 0.733668 -0.668188
13.06000042 12.43999958 -0.81000000 62 42 203 0.000000 0.000000 0.000000 0.000000 51.808199 0.000000 217.000000 0.598191 0.761477 -0.249639
13.06000042 12.43999958 -0.81000000 62 42 203 0.000000 0.000000 0.000000 0.000000 51.808199 0.000000 217.000000 0.598191 0.761477 -0.249639
13.06999969 12.39999962 -0.81999999 62 42 203 0.000000 0.000000 0.000000 0.000000 51.808199 0.000000 217.000000 0.502775 0.664201 -0.553221
13.06000042 12.43000031 -0.83999997 62 42 203 0.000000 0.000000 0.000000 0.000000 51.808199 0.000000 217.000000 0.593332 0.686404 -0.420485
13.07999992 12.43000031 -0.83999997 62 42 203 0.000000 0.000000 0.000000 0.000000 51.808199 0.000000 217.000000 0.482788 0.721693 -0.496060
13.05000019 12.35999966 -0.70999998 62 42 203 0.000000 0.000000 0.000000 0.000000 51.808199 0.000000 217.000000 0.807844 0.066964 -0.585580
13.09000015 12.35999966 -0.70999998 62 42 203 0.000000 0.000000 0.000000 0.000000 51.808199 0.000000 217.000000 0.791825 0.306257 -0.528412
13.06000042 12.35999966 -0.69999999 62 42 203 0.000000 0.000000 0.000000 0.000000 51.808199 0.000000 217.000000 0.915832 0.332115 -0.225723
13.06000042 12.35999966 -0.69999999 62 42 203 0.000000 0.000000 0.000000 0.000000 51.808199 0.000000 217.000000 0.915832 0.332115 -0.225723
13.07999992 12.36999989 -0.70999998 62 42 203 0.000000 0.000000 0.000000 0.000000 51.808199 0.000000 217.000000 0.902548 0.293956 -0.314636
13.06999969 12.38000011 -0.69000000 62 42 203 0.000000 0.000000 0.000000 0.000000 51.808199 0.000000 217.000000 0.770902 0.350704 -0.531712
13.07999992 12.36999989 -0.70999998 62 42 203 0.000000 0.000000 0.000000 0.000000 51.808199 0.000000 217.000000 0.902548 0.293956 -0.314636
13.09000015 12.36999989 -0.76999998 62 42 203 0.000000 0.000000 0.000000 0.000000 51.808199 0.000000 217.000000 0.774529 0.328734 -0.540406
13.06999969 12.32999992 -0.83999997 62 42 203 0.000000 0.000000 0.000000 0.000000 51.808199 0.000000 217.000000 0.713026 0.557517 -0.425169
13.07999992 12.31999969 -0.83999997 62 42 203 0.000000 0.000000 0.000000 0.000000 51.808199 0.000000 217.000000 0.627563 0.610738 -0.482870
13.01000023 12.31999969 -0.75999999 62 42 203 0.000000 0.000000 0.000000 0.000000 51.808199 0.000000 217.000000 0.649570 0.666015 -0.366719
13.05000019 12.44999981 -0.88000000 62 42 203 0.000000 0.000000 0.000000 0.000000 51.808199 0.000000 217.000000 0.585658 0.605912 -0.538401
13.06000042 12.44999981 -0.91000003 62 42 203 0.000000 0.000000 0.000000 0.000000 51.808199 0.000000 217.000000 0.342560 0.741943 -0.576345
13.06000042 12.42000008 -0.85000002 62 42 203 0.000000 0.000000 0.000000 0.000000 51.808199 0.000000 217.000000 -0.425962 -0.518062 0.741733
13.06999969 12.42000008 -0.87000000 62 42 203 0.000000 0.000000 0.000000 0.000000 51.808199 0.000000 217.000000 0.659445 0.395006 -0.639612
13.06000042 12.40999985 -0.88000000 62 42 203 0.000000 0.000000 0.000000 0.000000 51.808199 0.000000 217.000000 0.797648 0.533339 -0.281615
13.06999969 12.40999985 -0.87000000 62 42 203 0.000000 0.000000 0.000000 0.000000 51.808199 0.000000 217.000000 0.616506 0.485477 -0.619865
13.07999992 12.42000008 -0.86000001 62 42 203 0.000000 0.000000 0.000000 0.000000 51.808199 0.000000 217.000000 0.729019 0.654724 -0.199668
13.06000042 12.40999985 -0.88000000 62 42 203 0.000000 0.000000 0.000000 0.000000 51.808199 0.000000 217.000000 0.797648 0.533339 -0.281615
13.07999992 12.42000008 -0.86000001 62 42 203 0.000000 0.000000 0.000000 0.000000 51.808199 0.000000 217.000000 0.729019 0.654724 -0.199668
13.01000023 12.44999981 -0.92000002 62 42 203 0.000000 0.000000 0.000000 0.000000 51.808199 0.000000 217.000000 -0.032447 -0.661646 0.749114
13.02000046 12.46000004 -0.92000002 62 42 203 0.000000 0.000000 0.000000 0.000000 51.808199 0.000000 217.000000 0.279525 0.781723 -0.557471
13.05000019 12.40999985 -0.95999998 62 42 203 0.000000 0.000000 0.000000 0.000000 51.808199 0.000000 217.000000 0.226015 0.749746 -0.621931
13.07999992 12.43000031 -0.94999999 62 42 203 0.000000 0.000000 0.000000 0.000000 51.808199 0.000000 217.000000 0.506769 0.597685 -0.621255
13.02999973 12.44999981 -0.99000001 62 42 203 0.000000 0.000000 0.000000 0.000000 51.808199 0.000000 217.000000 -0.003664 0.956430 -0.291937
13.07999992 12.39000034 -0.88999999 62 42 203 0.000000 0.000000 0.000000 0.000000 51.808199 0.000000 217.000000 0.572672 0.596322 -0.562536
13.06999969 12.35999966 -0.89999998 62 42 203 0.000000 0.000000 0.000000 0.000000 51.808199 0.000000 217.000000 0.473961 0.581147 -0.661536
13.07999992 12.39000034 -0.88999999 62 42 203 0.000000 0.000000 0.000000 0.000000 51.808199 0.000000 217.000000 0.572672 0.596322 -0.562536
13.06999969 12.31999969 -0.87000000 62 42 203 0.000000 0.000000 0.000000 0.000000 51.808199 0.000000 217.000000 0.859066 0.402543 -0.316173
13.06999969 12.31999969 -0.87000000 62 42 203 0.000000 0.000000 0.000000 0.000000 51.808199 0.000000 217.000000 0.859066 0.402543 -0.316173
13.06999969 12.32999992 -0.89999998 62 42 203 0.000000 0.000000 0.000000 0.000000 51.808199 0.000000 217.000000 0.401045 0.748072 -0.528725
13.06999969 12.34000015 -0.93000001 62 42 203 0.000000 0.000000 0.000000 0.000000 51.808199 0.000000 217.000000 0.789774 0.607852 -0.082298
13.02000046 12.31000042 -0.86000001 62 42 203 0.000000 0.000000 0.000000 0.000000 51.808199 0.000000 217.000000 0.767175 0.520641 -0.374667
13.07999992 12.38000011 -0.99000001 62 42 203 0.000000 0.000000 0.000000 0.000000 51.808199 0.000000 217.000000 0.514678 0.582177 -0.629426
13.01000023 12.28999996 -0.81999999 62 42 203 0.000000 0.000000 0.000000 0.000000 51.808199 0.000000 217.000000 -0.517258 -0.554326 0.652049
13.06000042 12.27999973 -0.89999998 62 42 203 0.000000 0.000000 0.000000 0.000000 51.808199 0.000000 217.000000 0.799341 0.322597 -0.506938
13.01000023 12.28999996 -0.87000000 62 42 203 0.000000 0.000000 0.000000 0.000000 51.808199 0.000000 217.000000 0.788887 0.475914 -0.388797
12.97999954 12.55000019 -0.36000001 62 42 203 0.000000 0.000000 0.000000 0.000000 51.808199 0.000000 217.000000 -0.690405 0.509863 -0.513206
12.97999954 12.56000042 -0.36000001 62 42 203 0.000000 0.000000 0.000000 0.000000 51.808199 0.000000 217.000000 0.768473 -0.638749 0.038071
12.97999954 12.56000042 -0.34000000 62 42 203 0.000000 0.000000 0.000000 0.000000 51.808199 0.000000 217.000000 0.725896 -0.661166 -0.189565
12.97000027 12.55000019 -0.38000000 62 42 203 0.000000 0.000000 0.000000 0.000000 51.808199 0.000000 217.000000 -0.471045 0.770948 -0.428667
12.96000004 12.53999996 -0.36000001 62 42 203 0.000000 0.000000 0.000000 0.000000 51.808199 0.000000 217.000000 0.924692 -0.380452 0.014186
12.96000004 12.55000019 -0.37000000 62 42 203 0.000000 0.000000 0.000000 0.000000 51.808199 0.000000 217.000000 0.765729 -0.632430 0.117007
12.96000004 12.55000019 -0.37000000 62 42 203 0.000000 0.000000 0.000000 0.000000 51.808199 0.000000 217.000000 0.765729 -0.632430 0.117007
12.93000031 12.52000046 -0.34000000 62 42 203 0.000000 0.000000 0.000000 0.000000 51.808199 0.000000 217.000000 0.919934 -0.386988 0.062936
12.96000004 12.53999996 -0.36000001 62 42 203 0.000000 0.000000 0.000000 0.000000 51.808199 0.000000 217.000000 0.924692 -0.380452 0.014186
12.96000004 12.53999996 -0.37000000 62 42 203 0.000000 0.000000 0.000000 0.000000 51.808199 0.000000 217.000000 0.922811 -0.348680 0.163837
12.96000004 12.52999973 -0.34000000 62 42 203 0.000000 0.000000 0.000000 0.000000 51.808199 0.000000 217.000000 0.878562 -0.462776 -0.118186
12.96000004 12.52999973 -0.34000000 62 42 203 0.000000 0.000000 0.000000 0.000000 51.808199 0.000000 217.000000 0.878562 -0.462776 -0.118186
12.94999981 12.52000046 -0.38999999 62 42 203 0.000000 0.000000 0.000000 0.000000 51.808199 0.000000 217.000000 0.785083 -0.547179 0.290243
12.94999981 12.52999973 -0.40000001 62 42 203 0.000000 0.000000 0.000000 0.000000 51.808199 0.000000 217.000000 0.965824 -0.254164 -0.050833
12.94999981 12.52000046 -0.38999999 62 42 203 0.000000 0.000000 0.000000 0.000000 51.808199 0.000000 217.000000 0.785083 -0.547179 0.290243
12.93999958 12.47999954 -0.34000000 62 42 203 0.000000 0.000000 0.000000 0.000000 51.808199 0.000000 217.000000 0.975455 0.188596 -0.113657
12.93999958 12.47999954 -0.34000000 62 42 203 0.000000 0.000000 0.000000 0.000000 51.808199 0.000000 217.000000 0.975455 0.188596 -0.113657
12.92000008 12.47999954 -0.37000000 62 42 203 0.000000 0.000000 0.000000 0.000000 51.808199 0.000000 217.000000 0.990923 0.120008 -0.060575
12.92000008 12.47999954 -0.38999999 62 42 203 0.000000 0.000000 0.000000 0.000000 51.808199 0.000000 217.000000 0.922337 0.230227 -0.310306
12.97000027 12.52999973 -0.41999999 62 42 203 0.000000 0.000000 0.000000 0.000000 51.808199 0.000000 217.000000 -0.517923 0.776078 -0.359803
12.98999977 12.55000019 -0.50000000 62 42 203 0.000000 0.000000 0.000000 0.000000 51.808199 0.000000 217.000000 -0.526602 0.712657 -0.463476
13.00000000 12.56000042 -0.47000000 62 42 203 0.000000 0.000000 0.000000 0.000000 51.808199 0.000000 217.000000 0.190505 0.841524 -0.505514
12.98999977 12.55000019 -0.50000000 62 42 203 0.000000 0.000000 0.000000 0.000000 51.808199 0.000000 217.000000 -0.526602 0.712657 -0.463476
12.94999981 12.52999973 -0.47999999 62 42 203 0.000000 0.000000 0.000000 0.000000 51.808199 0.000000 217.000000 0.756648 -0.649997 0.070621
12.93999958 12.52000046 -0.47000000 62 42 203 0.000000 0.000000 0.000000 0.000000 51.808199 0.000000 217.000000 0.731846 -0.513779 0.447698
12.93000031 12.52000046 -0.50000000 62 42 203 0.000000 0.000000 0.000000 0.000000 51.808199 0.000000 217.000000 -0.574480 0.664923 -0.477337
12.92000008 12.51000023 -0.49000001 62 42 203 0.000000 0.000000 0.000000 0.000000 51.808199 0.000000 217.000000 0.670174 -0.623841 0.402105
12.92000008 12.50000000 -0.47000000 62 42 203 0.000000 0.000000 0.000000 0.000000 51.808199 0.000000 217.000000 0.973303 -0.185571 -0.135076
12.90999985 12.47999954 -0.34000000 62 42 203 0.000000 0.000000 0.000000 0.000000 51.808199 0.000000 217.000000 0.915578 0.091421 -0.391611
12.89000034 12.47999954 -0.34999999 62 42 203 0.000000 0.000000 0.000000 0.000000 51.808199 0.000000 217.000000 0.819387 -0.009575 -0.573161
12.90999985 12.47999954 -0.41000000 62 42 203 0.000000 0.000000 0.000000 0.000000 51.808199 0.000000 217.000000 0.937909 0.243884 -0.246672
12.89999962 12.48999977 -0.41000000 62 42 203 0.000000 0.000000 0.000000 0.000000 51.808199 0.000000 217.000000 0.930148 -0.276071 0.242093
12.90999985 12.52000046 -0.50000000 62 42 203 0.000000 0.000000 0.000000 0.000000 51.808199 0.000000 217.000000 0.890085 -0.451214 0.064459
12.89000034 12.48999977 -0.44999999 62 42 203 0.000000 0.000000 0.000000 0.000000 51.808199 0.000000 217.000000 0.994246 -0.105864 -0.016371
12.89999962 12.51000023 -0.44000000 62 42 203 0.000000 0.000000 0.000000 0.000000 51.808199 0.000000 217.000000 0.971848 -0.088577 -0.218323
12.94999981 12.52000046 -0.50999999 62 42 203 0.000000 0.000000 0.000000 0.000000 51.808199 0.000000 217.000000 -0.656805 0.701551 -0.276465
12.92000008 12.51000023 -0.50999999 62 42 203 0.000000 0.000000 0.000000 0.000000 51.808199 0.000000 217.000000 -0.410909 0.813823 -0.410909
12.97999954 12.52999973 -0.66000003 62 42 203 0.000000 0.000000 0.000000 0.000000 51.808199 0.000000 217.000000 -0.059573 0.868655 -0.491822
12.97999954 12.51000023 -0.63999999 62 42 203 0.000000 0.000000 0.000000 0.000000 51.808199 0.000000 217.000000 -0.277644 0.756778 -0.591778
12.92000008 12.52000046 -0.67000002 62 42 203 0.000000 0.000000 0.000000 0.000000 51.808199 0.000000 217.000000 -0.384921 0.642636 -0.662461
12.96000004 12.51000023 -0.62000000 62 42 203 0.000000 0.000000 0.000000 0.000000 51.808199 0.000000 217.000000 -0.528804 0.751459 -0.394557
12.86999989 12.48999977 -0.52999997 62 42 203 0.000000 0.000000 0.000000 0.000000 51.808199 0.000000 217.000000 0.973519 -0.080405 0.214001
12.90999985 12.47999954 -0.63000000 62 42 203 0.000000 0.000000 0.000000 0.000000 51.808199 0.000000 217.000000 -0.373584 0.742273 -0.556297
12.89000034 12.48999977 -0.62000000 62 42 203 0.000000 0.000000 0.000000 0.000000 51.808199 0.000000 217.000000 -0.568316 0.672256 -0.474435
12.88000011 12.50000000 -0.66000003 62 42 203 0.000000 0.000000 0.000000 0.000000 51.808199 0.000000 217.000000 -0.597352 0.690016 -0.408715
12.86999989 12.47999954 -0.61000001 62 42 203 0.000000 0.000000 0.000000 0.000000 51.808199 0.000000 217.000000 0.871189 -0.252147 0.421251
12.93000031 12.47000027 -0.36000001 62 42 203 0.000000 0.000000 0.000000 0.000000 51.808199 0.000000 217.000000 0.713854 0.403913 -0.572072
12.93999958 12.44999981 -0.37000000 62 42 203 0.000000 0.000000 0.000000 0.000000 51.808199 0.000000 217.000000 0.687521 0.380857 -0.618274
12.92000008 12.43999958 -0.41000000 62 42 203 0.000000 0.000000 0.000000 0.000000 51.808199 0.000000 217.000000 0.829291 0.355410 -0.431231
12.92000008 12.43999958 -0.38000000 62 42 203 0.000000 0.000000 0.000000 0.000000 51.808199 0.000000 217.000000 0.961167 0.196453 -0.193816
12.92000008 12.44999981 -0.41000000 62 42 203 0.000000 0.000000 0.000000 0.000000 51.808199 0.000000 217.000000 0.809219 0.085105 -0.581311
12.92000008 12.43999958 -0.41000000 62 42 203 0.000000 0.000000 0.000000 0.000000 51.808199 0.000000 217.000000 0.829291 0.355410 -0.431231
12.93000031 12.44999981 -0.40000001 62 42 203 0.000000 0.000000 0.000000 0.000000 51.808199 0.000000 217.000000 0.744573 0.162259 -0.647521
12.92000008 12.47000027 -0.38999999 62 42 203 0.000000 0.000000 0.000000 0.000000 51.808199 0.000000 217.000000 0.920993 0.354659 -0.161209
12.92000008 12.46000004 -0.38000000 62 42 203 0.000000 0.000000 0.000000 0.000000 51.808199 0.000000 217.000000 0.988638 0.141893 0.049605
12.94999981 12.39999962 -0.36000001 62 42 203 0.000000 0.000000 0.000000 0.000000 51.808199 0.000000 217.000000 0.657567 0.750060 -0.070815
12.93999958 12.42000008 -0.33000001 62 42 203 0.000000 0.000000 0.000000 0.000000 51.808199 0.000000 217.000000 0.629092 0.749655 -0.205575
12.94999981 12.39999962 -0.36000001 62 42 203 0.000000 0.000000 0.000000 0.000000 51.808199 0.000000 217.000000 0.657567 0.750060 -0.070815
12.92000008 12.43000031 -0.38000000 62 42 203 0.000000 0.000000 0.000000 0.000000 51.808199 0.000000 217.000000 0.741752 0.360280 -0.565688
12.92000008 12.42000008 -0.38000000 62 42 203 0.000000 0.000000 0.000000 0.000000 51.808199 0.000000 217.000000 0.715574 0.577394 -0.393154
12.92000008 12.43000031 -0.38000000 62 42 203 0.000000 0.000000 0.000000 0.000000 51.808199 0.000000 217.000000 0.741752 0.360280 -0.565688
12.94999981 12.39999962 -0.38999999 62 42 203 0.000000 0.000000 0.000000 0.000000 51.808199 0.000000 217.000000 0.591944 0.797582 -0.116039
12.93000031 12.43000031 -0.41000000 62 42 203 0.000000 0.000000 0.000000 0.000000 51.808199 0.000000 217.000000 0.691464 0.524040 -0.497252
12.96000004 12.39999962 -0.38999999 62 42 203 0.000000 0.000000 0.000000 0.000000 51.808199 0.000000 217.000000 0.551442 0.806427 -0.213511
12.92000008 12.43999958 -0.41999999 62 42 203 0.000000 0.000000 0.000000 0.000000 51.808199 0.000000 217.000000 0.935279 0.346937 0.069915
12.93000031 12.43000031 -0.41999999 62 42 203 0.000000 0.000000 0.000000 0.000000 51.808199 0.000000 217.000000 0.872705 0.487249 -0.031217
12.93999958 12.39999962 -0.41999999 62 42 203 0.000000 0.000000 0.000000 0.000000 51.808199 0.000000 217.000000 0.635008 0.753786 -0.169031
12.92000008 12.42000008 -0.44000000 62 42 203 0.000000 0.000000 0.000000 0.000000 51.808199 0.000000 217.000000 0.787982 0.351462 -0.505528
12.93000031 12.39999962 -0.43000001 62 42 203 0.000000 0.000000 0.000000 0.000000 51.808199 0.000000 217.000000 0.586210 0.445921 -0.676396
12.93000031 12.39999962 -0.47000000 62 42 203 0.000000 0.000000 0.000000 0.000000 51.808199 0.000000 217.000000 0.714242 0.407432 -0.569085
12.96000004 12.39000034 -0.34000000 62 42 203 0.000000 0.000000 0.000000 0.000000 51.808199 0.000000 217.000000 0.554690 0.694611 -0.458077
12.94999981 12.36999989 -0.41000000 62 42 203 0.000000 0.000000 0.000000 0.000000 51.808199 0.000000 217.000000 0.442468 0.843018 -0.305846
12.94999981 12.36999989 -0.41000000 62 42 203 0.000000 0.000000 0.000000 0.000000 51.808199 0.000000 217.000000 0.442468 0.843018 -0.305846
12.97000027 12.34000015 -0.44999999 62 42 203 0.000000 0.000000 0.000000 0.000000 51.808199 0.000000 217.000000 -0.252789 -0.576233 0.777208
12.97999954 12.34000015 -0.47000000 62 42 203 0.000000 0.000000 0.000000 0.000000 51.808199 0.000000 217.000000 0.510096 0.631307 -0.584169
12.92000008 12.39000034 -0.44000000 62 42 203 0.000000 0.000000 0.000000 0.000000 51.808199 0.000000 217.000000 0.635107 0.668099 -0.387663
12.94999981 12.35999966 -0.44999999 62 42 203 0.000000 0.000000 0.000000 0.000000 51.808199 0.000000 217.000000 0.611546 0.467456 -0.638354
12.93000031 12.39000034 -0.44000000 62 42 203 0.000000 0.000000 0.000000 0.000000 51.808199 0.000000 217.000000 0.675790 0.672564 -0.301605
12.96000004 12.35999966 -0.50000000 62 42 203 0.000000 0.000000 0.000000 0.000000 51.808199 0.000000 217.000000 0.655631 0.391397 -0.645722
12.93000031 12.38000011 -0.47000000 62 42 203 0.000000 0.000000 0.000000 0.000000 51.808199 0.000000 217.000000 0.619054 0.575198 -0.534714
12.94999981 12.34000015 -0.46000001 62 42 203 0.000000 0.000000 0.000000 0.000000 51.808199 0.000000 217.000000 -0.444436 -0.421810 0.790287
12.90999985 12.47000027 -0.33000001 62 42 203 0.000000 0.000000 0.000000 0.000000 51.808199 0.000000 217.000000 0.973185 0.193122 -0.124961
12.90999985 12.46000004 -0.34999999 62 42 203 0.000000 0.000000 0.000000 0.000000 51.808199 0.000000 217.000000 0.827286 0.495130 -0.265414
12.90999985 12.47000027 -0.34000000 62 42 203 0.000000 0.000000 0.000000 0.000000 51.808199 0.000000 217.000000 0.946733 0.247271 -0.206287
12.90999985 12.46000004 -0.34000000 62 42 203 0.000000 0.000000 0.000000 0.000000 51.808199 0.000000 217.000000 0.820501 0.567383 -0.069679
12.90999985 12.47000027 -0.40000001 62 42 203 0.000000 0.000000 0.000000 0.000000 51.808199 0.000000 217.000000 0.922827 0.111068 -0.368856
12.89999962 12.46000004 -0.41999999 62 42 203 0.000000 0.000000 0.000000 0.000000 51.808199 0.000000 217.000000 0.998580 0.052775 -0.007244
12.94999981 12.36999989 -0.54000002 62 42 203 0.000000 0.000000 0.000000 0.000000 51.808199 0.000000 217.000000 0.821916 0.359489 -0.441839
12.92000008 12.35999966 -0.57999998 62 42 203 0.000000 0.000000 0.000000 0.000000 51.808199 0.000000 217.000000 0.996672 0.053141 0.061818
12.93999958 12.36999989 -0.55000001 62 42 203 0.000000 0.000000 0.000000 0.000000 51.808199 0.000000 217.000000 0.893974 0.237901 -0.379754
12.92000008 12.36999989 -0.56999999 62 42 203 0.000000 0.000000 0.000000 0.000000 51.808199 0.000000 217.000000 0.988476 -0.047180 -0.143841
12.96000004 12.34000015 -0.50999999 62 42 203 0.000000 0.000000 0.000000 0.000000 51.808199 0.000000 217.000000 -0.461675 -0.538343 0.705013
12.93000031 12.35999966 -0.62000000 62 42 203 0.000000 0.000000 0.000000 0.000000 51.808199 0.000000 217.000000 0.995427 0.040518 -0.086511
12.93000031 12.35999966 -0.61000001 62 42 203 0.000000 0.000000 0.000000 0.000000 51.808199 0.000000 217.000000 0.996184 0.068891 -0.053582
12.93000031 12.36999989 -0.61000001 62 42 203 0.000000 0.000000 0.000000 0.000000 51.808199 0.000000 217.000000 0.997783 -0.050156 -0.043753
12.93999958 12.31999969 -0.63000000 62 42 203 0.000000 0.000000 0.000000 0.000000 51.808199 0.000000 217.000000 0.594725 0.651685 -0.470754
12.93999958 12.31999969 -0.63000000 62 42 203 0.000000 0.000000 0.000000 0.000000 51.808199 0.000000 217.000000 0.594725 0.651685 -0.470754
12.88000011 12.47000027 -0.63000000 62 42 203 0.000000 0.000000 0.000000 0.000000 51.808199 0.000000 217.000000 -0.626684 0.669676 -0.398498
12.89999962 12.46000004 -0.58999997 62 42 203 0.000000 0.000000 0.000000 0.000000 51.808199 0.000000 217.000000 0.939471 -0.249134 0.235216
12.88000011 12.47000027 -0.63999999 62 42 203 0.000000 0.000000 0.000000 0.000000 51.808199 0.000000 217.000000 0.818932 -0.421392 0.389589
12.89000034 12.40999985 -0.58999997 62 42 203 0.000000 0.000000 0.000000 0.000000 51.808199 0.000000 217.000000 0.914561 -0.330860 0.232614
12.86999989 12.46000004 -0.61000001 62 42 203 0.000000 0.000000 0.000000 0.000000 51.808199 0.000000 217.000000 0.868448 -0.284413 0.406087
12.86999989 12.46000004 -0.63999999 62 42 203 0.000000 0.000000 0.000000 0.000000 51.808199 0.000000 217.000000 -0.548846 0.596132 -0.585999
12.85999966 12.44999981 -0.63999999 62 42 203 0.000000 0.000000 0.000000 0.000000 51.808199 0.000000 217.000000 -0.574720 0.642136 -0.507304
12.96000004 12.53999996 -0.75000000 62 42 203 0.000000 0.000000 0.000000 0.000000 51.808199 0.000000 217.000000 -0.211625 0.770808 -0.600891
12.96000004 12.51000023 -0.68000001 62 42 203 0.000000 0.000000 0.000000 0.000000 51.808199 0.000000 217.000000 -0.496052 0.703158 -0.509413
12.93999958 12.48999977 -0.73000002 62 42 203 0.000000 0.000000 0.000000 0.000000 51.808199 0.000000 217.000000 -0.588384 0.632218 -0.504088
12.93000031 12.48999977 -0.72000003 62 42 203 0.000000 0.000000 0.000000 0.000000 51.808199 0.000000 217.000000 -0.456748 0.802915 -0.383027
12.97999954 12.51000023 -0.83999997 62 42 203 0.000000 0.000000 0.000000 0.000000 51.808199 0.000000 217.000000 -0.245507 0.901171 -0.357234
12.97000027 12.51000023 -0.81999999 62 42 203 0.000000 0.000000 0.000000 0.000000 51.808199 0.000000 217.000000 -0.065129 0.874385 -0.480842
12.97999954 12.50000000 -0.83999997 62 42 203 0.000000 0.000000 0.000000 0.000000 51.808199 0.000000 217.000000 -0.068141 0.923247 -0.378117
12.98999977 12.51000023 -0.82999998 62 42 203 0.000000 0.000000 0.000000 0.000000 51.808199 0.000000 217.000000 -0.033255 0.964401 -0.262347
12.92000008 12.52999973 -0.76999998 62 42 203 0.000000 0.000000 0.000000 0.000000 51.808199 0.000000 217.000000 -0.055497 0.902841 -0.426379
12.93000031 12.52999973 -0.76999998 62 42 203 0.000000 0.000000 0.000000 0.000000 51.808199 0.000000 217.000000 0.203444 0.800009 -0.564443
12.89999962 12.50000000 -0.69999999 62 42 203 0.000000 0.000000 0.000000 0.000000 51.808199 0.000000 217.000000 -0.140843 0.863933 -0.483512
12.90999985 12.50000000 -0.72000003 62 42 203 0.000000 0.000000 0.000000 0.000000 51.808199 0.000000 217.000000 -0.226660 0.887382 -0.401470
12.88000011 12.48999977 -0.72000003 62 42 203 0.000000 0.000000 0.000000 0.000000 51.808199 0.000000 217.000000 -0.202374 0.924130 -0.324082
12.86999989 12.48999977 -0.68000001 62 42 203 0.000000 0.000000 0.000000 0.000000 51.808199 0.000000 217.000000 -0.399737 0.820177 -0.409292
12.86999989 12.47999954 -0.72000003 62 42 203 0.000000 0.000000 0.000000 0.000000 51.808199 0.000000 217.000000 -0.426048 0.850548 -0.308304
12.89000034 12.47999954 -0.80000001 62 42 203 0.000000 0.000000 0.000000 0.000000 51.808199 0.000000 217.000000 -0.138734 0.854311 -0.500904
12.85000038 12.50000000 -0.75999999 62 42 203 0.000000 0.000000 0.000000 0.000000 51.808199 0.000000 217.000000 -0.189206 0.815855 -0.546426
12.98999977 12.51000023 -0.88000000 62 42 203 0.000000 0.000000 0.000000 0.000000 51.808199 0.000000 217.000000 -0.258177 -0.708007 0.657321
12.98999977 12.51000023 -0.88000000 62 42 203 0.000000 0.000000 0.000000 0.000000 51.808199 0.000000 217.000000 -0.258177 -0.708007 0.657321
12.97000027 12.48999977 -0.92000002 62 42 203 0.000000 0.000000 0.000000 0.000000 51.808199 0.000000 217.000000 -0.070593 0.881718 -0.466466
12.92000008 12.48999977 -0.86000001 62 42 203 0.000000 0.000000 0.000000 0.000000 51.808199 0.000000 217.000000 -0.160826 0.854296 -0.494282
12.93000031 12.48999977 -0.91000003 62 42 203 0.000000 0.000000 0.000000 0.000000 51.808199 0.000000 217.000000 -0.023732 0.771995 -0.635186
12.96000004 12.47999954 -0.92000002 62 42 203 0.000000 0.000000 0.000000 0.000000 51.808199 0.000000 217.000000 -0.051542 0.851147 -0.522390
12.93999958 12.48999977 -0.99000001 62 42 203 0.000000 0.000000 0.000000 0.000000 51.808199 0.000000 217.000000 -0.391154 0.701436 -0.595808
12.93999958 12.48999977 -1.00000000 62 42 203 0.000000 0.000000 0.000000 0.000000 51.808199 0.000000 217.000000 -0.232006 0.875636 -0.423598
12.89999962 12.52000046 -0.91000003 62 42 203 0.000000 0.000000 0.000000 0.000000 51.808199 0.000000 217.000000 -0.079930 -0.701932 0.707745
12.89999962 12.47999954 -0.86000001 62 42 203 0.000000 0.000000 0.000000 0.000000 51.808199 0.000000 217.000000 -0.327484 0.817920 -0.473033
12.88000011 12.47999954 -0.91000003 62 42 203 0.000000 0.000000 0.000000 0.000000 51.808199 0.000000 217.000000 0.241009 -0.647416 0.723027
12.85000038 12.51000023 -0.91000003 62 42 203 0.000000 0.000000 0.000000 0.000000 51.808199 0.000000 217.000000 0.605392 -0.678370 0.416310
12.89000034 12.47999954 -0.94999999 62 42 203 0.000000 0.000000 0.000000 0.000000 51.808199 0.000000 217.000000 -0.387373 0.753498 -0.531208
12.89000034 12.48999977 -0.94999999 62 42 203 0.000000 0.000000 0.000000 0.000000 51.808199 0.000000 217.000000 -0.278961 0.741240 -0.610527
12.86999989 12.50000000 -0.94000000 62 42 203 0.000000 0.000000 0.000000 0.000000 51.808199 0.000000 217.000000 -0.015329 0.756703 -0.653579
12.86999989 12.50000000 -0.94000000 62 42 203 0.000000 0.000000 0.000000 0.000000 51.808199 0.000000 217.000000 -0.015329 0.756703 -0.653579
13.00000000 12.46000004 -0.75000000 62 42 203 0.000000 0.000000 0.000000 0.000000 51.808199 0.000000 217.000000 0.167961 0.779278 -0.603751
12.97999954 12.32999992 -0.68000001 62 42 203 0.000000 0.000000 0.000000 0.000000 51.808199 0.000000 217.000000 0.276262 0.713811 -0.643547
13.00000000 12.31999969 -0.73000002 62 42 203 0.000000 0.000000 0.000000 0.000000 51.808199 0.000000 217.000000 0.808818 0.443649 -0.385991
13.00000000 12.31000042 -0.73000002 62 42 203 0.000000 0.000000 0.000000 0.000000 51.808199 0.000000 217.000000 0.935500 0.285808 -0.207734
13.00000000 12.32999992 -0.75999999 62 42 203 0.000000 0.000000 0.000000 0.000000 51.808199 0.000000 217.000000 0.299091 0.885248 -0.356203
13.00000000 12.31999969 -0.81999999 62 42 203 0.000000 0.000000 0.000000 0.000000 51.808199 0.000000 217.000000 0.625227 0.700320 -0.344446
12.86999989 12.43999958 -0.74000001 62 42 203 0.000000 0.000000 0.000000 0.000000 51.808199 0.000000 217.000000 -0.528028 0.675541 -0.514618
12.86999989 12.40999985 -0.74000001 62 42 203 0.000000 0.000000 0.000000 0.000000 51.808199 0.000000 217.000000 0.667034 -0.704880 0.241268
12.85000038 12.43000031 -0.82999998 62 42 203 0.000000 0.000000 0.000000 0.000000 51.808199 0.000000 217.000000 -0.631931 0.674830 -0.381139
12.88000011 12.38000011 -0.74000001 62 42 203 0.000000 0.000000 0.000000 0.000000 51.808199 0.000000 217.000000 0.897973 -0.438979 -0.030689
12.89999962 12.35999966 -0.81000000 62 42 203 0.000000 0.000000 0.000000 0.000000 51.808199 0.000000 217.000000 -0.348450 0.874929 -0.336277
12.89999962 12.34000015 -0.76999998 62 42 203 0.000000 0.000000 0.000000 0.000000 51.808199 0.000000 217.000000 -0.652638 0.632710 -0.416825
12.89000034 12.34000015 -0.76999998 62 42 203 0.000000 0.000000 0.000000 0.000000 51.808199 0.000000 217.000000 0.782614 -0.321688 0.532946
12.84000015 12.35000038 -0.77999997 62 42 203 0.000000 0.000000 0.000000 0.000000 51.808199 0.000000 217.000000 0.737239 -0.423871 0.526128
12.85999966 12.35999966 -0.79000002 62 42 203 0.000000 0.000000 0.000000 0.000000 51.808199 0.000000 217.000000 0.491229 -0.787576 0.372045
12.85000038 12.35999966 -0.77999997 62 42 203 0.000000 0.000000 0.000000 0.000000 51.808199 0.000000 217.000000 0.744080 -0.632235 0.215923
12.85000038 12.38000011 -0.81999999 62 42 203 0.000000 0.000000 0.000000 0.000000 51.808199 0.000000 217.000000 0.835730 -0.317109 0.448326
13.00000000 12.47000027 -0.98000002 62 42 203 0.000000 0.000000 0.000000 0.000000 51.808199 0.000000 217.000000 0.176742 0.811201 -0.557418
13.00000000 12.47000027 -0.98000002 62 42 203 0.000000 0.000000 0.000000 0.000000 51.808199 0.000000 217.000000 0.176742 0.811201 -0.557418
13.00000000 12.47000027 -0.98000002 62 42 203 0.000000 0.000000 0.000000 0.000000 51.808199 0.000000 217.000000 0.176742 0.811201 -0.557418
