//X Y Z R G B PointSourceId ScanDirectionFlag NumberOfReturns ReturnNumber GpsTime Intensity Classification Nx Ny Nz
10.88000011 -8.86999989 -0.18000001 129 174 104 0.000000 0.000000 0.000000 0.000000 51.808199 0.000000 202.000000 -0.333857 0.929535 0.156539
10.92000008 -8.89000034 -0.25999999 129 174 104 0.000000 0.000000 0.000000 0.000000 51.808199 0.000000 202.000000 -0.159389 0.870059 -0.466469
10.85999966 -8.90999985 -0.31999999 129 174 104 0.000000 0.000000 0.000000 0.000000 51.808199 0.000000 202.000000 -0.468360 0.786002 -0.403535
10.85000038 -8.88000011 -0.20999999 129 174 104 0.000000 0.000000 0.000000 0.000000 51.808199 0.000000 202.000000 -0.651358 0.758770 -0.001377
10.78999996 -8.89000034 -0.20000000 129 174 104 0.000000 0.000000 0.000000 0.000000 51.808199 0.000000 202.000000 0.079086 0.994699 0.065719
10.80000019 -8.86999989 -0.23000000 129 174 104 0.000000 0.000000 0.000000 0.000000 51.808199 0.000000 202.000000 0.044447 0.990377 -0.131063
10.84000015 -8.88000011 -0.28000000 129 174 104 0.000000 0.000000 0.000000 0.000000 51.808199 0.000000 202.000000 -0.146649 0.957840 0.247057
10.84000015 -8.88000011 -0.28000000 129 174 104 0.000000 0.000000 0.000000 0.000000 51.808199 0.000000 202.000000 -0.146649 0.957840 0.247057
10.80000019 -8.85999966 -0.31999999 129 174 104 0.000000 0.000000 0.000000 0.000000 51.808199 0.000000 202.000000 0.192203 0.930150 -0.312856
10.72999954 -8.68000031 -0.14000000 129 174 104 0.000000 0.000000 0.000000 0.000000 51.808199 0.000000 202.000000 -0.075010 0.847749 -0.525067
10.75000000 -8.76000023 0.01000000 129 174 104 0.000000 0.000000 0.000000 0.000000 51.808199 0.000000 202.000000 -0.528659 0.831178 0.172226
10.72999954 -8.73999977 -0.03000000 129 174 104 0.000000 0.000000 0.000000 0.000000 51.808199 0.000000 202.000000 -0.106959 0.988494 -0.106959
10.72999954 -8.81999969 -0.03000000 129 174 104 0.000000 0.000000 0.000000 0.000000 51.808199 0.000000 202.000000 -0.533926 0.844574 -0.040218
10.73999977 -8.81999969 -0.07000000 129 174 104 0.000000 0.000000 0.000000 0.000000 51.808199 0.000000 202.000000 -0.424612 0.828704 -0.364630
10.72999954 -8.73999977 -0.13000000 129 174 104 0.000000 0.000000 0.000000 0.000000 51.808199 0.000000 202.000000 -0.545514 0.762424 -0.348028
10.71000004 -8.81000042 -0.10000000 129 174 104 0.000000 0.000000 0.000000 0.000000 51.808199 0.000000 202.000000 0.094228 0.940955 -0.325154
10.69999981 -8.81000042 -0.10000000 129 174 104 0.000000 0.000000 0.000000 0.000000 51.808199 0.000000 202.000000 0.090497 0.995462 -0.029439
10.71000004 -8.77999973 -0.15000001 129 174 104 0.000000 0.000000 0.000000 0.000000 51.808199 0.000000 202.000000 0.058669 0.964922 0.255898
10.67000008 -8.73999977 -0.05000000 129 174 104 0.000000 0.000000 0.000000 0.000000 51.808199 0.000000 202.000000 -0.357919 0.933647 0.014011
10.65999985 -8.77999973 0.00000000 129 174 104 0.000000 0.000000 0.000000 0.000000 51.808199 0.000000 202.000000 0.212795 0.976977 0.015284
10.65999985 -8.81999969 -0.02000000 129 174 104 0.000000 0.000000 0.000000 0.000000 51.808199 0.000000 202.000000 0.320679 0.946947 -0.021379
10.67000008 -8.81999969 -0.01000000 129 174 104 0.000000 0.000000 0.000000 0.000000 51.808199 0.000000 202.000000 0.152898 0.987514 0.037937
10.65999985 -8.77999973 -0.02000000 129 174 104 0.000000 0.000000 0.000000 0.000000 51.808199 0.000000 202.000000 -0.234763 0.940442 0.245876
10.65999985 -8.77999973 -0.03000000 129 174 104 0.000000 0.000000 0.000000 0.000000 51.808199 0.000000 202.000000 0.052127 0.988087 -0.144796
10.64999962 -8.78999996 -0.07000000 129 174 104 0.000000 0.000000 0.000000 0.000000 51.808199 0.000000 202.000000 -0.190177 0.977877 0.087113
10.64000034 -8.78999996 -0.06000000 129 174 104 0.000000 0.000000 0.000000 0.000000 51.808199 0.000000 202.000000 0.110586 0.958847 -0.261504
10.64999962 -8.81000042 -0.09000000 129 174 104 0.000000 0.000000 0.000000 0.000000 51.808199 0.000000 202.000000 0.278923 0.945619 -0.167354
10.65999985 -8.80000019 -0.13000000 129 174 104 0.000000 0.000000 0.000000 0.000000 51.808199 0.000000 202.000000 0.041719 0.978611 0.201444
10.64999962 -8.80000019 -0.14000000 129 174 104 0.000000 0.000000 0.000000 0.000000 51.808199 0.000000 202.000000 0.106399 0.910608 -0.399341
10.60999966 -8.76000023 -0.09000000 129 174 104 0.000000 0.000000 0.000000 0.000000 51.808199 0.000000 202.000000 0.058079 0.946044 -0.318790
10.60999966 -8.80000019 -0.08000000 129 174 104 0.000000 0.000000 0.000000 0.000000 51.808199 0.000000 202.000000 -0.080143 0.975284 0.205907
10.63000011 -8.77999973 -0.13000000 129 174 104 0.000000 0.000000 0.000000 0.000000 51.808199 0.000000 202.000000 -0.159307 0.914957 -0.370776
10.61999989 -8.80000019 -0.13000000 129 174 104 0.000000 0.000000 0.000000 0.000000 51.808199 0.000000 202.000000 -0.292400 0.956161 -0.016039
10.72000027 -8.69999981 -0.19000000 129 174 104 0.000000 0.000000 0.000000 0.000000 51.808199 0.000000 202.000000 0.094840 0.936374 -0.337949
10.72999954 -8.75000000 -0.17000000 129 174 104 0.000000 0.000000 0.000000 0.000000 51.808199 0.000000 202.000000 0.017773 0.998419 0.053319
10.72000027 -8.73999977 -0.17000000 129 174 104 0.000000 0.000000 0.000000 0.000000 51.808199 0.000000 202.000000 -0.069315 0.942946 -0.325650
10.69999981 -8.73999977 -0.19000000 129 174 104 0.000000 0.000000 0.000000 0.000000 51.808199 0.000000 202.000000 0.323504 0.941223 -0.097184
10.76000023 -8.73999977 -0.27000001 129 174 104 0.000000 0.000000 0.000000 0.000000 51.808199 0.000000 202.000000 -0.115762 0.992406 -0.041584
10.76000023 -8.73999977 -0.30000001 129 174 104 0.000000 0.000000 0.000000 0.000000 51.808199 0.000000 202.000000 0.123215 0.982062 -0.142734
10.76000023 -8.73999977 -0.30000001 129 174 104 0.000000 0.000000 0.000000 0.000000 51.808199 0.000000 202.000000 0.123215 0.982062 -0.142734
10.64999962 -8.77000046 -0.16000000 129 174 104 0.000000 0.000000 0.000000 0.000000 51.808199 0.000000 202.000000 -0.052717 0.947621 -0.315016
10.64000034 -8.77000046 -0.18000001 129 174 104 0.000000 0.000000 0.000000 0.000000 51.808199 0.000000 202.000000 0.431117 0.892114 -0.135169
10.61999989 -8.77000046 -0.18000001 129 174 104 0.000000 0.000000 0.000000 0.000000 51.808199 0.000000 202.000000 -0.105645 0.982373 0.154217
10.64000034 -8.77000046 -0.18000001 129 174 104 0.000000 0.000000 0.000000 0.000000 51.808199 0.000000 202.000000 0.431117 0.892114 -0.135169
10.65999985 -8.73999977 -0.25999999 129 174 104 0.000000 0.000000 0.000000 0.000000 51.808199 0.000000 202.000000 0.043312 0.998297 0.039087
10.60999966 -8.77999973 -0.28000000 129 174 104 0.000000 0.000000 0.000000 0.000000 51.808199 0.000000 202.000000 0.574599 0.798981 -0.177383
10.68000031 -8.80000019 -0.25000000 129 174 104 0.000000 0.000000 0.000000 0.000000 51.808199 0.000000 202.000000 -0.120971 0.981212 -0.150298
10.68000031 -8.80000019 -0.31000000 129 174 104 0.000000 0.000000 0.000000 0.000000 51.808199 0.000000 202.000000 0.300369 0.950519 -0.079318
10.75000000 -8.85999966 -0.01000000 129 174 104 0.000000 0.000000 0.000000 0.000000 51.808199 0.000000 202.000000 -0.356503 0.921316 0.155184
10.73999977 -8.86999989 -0.03000000 129 174 104 0.000000 0.000000 0.000000 0.000000 51.808199 0.000000 202.000000 -0.199490 0.853455 -0.481475
10.76000023 -8.89000034 -0.04000000 129 174 104 0.000000 0.000000 0.000000 0.000000 51.808199 0.000000 202.000000 -0.063585 0.945982 -0.317923
10.71000004 -8.82999992 -0.03000000 129 174 104 0.000000 0.000000 0.000000 0.000000 51.808199 0.000000 202.000000 -0.169809 0.971616 0.164702
10.77000046 -8.85999966 -0.15000001 129 174 104 0.000000 0.000000 0.000000 0.000000 51.808199 0.000000 202.000000 -0.266417 0.957803 0.107867
10.77000046 -8.82999992 -0.15000001 129 174 104 0.000000 0.000000 0.000000 0.000000 51.808199 0.000000 202.000000 -0.323718 0.886836 -0.329740
10.76000023 -8.86999989 -0.14000000 129 174 104 0.000000 0.000000 0.000000 0.000000 51.808199 0.000000 202.000000 -0.273860 0.956563 0.099939
10.69999981 -8.85999966 -0.12000000 129 174 104 0.000000 0.000000 0.000000 0.000000 51.808199 0.000000 202.000000 -0.353846 0.916590 -0.186160
10.68999958 -8.82999992 -0.15000001 129 174 104 0.000000 0.000000 0.000000 0.000000 51.808199 0.000000 202.000000 0.071450 0.947035 -0.313080
10.68999958 -8.86999989 -0.08000000 129 174 104 0.000000 0.000000 0.000000 0.000000 51.808199 0.000000 202.000000 -0.057180 0.852127 -0.520202
10.65999985 -8.89000034 0.01000000 129 174 104 0.000000 0.000000 0.000000 0.000000 51.808199 0.000000 202.000000 0.202247 0.970531 -0.131015
10.64999962 -8.88000011 0.01000000 129 174 104 0.000000 0.000000 0.000000 0.000000 51.808199 0.000000 202.000000 0.204994 0.955298 0.213033
10.64999962 -8.88000011 -0.04000000 129 174 104 0.000000 0.000000 0.000000 0.000000 51.808199 0.000000 202.000000 -0.125430 0.988199 0.087918
10.65999985 -8.89999962 -0.05000000 129 174 104 0.000000 0.000000 0.000000 0.000000 51.808199 0.000000 202.000000 -0.259889 0.903004 -0.342114
10.64999962 -8.88000011 -0.03000000 129 174 104 0.000000 0.000000 0.000000 0.000000 51.808199 0.000000 202.000000 0.248021 0.959279 -0.135165
10.64999962 -8.88000011 -0.03000000 129 174 104 0.000000 0.000000 0.000000 0.000000 51.808199 0.000000 202.000000 0.248021 0.959279 -0.135165
10.64999962 -8.88000011 -0.04000000 129 174 104 0.000000 0.000000 0.000000 0.000000 51.808199 0.000000 202.000000 -0.125430 0.988199 0.087918
10.60999966 -8.84000015 0.00000000 129 174 104 0.000000 0.000000 0.000000 0.000000 51.808199 0.000000 202.000000 0.085382 0.877615 -0.471701
10.63000011 -8.88000011 -0.01000000 129 174 104 0.000000 0.000000 0.000000 0.000000 51.808199 0.000000 202.000000 -0.334053 0.933986 0.126804
10.60999966 -8.86999989 0.01000000 129 174 104 0.000000 0.000000 0.000000 0.000000 51.808199 0.000000 202.000000 -0.060099 0.972630 0.224453
10.63000011 -8.89999962 -0.07000000 129 174 104 0.000000 0.000000 0.000000 0.000000 51.808199 0.000000 202.000000 0.186010 0.941072 0.282459
10.67000008 -8.85000038 -0.13000000 129 174 104 0.000000 0.000000 0.000000 0.000000 51.808199 0.000000 202.000000 0.161743 0.981404 -0.103370
10.65999985 -8.86999989 -0.09000000 129 174 104 0.000000 0.000000 0.000000 0.000000 51.808199 0.000000 202.000000 0.101586 0.927817 -0.358937
10.61999989 -8.84000015 -0.11000000 129 174 104 0.000000 0.000000 0.000000 0.000000 51.808199 0.000000 202.000000 -0.161239 0.985088 0.060023
10.60999966 -8.84000015 -0.10000000 129 174 104 0.000000 0.000000 0.000000 0.000000 51.808199 0.000000 202.000000 0.252399 0.885636 -0.389799
10.61999989 -8.88000011 -0.09000000 129 174 104 0.000000 0.000000 0.000000 0.000000 51.808199 0.000000 202.000000 0.018835 0.948012 -0.317678
10.61999989 -8.86999989 -0.14000000 129 174 104 0.000000 0.000000 0.000000 0.000000 51.808199 0.000000 202.000000 -0.219260 0.953713 0.205808
10.63000011 -8.86999989 -0.14000000 129 174 104 0.000000 0.000000 0.000000 0.000000 51.808199 0.000000 202.000000 -0.237112 0.957722 0.162932
10.61999989 -8.86999989 -0.12000000 129 174 104 0.000000 0.000000 0.000000 0.000000 51.808199 0.000000 202.000000 0.374476 0.921893 0.099406
10.64999962 -8.93000031 0.00000000 129 174 104 0.000000 0.000000 0.000000 0.000000 51.808199 0.000000 202.000000 -0.143644 0.983781 0.107431
10.76000023 -8.86999989 -0.16000000 129 174 104 0.000000 0.000000 0.000000 0.000000 51.808199 0.000000 202.000000 -0.528203 0.846533 -0.066201
10.71000004 -8.84000015 -0.28999999 129 174 104 0.000000 0.000000 0.000000 0.000000 51.808199 0.000000 202.000000 0.016625 0.991986 0.125245
10.76000023 -8.84000015 -0.25999999 129 174 104 0.000000 0.000000 0.000000 0.000000 51.808199 0.000000 202.000000 0.250704 0.968028 0.008397
10.68000031 -8.85000038 -0.16000000 129 174 104 0.000000 0.000000 0.000000 0.000000 51.808199 0.000000 202.000000 -0.259253 0.945107 0.198898
10.63000011 -8.85999966 -0.17000000 129 174 104 0.000000 0.000000 0.000000 0.000000 51.808199 0.000000 202.000000 0.020508 0.968720 -0.247307
10.61999989 -8.85999966 -0.16000000 129 174 104 0.000000 0.000000 0.000000 0.000000 51.808199 0.000000 202.000000 -0.132447 0.948537 0.287638
10.63000011 -8.85999966 -0.19000000 129 174 104 0.000000 0.000000 0.000000 0.000000 51.808199 0.000000 202.000000 0.262708 0.905535 0.333154
10.56000042 -8.81000042 0.19000000 129 174 104 0.000000 0.000000 0.000000 0.000000 51.808199 0.000000 202.000000 0.289971 0.905239 -0.310578
10.56000042 -8.81000042 0.19000000 129 174 104 0.000000 0.000000 0.000000 0.000000 51.808199 0.000000 202.000000 0.289971 0.905239 -0.310578
10.55000019 -8.77999973 0.20000000 129 174 104 0.000000 0.000000 0.000000 0.000000 51.808199 0.000000 202.000000 -0.015650 0.998461 -0.053210
10.55000019 -8.71000004 0.05000000 129 174 104 0.000000 0.000000 0.000000 0.000000 51.808199 0.000000 202.000000 0.225063 0.947994 0.225063
10.52000046 -8.72999954 0.02000000 129 174 104 0.000000 0.000000 0.000000 0.000000 51.808199 0.000000 202.000000 0.260984 0.932490 0.249699
10.56000042 -8.81000042 0.17000000 129 174 104 0.000000 0.000000 0.000000 0.000000 51.808199 0.000000 202.000000 0.041559 0.955847 -0.290910
10.60000038 -8.81999969 0.18000001 129 174 104 0.000000 0.000000 0.000000 0.000000 51.808199 0.000000 202.000000 -0.073489 0.970309 0.230433
10.52999973 -8.81999969 0.14000000 129 174 104 0.000000 0.000000 0.000000 0.000000 51.808199 0.000000 202.000000 0.229621 0.922763 0.309489
10.52999973 -8.73999977 0.04000000 129 174 104 0.000000 0.000000 0.000000 0.000000 51.808199 0.000000 202.000000 0.215706 0.955271 -0.202308
10.56999969 -8.88000011 0.13000000 129 174 104 0.000000 0.000000 0.000000 0.000000 51.808199 0.000000 202.000000 0.213515 0.972678 0.091150
10.57999992 -8.82999992 0.02000000 129 174 104 0.000000 0.000000 0.000000 0.000000 51.808199 0.000000 202.000000 0.103384 0.954016 -0.281363
10.53999996 -8.85000038 0.07000000 129 174 104 0.000000 0.000000 0.000000 0.000000 51.808199 0.000000 202.000000 -0.277895 0.943200 -0.182069
10.60000038 -8.96000004 0.07000000 129 174 104 0.000000 0.000000 0.000000 0.000000 51.808199 0.000000 202.000000 -0.008266 0.974198 0.225542
10.52999973 -8.90999985 0.02000000 129 174 104 0.000000 0.000000 0.000000 0.000000 51.808199 0.000000 202.000000 0.240471 0.965700 -0.097970
10.55000019 -8.97000027 0.08000000 129 174 104 0.000000 0.000000 0.000000 0.000000 51.808199 0.000000 202.000000 -0.061015 0.967524 0.245305
10.56000042 -8.93000031 0.08000000 129 174 104 0.000000 0.000000 0.000000 0.000000 51.808199 0.000000 202.000000 0.091216 0.986793 0.133863
10.56999969 -8.72999954 -0.07000000 129 174 104 0.000000 0.000000 0.000000 0.000000 51.808199 0.000000 202.000000 0.214399 0.957470 0.193092
10.56999969 -8.72000027 -0.07000000 129 174 104 0.000000 0.000000 0.000000 0.000000 51.808199 0.000000 202.000000 0.408435 0.875649 0.257721
10.55000019 -8.72999954 -0.06000000 129 174 104 0.000000 0.000000 0.000000 0.000000 51.808199 0.000000 202.000000 -0.088855 0.979842 0.178928
10.57999992 -8.72999954 -0.14000000 129 174 104 0.000000 0.000000 0.000000 0.000000 51.808199 0.000000 202.000000 0.544338 0.827571 0.137191
10.57999992 -8.72999954 -0.08000000 129 174 104 0.000000 0.000000 0.000000 0.000000 51.808199 0.000000 202.000000 0.426958 0.903438 0.038814
10.52000046 -8.73999977 0.00000000 129 174 104 0.000000 0.000000 0.000000 0.000000 51.808199 0.000000 202.000000 0.284745 0.901448 -0.326056
10.53999996 -8.73999977 -0.02000000 129 174 104 0.000000 0.000000 0.000000 0.000000 51.808199 0.000000 202.000000 0.088506 0.995423 -0.036058
10.53999996 -8.75000000 -0.04000000 129 174 104 0.000000 0.000000 0.000000 0.000000 51.808199 0.000000 202.000000 0.364644 0.831894 0.418315
10.55000019 -8.77999973 -0.07000000 129 174 104 0.000000 0.000000 0.000000 0.000000 51.808199 0.000000 202.000000 0.455389 0.883991 -0.105741
10.59000015 -8.73999977 -0.08000000 129 174 104 0.000000 0.000000 0.000000 0.000000 51.808199 0.000000 202.000000 0.466179 0.865761 -0.182032
10.56999969 -8.77000046 -0.15000001 129 174 104 0.000000 0.000000 0.000000 0.000000 51.808199 0.000000 202.000000 0.422036 0.857884 0.293123
10.59000015 -8.73999977 -0.13000000 129 174 104 0.000000 0.000000 0.000000 0.000000 51.808199 0.000000 202.000000 0.417323 0.908750 -0.003900
10.56000042 -8.73999977 -0.12000000 129 174 104 0.000000 0.000000 0.000000 0.000000 51.808199 0.000000 202.000000 0.283716 0.930194 -0.232902
10.59000015 -8.77999973 -0.08000000 129 174 104 0.000000 0.000000 0.000000 0.000000 51.808199 0.000000 202.000000 -0.201233 0.976897 0.071956
10.60000038 -8.81999969 -0.14000000 129 174 104 0.000000 0.000000 0.000000 0.000000 51.808199 0.000000 202.000000 0.355443 0.874115 -0.331035
10.52000046 -8.75000000 -0.15000001 129 174 104 0.000000 0.000000 0.000000 0.000000 51.808199 0.000000 202.000000 0.373731 0.871023 0.318816
10.53999996 -8.73999977 -0.13000000 129 174 104 0.000000 0.000000 0.000000 0.000000 51.808199 0.000000 202.000000 0.417567 0.908042 -0.033140
10.53999996 -8.78999996 -0.10000000 129 174 104 0.000000 0.000000 0.000000 0.000000 51.808199 0.000000 202.000000 0.308519 0.864161 0.397545
10.48999977 -8.68999958 -0.03000000 129 174 104 0.000000 0.000000 0.000000 0.000000 51.808199 0.000000 202.000000 0.185643 0.884364 0.428295
10.51000023 -8.69999981 -0.03000000 129 174 104 0.000000 0.000000 0.000000 0.000000 51.808199 0.000000 202.000000 0.460115 0.885893 0.059060
10.51000023 -8.72000027 -0.06000000 129 174 104 0.000000 0.000000 0.000000 0.000000 51.808199 0.000000 202.000000 0.312654 0.948255 -0.055326
10.47000027 -8.68999958 -0.03000000 129 174 104 0.000000 0.000000 0.000000 0.000000 51.808199 0.000000 202.000000 0.484064 0.874569 0.028474
10.47000027 -8.69999981 -0.01000000 129 174 104 0.000000 0.000000 0.000000 0.000000 51.808199 0.000000 202.000000 0.166602 0.975811 0.141549
10.47000027 -8.71000004 -0.01000000 129 174 104 0.000000 0.000000 0.000000 0.000000 51.808199 0.000000 202.000000 0.366428 0.849802 0.378902
10.47000027 -8.72999954 -0.07000000 129 174 104 0.000000 0.000000 0.000000 0.000000 51.808199 0.000000 202.000000 0.624688 0.779803 -0.040894
10.48999977 -8.68000031 -0.09000000 129 174 104 0.000000 0.000000 0.000000 0.000000 51.808199 0.000000 202.000000 0.590954 0.753426 0.288309
10.47999954 -8.71000004 -0.12000000 129 174 104 0.000000 0.000000 0.000000 0.000000 51.808199 0.000000 202.000000 0.535888 0.828462 -0.162707
10.50000000 -8.73999977 -0.10000000 129 174 104 0.000000 0.000000 0.000000 0.000000 51.808199 0.000000 202.000000 0.478707 0.875549 0.065215
10.50000000 -8.73999977 -0.09000000 129 174 104 0.000000 0.000000 0.000000 0.000000 51.808199 0.000000 202.000000 0.687961 0.722575 0.067786
10.51000023 -8.73999977 -0.10000000 129 174 104 0.000000 0.000000 0.000000 0.000000 51.808199 0.000000 202.000000 0.570864 0.801027 -0.180193
10.48999977 -8.73999977 -0.10000000 129 174 104 0.000000 0.000000 0.000000 0.000000 51.808199 0.000000 202.000000 0.301483 0.851881 0.428260
10.46000004 -8.77000046 -0.14000000 129 174 104 0.000000 0.000000 0.000000 0.000000 51.808199 0.000000 202.000000 0.284968 0.946742 0.149912
10.59000015 -8.72000027 -0.23999999 129 174 104 0.000000 0.000000 0.000000 0.000000 51.808199 0.000000 202.000000 0.180737 0.954558 0.236966
10.52999973 -8.72999954 -0.16000000 129 174 104 0.000000 0.000000 0.000000 0.000000 51.808199 0.000000 202.000000 0.064918 0.995777 -0.064918
10.60000038 -8.72999954 -0.23999999 129 174 104 0.000000 0.000000 0.000000 0.000000 51.808199 0.000000 202.000000 0.061565 0.996919 0.048604
10.52000046 -8.68000031 -0.20000000 129 174 104 0.000000 0.000000 0.000000 0.000000 51.808199 0.000000 202.000000 0.390822 0.753845 0.528182
10.56000042 -8.77000046 -0.20000000 129 174 104 0.000000 0.000000 0.000000 0.000000 51.808199 0.000000 202.000000 0.441970 0.882491 0.160848
10.56999969 -8.76000023 -0.22000000 129 174 104 0.000000 0.000000 0.000000 0.000000 51.808199 0.000000 202.000000 0.524797 0.831555 0.181950
10.56999969 -8.77000046 -0.20999999 129 174 104 0.000000 0.000000 0.000000 0.000000 51.808199 0.000000 202.000000 0.281264 0.868119 0.408974
10.59000015 -8.81999969 -0.23000000 129 174 104 0.000000 0.000000 0.000000 0.000000 51.808199 0.000000 202.000000 0.244756 0.929507 0.275881
10.55000019 -8.77000046 -0.20000000 129 174 104 0.000000 0.000000 0.000000 0.000000 51.808199 0.000000 202.000000 0.055638 0.943260 0.327359
10.55000019 -8.77000046 -0.20000000 129 174 104 0.000000 0.000000 0.000000 0.000000 51.808199 0.000000 202.000000 0.055638 0.943260 0.327359
10.52999973 -8.75000000 -0.20000000 129 174 104 0.000000 0.000000 0.000000 0.000000 51.808199 0.000000 202.000000 0.258621 0.852377 0.454499
10.55000019 -8.73999977 -0.17000000 129 174 104 0.000000 0.000000 0.000000 0.000000 51.808199 0.000000 202.000000 0.075388 0.997027 0.015927
10.55000019 -8.77000046 -0.16000000 129 174 104 0.000000 0.000000 0.000000 0.000000 51.808199 0.000000 202.000000 0.373466 0.906989 -0.194664
10.56999969 -8.77000046 -0.25999999 129 174 104 0.000000 0.000000 0.000000 0.000000 51.808199 0.000000 202.000000 0.204764 0.960408 0.188911
10.56000042 -8.80000019 -0.31999999 129 174 104 0.000000 0.000000 0.000000 0.000000 51.808199 0.000000 202.000000 0.207273 0.974306 0.088122
10.56000042 -8.81999969 -0.28999999 129 174 104 0.000000 0.000000 0.000000 0.000000 51.808199 0.000000 202.000000 0.589826 0.798693 0.119142
10.52999973 -8.77000046 -0.25999999 129 174 104 0.000000 0.000000 0.000000 0.000000 51.808199 0.000000 202.000000 0.471566 0.768539 0.432405
10.52999973 -8.77000046 -0.25000000 129 174 104 0.000000 0.000000 0.000000 0.000000 51.808199 0.000000 202.000000 0.540053 0.782201 0.310650
10.52999973 -8.77000046 -0.25000000 129 174 104 0.000000 0.000000 0.000000 0.000000 51.808199 0.000000 202.000000 0.540053 0.782201 0.310650
10.53999996 -8.75000000 -0.28999999 129 174 104 0.000000 0.000000 0.000000 0.000000 51.808199 0.000000 202.000000 0.331297 0.937558 0.105961
10.53999996 -8.75000000 -0.30000001 129 174 104 0.000000 0.000000 0.000000 0.000000 51.808199 0.000000 202.000000 0.262011 0.906061 0.332271
10.53999996 -8.75000000 -0.28999999 129 174 104 0.000000 0.000000 0.000000 0.000000 51.808199 0.000000 202.000000 0.331297 0.937558 0.105961
10.55000019 -8.78999996 -0.28999999 129 174 104 0.000000 0.000000 0.000000 0.000000 51.808199 0.000000 202.000000 0.451713 0.798937 0.397057
10.52999973 -8.80000019 -0.31999999 129 174 104 0.000000 0.000000 0.000000 0.000000 51.808199 0.000000 202.000000 0.678262 0.734433 -0.023873
10.51000023 -8.73999977 -0.18000001 129 174 104 0.000000 0.000000 0.000000 0.000000 51.808199 0.000000 202.000000 0.552484 0.800096 -0.233684
10.51000023 -8.75000000 -0.18000001 129 174 104 0.000000 0.000000 0.000000 0.000000 51.808199 0.000000 202.000000 0.704446 0.707316 0.058823
10.47000027 -8.77000046 -0.17000000 129 174 104 0.000000 0.000000 0.000000 0.000000 51.808199 0.000000 202.000000 0.370438 0.919852 0.129029
10.57999992 -8.89999962 0.01000000 129 174 104 0.000000 0.000000 0.000000 0.000000 51.808199 0.000000 202.000000 0.295445 0.936270 0.190028
10.59000015 -8.86999989 0.00000000 129 174 104 0.000000 0.000000 0.000000 0.000000 51.808199 0.000000 202.000000 0.124904 0.944167 -0.304873
10.60000038 -8.86999989 -0.07000000 129 174 104 0.000000 0.000000 0.000000 0.000000 51.808199 0.000000 202.000000 0.378812 0.917197 -0.123496
10.60000038 -8.86999989 -0.06000000 129 174 104 0.000000 0.000000 0.000000 0.000000 51.808199 0.000000 202.000000 0.376153 0.906514 -0.191679
10.60000038 -8.85000038 -0.13000000 129 174 104 0.000000 0.000000 0.000000 0.000000 51.808199 0.000000 202.000000 -0.128575 0.987312 -0.093187
10.59000015 -8.85999966 -0.14000000 129 174 104 0.000000 0.000000 0.000000 0.000000 51.808199 0.000000 202.000000 0.154262 0.984166 -0.087295
10.60000038 -8.89000034 -0.12000000 129 174 104 0.000000 0.000000 0.000000 0.000000 51.808199 0.000000 202.000000 0.079211 0.966872 0.242661
10.52999973 -8.86999989 -0.13000000 129 174 104 0.000000 0.000000 0.000000 0.000000 51.808199 0.000000 202.000000 0.490141 0.846060 -0.209630
10.60000038 -8.85000038 -0.19000000 129 174 104 0.000000 0.000000 0.000000 0.000000 51.808199 0.000000 202.000000 0.430490 0.837498 -0.336565
10.59000015 -8.85000038 -0.23999999 129 174 104 0.000000 0.000000 0.000000 0.000000 51.808199 0.000000 202.000000 0.352424 0.930345 -0.101271
10.60000038 -8.82999992 -0.22000000 129 174 104 0.000000 0.000000 0.000000 0.000000 51.808199 0.000000 202.000000 0.609934 0.791075 -0.046700
10.60000038 -8.82999992 -0.20999999 129 174 104 0.000000 0.000000 0.000000 0.000000 51.808199 0.000000 202.000000 0.088717 0.993851 0.066257
10.56000042 -8.88000011 -0.19000000 129 174 104 0.000000 0.000000 0.000000 0.000000 51.808199 0.000000 202.000000 0.446129 0.872989 0.197127
10.60000038 -8.89999962 -0.28000000 129 174 104 0.000000 0.000000 0.000000 0.000000 51.808199 0.000000 202.000000 0.043023 0.967410 -0.249535
10.52999973 -8.96000004 -0.23999999 129 174 104 0.000000 0.000000 0.000000 0.000000 51.808199 0.000000 202.000000 0.324298 0.944470 -0.052973
10.59000015 -9.02000046 -0.23000000 129 174 104 0.000000 0.000000 0.000000 0.000000 51.808199 0.000000 202.000000 -0.131063 0.990377 -0.044447
10.56000042 -9.02000046 -0.23999999 129 174 104 0.000000 0.000000 0.000000 0.000000 51.808199 0.000000 202.000000 0.316961 0.948398 0.008701
11.73999977 -8.43999958 -1.00999999 129 174 104 116.000000 1.000000 4.000000 4.000000 179.808199 95.000000 202.000000 0.808818 0.443649 0.385991
11.73999977 -8.43999958 -1.00999999 129 174 104 116.000000 1.000000 4.000000 4.000000 179.808199 95.000000 202.000000 0.808818 0.443649 0.385991
11.50000000 -8.34000015 -0.50000000 129 174 104 116.000000 1.000000 4.000000 4.000000 179.808199 95.000000 202.000000 0.883676 0.446867 0.139377
11.48999977 -8.31999969 -0.52999997 129 174 104 116.000000 1.000000 4.000000 4.000000 179.808199 95.000000 202.000000 0.882621 0.469932 -0.011981
11.50000000 -8.32999992 -0.51999998 129 174 104 116.000000 1.000000 4.000000 4.000000 179.808199 95.000000 202.000000 0.854753 0.310679 0.415784
11.46000004 -8.31999969 -0.56000000 129 174 104 116.000000 1.000000 4.000000 4.000000 179.808199 95.000000 202.000000 0.810074 0.250330 0.530202
11.47999954 -8.31999969 -0.57999998 129 174 104 116.000000 1.000000 4.000000 4.000000 179.808199 95.000000 202.000000 0.651591 0.668004 0.359442
11.50000000 -8.35000038 -0.56999999 129 174 104 116.000000 1.000000 4.000000 4.000000 179.808199 95.000000 202.000000 0.952101 -0.057509 0.300327
11.47999954 -8.34000015 -0.62000000 129 174 104 116.000000 1.000000 4.000000 4.000000 179.808199 95.000000 202.000000 0.973287 0.183520 0.137956
11.47000027 -8.63000011 -0.43000001 129 174 104 116.000000 1.000000 4.000000 4.000000 179.808199 95.000000 202.000000 0.982957 -0.003425 0.183805
11.43999958 -8.34000015 -0.34999999 129 174 104 116.000000 1.000000 4.000000 4.000000 179.808199 95.000000 202.000000 0.972500 0.226305 -0.055047
11.43000031 -8.38000011 -0.34999999 129 174 104 116.000000 1.000000 4.000000 4.000000 179.808199 95.000000 202.000000 0.981497 -0.098515 0.164191
11.43999958 -8.35000038 -0.33000001 129 174 104 116.000000 1.000000 4.000000 4.000000 179.808199 95.000000 202.000000 0.936530 -0.032205 0.349105
11.39999962 -8.39000034 -0.33000001 129 174 104 116.000000 1.000000 4.000000 4.000000 179.808199 95.000000 202.000000 0.924682 0.294930 0.240788
11.38000011 -8.47000027 -0.44000000 129 174 104 116.000000 1.000000 4.000000 4.000000 179.808199 95.000000 202.000000 0.889513 -0.163439 0.426677
11.39000034 -8.44999981 -0.44999999 129 174 104 116.000000 1.000000 4.000000 4.000000 179.808199 95.000000 202.000000 0.902351 -0.014490 0.430757
11.39000034 -8.43999958 -0.47999999 129 174 104 116.000000 1.000000 4.000000 4.000000 179.808199 95.000000 202.000000 0.952369 -0.073657 0.295919
11.35999966 -8.47000027 -0.47000000 129 174 104 116.000000 1.000000 4.000000 4.000000 179.808199 95.000000 202.000000 0.886083 -0.003962 0.463510
11.39000034 -8.43000031 -0.52999997 129 174 104 116.000000 1.000000 4.000000 4.000000 179.808199 95.000000 202.000000 0.819139 0.405593 0.405593
11.39000034 -8.43000031 -0.52999997 129 174 104 116.000000 1.000000 4.000000 4.000000 179.808199 95.000000 202.000000 0.819139 0.405593 0.405593
11.38000011 -8.46000004 -0.56999999 129 174 104 116.000000 1.000000 4.000000 4.000000 179.808199 95.000000 202.000000 0.980443 -0.083622 0.178152
11.38000011 -8.44999981 -0.56000000 129 174 104 116.000000 1.000000 4.000000 4.000000 179.808199 95.000000 202.000000 0.925466 0.337424 0.172212
11.36999989 -8.44999981 -0.56000000 129 174 104 116.000000 1.000000 4.000000 4.000000 179.808199 95.000000 202.000000 0.860294 0.395520 0.321648
11.39000034 -8.52999973 -0.41000000 129 174 104 116.000000 1.000000 4.000000 4.000000 179.808199 95.000000 202.000000 0.788025 -0.231589 0.570424
11.38000011 -8.48999977 -0.44000000 129 174 104 116.000000 1.000000 4.000000 4.000000 179.808199 95.000000 202.000000 0.953427 0.222511 0.203631
11.42000008 -8.64000034 -0.33000001 129 174 104 116.000000 1.000000 4.000000 4.000000 179.808199 95.000000 202.000000 0.773083 -0.312114 0.552202
11.38000011 -8.59000015 -0.33000001 129 174 104 116.000000 1.000000 4.000000 4.000000 179.808199 95.000000 202.000000 0.948644 -0.311936 0.052631
11.38000011 -8.56999969 -0.37000000 129 174 104 116.000000 1.000000 4.000000 4.000000 179.808199 95.000000 202.000000 0.860786 0.004029 0.508951
11.39000034 -8.60000038 -0.40000001 129 174 104 116.000000 1.000000 4.000000 4.000000 179.808199 95.000000 202.000000 0.923961 0.062664 0.377318
11.39999962 -8.63000011 -0.38000000 129 174 104 116.000000 1.000000 4.000000 4.000000 179.808199 95.000000 202.000000 0.869425 -0.022986 0.493530
11.38000011 -8.60999966 -0.40000001 129 174 104 116.000000 1.000000 4.000000 4.000000 179.808199 95.000000 202.000000 0.938936 -0.335805 0.075062
11.38000011 -8.63000011 -0.41999999 129 174 104 116.000000 1.000000 4.000000 4.000000 179.808199 95.000000 202.000000 0.787542 -0.296319 0.540346
11.39000034 -8.64000034 -0.50000000 129 174 104 116.000000 1.000000 4.000000 4.000000 179.808199 95.000000 202.000000 0.957924 -0.091538 0.272035
11.39000034 -8.64000034 -0.47000000 129 174 104 116.000000 1.000000 4.000000 4.000000 179.808199 95.000000 202.000000 0.905301 -0.274378 0.324265
11.34000015 -8.50000000 -0.34000000 129 174 104 116.000000 1.000000 4.000000 4.000000 179.808199 95.000000 202.000000 0.884661 -0.157820 0.438711
11.35000038 -8.52999973 -0.50000000 129 174 104 116.000000 1.000000 4.000000 4.000000 179.808199 95.000000 202.000000 0.871546 0.109835 0.477853
11.35999966 -8.57999992 -0.47000000 129 174 104 116.000000 1.000000 4.000000 4.000000 179.808199 95.000000 202.000000 0.813637 0.156756 0.559842
11.38000011 -8.59000015 -0.50999999 129 174 104 116.000000 1.000000 4.000000 4.000000 179.808199 95.000000 202.000000 0.872113 0.053732 0.486344
11.39000034 -8.59000015 -0.51999998 129 174 104 116.000000 1.000000 4.000000 4.000000 179.808199 95.000000 202.000000 0.908834 -0.355127 0.218874
11.36999989 -8.50000000 -0.52999997 129 174 104 116.000000 1.000000 4.000000 4.000000 179.808199 95.000000 202.000000 0.914940 0.144317 0.376905
11.36999989 -8.50000000 -0.52999997 129 174 104 116.000000 1.000000 4.000000 4.000000 179.808199 95.000000 202.000000 0.914940 0.144317 0.376905
11.35999966 -8.53999996 -0.57999998 129 174 104 116.000000 1.000000 4.000000 4.000000 179.808199 95.000000 202.000000 0.871853 0.302790 0.384954
11.35999966 -8.53999996 -0.57999998 129 174 104 116.000000 1.000000 4.000000 4.000000 179.808199 95.000000 202.000000 0.871853 0.302790 0.384954
11.36999989 -8.51000023 -0.60000002 129 174 104 116.000000 1.000000 4.000000 4.000000 179.808199 95.000000 202.000000 0.925539 0.216857 0.310403
11.35999966 -8.53999996 -0.58999997 129 174 104 116.000000 1.000000 4.000000 4.000000 179.808199 95.000000 202.000000 0.947740 0.241367 0.208639
11.34000015 -8.56999969 -0.54000002 129 174 104 116.000000 1.000000 4.000000 4.000000 179.808199 95.000000 202.000000 0.682222 -0.086191 0.726047
11.35999966 -8.56999969 -0.57999998 129 174 104 116.000000 1.000000 4.000000 4.000000 179.808199 95.000000 202.000000 0.879622 -0.218051 0.422752
11.32999992 -8.57999992 -0.52999997 129 174 104 116.000000 1.000000 4.000000 4.000000 179.808199 95.000000 202.000000 0.848579 0.196750 0.491124
11.34000015 -8.60000038 -0.61000001 129 174 104 116.000000 1.000000 4.000000 4.000000 179.808199 95.000000 202.000000 0.845503 -0.282865 0.452893
11.57999992 -8.31000042 -0.69000000 129 174 104 116.000000 1.000000 4.000000 4.000000 179.808199 95.000000 202.000000 0.838994 0.317162 0.442151
11.57999992 -8.31000042 -0.69000000 129 174 104 116.000000 1.000000 4.000000 4.000000 179.808199 95.000000 202.000000 0.838994 0.317162 0.442151
11.63000011 -8.32999992 -0.83999997 129 174 104 116.000000 1.000000 4.000000 4.000000 179.808199 95.000000 202.000000 0.973982 0.215483 0.070186
11.52000046 -8.32999992 -0.69000000 129 174 104 116.000000 1.000000 4.000000 4.000000 179.808199 95.000000 202.000000 0.957263 0.279894 0.072849
11.46000004 -8.39000034 -0.77999997 129 174 104 116.000000 1.000000 4.000000 4.000000 179.808199 95.000000 202.000000 0.879080 0.425457 0.214952
11.48999977 -8.38000011 -0.82999998 129 174 104 116.000000 1.000000 4.000000 4.000000 179.808199 95.000000 202.000000 0.994621 0.097814 -0.034070
11.63000011 -8.35999966 -0.94000000 129 174 104 116.000000 1.000000 4.000000 4.000000 179.808199 95.000000 202.000000 0.936399 0.336246 -0.100472
11.63000011 -8.35999966 -0.94000000 129 174 104 116.000000 1.000000 4.000000 4.000000 179.808199 95.000000 202.000000 0.936399 0.336246 -0.100472
11.53999996 -8.35999966 -1.00000000 129 174 104 116.000000 1.000000 4.000000 4.000000 179.808199 95.000000 202.000000 0.945905 0.278207 0.166924
11.48999977 -8.36999989 -0.94999999 129 174 104 116.000000 1.000000 4.000000 4.000000 179.808199 95.000000 202.000000 0.842897 0.272747 0.463825
11.43999958 -8.39000034 -0.79000002 129 174 104 116.000000 1.000000 4.000000 4.000000 179.808199 95.000000 202.000000 0.642644 0.609085 0.464784
11.39000034 -8.43000031 -0.72000003 129 174 104 116.000000 1.000000 4.000000 4.000000 179.808199 95.000000 202.000000 0.672460 0.477933 0.565135
11.39999962 -8.43999958 -0.72000003 129 174 104 116.000000 1.000000 4.000000 4.000000 179.808199 95.000000 202.000000 0.928212 0.151233 0.339928
11.39999962 -8.43999958 -0.72000003 129 174 104 116.000000 1.000000 4.000000 4.000000 179.808199 95.000000 202.000000 0.928212 0.151233 0.339928
11.39000034 -8.43999958 -0.75000000 129 174 104 116.000000 1.000000 4.000000 4.000000 179.808199 95.000000 202.000000 0.960180 -0.043701 0.275943
11.39000034 -8.43999958 -0.81000000 129 174 104 116.000000 1.000000 4.000000 4.000000 179.808199 95.000000 202.000000 0.759386 -0.020978 0.650303
11.35000038 -8.46000004 -0.73000002 129 174 104 116.000000 1.000000 4.000000 4.000000 179.808199 95.000000 202.000000 0.962372 0.270935 0.020841
11.36999989 -8.47000027 -0.82999998 129 174 104 116.000000 1.000000 4.000000 4.000000 179.808199 95.000000 202.000000 0.837498 0.336565 0.430490
11.39000034 -8.44999981 -1.00999999 129 174 104 116.000000 1.000000 4.000000 4.000000 179.808199 95.000000 202.000000 0.994509 -0.005387 0.104515
11.39000034 -8.44999981 -1.00000000 129 174 104 116.000000 1.000000 4.000000 4.000000 179.808199 95.000000 202.000000 0.969985 0.065657 0.234134
11.35000038 -8.47000027 -0.87000000 129 174 104 116.000000 1.000000 4.000000 4.000000 179.808199 95.000000 202.000000 0.959780 0.067197 0.272593
11.36999989 -8.43999958 -0.88000000 129 174 104 116.000000 1.000000 4.000000 4.000000 179.808199 95.000000 202.000000 0.754247 0.029496 0.655928
11.38000011 -8.47999954 -0.74000001 129 174 104 116.000000 1.000000 4.000000 4.000000 179.808199 95.000000 202.000000 0.990033 0.139835 0.016780
11.35999966 -8.52000046 -0.69000000 129 174 104 116.000000 1.000000 4.000000 4.000000 179.808199 95.000000 202.000000 0.968220 0.084357 0.235445
11.35999966 -8.52000046 -0.69000000 129 174 104 116.000000 1.000000 4.000000 4.000000 179.808199 95.000000 202.000000 0.968220 0.084357 0.235445
11.35999966 -8.52000046 -0.73000002 129 174 104 116.000000 1.000000 4.000000 4.000000 179.808199 95.000000 202.000000 0.804587 0.023623 0.593365
11.34000015 -8.56000042 -0.72000003 129 174 104 116.000000 1.000000 4.000000 4.000000 179.808199 95.000000 202.000000 0.920536 0.099554 0.377761
11.35000038 -8.52999973 -0.72000003 129 174 104 116.000000 1.000000 4.000000 4.000000 179.808199 95.000000 202.000000 0.927468 0.130533 0.350377
11.35000038 -8.50000000 -0.75999999 129 174 104 116.000000 1.000000 4.000000 4.000000 179.808199 95.000000 202.000000 0.777079 -0.224903 0.587850
11.35000038 -8.53999996 -0.76999998 129 174 104 116.000000 1.000000 4.000000 4.000000 179.808199 95.000000 202.000000 0.889909 -0.254047 0.378843
11.34000015 -8.60000038 -0.69000000 129 174 104 116.000000 1.000000 4.000000 4.000000 179.808199 95.000000 202.000000 0.815029 -0.134606 0.563568
11.34000015 -8.60999966 -0.69999999 129 174 104 116.000000 1.000000 4.000000 4.000000 179.808199 95.000000 202.000000 0.947916 -0.101515 0.301909
11.35000038 -8.64000034 -0.75000000 129 174 104 116.000000 1.000000 4.000000 4.000000 179.808199 95.000000 202.000000 0.703692 -0.117530 0.700717
11.31999969 -8.63000011 -0.75000000 129 174 104 0.000000 0.000000 0.000000 0.000000 51.808199 0.000000 202.000000 0.843351 -0.522907 0.123808
11.35000038 -8.64000034 -0.77999997 129 174 104 116.000000 1.000000 4.000000 4.000000 179.808199 95.000000 202.000000 0.866282 0.074173 0.494019
11.35999966 -8.47999954 -0.86000001 129 174 104 116.000000 1.000000 4.000000 4.000000 179.808199 95.000000 202.000000 0.951128 0.296167 0.087415
11.35999966 -8.47999954 -0.88000000 129 174 104 116.000000 1.000000 4.000000 4.000000 179.808199 95.000000 202.000000 0.946001 0.245057 0.212200
11.35999966 -8.47999954 -0.88000000 129 174 104 116.000000 1.000000 4.000000 4.000000 179.808199 95.000000 202.000000 0.946001 0.245057 0.212200
11.32999992 -8.52000046 -0.95999998 129 174 104 0.000000 0.000000 0.000000 0.000000 51.808199 0.000000 202.000000 0.993061 0.027739 0.114285
11.32999992 -8.52000046 -0.97000003 129 174 104 116.000000 1.000000 4.000000 4.000000 179.808199 95.000000 202.000000 0.946165 0.172896 0.273639
11.30000019 -8.63000011 -0.88999999 129 174 104 0.000000 0.000000 0.000000 0.000000 51.808199 0.000000 202.000000 0.732495 -0.586321 0.345946
11.30000019 -8.63000011 -0.91000003 129 174 104 0.000000 0.000000 0.000000 0.000000 51.808199 0.000000 202.000000 0.861656 -0.464428 0.204587
11.81000042 -8.55000019 -1.15999997 129 174 104 116.000000 1.000000 4.000000 4.000000 179.808199 95.000000 202.000000 0.825583 0.218222 0.520377
11.81000042 -8.52000046 -1.22000003 129 174 104 116.000000 1.000000 4.000000 4.000000 179.808199 95.000000 202.000000 0.890077 0.300682 0.342568
11.81000042 -8.55000019 -1.25999999 129 174 104 116.000000 1.000000 4.000000 4.000000 179.808199 95.000000 202.000000 0.716368 0.041138 0.696509
11.82999992 -8.55000019 -1.28999996 129 174 104 116.000000 1.000000 4.000000 4.000000 179.808199 95.000000 202.000000 0.970810 -0.125634 0.204314
11.82999992 -8.56000042 -1.33000004 129 174 104 116.000000 1.000000 4.000000 4.000000 179.808199 95.000000 202.000000 0.994569 -0.001073 0.104070
11.81999969 -8.56000042 -1.27999997 129 174 104 116.000000 1.000000 4.000000 4.000000 179.808199 95.000000 202.000000 0.907532 -0.318149 0.274166
11.81000042 -8.60000038 -1.24000001 129 174 104 116.000000 1.000000 4.000000 4.000000 179.808199 95.000000 202.000000 0.876016 0.394888 0.276875
11.81000042 -8.59000015 -1.24000001 129 174 104 116.000000 1.000000 4.000000 4.000000 179.808199 95.000000 202.000000 0.789790 -0.052464 0.611130
11.81999969 -8.63000011 -1.22000003 129 174 104 116.000000 1.000000 4.000000 4.000000 179.808199 95.000000 202.000000 0.973030 -0.218839 0.072946
11.81999969 -8.64000034 -1.23000002 129 174 104 116.000000 1.000000 4.000000 4.000000 179.808199 95.000000 202.000000 0.906403 -0.267967 0.326539
11.81000042 -8.64000034 -1.22000003 129 174 104 116.000000 1.000000 4.000000 4.000000 179.808199 95.000000 202.000000 0.866965 -0.389905 0.310395
11.81999969 -8.63000011 -1.21000004 129 174 104 116.000000 1.000000 4.000000 4.000000 179.808199 95.000000 202.000000 0.900015 -0.377802 0.217346
11.81000042 -8.61999989 -1.25000000 129 174 104 116.000000 1.000000 4.000000 4.000000 179.808199 95.000000 202.000000 0.914730 0.174437 0.364474
11.85000038 -8.61999989 -1.35000002 129 174 104 116.000000 1.000000 4.000000 4.000000 179.808199 95.000000 202.000000 0.829594 0.191910 0.524352
11.81000042 -8.57999992 -1.28999996 129 174 104 116.000000 1.000000 4.000000 4.000000 179.808199 95.000000 202.000000 0.936746 -0.233140 0.261060
11.81999969 -8.56999969 -1.33000004 129 174 104 116.000000 1.000000 4.000000 4.000000 179.808199 95.000000 202.000000 0.990378 0.063265 0.123078
11.82999992 -8.60000038 -1.33000004 129 174 104 116.000000 1.000000 4.000000 4.000000 179.808199 95.000000 202.000000 0.780315 0.154860 0.605910
11.82999992 -8.60999966 -1.33000004 129 174 104 116.000000 1.000000 4.000000 4.000000 179.808199 95.000000 202.000000 0.969985 -0.065657 0.234134
11.72000027 -8.39999962 -1.02999997 129 174 104 116.000000 1.000000 4.000000 4.000000 179.808199 95.000000 202.000000 0.975028 -0.067286 0.211643
11.72000027 -8.42000008 -1.17999995 129 174 104 116.000000 1.000000 4.000000 4.000000 179.808199 95.000000 202.000000 0.977116 -0.097588 0.189000
11.72000027 -8.43000031 -1.16999996 129 174 104 116.000000 1.000000 4.000000 4.000000 179.808199 95.000000 202.000000 0.818077 0.192757 0.541843
11.73999977 -8.47000027 -1.15999997 129 174 104 116.000000 1.000000 4.000000 4.000000 179.808199 95.000000 202.000000 0.742832 0.391913 0.542775
11.72000027 -8.46000004 -1.16999996 129 174 104 116.000000 1.000000 4.000000 4.000000 179.808199 95.000000 202.000000 0.902554 0.408197 0.137007
11.64999962 -8.40999985 -1.04999995 129 174 104 116.000000 1.000000 4.000000 4.000000 179.808199 95.000000 202.000000 0.853164 0.430439 0.294673
11.71000004 -8.43999958 -1.11000001 129 174 104 116.000000 1.000000 4.000000 4.000000 179.808199 95.000000 202.000000 0.888443 0.450498 0.087868
11.67000008 -8.39999962 -1.11000001 129 174 104 116.000000 1.000000 4.000000 4.000000 179.808199 95.000000 202.000000 0.826411 0.394964 0.401309
11.72999954 -8.47000027 -1.25999999 129 174 104 116.000000 1.000000 4.000000 4.000000 179.808199 95.000000 202.000000 0.840139 0.492495 0.227188
11.64999962 -8.43999958 -1.23000002 129 174 104 116.000000 1.000000 4.000000 4.000000 179.808199 95.000000 202.000000 0.891785 0.187668 0.411705
11.64999962 -8.43999958 -1.24000001 129 174 104 116.000000 1.000000 4.000000 4.000000 179.808199 95.000000 202.000000 0.950709 0.260265 0.168565
11.64999962 -8.44999981 -1.24000001 129 174 104 116.000000 1.000000 4.000000 4.000000 179.808199 95.000000 202.000000 0.808395 0.411401 0.421006
11.68000031 -8.43000031 -1.32000005 129 174 104 116.000000 1.000000 4.000000 4.000000 179.808199 95.000000 202.000000 0.647129 0.443125 0.620374
11.68000031 -8.42000008 -1.33000004 129 174 104 116.000000 1.000000 4.000000 4.000000 179.808199 95.000000 202.000000 0.761546 0.587388 0.273903
11.78999996 -8.51000023 -1.13000000 129 174 104 116.000000 1.000000 4.000000 4.000000 179.808199 95.000000 202.000000 0.946748 -0.029150 0.320652
11.77000046 -8.47999954 -1.13000000 129 174 104 116.000000 1.000000 4.000000 4.000000 179.808199 95.000000 202.000000 0.997432 -0.054757 0.046167
11.78999996 -8.52999973 -1.14999998 129 174 104 116.000000 1.000000 4.000000 4.000000 179.808199 95.000000 202.000000 0.872872 -0.321424 0.367124
11.77999973 -8.59000015 -1.14999998 129 174 104 116.000000 1.000000 4.000000 4.000000 179.808199 95.000000 202.000000 0.834930 0.078230 0.544767
11.78999996 -8.64000034 -1.13000000 129 174 104 116.000000 1.000000 4.000000 4.000000 179.808199 95.000000 202.000000 0.909478 -0.178469 0.375499
11.78999996 -8.59000015 -1.15999997 129 174 104 116.000000 1.000000 4.000000 4.000000 179.808199 95.000000 202.000000 0.747826 0.302653 0.590895
11.76000023 -8.50000000 -1.19000006 129 174 104 116.000000 1.000000 4.000000 4.000000 179.808199 95.000000 202.000000 0.761298 0.450230 0.466602
11.78999996 -8.50000000 -1.21000004 129 174 104 116.000000 1.000000 4.000000 4.000000 179.808199 95.000000 202.000000 0.749665 0.405180 0.523289
11.80000019 -8.51000023 -1.25999999 129 174 104 116.000000 1.000000 4.000000 4.000000 179.808199 95.000000 202.000000 0.763307 -0.032332 0.645226
11.72999954 -8.47999954 -1.26999998 129 174 104 116.000000 1.000000 4.000000 4.000000 179.808199 95.000000 202.000000 0.928877 0.348842 0.124489
11.76000023 -8.47999954 -1.32000005 129 174 104 116.000000 1.000000 4.000000 4.000000 179.808199 95.000000 202.000000 0.982869 -0.005721 0.184216
11.76000023 -8.50000000 -1.34000003 129 174 104 116.000000 1.000000 4.000000 4.000000 179.808199 95.000000 202.000000 0.897191 -0.017228 0.441307
11.78999996 -8.52999973 -1.30999994 129 174 104 116.000000 1.000000 4.000000 4.000000 179.808199 95.000000 202.000000 0.915355 -0.080009 0.394620
11.80000019 -8.63000011 -1.21000004 129 174 104 116.000000 1.000000 4.000000 4.000000 179.808199 95.000000 202.000000 0.786895 -0.279119 0.550353
11.80000019 -8.56999969 -1.27999997 129 174 104 116.000000 1.000000 4.000000 4.000000 179.808199 95.000000 202.000000 0.772748 0.411590 0.483171
11.69999981 -8.47999954 -1.35000002 129 174 104 116.000000 1.000000 4.000000 4.000000 179.808199 95.000000 202.000000 0.943680 0.318080 0.091068
11.81999969 -8.56000042 -1.37000000 129 174 104 116.000000 1.000000 4.000000 4.000000 179.808199 95.000000 202.000000 0.813747 0.061067 0.578002
11.85999966 -8.60000038 -1.41999996 129 174 104 116.000000 1.000000 4.000000 4.000000 179.808199 95.000000 202.000000 0.835167 -0.347593 0.426234
11.88000011 -8.64000034 -1.44000006 129 174 104 116.000000 1.000000 4.000000 4.000000 179.808199 95.000000 202.000000 0.842893 -0.014979 0.537872
11.81999969 -8.56999969 -1.38000000 129 174 104 116.000000 1.000000 4.000000 4.000000 179.808199 95.000000 202.000000 0.903203 -0.244465 0.352791
11.67000008 -8.43000031 -1.37000000 129 174 104 116.000000 1.000000 4.000000 4.000000 179.808199 95.000000 202.000000 0.852021 0.439107 0.285034
11.64000034 -8.42000008 -1.44000006 129 174 104 116.000000 1.000000 4.000000 4.000000 179.808199 95.000000 202.000000 0.691617 0.632756 0.348261
11.64000034 -8.39999962 -1.40999997 129 174 104 116.000000 1.000000 4.000000 4.000000 179.808199 95.000000 202.000000 0.693011 0.699131 0.175930
11.65999985 -8.43000031 -1.40999997 129 174 104 116.000000 1.000000 4.000000 4.000000 179.808199 95.000000 202.000000 0.910107 0.413445 -0.027739
11.64999962 -8.43999958 -1.40999997 129 174 104 116.000000 1.000000 4.000000 4.000000 179.808199 95.000000 202.000000 0.855822 0.517255 0.004031
11.64000034 -8.46000004 -1.51999998 129 174 104 116.000000 1.000000 4.000000 4.000000 179.808199 95.000000 202.000000 0.787161 0.585403 0.194115
11.64000034 -8.46000004 -1.52999997 129 174 104 116.000000 1.000000 4.000000 4.000000 179.808199 95.000000 202.000000 0.894356 0.411780 0.174826
11.64999962 -8.47000027 -1.52999997 129 174 104 116.000000 1.000000 4.000000 4.000000 179.808199 95.000000 202.000000 0.855347 0.516514 0.039944
11.64000034 -8.44999981 -1.52999997 129 174 104 116.000000 1.000000 4.000000 4.000000 179.808199 95.000000 202.000000 0.952449 0.298682 -0.060249
11.64999962 -8.43999958 -1.47000003 129 174 104 116.000000 1.000000 4.000000 4.000000 179.808199 95.000000 202.000000 0.991151 0.127418 -0.037210
11.77999973 -8.52000046 -1.50000000 129 174 104 116.000000 1.000000 4.000000 4.000000 179.808199 95.000000 202.000000 0.996873 0.046542 0.063860
11.68999958 -8.51000023 -1.57000005 129 174 104 116.000000 1.000000 4.000000 4.000000 179.808199 95.000000 202.000000 0.779368 0.194459 0.595627
11.57999992 -8.27999973 -1.52999997 129 174 104 116.000000 1.000000 4.000000 4.000000 179.808199 95.000000 202.000000 0.806711 0.582867 0.097387
11.57999992 -8.27000046 -1.55999994 129 174 104 116.000000 1.000000 4.000000 4.000000 179.808199 95.000000 202.000000 0.561340 0.697927 0.444741
