//X Y Z R G B PointSourceId ScanDirectionFlag NumberOfReturns ReturnNumber GpsTime Intensity Classification Nx Ny Nz
6.82000017 -20.59000015 0.23000000 68 0 221 0.000000 0.000000 0.000000 0.000000 51.808199 0.000000 28.000000 0.433641 0.443386 0.784452
6.80999994 -20.63999939 0.23999999 68 0 221 0.000000 0.000000 0.000000 0.000000 51.808199 0.000000 28.000000 0.236811 0.076431 0.968545
6.82000017 -20.63999939 0.23999999 68 0 221 0.000000 0.000000 0.000000 0.000000 51.808199 0.000000 28.000000 0.366370 0.113890 0.923473
6.80000019 -20.65999985 0.20000000 68 0 221 0.000000 0.000000 0.000000 0.000000 51.808199 0.000000 28.000000 0.395601 0.080208 0.914913
6.76000023 -20.60000038 0.22000000 68 0 221 0.000000 0.000000 0.000000 0.000000 51.808199 0.000000 28.000000 0.420062 -0.019752 0.907281
6.75000000 -20.67000008 0.23000000 68 0 221 0.000000 0.000000 0.000000 0.000000 51.808199 0.000000 28.000000 -0.040479 0.158447 0.986537
6.75000000 -20.67000008 0.22000000 68 0 221 0.000000 0.000000 0.000000 0.000000 51.808199 0.000000 28.000000 0.326404 0.135205 0.935510
6.80999994 -20.57999992 0.18000001 68 0 221 0.000000 0.000000 0.000000 0.000000 51.808199 0.000000 28.000000 -0.076914 -0.663206 -0.744474
6.80000019 -20.54999924 0.18000001 68 0 221 0.000000 0.000000 0.000000 0.000000 51.808199 0.000000 28.000000 0.314412 0.220515 0.923319
6.80999994 -20.55999947 0.18000001 68 0 221 0.000000 0.000000 0.000000 0.000000 51.808199 0.000000 28.000000 0.355773 0.180013 0.917072
6.78999996 -20.57999992 0.18000001 68 0 221 0.000000 0.000000 0.000000 0.000000 51.808199 0.000000 28.000000 0.025200 0.428406 0.903235
6.78999996 -20.55999947 0.18000001 68 0 221 0.000000 0.000000 0.000000 0.000000 51.808199 0.000000 28.000000 0.453579 0.244235 0.857097
6.82000017 -20.68000031 0.23000000 68 0 221 0.000000 0.000000 0.000000 0.000000 51.808199 0.000000 28.000000 0.362027 0.134546 0.922406
6.76000023 -20.70000076 0.23000000 68 0 221 0.000000 0.000000 0.000000 0.000000 51.808199 0.000000 28.000000 0.011547 0.373356 0.927616
6.76999998 -20.70000076 0.23000000 68 0 221 0.000000 0.000000 0.000000 0.000000 51.808199 0.000000 28.000000 -0.116952 0.372871 0.920483
6.80000019 -20.68000031 0.23999999 68 0 221 0.000000 0.000000 0.000000 0.000000 51.808199 0.000000 28.000000 -0.141549 0.166602 0.975811
6.76999998 -20.70999908 0.23000000 68 0 221 0.000000 0.000000 0.000000 0.000000 51.808199 0.000000 28.000000 -0.163879 0.386185 0.907747
6.82000017 -20.68000031 0.23999999 68 0 221 0.000000 0.000000 0.000000 0.000000 51.808199 0.000000 28.000000 0.253680 0.101730 0.961924
7.69999981 -19.93000031 -0.22000000 68 0 221 0.000000 0.000000 0.000000 0.000000 51.808199 0.000000 221.000000 -0.544949 0.797905 0.257641
7.51999998 -19.93000031 -0.07000000 68 0 221 0.000000 0.000000 0.000000 0.000000 51.808199 0.000000 221.000000 -0.587185 0.766646 0.259747
7.51999998 -19.90999985 -0.14000000 68 0 221 0.000000 0.000000 0.000000 0.000000 51.808199 0.000000 221.000000 -0.388365 0.626342 0.675920
7.65000010 -19.95000076 -0.25000000 68 0 221 0.000000 0.000000 0.000000 0.000000 51.808199 0.000000 221.000000 0.684284 -0.533708 -0.496901
7.57000017 -19.93000031 -0.20999999 68 0 221 0.000000 0.000000 0.000000 0.000000 51.808199 0.000000 221.000000 0.704639 -0.276423 -0.653509
7.53000021 -19.92000008 -0.20999999 68 0 221 0.000000 0.000000 0.000000 0.000000 51.808199 0.000000 221.000000 -0.155878 0.664375 0.730964
7.55000019 -19.92000008 -0.20999999 68 0 221 0.000000 0.000000 0.000000 0.000000 51.808199 0.000000 221.000000 -0.159181 0.729201 0.665528
7.57999992 -19.94000053 -0.25000000 68 0 221 0.000000 0.000000 0.000000 0.000000 51.808199 0.000000 221.000000 -0.479496 0.489451 0.728369
7.65000010 -19.98999977 -0.20000000 68 0 221 0.000000 0.000000 0.000000 0.000000 51.808199 0.000000 221.000000 -0.459961 0.722321 0.516418
7.50000000 -19.97999954 -0.13000000 68 0 221 0.000000 0.000000 0.000000 0.000000 51.808199 0.000000 221.000000 -0.697819 0.461327 0.547929
7.34999990 -19.87000084 -0.05000000 68 0 221 0.000000 0.000000 0.000000 0.000000 51.808199 0.000000 221.000000 -0.429122 0.202026 0.880363
7.36000013 -19.86000061 -0.05000000 68 0 221 0.000000 0.000000 0.000000 0.000000 51.808199 0.000000 221.000000 -0.169208 0.469368 0.866639
7.42000008 -19.87999916 -0.10000000 68 0 221 0.000000 0.000000 0.000000 0.000000 51.808199 0.000000 221.000000 -0.194076 0.837986 0.510013
7.34000015 -19.96999931 -0.14000000 68 0 221 0.000000 0.000000 0.000000 0.000000 51.808199 0.000000 221.000000 -0.312761 0.330719 0.890396
7.48000002 -19.93000031 -0.20999999 68 0 221 0.000000 0.000000 0.000000 0.000000 51.808199 0.000000 221.000000 -0.445998 0.800220 0.400915
7.46999979 -19.95000076 -0.16000000 68 0 221 0.000000 0.000000 0.000000 0.000000 51.808199 0.000000 221.000000 0.452342 -0.525247 -0.720765
7.46999979 -19.95000076 -0.17000000 68 0 221 0.000000 0.000000 0.000000 0.000000 51.808199 0.000000 221.000000 0.650408 -0.443080 -0.616968
7.42999983 -19.94000053 -0.16000000 68 0 221 0.000000 0.000000 0.000000 0.000000 51.808199 0.000000 221.000000 -0.413561 0.410368 0.812752
7.28000021 -19.77000046 -0.03000000 68 0 221 0.000000 0.000000 0.000000 0.000000 51.808199 0.000000 221.000000 0.100720 0.283846 0.953565
7.23999977 -19.79999924 -0.09000000 68 0 221 0.000000 0.000000 0.000000 0.000000 51.808199 0.000000 221.000000 0.007939 0.168990 0.985586
7.26999998 -19.86000061 -0.05000000 68 0 221 0.000000 0.000000 0.000000 0.000000 51.808199 0.000000 221.000000 0.012448 0.781483 0.623803
7.28000021 -19.85000038 -0.07000000 68 0 221 0.000000 0.000000 0.000000 0.000000 51.808199 0.000000 221.000000 0.050031 0.716157 0.696144
7.26999998 -19.88999939 -0.04000000 68 0 221 0.000000 0.000000 0.000000 0.000000 51.808199 0.000000 221.000000 -0.323853 0.385247 0.864120
7.28000021 -19.88999939 -0.05000000 68 0 221 0.000000 0.000000 0.000000 0.000000 51.808199 0.000000 221.000000 -0.332693 0.621567 0.709203
7.26000023 -19.84000015 -0.05000000 68 0 221 0.000000 0.000000 0.000000 0.000000 51.808199 0.000000 221.000000 0.151288 0.266427 0.951908
7.28999996 -19.95000076 -0.06000000 68 0 221 0.000000 0.000000 0.000000 0.000000 51.808199 0.000000 221.000000 0.010481 0.201478 0.979437
7.30999994 -19.89999962 -0.06000000 68 0 221 0.000000 0.000000 0.000000 0.000000 51.808199 0.000000 221.000000 -0.004108 0.598460 0.801142
7.26999998 -19.89999962 -0.08000000 68 0 221 0.000000 0.000000 0.000000 0.000000 51.808199 0.000000 221.000000 -0.171095 0.404015 0.898609
7.32999992 -19.95999908 -0.10000000 68 0 221 0.000000 0.000000 0.000000 0.000000 51.808199 0.000000 221.000000 0.136349 0.732691 0.666763
7.23999977 -19.88999939 -0.06000000 68 0 221 0.000000 0.000000 0.000000 0.000000 51.808199 0.000000 221.000000 0.106485 0.475632 0.873175
7.23999977 -19.84000015 -0.05000000 68 0 221 0.000000 0.000000 0.000000 0.000000 51.808199 0.000000 221.000000 0.006565 0.437198 0.899341
7.23000002 -19.85000038 -0.08000000 68 0 221 0.000000 0.000000 0.000000 0.000000 51.808199 0.000000 221.000000 0.141283 0.327831 0.934112
7.44999981 -20.01000023 -0.13000000 68 0 221 0.000000 0.000000 0.000000 0.000000 51.808199 0.000000 221.000000 -0.255533 0.503323 0.825450
7.36999989 -19.98999977 -0.12000000 68 0 221 0.000000 0.000000 0.000000 0.000000 51.808199 0.000000 221.000000 -0.203795 0.562353 0.801391
7.48000002 -20.00000000 -0.16000000 68 0 221 0.000000 0.000000 0.000000 0.000000 51.808199 0.000000 221.000000 -0.361133 0.714095 0.599709
7.48000002 -20.03000069 -0.20000000 68 0 221 0.000000 0.000000 0.000000 0.000000 51.808199 0.000000 221.000000 -0.372816 0.308905 0.874977
7.46000004 -20.06999969 -0.22000000 68 0 221 0.000000 0.000000 0.000000 0.000000 51.808199 0.000000 221.000000 -0.267053 0.319587 0.909146
7.44999981 -20.10000038 -0.17000000 68 0 221 0.000000 0.000000 0.000000 0.000000 51.808199 0.000000 221.000000 -0.639481 0.315693 0.701001
7.44000006 -20.07999992 -0.22000000 68 0 221 0.000000 0.000000 0.000000 0.000000 51.808199 0.000000 221.000000 -0.391075 0.183271 0.901927
7.38999987 -20.09000015 -0.16000000 68 0 221 0.000000 0.000000 0.000000 0.000000 51.808199 0.000000 221.000000 -0.421252 0.540193 0.728518
7.36999989 -20.12999916 -0.20000000 68 0 221 0.000000 0.000000 0.000000 0.000000 51.808199 0.000000 221.000000 -0.328403 0.421787 0.845131
7.42000008 -20.15999985 -0.23000000 68 0 221 0.000000 0.000000 0.000000 0.000000 51.808199 0.000000 221.000000 -0.202659 0.478876 0.854171
7.38999987 -20.17000008 -0.23999999 68 0 221 0.000000 0.000000 0.000000 0.000000 51.808199 0.000000 221.000000 -0.250964 0.802774 0.540898
7.40999985 -20.20999908 -0.22000000 68 0 221 0.000000 0.000000 0.000000 0.000000 51.808199 0.000000 221.000000 -0.456143 0.265699 0.849316
7.42000008 -20.20999908 -0.22000000 68 0 221 0.000000 0.000000 0.000000 0.000000 51.808199 0.000000 221.000000 -0.431874 0.359104 0.827363
7.26000023 -20.04999924 -0.06000000 68 0 221 0.000000 0.000000 0.000000 0.000000 51.808199 0.000000 221.000000 -0.241470 0.322442 0.915272
7.28999996 -20.02000046 -0.07000000 68 0 221 0.000000 0.000000 0.000000 0.000000 51.808199 0.000000 221.000000 -0.474745 0.665985 0.575397
7.30999994 -20.00000000 -0.11000000 68 0 221 0.000000 0.000000 0.000000 0.000000 51.808199 0.000000 221.000000 -0.196744 0.800704 0.565831
7.32999992 -20.03000069 -0.13000000 68 0 221 0.000000 0.000000 0.000000 0.000000 51.808199 0.000000 221.000000 -0.006918 0.640577 0.767863
7.30999994 -20.11000061 -0.14000000 68 0 221 0.000000 0.000000 0.000000 0.000000 51.808199 0.000000 221.000000 -0.362587 0.180582 0.914287
7.23000002 -20.00000000 -0.05000000 68 0 221 0.000000 0.000000 0.000000 0.000000 51.808199 0.000000 221.000000 0.229271 0.330207 0.915641
7.25000000 -20.04000092 -0.12000000 68 0 221 0.000000 0.000000 0.000000 0.000000 51.808199 0.000000 221.000000 0.268726 0.653529 0.707592
7.23999977 -20.09000015 -0.11000000 68 0 221 0.000000 0.000000 0.000000 0.000000 51.808199 0.000000 221.000000 -0.215909 0.759563 0.613553
7.23999977 -20.09000015 -0.11000000 68 0 221 0.000000 0.000000 0.000000 0.000000 51.808199 0.000000 221.000000 -0.215909 0.759563 0.613553
7.17999983 -20.11000061 -0.10000000 68 0 221 0.000000 0.000000 0.000000 0.000000 51.808199 0.000000 221.000000 -0.020898 0.784355 0.619961
7.19999981 -20.11000061 -0.10000000 68 0 221 0.000000 0.000000 0.000000 0.000000 51.808199 0.000000 221.000000 0.125456 0.415837 0.900744
7.17999983 -20.10000038 -0.10000000 68 0 221 0.000000 0.000000 0.000000 0.000000 51.808199 0.000000 221.000000 0.230358 0.637794 0.734952
7.19000006 -20.20999908 -0.14000000 68 0 221 0.000000 0.000000 0.000000 0.000000 51.808199 0.000000 221.000000 -0.184803 0.216712 0.958584
7.32000017 -20.21999931 -0.23000000 68 0 221 0.000000 0.000000 0.000000 0.000000 51.808199 0.000000 221.000000 -0.134574 0.808921 0.572308
7.28000021 -20.21999931 -0.20000000 68 0 221 0.000000 0.000000 0.000000 0.000000 51.808199 0.000000 221.000000 -0.041138 0.716368 0.696509
7.28999996 -20.22999954 -0.17000000 68 0 221 0.000000 0.000000 0.000000 0.000000 51.808199 0.000000 221.000000 0.143063 0.463871 0.874275
7.28000021 -20.26000023 -0.19000000 68 0 221 0.000000 0.000000 0.000000 0.000000 51.808199 0.000000 221.000000 0.195422 0.613963 0.764761
7.28999996 -20.26000023 -0.18000001 68 0 221 0.000000 0.000000 0.000000 0.000000 51.808199 0.000000 221.000000 0.099163 0.434363 0.895263
7.26999998 -20.31999969 -0.17000000 68 0 221 0.000000 0.000000 0.000000 0.000000 51.808199 0.000000 221.000000 -0.031985 0.568774 0.821872
7.19999981 -20.20000076 -0.17000000 68 0 221 0.000000 0.000000 0.000000 0.000000 51.808199 0.000000 221.000000 0.047731 0.159490 0.986045
6.82999992 -19.76000023 0.03000000 68 0 221 0.000000 0.000000 0.000000 0.000000 51.808199 0.000000 221.000000 0.643203 0.219592 0.733532
6.96999979 -19.87000084 0.03000000 68 0 221 0.000000 0.000000 0.000000 0.000000 51.808199 0.000000 221.000000 0.721224 0.439367 0.535530
6.98999977 -19.94000053 0.04000000 68 0 221 0.000000 0.000000 0.000000 0.000000 51.808199 0.000000 221.000000 0.706673 0.199477 0.678839
6.98000002 -19.94000053 0.05000000 68 0 221 0.000000 0.000000 0.000000 0.000000 51.808199 0.000000 221.000000 0.341434 0.270487 0.900144
6.98999977 -19.94000053 0.04000000 68 0 221 0.000000 0.000000 0.000000 0.000000 51.808199 0.000000 221.000000 0.706673 0.199477 0.678839
7.11000013 -19.96999931 -0.02000000 68 0 221 0.000000 0.000000 0.000000 0.000000 51.808199 0.000000 221.000000 0.315934 0.082589 0.945180
7.01000023 -19.87000084 -0.02000000 68 0 221 0.000000 0.000000 0.000000 0.000000 51.808199 0.000000 221.000000 0.622249 0.145441 0.769190
7.01000023 -19.88999939 -0.02000000 68 0 221 0.000000 0.000000 0.000000 0.000000 51.808199 0.000000 221.000000 0.448235 0.415871 0.791288
7.01999998 -19.87000084 -0.02000000 68 0 221 0.000000 0.000000 0.000000 0.000000 51.808199 0.000000 221.000000 0.149105 0.134318 0.979656
7.01999998 -19.88999939 -0.03000000 68 0 221 0.000000 0.000000 0.000000 0.000000 51.808199 0.000000 221.000000 0.123023 0.626974 0.769265
7.03999996 -19.87000084 -0.03000000 68 0 221 0.000000 0.000000 0.000000 0.000000 51.808199 0.000000 221.000000 0.395189 0.071485 0.915814
7.03000021 -19.85000038 -0.02000000 68 0 221 0.000000 0.000000 0.000000 0.000000 51.808199 0.000000 221.000000 0.281134 0.576563 0.767163
7.05999994 -19.93000031 0.01000000 68 0 221 0.000000 0.000000 0.000000 0.000000 51.808199 0.000000 221.000000 0.555657 0.140766 0.819409
7.03999996 -19.96999931 0.00000000 68 0 221 0.000000 0.000000 0.000000 0.000000 51.808199 0.000000 221.000000 0.265563 0.010914 0.964032
7.03999996 -19.96999931 0.00000000 68 0 221 0.000000 0.000000 0.000000 0.000000 51.808199 0.000000 221.000000 0.265563 0.010914 0.964032
7.05999994 -19.95999908 0.00000000 68 0 221 0.000000 0.000000 0.000000 0.000000 51.808199 0.000000 221.000000 0.400694 0.130753 0.906834
7.05000019 -19.95000076 0.00000000 68 0 221 0.000000 0.000000 0.000000 0.000000 51.808199 0.000000 221.000000 0.131626 0.146388 0.980431
6.98999977 -19.79999924 -0.04000000 68 0 221 0.000000 0.000000 0.000000 0.000000 51.808199 0.000000 221.000000 0.450449 0.634647 0.627949
6.94999981 -19.75000000 -0.07000000 68 0 221 0.000000 0.000000 0.000000 0.000000 51.808199 0.000000 221.000000 0.556711 -0.115434 0.822647
6.92000008 -19.78000069 0.00000000 68 0 221 0.000000 0.000000 0.000000 0.000000 51.808199 0.000000 221.000000 0.584707 0.160832 0.795142
6.92999983 -19.79999924 -0.05000000 68 0 221 0.000000 0.000000 0.000000 0.000000 51.808199 0.000000 221.000000 0.271487 0.237727 0.932620
6.86000013 -19.70000076 -0.04000000 68 0 221 0.000000 0.000000 0.000000 0.000000 51.808199 0.000000 221.000000 0.422714 0.140905 0.895242
6.84999990 -19.71999931 -0.03000000 68 0 221 0.000000 0.000000 0.000000 0.000000 51.808199 0.000000 221.000000 0.685958 0.351983 0.636844
6.84999990 -19.70999908 -0.04000000 68 0 221 0.000000 0.000000 0.000000 0.000000 51.808199 0.000000 221.000000 0.907842 0.115746 0.403021
6.88000011 -19.79000092 -0.01000000 68 0 221 0.000000 0.000000 0.000000 0.000000 51.808199 0.000000 221.000000 0.348832 0.205280 0.914427
6.96000004 -19.87000084 -0.02000000 68 0 221 0.000000 0.000000 0.000000 0.000000 51.808199 0.000000 221.000000 0.647519 0.223121 0.728654
6.92999983 -19.82999992 0.00000000 68 0 221 0.000000 0.000000 0.000000 0.000000 51.808199 0.000000 221.000000 0.482629 0.159898 0.861105
6.94999981 -19.87000084 -0.01000000 68 0 221 0.000000 0.000000 0.000000 0.000000 51.808199 0.000000 221.000000 0.424104 0.166457 0.890184
6.98000002 -19.95000076 0.00000000 68 0 221 0.000000 0.000000 0.000000 0.000000 51.808199 0.000000 221.000000 0.444383 0.142375 0.884451
6.90000010 -19.86000061 0.01000000 68 0 221 0.000000 0.000000 0.000000 0.000000 51.808199 0.000000 221.000000 0.875270 0.097566 0.473692
7.05000019 -20.22999954 0.07000000 68 0 221 0.000000 0.000000 0.000000 0.000000 51.808199 0.000000 32.000000 0.387409 0.185784 0.902994
7.01000023 -20.21999931 0.08000000 68 0 221 0.000000 0.000000 0.000000 0.000000 51.808199 0.000000 32.000000 0.153903 0.266318 0.951519
7.01000023 -20.17000008 0.06000000 68 0 221 0.000000 0.000000 0.000000 0.000000 51.808199 0.000000 32.000000 0.448302 0.578292 0.681618
7.01999998 -20.19000053 0.07000000 68 0 221 0.000000 0.000000 0.000000 0.000000 51.808199 0.000000 32.000000 -0.146081 0.357551 0.922398
7.00000000 -20.20999908 0.07000000 68 0 221 0.000000 0.000000 0.000000 0.000000 51.808199 0.000000 32.000000 0.017779 0.219280 0.975500
7.07000017 -20.29999924 0.07000000 68 0 221 0.000000 0.000000 0.000000 0.000000 51.808199 0.000000 32.000000 0.220493 0.494209 0.840916
7.03999996 -20.29999924 0.06000000 68 0 221 0.000000 0.000000 0.000000 0.000000 51.808199 0.000000 32.000000 0.227195 0.452885 0.862136
7.05999994 -20.29999924 0.07000000 68 0 221 0.000000 0.000000 0.000000 0.000000 51.808199 0.000000 32.000000 -0.118600 0.557861 0.821417
7.01999998 -20.29000092 0.07000000 68 0 221 0.000000 0.000000 0.000000 0.000000 51.808199 0.000000 32.000000 -0.262055 0.384847 0.884997
7.01000023 -20.31999969 0.07000000 68 0 221 0.000000 0.000000 0.000000 0.000000 51.808199 0.000000 32.000000 -0.167791 0.359552 0.917915
6.92000008 -20.06999969 0.12000000 68 0 221 0.000000 0.000000 0.000000 0.000000 51.808199 0.000000 32.000000 0.147405 0.422179 0.894448
6.98000002 -20.01000023 0.02000000 68 0 221 0.000000 0.000000 0.000000 0.000000 51.808199 0.000000 221.000000 0.216176 0.161149 0.962964
6.98000002 -20.01000023 0.02000000 68 0 221 0.000000 0.000000 0.000000 0.000000 51.808199 0.000000 221.000000 0.216176 0.161149 0.962964
6.92999983 -20.04999924 0.08000000 68 0 221 0.000000 0.000000 0.000000 0.000000 51.808199 0.000000 32.000000 0.277924 0.598727 0.751188
6.94000006 -19.98999977 0.05000000 68 0 221 0.000000 0.000000 0.000000 0.000000 51.808199 0.000000 221.000000 0.424882 0.156990 0.891532
6.94000006 -20.02000046 0.05000000 68 0 221 0.000000 0.000000 0.000000 0.000000 51.808199 0.000000 221.000000 0.622326 0.461293 0.632391
6.92000008 -20.10000038 0.10000000 68 0 221 0.000000 0.000000 0.000000 0.000000 51.808199 0.000000 32.000000 0.199973 0.445866 0.872476
6.94000006 -20.07999992 0.11000000 68 0 221 0.000000 0.000000 0.000000 0.000000 51.808199 0.000000 32.000000 0.618453 0.362541 0.697195
6.88000011 -20.04000092 0.11000000 68 0 221 0.000000 0.000000 0.000000 0.000000 51.808199 0.000000 32.000000 0.525791 -0.152553 0.836822
6.88000011 -20.04000092 0.11000000 68 0 221 0.000000 0.000000 0.000000 0.000000 51.808199 0.000000 32.000000 0.525791 -0.152553 0.836822
6.82999992 -20.00000000 0.10000000 68 0 221 0.000000 0.000000 0.000000 0.000000 51.808199 0.000000 32.000000 0.726945 -0.152643 0.669515
6.84999990 -20.01000023 0.13000000 68 0 221 0.000000 0.000000 0.000000 0.000000 51.808199 0.000000 32.000000 0.762721 0.222137 0.607381
6.84000015 -20.03000069 0.11000000 68 0 221 0.000000 0.000000 0.000000 0.000000 51.808199 0.000000 32.000000 0.609121 0.507882 0.609121
6.90000010 -20.14999962 0.14000000 68 0 221 0.000000 0.000000 0.000000 0.000000 51.808199 0.000000 32.000000 0.363104 0.658846 0.658846
6.86000013 -20.10000038 0.11000000 68 0 221 0.000000 0.000000 0.000000 0.000000 51.808199 0.000000 32.000000 0.555587 0.258231 0.790342
6.86999989 -20.11000061 0.11000000 68 0 221 0.000000 0.000000 0.000000 0.000000 51.808199 0.000000 32.000000 0.370161 0.280243 0.885689
6.88000011 -20.10000038 0.08000000 68 0 221 0.000000 0.000000 0.000000 0.000000 51.808199 0.000000 32.000000 0.486231 -0.079871 0.870172
6.88999987 -20.14999962 0.05000000 68 0 221 0.000000 0.000000 0.000000 0.000000 51.808199 0.000000 32.000000 0.209348 0.646653 0.733494
6.88999987 -20.11000061 0.08000000 68 0 221 0.000000 0.000000 0.000000 0.000000 51.808199 0.000000 32.000000 0.494027 -0.065406 0.866983
6.96000004 -20.22999954 0.11000000 68 0 221 0.000000 0.000000 0.000000 0.000000 51.808199 0.000000 32.000000 0.100010 0.271456 0.957241
6.90999985 -20.22999954 0.10000000 68 0 221 0.000000 0.000000 0.000000 0.000000 51.808199 0.000000 32.000000 0.065406 0.494027 0.866983
6.92000008 -20.22999954 0.10000000 68 0 221 0.000000 0.000000 0.000000 0.000000 51.808199 0.000000 32.000000 -0.115623 0.475340 0.872171
6.96000004 -20.20999908 0.10000000 68 0 221 0.000000 0.000000 0.000000 0.000000 51.808199 0.000000 32.000000 0.562055 0.341768 0.753186
6.96000004 -20.19000053 0.07000000 68 0 221 0.000000 0.000000 0.000000 0.000000 51.808199 0.000000 32.000000 -0.012653 0.180592 0.983477
6.96999979 -20.18000031 0.07000000 68 0 221 0.000000 0.000000 0.000000 0.000000 51.808199 0.000000 32.000000 0.001352 0.547504 0.836802
6.96000004 -20.21999931 0.07000000 68 0 221 0.000000 0.000000 0.000000 0.000000 51.808199 0.000000 32.000000 0.403173 0.270292 0.874296
6.96000004 -20.23999977 0.06000000 68 0 221 0.000000 0.000000 0.000000 0.000000 51.808199 0.000000 32.000000 0.255502 0.195384 0.946860
6.98999977 -20.22999954 0.04000000 68 0 221 0.000000 0.000000 0.000000 0.000000 51.808199 0.000000 32.000000 -0.071991 0.198891 0.977374
6.94000006 -20.15999985 0.04000000 68 0 221 0.000000 0.000000 0.000000 0.000000 51.808199 0.000000 32.000000 0.227473 0.456452 0.860179
6.92000008 -20.27000046 0.11000000 68 0 221 0.000000 0.000000 0.000000 0.000000 51.808199 0.000000 32.000000 0.372645 0.592620 0.714099
6.98999977 -20.31999969 0.06000000 68 0 221 0.000000 0.000000 0.000000 0.000000 51.808199 0.000000 32.000000 -0.249264 0.466414 0.848720
6.90999985 -20.30999947 0.06000000 68 0 221 0.000000 0.000000 0.000000 0.000000 51.808199 0.000000 32.000000 -0.103103 0.570698 0.814661
6.84999990 -20.22999954 0.10000000 68 0 221 0.000000 0.000000 0.000000 0.000000 51.808199 0.000000 32.000000 0.360947 0.202763 0.910277
6.88000011 -20.21999931 0.06000000 68 0 221 0.000000 0.000000 0.000000 0.000000 51.808199 0.000000 32.000000 0.462863 0.391901 0.795092
6.88000011 -20.20999908 0.06000000 68 0 221 0.000000 0.000000 0.000000 0.000000 51.808199 0.000000 32.000000 0.682275 0.227425 0.694823
6.84999990 -20.23999977 0.09000000 68 0 221 0.000000 0.000000 0.000000 0.000000 51.808199 0.000000 32.000000 0.380415 0.032682 0.924238
6.84999990 -20.22999954 0.09000000 68 0 221 0.000000 0.000000 0.000000 0.000000 51.808199 0.000000 32.000000 0.496318 0.077330 0.864690
6.88000011 -20.30999947 0.11000000 68 0 221 0.000000 0.000000 0.000000 0.000000 51.808199 0.000000 32.000000 0.313080 0.071450 0.947035
6.84999990 -20.26000023 0.12000000 68 0 221 0.000000 0.000000 0.000000 0.000000 51.808199 0.000000 32.000000 0.148841 0.629943 0.762246
6.84000015 -20.29999924 0.12000000 68 0 221 0.000000 0.000000 0.000000 0.000000 51.808199 0.000000 32.000000 0.296486 0.454818 0.839784
6.84999990 -20.31999969 0.10000000 68 0 221 0.000000 0.000000 0.000000 0.000000 51.808199 0.000000 32.000000 0.458219 0.541532 0.704825
7.11999989 -20.01000023 -0.03000000 68 0 221 0.000000 0.000000 0.000000 0.000000 51.808199 0.000000 221.000000 -0.111900 0.385435 0.915925
7.13000011 -20.12999916 -0.07000000 68 0 221 0.000000 0.000000 0.000000 0.000000 51.808199 0.000000 221.000000 0.039286 0.464661 0.884617
7.11999989 -20.12999916 -0.07000000 68 0 221 0.000000 0.000000 0.000000 0.000000 51.808199 0.000000 221.000000 -0.077249 0.492992 0.866598
7.13000011 -20.10000038 -0.07000000 68 0 221 0.000000 0.000000 0.000000 0.000000 51.808199 0.000000 221.000000 -0.114339 0.690490 0.714248
7.03999996 -20.01000023 0.01000000 68 0 221 0.000000 0.000000 0.000000 0.000000 51.808199 0.000000 221.000000 0.448043 0.471019 0.759867
7.03000021 -19.98999977 0.00000000 68 0 221 0.000000 0.000000 0.000000 0.000000 51.808199 0.000000 221.000000 0.237189 -0.010727 0.971404
7.01999998 -20.00000000 0.01000000 68 0 221 0.000000 0.000000 0.000000 0.000000 51.808199 0.000000 221.000000 0.123280 0.245263 0.961586
6.88999987 -20.14999962 0.01000000 68 0 221 0.000000 0.000000 0.000000 0.000000 51.808199 0.000000 32.000000 -0.033306 0.424983 0.904588
6.90999985 -20.14999962 0.01000000 68 0 221 0.000000 0.000000 0.000000 0.000000 51.808199 0.000000 32.000000 0.133589 0.046813 0.989931
6.88999987 -20.17000008 0.01000000 68 0 221 0.000000 0.000000 0.000000 0.000000 51.808199 0.000000 32.000000 0.063395 0.408698 0.910465
6.80999994 -19.69000053 -0.03000000 68 0 221 0.000000 0.000000 0.000000 0.000000 51.808199 0.000000 221.000000 0.571354 0.210985 0.793120
6.75000000 -19.71999931 -0.01000000 68 0 221 0.000000 0.000000 0.000000 0.000000 51.808199 0.000000 221.000000 0.742406 0.018176 0.669703
6.80999994 -20.13999939 0.05000000 68 0 221 0.000000 0.000000 0.000000 0.000000 51.808199 0.000000 32.000000 0.185335 0.310749 0.932248
6.82000017 -20.18000031 0.12000000 68 0 221 0.000000 0.000000 0.000000 0.000000 51.808199 0.000000 32.000000 0.294930 0.240788 0.924682
6.78000021 -20.21999931 0.11000000 68 0 221 0.000000 0.000000 0.000000 0.000000 51.808199 0.000000 32.000000 0.489899 0.364613 0.791869
6.76000023 -20.15999985 0.13000000 68 0 221 0.000000 0.000000 0.000000 0.000000 51.808199 0.000000 32.000000 0.309381 0.521981 0.794871
6.76999998 -20.23999977 0.10000000 68 0 221 0.000000 0.000000 0.000000 0.000000 51.808199 0.000000 32.000000 0.173907 0.202674 0.963680
6.75000000 -20.20999908 0.09000000 68 0 221 0.000000 0.000000 0.000000 0.000000 51.808199 0.000000 32.000000 0.703346 0.258793 0.662066
6.82000017 -20.23999977 0.06000000 68 0 221 0.000000 0.000000 0.000000 0.000000 51.808199 0.000000 32.000000 0.417104 0.385385 0.823106
6.75000000 -20.25000000 0.13000000 68 0 221 0.000000 0.000000 0.000000 0.000000 51.808199 0.000000 32.000000 0.463070 0.443434 0.767419
6.80999994 -20.26000023 0.13000000 68 0 221 0.000000 0.000000 0.000000 0.000000 51.808199 0.000000 32.000000 0.227464 0.156464 0.961134
6.71999979 -20.20000076 0.11000000 68 0 221 0.000000 0.000000 0.000000 0.000000 51.808199 0.000000 32.000000 0.235983 0.174654 0.955933
6.71999979 -20.19000053 0.11000000 68 0 221 0.000000 0.000000 0.000000 0.000000 51.808199 0.000000 32.000000 0.277207 0.048919 0.959564
6.71999979 -20.20000076 0.11000000 68 0 221 0.000000 0.000000 0.000000 0.000000 51.808199 0.000000 32.000000 0.235983 0.174654 0.955933
7.01999998 -20.36000061 0.07000000 68 0 221 0.000000 0.000000 0.000000 0.000000 51.808199 0.000000 32.000000 -0.126834 0.711764 0.690873
7.00000000 -20.45000076 0.08000000 68 0 221 0.000000 0.000000 0.000000 0.000000 51.808199 0.000000 28.000000 0.035117 0.790828 0.611030
6.90000010 -20.35000038 0.20999999 68 0 221 0.000000 0.000000 0.000000 0.000000 51.808199 0.000000 28.000000 0.114714 0.205476 0.971916
6.88999987 -20.35000038 0.20000000 68 0 221 0.000000 0.000000 0.000000 0.000000 51.808199 0.000000 28.000000 -0.061798 0.199934 0.977859
6.88999987 -20.36000061 0.20999999 68 0 221 0.000000 0.000000 0.000000 0.000000 51.808199 0.000000 28.000000 0.202621 0.112008 0.972831
6.88000011 -20.38999939 0.20999999 68 0 221 0.000000 0.000000 0.000000 0.000000 51.808199 0.000000 28.000000 0.053936 0.195370 0.979245
6.86999989 -20.44000053 0.20999999 68 0 221 0.000000 0.000000 0.000000 0.000000 51.808199 0.000000 28.000000 0.202423 0.093139 0.974859
6.88999987 -20.45000076 0.20999999 68 0 221 0.000000 0.000000 0.000000 0.000000 51.808199 0.000000 28.000000 0.301955 0.278615 0.911700
6.90000010 -20.45000076 0.20999999 68 0 221 0.000000 0.000000 0.000000 0.000000 51.808199 0.000000 28.000000 0.349776 0.278332 0.894532
6.90000010 -20.43000031 0.20999999 68 0 221 0.000000 0.000000 0.000000 0.000000 51.808199 0.000000 28.000000 0.163141 0.375934 0.912172
6.84000015 -20.43000031 0.22000000 68 0 221 0.000000 0.000000 0.000000 0.000000 51.808199 0.000000 28.000000 0.596834 0.420610 0.683284
6.86000013 -20.47999954 0.19000000 68 0 221 0.000000 0.000000 0.000000 0.000000 51.808199 0.000000 28.000000 0.156382 0.699924 0.696887
6.84999990 -20.48999977 0.20999999 68 0 221 0.000000 0.000000 0.000000 0.000000 51.808199 0.000000 28.000000 0.331260 0.016374 0.943398
6.92999983 -20.39999962 0.12000000 68 0 221 0.000000 0.000000 0.000000 0.000000 51.808199 0.000000 28.000000 0.118508 0.554500 0.823703
6.94000006 -20.40999985 0.11000000 68 0 221 0.000000 0.000000 0.000000 0.000000 51.808199 0.000000 28.000000 0.469014 0.505475 0.724238
6.92000008 -20.38999939 0.11000000 68 0 221 0.000000 0.000000 0.000000 0.000000 51.808199 0.000000 28.000000 0.055497 0.426379 0.902841
6.98000002 -20.40999985 0.10000000 68 0 221 0.000000 0.000000 0.000000 0.000000 51.808199 0.000000 28.000000 0.470092 0.355357 0.807920
6.94999981 -20.39999962 0.08000000 68 0 221 0.000000 0.000000 0.000000 0.000000 51.808199 0.000000 28.000000 0.289705 0.313234 0.904409
6.98999977 -20.45999908 0.10000000 68 0 221 0.000000 0.000000 0.000000 0.000000 51.808199 0.000000 28.000000 0.130624 0.302995 0.943998
6.96000004 -20.47999954 0.12000000 68 0 221 0.000000 0.000000 0.000000 0.000000 51.808199 0.000000 28.000000 0.089289 0.721628 0.686498
6.96000004 -20.47999954 0.12000000 68 0 221 0.000000 0.000000 0.000000 0.000000 51.808199 0.000000 28.000000 0.089289 0.721628 0.686498
6.90999985 -20.42000008 0.12000000 68 0 221 0.000000 0.000000 0.000000 0.000000 51.808199 0.000000 28.000000 0.342791 0.098132 0.934272
6.90999985 -20.45000076 0.13000000 68 0 221 0.000000 0.000000 0.000000 0.000000 51.808199 0.000000 28.000000 -0.061107 0.581227 0.811444
6.94999981 -20.43000031 0.13000000 68 0 221 0.000000 0.000000 0.000000 0.000000 51.808199 0.000000 28.000000 0.458015 0.248028 0.853642
6.94000006 -20.46999931 0.11000000 68 0 221 0.000000 0.000000 0.000000 0.000000 51.808199 0.000000 28.000000 -0.102116 0.530714 0.841377
6.92999983 -20.47999954 0.06000000 68 0 221 0.000000 0.000000 0.000000 0.000000 51.808199 0.000000 28.000000 0.202063 0.291249 0.935064
6.92000008 -20.47999954 0.06000000 68 0 221 0.000000 0.000000 0.000000 0.000000 51.808199 0.000000 28.000000 0.189981 0.322265 0.927390
6.92999983 -20.48999977 0.06000000 68 0 221 0.000000 0.000000 0.000000 0.000000 51.808199 0.000000 28.000000 0.110141 0.411285 0.904828
6.88000011 -20.37000084 0.11000000 68 0 221 0.000000 0.000000 0.000000 0.000000 51.808199 0.000000 28.000000 0.605642 0.278182 0.745528
6.88000011 -20.35000038 0.10000000 68 0 221 0.000000 0.000000 0.000000 0.000000 51.808199 0.000000 28.000000 0.266083 0.166133 0.949526
6.88999987 -20.38999939 0.12000000 68 0 221 0.000000 0.000000 0.000000 0.000000 51.808199 0.000000 28.000000 0.279992 0.086449 0.956102
6.86999989 -20.43000031 0.18000001 68 0 221 0.000000 0.000000 0.000000 0.000000 51.808199 0.000000 28.000000 0.365917 0.648148 0.667839
6.88999987 -20.45000076 0.14000000 68 0 221 0.000000 0.000000 0.000000 0.000000 51.808199 0.000000 28.000000 0.555297 0.388216 0.735482
6.88999987 -20.42000008 0.12000000 68 0 221 0.000000 0.000000 0.000000 0.000000 51.808199 0.000000 28.000000 -0.065057 0.477547 0.876194
6.86999989 -20.46999931 0.18000001 68 0 221 0.000000 0.000000 0.000000 0.000000 51.808199 0.000000 28.000000 0.460150 0.647557 0.607398
6.84000015 -20.45999908 0.15000001 68 0 221 0.000000 0.000000 0.000000 0.000000 51.808199 0.000000 28.000000 0.282478 0.488484 0.825585
6.82999992 -20.48999977 0.13000000 68 0 221 0.000000 0.000000 0.000000 0.000000 51.808199 0.000000 28.000000 0.331705 0.365335 0.869771
6.84999990 -20.48999977 0.12000000 68 0 221 0.000000 0.000000 0.000000 0.000000 51.808199 0.000000 28.000000 0.531208 0.387373 0.753498
6.86000013 -20.47999954 0.14000000 68 0 221 0.000000 0.000000 0.000000 0.000000 51.808199 0.000000 28.000000 0.229406 0.395170 0.889502
6.86000013 -20.45999908 0.14000000 68 0 221 0.000000 0.000000 0.000000 0.000000 51.808199 0.000000 28.000000 -0.073154 0.283633 0.956138
6.90000010 -20.48999977 0.06000000 68 0 221 0.000000 0.000000 0.000000 0.000000 51.808199 0.000000 28.000000 0.277479 0.254711 0.926352
6.82999992 -20.57999992 0.23000000 68 0 221 0.000000 0.000000 0.000000 0.000000 51.808199 0.000000 28.000000 0.112902 0.484478 0.867487
6.86000013 -20.51000023 0.23000000 68 0 221 0.000000 0.000000 0.000000 0.000000 51.808199 0.000000 28.000000 0.176303 0.700615 0.691416
6.82999992 -20.59000015 0.23000000 68 0 221 0.000000 0.000000 0.000000 0.000000 51.808199 0.000000 28.000000 0.374587 0.250218 0.892791
6.88000011 -20.64999962 0.22000000 68 0 221 0.000000 0.000000 0.000000 0.000000 51.808199 0.000000 28.000000 0.091296 0.318874 0.943390
6.88000011 -20.62000084 0.20000000 68 0 221 0.000000 0.000000 0.000000 0.000000 51.808199 0.000000 28.000000 0.415679 0.217455 0.883133
6.88999987 -20.63999939 0.22000000 68 0 221 0.000000 0.000000 0.000000 0.000000 51.808199 0.000000 28.000000 0.402764 0.431647 0.807132
6.88000011 -20.62999916 0.22000000 68 0 221 0.000000 0.000000 0.000000 0.000000 51.808199 0.000000 28.000000 0.133057 0.338815 0.931397
6.84999990 -20.51000023 0.14000000 68 0 221 0.000000 0.000000 0.000000 0.000000 51.808199 0.000000 28.000000 0.254879 0.637988 0.726642
6.84000015 -20.60000038 0.17000000 68 0 221 0.000000 0.000000 0.000000 0.000000 51.808199 0.000000 28.000000 0.258559 0.645603 0.718571
6.82000017 -20.39999962 0.20999999 68 0 221 0.000000 0.000000 0.000000 0.000000 51.808199 0.000000 28.000000 0.106226 0.571877 0.813433
6.78999996 -20.38999939 0.20999999 68 0 221 0.000000 0.000000 0.000000 0.000000 51.808199 0.000000 28.000000 0.201441 0.144986 0.968711
6.76999998 -20.37999916 0.20999999 68 0 221 0.000000 0.000000 0.000000 0.000000 51.808199 0.000000 28.000000 0.511862 -0.092677 0.854054
6.78000021 -20.44000053 0.23000000 68 0 221 0.000000 0.000000 0.000000 0.000000 51.808199 0.000000 28.000000 0.463338 0.172097 0.869310
6.80999994 -20.44000053 0.23000000 68 0 221 0.000000 0.000000 0.000000 0.000000 51.808199 0.000000 28.000000 0.174097 0.449140 0.876335
6.80999994 -20.44000053 0.23000000 68 0 221 0.000000 0.000000 0.000000 0.000000 51.808199 0.000000 28.000000 0.174097 0.449140 0.876335
6.82000017 -20.45000076 0.23000000 68 0 221 0.000000 0.000000 0.000000 0.000000 51.808199 0.000000 28.000000 0.397643 0.001287 0.917539
6.78000021 -20.43000031 0.20999999 68 0 221 0.000000 0.000000 0.000000 0.000000 51.808199 0.000000 28.000000 0.541631 0.240552 0.805463
6.78000021 -20.44000053 0.20999999 68 0 221 0.000000 0.000000 0.000000 0.000000 51.808199 0.000000 28.000000 0.636319 0.067510 0.768466
6.78000021 -20.45999908 0.23000000 68 0 221 0.000000 0.000000 0.000000 0.000000 51.808199 0.000000 28.000000 0.545923 0.206442 0.812004
6.78000021 -20.46999931 0.23999999 68 0 221 0.000000 0.000000 0.000000 0.000000 51.808199 0.000000 28.000000 0.212806 0.394792 0.893786
6.78999996 -20.45999908 0.22000000 68 0 221 0.000000 0.000000 0.000000 0.000000 51.808199 0.000000 28.000000 0.386847 0.428238 0.816677
6.80000019 -20.46999931 0.20999999 68 0 221 0.000000 0.000000 0.000000 0.000000 51.808199 0.000000 28.000000 0.496893 0.587850 0.638381
6.82000017 -20.46999931 0.22000000 68 0 221 0.000000 0.000000 0.000000 0.000000 51.808199 0.000000 28.000000 0.586496 0.430319 0.686184
6.82000017 -20.46999931 0.20999999 68 0 221 0.000000 0.000000 0.000000 0.000000 51.808199 0.000000 28.000000 -0.107182 0.495895 0.861743
6.78000021 -20.50000000 0.20999999 68 0 221 0.000000 0.000000 0.000000 0.000000 51.808199 0.000000 28.000000 0.610710 0.185203 0.769892
6.76000023 -20.43000031 0.23000000 68 0 221 0.000000 0.000000 0.000000 0.000000 51.808199 0.000000 28.000000 0.166077 0.373319 0.912716
6.73999977 -20.46999931 0.23000000 68 0 221 0.000000 0.000000 0.000000 0.000000 51.808199 0.000000 28.000000 0.152838 0.167995 0.973868
6.76999998 -20.46999931 0.23000000 68 0 221 0.000000 0.000000 0.000000 0.000000 51.808199 0.000000 28.000000 0.051836 0.203728 0.977654
6.75000000 -20.50000000 0.23000000 68 0 221 0.000000 0.000000 0.000000 0.000000 51.808199 0.000000 28.000000 0.265556 0.013338 0.964003
6.76999998 -20.45999908 0.23000000 68 0 221 0.000000 0.000000 0.000000 0.000000 51.808199 0.000000 28.000000 0.445654 0.173878 0.878157
6.75000000 -20.47999954 0.22000000 68 0 221 0.000000 0.000000 0.000000 0.000000 51.808199 0.000000 28.000000 0.357849 0.171145 0.917961
6.73000002 -20.47999954 0.23999999 68 0 221 0.000000 0.000000 0.000000 0.000000 51.808199 0.000000 28.000000 0.183698 0.063634 0.980921
6.78000021 -20.53000069 0.23000000 68 0 221 0.000000 0.000000 0.000000 0.000000 51.808199 0.000000 28.000000 0.296539 0.209405 0.931780
6.78999996 -20.53000069 0.23000000 68 0 221 0.000000 0.000000 0.000000 0.000000 51.808199 0.000000 28.000000 0.323125 0.231214 0.917676
6.82000017 -20.51000023 0.22000000 68 0 221 0.000000 0.000000 0.000000 0.000000 51.808199 0.000000 28.000000 0.312654 0.055326 0.948255
6.80999994 -20.51000023 0.22000000 68 0 221 0.000000 0.000000 0.000000 0.000000 51.808199 0.000000 28.000000 0.083633 0.031498 0.995999
6.75000000 -20.51000023 0.23999999 68 0 221 0.000000 0.000000 0.000000 0.000000 51.808199 0.000000 28.000000 0.287877 0.043999 0.956656
6.73999977 -20.52000046 0.23999999 68 0 221 0.000000 0.000000 0.000000 0.000000 51.808199 0.000000 28.000000 0.356996 0.130945 0.924882
6.76999998 -20.52000046 0.23000000 68 0 221 0.000000 0.000000 0.000000 0.000000 51.808199 0.000000 28.000000 0.276367 0.033462 0.960469
6.80999994 -20.60000038 0.23999999 68 0 221 0.000000 0.000000 0.000000 0.000000 51.808199 0.000000 28.000000 0.027510 0.221279 0.974823
6.80999994 -20.67000008 0.23000000 68 0 221 0.000000 0.000000 0.000000 0.000000 51.808199 0.000000 28.000000 -0.054038 0.198138 0.978683
6.80999994 -20.56999969 0.18000001 68 0 221 0.000000 0.000000 0.000000 0.000000 51.808199 0.000000 28.000000 0.205721 0.617163 0.759466
6.80999994 -20.54000092 0.17000000 68 0 221 0.000000 0.000000 0.000000 0.000000 51.808199 0.000000 28.000000 0.381775 0.163212 0.909731
6.78999996 -20.57999992 0.18000001 68 0 221 0.000000 0.000000 0.000000 0.000000 51.808199 0.000000 28.000000 0.025200 0.428406 0.903235
6.78999996 -20.55999947 0.17000000 68 0 221 0.000000 0.000000 0.000000 0.000000 51.808199 0.000000 28.000000 0.115291 0.398656 0.909825
6.80999994 -20.56999969 0.18000001 68 0 221 0.000000 0.000000 0.000000 0.000000 51.808199 0.000000 28.000000 0.205721 0.617163 0.759466
6.82000017 -20.53000069 0.15000001 68 0 221 0.000000 0.000000 0.000000 0.000000 51.808199 0.000000 28.000000 0.428151 0.211853 0.878524
6.78999996 -20.59000015 0.18000001 68 0 221 0.000000 0.000000 0.000000 0.000000 51.808199 0.000000 28.000000 0.406718 0.140297 0.902716
6.76000023 -20.70000076 0.23000000 68 0 221 0.000000 0.000000 0.000000 0.000000 51.808199 0.000000 28.000000 0.011547 0.373356 0.927616
6.76000023 -20.69000053 0.23000000 68 0 221 0.000000 0.000000 0.000000 0.000000 51.808199 0.000000 28.000000 0.182540 0.278614 0.942896
7.61999989 -19.96999931 -0.22000000 68 0 221 0.000000 0.000000 0.000000 0.000000 51.808199 0.000000 221.000000 -0.407277 0.783724 0.468937
7.53999996 -19.93000031 -0.20000000 68 0 221 0.000000 0.000000 0.000000 0.000000 51.808199 0.000000 221.000000 -0.360867 0.733164 0.576407
7.63000011 -19.98999977 -0.27000001 68 0 221 0.000000 0.000000 0.000000 0.000000 51.808199 0.000000 221.000000 0.463989 -0.716771 -0.520532
7.50000000 -19.94000053 -0.14000000 68 0 221 0.000000 0.000000 0.000000 0.000000 51.808199 0.000000 221.000000 -0.480266 0.267158 0.835447
7.48999977 -19.93000031 -0.12000000 68 0 221 0.000000 0.000000 0.000000 0.000000 51.808199 0.000000 221.000000 -0.058919 0.685473 0.725710
7.46000004 -19.94000053 -0.10000000 68 0 221 0.000000 0.000000 0.000000 0.000000 51.808199 0.000000 221.000000 -0.099771 0.559583 0.822747
7.44999981 -19.94000053 -0.15000001 68 0 221 0.000000 0.000000 0.000000 0.000000 51.808199 0.000000 221.000000 -0.380507 0.185228 0.906038
7.46000004 -19.95999908 -0.13000000 68 0 221 0.000000 0.000000 0.000000 0.000000 51.808199 0.000000 221.000000 -0.402543 0.316173 0.859066
7.40000010 -19.84000015 -0.08000000 68 0 221 0.000000 0.000000 0.000000 0.000000 51.808199 0.000000 221.000000 -0.241379 0.857729 0.453913
7.38000011 -19.92000008 -0.11000000 68 0 221 0.000000 0.000000 0.000000 0.000000 51.808199 0.000000 221.000000 0.648785 -0.428632 -0.628771
7.46999979 -19.94000053 -0.17000000 68 0 221 0.000000 0.000000 0.000000 0.000000 51.808199 0.000000 221.000000 -0.049818 0.656174 0.752963
7.44000006 -19.97999954 -0.17000000 68 0 221 0.000000 0.000000 0.000000 0.000000 51.808199 0.000000 221.000000 0.003876 0.406974 0.913431
7.25000000 -19.77000046 -0.01000000 68 0 221 0.000000 0.000000 0.000000 0.000000 51.808199 0.000000 221.000000 -0.041029 0.652222 0.756917
7.28000021 -19.88999939 -0.04000000 68 0 221 0.000000 0.000000 0.000000 0.000000 51.808199 0.000000 221.000000 -0.333999 0.307039 0.891163
7.26999998 -19.81999969 -0.09000000 68 0 221 0.000000 0.000000 0.000000 0.000000 51.808199 0.000000 221.000000 -0.277381 0.297713 0.913470
7.30999994 -19.89999962 -0.06000000 68 0 221 0.000000 0.000000 0.000000 0.000000 51.808199 0.000000 221.000000 -0.004108 0.598460 0.801142
7.26999998 -19.95000076 -0.06000000 68 0 221 0.000000 0.000000 0.000000 0.000000 51.808199 0.000000 221.000000 -0.080751 0.217406 0.972735
7.26000023 -19.95000076 -0.13000000 68 0 221 0.000000 0.000000 0.000000 0.000000 51.808199 0.000000 221.000000 0.020904 0.636886 0.770674
7.23000002 -19.87999916 -0.07000000 68 0 221 0.000000 0.000000 0.000000 0.000000 51.808199 0.000000 221.000000 0.167335 0.502005 0.848522
7.21999979 -19.87999916 -0.06000000 68 0 221 0.000000 0.000000 0.000000 0.000000 51.808199 0.000000 221.000000 -0.226411 0.153122 0.961921
7.44000006 -20.01000023 -0.14000000 68 0 221 0.000000 0.000000 0.000000 0.000000 51.808199 0.000000 221.000000 -0.320848 0.478901 0.817135
7.36000013 -20.00000000 -0.12000000 68 0 221 0.000000 0.000000 0.000000 0.000000 51.808199 0.000000 221.000000 -0.524292 0.444904 0.726070
7.46000004 -20.00000000 -0.17000000 68 0 221 0.000000 0.000000 0.000000 0.000000 51.808199 0.000000 221.000000 -0.200474 0.452922 0.868719
7.44000006 -20.00000000 -0.23000000 68 0 221 0.000000 0.000000 0.000000 0.000000 51.808199 0.000000 221.000000 -0.522758 0.657230 0.542929
7.42999983 -20.14999962 -0.23000000 68 0 221 0.000000 0.000000 0.000000 0.000000 51.808199 0.000000 221.000000 -0.467880 0.384273 0.795879
7.42999983 -20.12999916 -0.23999999 68 0 221 0.000000 0.000000 0.000000 0.000000 51.808199 0.000000 221.000000 -0.227991 0.827807 0.512598
7.44000006 -20.07999992 -0.22000000 68 0 221 0.000000 0.000000 0.000000 0.000000 51.808199 0.000000 221.000000 -0.391075 0.183271 0.901927
7.42000008 -20.12999916 -0.20000000 68 0 221 0.000000 0.000000 0.000000 0.000000 51.808199 0.000000 221.000000 -0.373668 0.361264 0.854319
7.40999985 -20.12999916 -0.25000000 68 0 221 0.000000 0.000000 0.000000 0.000000 51.808199 0.000000 221.000000 0.061693 0.661405 0.747488
7.44000006 -20.15999985 -0.22000000 68 0 221 0.000000 0.000000 0.000000 0.000000 51.808199 0.000000 221.000000 -0.145388 0.393818 0.907617
7.42999983 -20.15999985 -0.22000000 68 0 221 0.000000 0.000000 0.000000 0.000000 51.808199 0.000000 221.000000 -0.193869 0.578554 0.792269
7.44000006 -20.18000031 -0.25000000 68 0 221 0.000000 0.000000 0.000000 0.000000 51.808199 0.000000 221.000000 -0.617985 0.634732 0.463907
7.34999990 -20.22999954 -0.20999999 68 0 221 0.000000 0.000000 0.000000 0.000000 51.808199 0.000000 221.000000 0.165924 0.468404 0.867795
7.28999996 -20.05999947 -0.06000000 68 0 221 0.000000 0.000000 0.000000 0.000000 51.808199 0.000000 221.000000 -0.167646 0.198836 0.965588
7.28000021 -20.02000046 -0.08000000 68 0 221 0.000000 0.000000 0.000000 0.000000 51.808199 0.000000 221.000000 -0.465189 0.329575 0.821571
7.17000008 -20.02000046 -0.07000000 68 0 221 0.000000 0.000000 0.000000 0.000000 51.808199 0.000000 221.000000 -0.020614 0.559330 0.828689
7.25000000 -20.06999969 -0.08000000 68 0 221 0.000000 0.000000 0.000000 0.000000 51.808199 0.000000 221.000000 -0.113398 0.605280 0.787894
7.28999996 -20.11000061 -0.17000000 68 0 221 0.000000 0.000000 0.000000 0.000000 51.808199 0.000000 221.000000 -0.136622 0.734156 0.665094
7.23000002 -20.19000053 -0.15000001 68 0 221 0.000000 0.000000 0.000000 0.000000 51.808199 0.000000 221.000000 0.097731 0.194226 0.976076
7.28999996 -20.21999931 -0.18000001 68 0 221 0.000000 0.000000 0.000000 0.000000 51.808199 0.000000 221.000000 -0.096676 0.558412 0.823911
7.19999981 -20.20999908 -0.17000000 68 0 221 0.000000 0.000000 0.000000 0.000000 51.808199 0.000000 221.000000 0.163658 0.240831 0.956670
7.01000023 -19.93000031 0.02000000 68 0 221 0.000000 0.000000 0.000000 0.000000 51.808199 0.000000 221.000000 -0.016362 0.325986 0.945233
7.03000021 -19.89999962 0.04000000 68 0 221 0.000000 0.000000 0.000000 0.000000 51.808199 0.000000 221.000000 0.152838 0.167995 0.973868
6.94000006 -19.93000031 0.07000000 68 0 221 0.000000 0.000000 0.000000 0.000000 51.808199 0.000000 221.000000 0.750486 0.397316 0.528120
6.98000002 -19.94000053 0.04000000 68 0 221 0.000000 0.000000 0.000000 0.000000 51.808199 0.000000 221.000000 0.254457 0.123966 0.959106
6.96000004 -19.92000008 0.04000000 68 0 221 0.000000 0.000000 0.000000 0.000000 51.808199 0.000000 221.000000 0.675072 0.445048 0.588396
6.88999987 -19.95999908 0.10000000 68 0 221 0.000000 0.000000 0.000000 0.000000 51.808199 0.000000 32.000000 0.314308 0.422690 0.850025
7.13000011 -19.95000076 -0.03000000 68 0 221 0.000000 0.000000 0.000000 0.000000 51.808199 0.000000 221.000000 -0.227348 0.414575 0.881158
7.11000013 -19.89999962 0.01000000 68 0 221 0.000000 0.000000 0.000000 0.000000 51.808199 0.000000 221.000000 0.232187 0.114169 0.965948
7.03999996 -19.95999908 0.00000000 68 0 221 0.000000 0.000000 0.000000 0.000000 51.808199 0.000000 221.000000 0.194648 0.100423 0.975719
7.05999994 -19.93000031 -0.01000000 68 0 221 0.000000 0.000000 0.000000 0.000000 51.808199 0.000000 221.000000 0.009600 0.585614 0.810533
7.05999994 -19.90999985 0.01000000 68 0 221 0.000000 0.000000 0.000000 0.000000 51.808199 0.000000 221.000000 0.467048 0.201443 0.860980
7.07000017 -19.95999908 -0.01000000 68 0 221 0.000000 0.000000 0.000000 0.000000 51.808199 0.000000 221.000000 0.352613 0.573606 0.739351
6.98000002 -19.80999947 -0.02000000 68 0 221 0.000000 0.000000 0.000000 0.000000 51.808199 0.000000 221.000000 0.181051 0.188866 0.965169
6.90999985 -19.79000092 -0.03000000 68 0 221 0.000000 0.000000 0.000000 0.000000 51.808199 0.000000 221.000000 0.451885 0.237277 0.859942
6.92000008 -19.79000092 -0.03000000 68 0 221 0.000000 0.000000 0.000000 0.000000 51.808199 0.000000 221.000000 0.373453 0.070943 0.924932
6.92000008 -19.75000000 -0.05000000 68 0 221 0.000000 0.000000 0.000000 0.000000 51.808199 0.000000 221.000000 0.354193 0.218299 0.909337
6.88999987 -19.77000046 -0.02000000 68 0 221 0.000000 0.000000 0.000000 0.000000 51.808199 0.000000 221.000000 0.811815 -0.121846 0.571060
6.90000010 -19.78000069 -0.05000000 68 0 221 0.000000 0.000000 0.000000 0.000000 51.808199 0.000000 221.000000 0.460787 -0.175187 0.870049
6.96999979 -19.85000038 -0.06000000 68 0 221 0.000000 0.000000 0.000000 0.000000 51.808199 0.000000 221.000000 0.542688 0.398408 0.739433
6.98000002 -19.85000038 -0.03000000 68 0 221 0.000000 0.000000 0.000000 0.000000 51.808199 0.000000 221.000000 0.743397 0.341736 0.574959
6.94000006 -19.81999969 -0.01000000 68 0 221 0.000000 0.000000 0.000000 0.000000 51.808199 0.000000 221.000000 0.589667 0.382709 0.711215
6.90999985 -19.85000038 0.01000000 68 0 221 0.000000 0.000000 0.000000 0.000000 51.808199 0.000000 221.000000 0.457770 0.272812 0.846180
6.90999985 -19.82999992 -0.04000000 68 0 221 0.000000 0.000000 0.000000 0.000000 51.808199 0.000000 221.000000 0.485775 0.382487 0.785955
6.90999985 -19.86000061 0.00000000 68 0 221 0.000000 0.000000 0.000000 0.000000 51.808199 0.000000 221.000000 0.803222 -0.058287 0.592821
6.90999985 -19.86000061 -0.01000000 68 0 221 0.000000 0.000000 0.000000 0.000000 51.808199 0.000000 221.000000 0.835069 0.017826 0.549857
6.90999985 -19.88999939 -0.02000000 68 0 221 0.000000 0.000000 0.000000 0.000000 51.808199 0.000000 221.000000 0.770703 0.422013 0.477412
7.01000023 -20.18000031 0.07000000 68 0 221 0.000000 0.000000 0.000000 0.000000 51.808199 0.000000 32.000000 0.349463 0.583522 0.733060
7.00000000 -20.22999954 0.07000000 68 0 221 0.000000 0.000000 0.000000 0.000000 51.808199 0.000000 32.000000 -0.172261 0.415454 0.893154
