//X Y Z R G B PointSourceId ScanDirectionFlag NumberOfReturns ReturnNumber GpsTime Intensity Classification Nx Ny Nz
-15.84000015 5.23000002 -1.13000000 108 156 123 0.000000 0.000000 0.000000 0.000000 179.808199 0.000000 190.000000 0.824359 0.401855 -0.398678
-15.81999969 5.19999981 -1.13000000 108 156 123 0.000000 0.000000 0.000000 0.000000 179.808199 0.000000 190.000000 0.858167 0.009430 -0.513284
-15.82999992 5.11000013 -1.10000002 108 156 123 0.000000 0.000000 0.000000 0.000000 179.808199 0.000000 190.000000 0.800042 0.518047 -0.302590
-15.84000015 5.13000011 -1.10000002 108 156 123 0.000000 0.000000 0.000000 0.000000 179.808199 0.000000 190.000000 0.836002 0.223848 -0.500992
-15.84000015 5.13000011 -1.10000002 108 156 123 0.000000 0.000000 0.000000 0.000000 179.808199 0.000000 190.000000 0.836002 0.223848 -0.500992
-15.92000008 5.46999979 -1.01999998 108 156 123 0.000000 0.000000 0.000000 0.000000 179.808199 0.000000 107.000000 -0.417520 -0.101259 0.903008
-15.93999958 5.44000006 -1.01999998 108 156 123 0.000000 0.000000 0.000000 0.000000 179.808199 0.000000 107.000000 -0.556862 -0.051899 0.828982
-15.94999981 5.44000006 -1.01999998 108 156 123 0.000000 0.000000 0.000000 0.000000 179.808199 0.000000 107.000000 -0.408172 -0.122031 0.904712
-15.98999977 5.46999979 -1.03999996 108 156 123 0.000000 0.000000 0.000000 0.000000 179.808199 0.000000 107.000000 0.832696 -0.072347 -0.548984
-15.98999977 5.46000004 -1.03999996 108 156 123 0.000000 0.000000 0.000000 0.000000 179.808199 0.000000 107.000000 0.782370 0.076364 -0.618115
-15.92000008 5.42000008 -1.01999998 108 156 123 0.000000 0.000000 0.000000 0.000000 179.808199 0.000000 107.000000 0.298728 0.570300 -0.765192
-15.90999985 5.28000021 -1.02999997 108 156 123 0.000000 0.000000 0.000000 0.000000 179.808199 0.000000 107.000000 0.728867 0.371804 -0.574904
-15.89999962 5.30999994 -1.01999998 108 156 123 0.000000 0.000000 0.000000 0.000000 179.808199 0.000000 107.000000 -0.566049 -0.220558 0.794319
-15.90999985 5.28000021 -1.02999997 108 156 123 0.000000 0.000000 0.000000 0.000000 179.808199 0.000000 107.000000 0.728867 0.371804 -0.574904
-15.92000008 5.28999996 -1.01999998 108 156 123 0.000000 0.000000 0.000000 0.000000 179.808199 0.000000 107.000000 0.795142 0.160832 -0.584707
-15.92000008 5.26999998 -1.01999998 108 156 123 0.000000 0.000000 0.000000 0.000000 179.808199 0.000000 107.000000 -0.453175 -0.318320 0.832650
-15.97000027 5.40000010 -1.03999996 108 156 123 0.000000 0.000000 0.000000 0.000000 179.808199 0.000000 107.000000 -0.457631 -0.201238 0.866070
-15.96000004 5.40000010 -1.02999997 108 156 123 0.000000 0.000000 0.000000 0.000000 179.808199 0.000000 107.000000 0.705256 0.355082 -0.613621
-15.94999981 5.40000010 -1.02999997 108 156 123 0.000000 0.000000 0.000000 0.000000 179.808199 0.000000 107.000000 -0.543882 -0.405858 0.734487
-15.94999981 5.42999983 -1.02999997 108 156 123 0.000000 0.000000 0.000000 0.000000 179.808199 0.000000 107.000000 -0.469832 0.001323 0.882755
-15.94999981 5.40000010 -1.02999997 108 156 123 0.000000 0.000000 0.000000 0.000000 179.808199 0.000000 107.000000 -0.543882 -0.405858 0.734487
-15.96000004 5.40999985 -1.02999997 108 156 123 0.000000 0.000000 0.000000 0.000000 179.808199 0.000000 107.000000 0.738771 0.111038 -0.664746
-15.96000004 5.38000011 -1.03999996 108 156 123 0.000000 0.000000 0.000000 0.000000 179.808199 0.000000 107.000000 -0.586380 -0.015177 0.809894
-15.94999981 5.38999987 -1.03999996 108 156 123 0.000000 0.000000 0.000000 0.000000 179.808199 0.000000 107.000000 0.507674 0.588632 -0.629111
-15.97999954 5.42000008 -1.03999996 108 156 123 0.000000 0.000000 0.000000 0.000000 179.808199 0.000000 107.000000 -0.361855 -0.431382 0.826420
-15.98999977 5.42999983 -1.02999997 108 156 123 0.000000 0.000000 0.000000 0.000000 179.808199 0.000000 107.000000 0.820542 0.188891 -0.539473
-15.97999954 5.42000008 -1.03999996 108 156 123 0.000000 0.000000 0.000000 0.000000 179.808199 0.000000 107.000000 -0.361855 -0.431382 0.826420
-15.85999966 5.25000000 -1.01999998 108 156 123 0.000000 0.000000 0.000000 0.000000 179.808199 0.000000 107.000000 -0.475193 -0.146772 0.867554
-15.85999966 5.25000000 -1.01999998 108 156 123 0.000000 0.000000 0.000000 0.000000 179.808199 0.000000 107.000000 -0.475193 -0.146772 0.867554
-15.86999989 5.21999979 -1.10000002 108 156 123 0.000000 0.000000 0.000000 0.000000 179.808199 0.000000 190.000000 0.916566 0.189585 -0.352087
-15.89999962 5.25000000 -1.01999998 108 156 123 0.000000 0.000000 0.000000 0.000000 179.808199 0.000000 107.000000 0.653536 0.566174 -0.502332
-15.92000008 5.26000023 -1.03999996 108 156 123 0.000000 0.000000 0.000000 0.000000 179.808199 0.000000 107.000000 0.727209 0.482045 -0.488671
-15.89999962 5.26000023 -1.02999997 108 156 123 0.000000 0.000000 0.000000 0.000000 179.808199 0.000000 107.000000 0.599193 0.639475 -0.481704
-15.88000011 5.15999985 -1.13000000 108 156 123 0.000000 0.000000 0.000000 0.000000 179.808199 0.000000 190.000000 -0.637459 -0.362155 0.680066
-15.93999958 5.19999981 -1.13000000 108 156 123 0.000000 0.000000 0.000000 0.000000 179.808199 0.000000 190.000000 -0.572516 -0.231178 0.786627
-15.93999958 5.15000010 -1.09000003 108 156 123 0.000000 0.000000 0.000000 0.000000 179.808199 0.000000 190.000000 0.777374 0.360404 -0.515556
-15.97999954 5.17000008 -1.12000000 108 156 123 0.000000 0.000000 0.000000 0.000000 179.808199 0.000000 190.000000 0.642092 0.438624 -0.628750
-15.94999981 5.15000010 -1.11000001 108 156 123 0.000000 0.000000 0.000000 0.000000 179.808199 0.000000 190.000000 0.706195 0.251197 -0.661959
-16.09000015 5.11999989 -1.01999998 108 156 123 0.000000 0.000000 0.000000 0.000000 179.808199 0.000000 239.000000 0.650248 0.352149 -0.673178
-16.10000038 5.09999990 -1.03999996 108 156 123 0.000000 0.000000 0.000000 0.000000 179.808199 0.000000 239.000000 0.849802 0.378902 -0.366428
-16.13999939 5.15999985 -1.03999996 108 156 123 0.000000 0.000000 0.000000 0.000000 179.808199 0.000000 239.000000 0.570954 0.634955 -0.520427
-16.14999962 5.15000010 -1.08000004 108 156 123 0.000000 0.000000 0.000000 0.000000 179.808199 0.000000 239.000000 0.920272 0.389901 -0.032820
-16.14999962 5.11000013 -1.08000004 108 156 123 0.000000 0.000000 0.000000 0.000000 179.808199 0.000000 239.000000 0.827708 0.305110 -0.470964
-16.14999962 5.11999989 -1.07000005 108 156 123 0.000000 0.000000 0.000000 0.000000 179.808199 0.000000 239.000000 0.809907 0.497311 -0.311017
-16.15999985 5.17000008 -1.04999995 108 156 123 0.000000 0.000000 0.000000 0.000000 179.808199 0.000000 239.000000 0.750345 0.175743 -0.637258
-15.18999958 5.01000023 -1.00000000 108 156 123 0.000000 0.000000 0.000000 0.000000 179.808199 0.000000 150.000000 0.473125 0.009329 0.880946
-15.14999962 5.09000015 -1.08000004 108 156 123 0.000000 0.000000 0.000000 0.000000 179.808199 0.000000 150.000000 0.451994 0.317490 0.833608
-15.19999981 5.09000015 -1.07000005 108 156 123 0.000000 0.000000 0.000000 0.000000 179.808199 0.000000 150.000000 0.427070 0.283182 0.858731
-15.19999981 5.07999992 -1.07000005 108 156 123 0.000000 0.000000 0.000000 0.000000 179.808199 0.000000 150.000000 0.471893 0.276947 0.837029
-15.21000004 5.07999992 -1.05999994 108 156 123 0.000000 0.000000 0.000000 0.000000 179.808199 0.000000 150.000000 0.345416 0.339330 0.874953
-15.22000027 5.01999998 -1.03999996 108 156 123 0.000000 0.000000 0.000000 0.000000 179.808199 0.000000 150.000000 0.644675 0.220095 0.732088
-15.19999981 5.07000017 -1.16999996 108 156 123 0.000000 0.000000 0.000000 0.000000 179.808199 0.000000 150.000000 0.776114 0.259754 0.574608
-15.22999954 5.05999994 -1.11000001 108 156 123 0.000000 0.000000 0.000000 0.000000 179.808199 0.000000 150.000000 0.744041 0.321180 0.585872
-15.22999954 5.07999992 -1.16999996 108 156 123 0.000000 0.000000 0.000000 0.000000 179.808199 0.000000 150.000000 0.813610 0.532629 0.233122
-15.21000004 5.07000017 -1.15999997 108 156 123 0.000000 0.000000 0.000000 0.000000 179.808199 0.000000 150.000000 0.705719 0.478821 0.522199
-15.23999977 5.03999996 -1.12000000 108 156 123 0.000000 0.000000 0.000000 0.000000 179.808199 0.000000 150.000000 0.501858 0.351141 0.790467
-15.23999977 5.03000021 -1.16999996 108 156 123 0.000000 0.000000 0.000000 0.000000 179.808199 0.000000 150.000000 0.819067 0.522907 0.236002
-15.21000004 5.01999998 -1.14999998 108 156 123 0.000000 0.000000 0.000000 0.000000 179.808199 0.000000 150.000000 0.587694 0.122252 0.799794
-15.19999981 4.98999977 -1.05999994 108 156 123 0.000000 0.000000 0.000000 0.000000 179.808199 0.000000 150.000000 0.834389 0.197658 0.514515
-15.18999958 4.96000004 -1.02999997 108 156 123 0.000000 0.000000 0.000000 0.000000 179.808199 0.000000 150.000000 0.307909 0.239167 0.920864
-15.27999973 5.09000015 -1.04999995 108 156 123 0.000000 0.000000 0.000000 0.000000 179.808199 0.000000 150.000000 0.312114 0.345286 0.885078
-15.27000046 5.09000015 -1.07000005 108 156 123 0.000000 0.000000 0.000000 0.000000 179.808199 0.000000 150.000000 0.454952 0.039150 0.889655
-15.27999973 5.01999998 -1.10000002 108 156 123 0.000000 0.000000 0.000000 0.000000 179.808199 0.000000 150.000000 0.788821 0.145191 0.597228
-15.31000042 5.03000021 -1.08000004 108 156 123 0.000000 0.000000 0.000000 0.000000 179.808199 0.000000 150.000000 0.410368 0.413561 0.812752
-15.27999973 5.07000017 -1.15999997 108 156 123 0.000000 0.000000 0.000000 0.000000 179.808199 0.000000 150.000000 0.883090 0.096873 0.459094
-15.27999973 5.07000017 -1.15999997 108 156 123 0.000000 0.000000 0.000000 0.000000 179.808199 0.000000 150.000000 0.883090 0.096873 0.459094
-15.27999973 5.03000021 -1.13000000 108 156 123 0.000000 0.000000 0.000000 0.000000 179.808199 0.000000 150.000000 0.604556 0.296665 0.739258
-15.27999973 5.01999998 -1.16999996 108 156 123 0.000000 0.000000 0.000000 0.000000 179.808199 0.000000 150.000000 0.847690 -0.167756 0.503269
-15.28999996 5.03999996 -1.16999996 108 156 123 0.000000 0.000000 0.000000 0.000000 179.808199 0.000000 150.000000 0.497538 0.207182 0.842337
-15.31000042 5.05999994 -1.13999999 108 156 123 0.000000 0.000000 0.000000 0.000000 179.808199 0.000000 150.000000 0.651615 -0.086007 0.753658
-15.32999992 5.03000021 -1.15999997 108 156 123 0.000000 0.000000 0.000000 0.000000 179.808199 0.000000 150.000000 0.477140 -0.091487 0.874052
-15.28999996 4.92999983 -1.09000003 108 156 123 0.000000 0.000000 0.000000 0.000000 179.808199 0.000000 103.000000 0.406755 0.178046 0.896019
-15.26000023 4.96000004 -1.08000004 108 156 123 0.000000 0.000000 0.000000 0.000000 179.808199 0.000000 103.000000 0.585236 0.026412 0.810433
-15.31000042 4.98000002 -1.03999996 108 156 123 0.000000 0.000000 0.000000 0.000000 179.808199 0.000000 103.000000 0.257673 -0.249225 0.933537
-15.31000042 4.98000002 -1.03999996 108 156 123 0.000000 0.000000 0.000000 0.000000 179.808199 0.000000 103.000000 0.257673 -0.249225 0.933537
-15.31999969 4.96999979 -1.03999996 108 156 123 0.000000 0.000000 0.000000 0.000000 179.808199 0.000000 103.000000 0.164165 0.141608 0.976216
-15.30000019 4.98000002 -1.10000002 108 156 123 0.000000 0.000000 0.000000 0.000000 179.808199 0.000000 103.000000 0.499488 -0.089144 0.861722
-15.30000019 5.00000000 -1.09000003 108 156 123 0.000000 0.000000 0.000000 0.000000 179.808199 0.000000 103.000000 0.571313 -0.026283 0.820311
-15.31999969 4.96000004 -1.03999996 108 156 123 0.000000 0.000000 0.000000 0.000000 179.808199 0.000000 103.000000 0.079534 0.194554 0.977662
-15.31999969 4.96000004 -1.03999996 108 156 123 0.000000 0.000000 0.000000 0.000000 179.808199 0.000000 103.000000 0.079534 0.194554 0.977662
-15.32999992 4.94000006 -1.04999995 108 156 123 0.000000 0.000000 0.000000 0.000000 179.808199 0.000000 103.000000 0.116481 0.025515 0.992865
-15.31999969 4.94999981 -1.08000004 108 156 123 0.000000 0.000000 0.000000 0.000000 179.808199 0.000000 103.000000 0.445280 -0.264719 0.855365
-15.28999996 4.98000002 -1.11000001 108 156 123 0.000000 0.000000 0.000000 0.000000 179.808199 0.000000 103.000000 0.734766 0.146350 0.662345
-15.26000023 4.96999979 -1.13000000 108 156 123 0.000000 0.000000 0.000000 0.000000 179.808199 0.000000 150.000000 0.732231 0.247226 0.634600
-15.26000023 4.96999979 -1.12000000 108 156 123 0.000000 0.000000 0.000000 0.000000 179.808199 0.000000 150.000000 0.822981 0.096906 0.559743
-15.27000046 4.96999979 -1.12000000 108 156 123 0.000000 0.000000 0.000000 0.000000 179.808199 0.000000 150.000000 0.574202 0.374622 0.727977
-15.27000046 4.98000002 -1.13000000 108 156 123 0.000000 0.000000 0.000000 0.000000 179.808199 0.000000 150.000000 0.598078 0.257221 0.759039
-15.28999996 4.96000004 -1.11000001 108 156 123 0.000000 0.000000 0.000000 0.000000 179.808199 0.000000 103.000000 0.374777 0.204029 0.904386
-15.27000046 5.05999994 -1.19000006 108 156 123 0.000000 0.000000 0.000000 0.000000 179.808199 0.000000 150.000000 0.776077 0.542454 0.321632
-15.27000046 5.09000015 -1.22000003 108 156 123 0.000000 0.000000 0.000000 0.000000 179.808199 0.000000 150.000000 0.805126 0.339588 0.486264
-15.27000046 5.09000015 -1.22000003 108 156 123 0.000000 0.000000 0.000000 0.000000 179.808199 0.000000 150.000000 0.805126 0.339588 0.486264
-15.26000023 5.07000017 -1.19000006 108 156 123 0.000000 0.000000 0.000000 0.000000 179.808199 0.000000 150.000000 0.760607 -0.018143 0.648959
-15.22999954 4.88999987 -1.05999994 108 156 123 0.000000 0.000000 0.000000 0.000000 179.808199 0.000000 103.000000 0.466097 0.549627 0.693299
-15.23999977 4.86000013 -1.04999995 108 156 123 0.000000 0.000000 0.000000 0.000000 179.808199 0.000000 103.000000 0.293367 -0.144655 0.944992
-15.22999954 4.86000013 -1.05999994 108 156 123 0.000000 0.000000 0.000000 0.000000 179.808199 0.000000 103.000000 0.662211 0.049844 0.747658
-15.23999977 4.82999992 -1.05999994 108 156 123 0.000000 0.000000 0.000000 0.000000 179.808199 0.000000 103.000000 0.347777 0.059056 0.935716
-15.27999973 4.88999987 -1.04999995 108 156 123 0.000000 0.000000 0.000000 0.000000 179.808199 0.000000 103.000000 0.090535 0.003195 0.995888
-15.28999996 4.90000010 -1.05999994 108 156 123 0.000000 0.000000 0.000000 0.000000 179.808199 0.000000 103.000000 0.295229 0.380012 0.876602
-15.25000000 4.86000013 -1.04999995 108 156 123 0.000000 0.000000 0.000000 0.000000 179.808199 0.000000 103.000000 0.330055 0.123601 0.935835
-15.27999973 4.84000015 -1.05999994 108 156 123 0.000000 0.000000 0.000000 0.000000 179.808199 0.000000 103.000000 0.120198 0.241689 0.962880
-15.28999996 4.84999990 -1.05999994 108 156 123 0.000000 0.000000 0.000000 0.000000 179.808199 0.000000 103.000000 0.691717 -0.117518 0.712543
-15.30000019 4.88000011 -1.04999995 108 156 123 0.000000 0.000000 0.000000 0.000000 179.808199 0.000000 103.000000 0.174599 -0.208731 0.962261
-15.31000042 4.88000011 -1.04999995 108 156 123 0.000000 0.000000 0.000000 0.000000 179.808199 0.000000 103.000000 0.195075 0.036650 0.980103
-15.30000019 4.88999987 -1.05999994 108 156 123 0.000000 0.000000 0.000000 0.000000 179.808199 0.000000 103.000000 0.260624 -0.038291 0.964681
-15.30000019 4.88000011 -1.05999994 108 156 123 0.000000 0.000000 0.000000 0.000000 179.808199 0.000000 103.000000 0.678221 -0.079876 0.730504
-15.32999992 4.84000015 -1.07000005 108 156 123 0.000000 0.000000 0.000000 0.000000 179.808199 0.000000 103.000000 0.250735 -0.185679 0.950082
-15.32999992 4.86999989 -1.05999994 108 156 123 0.000000 0.000000 0.000000 0.000000 179.808199 0.000000 103.000000 0.177793 0.403286 0.897636
-15.27999973 4.82999992 -1.09000003 108 156 123 0.000000 0.000000 0.000000 0.000000 179.808199 0.000000 103.000000 0.418570 -0.150000 0.895712
-15.27000046 4.82999992 -1.10000002 108 156 123 0.000000 0.000000 0.000000 0.000000 179.808199 0.000000 103.000000 0.332036 0.108886 0.936961
-15.26000023 4.82999992 -1.05999994 108 156 123 0.000000 0.000000 0.000000 0.000000 179.808199 0.000000 103.000000 0.419220 0.228259 0.878722
-15.27999973 4.78999996 -1.10000002 108 156 123 0.000000 0.000000 0.000000 0.000000 179.808199 0.000000 103.000000 0.543156 0.034552 0.838921
-15.27999973 4.78999996 -1.10000002 108 156 123 0.000000 0.000000 0.000000 0.000000 179.808199 0.000000 103.000000 0.543156 0.034552 0.838921
-15.31999969 4.78000021 -1.03999996 108 156 123 0.000000 0.000000 0.000000 0.000000 179.808199 0.000000 103.000000 0.312789 -0.355099 0.880947
-15.31999969 4.78999996 -1.09000003 108 156 123 0.000000 0.000000 0.000000 0.000000 179.808199 0.000000 103.000000 0.229073 -0.147916 0.962105
-15.26000023 4.75000000 -1.21000004 108 156 123 0.000000 0.000000 0.000000 0.000000 179.808199 0.000000 103.000000 0.375096 -0.019335 0.926784
-15.34000015 4.92000008 -1.04999995 108 156 123 0.000000 0.000000 0.000000 0.000000 179.808199 0.000000 103.000000 0.130076 -0.256209 0.957829
-15.36999989 4.94999981 -1.03999996 108 156 123 0.000000 0.000000 0.000000 0.000000 179.808199 0.000000 103.000000 0.301386 0.200457 0.932193
-15.35999966 4.94000006 -1.05999994 108 156 123 0.000000 0.000000 0.000000 0.000000 179.808199 0.000000 103.000000 -0.025320 -0.011141 0.999617
-15.39999962 4.96999979 -1.02999997 108 156 123 0.000000 0.000000 0.000000 0.000000 179.808199 0.000000 103.000000 0.115873 -0.150025 0.981869
-15.39999962 4.98999977 -1.05999994 108 156 123 0.000000 0.000000 0.000000 0.000000 179.808199 0.000000 103.000000 0.437084 0.017166 0.899257
-15.38000011 4.94999981 -1.04999995 108 156 123 0.000000 0.000000 0.000000 0.000000 179.808199 0.000000 103.000000 0.083337 0.329378 0.940513
-15.38000011 4.94000006 -1.03999996 108 156 123 0.000000 0.000000 0.000000 0.000000 179.808199 0.000000 103.000000 0.091691 -0.016181 0.995656
-15.40999985 4.92000008 -1.04999995 108 156 123 0.000000 0.000000 0.000000 0.000000 179.808199 0.000000 103.000000 0.239174 -0.076386 0.967967
-15.42000008 4.92000008 -1.05999994 108 156 123 0.000000 0.000000 0.000000 0.000000 179.808199 0.000000 103.000000 0.016563 -0.350377 0.936462
-15.39999962 4.92999983 -1.05999994 108 156 123 0.000000 0.000000 0.000000 0.000000 179.808199 0.000000 103.000000 0.089743 0.346916 0.933593
-15.42000008 4.92999983 -1.05999994 108 156 123 0.000000 0.000000 0.000000 0.000000 179.808199 0.000000 103.000000 0.144683 0.337594 0.930106
-15.39999962 4.94999981 -1.07000005 108 156 123 0.000000 0.000000 0.000000 0.000000 179.808199 0.000000 103.000000 0.126466 0.246413 0.960878
-15.35000038 4.96999979 -1.12000000 108 156 123 0.000000 0.000000 0.000000 0.000000 179.808199 0.000000 103.000000 0.305515 0.028917 0.951748
-15.43999958 4.96999979 -1.04999995 108 156 123 0.000000 0.000000 0.000000 0.000000 179.808199 0.000000 103.000000 0.110159 -0.303932 0.946304
-15.43000031 5.00000000 -1.04999995 108 156 123 0.000000 0.000000 0.000000 0.000000 179.808199 0.000000 103.000000 -0.062851 -0.296297 0.953026
-15.43999958 4.98999977 -1.05999994 108 156 123 0.000000 0.000000 0.000000 0.000000 179.808199 0.000000 103.000000 0.134079 0.410704 0.901856
-15.46000004 4.92000008 -1.04999995 108 156 123 0.000000 0.000000 0.000000 0.000000 179.808199 0.000000 103.000000 0.164503 0.103576 0.980924
-15.43000031 4.96000004 -1.04999995 108 156 123 0.000000 0.000000 0.000000 0.000000 179.808199 0.000000 103.000000 0.302290 -0.244984 0.921197
-15.43999958 4.94999981 -1.03999996 108 156 123 0.000000 0.000000 0.000000 0.000000 179.808199 0.000000 103.000000 -0.158264 0.021633 0.987160
-15.43000031 4.94999981 -1.05999994 108 156 123 0.000000 0.000000 0.000000 0.000000 179.808199 0.000000 103.000000 0.350962 0.011403 0.936320
-15.46000004 4.92999983 -1.09000003 108 156 123 0.000000 0.000000 0.000000 0.000000 179.808199 0.000000 103.000000 -0.161104 0.280239 0.946315
-15.43000031 4.94000006 -1.05999994 108 156 123 0.000000 0.000000 0.000000 0.000000 179.808199 0.000000 103.000000 0.026886 0.344393 0.938440
-15.43999958 4.94000006 -1.05999994 108 156 123 0.000000 0.000000 0.000000 0.000000 179.808199 0.000000 103.000000 0.115489 -0.177579 0.977307
-15.47000027 4.92999983 -1.05999994 108 156 123 0.000000 0.000000 0.000000 0.000000 179.808199 0.000000 103.000000 -0.157367 0.302418 0.940095
-15.36999989 4.90000010 -1.04999995 108 156 123 0.000000 0.000000 0.000000 0.000000 179.808199 0.000000 103.000000 0.254538 -0.121395 0.959413
-15.34000015 4.90000010 -1.04999995 108 156 123 0.000000 0.000000 0.000000 0.000000 179.808199 0.000000 103.000000 0.275005 -0.355276 0.893393
-15.36999989 4.88000011 -1.04999995 108 156 123 0.000000 0.000000 0.000000 0.000000 179.808199 0.000000 103.000000 0.056593 -0.361929 0.930486
-15.36999989 4.88999987 -1.10000002 108 156 123 0.000000 0.000000 0.000000 0.000000 179.808199 0.000000 103.000000 0.120869 0.250836 0.960454
-15.35000038 4.90999985 -1.08000004 108 156 123 0.000000 0.000000 0.000000 0.000000 179.808199 0.000000 103.000000 0.694745 0.133547 0.706749
-15.35000038 4.88999987 -1.08000004 108 156 123 0.000000 0.000000 0.000000 0.000000 179.808199 0.000000 103.000000 0.025847 0.274467 0.961249
-15.34000015 4.86999989 -1.04999995 108 156 123 0.000000 0.000000 0.000000 0.000000 179.808199 0.000000 103.000000 0.088335 -0.170620 0.981369
-15.35000038 4.86000013 -1.04999995 108 156 123 0.000000 0.000000 0.000000 0.000000 179.808199 0.000000 103.000000 0.475125 0.291306 0.830300
-15.34000015 4.84999990 -1.07000005 108 156 123 0.000000 0.000000 0.000000 0.000000 179.808199 0.000000 103.000000 0.418398 -0.137575 0.897784
-15.34000015 4.84000015 -1.07000005 108 156 123 0.000000 0.000000 0.000000 0.000000 179.808199 0.000000 103.000000 0.359177 -0.180298 0.915688
-15.35999966 4.84000015 -1.07000005 108 156 123 0.000000 0.000000 0.000000 0.000000 179.808199 0.000000 103.000000 0.069736 0.069736 0.995125
-15.34000015 4.84000015 -1.07000005 108 156 123 0.000000 0.000000 0.000000 0.000000 179.808199 0.000000 103.000000 0.359177 -0.180298 0.915688
-15.42000008 4.88999987 -1.05999994 108 156 123 0.000000 0.000000 0.000000 0.000000 179.808199 0.000000 103.000000 -0.287217 0.041389 0.956971
-15.40999985 4.88999987 -1.08000004 108 156 123 0.000000 0.000000 0.000000 0.000000 179.808199 0.000000 103.000000 -0.203728 0.051836 0.977654
-15.38000011 4.84999990 -1.08000004 108 156 123 0.000000 0.000000 0.000000 0.000000 179.808199 0.000000 103.000000 -0.182151 -0.089242 0.979212
-15.42000008 4.84999990 -1.09000003 108 156 123 0.000000 0.000000 0.000000 0.000000 179.808199 0.000000 103.000000 0.339362 -0.109515 0.934259
-15.39999962 4.84999990 -1.07000005 108 156 123 0.000000 0.000000 0.000000 0.000000 179.808199 0.000000 103.000000 0.165522 -0.050478 0.984913
-15.40999985 4.84000015 -1.10000002 108 156 123 0.000000 0.000000 0.000000 0.000000 179.808199 0.000000 103.000000 0.044459 -0.070483 0.996522
-15.35000038 4.80999994 -1.08000004 108 156 123 0.000000 0.000000 0.000000 0.000000 179.808199 0.000000 103.000000 -0.065212 -0.220245 0.973262
-15.35000038 4.82999992 -1.08000004 108 156 123 0.000000 0.000000 0.000000 0.000000 179.808199 0.000000 103.000000 0.003456 -0.197001 0.980397
-15.35999966 4.82999992 -1.07000005 108 156 123 0.000000 0.000000 0.000000 0.000000 179.808199 0.000000 103.000000 0.301684 -0.325463 0.896137
-15.36999989 4.82000017 -1.09000003 108 156 123 0.000000 0.000000 0.000000 0.000000 179.808199 0.000000 103.000000 -0.111150 0.228688 0.967134
-15.36999989 4.80999994 -1.08000004 108 156 123 0.000000 0.000000 0.000000 0.000000 179.808199 0.000000 103.000000 0.047840 -0.159857 0.985980
-15.35999966 4.82999992 -1.07000005 108 156 123 0.000000 0.000000 0.000000 0.000000 179.808199 0.000000 103.000000 0.301684 -0.325463 0.896137
-15.36999989 4.78000021 -1.10000002 108 156 123 0.000000 0.000000 0.000000 0.000000 179.808199 0.000000 103.000000 0.259493 0.118662 0.958427
-15.35000038 4.76000023 -1.10000002 108 156 123 0.000000 0.000000 0.000000 0.000000 179.808199 0.000000 103.000000 -0.000995 0.016913 0.999856
-15.39999962 4.80999994 -1.07000005 108 156 123 0.000000 0.000000 0.000000 0.000000 179.808199 0.000000 103.000000 0.271007 -0.404240 0.873582
-15.42000008 4.80000019 -1.10000002 108 156 123 0.000000 0.000000 0.000000 0.000000 179.808199 0.000000 103.000000 0.187778 0.195657 0.962527
-15.39000034 4.82999992 -1.07000005 108 156 123 0.000000 0.000000 0.000000 0.000000 179.808199 0.000000 103.000000 0.261813 0.058877 0.963321
-15.39999962 4.82999992 -1.07000005 108 156 123 0.000000 0.000000 0.000000 0.000000 179.808199 0.000000 103.000000 -0.144820 0.120480 0.982096
-15.39000034 4.82999992 -1.07000005 108 156 123 0.000000 0.000000 0.000000 0.000000 179.808199 0.000000 103.000000 0.261813 0.058877 0.963321
-15.39000034 4.78000021 -1.09000003 108 156 123 0.000000 0.000000 0.000000 0.000000 179.808199 0.000000 103.000000 -0.082436 0.203014 0.975699
-15.39000034 4.76000023 -1.09000003 108 156 123 0.000000 0.000000 0.000000 0.000000 179.808199 0.000000 103.000000 0.280329 -0.268828 0.921492
-15.42000008 4.76999998 -1.10000002 108 156 123 0.000000 0.000000 0.000000 0.000000 179.808199 0.000000 103.000000 0.023472 0.128539 0.991427
-15.42000008 4.76000023 -1.10000002 108 156 123 0.000000 0.000000 0.000000 0.000000 179.808199 0.000000 103.000000 0.189908 -0.008057 0.981769
-15.39999962 4.76999998 -1.09000003 108 156 123 0.000000 0.000000 0.000000 0.000000 179.808199 0.000000 103.000000 -0.025016 0.094625 0.995199
-15.36999989 4.78000021 -1.11000001 108 156 123 0.000000 0.000000 0.000000 0.000000 179.808199 0.000000 103.000000 0.361442 0.249321 0.898442
-15.34000015 4.76999998 -1.11000001 108 156 123 0.000000 0.000000 0.000000 0.000000 179.808199 0.000000 103.000000 -0.074170 0.190897 0.978804
-15.40999985 4.82000017 -1.15999997 108 156 123 0.000000 0.000000 0.000000 0.000000 179.808199 0.000000 103.000000 -0.083163 0.092276 0.992255
-15.46000004 4.88000011 -1.07000005 108 156 123 0.000000 0.000000 0.000000 0.000000 179.808199 0.000000 103.000000 0.182373 -0.038828 0.982462
-15.44999981 4.88999987 -1.07000005 108 156 123 0.000000 0.000000 0.000000 0.000000 179.808199 0.000000 103.000000 0.047827 0.041450 0.997995
-15.43999958 4.86000013 -1.08000004 108 156 123 0.000000 0.000000 0.000000 0.000000 179.808199 0.000000 103.000000 0.237305 -0.413419 0.879074
-15.46000004 4.86999989 -1.07000005 108 156 123 0.000000 0.000000 0.000000 0.000000 179.808199 0.000000 103.000000 0.200024 0.049108 0.978560
-15.44999981 4.84000015 -1.08000004 108 156 123 0.000000 0.000000 0.000000 0.000000 179.808199 0.000000 103.000000 0.302732 0.079256 0.949774
-15.43000031 4.84000015 -1.07000005 108 156 123 0.000000 0.000000 0.000000 0.000000 179.808199 0.000000 103.000000 -0.178487 0.240220 0.954168
-15.43999958 4.86000013 -1.07000005 108 156 123 0.000000 0.000000 0.000000 0.000000 179.808199 0.000000 103.000000 0.199186 -0.188634 0.961635
-15.44999981 4.84000015 -1.08000004 108 156 123 0.000000 0.000000 0.000000 0.000000 179.808199 0.000000 103.000000 0.302732 0.079256 0.949774
-15.43999958 4.86000013 -1.07000005 108 156 123 0.000000 0.000000 0.000000 0.000000 179.808199 0.000000 103.000000 0.199186 -0.188634 0.961635
-15.46000004 4.86000013 -1.07000005 108 156 123 0.000000 0.000000 0.000000 0.000000 179.808199 0.000000 103.000000 0.320705 -0.202030 0.925382
-15.48999977 4.88000011 -1.04999995 108 156 123 0.000000 0.000000 0.000000 0.000000 179.808199 0.000000 103.000000 0.135195 0.155040 0.978614
-15.47999954 4.88999987 -1.07000005 108 156 123 0.000000 0.000000 0.000000 0.000000 179.808199 0.000000 103.000000 0.139598 0.054224 0.988722
-15.47999954 4.84000015 -1.08000004 108 156 123 0.000000 0.000000 0.000000 0.000000 179.808199 0.000000 103.000000 -0.116064 0.155159 0.981048
-15.43999958 4.82999992 -1.10000002 108 156 123 0.000000 0.000000 0.000000 0.000000 179.808199 0.000000 103.000000 0.153902 -0.045129 0.987055
-15.43999958 4.78000021 -1.09000003 108 156 123 0.000000 0.000000 0.000000 0.000000 179.808199 0.000000 103.000000 0.248202 0.063610 0.966617
-15.43000031 4.75000000 -1.09000003 108 156 123 0.000000 0.000000 0.000000 0.000000 179.808199 0.000000 103.000000 0.146100 0.007807 0.989239
-15.43999958 4.78000021 -1.08000004 108 156 123 0.000000 0.000000 0.000000 0.000000 179.808199 0.000000 103.000000 -0.283738 0.131878 0.949790
-15.43000031 4.78000021 -1.13999999 108 156 123 0.000000 0.000000 0.000000 0.000000 179.808199 0.000000 103.000000 -0.063848 0.191544 0.979405
-15.47000027 4.80999994 -1.14999998 108 156 123 0.000000 0.000000 0.000000 0.000000 179.808199 0.000000 103.000000 -0.396130 0.103518 0.912341
-15.50000000 4.75000000 -1.15999997 108 156 123 0.000000 0.000000 0.000000 0.000000 179.808199 0.000000 103.000000 -0.244507 -0.412512 0.877525
-15.48999977 4.76999998 -1.14999998 108 156 123 0.000000 0.000000 0.000000 0.000000 179.808199 0.000000 103.000000 -0.463818 -0.480324 0.744420
-15.50000000 4.76000023 -1.15999997 108 156 123 0.000000 0.000000 0.000000 0.000000 179.808199 0.000000 103.000000 -0.362678 -0.140347 0.921286
-15.48999977 4.75000000 -1.14999998 108 156 123 0.000000 0.000000 0.000000 0.000000 179.808199 0.000000 103.000000 -0.501714 -0.197371 0.842216
-15.27000046 4.73999977 -1.20000005 108 156 123 0.000000 0.000000 0.000000 0.000000 179.808199 0.000000 103.000000 0.570092 0.020706 0.821320
-15.25000000 4.71999979 -1.22000003 108 156 123 0.000000 0.000000 0.000000 0.000000 179.808199 0.000000 103.000000 0.470564 0.088494 0.877917
-15.26000023 4.73999977 -1.21000004 108 156 123 0.000000 0.000000 0.000000 0.000000 179.808199 0.000000 103.000000 0.316774 0.108264 0.942302
-15.26000023 4.67999983 -1.22000003 108 156 123 0.000000 0.000000 0.000000 0.000000 179.808199 0.000000 103.000000 0.295826 -0.026212 0.954882
-15.27000046 4.69999981 -1.21000004 108 156 123 0.000000 0.000000 0.000000 0.000000 179.808199 0.000000 103.000000 0.410123 0.323455 0.852746
-15.26000023 4.69000006 -1.21000004 108 156 123 0.000000 0.000000 0.000000 0.000000 179.808199 0.000000 103.000000 0.513284 -0.009430 0.858167
-15.28999996 4.69000006 -1.20000005 108 156 123 0.000000 0.000000 0.000000 0.000000 179.808199 0.000000 103.000000 0.389186 0.479620 0.786447
-15.26000023 4.69000006 -1.19000006 108 156 123 0.000000 0.000000 0.000000 0.000000 179.808199 0.000000 103.000000 0.682397 -0.217055 0.698012
-15.30000019 4.73000002 -1.22000003 108 156 123 0.000000 0.000000 0.000000 0.000000 179.808199 0.000000 103.000000 0.777165 -0.026606 0.628734
-15.31000042 4.73999977 -1.20000005 108 156 123 0.000000 0.000000 0.000000 0.000000 179.808199 0.000000 103.000000 0.317176 -0.253451 0.913872
-15.31000042 4.71999979 -1.21000004 108 156 123 0.000000 0.000000 0.000000 0.000000 179.808199 0.000000 103.000000 0.564246 -0.112266 0.817938
-15.30000019 4.71000004 -1.21000004 108 156 123 0.000000 0.000000 0.000000 0.000000 179.808199 0.000000 103.000000 0.161608 0.146574 0.975909
-15.31999969 4.71999979 -1.20000005 108 156 123 0.000000 0.000000 0.000000 0.000000 179.808199 0.000000 103.000000 0.128893 -0.121666 0.984167
-15.30000019 4.69000006 -1.19000006 108 156 123 0.000000 0.000000 0.000000 0.000000 179.808199 0.000000 103.000000 0.453514 -0.096881 0.885968
-15.31000042 4.69000006 -1.19000006 108 156 123 0.000000 0.000000 0.000000 0.000000 179.808199 0.000000 103.000000 0.037646 0.356984 0.933352
-15.30000019 4.69000006 -1.19000006 108 156 123 0.000000 0.000000 0.000000 0.000000 179.808199 0.000000 103.000000 0.453514 -0.096881 0.885968
-15.30000019 4.67000008 -1.20000005 108 156 123 0.000000 0.000000 0.000000 0.000000 179.808199 0.000000 103.000000 0.486817 0.275293 0.828989
-15.27000046 4.63999987 -1.21000004 108 156 123 0.000000 0.000000 0.000000 0.000000 179.808199 0.000000 103.000000 0.440159 -0.067189 0.895402
-15.27000046 4.65000010 -1.21000004 108 156 123 0.000000 0.000000 0.000000 0.000000 179.808199 0.000000 103.000000 0.539458 0.078285 0.838366
-15.26000023 4.65999985 -1.22000003 108 156 123 0.000000 0.000000 0.000000 0.000000 179.808199 0.000000 103.000000 0.349733 0.026903 0.936463
-15.26000023 4.65000010 -1.21000004 108 156 123 0.000000 0.000000 0.000000 0.000000 179.808199 0.000000 103.000000 0.614331 -0.067304 0.786172
-15.27000046 4.65999985 -1.21000004 108 156 123 0.000000 0.000000 0.000000 0.000000 179.808199 0.000000 103.000000 0.432111 0.326033 0.840822
-15.32999992 4.65000010 -1.19000006 108 156 123 0.000000 0.000000 0.000000 0.000000 179.808199 0.000000 103.000000 0.559237 -0.078665 0.825267
-15.32999992 4.63999987 -1.23000002 108 156 123 0.000000 0.000000 0.000000 0.000000 179.808199 0.000000 103.000000 0.330368 -0.197087 0.923046
-15.36999989 4.73999977 -1.11000001 108 156 123 0.000000 0.000000 0.000000 0.000000 179.808199 0.000000 103.000000 0.343585 -0.166884 0.924175
-15.35999966 4.73999977 -1.12000000 108 156 123 0.000000 0.000000 0.000000 0.000000 179.808199 0.000000 103.000000 0.078855 -0.293443 0.952719
-15.42000008 4.73000002 -1.12000000 108 156 123 0.000000 0.000000 0.000000 0.000000 179.808199 0.000000 103.000000 -0.158173 0.138246 0.977686
-15.42000008 4.73999977 -1.12000000 108 156 123 0.000000 0.000000 0.000000 0.000000 179.808199 0.000000 103.000000 -0.057990 0.171602 0.983458
-15.42000008 4.69999981 -1.13999999 108 156 123 0.000000 0.000000 0.000000 0.000000 179.808199 0.000000 103.000000 -0.282368 0.152668 0.947080
-15.40999985 4.69000006 -1.13000000 108 156 123 0.000000 0.000000 0.000000 0.000000 179.808199 0.000000 103.000000 -0.209798 0.276488 0.937837
-15.42000008 4.69999981 -1.13999999 108 156 123 0.000000 0.000000 0.000000 0.000000 179.808199 0.000000 103.000000 -0.282368 0.152668 0.947080
-15.44999981 4.73000002 -1.10000002 108 156 123 0.000000 0.000000 0.000000 0.000000 179.808199 0.000000 103.000000 -0.185849 0.155088 0.970262
-15.46000004 4.71000004 -1.12000000 108 156 123 0.000000 0.000000 0.000000 0.000000 179.808199 0.000000 103.000000 -0.429051 -0.147800 0.891106
-15.50000000 4.73000002 -1.13999999 108 156 123 0.000000 0.000000 0.000000 0.000000 179.808199 0.000000 103.000000 0.510710 0.425318 -0.747181
-15.50000000 4.67000008 -1.13000000 108 156 123 0.000000 0.000000 0.000000 0.000000 179.808199 0.000000 103.000000 -0.627715 0.088841 0.773357
-15.48999977 4.67000008 -1.12000000 108 156 123 0.000000 0.000000 0.000000 0.000000 179.808199 0.000000 103.000000 -0.361091 -0.283180 0.888494
-15.48999977 4.69000006 -1.14999998 108 156 123 0.000000 0.000000 0.000000 0.000000 179.808199 0.000000 103.000000 -0.707101 -0.004151 0.707101
-15.46000004 4.65000010 -1.12000000 108 156 123 0.000000 0.000000 0.000000 0.000000 179.808199 0.000000 103.000000 -0.054168 -0.512514 0.856968
-15.43000031 4.63999987 -1.11000001 108 156 123 0.000000 0.000000 0.000000 0.000000 179.808199 0.000000 103.000000 -0.384661 -0.362858 0.848746
-15.46000004 4.65000010 -1.12000000 108 156 123 0.000000 0.000000 0.000000 0.000000 179.808199 0.000000 103.000000 -0.054168 -0.512514 0.856968
-15.46000004 4.61000013 -1.14999998 108 156 123 0.000000 0.000000 0.000000 0.000000 179.808199 0.000000 103.000000 -0.168541 -0.055395 0.984137
-15.48999977 4.65000010 -1.13000000 108 156 123 0.000000 0.000000 0.000000 0.000000 179.808199 0.000000 103.000000 0.578220 -0.157696 -0.800496
-15.47000027 4.61999989 -1.13999999 108 156 123 0.000000 0.000000 0.000000 0.000000 179.808199 0.000000 103.000000 0.577897 -0.087909 -0.811361
-15.48999977 4.63000011 -1.12000000 108 156 123 0.000000 0.000000 0.000000 0.000000 179.808199 0.000000 103.000000 0.634203 0.116788 -0.764296
-15.47000027 4.63000011 -1.13999999 108 156 123 0.000000 0.000000 0.000000 0.000000 179.808199 0.000000 103.000000 -0.420553 -0.499100 0.757650
-15.47000027 4.61999989 -1.13999999 108 156 123 0.000000 0.000000 0.000000 0.000000 179.808199 0.000000 103.000000 0.577897 -0.087909 -0.811361
-15.47999954 4.61999989 -1.14999998 108 156 123 0.000000 0.000000 0.000000 0.000000 179.808199 0.000000 103.000000 -0.403531 -0.077445 0.911682
-15.47999954 4.65999985 -1.15999997 108 156 123 0.000000 0.000000 0.000000 0.000000 179.808199 0.000000 103.000000 0.694338 -0.015368 -0.719485
-15.50000000 4.61000013 -1.13999999 108 156 123 0.000000 0.000000 0.000000 0.000000 179.808199 0.000000 103.000000 -0.427827 -0.434285 0.792692
-15.48999977 4.61000013 -1.12000000 108 156 123 0.000000 0.000000 0.000000 0.000000 179.808199 0.000000 103.000000 -0.157302 -0.090058 0.983436
-15.47000027 4.59999990 -1.14999998 108 156 123 0.000000 0.000000 0.000000 0.000000 179.808199 0.000000 103.000000 -0.139466 -0.349356 0.926553
-15.50000000 4.59000015 -1.15999997 108 156 123 0.000000 0.000000 0.000000 0.000000 179.808199 0.000000 103.000000 -0.187198 -0.298130 0.935989
-15.35000038 4.71999979 -1.20000005 108 156 123 0.000000 0.000000 0.000000 0.000000 179.808199 0.000000 103.000000 0.056554 -0.037347 0.997701
-15.35000038 4.73000002 -1.20000005 108 156 123 0.000000 0.000000 0.000000 0.000000 179.808199 0.000000 103.000000 0.129376 0.030375 0.991130
-15.34000015 4.73999977 -1.21000004 108 156 123 0.000000 0.000000 0.000000 0.000000 179.808199 0.000000 103.000000 0.400356 -0.035675 0.915665
-15.34000015 4.73999977 -1.20000005 108 156 123 0.000000 0.000000 0.000000 0.000000 179.808199 0.000000 103.000000 0.166761 -0.214032 0.962487
-15.35999966 4.73999977 -1.19000006 108 156 123 0.000000 0.000000 0.000000 0.000000 179.808199 0.000000 103.000000 -0.073625 0.233353 0.969601
-15.35999966 4.67999983 -1.20000005 108 156 123 0.000000 0.000000 0.000000 0.000000 179.808199 0.000000 103.000000 0.057715 0.062071 0.996402
-15.36999989 4.69999981 -1.21000004 108 156 123 0.000000 0.000000 0.000000 0.000000 179.808199 0.000000 103.000000 0.274648 -0.257572 0.926404
-15.39999962 4.69000006 -1.20000005 108 156 123 0.000000 0.000000 0.000000 0.000000 179.808199 0.000000 103.000000 0.181497 0.166050 0.969271
-15.35999966 4.65999985 -1.20000005 108 156 123 0.000000 0.000000 0.000000 0.000000 179.808199 0.000000 103.000000 0.298262 -0.280803 0.912244
-15.34000015 4.63999987 -1.19000006 108 156 123 0.000000 0.000000 0.000000 0.000000 179.808199 0.000000 103.000000 0.201864 -0.314795 0.927445
-15.39000034 4.61999989 -1.20000005 108 156 123 0.000000 0.000000 0.000000 0.000000 179.808199 0.000000 103.000000 -0.150063 0.165195 0.974778
-15.39000034 4.61999989 -1.20000005 108 156 123 0.000000 0.000000 0.000000 0.000000 179.808199 0.000000 103.000000 -0.150063 0.165195 0.974778
-15.50000000 4.71999979 -1.19000006 108 156 123 0.000000 0.000000 0.000000 0.000000 179.808199 0.000000 103.000000 -0.634246 0.012491 0.773031
-15.50000000 4.71999979 -1.19000006 108 156 123 0.000000 0.000000 0.000000 0.000000 179.808199 0.000000 103.000000 -0.634246 0.012491 0.773031
-15.50000000 4.73000002 -1.19000006 108 156 123 0.000000 0.000000 0.000000 0.000000 179.808199 0.000000 103.000000 -0.596711 -0.446279 0.666912
-15.43000031 4.71000004 -1.19000006 108 156 123 0.000000 0.000000 0.000000 0.000000 179.808199 0.000000 103.000000 -0.117235 0.169066 0.978607
-15.57999992 4.94999981 -0.82999998 108 156 123 0.000000 0.000000 0.000000 0.000000 179.808199 0.000000 176.000000 0.161963 -0.325310 0.931634
-15.55000019 4.94999981 -0.83999997 108 156 123 0.000000 0.000000 0.000000 0.000000 179.808199 0.000000 176.000000 0.128504 -0.366166 0.921634
-15.55000019 4.96000004 -0.82999998 108 156 123 0.000000 0.000000 0.000000 0.000000 179.808199 0.000000 176.000000 -0.088520 -0.323693 0.942012
-15.63000011 4.94000006 -0.81999999 108 156 123 0.000000 0.000000 0.000000 0.000000 179.808199 0.000000 176.000000 -0.082210 -0.463998 0.882013
-15.60999966 4.96000004 -0.83999997 108 156 123 0.000000 0.000000 0.000000 0.000000 179.808199 0.000000 176.000000 -0.041744 -0.437643 0.898179
-15.65999985 4.92999983 -0.81999999 108 156 123 0.000000 0.000000 0.000000 0.000000 179.808199 0.000000 176.000000 0.118758 -0.155488 0.980673
-15.57999992 5.01999998 -0.98000002 108 156 123 0.000000 0.000000 0.000000 0.000000 179.808199 0.000000 107.000000 -0.510592 -0.062950 0.857515
-15.63000011 5.03000021 -0.95999998 108 156 123 0.000000 0.000000 0.000000 0.000000 179.808199 0.000000 107.000000 -0.484431 -0.438451 0.757026
-15.64999962 5.03000021 -0.95999998 108 156 123 0.000000 0.000000 0.000000 0.000000 179.808199 0.000000 107.000000 -0.067322 -0.110682 0.991573
-15.64999962 5.01999998 -0.97000003 108 156 123 0.000000 0.000000 0.000000 0.000000 179.808199 0.000000 107.000000 -0.043134 -0.036822 0.998391
-15.65999985 5.03000021 -0.99000001 108 156 123 0.000000 0.000000 0.000000 0.000000 179.808199 0.000000 107.000000 -0.331862 -0.581163 0.743046
-15.65999985 5.03000021 -0.99000001 108 156 123 0.000000 0.000000 0.000000 0.000000 179.808199 0.000000 107.000000 -0.331862 -0.581163 0.743046
-15.64000034 5.01999998 -0.99000001 108 156 123 0.000000 0.000000 0.000000 0.000000 179.808199 0.000000 107.000000 -0.562798 -0.363780 0.742241
-15.63000011 4.92000008 -0.89999998 108 156 123 0.000000 0.000000 0.000000 0.000000 179.808199 0.000000 176.000000 0.042210 -0.323610 0.945248
-15.60999966 4.92000008 -0.88999999 108 156 123 0.000000 0.000000 0.000000 0.000000 179.808199 0.000000 176.000000 -0.484370 -0.119296 0.866692
-15.61999989 5.00000000 -0.97000003 108 156 123 0.000000 0.000000 0.000000 0.000000 179.808199 0.000000 107.000000 -0.120328 -0.380347 0.916983
-15.63000011 5.00000000 -0.97000003 108 156 123 0.000000 0.000000 0.000000 0.000000 179.808199 0.000000 107.000000 -0.111085 -0.231108 0.966566
-15.64000034 5.00000000 -0.97000003 108 156 123 0.000000 0.000000 0.000000 0.000000 179.808199 0.000000 107.000000 0.081467 -0.068075 0.994348
-15.65999985 4.98999977 -0.99000001 108 156 123 0.000000 0.000000 0.000000 0.000000 179.808199 0.000000 107.000000 -0.659675 -0.293724 0.691776
-15.64000034 4.98999977 -0.98000002 108 156 123 0.000000 0.000000 0.000000 0.000000 179.808199 0.000000 107.000000 -0.024247 -0.345840 0.937980
-15.53999996 4.90999985 -0.82999998 108 156 123 0.000000 0.000000 0.000000 0.000000 179.808199 0.000000 176.000000 -0.098826 -0.304383 0.947409
-15.55000019 4.90000010 -0.83999997 108 156 123 0.000000 0.000000 0.000000 0.000000 179.808199 0.000000 176.000000 -0.329786 0.031833 0.943519
-15.56999969 4.86999989 -0.82999998 108 156 123 0.000000 0.000000 0.000000 0.000000 179.808199 0.000000 176.000000 -0.542295 -0.230205 0.808035
-15.63000011 4.84999990 -0.83999997 108 156 123 0.000000 0.000000 0.000000 0.000000 179.808199 0.000000 176.000000 -0.167508 -0.314250 0.934445
-15.60999966 4.84000015 -0.82999998 108 156 123 0.000000 0.000000 0.000000 0.000000 179.808199 0.000000 176.000000 -0.416470 -0.231372 0.879215
-15.61999989 4.84999990 -0.83999997 108 156 123 0.000000 0.000000 0.000000 0.000000 179.808199 0.000000 176.000000 0.087190 -0.358151 0.929584
-15.65999985 4.88999987 -0.81999999 108 156 123 0.000000 0.000000 0.000000 0.000000 179.808199 0.000000 176.000000 -0.318739 -0.277611 0.906277
-15.65999985 4.88000011 -0.81999999 108 156 123 0.000000 0.000000 0.000000 0.000000 179.808199 0.000000 176.000000 -0.247722 -0.347397 0.904405
-15.64000034 4.88999987 -0.83999997 108 156 123 0.000000 0.000000 0.000000 0.000000 179.808199 0.000000 176.000000 -0.169049 -0.531083 0.830285
-15.65999985 4.86999989 -0.81999999 108 156 123 0.000000 0.000000 0.000000 0.000000 179.808199 0.000000 176.000000 -0.390604 -0.228467 0.891757
-15.60000038 4.82999992 -0.83999997 108 156 123 0.000000 0.000000 0.000000 0.000000 179.808199 0.000000 176.000000 -0.305262 -0.299363 0.903989
-15.60999966 4.82999992 -0.83999997 108 156 123 0.000000 0.000000 0.000000 0.000000 179.808199 0.000000 176.000000 -0.398226 -0.158434 0.903501
-15.60000038 4.82999992 -0.82999998 108 156 123 0.000000 0.000000 0.000000 0.000000 179.808199 0.000000 176.000000 -0.347938 -0.160694 0.923643
-15.52999973 4.88000011 -0.87000000 108 156 123 0.000000 0.000000 0.000000 0.000000 179.808199 0.000000 176.000000 -0.023197 -0.517164 0.855572
-15.52999973 4.88000011 -0.87000000 108 156 123 0.000000 0.000000 0.000000 0.000000 179.808199 0.000000 176.000000 -0.023197 -0.517164 0.855572
-15.52000046 4.88999987 -0.86000001 108 156 123 0.000000 0.000000 0.000000 0.000000 179.808199 0.000000 176.000000 -0.044596 -0.447309 0.893267
-15.55000019 4.88999987 -0.87000000 108 156 123 0.000000 0.000000 0.000000 0.000000 179.808199 0.000000 176.000000 -0.334638 -0.356030 0.872502
-15.56999969 4.88999987 -0.88999999 108 156 123 0.000000 0.000000 0.000000 0.000000 179.808199 0.000000 176.000000 -0.471170 0.028351 0.881587
-15.55000019 4.90999985 -0.88999999 108 156 123 0.000000 0.000000 0.000000 0.000000 179.808199 0.000000 176.000000 -0.314554 -0.031582 0.948714
-15.55000019 4.86000013 -0.85000002 108 156 123 0.000000 0.000000 0.000000 0.000000 179.808199 0.000000 176.000000 0.178385 -0.369613 0.911902
-15.56000042 4.86000013 -0.85000002 108 156 123 0.000000 0.000000 0.000000 0.000000 179.808199 0.000000 176.000000 0.009108 -0.409861 0.912103
-15.56000042 4.86999989 -0.85000002 108 156 123 0.000000 0.000000 0.000000 0.000000 179.808199 0.000000 176.000000 0.103695 -0.405103 0.908371
-15.56000042 4.80999994 -0.86000001 108 156 123 0.000000 0.000000 0.000000 0.000000 179.808199 0.000000 176.000000 -0.399019 0.041095 0.916021
-15.64999962 4.90999985 -0.85000002 108 156 123 0.000000 0.000000 0.000000 0.000000 179.808199 0.000000 176.000000 0.620912 0.222532 -0.751630
-15.71000004 5.05000019 -0.80000001 108 156 123 0.000000 0.000000 0.000000 0.000000 179.808199 0.000000 176.000000 -0.440875 -0.249981 0.862055
-15.72000027 5.05999994 -0.80000001 108 156 123 0.000000 0.000000 0.000000 0.000000 179.808199 0.000000 176.000000 0.082584 -0.020378 0.996376
-15.71000004 5.03000021 -0.80000001 108 156 123 0.000000 0.000000 0.000000 0.000000 179.808199 0.000000 176.000000 -0.076148 -0.182513 0.980250
-15.71000004 5.03000021 -0.80000001 108 156 123 0.000000 0.000000 0.000000 0.000000 179.808199 0.000000 176.000000 -0.076148 -0.182513 0.980250
-15.72000027 5.03000021 -0.80000001 108 156 123 0.000000 0.000000 0.000000 0.000000 179.808199 0.000000 176.000000 0.030446 0.047244 0.998419
-15.71000004 5.03999996 -0.80000001 108 156 123 0.000000 0.000000 0.000000 0.000000 179.808199 0.000000 176.000000 -0.225343 -0.328686 0.917162
-15.72000027 5.03999996 -0.81000000 108 156 123 0.000000 0.000000 0.000000 0.000000 179.808199 0.000000 176.000000 -0.547020 -0.226513 0.805892
-15.75000000 5.05000019 -0.79000002 108 156 123 0.000000 0.000000 0.000000 0.000000 179.808199 0.000000 176.000000 -0.214784 -0.261898 0.940892
-15.75000000 5.05000019 -0.79000002 108 156 123 0.000000 0.000000 0.000000 0.000000 179.808199 0.000000 176.000000 -0.214784 -0.261898 0.940892
-15.76000023 5.03999996 -0.80000001 108 156 123 0.000000 0.000000 0.000000 0.000000 179.808199 0.000000 176.000000 0.026751 -0.182607 0.982822
-15.73999977 5.03999996 -0.81000000 108 156 123 0.000000 0.000000 0.000000 0.000000 179.808199 0.000000 176.000000 -0.285478 -0.385169 0.877580
-15.72000027 4.94999981 -0.81999999 108 156 123 0.000000 0.000000 0.000000 0.000000 179.808199 0.000000 176.000000 -0.686232 -0.111161 0.718839
-15.76000023 5.00000000 -0.82999998 108 156 123 0.000000 0.000000 0.000000 0.000000 179.808199 0.000000 176.000000 -0.111107 -0.273193 0.955521
-15.72999954 4.98000002 -0.81000000 108 156 123 0.000000 0.000000 0.000000 0.000000 179.808199 0.000000 176.000000 0.024529 -0.071453 0.997142
-15.77999973 4.98000002 -0.80000001 108 156 123 0.000000 0.000000 0.000000 0.000000 179.808199 0.000000 176.000000 -0.187332 -0.124469 0.974379
-15.77999973 4.98999977 -0.79000002 108 156 123 0.000000 0.000000 0.000000 0.000000 179.808199 0.000000 176.000000 -0.553358 -0.377067 0.742708
-15.77999973 4.98999977 -0.80000001 108 156 123 0.000000 0.000000 0.000000 0.000000 179.808199 0.000000 176.000000 0.740044 0.243539 -0.626916
-15.78999996 5.00000000 -0.81000000 108 156 123 0.000000 0.000000 0.000000 0.000000 179.808199 0.000000 176.000000 -0.041162 -0.407641 0.912214
-15.77999973 4.94999981 -0.79000002 108 156 123 0.000000 0.000000 0.000000 0.000000 179.808199 0.000000 176.000000 -0.080707 -0.219771 0.972207
-15.78999996 4.94000006 -0.81999999 108 156 123 0.000000 0.000000 0.000000 0.000000 179.808199 0.000000 176.000000 -0.430585 -0.593509 0.679959
-15.81000042 5.00000000 -0.80000001 108 156 123 0.000000 0.000000 0.000000 0.000000 179.808199 0.000000 176.000000 -0.241485 -0.559310 0.793005
