//X Y Z R G B PointSourceId ScanDirectionFlag NumberOfReturns ReturnNumber GpsTime Intensity Classification Nx Ny Nz
-12.07999992 16.07999992 -0.25000000 220 96 97 119.000000 1.000000 4.000000 5.000000 51.808199 78.000000 56.000000 0.691617 0.632756 0.348261
-12.07999992 16.04000092 -0.25000000 220 96 97 119.000000 1.000000 4.000000 5.000000 51.808199 78.000000 56.000000 0.679312 0.723905 0.120403
-12.07999992 16.03000069 -0.25000000 220 96 97 119.000000 1.000000 4.000000 5.000000 51.808199 78.000000 56.000000 0.869994 0.447638 0.206716
-12.26000023 16.05999947 -0.01000000 220 96 97 119.000000 1.000000 4.000000 5.000000 51.808199 78.000000 54.000000 0.446426 0.894193 -0.033515
-12.25000000 16.05999947 -0.03000000 220 96 97 119.000000 1.000000 4.000000 5.000000 51.808199 78.000000 54.000000 0.390567 0.911322 -0.130189
-12.27000046 16.04000092 -0.04000000 220 96 97 119.000000 1.000000 4.000000 5.000000 51.808199 78.000000 54.000000 -0.007400 0.996825 0.079281
-12.31000042 16.07999992 -0.04000000 220 96 97 119.000000 1.000000 4.000000 5.000000 51.808199 78.000000 54.000000 0.229497 0.973303 -0.003531
-12.28999996 16.07999992 -0.04000000 220 96 97 119.000000 1.000000 4.000000 5.000000 51.808199 78.000000 54.000000 0.029796 0.928866 0.369215
-12.25000000 16.07999992 -0.08000000 220 96 97 119.000000 1.000000 4.000000 5.000000 51.808199 78.000000 54.000000 0.176570 0.980266 0.088894
-12.26000023 16.04999924 -0.08000000 220 96 97 119.000000 1.000000 4.000000 5.000000 51.808199 78.000000 54.000000 0.598298 0.736987 0.314469
-12.26000023 16.01000023 -0.14000000 220 96 97 119.000000 1.000000 4.000000 5.000000 51.808199 78.000000 54.000000 0.011124 0.952980 0.302828
-12.27999973 15.97000027 -0.05000000 220 96 97 119.000000 1.000000 4.000000 5.000000 51.808199 78.000000 54.000000 0.090660 0.821697 0.562668
-12.28999996 15.97000027 -0.06000000 220 96 97 119.000000 1.000000 4.000000 5.000000 51.808199 78.000000 54.000000 -0.122799 0.990422 0.063121
-12.31999969 15.92000008 -0.02000000 220 96 97 119.000000 1.000000 4.000000 5.000000 51.808199 78.000000 54.000000 0.309937 0.943228 -0.119413
-12.31999969 15.92000008 -0.01000000 220 96 97 119.000000 1.000000 4.000000 5.000000 51.808199 78.000000 54.000000 0.088741 0.941714 0.324500
-12.28999996 15.93999958 -0.04000000 220 96 97 119.000000 1.000000 4.000000 5.000000 51.808199 78.000000 54.000000 0.141209 0.915760 0.376091
-12.30000019 15.94999981 -0.05000000 220 96 97 119.000000 1.000000 4.000000 5.000000 51.808199 78.000000 54.000000 -0.157603 0.949660 0.270754
-12.26000023 15.98999977 -0.10000000 220 96 97 119.000000 1.000000 4.000000 5.000000 51.808199 78.000000 54.000000 0.235492 0.956602 0.171630
-12.27999973 15.96000004 -0.14000000 220 96 97 119.000000 1.000000 4.000000 5.000000 51.808199 78.000000 54.000000 -0.006883 0.999976 -0.000983
-12.25000000 15.98999977 -0.13000000 220 96 97 119.000000 1.000000 4.000000 5.000000 51.808199 78.000000 54.000000 0.436406 0.786829 0.436406
-12.25000000 15.98999977 -0.13000000 220 96 97 119.000000 1.000000 4.000000 5.000000 51.808199 78.000000 54.000000 0.436406 0.786829 0.436406
-12.30000019 15.96000004 -0.10000000 220 96 97 119.000000 1.000000 4.000000 5.000000 51.808199 78.000000 54.000000 0.139662 0.749372 0.647253
-12.30000019 15.94999981 -0.10000000 220 96 97 119.000000 1.000000 4.000000 5.000000 51.808199 78.000000 54.000000 0.009155 0.906345 0.422438
-12.28999996 15.94999981 -0.10000000 220 96 97 119.000000 1.000000 4.000000 5.000000 51.808199 78.000000 54.000000 -0.152930 0.932734 0.326526
-12.30000019 15.92000008 -0.11000000 220 96 97 119.000000 1.000000 4.000000 5.000000 51.808199 78.000000 54.000000 0.451157 0.883813 0.123819
-12.31000042 15.92000008 -0.15000001 220 96 97 119.000000 1.000000 4.000000 5.000000 51.808199 78.000000 54.000000 0.510692 0.789251 0.340995
-12.28999996 15.94999981 -0.12000000 220 96 97 119.000000 1.000000 4.000000 5.000000 51.808199 78.000000 54.000000 0.121955 0.984091 0.129200
-12.40999985 16.04999924 -0.13000000 220 96 97 119.000000 1.000000 4.000000 5.000000 51.808199 78.000000 54.000000 -0.125014 0.942311 0.310519
-12.40999985 16.04999924 -0.13000000 220 96 97 119.000000 1.000000 4.000000 5.000000 51.808199 78.000000 54.000000 -0.125014 0.942311 0.310519
-12.34000015 15.92000008 -0.07000000 220 96 97 119.000000 1.000000 4.000000 5.000000 51.808199 78.000000 54.000000 -0.088589 0.788589 0.608506
-12.35000038 15.93999958 -0.04000000 220 96 97 119.000000 1.000000 4.000000 5.000000 51.808199 78.000000 54.000000 0.021002 0.957445 0.287851
-12.38000011 15.97000027 0.01000000 220 96 97 119.000000 1.000000 4.000000 5.000000 51.808199 78.000000 54.000000 0.083895 0.848900 0.521853
-12.38000011 15.92000008 -0.03000000 220 96 97 119.000000 1.000000 4.000000 5.000000 51.808199 78.000000 54.000000 -0.373871 0.843165 0.386385
-12.35999966 15.93999958 -0.13000000 220 96 97 119.000000 1.000000 4.000000 5.000000 51.808199 78.000000 54.000000 -0.270620 0.875359 0.400639
-12.34000015 15.93999958 -0.13000000 220 96 97 119.000000 1.000000 4.000000 5.000000 51.808199 78.000000 54.000000 0.335714 0.803485 0.491638
-12.32999992 15.93999958 -0.14000000 220 96 97 119.000000 1.000000 4.000000 5.000000 51.808199 78.000000 54.000000 0.399966 0.839145 0.368596
-12.40999985 15.93000031 -0.12000000 220 96 97 119.000000 1.000000 4.000000 5.000000 51.808199 78.000000 54.000000 0.061818 0.996672 -0.053141
-12.27999973 16.07999992 -0.23999999 220 96 97 119.000000 1.000000 4.000000 5.000000 51.808199 78.000000 54.000000 0.252954 0.967460 -0.005994
-12.27999973 16.06999969 -0.22000000 220 96 97 119.000000 1.000000 4.000000 5.000000 51.808199 78.000000 54.000000 0.134907 0.860216 0.491760
-12.26000023 16.01000023 -0.20999999 220 96 97 119.000000 1.000000 4.000000 5.000000 51.808199 78.000000 54.000000 0.447371 0.734613 0.510102
-12.25000000 16.02000046 -0.23000000 220 96 97 119.000000 1.000000 4.000000 5.000000 51.808199 78.000000 54.000000 0.376238 0.916118 -0.138467
-12.30000019 16.06999969 -0.17000000 220 96 97 119.000000 1.000000 4.000000 5.000000 51.808199 78.000000 54.000000 0.196807 0.971336 0.133321
-12.26000023 16.07999992 -0.27000001 220 96 97 119.000000 1.000000 4.000000 5.000000 51.808199 78.000000 54.000000 0.260025 0.963474 -0.064064
-12.26000023 16.04000092 -0.25000000 220 96 97 119.000000 1.000000 4.000000 5.000000 51.808199 78.000000 54.000000 0.372994 0.823761 0.426959
-12.26000023 16.04000092 -0.31000000 220 96 97 119.000000 1.000000 4.000000 5.000000 51.808199 78.000000 54.000000 0.421392 0.818932 0.389589
-12.30000019 16.06999969 -0.25000000 220 96 97 119.000000 1.000000 4.000000 5.000000 51.808199 78.000000 54.000000 0.076785 0.991334 -0.106583
-12.27999973 15.97000027 -0.17000000 220 96 97 119.000000 1.000000 4.000000 5.000000 51.808199 78.000000 54.000000 0.042968 0.994883 0.091445
-12.31999969 15.93000031 -0.19000000 220 96 97 119.000000 1.000000 4.000000 5.000000 51.808199 78.000000 54.000000 0.233199 0.962760 -0.136793
-12.31999969 15.93000031 -0.18000001 220 96 97 119.000000 1.000000 4.000000 5.000000 51.808199 78.000000 54.000000 0.157065 0.987103 -0.030954
-12.31999969 15.92000008 -0.19000000 220 96 97 119.000000 1.000000 4.000000 5.000000 51.808199 78.000000 54.000000 0.384119 0.859254 0.337839
-12.28999996 15.94999981 -0.23000000 220 96 97 119.000000 1.000000 4.000000 5.000000 51.808199 78.000000 54.000000 0.215188 0.939884 0.265167
-12.31999969 15.93000031 -0.20999999 220 96 97 119.000000 1.000000 4.000000 5.000000 51.808199 78.000000 54.000000 0.317195 0.946406 0.060850
-12.31999969 15.93000031 -0.20999999 220 96 97 119.000000 1.000000 4.000000 5.000000 51.808199 78.000000 54.000000 0.317195 0.946406 0.060850
-12.27999973 15.98999977 -0.31000000 220 96 97 119.000000 1.000000 4.000000 5.000000 51.808199 78.000000 54.000000 0.470018 0.846644 0.249553
-12.30000019 15.93999958 -0.28999999 220 96 97 119.000000 1.000000 4.000000 5.000000 51.808199 78.000000 54.000000 0.539965 0.804501 0.247419
-12.30000019 15.93000031 -0.31999999 220 96 97 119.000000 1.000000 4.000000 5.000000 51.808199 78.000000 54.000000 0.379982 0.924666 0.024640
-12.32999992 16.06999969 -0.16000000 220 96 97 119.000000 1.000000 4.000000 5.000000 51.808199 78.000000 54.000000 0.004955 0.999948 -0.008919
-12.36999989 16.05999947 -0.17000000 220 96 97 119.000000 1.000000 4.000000 5.000000 51.808199 78.000000 54.000000 0.183769 0.874740 0.448396
-12.39999962 16.07999992 -0.19000000 220 96 97 119.000000 1.000000 4.000000 5.000000 51.808199 78.000000 54.000000 0.043880 0.999036 0.001020
-12.39000034 16.06999969 -0.17000000 220 96 97 119.000000 1.000000 4.000000 5.000000 51.808199 78.000000 54.000000 -0.201643 0.900864 0.384427
-12.39000034 16.06999969 -0.16000000 220 96 97 119.000000 1.000000 4.000000 5.000000 51.808199 78.000000 54.000000 -0.023156 0.993509 0.111370
-12.40999985 16.05999947 -0.20000000 220 96 97 119.000000 1.000000 4.000000 5.000000 51.808199 78.000000 54.000000 -0.166453 0.924582 0.342697
-12.40999985 16.05999947 -0.23000000 220 96 97 119.000000 1.000000 4.000000 5.000000 51.808199 78.000000 54.000000 -0.416816 0.760077 0.498545
-12.39999962 16.07999992 -0.20999999 220 96 97 119.000000 1.000000 4.000000 5.000000 51.808199 78.000000 54.000000 -0.212012 0.967547 0.137487
-12.40999985 16.06999969 -0.23999999 220 96 97 119.000000 1.000000 4.000000 5.000000 51.808199 78.000000 54.000000 -0.061658 0.998031 0.011496
-12.39999962 16.07999992 -0.20999999 220 96 97 119.000000 1.000000 4.000000 5.000000 51.808199 78.000000 54.000000 -0.212012 0.967547 0.137487
-12.39000034 16.06999969 -0.25000000 220 96 97 119.000000 1.000000 4.000000 5.000000 51.808199 78.000000 54.000000 -0.326331 0.895549 0.302490
-12.38000011 16.06999969 -0.30000001 220 96 97 119.000000 1.000000 4.000000 5.000000 51.808199 78.000000 54.000000 -0.118960 0.958214 0.260143
-12.34000015 15.92000008 -0.16000000 220 96 97 119.000000 1.000000 4.000000 5.000000 51.808199 78.000000 54.000000 -0.375580 0.892187 0.250881
-12.39000034 15.92000008 -0.16000000 220 96 97 119.000000 1.000000 4.000000 5.000000 51.808199 78.000000 54.000000 0.017452 0.980788 0.194296
-12.39000034 15.93000031 -0.20999999 220 96 97 119.000000 1.000000 4.000000 5.000000 51.808199 78.000000 54.000000 0.123397 0.937004 0.326799
-12.36999989 15.93000031 -0.30000001 220 96 97 119.000000 1.000000 4.000000 5.000000 51.808199 78.000000 54.000000 -0.179973 0.962919 0.200991
-12.39999962 15.93999958 -0.28000000 220 96 97 119.000000 1.000000 4.000000 5.000000 51.808199 78.000000 54.000000 -0.495115 0.867486 -0.048270
-12.38000011 15.93999958 -0.31999999 220 96 97 119.000000 1.000000 4.000000 5.000000 51.808199 78.000000 54.000000 -0.043727 0.918266 0.393543
-12.28999996 15.90999985 -0.10000000 220 96 97 119.000000 1.000000 4.000000 5.000000 51.808199 78.000000 54.000000 0.107354 0.961015 0.254805
-12.35000038 15.90999985 0.00000000 220 96 97 119.000000 1.000000 4.000000 5.000000 51.808199 78.000000 54.000000 -0.249427 0.918410 0.307098
-12.35999966 15.90999985 -0.05000000 220 96 97 119.000000 1.000000 4.000000 5.000000 51.808199 78.000000 54.000000 -0.289900 0.884721 0.365004
-12.39000034 15.90999985 -0.13000000 220 96 97 119.000000 1.000000 4.000000 5.000000 51.808199 78.000000 54.000000 0.148097 0.909737 0.387873
-12.34000015 15.89999962 -0.12000000 220 96 97 119.000000 1.000000 4.000000 5.000000 51.808199 78.000000 54.000000 0.181308 0.959476 0.215717
-12.32999992 15.90999985 -0.11000000 220 96 97 119.000000 1.000000 4.000000 5.000000 51.808199 78.000000 54.000000 0.231752 0.970384 -0.068162
-12.39000034 15.90999985 -0.13000000 220 96 97 119.000000 1.000000 4.000000 5.000000 51.808199 78.000000 54.000000 0.148097 0.909737 0.387873
-12.31999969 15.90999985 -0.31999999 220 96 97 119.000000 1.000000 4.000000 5.000000 51.808199 78.000000 54.000000 0.061125 0.966768 0.248241
-12.39000034 15.89000034 -0.18000001 220 96 97 119.000000 1.000000 4.000000 5.000000 51.808199 78.000000 54.000000 -0.279835 0.906901 0.314998
-12.38000011 15.89999962 -0.19000000 220 96 97 119.000000 1.000000 4.000000 5.000000 51.808199 78.000000 54.000000 -0.356573 0.928717 -0.101684
-12.39999962 15.86999989 -0.25999999 220 96 97 119.000000 1.000000 4.000000 5.000000 51.808199 78.000000 54.000000 -0.597428 0.797053 -0.088240
-12.38000011 15.89999962 -0.31999999 220 96 97 119.000000 1.000000 4.000000 5.000000 51.808199 78.000000 54.000000 -0.164807 0.982827 -0.083005
-12.44999981 16.02000046 0.16000000 220 96 97 119.000000 1.000000 4.000000 5.000000 51.808199 78.000000 54.000000 -0.011514 0.930082 0.367171
-12.44999981 16.04000092 0.13000000 220 96 97 119.000000 1.000000 4.000000 5.000000 51.808199 78.000000 54.000000 -0.440143 0.897572 -0.025265
-12.43999958 16.05999947 0.02000000 220 96 97 119.000000 1.000000 4.000000 5.000000 51.808199 78.000000 54.000000 0.345251 -0.753716 -0.559209
-12.47000027 16.04000092 0.04000000 220 96 97 119.000000 1.000000 4.000000 5.000000 51.808199 78.000000 54.000000 -0.115638 0.982311 0.147286
-12.43999958 15.98999977 0.10000000 220 96 97 119.000000 1.000000 4.000000 5.000000 51.808199 78.000000 54.000000 0.082935 0.996298 -0.022619
-12.43999958 15.97000027 0.02000000 220 96 97 119.000000 1.000000 4.000000 5.000000 51.808199 78.000000 54.000000 -0.184454 0.982594 -0.022042
-12.42000008 15.93999958 0.08000000 220 96 97 119.000000 1.000000 4.000000 5.000000 51.808199 78.000000 54.000000 -0.294261 0.867536 0.400988
-12.43000031 16.05999947 -0.05000000 220 96 97 119.000000 1.000000 4.000000 5.000000 51.808199 78.000000 54.000000 -0.172007 0.975543 0.136852
-12.44999981 16.03000069 -0.02000000 220 96 97 119.000000 1.000000 4.000000 5.000000 51.808199 78.000000 54.000000 -0.123236 0.977177 -0.173029
-12.44999981 16.00000000 0.01000000 220 96 97 119.000000 1.000000 4.000000 5.000000 51.808199 78.000000 54.000000 -0.484913 0.847464 0.216020
-12.43999958 16.03000069 -0.01000000 220 96 97 119.000000 1.000000 4.000000 5.000000 51.808199 78.000000 54.000000 -0.081964 0.806698 0.585252
-12.43999958 16.03000069 -0.02000000 220 96 97 119.000000 1.000000 4.000000 5.000000 51.808199 78.000000 54.000000 0.011565 0.997737 -0.066235
-12.43999958 16.01000023 -0.02000000 220 96 97 119.000000 1.000000 4.000000 5.000000 51.808199 78.000000 54.000000 -0.202817 0.974270 0.098298
-12.43000031 16.03000069 -0.05000000 220 96 97 119.000000 1.000000 4.000000 5.000000 51.808199 78.000000 54.000000 -0.094025 0.817298 0.568492
-12.46000004 16.03000069 -0.02000000 220 96 97 119.000000 1.000000 4.000000 5.000000 51.808199 78.000000 54.000000 0.023388 0.999577 -0.017287
-12.47999954 16.01000023 -0.07000000 220 96 97 119.000000 1.000000 4.000000 5.000000 51.808199 78.000000 54.000000 -0.422979 0.905626 -0.030497
-12.46000004 16.03000069 -0.04000000 220 96 97 119.000000 1.000000 4.000000 5.000000 51.808199 78.000000 54.000000 -0.215098 0.946704 0.239759
-12.43999958 16.01000023 -0.11000000 220 96 97 119.000000 1.000000 4.000000 5.000000 51.808199 78.000000 54.000000 -0.493103 0.860399 0.128698
-12.42000008 16.03000069 -0.14000000 220 96 97 119.000000 1.000000 4.000000 5.000000 51.808199 78.000000 54.000000 -0.240499 0.968227 -0.068536
-12.46000004 16.04999924 -0.14000000 220 96 97 119.000000 1.000000 4.000000 5.000000 51.808199 78.000000 54.000000 -0.168782 0.982764 -0.075413
-12.47999954 16.03000069 -0.13000000 220 96 97 119.000000 1.000000 4.000000 5.000000 51.808199 78.000000 54.000000 0.458673 -0.685508 -0.565419
-12.43000031 15.97999954 -0.07000000 220 96 97 119.000000 1.000000 4.000000 5.000000 51.808199 78.000000 54.000000 -0.476477 0.764655 0.433905
-12.43999958 15.97999954 -0.07000000 220 96 97 119.000000 1.000000 4.000000 5.000000 51.808199 78.000000 54.000000 -0.564885 0.752641 0.338284
-12.44999981 15.98999977 -0.10000000 220 96 97 119.000000 1.000000 4.000000 5.000000 51.808199 78.000000 54.000000 -0.176499 0.905456 0.386003
-12.44999981 15.98999977 -0.09000000 220 96 97 119.000000 1.000000 4.000000 5.000000 51.808199 78.000000 54.000000 -0.446815 0.715900 0.536510
-12.43999958 15.97999954 -0.08000000 220 96 97 119.000000 1.000000 4.000000 5.000000 51.808199 78.000000 54.000000 -0.464609 0.739075 0.487757
-12.43999958 15.94999981 -0.13000000 220 96 97 119.000000 1.000000 4.000000 5.000000 51.808199 78.000000 54.000000 -0.473149 0.775575 0.417867
-12.42000008 16.05999947 -0.19000000 220 96 97 119.000000 1.000000 4.000000 5.000000 51.808199 78.000000 54.000000 -0.001121 0.987433 0.158034
-12.42000008 16.05999947 -0.17000000 220 96 97 119.000000 1.000000 4.000000 5.000000 51.808199 78.000000 54.000000 -0.139780 0.951833 0.272903
-12.42000008 16.05999947 -0.17000000 220 96 97 119.000000 1.000000 4.000000 5.000000 51.808199 78.000000 54.000000 -0.139780 0.951833 0.272903
-12.42000008 16.05999947 -0.17000000 220 96 97 119.000000 1.000000 4.000000 5.000000 51.808199 78.000000 54.000000 -0.139780 0.951833 0.272903
-12.43000031 16.05999947 -0.16000000 220 96 97 119.000000 1.000000 4.000000 5.000000 51.808199 78.000000 54.000000 -0.226335 0.972628 0.052608
-12.43999958 16.02000046 -0.20000000 220 96 97 119.000000 1.000000 4.000000 5.000000 51.808199 78.000000 54.000000 -0.110465 0.991904 0.062635
-12.43999958 16.02000046 -0.20000000 220 96 97 119.000000 1.000000 4.000000 5.000000 51.808199 78.000000 54.000000 -0.110465 0.991904 0.062635
-12.43999958 16.03000069 -0.18000001 220 96 97 119.000000 1.000000 4.000000 5.000000 51.808199 78.000000 54.000000 -0.054502 0.998513 -0.001028
-12.44999981 16.00000000 -0.23000000 220 96 97 119.000000 1.000000 4.000000 5.000000 51.808199 78.000000 54.000000 -0.475196 0.876535 -0.076645
-12.43999958 16.00000000 -0.23000000 220 96 97 119.000000 1.000000 4.000000 5.000000 51.808199 78.000000 54.000000 0.042159 0.990177 0.133315
-12.42000008 16.05999947 -0.25999999 220 96 97 119.000000 1.000000 4.000000 5.000000 51.808199 78.000000 54.000000 -0.234050 0.967828 0.092355
-12.43999958 16.04000092 -0.25999999 220 96 97 119.000000 1.000000 4.000000 5.000000 51.808199 78.000000 54.000000 -0.470875 0.845121 0.253076
-12.42000008 16.04000092 -0.28000000 220 96 97 119.000000 1.000000 4.000000 5.000000 51.808199 78.000000 54.000000 -0.419923 0.902210 0.098398
-12.43999958 16.03000069 -0.25000000 220 96 97 119.000000 1.000000 4.000000 5.000000 51.808199 78.000000 54.000000 -0.419414 0.884448 0.204556
-12.43000031 16.03000069 -0.25000000 220 96 97 119.000000 1.000000 4.000000 5.000000 51.808199 78.000000 54.000000 -0.490324 0.871237 -0.022963
-12.44999981 16.03000069 -0.25999999 220 96 97 119.000000 1.000000 4.000000 5.000000 51.808199 78.000000 54.000000 -0.219831 0.915242 0.337648
-12.47000027 16.03000069 -0.25999999 220 96 97 119.000000 1.000000 4.000000 5.000000 51.808199 78.000000 54.000000 -0.237908 0.933330 0.268878
-12.47000027 15.98999977 -0.20000000 220 96 97 119.000000 1.000000 4.000000 5.000000 51.808199 78.000000 54.000000 -0.393217 0.915692 0.082997
-12.43999958 15.90999985 -0.06000000 220 96 97 119.000000 1.000000 4.000000 5.000000 51.808199 78.000000 54.000000 -0.290661 0.944986 -0.150062
-11.97000027 16.10000038 -0.49000001 220 96 97 119.000000 1.000000 4.000000 5.000000 51.808199 78.000000 56.000000 0.778649 0.359500 0.514263
-12.00000000 16.11000061 -0.37000000 220 96 97 119.000000 1.000000 4.000000 5.000000 51.808199 78.000000 56.000000 0.542271 0.630115 0.555785
-11.98999977 16.10000038 -0.37000000 220 96 97 119.000000 1.000000 4.000000 5.000000 51.808199 78.000000 56.000000 0.711394 0.558834 0.426173
-12.00000000 16.11000061 -0.37000000 220 96 97 119.000000 1.000000 4.000000 5.000000 51.808199 78.000000 56.000000 0.542271 0.630115 0.555785
-11.97000027 16.10000038 -0.63999999 220 96 97 119.000000 1.000000 4.000000 5.000000 51.808199 78.000000 56.000000 0.667613 0.577260 0.470174
-11.98999977 16.10000038 -0.55000001 220 96 97 119.000000 1.000000 4.000000 5.000000 51.808199 78.000000 56.000000 0.703926 0.464292 0.537513
-11.98999977 16.10000038 -0.55000001 220 96 97 119.000000 1.000000 4.000000 5.000000 51.808199 78.000000 56.000000 0.703926 0.464292 0.537513
-12.02999973 16.10000038 -0.51999998 220 96 97 119.000000 1.000000 4.000000 5.000000 51.808199 78.000000 56.000000 0.724990 0.604969 0.329246
-12.00000000 16.11000061 -0.61000001 220 96 97 119.000000 1.000000 4.000000 5.000000 51.808199 78.000000 56.000000 0.599646 0.562485 0.569241
-11.98999977 16.11000061 -0.63000000 220 96 97 119.000000 1.000000 4.000000 5.000000 51.808199 78.000000 56.000000 0.772634 0.499365 0.392010
-12.00000000 16.11000061 -0.61000001 220 96 97 119.000000 1.000000 4.000000 5.000000 51.808199 78.000000 56.000000 0.599646 0.562485 0.569241
-11.96000004 16.09000015 -0.72000003 220 96 97 119.000000 1.000000 4.000000 5.000000 51.808199 78.000000 56.000000 0.645485 0.510658 0.567959
-11.97000027 16.11000061 -0.73000002 220 96 97 119.000000 1.000000 4.000000 5.000000 51.808199 78.000000 56.000000 0.749651 0.476152 0.459676
-11.97999954 16.10000038 -0.70999998 220 96 97 119.000000 1.000000 4.000000 5.000000 51.808199 78.000000 56.000000 0.933177 0.354054 -0.061861
-11.97999954 16.11000061 -0.73000002 220 96 97 119.000000 1.000000 4.000000 5.000000 51.808199 78.000000 56.000000 0.718953 0.489818 0.493138
-12.05000019 16.09000015 -0.69000000 220 96 97 119.000000 1.000000 4.000000 5.000000 51.808199 78.000000 56.000000 0.492992 0.700216 0.516388
-11.97000027 16.10000038 -0.88999999 220 96 97 119.000000 1.000000 4.000000 5.000000 51.808199 78.000000 56.000000 0.889513 0.163439 0.426677
-12.31999969 16.09000015 -0.36000001 220 96 97 119.000000 1.000000 4.000000 5.000000 51.808199 78.000000 54.000000 0.182201 0.860641 0.475500
-12.34000015 16.11000061 -0.37000000 220 96 97 119.000000 1.000000 4.000000 5.000000 51.808199 78.000000 54.000000 0.213778 0.927317 0.307218
-12.38000011 16.11000061 -0.34999999 220 96 97 119.000000 1.000000 4.000000 5.000000 51.808199 78.000000 54.000000 -0.124619 0.905936 0.404661
-12.38000011 16.10000038 -0.33000001 220 96 97 119.000000 1.000000 4.000000 5.000000 51.808199 78.000000 54.000000 0.166570 0.972717 0.161484
-12.26000023 16.09000015 -0.57999998 220 96 97 119.000000 1.000000 4.000000 5.000000 51.808199 78.000000 54.000000 -0.070288 0.796124 0.601038
-11.97999954 16.04999924 -0.38999999 220 96 97 119.000000 1.000000 4.000000 5.000000 51.808199 78.000000 56.000000 0.551934 0.698672 0.455221
-12.05000019 16.06999969 -0.36000001 220 96 97 119.000000 1.000000 4.000000 5.000000 51.808199 78.000000 56.000000 0.435362 0.726707 0.531373
-12.05000019 16.04999924 -0.34000000 220 96 97 119.000000 1.000000 4.000000 5.000000 51.808199 78.000000 56.000000 0.489219 0.764098 0.420499
-12.06999969 16.07999992 -0.41000000 220 96 97 119.000000 1.000000 4.000000 5.000000 51.808199 78.000000 56.000000 0.475688 0.630329 0.613520
-12.06000042 16.03000069 -0.34000000 220 96 97 119.000000 1.000000 4.000000 5.000000 51.808199 78.000000 56.000000 0.678139 0.493953 0.544186
-12.05000019 16.00000000 -0.41999999 220 96 97 119.000000 1.000000 4.000000 5.000000 51.808199 78.000000 56.000000 0.653484 0.586288 0.478774
-12.05000019 16.00000000 -0.41999999 220 96 97 119.000000 1.000000 4.000000 5.000000 51.808199 78.000000 56.000000 0.653484 0.586288 0.478774
-11.93999958 16.00000000 -0.52999997 220 96 97 119.000000 1.000000 4.000000 5.000000 51.808199 78.000000 56.000000 0.813714 0.581225 -0.006838
-11.96000004 16.06999969 -0.55000001 220 96 97 119.000000 1.000000 4.000000 5.000000 51.808199 78.000000 56.000000 0.878605 0.234195 0.416181
-11.96000004 16.02000046 -0.54000002 220 96 97 119.000000 1.000000 4.000000 5.000000 51.808199 78.000000 56.000000 0.844477 0.419897 0.332484
-11.96000004 16.03000069 -0.51999998 220 96 97 119.000000 1.000000 4.000000 5.000000 51.808199 78.000000 56.000000 0.828093 0.291626 0.478766
-11.97000027 16.01000023 -0.56999999 220 96 97 119.000000 1.000000 4.000000 5.000000 51.808199 78.000000 56.000000 0.806551 0.447371 0.386439
-11.97000027 16.01000023 -0.56999999 220 96 97 119.000000 1.000000 4.000000 5.000000 51.808199 78.000000 56.000000 0.806551 0.447371 0.386439
-11.96000004 16.05999947 -0.63000000 220 96 97 119.000000 1.000000 4.000000 5.000000 51.808199 78.000000 56.000000 0.567036 0.674087 0.473367
-11.96000004 16.05999947 -0.63000000 220 96 97 119.000000 1.000000 4.000000 5.000000 51.808199 78.000000 56.000000 0.567036 0.674087 0.473367
-11.97999954 15.97999954 -0.56000000 220 96 97 119.000000 1.000000 4.000000 5.000000 51.808199 78.000000 56.000000 0.799171 0.312995 0.513185
-11.97000027 15.97000027 -0.56000000 220 96 97 119.000000 1.000000 4.000000 5.000000 51.808199 78.000000 56.000000 0.683470 0.686627 0.247817
-12.03999996 16.01000023 -0.62000000 220 96 97 119.000000 1.000000 4.000000 5.000000 51.808199 78.000000 56.000000 0.695723 0.433374 0.572850
-12.00000000 15.96000004 -0.54000002 220 96 97 119.000000 1.000000 4.000000 5.000000 51.808199 78.000000 56.000000 0.705519 0.661126 0.255255
-12.03999996 15.98999977 -0.54000002 220 96 97 119.000000 1.000000 4.000000 5.000000 51.808199 78.000000 56.000000 0.844241 0.477844 0.242738
-11.97000027 16.06999969 -0.69000000 220 96 97 119.000000 1.000000 4.000000 5.000000 51.808199 78.000000 56.000000 0.631411 0.621362 0.463928
-11.97000027 16.05999947 -0.68000001 220 96 97 119.000000 1.000000 4.000000 5.000000 51.808199 78.000000 56.000000 0.582260 0.675688 0.452127
-11.96000004 16.05999947 -0.75000000 220 96 97 119.000000 1.000000 4.000000 5.000000 51.808199 78.000000 56.000000 0.987220 0.117329 0.107848
-11.94999981 16.04000092 -0.74000001 220 96 97 119.000000 1.000000 4.000000 5.000000 51.808199 78.000000 56.000000 0.699458 0.713646 -0.038307
-11.97999954 16.01000023 -0.77999997 220 96 97 119.000000 1.000000 4.000000 5.000000 51.808199 78.000000 56.000000 0.789883 0.595035 0.148384
-11.94999981 16.02000046 -0.82999998 220 96 97 119.000000 1.000000 4.000000 5.000000 51.808199 78.000000 56.000000 0.765598 0.532519 0.360948
-11.93999958 15.98999977 -0.72000003 220 96 97 119.000000 1.000000 4.000000 5.000000 51.808199 78.000000 56.000000 0.920776 0.372990 -0.114237
-11.94999981 15.98999977 -0.82999998 220 96 97 119.000000 1.000000 4.000000 5.000000 51.808199 78.000000 56.000000 0.861688 0.292331 0.414773
-11.98999977 16.05999947 -0.69000000 220 96 97 119.000000 1.000000 4.000000 5.000000 51.808199 78.000000 56.000000 0.894515 0.196998 0.401291
-12.02000046 16.00000000 -0.73000002 220 96 97 119.000000 1.000000 4.000000 5.000000 51.808199 78.000000 56.000000 0.868871 0.159171 0.468752
-12.03999996 16.07999992 -0.82999998 220 96 97 119.000000 1.000000 4.000000 5.000000 51.808199 78.000000 56.000000 0.630626 0.663730 0.402210
-12.06000042 16.06999969 -0.83999997 220 96 97 119.000000 1.000000 4.000000 5.000000 51.808199 78.000000 56.000000 0.774818 0.455104 0.438792
-12.01000023 15.97999954 -0.73000002 220 96 97 119.000000 1.000000 4.000000 5.000000 51.808199 78.000000 56.000000 0.806077 0.590937 0.032131
-12.00000000 15.97999954 -0.76999998 220 96 97 119.000000 1.000000 4.000000 5.000000 51.808199 78.000000 56.000000 0.778830 0.624493 0.058591
-11.97000027 16.05999947 -0.89999998 220 96 97 119.000000 1.000000 4.000000 5.000000 51.808199 78.000000 56.000000 0.951164 0.294377 -0.092892
-11.96000004 16.00000000 -0.85000002 220 96 97 119.000000 1.000000 4.000000 5.000000 51.808199 78.000000 56.000000 0.818899 0.364132 0.443636
-11.96000004 16.04000092 -0.87000000 220 96 97 119.000000 1.000000 4.000000 5.000000 51.808199 78.000000 56.000000 0.993923 0.068353 0.086282
-11.96000004 16.03000069 -0.93000001 220 96 97 119.000000 1.000000 4.000000 5.000000 51.808199 78.000000 56.000000 0.968306 0.073716 0.238641
-11.96000004 16.05999947 -1.00999999 220 96 97 119.000000 1.000000 4.000000 5.000000 51.808199 78.000000 56.000000 0.934350 0.008874 0.356245
-11.93000031 15.97999954 -0.88999999 220 96 97 119.000000 1.000000 4.000000 5.000000 51.808199 78.000000 56.000000 0.908442 0.339754 0.243515
-11.93999958 15.98999977 -1.00999999 220 96 97 119.000000 1.000000 4.000000 5.000000 51.808199 78.000000 56.000000 0.867691 0.178252 0.464045
-12.01000023 16.03000069 -1.00999999 220 96 97 119.000000 1.000000 4.000000 5.000000 51.808199 78.000000 56.000000 0.823106 0.385385 0.417104
-12.05000019 15.97000027 -0.91000003 220 96 97 119.000000 1.000000 4.000000 5.000000 51.808199 78.000000 56.000000 0.810410 0.512580 0.283722
-11.97999954 16.05999947 -1.04999995 220 96 97 119.000000 1.000000 4.000000 5.000000 51.808199 78.000000 56.000000 0.934851 0.330668 -0.129273
-11.94999981 16.06999969 -1.03999996 220 96 97 119.000000 1.000000 4.000000 5.000000 51.808199 78.000000 56.000000 0.816777 0.390078 0.425106
-11.94999981 16.04999924 -1.01999998 220 96 97 119.000000 1.000000 4.000000 5.000000 51.808199 78.000000 56.000000 0.905862 0.300975 0.298039
-11.97999954 16.05999947 -1.07000005 220 96 97 119.000000 1.000000 4.000000 5.000000 51.808199 78.000000 56.000000 0.870374 0.467990 0.153081
-11.94999981 16.04999924 -1.08000004 220 96 97 119.000000 1.000000 4.000000 5.000000 51.808199 78.000000 56.000000 0.998413 -0.047343 0.030510
-11.94999981 16.01000023 -1.10000002 220 96 97 119.000000 1.000000 4.000000 5.000000 51.808199 78.000000 56.000000 0.983591 -0.173159 0.050652
-11.96000004 16.03000069 -1.10000002 220 96 97 119.000000 1.000000 4.000000 5.000000 51.808199 78.000000 56.000000 0.991779 0.085794 -0.094945
-11.94999981 16.02000046 -1.09000003 220 96 97 119.000000 1.000000 4.000000 5.000000 51.808199 78.000000 56.000000 0.996780 0.042209 0.068184
-11.96000004 16.04000092 -1.07000005 220 96 97 119.000000 1.000000 4.000000 5.000000 51.808199 78.000000 56.000000 0.992896 0.116225 -0.025459
-11.94999981 16.01000023 -1.09000003 220 96 97 119.000000 1.000000 4.000000 5.000000 51.808199 78.000000 56.000000 0.969690 0.032850 0.242118
-11.96000004 16.01000023 -1.12000000 220 96 97 119.000000 1.000000 4.000000 5.000000 51.808199 78.000000 56.000000 0.931681 0.121405 0.342390
-11.96000004 16.03000069 -1.12000000 220 96 97 119.000000 1.000000 4.000000 5.000000 51.808199 78.000000 56.000000 0.976680 -0.020077 0.213759
-11.96000004 16.02000046 -1.13999999 220 96 97 119.000000 1.000000 4.000000 5.000000 51.808199 78.000000 56.000000 0.981870 0.188955 0.015070
-11.96000004 16.02000046 -1.13000000 220 96 97 119.000000 1.000000 4.000000 5.000000 51.808199 78.000000 56.000000 0.987866 -0.023872 0.153466
-11.96000004 16.02000046 -1.13000000 220 96 97 119.000000 1.000000 4.000000 5.000000 51.808199 78.000000 56.000000 0.987866 -0.023872 0.153466
-11.94999981 16.01000023 -1.15999997 220 96 97 119.000000 1.000000 4.000000 5.000000 51.808199 78.000000 56.000000 0.939081 -0.039934 0.341367
-11.94999981 16.01000023 -1.16999996 220 96 97 119.000000 1.000000 4.000000 5.000000 51.808199 78.000000 56.000000 0.976321 -0.213906 -0.032265
-11.94999981 16.01000023 -1.16999996 220 96 97 119.000000 1.000000 4.000000 5.000000 51.808199 78.000000 56.000000 0.976321 -0.213906 -0.032265
-11.93999958 15.97000027 -1.03999996 220 96 97 119.000000 1.000000 4.000000 5.000000 51.808199 78.000000 56.000000 0.867324 0.444897 0.223197
-11.93999958 15.97999954 -1.07000005 220 96 97 119.000000 1.000000 4.000000 5.000000 51.808199 78.000000 56.000000 0.853146 0.051495 0.519125
-12.06999969 16.04999924 -1.02999997 220 96 97 119.000000 1.000000 4.000000 5.000000 51.808199 78.000000 56.000000 0.987191 0.076481 0.140019
-12.06000042 16.04000092 -1.02999997 220 96 97 119.000000 1.000000 4.000000 5.000000 51.808199 78.000000 56.000000 0.937004 0.123397 0.326799
-12.05000019 16.01000023 -1.03999996 220 96 97 119.000000 1.000000 4.000000 5.000000 51.808199 78.000000 56.000000 0.928436 0.067740 0.365264
-12.06000042 16.02000046 -1.10000002 220 96 97 119.000000 1.000000 4.000000 5.000000 51.808199 78.000000 56.000000 0.966913 -0.040544 0.251864
-12.06999969 16.02000046 -1.05999994 220 96 97 119.000000 1.000000 4.000000 5.000000 51.808199 78.000000 56.000000 0.869568 0.307176 0.386645
-12.02000046 16.04000092 -1.14999998 220 96 97 119.000000 1.000000 4.000000 5.000000 51.808199 78.000000 56.000000 0.847483 0.063245 0.527042
-12.02000046 16.04000092 -1.14999998 220 96 97 119.000000 1.000000 4.000000 5.000000 51.808199 78.000000 56.000000 0.847483 0.063245 0.527042
-12.03999996 15.92000008 -1.13999999 220 96 97 119.000000 1.000000 4.000000 5.000000 51.808199 78.000000 56.000000 0.917045 -0.296054 0.267171
-11.93000031 16.01000023 -1.25000000 220 96 97 119.000000 1.000000 4.000000 5.000000 51.808199 78.000000 56.000000 0.927783 0.189487 0.321425
-11.97999954 16.06999969 -1.26999998 220 96 97 119.000000 1.000000 4.000000 5.000000 51.808199 78.000000 56.000000 0.922811 0.348680 -0.163837
-11.97999954 16.04000092 -1.23000002 220 96 97 119.000000 1.000000 4.000000 5.000000 51.808199 78.000000 56.000000 0.881860 0.250035 0.399757
-11.96000004 16.01000023 -1.26999998 220 96 97 119.000000 1.000000 4.000000 5.000000 51.808199 78.000000 56.000000 0.980910 0.136272 0.138727
-11.97000027 16.04999924 -1.29999995 220 96 97 119.000000 1.000000 4.000000 5.000000 51.808199 78.000000 56.000000 0.876504 0.130543 0.463356
-11.94999981 16.01000023 -1.28999996 220 96 97 119.000000 1.000000 4.000000 5.000000 51.808199 78.000000 56.000000 0.981327 0.133539 -0.138439
-11.97999954 16.04000092 -1.29999995 220 96 97 119.000000 1.000000 4.000000 5.000000 51.808199 78.000000 56.000000 0.973517 0.098726 -0.206201
-11.97000027 16.03000069 -1.36000001 220 96 97 119.000000 1.000000 4.000000 5.000000 51.808199 78.000000 56.000000 0.979523 0.181754 -0.086608
-11.92000008 15.96000004 -1.23000002 220 96 97 119.000000 1.000000 4.000000 5.000000 51.808199 78.000000 56.000000 0.869881 -0.488525 -0.068199
-11.92000008 15.97000027 -1.21000004 220 96 97 119.000000 1.000000 4.000000 5.000000 51.808199 78.000000 56.000000 0.886685 -0.295562 0.355574
-11.93000031 15.96000004 -1.26999998 220 96 97 119.000000 1.000000 4.000000 5.000000 51.808199 78.000000 56.000000 0.850693 -0.474629 0.225942
-11.93999958 15.98999977 -1.25000000 220 96 97 119.000000 1.000000 4.000000 5.000000 51.808199 78.000000 56.000000 0.949158 -0.297024 -0.104289
-11.96000004 15.97000027 -1.21000004 220 96 97 119.000000 1.000000 4.000000 5.000000 51.808199 78.000000 56.000000 0.897817 -0.243251 0.367088
-11.94999981 15.97999954 -1.22000003 220 96 97 119.000000 1.000000 4.000000 5.000000 51.808199 78.000000 56.000000 0.901092 -0.427984 -0.069735
-11.93999958 15.97999954 -1.27999997 220 96 97 119.000000 1.000000 4.000000 5.000000 51.808199 78.000000 56.000000 0.928749 -0.227593 0.292620
-11.93999958 15.98999977 -1.27999997 220 96 97 119.000000 1.000000 4.000000 5.000000 51.808199 78.000000 56.000000 0.978034 -0.206960 0.024835
-11.93999958 15.93000031 -1.28999996 220 96 97 119.000000 1.000000 4.000000 5.000000 51.808199 78.000000 56.000000 0.834883 -0.440154 -0.330507
-11.94999981 15.97000027 -1.28999996 220 96 97 119.000000 1.000000 4.000000 5.000000 51.808199 78.000000 56.000000 0.938674 -0.291694 -0.183864
-11.94999981 15.97000027 -1.28999996 220 96 97 119.000000 1.000000 4.000000 5.000000 51.808199 78.000000 56.000000 0.938674 -0.291694 -0.183864
-11.94999981 15.97999954 -1.28999996 220 96 97 119.000000 1.000000 4.000000 5.000000 51.808199 78.000000 56.000000 0.984089 -0.094924 -0.150197
-11.94999981 15.97999954 -1.27999997 220 96 97 119.000000 1.000000 4.000000 5.000000 51.808199 78.000000 56.000000 0.934512 -0.354470 -0.032225
-11.94999981 15.97000027 -1.29999995 220 96 97 119.000000 1.000000 4.000000 5.000000 51.808199 78.000000 56.000000 0.966810 -0.205787 0.151428
-11.94999981 15.98999977 -1.29999995 220 96 97 119.000000 1.000000 4.000000 5.000000 51.808199 78.000000 56.000000 0.942835 0.058360 0.328112
-11.94999981 15.97999954 -1.29999995 220 96 97 119.000000 1.000000 4.000000 5.000000 51.808199 78.000000 56.000000 0.978876 -0.096785 0.180094
-12.06999969 16.01000023 -1.20000005 220 96 97 119.000000 1.000000 4.000000 5.000000 51.808199 78.000000 56.000000 0.992449 -0.101177 -0.069346
-12.06999969 16.01000023 -1.20000005 220 96 97 119.000000 1.000000 4.000000 5.000000 51.808199 78.000000 56.000000 0.992449 -0.101177 -0.069346
-12.06999969 16.00000000 -1.22000003 220 96 97 119.000000 1.000000 4.000000 5.000000 51.808199 78.000000 56.000000 0.989012 -0.126976 0.075719
-12.06000042 16.01000023 -1.25999999 220 96 97 119.000000 1.000000 4.000000 5.000000 51.808199 78.000000 56.000000 0.949339 -0.171502 0.263330
-12.06999969 16.01000023 -1.25000000 220 96 97 119.000000 1.000000 4.000000 5.000000 51.808199 78.000000 56.000000 0.994435 0.018557 0.103701
-12.06000042 16.02000046 -1.26999998 220 96 97 119.000000 1.000000 4.000000 5.000000 51.808199 78.000000 56.000000 0.927398 -0.225124 0.298750
-12.06000042 16.01000023 -1.25000000 220 96 97 119.000000 1.000000 4.000000 5.000000 51.808199 78.000000 56.000000 0.990272 -0.007780 0.138927
-12.06000042 16.03000069 -1.26999998 220 96 97 119.000000 1.000000 4.000000 5.000000 51.808199 78.000000 56.000000 0.937814 -0.097661 0.333118
-12.00000000 16.03000069 -1.34000003 220 96 97 119.000000 1.000000 4.000000 5.000000 51.808199 78.000000 56.000000 0.995754 0.027147 -0.087956
-12.06000042 16.00000000 -1.35000002 220 96 97 119.000000 1.000000 4.000000 5.000000 51.808199 78.000000 56.000000 0.873926 -0.387567 0.293335
-12.06999969 15.98999977 -1.22000003 220 96 97 119.000000 1.000000 4.000000 5.000000 51.808199 78.000000 56.000000 0.990110 -0.070475 0.121309
-12.06999969 15.98999977 -1.29999995 220 96 97 119.000000 1.000000 4.000000 5.000000 51.808199 78.000000 56.000000 0.875454 -0.209574 0.435498
-12.06999969 15.97999954 -1.32000005 220 96 97 119.000000 1.000000 4.000000 5.000000 51.808199 78.000000 56.000000 0.979389 -0.083948 -0.183711
-12.06999969 15.97999954 -1.36000001 220 96 97 119.000000 1.000000 4.000000 5.000000 51.808199 78.000000 56.000000 0.924170 -0.278536 -0.261396
-12.03999996 15.88000011 -1.13000000 220 96 97 119.000000 1.000000 4.000000 5.000000 51.808199 78.000000 56.000000 0.738366 -0.660485 0.136291
-12.06999969 15.89000034 -1.14999998 220 96 97 119.000000 1.000000 4.000000 5.000000 51.808199 78.000000 56.000000 0.854221 -0.355021 0.379826
-11.97999954 15.90999985 -1.26999998 220 96 97 119.000000 1.000000 4.000000 5.000000 51.808199 78.000000 56.000000 0.800628 -0.504570 -0.323116
-11.97999954 15.90999985 -1.26999998 220 96 97 119.000000 1.000000 4.000000 5.000000 51.808199 78.000000 56.000000 0.800628 -0.504570 -0.323116
-11.93999958 15.90999985 -1.34000003 220 96 97 119.000000 1.000000 4.000000 5.000000 51.808199 78.000000 56.000000 0.938143 -0.103049 -0.330558
-11.93999958 15.90999985 -1.34000003 220 96 97 119.000000 1.000000 4.000000 5.000000 51.808199 78.000000 56.000000 0.938143 -0.103049 -0.330558
-12.02000046 15.89000034 -1.19000006 220 96 97 119.000000 1.000000 4.000000 5.000000 51.808199 78.000000 56.000000 0.763114 -0.600149 0.239746
-12.03999996 15.90999985 -1.19000006 220 96 97 119.000000 1.000000 4.000000 5.000000 51.808199 78.000000 56.000000 0.729936 -0.677275 0.092156
-12.02999973 15.89000034 -1.22000003 220 96 97 119.000000 1.000000 4.000000 5.000000 51.808199 78.000000 56.000000 -0.690128 0.664509 0.286619
-11.97000027 16.01000023 -1.41999996 220 96 97 119.000000 1.000000 4.000000 5.000000 51.808199 78.000000 56.000000 0.987464 0.135350 0.081210
-11.97000027 16.01000023 -1.41999996 220 96 97 119.000000 1.000000 4.000000 5.000000 51.808199 78.000000 56.000000 0.987464 0.135350 0.081210
-11.93000031 15.97999954 -1.38000000 220 96 97 119.000000 1.000000 4.000000 5.000000 51.808199 78.000000 56.000000 0.972086 -0.198462 -0.125145
-11.93999958 15.93999958 -1.41999996 220 96 97 119.000000 1.000000 4.000000 5.000000 51.808199 78.000000 56.000000 0.822961 -0.545156 -0.159813
-11.94999981 15.97000027 -1.38999999 220 96 97 119.000000 1.000000 4.000000 5.000000 51.808199 78.000000 56.000000 0.905609 -0.049788 0.421182
-11.94999981 15.97999954 -1.38000000 220 96 97 119.000000 1.000000 4.000000 5.000000 51.808199 78.000000 56.000000 0.967263 -0.240244 0.081758
-11.94999981 15.97999954 -1.39999998 220 96 97 119.000000 1.000000 4.000000 5.000000 51.808199 78.000000 56.000000 0.965822 0.111293 0.234100
-11.94999981 15.94999981 -1.48000002 220 96 97 119.000000 1.000000 4.000000 5.000000 51.808199 78.000000 56.000000 0.930687 -0.136098 -0.339557
-12.05000019 16.02000046 -1.38999999 220 96 97 119.000000 1.000000 4.000000 5.000000 51.808199 78.000000 56.000000 0.965524 0.066372 0.251712
-12.06000042 15.98999977 -1.42999995 220 96 97 119.000000 1.000000 4.000000 5.000000 51.808199 78.000000 56.000000 0.953915 -0.299872 0.011106
-12.05000019 15.98999977 -1.40999997 220 96 97 119.000000 1.000000 4.000000 5.000000 51.808199 78.000000 56.000000 0.875042 -0.477423 -0.079804
-12.07999992 16.04999924 -0.34000000 220 96 97 119.000000 1.000000 4.000000 5.000000 51.808199 78.000000 56.000000 0.709431 0.691433 0.136487
-12.09000015 16.04999924 -0.40000001 220 96 97 119.000000 1.000000 4.000000 5.000000 51.808199 78.000000 56.000000 0.784823 0.617960 0.046665
-12.07999992 16.02000046 -0.33000001 220 96 97 119.000000 1.000000 4.000000 5.000000 51.808199 78.000000 56.000000 0.636350 0.528322 0.562081
-12.07999992 16.02000046 -0.33000001 220 96 97 119.000000 1.000000 4.000000 5.000000 51.808199 78.000000 56.000000 0.636350 0.528322 0.562081
-12.10000038 16.06999969 -0.47000000 220 96 97 119.000000 1.000000 4.000000 5.000000 51.808199 78.000000 56.000000 0.751947 0.596153 0.281384
-12.23999977 16.00000000 -0.44000000 220 96 97 119.000000 1.000000 4.000000 5.000000 51.808199 78.000000 54.000000 0.487435 0.870717 -0.065269
-12.07999992 16.02000046 -0.50999999 220 96 97 119.000000 1.000000 4.000000 5.000000 51.808199 78.000000 56.000000 0.478821 0.705719 0.522199
-12.09000015 16.02000046 -0.52999997 220 96 97 119.000000 1.000000 4.000000 5.000000 51.808199 78.000000 56.000000 0.779331 0.617887 -0.104204
-12.07999992 16.05999947 -0.67000002 220 96 97 119.000000 1.000000 4.000000 5.000000 51.808199 78.000000 56.000000 0.461200 0.642325 0.612138
-12.09000015 16.02000046 -0.60000002 220 96 97 119.000000 1.000000 4.000000 5.000000 51.808199 78.000000 56.000000 0.706641 0.669037 0.230324
-12.10000038 16.02000046 -0.64999998 220 96 97 119.000000 1.000000 4.000000 5.000000 51.808199 78.000000 56.000000 0.627609 0.765414 -0.142298
-12.23999977 16.00000000 -0.57999998 220 96 97 119.000000 1.000000 4.000000 5.000000 51.808199 78.000000 54.000000 0.083996 0.841383 0.533872
-12.21000004 16.00000000 -0.62000000 220 96 97 119.000000 1.000000 4.000000 5.000000 51.808199 78.000000 54.000000 0.614591 0.788189 -0.032200
-12.23999977 15.96000004 -0.57999998 220 96 97 119.000000 1.000000 4.000000 5.000000 51.808199 78.000000 54.000000 0.458334 0.816754 0.350490
-12.23999977 15.92000008 -0.66000003 220 96 97 119.000000 1.000000 4.000000 5.000000 51.808199 78.000000 54.000000 0.359312 0.933196 -0.006348
-12.23999977 15.93000031 -0.67000002 220 96 97 119.000000 1.000000 4.000000 5.000000 51.808199 78.000000 54.000000 0.363233 0.918601 0.155671
-12.23999977 15.93000031 -0.67000002 220 96 97 119.000000 1.000000 4.000000 5.000000 51.808199 78.000000 54.000000 0.363233 0.918601 0.155671
-12.27999973 16.05999947 -0.36000001 220 96 97 119.000000 1.000000 4.000000 5.000000 51.808199 78.000000 54.000000 0.094428 0.994276 0.049992
-12.27999973 16.05999947 -0.34999999 220 96 97 119.000000 1.000000 4.000000 5.000000 51.808199 78.000000 54.000000 -0.028563 0.869142 0.493738
-12.27999973 16.05999947 -0.34999999 220 96 97 119.000000 1.000000 4.000000 5.000000 51.808199 78.000000 54.000000 -0.028563 0.869142 0.493738
-12.27000046 16.06999969 -0.37000000 220 96 97 119.000000 1.000000 4.000000 5.000000 51.808199 78.000000 54.000000 0.321571 0.943713 -0.077440
-12.27999973 16.05999947 -0.38000000 220 96 97 119.000000 1.000000 4.000000 5.000000 51.808199 78.000000 54.000000 -0.017217 0.999626 0.021269
-12.27000046 16.02000046 -0.38999999 220 96 97 119.000000 1.000000 4.000000 5.000000 51.808199 78.000000 54.000000 0.149235 0.984953 0.087153
-12.27000046 16.02000046 -0.38000000 220 96 97 119.000000 1.000000 4.000000 5.000000 51.808199 78.000000 54.000000 0.453278 0.822849 0.342722
-12.30000019 16.04999924 -0.34000000 220 96 97 119.000000 1.000000 4.000000 5.000000 51.808199 78.000000 54.000000 0.403026 0.879465 0.253202
-12.28999996 16.05999947 -0.38000000 220 96 97 119.000000 1.000000 4.000000 5.000000 51.808199 78.000000 54.000000 0.402012 0.877802 0.260480
-12.27999973 16.06999969 -0.44000000 220 96 97 119.000000 1.000000 4.000000 5.000000 51.808199 78.000000 54.000000 0.467257 0.798030 0.380550
-12.27000046 16.04999924 -0.47000000 220 96 97 119.000000 1.000000 4.000000 5.000000 51.808199 78.000000 54.000000 0.473257 0.843899 0.252710
-12.25000000 16.00000000 -0.44000000 220 96 97 119.000000 1.000000 4.000000 5.000000 51.808199 78.000000 54.000000 0.078641 0.996479 -0.029086
-12.28999996 16.04999924 -0.46000001 220 96 97 119.000000 1.000000 4.000000 5.000000 51.808199 78.000000 54.000000 0.367747 0.813501 0.450530
-12.30000019 16.02000046 -0.50000000 220 96 97 119.000000 1.000000 4.000000 5.000000 51.808199 78.000000 54.000000 0.449318 0.864074 0.226913
-12.26000023 15.97999954 -0.37000000 220 96 97 119.000000 1.000000 4.000000 5.000000 51.808199 78.000000 54.000000 0.594097 0.753373 0.281918
-12.26000023 15.96000004 -0.37000000 220 96 97 119.000000 1.000000 4.000000 5.000000 51.808199 78.000000 54.000000 0.339560 0.935468 0.097976
-12.27000046 15.96000004 -0.36000001 220 96 97 119.000000 1.000000 4.000000 5.000000 51.808199 78.000000 54.000000 0.105113 0.924178 0.367214
-12.27000046 15.98999977 -0.38999999 220 96 97 119.000000 1.000000 4.000000 5.000000 51.808199 78.000000 54.000000 0.536119 0.830168 0.152965
-12.28999996 15.98999977 -0.33000001 220 96 97 119.000000 1.000000 4.000000 5.000000 51.808199 78.000000 54.000000 -0.239051 0.952151 0.190430
-12.30000019 15.96000004 -0.34000000 220 96 97 119.000000 1.000000 4.000000 5.000000 51.808199 78.000000 54.000000 0.368914 0.928193 -0.048576
-12.31999969 15.92000008 -0.34000000 220 96 97 119.000000 1.000000 4.000000 5.000000 51.808199 78.000000 54.000000 0.061152 0.998128 0.001036
-12.31999969 15.93000031 -0.34999999 220 96 97 119.000000 1.000000 4.000000 5.000000 51.808199 78.000000 54.000000 -0.003975 0.881059 0.472990
-12.31999969 15.92000008 -0.34000000 220 96 97 119.000000 1.000000 4.000000 5.000000 51.808199 78.000000 54.000000 0.061152 0.998128 0.001036
-12.30000019 15.93999958 -0.40000001 220 96 97 119.000000 1.000000 4.000000 5.000000 51.808199 78.000000 54.000000 0.328789 0.907457 0.261570
-12.28999996 15.93000031 -0.38000000 220 96 97 119.000000 1.000000 4.000000 5.000000 51.808199 78.000000 54.000000 0.416277 0.905368 -0.083805
-12.28999996 15.93000031 -0.38000000 220 96 97 119.000000 1.000000 4.000000 5.000000 51.808199 78.000000 54.000000 0.416277 0.905368 -0.083805
-12.26000023 15.97000027 -0.47999999 220 96 97 119.000000 1.000000 4.000000 5.000000 51.808199 78.000000 54.000000 0.135556 0.990769 -0.001102
-12.27000046 15.97000027 -0.47999999 220 96 97 119.000000 1.000000 4.000000 5.000000 51.808199 78.000000 54.000000 0.375967 0.835307 0.401136
-12.26000023 15.96000004 -0.50000000 220 96 97 119.000000 1.000000 4.000000 5.000000 51.808199 78.000000 54.000000 0.230999 0.971663 -0.050111
-12.26000023 15.96000004 -0.50000000 220 96 97 119.000000 1.000000 4.000000 5.000000 51.808199 78.000000 54.000000 0.230999 0.971663 -0.050111
-12.31999969 15.92000008 -0.43000001 220 96 97 119.000000 1.000000 4.000000 5.000000 51.808199 78.000000 54.000000 0.057247 0.996956 0.052926
-12.28999996 15.92000008 -0.41999999 220 96 97 119.000000 1.000000 4.000000 5.000000 51.808199 78.000000 54.000000 0.367120 0.864805 0.342543
-12.40999985 16.04999924 -0.34999999 220 96 97 119.000000 1.000000 4.000000 5.000000 51.808199 78.000000 54.000000 -0.013886 0.940474 0.339581
-12.39000034 16.05999947 -0.33000001 220 96 97 119.000000 1.000000 4.000000 5.000000 51.808199 78.000000 54.000000 0.055501 0.983667 0.171227
-12.39000034 16.07999992 -0.34999999 220 96 97 119.000000 1.000000 4.000000 5.000000 51.808199 78.000000 54.000000 0.010230 0.985500 0.169365
