//X Y Z R G B PointSourceId ScanDirectionFlag NumberOfReturns ReturnNumber GpsTime Intensity Classification Nx Ny Nz
-0.27000001 -1.33000004 0.16000000 74 163 137 97.000000 1.000000 4.000000 1.000000 51.808199 114.000000 202.000000 -0.704162 0.642931 0.301323
-0.28999999 -1.34000003 0.18000001 74 163 137 97.000000 1.000000 4.000000 1.000000 51.808199 114.000000 202.000000 -0.585501 0.785278 0.201314
-0.30000001 -1.33000004 0.14000000 74 163 137 97.000000 1.000000 4.000000 1.000000 51.808199 114.000000 202.000000 -0.852418 0.436228 0.288250
-0.30000001 -1.33000004 0.14000000 74 163 137 97.000000 1.000000 4.000000 1.000000 51.808199 114.000000 202.000000 -0.852418 0.436228 0.288250
-0.23000000 -1.26999998 0.05000000 74 163 137 97.000000 1.000000 4.000000 1.000000 51.808199 114.000000 202.000000 -0.616743 0.786100 0.040928
-0.23000000 -1.28999996 0.02000000 74 163 137 97.000000 1.000000 4.000000 1.000000 51.808199 114.000000 202.000000 -0.587354 0.803058 0.100564
-0.25000000 -1.30999994 0.06000000 74 163 137 97.000000 1.000000 4.000000 1.000000 51.808199 114.000000 202.000000 -0.031430 0.996016 0.083453
-0.25999999 -1.30999994 0.08000000 74 163 137 97.000000 1.000000 4.000000 1.000000 51.808199 114.000000 202.000000 -0.331042 0.898117 0.289476
-0.27000001 -1.33000004 0.09000000 74 163 137 97.000000 1.000000 4.000000 1.000000 51.808199 114.000000 202.000000 -0.667856 0.611230 0.424696
-0.27000001 -1.33000004 0.09000000 74 163 137 97.000000 1.000000 4.000000 1.000000 51.808199 114.000000 202.000000 -0.667856 0.611230 0.424696
-0.27000001 -1.33000004 0.09000000 74 163 137 97.000000 1.000000 4.000000 1.000000 51.808199 114.000000 202.000000 -0.667856 0.611230 0.424696
-0.30000001 -1.32000005 0.02000000 74 163 137 97.000000 1.000000 4.000000 1.000000 51.808199 114.000000 202.000000 -0.615156 0.765493 0.188689
-0.27000001 -1.33000004 0.04000000 74 163 137 97.000000 1.000000 4.000000 1.000000 51.808199 114.000000 202.000000 -0.522327 0.800060 0.295091
-0.31000000 -1.34000003 0.14000000 74 163 137 97.000000 1.000000 4.000000 1.000000 51.808199 114.000000 202.000000 -0.540190 0.777424 0.322190
-0.33000001 -1.34000003 0.10000000 74 163 137 97.000000 1.000000 4.000000 1.000000 51.808199 114.000000 202.000000 0.897131 -0.372700 -0.237173
-0.38999999 -1.27999997 0.15000001 74 163 137 97.000000 1.000000 4.000000 1.000000 51.808199 114.000000 202.000000 0.784005 -0.413916 -0.462612
-0.36000001 -1.28999996 0.16000000 74 163 137 97.000000 1.000000 4.000000 1.000000 51.808199 114.000000 202.000000 -0.674450 0.720124 -0.162903
-0.38000000 -1.29999995 0.10000000 74 163 137 97.000000 1.000000 4.000000 1.000000 51.808199 114.000000 202.000000 0.899866 -0.368460 -0.233407
-0.38999999 -1.34000003 0.17000000 74 163 137 97.000000 1.000000 4.000000 1.000000 51.808199 114.000000 202.000000 0.873148 -0.484163 0.056555
-0.31000000 -1.33000004 0.06000000 74 163 137 97.000000 1.000000 4.000000 1.000000 51.808199 114.000000 202.000000 -0.252738 0.953451 0.164480
-0.33000001 -1.34000003 0.03000000 74 163 137 97.000000 1.000000 4.000000 1.000000 51.808199 114.000000 202.000000 0.882872 -0.452133 -0.126940
-0.38999999 -1.26999998 0.07000000 74 163 137 97.000000 1.000000 4.000000 1.000000 51.808199 114.000000 202.000000 0.600449 -0.775516 0.195031
-0.38000000 -1.29999995 0.09000000 74 163 137 97.000000 1.000000 4.000000 1.000000 51.808199 114.000000 202.000000 0.834930 -0.544767 -0.078230
-0.38999999 -1.29999995 0.02000000 74 163 137 97.000000 1.000000 4.000000 1.000000 51.808199 114.000000 202.000000 -0.424112 0.873700 0.238282
-0.38999999 -1.32000005 0.05000000 74 163 137 97.000000 1.000000 4.000000 1.000000 51.808199 114.000000 202.000000 -0.746283 0.502464 0.436567
-0.31000000 -1.36000001 0.09000000 74 163 137 97.000000 1.000000 4.000000 1.000000 51.808199 114.000000 202.000000 0.930216 -0.363427 -0.051168
-0.31999999 -1.35000002 0.05000000 74 163 137 97.000000 1.000000 4.000000 1.000000 51.808199 114.000000 202.000000 0.814564 -0.578214 -0.046426
-0.22000000 -1.33000004 -0.30000001 74 163 137 97.000000 1.000000 4.000000 1.000000 51.808199 114.000000 202.000000 0.003495 0.977506 0.210880
-0.25999999 -1.23000002 -0.02000000 74 163 137 97.000000 1.000000 4.000000 1.000000 51.808199 114.000000 202.000000 0.022001 0.998439 -0.051336
-0.25000000 -1.25000000 -0.06000000 74 163 137 97.000000 1.000000 4.000000 1.000000 51.808199 114.000000 202.000000 -0.023201 0.999669 0.011096
-0.25000000 -1.25000000 -0.05000000 74 163 137 97.000000 1.000000 4.000000 1.000000 51.808199 114.000000 202.000000 0.122207 0.983703 0.131886
-0.25999999 -1.24000001 -0.06000000 74 163 137 97.000000 1.000000 4.000000 1.000000 51.808199 114.000000 202.000000 0.046174 0.981487 0.185879
-0.30000001 -1.22000003 0.00000000 74 163 137 97.000000 1.000000 4.000000 1.000000 51.808199 114.000000 202.000000 -0.075128 0.939764 0.333465
-0.30000001 -1.25000000 -0.08000000 74 163 137 97.000000 1.000000 4.000000 1.000000 51.808199 114.000000 202.000000 -0.481320 0.838082 0.256807
-0.30000001 -1.25000000 -0.08000000 74 163 137 97.000000 1.000000 4.000000 1.000000 51.808199 114.000000 202.000000 -0.481320 0.838082 0.256807
-0.30000001 -1.25000000 -0.14000000 74 163 137 97.000000 1.000000 4.000000 1.000000 51.808199 114.000000 202.000000 -0.539182 0.801740 0.257869
-0.30000001 -1.25999999 -0.15000001 74 163 137 97.000000 1.000000 4.000000 1.000000 51.808199 114.000000 202.000000 -0.229418 0.924795 -0.303515
-0.31000000 -1.22000003 -0.01000000 74 163 137 97.000000 1.000000 4.000000 1.000000 51.808199 114.000000 202.000000 -0.551857 0.729769 0.403597
-0.31999999 -1.21000004 -0.02000000 74 163 137 97.000000 1.000000 4.000000 1.000000 51.808199 114.000000 202.000000 -0.138527 0.913721 0.382000
-0.33000001 -1.21000004 -0.04000000 74 163 137 97.000000 1.000000 4.000000 1.000000 51.808199 114.000000 202.000000 -0.086747 0.969301 0.230067
-0.33000001 -1.21000004 -0.03000000 74 163 137 97.000000 1.000000 4.000000 1.000000 51.808199 114.000000 202.000000 -0.240168 0.865512 0.439553
-0.37000000 -1.25999999 0.00000000 74 163 137 97.000000 1.000000 4.000000 1.000000 51.808199 114.000000 202.000000 -0.333515 0.935732 0.114772
-0.38000000 -1.25000000 -0.02000000 74 163 137 97.000000 1.000000 4.000000 1.000000 51.808199 114.000000 202.000000 -0.523576 0.769965 0.364720
-0.38000000 -1.25000000 -0.07000000 74 163 137 97.000000 1.000000 4.000000 1.000000 51.808199 114.000000 202.000000 -0.535353 0.768255 0.350971
-0.37000000 -1.25000000 -0.06000000 74 163 137 97.000000 1.000000 4.000000 1.000000 51.808199 114.000000 202.000000 -0.211955 0.971985 0.101588
-0.34000000 -1.21000004 -0.09000000 74 163 137 97.000000 1.000000 4.000000 1.000000 51.808199 114.000000 202.000000 0.755596 -0.653142 -0.049804
-0.31999999 -1.24000001 -0.11000000 74 163 137 97.000000 1.000000 4.000000 1.000000 51.808199 114.000000 202.000000 0.001181 0.971989 0.235025
-0.31999999 -1.24000001 -0.11000000 74 163 137 97.000000 1.000000 4.000000 1.000000 51.808199 114.000000 202.000000 0.001181 0.971989 0.235025
-0.34999999 -1.24000001 -0.12000000 74 163 137 97.000000 1.000000 4.000000 1.000000 51.808199 114.000000 202.000000 -0.086900 0.953306 0.289234
-0.28000000 -1.25999999 -0.22000000 74 163 137 97.000000 1.000000 4.000000 1.000000 51.808199 114.000000 202.000000 -0.194981 0.977360 -0.082162
-0.34000000 -1.24000001 -0.23000000 74 163 137 97.000000 1.000000 4.000000 1.000000 51.808199 114.000000 202.000000 -0.569256 0.821016 0.043359
-0.31000000 -1.25999999 -0.22000000 74 163 137 97.000000 1.000000 4.000000 1.000000 51.808199 114.000000 202.000000 -0.430026 0.884833 0.179299
-0.31000000 -1.25999999 -0.22000000 74 163 137 97.000000 1.000000 4.000000 1.000000 51.808199 114.000000 202.000000 -0.430026 0.884833 0.179299
-0.36000001 -1.22000003 -0.19000000 74 163 137 97.000000 1.000000 4.000000 1.000000 51.808199 114.000000 202.000000 0.501621 -0.782271 -0.369361
-0.38000000 -1.25000000 -0.23000000 74 163 137 97.000000 1.000000 4.000000 1.000000 51.808199 114.000000 202.000000 -0.515646 0.785517 0.342158
-0.23000000 -1.28999996 0.00000000 74 163 137 97.000000 1.000000 4.000000 1.000000 51.808199 114.000000 202.000000 -0.008735 0.947139 -0.320705
-0.25000000 -1.26999998 -0.06000000 74 163 137 97.000000 1.000000 4.000000 1.000000 51.808199 114.000000 202.000000 -0.047109 0.995857 0.077784
-0.25000000 -1.26999998 -0.03000000 74 163 137 97.000000 1.000000 4.000000 1.000000 51.808199 114.000000 202.000000 -0.133784 0.925452 0.354458
-0.28000000 -1.27999997 -0.03000000 74 163 137 97.000000 1.000000 4.000000 1.000000 51.808199 114.000000 202.000000 -0.089168 0.995886 0.016115
-0.25000000 -1.28999996 -0.10000000 74 163 137 97.000000 1.000000 4.000000 1.000000 51.808199 114.000000 202.000000 0.146278 0.958057 0.246433
-0.23999999 -1.28999996 -0.10000000 74 163 137 97.000000 1.000000 4.000000 1.000000 51.808199 114.000000 202.000000 -0.214872 0.971324 -0.101782
-0.25000000 -1.26999998 -0.10000000 74 163 137 97.000000 1.000000 4.000000 1.000000 51.808199 114.000000 202.000000 -0.062683 0.997621 -0.028686
-0.25000000 -1.26999998 -0.10000000 74 163 137 97.000000 1.000000 4.000000 1.000000 51.808199 114.000000 202.000000 -0.062683 0.997621 -0.028686
-0.25000000 -1.28999996 -0.10000000 74 163 137 97.000000 1.000000 4.000000 1.000000 51.808199 114.000000 202.000000 0.146278 0.958057 0.246433
-0.25999999 -1.33000004 -0.08000000 74 163 137 97.000000 1.000000 4.000000 1.000000 51.808199 114.000000 202.000000 -0.378186 0.925729 -0.001273
-0.23999999 -1.33000004 -0.08000000 74 163 137 97.000000 1.000000 4.000000 1.000000 51.808199 114.000000 202.000000 -0.161684 0.960902 -0.224780
-0.23999999 -1.32000005 -0.10000000 74 163 137 97.000000 1.000000 4.000000 1.000000 51.808199 114.000000 202.000000 -0.499657 0.855097 0.138389
-0.25000000 -1.34000003 -0.14000000 74 163 137 97.000000 1.000000 4.000000 1.000000 51.808199 114.000000 202.000000 -0.155686 0.973356 -0.168344
-0.28999999 -1.30999994 -0.14000000 74 163 137 97.000000 1.000000 4.000000 1.000000 51.808199 114.000000 202.000000 -0.512226 0.769152 0.382137
-0.30000001 -1.37000000 -0.07000000 74 163 137 97.000000 1.000000 4.000000 1.000000 51.808199 114.000000 202.000000 -0.689064 0.685925 0.233874
-0.30000001 -1.36000001 -0.10000000 74 163 137 97.000000 1.000000 4.000000 1.000000 51.808199 114.000000 202.000000 -0.690706 0.678062 0.251310
-0.30000001 -1.37000000 -0.10000000 74 163 137 97.000000 1.000000 4.000000 1.000000 51.808199 114.000000 202.000000 0.518624 -0.679749 -0.518624
-0.38000000 -1.28999996 -0.04000000 74 163 137 97.000000 1.000000 4.000000 1.000000 51.808199 114.000000 202.000000 -0.631276 0.732534 0.254725
-0.38999999 -1.28999996 -0.04000000 74 163 137 97.000000 1.000000 4.000000 1.000000 51.808199 114.000000 202.000000 -0.433177 0.870851 0.232327
-0.36000001 -1.32000005 -0.02000000 74 163 137 97.000000 1.000000 4.000000 1.000000 51.808199 114.000000 202.000000 0.820177 -0.399737 -0.409292
-0.36000001 -1.34000003 -0.03000000 74 163 137 97.000000 1.000000 4.000000 1.000000 51.808199 114.000000 202.000000 -0.391586 0.885908 0.248650
-0.34000000 -1.38000000 -0.01000000 74 163 137 97.000000 1.000000 4.000000 1.000000 51.808199 114.000000 202.000000 -0.774410 0.610739 0.165187
-0.33000001 -1.38999999 -0.11000000 74 163 137 97.000000 1.000000 4.000000 1.000000 51.808199 114.000000 202.000000 0.748900 -0.662435 0.018130
-0.33000001 -1.38999999 -0.13000000 74 163 137 97.000000 1.000000 4.000000 1.000000 51.808199 114.000000 202.000000 -0.623028 0.781920 -0.020907
-0.28000000 -1.29999995 -0.18000001 74 163 137 97.000000 1.000000 4.000000 1.000000 51.808199 114.000000 202.000000 -0.518336 0.832662 0.194943
-0.28999999 -1.28999996 -0.20999999 74 163 137 97.000000 1.000000 4.000000 1.000000 51.808199 114.000000 202.000000 -0.528385 0.830746 0.175130
-0.28999999 -1.28999996 -0.20999999 74 163 137 97.000000 1.000000 4.000000 1.000000 51.808199 114.000000 202.000000 -0.528385 0.830746 0.175130
-0.27000001 -1.32000005 -0.20999999 74 163 137 97.000000 1.000000 4.000000 1.000000 51.808199 114.000000 202.000000 -0.053208 0.998426 0.017736
-0.27000001 -1.30999994 -0.23999999 74 163 137 97.000000 1.000000 4.000000 1.000000 51.808199 114.000000 202.000000 0.050867 0.983029 -0.176259
-0.25999999 -1.27999997 -0.25000000 74 163 137 97.000000 1.000000 4.000000 1.000000 51.808199 114.000000 202.000000 0.294524 0.953023 0.070737
-0.25999999 -1.28999996 -0.28999999 74 163 137 97.000000 1.000000 4.000000 1.000000 51.808199 114.000000 202.000000 0.097748 0.988078 0.118946
-0.30000001 -1.27999997 -0.31999999 74 163 137 97.000000 1.000000 4.000000 1.000000 51.808199 114.000000 202.000000 -0.055075 0.985492 0.160538
-0.27000001 -1.33000004 -0.25000000 74 163 137 97.000000 1.000000 4.000000 1.000000 51.808199 114.000000 202.000000 -0.166039 0.985927 0.019467
-0.30000001 -1.32000005 -0.31999999 74 163 137 97.000000 1.000000 4.000000 1.000000 51.808199 114.000000 202.000000 0.128244 0.977395 -0.168087
-0.28000000 -1.32000005 -0.31000000 74 163 137 97.000000 1.000000 4.000000 1.000000 51.808199 114.000000 202.000000 0.074972 0.984159 -0.160655
-0.28000000 -1.38000000 -0.17000000 74 163 137 97.000000 1.000000 4.000000 1.000000 51.808199 114.000000 202.000000 -0.244318 0.905587 0.346727
-0.28000000 -1.35000002 -0.19000000 74 163 137 97.000000 1.000000 4.000000 1.000000 51.808199 114.000000 202.000000 -0.242216 0.962388 0.123051
-0.25999999 -1.36000001 -0.25999999 74 163 137 97.000000 1.000000 4.000000 1.000000 51.808199 114.000000 202.000000 -0.389798 0.919284 0.054545
-0.28999999 -1.38000000 -0.28000000 74 163 137 97.000000 1.000000 4.000000 1.000000 51.808199 114.000000 202.000000 -0.511108 0.797711 0.320040
-0.28000000 -1.35000002 -0.25000000 74 163 137 97.000000 1.000000 4.000000 1.000000 51.808199 114.000000 202.000000 -0.381260 0.918051 -0.108735
-0.28999999 -1.38999999 -0.30000001 74 163 137 97.000000 1.000000 4.000000 1.000000 51.808199 114.000000 202.000000 -0.283050 0.907813 0.309448
-0.30000001 -1.38999999 -0.28999999 74 163 137 97.000000 1.000000 4.000000 1.000000 51.808199 114.000000 202.000000 -0.182540 0.942896 0.278614
-0.28999999 -1.35000002 -0.31000000 74 163 137 97.000000 1.000000 4.000000 1.000000 51.808199 114.000000 202.000000 -0.161091 0.982290 -0.095685
-0.28000000 -1.41999996 -0.30000001 74 163 137 97.000000 1.000000 4.000000 1.000000 51.808199 114.000000 202.000000 -0.205704 0.959508 -0.192432
-0.31000000 -1.28999996 -0.28999999 74 163 137 97.000000 1.000000 4.000000 1.000000 51.808199 114.000000 202.000000 0.012840 0.979315 0.201933
-0.31000000 -1.28999996 -0.28999999 74 163 137 97.000000 1.000000 4.000000 1.000000 51.808199 114.000000 202.000000 0.012840 0.979315 0.201933
-0.34000000 -1.26999998 -0.31000000 74 163 137 97.000000 1.000000 4.000000 1.000000 51.808199 114.000000 202.000000 -0.535277 0.839510 -0.093279
-0.38999999 -1.28999996 -0.28000000 74 163 137 97.000000 1.000000 4.000000 1.000000 51.808199 114.000000 202.000000 -0.378881 0.807320 0.452419
-0.34999999 -1.26999998 -0.31999999 74 163 137 97.000000 1.000000 4.000000 1.000000 51.808199 114.000000 202.000000 -0.104846 0.959147 0.262762
-0.31000000 -1.38000000 -0.17000000 74 163 137 97.000000 1.000000 4.000000 1.000000 51.808199 114.000000 202.000000 0.787410 -0.613065 0.064308
-0.33000001 -1.42999995 -0.18000001 74 163 137 97.000000 1.000000 4.000000 1.000000 51.808199 114.000000 202.000000 0.919853 -0.392005 0.014231
-0.31000000 -1.36000001 -0.31999999 74 163 137 97.000000 1.000000 4.000000 1.000000 51.808199 114.000000 202.000000 -0.527547 0.810772 0.253658
-0.34999999 -1.41999996 -0.28000000 74 163 137 97.000000 1.000000 4.000000 1.000000 51.808199 114.000000 202.000000 0.743657 -0.668315 0.018138
-0.36000001 -1.40999997 -0.31999999 74 163 137 97.000000 1.000000 4.000000 1.000000 51.808199 114.000000 202.000000 -0.647190 0.707914 0.282846
-0.34999999 -1.40999997 -0.28999999 74 163 137 97.000000 1.000000 4.000000 1.000000 51.808199 114.000000 202.000000 -0.549926 0.800879 0.237011
-0.31999999 -1.44000006 -0.27000001 74 163 137 97.000000 1.000000 4.000000 1.000000 51.808199 114.000000 202.000000 0.901550 -0.287729 -0.323141
-0.33000001 -1.44000006 -0.28999999 74 163 137 97.000000 1.000000 4.000000 1.000000 51.808199 114.000000 202.000000 0.856874 -0.144515 -0.494856
-0.40000001 -1.27999997 0.01000000 74 163 137 97.000000 1.000000 4.000000 1.000000 51.808199 114.000000 202.000000 -0.564436 0.811657 -0.150417
-0.41000000 -1.30999994 -0.04000000 74 163 137 97.000000 1.000000 4.000000 1.000000 51.808199 114.000000 202.000000 0.888566 -0.447792 -0.099665
-0.40000001 -1.30999994 -0.06000000 74 163 137 97.000000 1.000000 4.000000 1.000000 51.808199 114.000000 202.000000 -0.653326 0.656617 0.376855
-0.40000001 -1.33000004 -0.04000000 74 163 137 97.000000 1.000000 4.000000 1.000000 51.808199 114.000000 202.000000 0.752747 -0.658132 -0.015305
-0.40000001 -1.30999994 -0.06000000 74 163 137 97.000000 1.000000 4.000000 1.000000 51.808199 114.000000 202.000000 -0.653326 0.656617 0.376855
-0.41000000 -1.33000004 -0.15000001 74 163 137 97.000000 1.000000 4.000000 1.000000 51.808199 114.000000 202.000000 0.794871 -0.521981 -0.309381
-0.40000001 -1.26999998 -0.18000001 74 163 137 97.000000 1.000000 4.000000 1.000000 51.808199 114.000000 202.000000 -0.429129 0.841093 0.329259
-0.41000000 -1.27999997 -0.18000001 74 163 137 97.000000 1.000000 4.000000 1.000000 51.808199 114.000000 202.000000 -0.414611 0.808412 0.417813
-0.41999999 -1.32000005 -0.22000000 74 163 137 97.000000 1.000000 4.000000 1.000000 51.808199 114.000000 202.000000 -0.590642 0.778784 0.211274
-0.40000001 -1.29999995 -0.25000000 74 163 137 97.000000 1.000000 4.000000 1.000000 51.808199 114.000000 202.000000 -0.298792 0.953885 -0.028754
-0.40000001 -1.28999996 -0.28999999 74 163 137 97.000000 1.000000 4.000000 1.000000 51.808199 114.000000 202.000000 -0.462575 0.769868 0.439691
-0.40000001 -1.28999996 -0.28999999 74 163 137 97.000000 1.000000 4.000000 1.000000 51.808199 114.000000 202.000000 -0.462575 0.769868 0.439691
-0.43000001 -1.30999994 -0.30000001 74 163 137 97.000000 1.000000 4.000000 1.000000 51.808199 114.000000 202.000000 -0.524490 0.837707 0.152176
-0.41999999 -1.30999994 -0.28999999 74 163 137 97.000000 1.000000 4.000000 1.000000 51.808199 114.000000 202.000000 -0.417776 0.875981 0.241082
-0.41999999 -1.36000001 -0.18000001 74 163 137 97.000000 1.000000 4.000000 1.000000 51.808199 114.000000 202.000000 0.725230 -0.653486 -0.216789
-0.40000001 -1.38000000 -0.18000001 74 163 137 97.000000 1.000000 4.000000 1.000000 51.808199 114.000000 202.000000 0.777586 -0.407462 -0.478889
-0.41999999 -1.36000001 -0.23999999 74 163 137 97.000000 1.000000 4.000000 1.000000 51.808199 114.000000 202.000000 0.862474 -0.385884 -0.327463
-0.41000000 -1.35000002 -0.20999999 74 163 137 97.000000 1.000000 4.000000 1.000000 51.808199 114.000000 202.000000 -0.587623 0.628032 0.510171
-0.41999999 -1.36000001 -0.23999999 74 163 137 97.000000 1.000000 4.000000 1.000000 51.808199 114.000000 202.000000 0.862474 -0.385884 -0.327463
-0.41999999 -1.36000001 -0.23999999 74 163 137 97.000000 1.000000 4.000000 1.000000 51.808199 114.000000 202.000000 0.862474 -0.385884 -0.327463
-0.41000000 -1.37000000 -0.27000001 74 163 137 97.000000 1.000000 4.000000 1.000000 51.808199 114.000000 202.000000 -0.616123 0.786088 -0.049573
-0.43000001 -1.35000002 -0.31999999 74 163 137 97.000000 1.000000 4.000000 1.000000 51.808199 114.000000 202.000000 0.712710 -0.594744 -0.371920
-0.41000000 -1.40999997 -0.31000000 74 163 137 97.000000 1.000000 4.000000 1.000000 51.808199 114.000000 202.000000 -0.685816 0.676269 0.268916
-0.44000000 -1.39999998 -0.25999999 74 163 137 97.000000 1.000000 4.000000 1.000000 51.808199 114.000000 202.000000 0.712488 -0.601111 -0.361977
-0.34000000 -1.25999999 -0.41999999 74 163 137 97.000000 1.000000 4.000000 1.000000 51.808199 114.000000 202.000000 -0.476532 0.878393 0.036656
-0.30000001 -1.30999994 -0.34999999 74 163 137 97.000000 1.000000 4.000000 1.000000 51.808199 114.000000 202.000000 0.187638 0.943667 0.272554
-0.28000000 -1.33000004 -0.33000001 74 163 137 97.000000 1.000000 4.000000 1.000000 51.808199 114.000000 202.000000 -0.311476 0.939870 0.140096
-0.28000000 -1.32000005 -0.34999999 74 163 137 97.000000 1.000000 4.000000 1.000000 51.808199 114.000000 202.000000 0.268184 0.956306 0.116431
-0.30000001 -1.30999994 -0.34999999 74 163 137 97.000000 1.000000 4.000000 1.000000 51.808199 114.000000 202.000000 0.187638 0.943667 0.272554
-0.28000000 -1.33000004 -0.34999999 74 163 137 97.000000 1.000000 4.000000 1.000000 51.808199 114.000000 202.000000 -0.063265 0.990378 0.123078
-0.28000000 -1.32000005 -0.38999999 74 163 137 97.000000 1.000000 4.000000 1.000000 51.808199 114.000000 202.000000 -0.205403 0.912105 0.354787
-0.28999999 -1.32000005 -0.41999999 74 163 137 97.000000 1.000000 4.000000 1.000000 51.808199 114.000000 202.000000 0.189013 0.960925 0.202230
-0.28999999 -1.32000005 -0.43000001 74 163 137 97.000000 1.000000 4.000000 1.000000 51.808199 114.000000 202.000000 0.178740 0.908000 0.378929
-0.28999999 -1.35000002 -0.43000001 74 163 137 97.000000 1.000000 4.000000 1.000000 51.808199 114.000000 202.000000 0.125918 0.981675 0.143034
-0.27000001 -1.38999999 -0.44999999 74 163 137 97.000000 1.000000 4.000000 1.000000 51.808199 114.000000 202.000000 0.587223 0.792524 -0.164543
-0.30000001 -1.36000001 -0.44000000 74 163 137 97.000000 1.000000 4.000000 1.000000 51.808199 114.000000 202.000000 0.068313 0.981552 0.178573
-0.30000001 -1.36000001 -0.47999999 74 163 137 97.000000 1.000000 4.000000 1.000000 51.808199 114.000000 202.000000 0.151594 0.971986 -0.179620
-0.31999999 -1.29999995 -0.37000000 74 163 137 97.000000 1.000000 4.000000 1.000000 51.808199 114.000000 202.000000 -0.126804 0.933986 0.334053
-0.31000000 -1.30999994 -0.34000000 74 163 137 97.000000 1.000000 4.000000 1.000000 51.808199 114.000000 202.000000 -0.200145 0.921233 -0.333574
-0.31999999 -1.33000004 -0.38999999 74 163 137 97.000000 1.000000 4.000000 1.000000 51.808199 114.000000 202.000000 -0.456142 0.889544 0.025416
-0.31999999 -1.33000004 -0.41000000 74 163 137 97.000000 1.000000 4.000000 1.000000 51.808199 114.000000 202.000000 0.038382 0.998978 0.023859
-0.31000000 -1.32000005 -0.38000000 74 163 137 97.000000 1.000000 4.000000 1.000000 51.808199 114.000000 202.000000 -0.568774 0.821872 0.031985
-0.37000000 -1.28999996 -0.36000001 74 163 137 97.000000 1.000000 4.000000 1.000000 51.808199 114.000000 202.000000 -0.705658 0.708442 -0.012526
-0.37000000 -1.27999997 -0.37000000 74 163 137 97.000000 1.000000 4.000000 1.000000 51.808199 114.000000 202.000000 0.685811 -0.712942 -0.146206
-0.31000000 -1.29999995 -0.47000000 74 163 137 97.000000 1.000000 4.000000 1.000000 51.808199 114.000000 202.000000 -0.280989 0.885040 0.371146
-0.31000000 -1.32000005 -0.41999999 74 163 137 97.000000 1.000000 4.000000 1.000000 51.808199 114.000000 202.000000 0.003056 0.999206 -0.039724
-0.38999999 -1.29999995 -0.41999999 74 163 137 97.000000 1.000000 4.000000 1.000000 51.808199 114.000000 202.000000 0.754977 -0.636965 -0.155837
-0.37000000 -1.32000005 -0.44999999 74 163 137 97.000000 1.000000 4.000000 1.000000 51.808199 114.000000 202.000000 -0.180405 0.929995 0.320254
-0.31000000 -1.38999999 -0.36000001 74 163 137 97.000000 1.000000 4.000000 1.000000 51.808199 114.000000 202.000000 -0.082860 0.943027 0.322234
-0.31999999 -1.38999999 -0.38999999 74 163 137 97.000000 1.000000 4.000000 1.000000 51.808199 114.000000 202.000000 -0.244900 0.957097 -0.154883
-0.38999999 -1.39999998 -0.34999999 74 163 137 97.000000 1.000000 4.000000 1.000000 51.808199 114.000000 202.000000 0.976695 -0.206958 -0.056883
-0.34999999 -1.42999995 -0.40000001 74 163 137 97.000000 1.000000 4.000000 1.000000 51.808199 114.000000 202.000000 -0.627862 0.590830 0.506666
-0.31000000 -1.41999996 -0.47999999 74 163 137 97.000000 1.000000 4.000000 1.000000 51.808199 114.000000 202.000000 -0.518439 0.828590 0.211328
-0.30000001 -1.33000004 -0.56999999 74 163 137 97.000000 1.000000 4.000000 1.000000 51.808199 114.000000 202.000000 -0.120775 0.990357 -0.067864
-0.30000001 -1.33000004 -0.56999999 74 163 137 97.000000 1.000000 4.000000 1.000000 51.808199 114.000000 202.000000 -0.120775 0.990357 -0.067864
-0.28999999 -1.37000000 -0.50999999 74 163 137 97.000000 1.000000 4.000000 1.000000 51.808199 114.000000 202.000000 0.003098 0.998497 0.054726
-0.28999999 -1.38000000 -0.54000002 74 163 137 97.000000 1.000000 4.000000 1.000000 51.808199 114.000000 202.000000 0.489390 0.871684 0.025757
-0.28999999 -1.37000000 -0.57999998 74 163 137 97.000000 1.000000 4.000000 1.000000 51.808199 114.000000 202.000000 -0.066378 0.993415 0.093379
-0.28999999 -1.39999998 -0.52999997 74 163 137 97.000000 1.000000 4.000000 1.000000 51.808199 114.000000 202.000000 0.237768 0.962767 0.128629
-0.28999999 -1.40999997 -0.57999998 74 163 137 97.000000 1.000000 4.000000 1.000000 51.808199 114.000000 202.000000 0.171137 0.982539 -0.073002
-0.28999999 -1.40999997 -0.57999998 74 163 137 97.000000 1.000000 4.000000 1.000000 51.808199 114.000000 202.000000 0.171137 0.982539 -0.073002
-0.30000001 -1.42999995 -0.56999999 74 163 137 97.000000 1.000000 4.000000 1.000000 51.808199 114.000000 202.000000 0.521950 0.762600 -0.382113
-0.28999999 -1.42999995 -0.67000002 74 163 137 97.000000 1.000000 4.000000 1.000000 51.808199 114.000000 202.000000 0.683470 0.686627 0.247817
-0.31000000 -1.30999994 -0.56999999 74 163 137 97.000000 1.000000 4.000000 1.000000 51.808199 114.000000 202.000000 0.023434 0.999496 0.021396
-0.33000001 -1.32000005 -0.56000000 74 163 137 97.000000 1.000000 4.000000 1.000000 51.808199 114.000000 202.000000 -0.171052 0.942839 0.285999
-0.33000001 -1.32000005 -0.56999999 74 163 137 97.000000 1.000000 4.000000 1.000000 51.808199 114.000000 202.000000 -0.370378 0.921125 -0.119788
-0.31000000 -1.33000004 -0.57999998 74 163 137 97.000000 1.000000 4.000000 1.000000 51.808199 114.000000 202.000000 -0.015719 0.966136 0.257556
-0.31000000 -1.30999994 -0.56000000 74 163 137 97.000000 1.000000 4.000000 1.000000 51.808199 114.000000 202.000000 -0.130547 0.982149 -0.135427
-0.38999999 -1.34000003 -0.55000001 74 163 137 97.000000 1.000000 4.000000 1.000000 51.808199 114.000000 202.000000 0.768567 -0.593252 -0.239492
-0.36000001 -1.30999994 -0.56000000 74 163 137 97.000000 1.000000 4.000000 1.000000 51.808199 114.000000 202.000000 -0.418466 0.905999 -0.063650
-0.33000001 -1.29999995 -0.58999997 74 163 137 97.000000 1.000000 4.000000 1.000000 51.808199 114.000000 202.000000 0.085287 0.963617 0.253315
-0.31000000 -1.42999995 -0.54000002 74 163 137 97.000000 1.000000 4.000000 1.000000 51.808199 114.000000 202.000000 -0.203876 0.971260 -0.122832
-0.33000001 -1.35000002 -0.61000001 74 163 137 97.000000 1.000000 4.000000 1.000000 51.808199 114.000000 202.000000 0.338286 0.921439 0.191082
-0.31999999 -1.41999996 -0.67000002 74 163 137 97.000000 1.000000 4.000000 1.000000 51.808199 114.000000 202.000000 0.467117 0.818642 0.334107
-0.34999999 -1.34000003 -0.69999999 74 163 137 97.000000 1.000000 4.000000 1.000000 51.808199 114.000000 202.000000 -0.141794 0.985410 0.094132
-0.37000000 -1.35000002 -0.69999999 74 163 137 97.000000 1.000000 4.000000 1.000000 51.808199 114.000000 202.000000 -0.408242 0.869601 0.277726
-0.37000000 -1.35000002 -0.73000002 74 163 137 97.000000 1.000000 4.000000 1.000000 51.808199 114.000000 202.000000 -0.350034 0.911817 0.214630
-0.36000001 -1.35000002 -0.72000003 74 163 137 97.000000 1.000000 4.000000 1.000000 51.808199 114.000000 202.000000 -0.462574 0.886038 0.031018
-0.38999999 -1.37000000 -0.82999998 74 163 137 97.000000 1.000000 4.000000 1.000000 51.808199 114.000000 202.000000 0.130554 0.956079 0.262427
-0.37000000 -1.38000000 -0.81999999 74 163 137 97.000000 1.000000 4.000000 1.000000 51.808199 114.000000 202.000000 0.203503 0.930502 0.304553
-0.34999999 -1.40999997 -0.80000001 74 163 137 97.000000 1.000000 4.000000 1.000000 51.808199 114.000000 202.000000 0.304717 0.905318 0.295884
-0.38000000 -1.40999997 -0.98000002 74 163 137 97.000000 1.000000 4.000000 1.000000 51.808199 114.000000 202.000000 0.368914 0.928193 0.048576
-0.30000001 -1.48000002 -0.44000000 74 163 137 97.000000 1.000000 4.000000 1.000000 51.808199 114.000000 202.000000 0.775270 0.558768 -0.294507
-0.34000000 -1.44000006 -0.34999999 74 163 137 97.000000 1.000000 4.000000 1.000000 51.808199 114.000000 202.000000 0.850989 -0.499974 -0.160759
-0.37000000 -1.44000006 -0.41000000 74 163 137 97.000000 1.000000 4.000000 1.000000 51.808199 114.000000 202.000000 0.885870 -0.447912 -0.120865
-0.37000000 -1.44000006 -0.38000000 74 163 137 97.000000 1.000000 4.000000 1.000000 51.808199 114.000000 202.000000 0.842161 -0.537932 0.037337
-0.37000000 -1.44000006 -0.38999999 74 163 137 97.000000 1.000000 4.000000 1.000000 51.808199 114.000000 202.000000 0.937286 -0.297661 0.181365
-0.31000000 -1.44000006 -0.50000000 74 163 137 97.000000 1.000000 4.000000 1.000000 51.808199 114.000000 202.000000 -0.137754 0.966850 -0.214999
-0.36000001 -1.45000005 -0.47000000 74 163 137 97.000000 1.000000 4.000000 1.000000 51.808199 114.000000 202.000000 0.766996 -0.499932 -0.402225
-0.38000000 -1.49000001 -0.50000000 74 163 137 97.000000 1.000000 4.000000 1.000000 51.808199 114.000000 202.000000 0.960683 -0.178394 -0.212751
-0.38000000 -1.49000001 -0.47999999 74 163 137 97.000000 1.000000 4.000000 1.000000 51.808199 114.000000 202.000000 0.994707 -0.049902 0.089823
-0.33000001 -1.44000006 -0.50999999 74 163 137 97.000000 1.000000 4.000000 1.000000 51.808199 114.000000 202.000000 -0.437956 0.852863 0.284288
-0.34000000 -1.47000003 -0.56999999 74 163 137 97.000000 1.000000 4.000000 1.000000 51.808199 114.000000 202.000000 0.975267 -0.147234 -0.164852
-0.31999999 -1.46000004 -0.56999999 74 163 137 97.000000 1.000000 4.000000 1.000000 51.808199 114.000000 202.000000 -0.374437 0.926238 0.043356
-0.31999999 -1.45000005 -0.55000001 74 163 137 97.000000 1.000000 4.000000 1.000000 51.808199 114.000000 202.000000 -0.169045 0.957036 -0.235598
-0.37000000 -1.47000003 -0.51999998 74 163 137 97.000000 1.000000 4.000000 1.000000 51.808199 114.000000 202.000000 0.986706 0.054882 0.152969
-0.36000001 -1.48000002 -0.62000000 74 163 137 97.000000 1.000000 4.000000 1.000000 51.808199 114.000000 202.000000 0.820914 0.556576 -0.127763
-0.38000000 -1.54999995 -0.77999997 74 163 137 97.000000 1.000000 4.000000 1.000000 51.808199 114.000000 202.000000 -0.110485 0.976981 0.182486
-0.36000001 -1.53999996 -0.82999998 74 163 137 97.000000 1.000000 4.000000 1.000000 51.808199 114.000000 202.000000 -0.187352 0.936760 -0.295600
-0.34999999 -1.46000004 -0.88999999 74 163 137 97.000000 1.000000 4.000000 1.000000 51.808199 114.000000 202.000000 0.819634 -0.087869 -0.566109
-0.34999999 -1.50000000 -0.85000002 74 163 137 97.000000 1.000000 4.000000 1.000000 51.808199 114.000000 202.000000 -0.471714 0.811603 0.344653
-0.36000001 -1.49000001 -0.93000001 74 163 137 97.000000 1.000000 4.000000 1.000000 51.808199 114.000000 202.000000 0.731984 -0.544465 -0.409582
-0.34000000 -1.45000005 -0.99000001 74 163 137 97.000000 1.000000 4.000000 1.000000 51.808199 114.000000 202.000000 0.968538 -0.131783 -0.211108
-0.33000001 -1.49000001 -0.97000003 74 163 137 97.000000 1.000000 4.000000 1.000000 51.808199 114.000000 202.000000 0.877945 -0.456993 -0.142720
-0.34000000 -1.50000000 -0.94999999 74 163 137 97.000000 1.000000 4.000000 1.000000 51.808199 114.000000 202.000000 0.846714 -0.491786 -0.203031
-0.33000001 -1.50000000 -0.94000000 74 163 137 97.000000 1.000000 4.000000 1.000000 51.808199 114.000000 202.000000 0.787986 -0.444961 -0.425545
-0.33000001 -1.48000002 -0.99000001 74 163 137 97.000000 1.000000 4.000000 1.000000 51.808199 114.000000 202.000000 0.937152 -0.320569 -0.137776
-0.34000000 -1.49000001 -0.99000001 74 163 137 97.000000 1.000000 4.000000 1.000000 51.808199 114.000000 202.000000 0.781948 -0.609831 -0.129088
-0.33000001 -1.48000002 -0.99000001 74 163 137 97.000000 1.000000 4.000000 1.000000 51.808199 114.000000 202.000000 0.937152 -0.320569 -0.137776
-0.37000000 -1.45000005 -1.00000000 74 163 137 97.000000 1.000000 4.000000 1.000000 51.808199 114.000000 202.000000 0.990471 -0.001102 -0.137718
-0.37000000 -1.51999998 -0.97000003 74 163 137 97.000000 1.000000 4.000000 1.000000 51.808199 114.000000 202.000000 0.720301 -0.678020 -0.146476
-0.34999999 -1.48000002 -0.95999998 74 163 137 97.000000 1.000000 4.000000 1.000000 51.808199 114.000000 202.000000 0.960579 -0.241778 0.137226
-0.34999999 -1.51999998 -0.94999999 74 163 137 97.000000 1.000000 4.000000 1.000000 51.808199 114.000000 202.000000 0.750192 -0.658038 -0.064796
-0.37000000 -1.51999998 -0.97000003 74 163 137 97.000000 1.000000 4.000000 1.000000 51.808199 114.000000 202.000000 0.720301 -0.678020 -0.146476
-0.37000000 -1.52999997 -0.86000001 74 163 137 97.000000 1.000000 4.000000 1.000000 51.808199 114.000000 202.000000 -0.342768 0.939108 0.024210
-0.37000000 -1.52999997 -0.87000000 74 163 137 97.000000 1.000000 4.000000 1.000000 51.808199 114.000000 202.000000 -0.226335 0.972628 -0.052608
-0.38000000 -1.54999995 -0.92000002 74 163 137 97.000000 1.000000 4.000000 1.000000 51.808199 114.000000 202.000000 -0.302117 0.926209 0.225524
-0.38000000 -1.55999994 -0.89999998 74 163 137 97.000000 1.000000 4.000000 1.000000 51.808199 114.000000 202.000000 -0.073929 0.920750 0.383086
-0.38000000 -1.54999995 -0.93000001 74 163 137 97.000000 1.000000 4.000000 1.000000 51.808199 114.000000 202.000000 -0.102583 0.983586 -0.148443
-0.38000000 -1.55999994 -0.88999999 74 163 137 97.000000 1.000000 4.000000 1.000000 51.808199 114.000000 202.000000 -0.347397 0.904405 0.247722
-0.38999999 -1.53999996 -0.94000000 74 163 137 97.000000 1.000000 4.000000 1.000000 51.808199 114.000000 202.000000 -0.016103 0.955037 0.296049
-0.38000000 -1.54999995 -0.98000002 74 163 137 97.000000 1.000000 4.000000 1.000000 51.808199 114.000000 202.000000 -0.553207 0.796307 0.244658
-0.36000001 -1.54999995 -0.98000002 74 163 137 97.000000 1.000000 4.000000 1.000000 51.808199 114.000000 202.000000 -0.489017 0.872191 -0.012058
-0.38999999 -1.47000003 -1.05999994 74 163 137 97.000000 1.000000 4.000000 1.000000 51.808199 114.000000 202.000000 0.892898 -0.447129 -0.053003
-0.38999999 -1.47000003 -1.08000004 74 163 137 97.000000 1.000000 4.000000 1.000000 51.808199 114.000000 202.000000 0.998646 -0.044965 0.026143
-0.34999999 -1.49000001 -1.04999995 74 163 137 97.000000 1.000000 4.000000 1.000000 51.808199 114.000000 202.000000 0.721844 -0.449700 -0.526033
-0.34999999 -1.50000000 -1.01999998 74 163 137 97.000000 1.000000 4.000000 1.000000 51.808199 114.000000 202.000000 -0.614361 0.787461 0.049660
-0.38000000 -1.48000002 -1.04999995 74 163 137 97.000000 1.000000 4.000000 1.000000 51.808199 114.000000 202.000000 0.737091 -0.647840 -0.192352
-0.34999999 -1.50000000 -1.04999995 74 163 137 97.000000 1.000000 4.000000 1.000000 51.808199 114.000000 202.000000 0.941322 -0.327817 -0.080309
-0.37000000 -1.51999998 -1.05999994 74 163 137 97.000000 1.000000 4.000000 1.000000 51.808199 114.000000 202.000000 -0.550753 0.832468 0.060569
-0.36000001 -1.50999999 -1.08000004 74 163 137 97.000000 1.000000 4.000000 1.000000 51.808199 114.000000 202.000000 0.933579 -0.355463 -0.045572
-0.38999999 -1.47000003 -1.11000001 74 163 137 97.000000 1.000000 4.000000 1.000000 51.808199 114.000000 202.000000 0.893631 0.105216 -0.436294
-0.37000000 -1.53999996 -1.04999995 74 163 137 97.000000 1.000000 4.000000 1.000000 51.808199 114.000000 202.000000 -0.634058 0.768157 0.088914
-0.38999999 -1.53999996 -1.05999994 74 163 137 97.000000 1.000000 4.000000 1.000000 51.808199 114.000000 202.000000 -0.240709 0.880605 0.408158
-0.38999999 -1.58000004 -1.05999994 74 163 137 97.000000 1.000000 4.000000 1.000000 51.808199 114.000000 202.000000 -0.430740 0.902314 0.017124
-0.38000000 -1.52999997 -1.11000001 74 163 137 97.000000 1.000000 4.000000 1.000000 51.808199 114.000000 202.000000 0.484950 -0.769063 -0.416372
-0.38999999 -1.52999997 -1.11000001 74 163 137 97.000000 1.000000 4.000000 1.000000 51.808199 114.000000 202.000000 -0.493626 0.800345 0.340266
-0.37000000 -1.55999994 -1.12000000 74 163 137 97.000000 1.000000 4.000000 1.000000 51.808199 114.000000 202.000000 0.713080 -0.659560 -0.237693
-0.37000000 -1.54999995 -1.13000000 74 163 137 97.000000 1.000000 4.000000 1.000000 51.808199 114.000000 202.000000 -0.740708 0.530485 0.412234
-0.38999999 -1.55999994 -1.16999996 74 163 137 97.000000 1.000000 4.000000 1.000000 51.808199 114.000000 202.000000 -0.254990 0.951152 -0.174041
-0.40000001 -1.30999994 -0.37000000 74 163 137 97.000000 1.000000 4.000000 1.000000 51.808199 114.000000 202.000000 -0.335174 0.895286 0.293463
-0.43000001 -1.34000003 -0.40000001 74 163 137 97.000000 1.000000 4.000000 1.000000 51.808199 114.000000 202.000000 0.569092 -0.629885 -0.528563
-0.41999999 -1.30999994 -0.38000000 74 163 137 97.000000 1.000000 4.000000 1.000000 51.808199 114.000000 202.000000 -0.606663 0.686009 0.401687
-0.40000001 -1.28999996 -0.44999999 74 163 137 97.000000 1.000000 4.000000 1.000000 51.808199 114.000000 202.000000 -0.694969 0.704014 0.146230
-0.41000000 -1.29999995 -0.46000001 74 163 137 97.000000 1.000000 4.000000 1.000000 51.808199 114.000000 202.000000 0.829973 -0.555648 -0.048987
-0.41000000 -1.30999994 -0.43000001 74 163 137 97.000000 1.000000 4.000000 1.000000 51.808199 114.000000 202.000000 -0.243104 0.940464 0.237547
-0.41999999 -1.30999994 -0.46000001 74 163 137 97.000000 1.000000 4.000000 1.000000 51.808199 114.000000 202.000000 -0.461072 0.798442 0.387172
-0.43000001 -1.42999995 -0.37000000 74 163 137 97.000000 1.000000 4.000000 1.000000 51.808199 114.000000 202.000000 0.952716 -0.156336 -0.260560
-0.44000000 -1.38000000 -0.34000000 74 163 137 97.000000 1.000000 4.000000 1.000000 51.808199 114.000000 202.000000 0.837385 -0.391199 -0.381772
-0.44999999 -1.38000000 -0.40000001 74 163 137 97.000000 1.000000 4.000000 1.000000 51.808199 114.000000 202.000000 0.687400 -0.523494 -0.503424
-0.41999999 -1.41999996 -0.41999999 74 163 137 97.000000 1.000000 4.000000 1.000000 51.808199 114.000000 202.000000 0.889538 -0.450975 0.073094
-0.40000001 -1.32000005 -0.56999999 74 163 137 97.000000 1.000000 4.000000 1.000000 51.808199 114.000000 202.000000 -0.422036 0.857884 0.293123
-0.40000001 -1.33000004 -0.60000002 74 163 137 97.000000 1.000000 4.000000 1.000000 51.808199 114.000000 202.000000 0.704605 -0.663437 -0.251758
-0.41000000 -1.34000003 -0.60000002 74 163 137 97.000000 1.000000 4.000000 1.000000 51.808199 114.000000 202.000000 -0.498229 0.815712 0.293908
-0.41000000 -1.34000003 -0.60000002 74 163 137 97.000000 1.000000 4.000000 1.000000 51.808199 114.000000 202.000000 -0.498229 0.815712 0.293908
-0.41000000 -1.33000004 -0.63999999 74 163 137 97.000000 1.000000 4.000000 1.000000 51.808199 114.000000 202.000000 -0.707312 0.692231 0.143272
-0.44999999 -1.34000003 -0.62000000 74 163 137 97.000000 1.000000 4.000000 1.000000 51.808199 114.000000 202.000000 -0.411590 0.772748 0.483171
-0.43000001 -1.36000001 -0.58999997 74 163 137 97.000000 1.000000 4.000000 1.000000 51.808199 114.000000 202.000000 0.602750 -0.659519 -0.449141
-0.46000001 -1.38000000 -0.62000000 74 163 137 97.000000 1.000000 4.000000 1.000000 51.808199 114.000000 202.000000 -0.673124 0.579588 0.459328
-0.44000000 -1.37000000 -0.60000002 74 163 137 97.000000 1.000000 4.000000 1.000000 51.808199 114.000000 202.000000 0.853478 -0.374660 -0.362223
-0.44000000 -1.40999997 -0.58999997 74 163 137 97.000000 1.000000 4.000000 1.000000 51.808199 114.000000 202.000000 0.640914 -0.624180 -0.446799
-0.44000000 -1.40999997 -0.58999997 74 163 137 97.000000 1.000000 4.000000 1.000000 51.808199 114.000000 202.000000 0.640914 -0.624180 -0.446799
-0.41000000 -1.34000003 -0.73000002 74 163 137 97.000000 1.000000 4.000000 1.000000 51.808199 114.000000 202.000000 0.522841 -0.722019 -0.453129
-0.43000001 -1.38999999 -0.70999998 74 163 137 97.000000 1.000000 4.000000 1.000000 51.808199 114.000000 202.000000 0.628032 -0.587623 -0.510171
-0.40000001 -1.38000000 -0.73000002 74 163 137 97.000000 1.000000 4.000000 1.000000 51.808199 114.000000 202.000000 -0.524415 0.806190 0.273948
-0.44999999 -1.38999999 -0.68000001 74 163 137 97.000000 1.000000 4.000000 1.000000 51.808199 114.000000 202.000000 -0.475794 0.799397 0.366858
-0.44999999 -1.38999999 -0.68000001 74 163 137 97.000000 1.000000 4.000000 1.000000 51.808199 114.000000 202.000000 -0.475794 0.799397 0.366858
-0.46000001 -1.42999995 -0.70999998 74 163 137 97.000000 1.000000 4.000000 1.000000 51.808199 114.000000 202.000000 0.767460 -0.392692 -0.506752
-0.41999999 -1.37000000 -0.79000002 74 163 137 97.000000 1.000000 4.000000 1.000000 51.808199 114.000000 202.000000 0.689961 -0.647752 -0.323064
-0.44000000 -1.38999999 -0.79000002 74 163 137 97.000000 1.000000 4.000000 1.000000 51.808199 114.000000 202.000000 -0.431914 0.849895 0.301875
-0.44999999 -1.37000000 -0.77999997 74 163 137 97.000000 1.000000 4.000000 1.000000 51.808199 114.000000 202.000000 -0.497042 0.741434 0.450805
-0.44000000 -1.38999999 -0.79000002 74 163 137 97.000000 1.000000 4.000000 1.000000 51.808199 114.000000 202.000000 -0.431914 0.849895 0.301875
-0.41999999 -1.38000000 -0.87000000 74 163 137 97.000000 1.000000 4.000000 1.000000 51.808199 114.000000 202.000000 -0.500910 0.803046 0.322809
-0.40000001 -1.40999997 -0.89999998 74 163 137 97.000000 1.000000 4.000000 1.000000 51.808199 114.000000 202.000000 0.001236 0.948187 0.317711
-0.46000001 -1.42999995 -0.87000000 74 163 137 97.000000 1.000000 4.000000 1.000000 51.808199 114.000000 202.000000 0.983643 -0.161351 -0.080078
-0.47000000 -1.40999997 -0.91000003 74 163 137 97.000000 1.000000 4.000000 1.000000 51.808199 114.000000 202.000000 0.815076 -0.543892 -0.199579
-0.43000001 -1.41999996 -1.00000000 74 163 137 97.000000 1.000000 4.000000 1.000000 51.808199 114.000000 202.000000 -0.206063 0.852830 0.479811
-0.47000000 -1.40999997 -0.95999998 74 163 137 97.000000 1.000000 4.000000 1.000000 51.808199 114.000000 202.000000 0.878120 -0.418933 -0.231084
-0.44999999 -1.41999996 -0.94999999 74 163 137 97.000000 1.000000 4.000000 1.000000 51.808199 114.000000 202.000000 0.592768 -0.589390 -0.548859
-0.50000000 -1.42999995 -0.94999999 74 163 137 97.000000 1.000000 4.000000 1.000000 51.808199 114.000000 202.000000 0.925043 -0.286493 -0.249434
-0.40000001 -1.45000005 -0.49000001 74 163 137 97.000000 1.000000 4.000000 1.000000 51.808199 114.000000 202.000000 0.973818 -0.060021 -0.219262
-0.43000001 -1.45000005 -0.56000000 74 163 137 97.000000 1.000000 4.000000 1.000000 51.808199 114.000000 202.000000 -0.847614 0.262101 0.461360
-0.40000001 -1.50999999 -0.64999998 74 163 137 97.000000 1.000000 4.000000 1.000000 51.808199 114.000000 202.000000 0.809721 0.294015 -0.507845
-0.44000000 -1.50000000 -0.60000002 74 163 137 97.000000 1.000000 4.000000 1.000000 51.808199 114.000000 202.000000 0.990893 -0.127967 -0.041901
-0.41999999 -1.51999998 -0.73000002 74 163 137 97.000000 1.000000 4.000000 1.000000 51.808199 114.000000 202.000000 0.482668 0.789380 -0.379355
-0.43000001 -1.51999998 -0.75000000 74 163 137 97.000000 1.000000 4.000000 1.000000 51.808199 114.000000 202.000000 0.670180 0.739360 0.064856
-0.41999999 -1.51999998 -0.73000002 74 163 137 97.000000 1.000000 4.000000 1.000000 51.808199 114.000000 202.000000 0.482668 0.789380 -0.379355
-0.44000000 -1.51999998 -0.76999998 74 163 137 97.000000 1.000000 4.000000 1.000000 51.808199 114.000000 202.000000 0.735142 0.434477 -0.520381
-0.46000001 -1.51999998 -0.79000002 74 163 137 97.000000 1.000000 4.000000 1.000000 51.808199 114.000000 202.000000 0.775767 0.601334 0.191264
-0.44000000 -1.50000000 -0.76999998 74 163 137 97.000000 1.000000 4.000000 1.000000 51.808199 114.000000 202.000000 0.708564 0.664573 -0.237235
-0.44000000 -1.50999999 -0.75999999 74 163 137 97.000000 1.000000 4.000000 1.000000 51.808199 114.000000 202.000000 0.723610 0.538154 -0.432179
-0.41999999 -1.53999996 -0.77999997 74 163 137 97.000000 1.000000 4.000000 1.000000 51.808199 114.000000 202.000000 0.516512 0.836899 0.181153
-0.46000001 -1.53999996 -0.77999997 74 163 137 97.000000 1.000000 4.000000 1.000000 51.808199 114.000000 202.000000 0.632034 0.772486 0.061627
-0.47999999 -1.47000003 -0.69000000 74 163 137 97.000000 1.000000 4.000000 1.000000 51.808199 114.000000 202.000000 0.808421 -0.163484 -0.565445
-0.47999999 -1.46000004 -0.83999997 74 163 137 97.000000 1.000000 4.000000 1.000000 51.808199 114.000000 202.000000 0.841625 -0.087163 -0.532982
-0.47000000 -1.44000006 -0.97000003 74 163 137 97.000000 1.000000 4.000000 1.000000 51.808199 114.000000 202.000000 0.939854 -0.326616 -0.099984
-0.47000000 -1.44000006 -0.97000003 74 163 137 97.000000 1.000000 4.000000 1.000000 51.808199 114.000000 202.000000 0.939854 -0.326616 -0.099984
-0.41000000 -1.54999995 -0.88999999 74 163 137 97.000000 1.000000 4.000000 1.000000 51.808199 114.000000 202.000000 0.086430 0.986245 -0.140892
-0.43000001 -1.54999995 -0.91000003 74 163 137 97.000000 1.000000 4.000000 1.000000 51.808199 114.000000 202.000000 0.140494 0.959821 0.242910
-0.41000000 -1.55999994 -0.91000003 74 163 137 97.000000 1.000000 4.000000 1.000000 51.808199 114.000000 202.000000 0.188388 0.981726 -0.026913
-0.41000000 -1.54999995 -0.89999998 74 163 137 97.000000 1.000000 4.000000 1.000000 51.808199 114.000000 202.000000 -0.014704 0.987454 -0.157223
-0.41000000 -1.54999995 -0.88999999 74 163 137 97.000000 1.000000 4.000000 1.000000 51.808199 114.000000 202.000000 0.086430 0.986245 -0.140892
-0.43000001 -1.58000004 -0.94000000 74 163 137 97.000000 1.000000 4.000000 1.000000 51.808199 114.000000 202.000000 0.253796 0.948682 -0.188651
-0.43000001 -1.58000004 -0.99000001 74 163 137 97.000000 1.000000 4.000000 1.000000 51.808199 114.000000 202.000000 0.475377 0.863920 -0.166308
-0.44000000 -1.58000004 -1.00000000 74 163 137 97.000000 1.000000 4.000000 1.000000 51.808199 114.000000 202.000000 0.067533 0.995276 0.069747
-0.51999998 -1.46000004 -0.88000000 74 163 137 97.000000 1.000000 4.000000 1.000000 51.808199 114.000000 202.000000 0.905867 0.259028 -0.335127
-0.50999999 -1.44000006 -0.92000002 74 163 137 97.000000 1.000000 4.000000 1.000000 51.808199 114.000000 202.000000 0.998195 -0.009368 -0.059330
-0.47999999 -1.44000006 -0.92000002 74 163 137 97.000000 1.000000 4.000000 1.000000 51.808199 114.000000 202.000000 0.979389 -0.183711 -0.083948
-0.47999999 -1.47000003 -0.94000000 74 163 137 97.000000 1.000000 4.000000 1.000000 51.808199 114.000000 202.000000 0.885078 -0.312114 -0.345286
-0.50000000 -1.47000003 -0.99000001 74 163 137 97.000000 1.000000 4.000000 1.000000 51.808199 114.000000 202.000000 0.956317 0.223364 -0.188588
-0.50000000 -1.46000004 -0.98000002 74 163 137 97.000000 1.000000 4.000000 1.000000 51.808199 114.000000 202.000000 0.854875 0.326182 -0.403476
-0.47999999 -1.44000006 -0.98000002 74 163 137 97.000000 1.000000 4.000000 1.000000 51.808199 114.000000 202.000000 0.864926 -0.431706 -0.255994
-0.52999997 -1.48000002 -1.00999999 74 163 137 97.000000 1.000000 4.000000 1.000000 51.808199 114.000000 202.000000 0.861772 -0.122698 -0.492235
-0.52999997 -1.48000002 -1.00999999 74 163 137 97.000000 1.000000 4.000000 1.000000 51.808199 114.000000 202.000000 0.861772 -0.122698 -0.492235
-0.47999999 -1.55999994 -0.86000001 74 163 137 97.000000 1.000000 4.000000 1.000000 51.808199 114.000000 202.000000 0.730751 0.667469 0.143137
-0.47999999 -1.57000005 -0.88000000 74 163 137 97.000000 1.000000 4.000000 1.000000 51.808199 114.000000 202.000000 0.583544 0.794646 0.167373
-0.47999999 -1.60000002 -0.94999999 74 163 137 97.000000 1.000000 4.000000 1.000000 51.808199 114.000000 202.000000 0.646502 0.719214 0.254491
-0.51999998 -1.57000005 -1.00999999 74 163 137 97.000000 1.000000 4.000000 1.000000 51.808199 114.000000 202.000000 0.862189 0.488332 0.134762
-0.54000002 -1.52999997 -0.98000002 74 163 137 97.000000 1.000000 4.000000 1.000000 51.808199 114.000000 202.000000 0.678665 0.652625 -0.336891
-0.44999999 -1.39999998 -1.02999997 74 163 137 97.000000 1.000000 4.000000 1.000000 51.808199 114.000000 202.000000 -0.127550 0.955968 0.264305
