//X Y Z R G B PointSourceId ScanDirectionFlag NumberOfReturns ReturnNumber GpsTime Intensity Classification Nx Ny Nz
-13.86999989 -2.04999995 0.09000000 95 62 177 0.000000 0.000000 0.000000 0.000000 51.808199 0.000000 245.000000 0.806862 0.183171 -0.561624
-13.86999989 -2.05999994 0.09000000 95 62 177 0.000000 0.000000 0.000000 0.000000 51.808199 0.000000 245.000000 0.767121 -0.155233 -0.622438
-13.89999962 -1.98000002 0.17000000 95 62 177 0.000000 0.000000 0.000000 0.000000 51.808199 0.000000 245.000000 -0.561161 0.513976 0.648789
-13.89999962 -1.98000002 0.17000000 95 62 177 0.000000 0.000000 0.000000 0.000000 51.808199 0.000000 245.000000 -0.561161 0.513976 0.648789
-13.88000011 -2.00000000 0.17000000 95 62 177 0.000000 0.000000 0.000000 0.000000 51.808199 0.000000 245.000000 0.787302 0.181217 -0.589335
-13.88000011 -2.02999997 0.15000001 95 62 177 0.000000 0.000000 0.000000 0.000000 51.808199 0.000000 245.000000 0.753475 -0.295951 -0.587102
-13.94999981 -1.98000002 0.17000000 95 62 177 0.000000 0.000000 0.000000 0.000000 51.808199 0.000000 245.000000 0.793522 -0.147945 -0.590284
-13.94999981 -1.97000003 0.18000001 95 62 177 0.000000 0.000000 0.000000 0.000000 51.808199 0.000000 245.000000 0.714829 -0.293963 -0.634511
-13.96000004 -2.02999997 0.15000001 95 62 177 0.000000 0.000000 0.000000 0.000000 51.808199 0.000000 245.000000 0.876759 0.056432 -0.477607
-13.93999958 -2.00000000 0.15000001 95 62 177 0.000000 0.000000 0.000000 0.000000 51.808199 0.000000 245.000000 -0.542128 0.552262 0.633328
-13.96000004 -2.00999999 0.16000000 95 62 177 0.000000 0.000000 0.000000 0.000000 51.808199 0.000000 245.000000 0.869825 0.039724 -0.491759
-13.93000031 -2.10999990 0.07000000 95 62 177 0.000000 0.000000 0.000000 0.000000 51.808199 0.000000 200.000000 -0.773732 0.451208 0.444692
-13.89000034 -2.07999992 0.09000000 95 62 177 0.000000 0.000000 0.000000 0.000000 51.808199 0.000000 245.000000 0.642977 -0.485171 -0.592613
-14.03999996 -1.83000004 0.23000000 95 62 177 0.000000 0.000000 0.000000 0.000000 51.808199 0.000000 200.000000 -0.712543 0.691717 0.117518
-13.98999977 -1.95000005 0.19000000 95 62 177 0.000000 0.000000 0.000000 0.000000 51.808199 0.000000 245.000000 0.965418 -0.152024 -0.211794
-14.05000019 -1.84000003 0.23000000 95 62 177 0.000000 0.000000 0.000000 0.000000 51.808199 0.000000 200.000000 -0.708545 0.549247 0.443048
-14.05000019 -1.84000003 0.22000000 95 62 177 0.000000 0.000000 0.000000 0.000000 51.808199 0.000000 200.000000 0.780233 -0.410393 -0.472033
-14.07999992 -1.88000000 0.25999999 95 62 177 0.000000 0.000000 0.000000 0.000000 51.808199 0.000000 200.000000 0.806202 -0.517038 -0.287593
-14.10000038 -1.88000000 0.23000000 95 62 177 0.000000 0.000000 0.000000 0.000000 51.808199 0.000000 200.000000 0.847394 -0.129807 -0.514854
-14.02000046 -1.79999995 0.18000001 95 62 177 0.000000 0.000000 0.000000 0.000000 51.808199 0.000000 200.000000 0.817069 -0.572659 -0.066786
-13.97000027 -1.97000003 0.15000001 95 62 177 0.000000 0.000000 0.000000 0.000000 51.808199 0.000000 245.000000 0.804034 -0.505891 -0.312416
-13.97000027 -1.98000002 0.16000000 95 62 177 0.000000 0.000000 0.000000 0.000000 51.808199 0.000000 245.000000 0.751041 -0.478234 -0.455226
-13.97000027 -1.99000001 0.16000000 95 62 177 0.000000 0.000000 0.000000 0.000000 51.808199 0.000000 245.000000 0.938461 -0.069759 -0.338267
-13.97000027 -1.98000002 0.14000000 95 62 177 0.000000 0.000000 0.000000 0.000000 51.808199 0.000000 245.000000 0.865518 -0.413678 -0.282400
-13.97000027 -2.00000000 0.18000001 95 62 177 0.000000 0.000000 0.000000 0.000000 51.808199 0.000000 245.000000 0.683808 -0.286655 -0.670996
-14.01000023 -1.98000002 0.13000000 95 62 177 0.000000 0.000000 0.000000 0.000000 51.808199 0.000000 245.000000 0.921061 -0.352956 -0.164525
-14.02000046 -2.00999999 0.14000000 95 62 177 0.000000 0.000000 0.000000 0.000000 51.808199 0.000000 245.000000 0.912489 -0.208364 -0.352063
-14.02000046 -2.02999997 0.14000000 95 62 177 0.000000 0.000000 0.000000 0.000000 51.808199 0.000000 245.000000 -0.562353 0.203795 0.801391
-13.98999977 -2.03999996 0.17000000 95 62 177 0.000000 0.000000 0.000000 0.000000 51.808199 0.000000 245.000000 0.618097 -0.424838 -0.661414
-13.80000019 -2.15000010 0.15000001 95 62 177 0.000000 0.000000 0.000000 0.000000 51.808199 0.000000 200.000000 -0.189009 -0.628494 0.754500
-13.80000019 -2.17000008 0.13000000 95 62 177 0.000000 0.000000 0.000000 0.000000 51.808199 0.000000 200.000000 0.197407 0.788097 -0.583039
-13.82999992 -2.17000008 0.13000000 95 62 177 0.000000 0.000000 0.000000 0.000000 51.808199 0.000000 200.000000 -0.272458 -0.683535 0.677161
-13.85000038 -2.16000009 0.13000000 95 62 177 0.000000 0.000000 0.000000 0.000000 51.808199 0.000000 200.000000 -0.549404 -0.166169 0.818867
-13.80000019 -2.16000009 0.08000000 95 62 177 0.000000 0.000000 0.000000 0.000000 51.808199 0.000000 200.000000 -0.469587 -0.333612 0.817429
-13.80000019 -2.19000006 0.07000000 95 62 177 0.000000 0.000000 0.000000 0.000000 51.808199 0.000000 200.000000 0.472263 0.532339 -0.702554
-13.82999992 -2.17000008 0.07000000 95 62 177 0.000000 0.000000 0.000000 0.000000 51.808199 0.000000 200.000000 -0.540813 -0.189360 0.819551
-13.81999969 -2.19000006 0.07000000 95 62 177 0.000000 0.000000 0.000000 0.000000 51.808199 0.000000 200.000000 -0.078370 -0.427597 0.900566
-13.80000019 -2.20000005 0.07000000 95 62 177 0.000000 0.000000 0.000000 0.000000 51.808199 0.000000 200.000000 -0.174740 -0.459609 0.870761
-13.85000038 -2.13000011 0.05000000 95 62 177 0.000000 0.000000 0.000000 0.000000 51.808199 0.000000 200.000000 0.781074 0.252010 -0.571327
-13.85000038 -2.16000009 0.03000000 95 62 177 0.000000 0.000000 0.000000 0.000000 51.808199 0.000000 200.000000 -0.370085 -0.213343 0.904169
-13.85000038 -2.20000005 0.06000000 95 62 177 0.000000 0.000000 0.000000 0.000000 51.808199 0.000000 200.000000 -0.307271 -0.200638 0.930231
-13.85999966 -2.19000006 0.05000000 95 62 177 0.000000 0.000000 0.000000 0.000000 51.808199 0.000000 200.000000 -0.402922 -0.470884 0.784807
-13.81999969 -2.23000002 0.13000000 95 62 177 0.000000 0.000000 0.000000 0.000000 51.808199 0.000000 200.000000 0.333262 0.681155 -0.651893
-13.81999969 -2.21000004 0.14000000 95 62 177 0.000000 0.000000 0.000000 0.000000 51.808199 0.000000 200.000000 -0.339872 -0.194822 0.920071
-13.78999996 -2.25999999 0.16000000 95 62 177 0.000000 0.000000 0.000000 0.000000 51.808199 0.000000 200.000000 0.304939 0.701844 -0.643760
-13.81999969 -2.25999999 0.12000000 95 62 177 0.000000 0.000000 0.000000 0.000000 51.808199 0.000000 200.000000 -0.297487 -0.430046 0.852386
-13.85999966 -2.24000001 0.12000000 95 62 177 0.000000 0.000000 0.000000 0.000000 51.808199 0.000000 200.000000 0.454509 0.707568 -0.541082
-13.84000015 -2.25999999 0.12000000 95 62 177 0.000000 0.000000 0.000000 0.000000 51.808199 0.000000 200.000000 -0.375795 -0.369558 0.849827
-13.84000015 -2.25999999 0.12000000 95 62 177 0.000000 0.000000 0.000000 0.000000 51.808199 0.000000 200.000000 -0.375795 -0.369558 0.849827
-13.80000019 -2.24000001 0.08000000 95 62 177 0.000000 0.000000 0.000000 0.000000 51.808199 0.000000 200.000000 -0.070078 0.808045 -0.584938
-13.82999992 -2.22000003 0.05000000 95 62 177 0.000000 0.000000 0.000000 0.000000 51.808199 0.000000 200.000000 -0.051092 -0.360265 0.931450
-13.82999992 -2.26999998 0.06000000 95 62 177 0.000000 0.000000 0.000000 0.000000 51.808199 0.000000 200.000000 -0.373334 -0.382706 0.845078
-13.78999996 -2.27999997 0.08000000 95 62 177 0.000000 0.000000 0.000000 0.000000 51.808199 0.000000 200.000000 -0.117764 0.886780 -0.446937
-13.82999992 -2.27999997 0.05000000 95 62 177 0.000000 0.000000 0.000000 0.000000 51.808199 0.000000 200.000000 -0.206930 -0.556412 0.804727
-13.82999992 -2.28999996 0.05000000 95 62 177 0.000000 0.000000 0.000000 0.000000 51.808199 0.000000 200.000000 0.164284 0.946331 -0.278333
-13.86999989 -2.22000003 0.07000000 95 62 177 0.000000 0.000000 0.000000 0.000000 51.808199 0.000000 200.000000 -0.505944 -0.566455 0.650499
-13.84000015 -2.24000001 0.05000000 95 62 177 0.000000 0.000000 0.000000 0.000000 51.808199 0.000000 200.000000 -0.453930 -0.547044 0.703342
-13.84000015 -2.24000001 0.05000000 95 62 177 0.000000 0.000000 0.000000 0.000000 51.808199 0.000000 200.000000 -0.453930 -0.547044 0.703342
-13.89999962 -2.20000005 0.13000000 95 62 177 0.000000 0.000000 0.000000 0.000000 51.808199 0.000000 200.000000 -0.366165 -0.137834 0.920285
-13.89000034 -2.15000010 0.07000000 95 62 177 0.000000 0.000000 0.000000 0.000000 51.808199 0.000000 200.000000 0.776331 0.139111 -0.614783
-13.88000011 -2.16000009 0.08000000 95 62 177 0.000000 0.000000 0.000000 0.000000 51.808199 0.000000 200.000000 -0.573074 -0.194081 0.796190
-13.89999962 -2.14000010 0.07000000 95 62 177 0.000000 0.000000 0.000000 0.000000 51.808199 0.000000 200.000000 -0.432802 -0.329680 0.839043
-13.90999985 -2.13000011 0.04000000 95 62 177 0.000000 0.000000 0.000000 0.000000 51.808199 0.000000 200.000000 -0.521507 -0.139558 0.841756
-13.90999985 -2.14000010 0.05000000 95 62 177 0.000000 0.000000 0.000000 0.000000 51.808199 0.000000 200.000000 0.839322 -0.146033 -0.523654
-13.88000011 -2.17000008 0.07000000 95 62 177 0.000000 0.000000 0.000000 0.000000 51.808199 0.000000 200.000000 -0.527042 -0.063245 0.847483
-13.93999958 -2.13000011 0.07000000 95 62 177 0.000000 0.000000 0.000000 0.000000 51.808199 0.000000 200.000000 0.608534 0.384250 -0.694290
-13.96000004 -2.20000005 0.08000000 95 62 177 0.000000 0.000000 0.000000 0.000000 51.808199 0.000000 200.000000 0.665841 0.435550 -0.605765
-13.93999958 -2.19000006 0.03000000 95 62 177 0.000000 0.000000 0.000000 0.000000 51.808199 0.000000 200.000000 -0.302343 -0.090310 0.948911
-13.96000004 -2.17000008 0.04000000 95 62 177 0.000000 0.000000 0.000000 0.000000 51.808199 0.000000 200.000000 -0.649807 0.254547 0.716210
-13.93000031 -2.20000005 0.03000000 95 62 177 0.000000 0.000000 0.000000 0.000000 51.808199 0.000000 200.000000 -0.262708 -0.333154 0.905535
-13.94999981 -2.20000005 0.02000000 95 62 177 0.000000 0.000000 0.000000 0.000000 51.808199 0.000000 200.000000 0.876276 0.031150 -0.480801
-13.89000034 -2.24000001 0.10000000 95 62 177 0.000000 0.000000 0.000000 0.000000 51.808199 0.000000 200.000000 -0.233743 -0.316916 0.919200
-13.88000011 -2.24000001 0.14000000 95 62 177 0.000000 0.000000 0.000000 0.000000 51.808199 0.000000 200.000000 0.353902 0.715958 -0.601796
-13.89000034 -2.24000001 0.10000000 95 62 177 0.000000 0.000000 0.000000 0.000000 51.808199 0.000000 200.000000 -0.233743 -0.316916 0.919200
-13.94999981 -2.23000002 0.11000000 95 62 177 0.000000 0.000000 0.000000 0.000000 51.808199 0.000000 200.000000 -0.460039 -0.061796 0.885746
-13.88000011 -2.27999997 0.10000000 95 62 177 0.000000 0.000000 0.000000 0.000000 51.808199 0.000000 200.000000 -0.156261 -0.289423 0.944361
-13.88000011 -2.23000002 0.06000000 95 62 177 0.000000 0.000000 0.000000 0.000000 51.808199 0.000000 200.000000 -0.577379 -0.270498 0.770366
-13.88000011 -2.23000002 0.04000000 95 62 177 0.000000 0.000000 0.000000 0.000000 51.808199 0.000000 200.000000 -0.220493 -0.494209 0.840916
-13.88000011 -2.23000002 0.05000000 95 62 177 0.000000 0.000000 0.000000 0.000000 51.808199 0.000000 200.000000 -0.538270 -0.159543 0.827534
-13.88000011 -2.25000000 0.04000000 95 62 177 0.000000 0.000000 0.000000 0.000000 51.808199 0.000000 200.000000 -0.132284 -0.331393 0.934173
-13.88000011 -2.23000002 0.05000000 95 62 177 0.000000 0.000000 0.000000 0.000000 51.808199 0.000000 200.000000 -0.538270 -0.159543 0.827534
-13.93999958 -2.25000000 0.02000000 95 62 177 0.000000 0.000000 0.000000 0.000000 51.808199 0.000000 200.000000 0.723452 0.172833 -0.668390
-13.93999958 -2.24000001 0.02000000 95 62 177 0.000000 0.000000 0.000000 0.000000 51.808199 0.000000 200.000000 -0.227291 -0.197703 0.953547
-13.94999981 -2.24000001 0.02000000 95 62 177 0.000000 0.000000 0.000000 0.000000 51.808199 0.000000 200.000000 -0.274831 -0.611618 0.741884
-13.92000008 -2.23000002 0.02000000 95 62 177 0.000000 0.000000 0.000000 0.000000 51.808199 0.000000 200.000000 0.655351 0.540791 -0.527314
-13.92000008 -2.27999997 0.09000000 95 62 177 0.000000 0.000000 0.000000 0.000000 51.808199 0.000000 200.000000 0.686172 0.469135 -0.555950
-13.92000008 -2.25999999 0.05000000 95 62 177 0.000000 0.000000 0.000000 0.000000 51.808199 0.000000 200.000000 0.661536 0.473961 -0.581147
-13.78999996 -2.34999990 0.11000000 95 62 177 0.000000 0.000000 0.000000 0.000000 51.808199 0.000000 200.000000 -0.312125 -0.642039 0.700260
-13.78999996 -2.35999990 0.10000000 95 62 177 0.000000 0.000000 0.000000 0.000000 51.808199 0.000000 200.000000 0.311529 0.647270 -0.695694
-13.82999992 -2.34999990 0.07000000 95 62 177 0.000000 0.000000 0.000000 0.000000 51.808199 0.000000 200.000000 -0.020740 0.808861 -0.587634
-13.80000019 -2.34999990 0.04000000 95 62 177 0.000000 0.000000 0.000000 0.000000 51.808199 0.000000 200.000000 -0.397353 0.704024 -0.588610
-13.86999989 -2.29999995 0.06000000 95 62 177 0.000000 0.000000 0.000000 0.000000 51.808199 0.000000 200.000000 0.017608 0.862809 -0.505224
-13.81000042 -2.39000010 0.07000000 95 62 177 0.000000 0.000000 0.000000 0.000000 51.808199 0.000000 200.000000 0.372645 0.714099 -0.592620
-13.82999992 -2.39000010 0.03000000 95 62 177 0.000000 0.000000 0.000000 0.000000 51.808199 0.000000 200.000000 0.175695 -0.658474 0.731808
-13.80000019 -2.45000005 0.06000000 95 62 177 0.000000 0.000000 0.000000 0.000000 51.808199 0.000000 200.000000 -0.346665 0.769112 -0.536927
-13.81000042 -2.44000006 0.06000000 95 62 177 0.000000 0.000000 0.000000 0.000000 51.808199 0.000000 200.000000 0.329203 0.806308 -0.491419
-13.85999966 -2.40000010 0.07000000 95 62 177 0.000000 0.000000 0.000000 0.000000 51.808199 0.000000 200.000000 0.055850 -0.703133 0.708861
-13.90999985 -2.35999990 0.05000000 95 62 177 0.000000 0.000000 0.000000 0.000000 51.808199 0.000000 200.000000 -0.201991 -0.605972 0.769414
-13.89000034 -2.36999989 0.04000000 95 62 177 0.000000 0.000000 0.000000 0.000000 51.808199 0.000000 200.000000 -0.060803 0.906635 -0.417512
-13.93000031 -2.32999992 0.02000000 95 62 177 0.000000 0.000000 0.000000 0.000000 51.808199 0.000000 200.000000 -0.216679 -0.370826 0.903071
-13.93999958 -2.29999995 0.04000000 95 62 177 0.000000 0.000000 0.000000 0.000000 51.808199 0.000000 200.000000 -0.161668 -0.450048 0.878249
-13.89999962 -2.40000010 0.07000000 95 62 177 0.000000 0.000000 0.000000 0.000000 51.808199 0.000000 200.000000 -0.244283 0.698176 -0.672960
-13.88000011 -2.39000010 0.07000000 95 62 177 0.000000 0.000000 0.000000 0.000000 51.808199 0.000000 200.000000 -0.099373 -0.542949 0.833866
-13.89999962 -2.40000010 0.07000000 95 62 177 0.000000 0.000000 0.000000 0.000000 51.808199 0.000000 200.000000 -0.244283 0.698176 -0.672960
-13.90999985 -2.42000008 0.02000000 95 62 177 0.000000 0.000000 0.000000 0.000000 51.808199 0.000000 200.000000 0.407689 0.781269 -0.472660
-13.92000008 -2.44000006 0.06000000 95 62 177 0.000000 0.000000 0.000000 0.000000 51.808199 0.000000 200.000000 -0.141588 0.791404 -0.594671
-13.92000008 -2.45000005 0.03000000 95 62 177 0.000000 0.000000 0.000000 0.000000 51.808199 0.000000 200.000000 -0.185915 0.714466 -0.674517
-13.92000008 -2.44000006 0.04000000 95 62 177 0.000000 0.000000 0.000000 0.000000 51.808199 0.000000 200.000000 -0.244929 0.784709 -0.569421
-14.03999996 -2.18000007 0.13000000 95 62 177 0.000000 0.000000 0.000000 0.000000 51.808199 0.000000 179.000000 -0.440579 0.129750 0.888288
-13.97000027 -2.18000007 0.11000000 95 62 177 0.000000 0.000000 0.000000 0.000000 51.808199 0.000000 200.000000 0.799744 0.073226 -0.595859
-13.98999977 -2.16000009 0.02000000 95 62 177 0.000000 0.000000 0.000000 0.000000 51.808199 0.000000 200.000000 -0.550533 -0.015027 0.834678
-13.97000027 -2.13000011 0.05000000 95 62 177 0.000000 0.000000 0.000000 0.000000 51.808199 0.000000 200.000000 -0.576969 -0.017901 0.816570
-13.97999954 -2.13000011 0.05000000 95 62 177 0.000000 0.000000 0.000000 0.000000 51.808199 0.000000 200.000000 0.706137 0.140023 -0.694092
-13.98999977 -2.14000010 0.04000000 95 62 177 0.000000 0.000000 0.000000 0.000000 51.808199 0.000000 200.000000 0.728106 0.070929 -0.681785
-13.98999977 -2.16000009 0.03000000 95 62 177 0.000000 0.000000 0.000000 0.000000 51.808199 0.000000 200.000000 -0.433025 0.003925 0.901373
-14.07999992 -2.15000010 0.10000000 95 62 177 0.000000 0.000000 0.000000 0.000000 51.808199 0.000000 179.000000 0.941493 -0.053097 -0.332825
-14.05000019 -2.18000007 0.14000000 95 62 177 0.000000 0.000000 0.000000 0.000000 51.808199 0.000000 179.000000 -0.445852 0.213234 0.869337
-14.07999992 -2.17000008 0.12000000 95 62 177 0.000000 0.000000 0.000000 0.000000 51.808199 0.000000 179.000000 0.947359 0.047432 -0.316641
-14.10999966 -2.15000010 0.15000001 95 62 177 0.000000 0.000000 0.000000 0.000000 51.808199 0.000000 179.000000 -0.614777 0.091563 0.783368
-14.11999989 -2.20000005 0.16000000 95 62 177 0.000000 0.000000 0.000000 0.000000 51.808199 0.000000 179.000000 -0.610068 0.138720 0.780111
-14.11999989 -2.19000006 0.12000000 95 62 177 0.000000 0.000000 0.000000 0.000000 51.808199 0.000000 179.000000 0.824111 0.295554 -0.483207
-14.11999989 -2.19000006 0.12000000 95 62 177 0.000000 0.000000 0.000000 0.000000 51.808199 0.000000 179.000000 0.824111 0.295554 -0.483207
-14.09000015 -2.16000009 0.08000000 95 62 177 0.000000 0.000000 0.000000 0.000000 51.808199 0.000000 179.000000 -0.548395 0.344567 0.761929
-14.10000038 -2.17000008 0.08000000 95 62 177 0.000000 0.000000 0.000000 0.000000 51.808199 0.000000 179.000000 -0.492992 0.077249 0.866598
-14.11999989 -2.18000007 0.08000000 95 62 177 0.000000 0.000000 0.000000 0.000000 51.808199 0.000000 179.000000 0.856000 -0.110776 -0.504968
-14.13000011 -2.20000005 0.06000000 95 62 177 0.000000 0.000000 0.000000 0.000000 51.808199 0.000000 179.000000 -0.596630 0.116380 0.794033
-14.06000042 -2.21000004 0.16000000 95 62 177 0.000000 0.000000 0.000000 0.000000 51.808199 0.000000 179.000000 -0.525781 -0.260550 0.809733
-14.05000019 -2.24000001 0.15000001 95 62 177 0.000000 0.000000 0.000000 0.000000 51.808199 0.000000 179.000000 -0.521683 -0.130055 0.843168
-14.07999992 -2.22000003 0.15000001 95 62 177 0.000000 0.000000 0.000000 0.000000 51.808199 0.000000 179.000000 -0.384812 0.048928 0.921697
-14.05000019 -2.23000002 0.16000000 95 62 177 0.000000 0.000000 0.000000 0.000000 51.808199 0.000000 179.000000 -0.275533 -0.238795 0.931160
-14.10000038 -2.23000002 0.15000001 95 62 177 0.000000 0.000000 0.000000 0.000000 51.808199 0.000000 179.000000 0.882064 0.073621 -0.465341
-14.11999989 -2.24000001 0.18000001 95 62 177 0.000000 0.000000 0.000000 0.000000 51.808199 0.000000 179.000000 0.713280 0.216950 -0.666457
-14.09000015 -2.21000004 0.08000000 95 62 177 0.000000 0.000000 0.000000 0.000000 51.808199 0.000000 179.000000 -0.653916 0.038133 0.755605
-14.07999992 -2.22000003 0.09000000 95 62 177 0.000000 0.000000 0.000000 0.000000 51.808199 0.000000 179.000000 -0.619148 -0.155164 0.769792
-14.13000011 -2.25000000 0.08000000 95 62 177 0.000000 0.000000 0.000000 0.000000 51.808199 0.000000 179.000000 -0.466325 -0.140042 0.873458
-14.00000000 -2.36999989 0.02000000 95 62 177 0.000000 0.000000 0.000000 0.000000 51.808199 0.000000 200.000000 0.403563 0.756476 -0.514665
-13.97999954 -2.38000011 0.03000000 95 62 177 0.000000 0.000000 0.000000 0.000000 51.808199 0.000000 200.000000 0.356478 0.800877 -0.481165
-13.98999977 -2.38000011 0.02000000 95 62 177 0.000000 0.000000 0.000000 0.000000 51.808199 0.000000 200.000000 0.392301 0.821133 -0.414537
-13.97999954 -2.36999989 0.04000000 95 62 177 0.000000 0.000000 0.000000 0.000000 51.808199 0.000000 200.000000 0.651246 0.308655 -0.693261
-13.98999977 -2.34999990 0.03000000 95 62 177 0.000000 0.000000 0.000000 0.000000 51.808199 0.000000 200.000000 -0.404719 -0.370074 0.836210
-13.97000027 -2.41000009 0.04000000 95 62 177 0.000000 0.000000 0.000000 0.000000 51.808199 0.000000 200.000000 0.058796 -0.684045 0.727066
-13.93999958 -2.17000008 0.01000000 95 62 177 0.000000 0.000000 0.000000 0.000000 51.808199 0.000000 200.000000 0.680357 -0.153042 -0.716723
-13.96000004 -2.25000000 -0.01000000 95 62 177 0.000000 0.000000 0.000000 0.000000 51.808199 0.000000 200.000000 -0.581303 -0.141237 0.801336
-13.92000008 -2.23000002 0.01000000 95 62 177 0.000000 0.000000 0.000000 0.000000 51.808199 0.000000 200.000000 -0.413384 -0.491812 0.766312
-13.94999981 -2.21000004 0.01000000 95 62 177 0.000000 0.000000 0.000000 0.000000 51.808199 0.000000 200.000000 -0.498298 -0.144667 0.854851
-13.94999981 -2.23000002 -0.02000000 95 62 177 0.000000 0.000000 0.000000 0.000000 51.808199 0.000000 200.000000 -0.551072 -0.069415 0.831566
-13.92000008 -2.25999999 -0.01000000 95 62 177 0.000000 0.000000 0.000000 0.000000 51.808199 0.000000 200.000000 0.151314 0.789528 -0.594768
-13.96000004 -2.25999999 -0.01000000 95 62 177 0.000000 0.000000 0.000000 0.000000 51.808199 0.000000 200.000000 -0.458509 -0.231524 0.858001
-13.86999989 -2.40000010 0.01000000 95 62 177 0.000000 0.000000 0.000000 0.000000 51.808199 0.000000 200.000000 -0.212135 0.876724 -0.431687
-13.94999981 -2.30999994 0.01000000 95 62 177 0.000000 0.000000 0.000000 0.000000 51.808199 0.000000 200.000000 -0.510707 -0.221052 0.830852
-13.94999981 -2.30999994 0.01000000 95 62 177 0.000000 0.000000 0.000000 0.000000 51.808199 0.000000 200.000000 -0.510707 -0.221052 0.830852
-13.96000004 -2.29999995 0.01000000 95 62 177 0.000000 0.000000 0.000000 0.000000 51.808199 0.000000 200.000000 -0.150384 -0.419644 0.895144
-13.94999981 -2.32999992 -0.01000000 95 62 177 0.000000 0.000000 0.000000 0.000000 51.808199 0.000000 200.000000 -0.322894 -0.510586 0.796895
-13.98999977 -2.25000000 -0.02000000 95 62 177 0.000000 0.000000 0.000000 0.000000 51.808199 0.000000 200.000000 -0.405094 -0.216541 0.888261
-13.98999977 -2.25000000 -0.01000000 95 62 177 0.000000 0.000000 0.000000 0.000000 51.808199 0.000000 200.000000 -0.560046 -0.261982 0.785947
-13.98999977 -2.23000002 -0.01000000 95 62 177 0.000000 0.000000 0.000000 0.000000 51.808199 0.000000 200.000000 -0.390567 -0.313985 0.865373
-13.98999977 -2.24000001 0.00000000 95 62 177 0.000000 0.000000 0.000000 0.000000 51.808199 0.000000 200.000000 0.669536 0.565498 -0.481596
-13.97999954 -2.25999999 -0.02000000 95 62 177 0.000000 0.000000 0.000000 0.000000 51.808199 0.000000 200.000000 -0.443953 -0.411666 0.795887
-14.00000000 -2.26999998 -0.02000000 95 62 177 0.000000 0.000000 0.000000 0.000000 51.808199 0.000000 200.000000 -0.546316 -0.286618 0.787012
-13.97999954 -2.25999999 -0.01000000 95 62 177 0.000000 0.000000 0.000000 0.000000 51.808199 0.000000 200.000000 -0.630345 -0.178572 0.755498
-14.02000046 -2.25999999 -0.02000000 95 62 177 0.000000 0.000000 0.000000 0.000000 51.808199 0.000000 200.000000 -0.631728 -0.168968 0.756551
-14.01000023 -2.26999998 -0.02000000 95 62 177 0.000000 0.000000 0.000000 0.000000 51.808199 0.000000 200.000000 -0.476429 -0.506310 0.718794
-14.03999996 -2.27999997 -0.07000000 95 62 177 0.000000 0.000000 0.000000 0.000000 51.808199 0.000000 200.000000 0.814180 0.034913 -0.579562
-14.03999996 -2.26999998 -0.07000000 95 62 177 0.000000 0.000000 0.000000 0.000000 51.808199 0.000000 200.000000 -0.403362 -0.165077 0.900027
-14.02999973 -2.25999999 -0.03000000 95 62 177 0.000000 0.000000 0.000000 0.000000 51.808199 0.000000 200.000000 0.751187 0.253545 -0.609453
-14.03999996 -2.27999997 -0.06000000 95 62 177 0.000000 0.000000 0.000000 0.000000 51.808199 0.000000 200.000000 0.882240 0.127260 -0.453274
-14.02999973 -2.26999998 -0.07000000 95 62 177 0.000000 0.000000 0.000000 0.000000 51.808199 0.000000 200.000000 -0.487148 0.138146 0.862324
-14.03999996 -2.25999999 -0.05000000 95 62 177 0.000000 0.000000 0.000000 0.000000 51.808199 0.000000 200.000000 -0.651660 0.101500 0.751689
-14.03999996 -2.27999997 -0.05000000 95 62 177 0.000000 0.000000 0.000000 0.000000 51.808199 0.000000 200.000000 0.806037 -0.006866 -0.591826
-14.11999989 -2.28999996 -0.10000000 95 62 177 0.000000 0.000000 0.000000 0.000000 51.808199 0.000000 200.000000 0.760577 0.343955 -0.550651
-13.97999954 -2.31999993 -0.06000000 95 62 177 0.000000 0.000000 0.000000 0.000000 51.808199 0.000000 200.000000 -0.531052 -0.415964 0.738212
-13.97999954 -2.30999994 -0.03000000 95 62 177 0.000000 0.000000 0.000000 0.000000 51.808199 0.000000 200.000000 0.694314 0.189358 -0.694314
-14.02999973 -2.29999995 -0.05000000 95 62 177 0.000000 0.000000 0.000000 0.000000 51.808199 0.000000 200.000000 -0.522014 -0.012203 0.852849
-14.03999996 -2.32999992 -0.03000000 95 62 177 0.000000 0.000000 0.000000 0.000000 51.808199 0.000000 200.000000 0.589026 0.379011 -0.713722
-14.06000042 -2.32999992 -0.02000000 95 62 177 0.000000 0.000000 0.000000 0.000000 51.808199 0.000000 200.000000 -0.458337 -0.435501 0.774768
-14.05000019 -2.32999992 -0.04000000 95 62 177 0.000000 0.000000 0.000000 0.000000 51.808199 0.000000 200.000000 -0.605905 0.006870 0.795508
-14.05000019 -2.35999990 -0.04000000 95 62 177 0.000000 0.000000 0.000000 0.000000 51.808199 0.000000 200.000000 -0.123466 -0.739306 0.661954
-14.06000042 -2.35999990 -0.05000000 95 62 177 0.000000 0.000000 0.000000 0.000000 51.808199 0.000000 200.000000 -0.151492 -0.589469 0.793458
-14.13000011 -2.33999991 -0.07000000 95 62 177 0.000000 0.000000 0.000000 0.000000 51.808199 0.000000 200.000000 -0.442537 -0.528724 0.724302
-14.10000038 -2.33999991 -0.07000000 95 62 177 0.000000 0.000000 0.000000 0.000000 51.808199 0.000000 200.000000 0.764161 0.222556 -0.605415
-14.10999966 -2.35999990 -0.07000000 95 62 177 0.000000 0.000000 0.000000 0.000000 51.808199 0.000000 200.000000 -0.440159 -0.067189 0.895402
-14.10999966 -2.31999993 -0.09000000 95 62 177 0.000000 0.000000 0.000000 0.000000 51.808199 0.000000 200.000000 -0.588716 0.009606 0.808283
-14.10999966 -2.30999994 -0.09000000 95 62 177 0.000000 0.000000 0.000000 0.000000 51.808199 0.000000 200.000000 -0.471977 0.073790 0.878517
-14.11999989 -2.31999993 -0.09000000 95 62 177 0.000000 0.000000 0.000000 0.000000 51.808199 0.000000 200.000000 -0.511672 -0.104628 0.852787
-13.89999962 -2.47000003 0.02000000 95 62 177 0.000000 0.000000 0.000000 0.000000 51.808199 0.000000 200.000000 -0.191892 0.948572 -0.251773
-13.90999985 -2.49000001 -0.05000000 95 62 177 0.000000 0.000000 0.000000 0.000000 51.808199 0.000000 200.000000 -0.161451 0.967417 -0.195033
-13.94999981 -2.48000002 -0.05000000 95 62 177 0.000000 0.000000 0.000000 0.000000 51.808199 0.000000 200.000000 0.227832 0.785788 -0.575005
-13.93000031 -2.50999999 -0.06000000 95 62 177 0.000000 0.000000 0.000000 0.000000 51.808199 0.000000 200.000000 0.236824 -0.638327 0.732429
-13.94999981 -2.56999993 -0.05000000 95 62 177 0.000000 0.000000 0.000000 0.000000 51.808199 0.000000 200.000000 0.260316 0.901546 -0.345617
-13.90999985 -2.57999992 -0.05000000 95 62 177 0.000000 0.000000 0.000000 0.000000 51.808199 0.000000 200.000000 -0.241235 0.963651 -0.114813
-13.90999985 -2.56999993 -0.04000000 95 62 177 0.000000 0.000000 0.000000 0.000000 51.808199 0.000000 200.000000 0.100932 0.776738 -0.621683
-13.97999954 -2.50999999 -0.04000000 95 62 177 0.000000 0.000000 0.000000 0.000000 51.808199 0.000000 200.000000 0.247553 0.739506 -0.625978
-14.31999969 -2.08999991 0.05000000 95 62 177 0.000000 0.000000 0.000000 0.000000 51.808199 0.000000 200.000000 -0.589081 0.122541 0.798729
-14.15999985 -2.16000009 0.14000000 95 62 177 0.000000 0.000000 0.000000 0.000000 51.808199 0.000000 179.000000 0.763304 0.168443 -0.623694
-14.17000008 -2.15000010 0.07000000 95 62 177 0.000000 0.000000 0.000000 0.000000 51.808199 0.000000 179.000000 0.846533 -0.066201 -0.528203
-14.17000008 -2.18000007 0.09000000 95 62 177 0.000000 0.000000 0.000000 0.000000 51.808199 0.000000 179.000000 0.893268 0.028124 -0.448643
-14.15999985 -2.20000005 0.04000000 95 62 177 0.000000 0.000000 0.000000 0.000000 51.808199 0.000000 179.000000 -0.557607 0.069524 0.827188
-14.14999962 -2.18000007 0.05000000 95 62 177 0.000000 0.000000 0.000000 0.000000 51.808199 0.000000 179.000000 -0.462396 -0.050468 0.885236
-14.18999958 -2.19000006 0.04000000 95 62 177 0.000000 0.000000 0.000000 0.000000 51.808199 0.000000 179.000000 -0.547575 -0.121197 0.827933
-14.18999958 -2.19000006 0.05000000 95 62 177 0.000000 0.000000 0.000000 0.000000 51.808199 0.000000 179.000000 0.709155 -0.389953 -0.587398
-14.14999962 -2.21000004 0.15000001 95 62 177 0.000000 0.000000 0.000000 0.000000 51.808199 0.000000 179.000000 -0.498743 -0.388272 0.774920
-14.17000008 -2.21000004 0.04000000 95 62 177 0.000000 0.000000 0.000000 0.000000 51.808199 0.000000 179.000000 -0.484714 0.009347 0.874622
-14.15999985 -2.21000004 0.06000000 95 62 177 0.000000 0.000000 0.000000 0.000000 51.808199 0.000000 179.000000 -0.505039 0.057043 0.861210
-14.14999962 -2.22000003 0.08000000 95 62 177 0.000000 0.000000 0.000000 0.000000 51.808199 0.000000 179.000000 -0.615432 0.097943 0.782081
-14.27000046 -2.15000010 0.05000000 95 62 177 0.000000 0.000000 0.000000 0.000000 51.808199 0.000000 200.000000 0.864718 0.194971 -0.462870
-14.22999954 -2.19000006 0.00000000 95 62 177 0.000000 0.000000 0.000000 0.000000 51.808199 0.000000 200.000000 -0.642757 0.182549 0.744002
-14.28999996 -2.14000010 0.01000000 95 62 177 0.000000 0.000000 0.000000 0.000000 51.808199 0.000000 200.000000 0.843519 -0.089918 -0.529519
-14.28999996 -2.14000010 0.01000000 95 62 177 0.000000 0.000000 0.000000 0.000000 51.808199 0.000000 200.000000 0.843519 -0.089918 -0.529519
-14.23999977 -2.25000000 -0.07000000 95 62 177 0.000000 0.000000 0.000000 0.000000 51.808199 0.000000 200.000000 0.860291 0.198299 -0.469656
-14.25000000 -2.25999999 -0.07000000 95 62 177 0.000000 0.000000 0.000000 0.000000 51.808199 0.000000 200.000000 0.863588 0.266540 -0.427986
-14.28999996 -2.21000004 -0.02000000 95 62 177 0.000000 0.000000 0.000000 0.000000 51.808199 0.000000 200.000000 0.950651 -0.052459 -0.305795
-14.27999973 -2.26999998 -0.04000000 95 62 177 0.000000 0.000000 0.000000 0.000000 51.808199 0.000000 200.000000 0.756982 0.348503 -0.552742
-14.25000000 -2.25999999 -0.18000001 95 62 177 0.000000 0.000000 0.000000 0.000000 51.808199 0.000000 200.000000 -0.611800 0.158615 0.774947
-14.25000000 -2.26999998 -0.19000000 95 62 177 0.000000 0.000000 0.000000 0.000000 51.808199 0.000000 200.000000 0.816754 -0.350490 -0.458334
-14.26000023 -2.27999997 -0.19000000 95 62 177 0.000000 0.000000 0.000000 0.000000 51.808199 0.000000 200.000000 0.906159 0.160747 -0.391199
-14.27000046 -2.25000000 -0.20000000 95 62 177 0.000000 0.000000 0.000000 0.000000 51.808199 0.000000 200.000000 0.931504 -0.001267 -0.363730
-14.27000046 -2.26999998 -0.23000000 95 62 177 0.000000 0.000000 0.000000 0.000000 51.808199 0.000000 200.000000 0.934140 -0.056337 -0.352432
-14.15999985 -2.29999995 -0.11000000 95 62 177 0.000000 0.000000 0.000000 0.000000 51.808199 0.000000 200.000000 0.751628 0.162473 -0.639263
-14.14000034 -2.31999993 -0.10000000 95 62 177 0.000000 0.000000 0.000000 0.000000 51.808199 0.000000 200.000000 -0.660119 0.196335 0.725049
-14.14000034 -2.35999990 -0.11000000 95 62 177 0.000000 0.000000 0.000000 0.000000 51.808199 0.000000 200.000000 0.639485 0.561870 -0.524749
-14.14999962 -2.34999990 -0.12000000 95 62 177 0.000000 0.000000 0.000000 0.000000 51.808199 0.000000 200.000000 -0.344629 -0.329447 0.879031
-14.18000031 -2.30999994 -0.15000001 95 62 177 0.000000 0.000000 0.000000 0.000000 51.808199 0.000000 200.000000 -0.572726 0.252627 0.779849
-14.21000004 -2.29999995 -0.23999999 95 62 177 0.000000 0.000000 0.000000 0.000000 51.808199 0.000000 200.000000 0.862308 0.068482 -0.501732
-14.19999981 -2.41000009 -0.23999999 95 62 177 0.000000 0.000000 0.000000 0.000000 51.808199 0.000000 200.000000 0.721439 0.469350 -0.509153
-14.21000004 -2.39000010 -0.23999999 95 62 177 0.000000 0.000000 0.000000 0.000000 51.808199 0.000000 200.000000 -0.434362 -0.421444 0.796062
-14.21000004 -2.45000005 -0.31999999 95 62 177 0.000000 0.000000 0.000000 0.000000 51.808199 0.000000 200.000000 0.687031 0.559988 -0.463035
-14.19999981 -2.39000010 -0.25000000 95 62 177 0.000000 0.000000 0.000000 0.000000 51.808199 0.000000 200.000000 0.847210 0.235759 -0.476080
-14.25000000 -2.31999993 -0.20000000 95 62 177 0.000000 0.000000 0.000000 0.000000 51.808199 0.000000 200.000000 0.671481 0.067870 -0.737907
-14.25000000 -2.30999994 -0.23000000 95 62 177 0.000000 0.000000 0.000000 0.000000 51.808199 0.000000 200.000000 0.776410 -0.135611 -0.615465
-14.26000023 -2.29999995 -0.23999999 95 62 177 0.000000 0.000000 0.000000 0.000000 51.808199 0.000000 200.000000 -0.534680 0.282323 0.796499
-14.25000000 -2.32999992 -0.27000001 95 62 177 0.000000 0.000000 0.000000 0.000000 51.808199 0.000000 200.000000 0.724317 -0.472381 -0.502216
-14.25000000 -2.32999992 -0.27000001 95 62 177 0.000000 0.000000 0.000000 0.000000 51.808199 0.000000 200.000000 0.724317 -0.472381 -0.502216
-14.25000000 -2.38000011 -0.28000000 95 62 177 0.000000 0.000000 0.000000 0.000000 51.808199 0.000000 200.000000 0.835404 0.287802 -0.468262
-14.25000000 -2.38000011 -0.28000000 95 62 177 0.000000 0.000000 0.000000 0.000000 51.808199 0.000000 200.000000 0.835404 0.287802 -0.468262
-14.23999977 -2.38000011 -0.25999999 95 62 177 0.000000 0.000000 0.000000 0.000000 51.808199 0.000000 200.000000 0.772611 0.294707 -0.562334
-14.25000000 -2.42000008 -0.31999999 95 62 177 0.000000 0.000000 0.000000 0.000000 51.808199 0.000000 200.000000 -0.423581 -0.221451 0.878373
-14.22999954 -2.41000009 -0.31000000 95 62 177 0.000000 0.000000 0.000000 0.000000 51.808199 0.000000 200.000000 -0.399729 -0.415654 0.816975
-14.22999954 -2.41000009 -0.30000001 95 62 177 0.000000 0.000000 0.000000 0.000000 51.808199 0.000000 200.000000 0.677938 0.402785 -0.614951
-14.23999977 -2.43000007 -0.28000000 95 62 177 0.000000 0.000000 0.000000 0.000000 51.808199 0.000000 200.000000 -0.536447 -0.225953 0.813124
-14.22000027 -2.43000007 -0.30000001 95 62 177 0.000000 0.000000 0.000000 0.000000 51.808199 0.000000 200.000000 0.751479 0.498245 -0.432470
-14.25000000 -2.44000006 -0.31000000 95 62 177 0.000000 0.000000 0.000000 0.000000 51.808199 0.000000 200.000000 0.738508 0.307310 -0.600139
-14.25000000 -2.43000007 -0.31999999 95 62 177 0.000000 0.000000 0.000000 0.000000 51.808199 0.000000 200.000000 -0.368314 -0.216912 0.904043
-14.27999973 -2.42000008 -0.31999999 95 62 177 0.000000 0.000000 0.000000 0.000000 51.808199 0.000000 200.000000 -0.546136 -0.333481 0.768457
-14.17000008 -2.50999999 -0.31000000 95 62 177 0.000000 0.000000 0.000000 0.000000 51.808199 0.000000 200.000000 -0.378466 -0.419639 0.825025
-14.18000031 -2.47000003 -0.31999999 95 62 177 0.000000 0.000000 0.000000 0.000000 51.808199 0.000000 200.000000 -0.366816 -0.565712 0.738523
-14.19999981 -2.47000003 -0.31999999 95 62 177 0.000000 0.000000 0.000000 0.000000 51.808199 0.000000 200.000000 -0.202592 -0.484719 0.850884
-14.19999981 -2.47000003 -0.33000001 95 62 177 0.000000 0.000000 0.000000 0.000000 51.808199 0.000000 200.000000 -0.153223 -0.477180 0.865345
-14.18999958 -2.47000003 -0.33000001 95 62 177 0.000000 0.000000 0.000000 0.000000 51.808199 0.000000 200.000000 -0.233455 -0.643961 0.728569
-14.21000004 -2.49000001 -0.36000001 95 62 177 0.000000 0.000000 0.000000 0.000000 51.808199 0.000000 200.000000 0.459466 0.669985 -0.583104
-14.18999958 -2.50000000 -0.36000001 95 62 177 0.000000 0.000000 0.000000 0.000000 51.808199 0.000000 200.000000 -0.292626 -0.593246 0.749953
-14.18000031 -2.50000000 -0.34000000 95 62 177 0.000000 0.000000 0.000000 0.000000 51.808199 0.000000 200.000000 0.161307 0.782412 -0.601508
-14.21000004 -2.52999997 -0.40000001 95 62 177 0.000000 0.000000 0.000000 0.000000 51.808199 0.000000 200.000000 0.437690 0.587470 -0.680666
-14.19999981 -2.56999993 -0.41999999 95 62 177 0.000000 0.000000 0.000000 0.000000 51.808199 0.000000 200.000000 0.135434 0.914531 -0.381171
-14.19999981 -2.57999992 -0.43000001 95 62 177 0.000000 0.000000 0.000000 0.000000 51.808199 0.000000 200.000000 0.146939 0.865628 -0.478641
-14.19999981 -2.56999993 -0.43000001 95 62 177 0.000000 0.000000 0.000000 0.000000 51.808199 0.000000 200.000000 0.068978 0.946163 -0.316255
-14.22999954 -2.49000001 -0.37000000 95 62 177 0.000000 0.000000 0.000000 0.000000 51.808199 0.000000 200.000000 0.712371 0.418167 -0.563616
-14.25000000 -2.48000002 -0.37000000 95 62 177 0.000000 0.000000 0.000000 0.000000 51.808199 0.000000 200.000000 0.714918 0.300426 -0.631377
-14.22999954 -2.49000001 -0.37000000 95 62 177 0.000000 0.000000 0.000000 0.000000 51.808199 0.000000 200.000000 0.712371 0.418167 -0.563616
-14.22000027 -2.47000003 -0.36000001 95 62 177 0.000000 0.000000 0.000000 0.000000 51.808199 0.000000 200.000000 -0.139982 -0.717974 0.681849
-14.25000000 -2.47000003 -0.38000000 95 62 177 0.000000 0.000000 0.000000 0.000000 51.808199 0.000000 200.000000 0.624376 0.460331 -0.631071
-14.23999977 -2.49000001 -0.38999999 95 62 177 0.000000 0.000000 0.000000 0.000000 51.808199 0.000000 200.000000 0.287644 0.773938 -0.564164
-14.22999954 -2.51999998 -0.40000001 95 62 177 0.000000 0.000000 0.000000 0.000000 51.808199 0.000000 200.000000 0.155780 0.757726 -0.633707
-14.22000027 -2.51999998 -0.40000001 95 62 177 0.000000 0.000000 0.000000 0.000000 51.808199 0.000000 200.000000 0.321748 0.716252 -0.619243
-14.22999954 -2.50999999 -0.40000001 95 62 177 0.000000 0.000000 0.000000 0.000000 51.808199 0.000000 200.000000 0.336581 0.840670 -0.424249
-14.22000027 -2.50999999 -0.38999999 95 62 177 0.000000 0.000000 0.000000 0.000000 51.808199 0.000000 200.000000 -0.106694 -0.805319 0.583162
-14.22000027 -2.51999998 -0.38999999 95 62 177 0.000000 0.000000 0.000000 0.000000 51.808199 0.000000 200.000000 0.383460 0.784717 -0.487010
-14.27000046 -2.49000001 -0.41000000 95 62 177 0.000000 0.000000 0.000000 0.000000 51.808199 0.000000 200.000000 -0.415224 -0.560801 0.716304
-14.22000027 -2.55999994 -0.38000000 95 62 177 0.000000 0.000000 0.000000 0.000000 51.808199 0.000000 200.000000 -0.012164 -0.517634 0.855516
-14.22000027 -2.57999992 -0.44999999 95 62 177 0.000000 0.000000 0.000000 0.000000 51.808199 0.000000 200.000000 -0.395644 -0.740397 0.543395
-14.22000027 -2.57999992 -0.44999999 95 62 177 0.000000 0.000000 0.000000 0.000000 51.808199 0.000000 200.000000 -0.395644 -0.740397 0.543395
-13.93000031 -1.75999999 0.18000001 95 62 177 0.000000 0.000000 0.000000 0.000000 51.808199 0.000000 200.000000 -0.691610 0.717818 0.080081
-13.97999954 -1.72000003 0.19000000 95 62 177 0.000000 0.000000 0.000000 0.000000 51.808199 0.000000 200.000000 0.751144 -0.650794 0.110679
-13.98999977 -1.76999998 0.23999999 95 62 177 0.000000 0.000000 0.000000 0.000000 51.808199 0.000000 200.000000 0.831521 -0.284427 -0.477153
-14.05000019 -1.75999999 0.20999999 95 62 177 0.000000 0.000000 0.000000 0.000000 51.808199 0.000000 200.000000 -0.556634 0.721807 0.411282
-13.60000038 -1.96000004 0.19000000 95 62 177 0.000000 0.000000 0.000000 0.000000 51.808199 0.000000 146.000000 0.752056 -0.303067 -0.585288
-13.69999981 -1.97000003 0.19000000 95 62 177 0.000000 0.000000 0.000000 0.000000 51.808199 0.000000 146.000000 -0.465392 0.391315 0.793903
-13.64999962 -2.00000000 0.19000000 95 62 177 0.000000 0.000000 0.000000 0.000000 51.808199 0.000000 146.000000 -0.686774 0.104862 0.719267
-13.69999981 -1.96000004 0.20000000 95 62 177 0.000000 0.000000 0.000000 0.000000 51.808199 0.000000 146.000000 -0.739782 0.439915 0.509115
-13.68999958 -2.10999990 0.22000000 95 62 177 0.000000 0.000000 0.000000 0.000000 51.808199 0.000000 146.000000 -0.246789 -0.529277 0.811764
-13.68999958 -2.08999991 0.20999999 95 62 177 0.000000 0.000000 0.000000 0.000000 51.808199 0.000000 146.000000 -0.565692 -0.252289 0.785075
-13.71000004 -1.98000002 0.19000000 95 62 177 0.000000 0.000000 0.000000 0.000000 51.808199 0.000000 146.000000 0.748016 -0.387921 -0.538506
-13.72000027 -2.11999989 0.20000000 95 62 177 0.000000 0.000000 0.000000 0.000000 51.808199 0.000000 146.000000 0.532743 0.475961 -0.699747
-13.72999954 -2.10999990 0.20000000 95 62 177 0.000000 0.000000 0.000000 0.000000 51.808199 0.000000 146.000000 -0.364831 -0.216573 0.905536
-13.67000008 -2.02999997 0.13000000 95 62 177 0.000000 0.000000 0.000000 0.000000 51.808199 0.000000 146.000000 -0.364328 -0.300835 0.881342
-13.68000031 -2.13000011 0.20999999 95 62 177 0.000000 0.000000 0.000000 0.000000 51.808199 0.000000 146.000000 0.076813 0.734796 -0.673925
-13.68999958 -2.13000011 0.18000001 95 62 177 0.000000 0.000000 0.000000 0.000000 51.808199 0.000000 146.000000 0.273989 0.834350 -0.478320
-13.69999981 -2.19000006 0.10000000 95 62 177 0.000000 0.000000 0.000000 0.000000 51.808199 0.000000 200.000000 0.139947 0.723811 -0.675657
-13.72999954 -2.20000005 0.14000000 95 62 177 0.000000 0.000000 0.000000 0.000000 51.808199 0.000000 200.000000 -0.171042 0.878600 -0.445878
-13.76000023 -2.14000010 0.10000000 95 62 177 0.000000 0.000000 0.000000 0.000000 51.808199 0.000000 200.000000 -0.383957 -0.292900 0.875664
-13.73999977 -2.23000002 0.15000001 95 62 177 0.000000 0.000000 0.000000 0.000000 51.808199 0.000000 200.000000 0.514819 0.589088 -0.622846
-13.65999985 -2.30999994 0.13000000 95 62 177 0.000000 0.000000 0.000000 0.000000 51.808199 0.000000 200.000000 -0.145807 0.838024 -0.525790
-13.68999958 -2.31999993 0.12000000 95 62 177 0.000000 0.000000 0.000000 0.000000 51.808199 0.000000 200.000000 -0.425150 0.776998 -0.464244
-13.67000008 -2.30999994 0.12000000 95 62 177 0.000000 0.000000 0.000000 0.000000 51.808199 0.000000 200.000000 -0.060711 0.831600 -0.552047
-13.69999981 -2.35999990 0.12000000 95 62 177 0.000000 0.000000 0.000000 0.000000 51.808199 0.000000 200.000000 -0.122615 0.796262 -0.592395
-13.68999958 -2.35999990 0.10000000 95 62 177 0.000000 0.000000 0.000000 0.000000 51.808199 0.000000 200.000000 0.204793 0.832825 -0.514258
-13.65999985 -2.40000010 0.09000000 95 62 177 0.000000 0.000000 0.000000 0.000000 51.808199 0.000000 200.000000 0.129988 0.957182 -0.258662
-13.67000008 -2.40000010 0.08000000 95 62 177 0.000000 0.000000 0.000000 0.000000 51.808199 0.000000 200.000000 -0.204058 0.976301 -0.072092
-13.71000004 -2.29999995 0.13000000 95 62 177 0.000000 0.000000 0.000000 0.000000 51.808199 0.000000 200.000000 -0.058903 0.731265 -0.679545
-13.73999977 -2.31999993 0.13000000 95 62 177 0.000000 0.000000 0.000000 0.000000 51.808199 0.000000 200.000000 0.175858 -0.643792 0.744719
-13.75000000 -2.35999990 0.10000000 95 62 177 0.000000 0.000000 0.000000 0.000000 51.808199 0.000000 200.000000 0.155072 0.903401 -0.399773
-13.75000000 -2.29999995 0.09000000 95 62 177 0.000000 0.000000 0.000000 0.000000 51.808199 0.000000 200.000000 -0.110458 -0.617093 0.779099
-13.77000046 -2.40000010 0.08000000 95 62 177 0.000000 0.000000 0.000000 0.000000 51.808199 0.000000 200.000000 0.221401 -0.574403 0.788063
-13.93000031 -1.91999996 0.18000001 95 62 177 0.000000 0.000000 0.000000 0.000000 51.808199 0.000000 245.000000 0.965142 -0.178441 -0.191465
-13.93999958 -1.99000001 0.19000000 95 62 177 0.000000 0.000000 0.000000 0.000000 51.808199 0.000000 245.000000 0.878628 -0.112135 -0.464154
-13.80000019 -1.98000002 0.12000000 95 62 177 0.000000 0.000000 0.000000 0.000000 51.808199 0.000000 245.000000 -0.560411 0.762737 0.322758
-13.86999989 -1.99000001 0.15000001 95 62 177 0.000000 0.000000 0.000000 0.000000 51.808199 0.000000 245.000000 0.803835 -0.362765 -0.471434
-13.85000038 -2.00999999 0.18000001 95 62 177 0.000000 0.000000 0.000000 0.000000 51.808199 0.000000 245.000000 0.684940 -0.230403 -0.691210
-13.85999966 -2.00999999 0.16000000 95 62 177 0.000000 0.000000 0.000000 0.000000 51.808199 0.000000 245.000000 0.625948 -0.348112 -0.697859
-13.86999989 -2.02999997 0.17000000 95 62 177 0.000000 0.000000 0.000000 0.000000 51.808199 0.000000 245.000000 0.706680 -0.176287 -0.685219
-13.84000015 -2.11999989 0.07000000 95 62 177 0.000000 0.000000 0.000000 0.000000 51.808199 0.000000 200.000000 0.771309 0.208671 -0.601281
-13.88000011 -2.00000000 0.15000001 95 62 177 0.000000 0.000000 0.000000 0.000000 51.808199 0.000000 245.000000 0.853085 -0.495292 -0.164112
-13.96000004 -2.01999998 0.16000000 95 62 177 0.000000 0.000000 0.000000 0.000000 51.808199 0.000000 245.000000 0.927347 0.090440 -0.363110
-13.88000011 -2.05999994 0.10000000 95 62 177 0.000000 0.000000 0.000000 0.000000 51.808199 0.000000 245.000000 0.831460 0.149692 -0.535039
-13.88000011 -2.04999995 0.17000000 95 62 177 0.000000 0.000000 0.000000 0.000000 51.808199 0.000000 245.000000 0.741480 0.178873 -0.646693
-13.88000011 -2.06999993 0.09000000 95 62 177 0.000000 0.000000 0.000000 0.000000 51.808199 0.000000 245.000000 -0.533000 0.456620 0.712327
-13.98999977 -1.78999996 0.20999999 95 62 177 0.000000 0.000000 0.000000 0.000000 51.808199 0.000000 200.000000 0.882809 -0.297288 -0.363687
-14.03999996 -1.83000004 0.23999999 95 62 177 0.000000 0.000000 0.000000 0.000000 51.808199 0.000000 200.000000 0.816015 -0.473764 -0.331160
-14.05000019 -1.80999994 0.20000000 95 62 177 0.000000 0.000000 0.000000 0.000000 51.808199 0.000000 200.000000 -0.512673 0.798373 0.315857
-14.07999992 -1.88999999 0.28000000 95 62 177 0.000000 0.000000 0.000000 0.000000 51.808199 0.000000 200.000000 0.843368 -0.439545 -0.309080
-14.10000038 -1.89999998 0.22000000 95 62 177 0.000000 0.000000 0.000000 0.000000 51.808199 0.000000 200.000000 0.845010 -0.467746 -0.259177
-14.06999969 -1.82000005 0.17000000 95 62 177 0.000000 0.000000 0.000000 0.000000 51.808199 0.000000 200.000000 -0.576668 0.814703 0.060926
-14.01000023 -2.00000000 0.13000000 95 62 177 0.000000 0.000000 0.000000 0.000000 51.808199 0.000000 245.000000 0.892458 -0.165804 -0.419556
-13.97000027 -1.97000003 0.16000000 95 62 177 0.000000 0.000000 0.000000 0.000000 51.808199 0.000000 245.000000 0.821529 -0.340325 -0.457460
-14.01000023 -2.04999995 0.15000001 95 62 177 0.000000 0.000000 0.000000 0.000000 51.808199 0.000000 245.000000 -0.517186 0.126747 0.846436
-13.80000019 -2.17000008 0.13000000 95 62 177 0.000000 0.000000 0.000000 0.000000 51.808199 0.000000 200.000000 0.197407 0.788097 -0.583039
-13.82999992 -2.16000009 0.14000000 95 62 177 0.000000 0.000000 0.000000 0.000000 51.808199 0.000000 200.000000 -0.260568 -0.535178 0.803548
-13.82999992 -2.14000010 0.07000000 95 62 177 0.000000 0.000000 0.000000 0.000000 51.808199 0.000000 200.000000 -0.499612 -0.086335 0.861936
-13.80000019 -2.15000010 0.08000000 95 62 177 0.000000 0.000000 0.000000 0.000000 51.808199 0.000000 200.000000 -0.377627 -0.278331 0.883136
-13.78999996 -2.16000009 0.09000000 95 62 177 0.000000 0.000000 0.000000 0.000000 51.808199 0.000000 200.000000 0.653936 0.297244 -0.695711
-13.85000038 -2.15000010 0.06000000 95 62 177 0.000000 0.000000 0.000000 0.000000 51.808199 0.000000 200.000000 -0.392158 -0.559523 0.730169
-13.85999966 -2.20000005 0.05000000 95 62 177 0.000000 0.000000 0.000000 0.000000 51.808199 0.000000 200.000000 -0.382560 -0.176235 0.906967
-13.86999989 -2.18000007 0.05000000 95 62 177 0.000000 0.000000 0.000000 0.000000 51.808199 0.000000 200.000000 -0.446098 -0.426632 0.786754
-13.84000015 -2.19000006 0.05000000 95 62 177 0.000000 0.000000 0.000000 0.000000 51.808199 0.000000 200.000000 -0.398356 -0.462868 0.791875
-13.84000015 -2.23000002 0.12000000 95 62 177 0.000000 0.000000 0.000000 0.000000 51.808199 0.000000 200.000000 -0.296609 -0.270565 0.915870
-13.84000015 -2.27999997 0.12000000 95 62 177 0.000000 0.000000 0.000000 0.000000 51.808199 0.000000 200.000000 0.255217 0.708583 -0.657856
-13.81000042 -2.26999998 0.12000000 95 62 177 0.000000 0.000000 0.000000 0.000000 51.808199 0.000000 200.000000 0.138531 0.853061 -0.503087
-13.80000019 -2.26999998 0.10000000 95 62 177 0.000000 0.000000 0.000000 0.000000 51.808199 0.000000 200.000000 -0.022526 0.899696 -0.435935
-13.81999969 -2.25999999 0.13000000 95 62 177 0.000000 0.000000 0.000000 0.000000 51.808199 0.000000 200.000000 -0.225752 -0.429078 0.874602
-13.81999969 -2.28999996 0.05000000 95 62 177 0.000000 0.000000 0.000000 0.000000 51.808199 0.000000 200.000000 0.255315 0.868676 -0.424518
