//X Y Z R G B PointSourceId ScanDirectionFlag NumberOfReturns ReturnNumber GpsTime Intensity Classification Nx Ny Nz
10.84000015 -5.28999996 -0.67000002 28 200 141 0.000000 0.000000 0.000000 0.000000 51.808199 0.000000 215.000000 0.682909 0.465848 -0.562691
10.93000031 -5.40999985 -0.36000001 28 200 141 0.000000 0.000000 0.000000 0.000000 51.808199 0.000000 216.000000 0.725959 -0.360533 -0.585662
10.93999958 -5.42000008 -0.34999999 28 200 141 0.000000 0.000000 0.000000 0.000000 51.808199 0.000000 216.000000 -0.651815 -0.226650 0.723718
10.92000008 -5.38999987 -0.38999999 28 200 141 0.000000 0.000000 0.000000 0.000000 51.808199 0.000000 216.000000 -0.418132 -0.069462 0.905726
10.93000031 -5.42999983 -0.37000000 28 200 141 0.000000 0.000000 0.000000 0.000000 51.808199 0.000000 216.000000 -0.589199 0.154421 0.793095
10.92000008 -5.42999983 -0.37000000 28 200 141 0.000000 0.000000 0.000000 0.000000 51.808199 0.000000 216.000000 -0.485670 0.285780 0.826108
10.85999966 -5.38999987 -0.44999999 28 200 141 0.000000 0.000000 0.000000 0.000000 51.808199 0.000000 216.000000 -0.563511 -0.153957 0.811636
10.88000011 -5.40000010 -0.41999999 28 200 141 0.000000 0.000000 0.000000 0.000000 51.808199 0.000000 216.000000 0.831350 0.228124 -0.506771
10.85999966 -5.40000010 -0.44999999 28 200 141 0.000000 0.000000 0.000000 0.000000 51.808199 0.000000 216.000000 0.815088 -0.239732 -0.527410
10.93000031 -5.48999977 -0.38000000 28 200 141 0.000000 0.000000 0.000000 0.000000 51.808199 0.000000 216.000000 -0.441603 -0.111459 0.890260
10.92000008 -5.48000002 -0.38000000 28 200 141 0.000000 0.000000 0.000000 0.000000 51.808199 0.000000 216.000000 -0.622347 -0.474729 0.622347
10.92000008 -5.48000002 -0.38999999 28 200 141 0.000000 0.000000 0.000000 0.000000 51.808199 0.000000 216.000000 0.699010 0.337284 -0.630575
10.89999962 -5.48000002 -0.41000000 28 200 141 0.000000 0.000000 0.000000 0.000000 51.808199 0.000000 216.000000 0.929193 -0.162505 -0.331954
10.84000015 -5.40999985 -0.37000000 28 200 141 0.000000 0.000000 0.000000 0.000000 51.808199 0.000000 216.000000 0.792458 -0.358455 -0.493478
10.84000015 -5.42000008 -0.40000001 28 200 141 0.000000 0.000000 0.000000 0.000000 51.808199 0.000000 216.000000 0.740662 0.289546 -0.606287
10.81999969 -5.40000010 -0.41999999 28 200 141 0.000000 0.000000 0.000000 0.000000 51.808199 0.000000 216.000000 0.835152 0.006790 -0.549978
10.81999969 -5.40000010 -0.41999999 28 200 141 0.000000 0.000000 0.000000 0.000000 51.808199 0.000000 216.000000 0.835152 0.006790 -0.549978
10.85000038 -5.38999987 -0.47000000 28 200 141 0.000000 0.000000 0.000000 0.000000 51.808199 0.000000 216.000000 -0.587149 0.174476 0.790452
10.84000015 -5.38999987 -0.47000000 28 200 141 0.000000 0.000000 0.000000 0.000000 51.808199 0.000000 216.000000 0.881410 -0.211835 -0.422188
10.82999992 -5.44000006 -0.49000001 28 200 141 0.000000 0.000000 0.000000 0.000000 51.808199 0.000000 216.000000 0.833854 -0.165577 -0.526566
10.78999996 -5.42000008 -0.46000001 28 200 141 0.000000 0.000000 0.000000 0.000000 51.808199 0.000000 216.000000 0.642171 0.428670 -0.635499
10.77999973 -5.48000002 -0.44000000 28 200 141 0.000000 0.000000 0.000000 0.000000 51.808199 0.000000 216.000000 0.710156 0.254644 -0.656380
10.77999973 -5.48000002 -0.44000000 28 200 141 0.000000 0.000000 0.000000 0.000000 51.808199 0.000000 216.000000 0.710156 0.254644 -0.656380
10.77999973 -5.48000002 -0.46000001 28 200 141 0.000000 0.000000 0.000000 0.000000 51.808199 0.000000 216.000000 0.971952 0.052704 -0.229199
10.93999958 -5.40000010 -0.62000000 28 200 141 0.000000 0.000000 0.000000 0.000000 51.808199 0.000000 215.000000 0.568722 0.545096 -0.615975
10.92000008 -5.42999983 -0.63999999 28 200 141 0.000000 0.000000 0.000000 0.000000 51.808199 0.000000 215.000000 0.851858 0.255405 -0.457281
10.89000034 -5.42000008 -0.62000000 28 200 141 0.000000 0.000000 0.000000 0.000000 51.808199 0.000000 215.000000 0.875095 0.053746 -0.480958
10.88000011 -5.42000008 -0.67000002 28 200 141 0.000000 0.000000 0.000000 0.000000 51.808199 0.000000 215.000000 0.877107 0.224861 -0.424407
10.89999962 -5.40000010 -0.64999998 28 200 141 0.000000 0.000000 0.000000 0.000000 51.808199 0.000000 215.000000 0.911817 0.214630 -0.350034
10.86999989 -5.40999985 -0.67000002 28 200 141 0.000000 0.000000 0.000000 0.000000 51.808199 0.000000 215.000000 0.899305 0.432594 -0.064139
10.88000011 -5.44999981 -0.64999998 28 200 141 0.000000 0.000000 0.000000 0.000000 51.808199 0.000000 215.000000 0.761995 0.534534 -0.365563
10.89999962 -5.46999979 -0.66000003 28 200 141 0.000000 0.000000 0.000000 0.000000 51.808199 0.000000 215.000000 0.848438 0.506112 -0.154932
10.90999985 -5.48999977 -0.66000003 28 200 141 0.000000 0.000000 0.000000 0.000000 51.808199 0.000000 215.000000 0.629944 0.764611 -0.136164
10.88000011 -5.48999977 -0.62000000 28 200 141 0.000000 0.000000 0.000000 0.000000 51.808199 0.000000 215.000000 0.683504 0.553154 -0.476280
10.85999966 -5.48999977 -0.63999999 28 200 141 0.000000 0.000000 0.000000 0.000000 51.808199 0.000000 215.000000 0.673002 0.739608 0.006938
10.85000038 -5.48999977 -0.63000000 28 200 141 0.000000 0.000000 0.000000 0.000000 51.808199 0.000000 215.000000 0.786669 0.476524 -0.392527
10.72000027 -5.23000002 -0.41000000 28 200 141 0.000000 0.000000 0.000000 0.000000 51.808199 0.000000 216.000000 0.779368 -0.194459 -0.595627
10.75000000 -5.26000023 -0.46000001 28 200 141 0.000000 0.000000 0.000000 0.000000 51.808199 0.000000 216.000000 0.666536 0.123764 -0.735128
10.72000027 -5.25000000 -0.44999999 28 200 141 0.000000 0.000000 0.000000 0.000000 51.808199 0.000000 216.000000 0.852507 -0.123027 -0.508031
10.68999958 -5.23000002 -0.44999999 28 200 141 0.000000 0.000000 0.000000 0.000000 51.808199 0.000000 216.000000 -0.465234 0.178709 0.866960
10.76000023 -5.30999994 -0.41000000 28 200 141 0.000000 0.000000 0.000000 0.000000 51.808199 0.000000 216.000000 -0.416621 -0.055280 0.907398
10.72999954 -5.30999994 -0.44999999 28 200 141 0.000000 0.000000 0.000000 0.000000 51.808199 0.000000 216.000000 0.752712 0.165749 -0.637144
10.73999977 -5.32999992 -0.47999999 28 200 141 0.000000 0.000000 0.000000 0.000000 51.808199 0.000000 216.000000 -0.459197 0.047691 0.887054
10.75000000 -5.36999989 -0.44000000 28 200 141 0.000000 0.000000 0.000000 0.000000 51.808199 0.000000 216.000000 -0.578895 -0.190928 0.792734
10.71000004 -5.34000015 -0.41999999 28 200 141 0.000000 0.000000 0.000000 0.000000 51.808199 0.000000 216.000000 0.541948 0.031717 -0.839813
10.72000027 -5.34000015 -0.44999999 28 200 141 0.000000 0.000000 0.000000 0.000000 51.808199 0.000000 216.000000 0.835105 -0.293920 -0.464984
10.72000027 -5.32000017 -0.46000001 28 200 141 0.000000 0.000000 0.000000 0.000000 51.808199 0.000000 216.000000 -0.598498 0.052351 0.799412
10.68000031 -5.23000002 -0.44999999 28 200 141 0.000000 0.000000 0.000000 0.000000 51.808199 0.000000 216.000000 0.753874 0.152588 -0.639055
10.68000031 -5.23999977 -0.44999999 28 200 141 0.000000 0.000000 0.000000 0.000000 51.808199 0.000000 216.000000 0.701266 0.244261 -0.669748
10.64999962 -5.25000000 -0.44999999 28 200 141 0.000000 0.000000 0.000000 0.000000 51.808199 0.000000 216.000000 0.702996 0.058942 -0.708747
10.65999985 -5.23999977 -0.44000000 28 200 141 0.000000 0.000000 0.000000 0.000000 51.808199 0.000000 216.000000 -0.744530 0.233547 0.625405
10.64999962 -5.25000000 -0.44999999 28 200 141 0.000000 0.000000 0.000000 0.000000 51.808199 0.000000 216.000000 0.702996 0.058942 -0.708747
10.68000031 -5.23999977 -0.44999999 28 200 141 0.000000 0.000000 0.000000 0.000000 51.808199 0.000000 216.000000 0.701266 0.244261 -0.669748
10.65999985 -5.30000019 -0.41999999 28 200 141 0.000000 0.000000 0.000000 0.000000 51.808199 0.000000 216.000000 0.769946 0.228651 -0.595736
10.68000031 -5.26000023 -0.44000000 28 200 141 0.000000 0.000000 0.000000 0.000000 51.808199 0.000000 216.000000 0.655801 -0.240618 -0.715562
10.68000031 -5.28999996 -0.43000001 28 200 141 0.000000 0.000000 0.000000 0.000000 51.808199 0.000000 216.000000 0.754654 0.274853 -0.595779
10.68000031 -5.28000021 -0.46000001 28 200 141 0.000000 0.000000 0.000000 0.000000 51.808199 0.000000 216.000000 -0.438711 -0.157820 0.884661
10.63000011 -5.21999979 -0.44999999 28 200 141 0.000000 0.000000 0.000000 0.000000 51.808199 0.000000 216.000000 -0.539085 -0.017742 0.842064
10.64000034 -5.23000002 -0.44000000 28 200 141 0.000000 0.000000 0.000000 0.000000 51.808199 0.000000 216.000000 -0.515018 -0.077605 0.853659
10.64000034 -5.23000002 -0.44000000 28 200 141 0.000000 0.000000 0.000000 0.000000 51.808199 0.000000 216.000000 -0.515018 -0.077605 0.853659
10.63000011 -5.21999979 -0.44999999 28 200 141 0.000000 0.000000 0.000000 0.000000 51.808199 0.000000 216.000000 -0.539085 -0.017742 0.842064
10.63000011 -5.26000023 -0.43000001 28 200 141 0.000000 0.000000 0.000000 0.000000 51.808199 0.000000 216.000000 -0.473389 0.137529 0.870051
10.61999989 -5.28999996 -0.44000000 28 200 141 0.000000 0.000000 0.000000 0.000000 51.808199 0.000000 216.000000 0.690958 0.290170 -0.662101
10.63000011 -5.26000023 -0.43000001 28 200 141 0.000000 0.000000 0.000000 0.000000 51.808199 0.000000 216.000000 -0.473389 0.137529 0.870051
10.64000034 -5.28999996 -0.44000000 28 200 141 0.000000 0.000000 0.000000 0.000000 51.808199 0.000000 216.000000 -0.424406 -0.017081 0.905311
10.67000008 -5.30999994 -0.40000001 28 200 141 0.000000 0.000000 0.000000 0.000000 51.808199 0.000000 216.000000 -0.422490 -0.231399 0.876331
10.67000008 -5.34000015 -0.41999999 28 200 141 0.000000 0.000000 0.000000 0.000000 51.808199 0.000000 216.000000 0.847982 0.278557 -0.450923
10.68000031 -5.30999994 -0.47999999 28 200 141 0.000000 0.000000 0.000000 0.000000 51.808199 0.000000 216.000000 -0.482400 -0.357392 0.799726
10.65999985 -5.32999992 -0.46000001 28 200 141 0.000000 0.000000 0.000000 0.000000 51.808199 0.000000 216.000000 0.886772 0.317672 -0.335739
10.67000008 -5.36999989 -0.46000001 28 200 141 0.000000 0.000000 0.000000 0.000000 51.808199 0.000000 216.000000 0.766047 0.354682 -0.536071
10.68000031 -5.38000011 -0.46000001 28 200 141 0.000000 0.000000 0.000000 0.000000 51.808199 0.000000 216.000000 -0.493454 -0.244421 0.834722
10.63000011 -5.32000017 -0.44999999 28 200 141 0.000000 0.000000 0.000000 0.000000 51.808199 0.000000 216.000000 -0.556810 0.196790 0.806992
10.63000011 -5.32999992 -0.44999999 28 200 141 0.000000 0.000000 0.000000 0.000000 51.808199 0.000000 216.000000 -0.685786 -0.052973 0.725873
10.63000011 -5.32999992 -0.44000000 28 200 141 0.000000 0.000000 0.000000 0.000000 51.808199 0.000000 216.000000 -0.577616 -0.331684 0.745885
10.75000000 -5.30999994 -0.66000003 28 200 141 0.000000 0.000000 0.000000 0.000000 51.808199 0.000000 215.000000 0.618152 0.434873 -0.654808
10.73999977 -5.40000010 -0.44999999 28 200 141 0.000000 0.000000 0.000000 0.000000 51.808199 0.000000 216.000000 0.721561 0.343678 -0.601029
10.73999977 -5.40000010 -0.44999999 28 200 141 0.000000 0.000000 0.000000 0.000000 51.808199 0.000000 216.000000 0.721561 0.343678 -0.601029
10.76000023 -5.40000010 -0.49000001 28 200 141 0.000000 0.000000 0.000000 0.000000 51.808199 0.000000 216.000000 0.664872 0.438249 -0.604883
10.73999977 -5.42000008 -0.46000001 28 200 141 0.000000 0.000000 0.000000 0.000000 51.808199 0.000000 216.000000 0.665727 0.272996 -0.694464
10.75000000 -5.46999979 -0.44999999 28 200 141 0.000000 0.000000 0.000000 0.000000 51.808199 0.000000 216.000000 0.801670 0.134846 -0.582359
10.75000000 -5.46999979 -0.44000000 28 200 141 0.000000 0.000000 0.000000 0.000000 51.808199 0.000000 216.000000 0.842561 0.469801 -0.263397
10.77000046 -5.46000004 -0.44000000 28 200 141 0.000000 0.000000 0.000000 0.000000 51.808199 0.000000 216.000000 -0.615711 -0.132684 0.776720
10.71000004 -5.46000004 -0.43000001 28 200 141 0.000000 0.000000 0.000000 0.000000 51.808199 0.000000 216.000000 0.629798 0.261755 -0.731327
10.77000046 -5.48000002 -0.44999999 28 200 141 0.000000 0.000000 0.000000 0.000000 51.808199 0.000000 216.000000 0.896004 0.119938 -0.427542
10.77000046 -5.48000002 -0.44999999 28 200 141 0.000000 0.000000 0.000000 0.000000 51.808199 0.000000 216.000000 0.896004 0.119938 -0.427542
10.75000000 -5.48000002 -0.46000001 28 200 141 0.000000 0.000000 0.000000 0.000000 51.808199 0.000000 216.000000 0.720488 0.044054 -0.692067
10.77000046 -5.53000021 -0.50000000 28 200 141 0.000000 0.000000 0.000000 0.000000 51.808199 0.000000 216.000000 0.921935 0.338468 -0.188352
10.64999962 -5.42000008 -0.44999999 28 200 141 0.000000 0.000000 0.000000 0.000000 51.808199 0.000000 216.000000 0.896392 0.152973 -0.416029
10.64999962 -5.42000008 -0.44999999 28 200 141 0.000000 0.000000 0.000000 0.000000 51.808199 0.000000 216.000000 0.896392 0.152973 -0.416029
10.68000031 -5.42000008 -0.44999999 28 200 141 0.000000 0.000000 0.000000 0.000000 51.808199 0.000000 216.000000 0.581574 0.524260 -0.622032
10.67000008 -5.40000010 -0.47000000 28 200 141 0.000000 0.000000 0.000000 0.000000 51.808199 0.000000 216.000000 -0.573149 -0.037652 0.818586
10.67000008 -5.38999987 -0.47000000 28 200 141 0.000000 0.000000 0.000000 0.000000 51.808199 0.000000 216.000000 0.562167 0.348317 -0.750096
10.68000031 -5.44000006 -0.47999999 28 200 141 0.000000 0.000000 0.000000 0.000000 51.808199 0.000000 216.000000 0.575045 0.400389 -0.713451
10.67000008 -5.42999983 -0.47999999 28 200 141 0.000000 0.000000 0.000000 0.000000 51.808199 0.000000 216.000000 0.786191 0.556163 -0.269416
10.61999989 -5.40000010 -0.44999999 28 200 141 0.000000 0.000000 0.000000 0.000000 51.808199 0.000000 216.000000 0.707623 0.487844 -0.511154
10.64999962 -5.55000019 -0.49000001 28 200 141 0.000000 0.000000 0.000000 0.000000 51.808199 0.000000 216.000000 0.885075 0.142014 -0.443255
10.63000011 -5.50000000 -0.47999999 28 200 141 0.000000 0.000000 0.000000 0.000000 51.808199 0.000000 216.000000 0.869945 -0.006682 -0.493103
10.93000031 -5.21999979 -0.69999999 28 200 141 0.000000 0.000000 0.000000 0.000000 51.808199 0.000000 215.000000 -0.290332 0.180254 0.939796
10.93000031 -5.23999977 -0.74000001 28 200 141 0.000000 0.000000 0.000000 0.000000 51.808199 0.000000 215.000000 -0.466584 0.398776 0.789479
10.85999966 -5.28000021 -0.68000001 28 200 141 0.000000 0.000000 0.000000 0.000000 51.808199 0.000000 215.000000 0.757543 -0.309103 -0.574964
10.86999989 -5.28999996 -0.70999998 28 200 141 0.000000 0.000000 0.000000 0.000000 51.808199 0.000000 215.000000 0.719239 0.227210 -0.656560
10.86999989 -5.26999998 -0.68000001 28 200 141 0.000000 0.000000 0.000000 0.000000 51.808199 0.000000 215.000000 0.876602 -0.215802 -0.430115
10.85999966 -5.26999998 -0.69000000 28 200 141 0.000000 0.000000 0.000000 0.000000 51.808199 0.000000 215.000000 -0.533493 0.165876 0.829380
10.89000034 -5.26000023 -0.72000003 28 200 141 0.000000 0.000000 0.000000 0.000000 51.808199 0.000000 215.000000 0.663645 -0.283049 -0.692430
10.89000034 -5.26000023 -0.72000003 28 200 141 0.000000 0.000000 0.000000 0.000000 51.808199 0.000000 215.000000 0.663645 -0.283049 -0.692430
10.88000011 -5.30999994 -0.68000001 28 200 141 0.000000 0.000000 0.000000 0.000000 51.808199 0.000000 215.000000 0.855024 -0.107776 -0.507266
10.88000011 -5.30999994 -0.68000001 28 200 141 0.000000 0.000000 0.000000 0.000000 51.808199 0.000000 215.000000 0.855024 -0.107776 -0.507266
10.85999966 -5.32000017 -0.69000000 28 200 141 0.000000 0.000000 0.000000 0.000000 51.808199 0.000000 215.000000 0.734880 0.603019 -0.310354
10.82999992 -5.21999979 -0.69000000 28 200 141 0.000000 0.000000 0.000000 0.000000 51.808199 0.000000 215.000000 -0.576548 0.106552 0.810086
10.82999992 -5.21999979 -0.73000002 28 200 141 0.000000 0.000000 0.000000 0.000000 51.808199 0.000000 215.000000 0.775208 -0.286938 -0.562779
10.78999996 -5.23000002 -0.73000002 28 200 141 0.000000 0.000000 0.000000 0.000000 51.808199 0.000000 215.000000 -0.677930 -0.083101 0.730415
10.77999973 -5.30999994 -0.69000000 28 200 141 0.000000 0.000000 0.000000 0.000000 51.808199 0.000000 215.000000 0.843873 0.453678 -0.286452
10.78999996 -5.34999990 -0.70999998 28 200 141 0.000000 0.000000 0.000000 0.000000 51.808199 0.000000 215.000000 0.534678 0.645999 -0.544798
10.89999962 -5.40000010 -0.68000001 28 200 141 0.000000 0.000000 0.000000 0.000000 51.808199 0.000000 215.000000 0.608019 0.736361 -0.296790
10.89999962 -5.40000010 -0.68000001 28 200 141 0.000000 0.000000 0.000000 0.000000 51.808199 0.000000 215.000000 0.608019 0.736361 -0.296790
10.85000038 -5.38999987 -0.69000000 28 200 141 0.000000 0.000000 0.000000 0.000000 51.808199 0.000000 215.000000 0.727474 0.343394 -0.594022
10.75000000 -5.25000000 -0.72000003 28 200 141 0.000000 0.000000 0.000000 0.000000 51.808199 0.000000 215.000000 0.800883 -0.183884 -0.569888
10.75000000 -5.25000000 -0.72000003 28 200 141 0.000000 0.000000 0.000000 0.000000 51.808199 0.000000 215.000000 0.800883 -0.183884 -0.569888
10.77000046 -5.28000021 -0.70999998 28 200 141 0.000000 0.000000 0.000000 0.000000 51.808199 0.000000 215.000000 -0.650855 0.012490 0.759099
10.82999992 -5.61000013 -0.49000001 28 200 141 0.000000 0.000000 0.000000 0.000000 51.808199 0.000000 216.000000 0.682610 0.721277 -0.117486
10.81000042 -5.59999990 -0.50000000 28 200 141 0.000000 0.000000 0.000000 0.000000 51.808199 0.000000 216.000000 0.778580 0.443742 -0.443742
10.82999992 -5.61000013 -0.49000001 28 200 141 0.000000 0.000000 0.000000 0.000000 51.808199 0.000000 216.000000 0.682610 0.721277 -0.117486
10.89999962 -5.71000004 -0.57999998 28 200 141 0.000000 0.000000 0.000000 0.000000 51.808199 0.000000 216.000000 0.575891 0.806839 0.131759
10.89000034 -5.71000004 -0.57999998 28 200 141 0.000000 0.000000 0.000000 0.000000 51.808199 0.000000 216.000000 0.914568 0.396990 0.077230
10.90999985 -5.67999983 -0.63999999 28 200 141 0.000000 0.000000 0.000000 0.000000 51.808199 0.000000 216.000000 0.661126 0.705519 0.255255
10.93999958 -5.69999981 -0.61000001 28 200 141 0.000000 0.000000 0.000000 0.000000 51.808199 0.000000 216.000000 0.768544 0.568054 0.294370
10.93999958 -5.69000006 -0.63000000 28 200 141 0.000000 0.000000 0.000000 0.000000 51.808199 0.000000 216.000000 0.853061 0.503087 0.138531
10.90999985 -5.69999981 -0.64999998 28 200 141 0.000000 0.000000 0.000000 0.000000 51.808199 0.000000 216.000000 0.825986 0.553077 -0.108873
10.82999992 -5.59000015 -0.56999999 28 200 141 0.000000 0.000000 0.000000 0.000000 51.808199 0.000000 216.000000 0.867900 0.220348 -0.445192
10.82999992 -5.57999992 -0.57999998 28 200 141 0.000000 0.000000 0.000000 0.000000 51.808199 0.000000 216.000000 0.813893 0.533877 -0.229244
10.78999996 -5.59000015 -0.52999997 28 200 141 0.000000 0.000000 0.000000 0.000000 51.808199 0.000000 216.000000 0.632783 0.682091 -0.366521
10.77999973 -5.57999992 -0.52999997 28 200 141 0.000000 0.000000 0.000000 0.000000 51.808199 0.000000 216.000000 0.936922 0.249939 -0.244354
10.81999969 -5.65999985 -0.54000002 28 200 141 0.000000 0.000000 0.000000 0.000000 51.808199 0.000000 216.000000 0.483032 0.834889 -0.263893
10.82999992 -5.67000008 -0.52999997 28 200 141 0.000000 0.000000 0.000000 0.000000 51.808199 0.000000 216.000000 0.569423 0.586320 -0.576182
10.81999969 -5.67999983 -0.55000001 28 200 141 0.000000 0.000000 0.000000 0.000000 51.808199 0.000000 216.000000 0.779953 0.339320 -0.525866
10.82999992 -5.69000006 -0.56000000 28 200 141 0.000000 0.000000 0.000000 0.000000 51.808199 0.000000 216.000000 0.883153 0.461807 0.082316
10.77999973 -5.67999983 -0.54000002 28 200 141 0.000000 0.000000 0.000000 0.000000 51.808199 0.000000 216.000000 0.750624 0.372870 -0.545464
10.85999966 -5.75000000 -0.57999998 28 200 141 0.000000 0.000000 0.000000 0.000000 51.808199 0.000000 216.000000 0.796062 0.434362 -0.421444
10.86999989 -5.80000019 -0.55000001 28 200 141 0.000000 0.000000 0.000000 0.000000 51.808199 0.000000 216.000000 0.723116 0.620043 -0.304385
10.93000031 -5.76999998 -0.67000002 28 200 141 0.000000 0.000000 0.000000 0.000000 51.808199 0.000000 216.000000 0.709710 0.704089 -0.023891
10.92000008 -5.80000019 -0.63000000 28 200 141 0.000000 0.000000 0.000000 0.000000 51.808199 0.000000 216.000000 0.755546 0.583032 -0.298704
10.92000008 -5.80000019 -0.63000000 28 200 141 0.000000 0.000000 0.000000 0.000000 51.808199 0.000000 216.000000 0.755546 0.583032 -0.298704
10.93999958 -5.78000021 -0.66000003 28 200 141 0.000000 0.000000 0.000000 0.000000 51.808199 0.000000 216.000000 0.880279 0.432030 0.196109
10.90999985 -5.80999994 -0.64999998 28 200 141 0.000000 0.000000 0.000000 0.000000 51.808199 0.000000 216.000000 0.669703 0.742406 -0.018176
10.89999962 -5.75000000 -0.61000001 28 200 141 0.000000 0.000000 0.000000 0.000000 51.808199 0.000000 216.000000 0.523524 0.827016 0.204857
10.89999962 -5.73999977 -0.64999998 28 200 141 0.000000 0.000000 0.000000 0.000000 51.808199 0.000000 216.000000 0.723313 0.592692 -0.354309
10.89000034 -5.84000015 -0.63000000 28 200 141 0.000000 0.000000 0.000000 0.000000 51.808199 0.000000 216.000000 0.351635 0.930957 -0.098350
10.82999992 -5.73000002 -0.55000001 28 200 141 0.000000 0.000000 0.000000 0.000000 51.808199 0.000000 216.000000 0.654398 0.702398 -0.279999
10.81999969 -5.73000002 -0.56000000 28 200 141 0.000000 0.000000 0.000000 0.000000 51.808199 0.000000 216.000000 0.666961 0.744935 -0.015316
10.81000042 -5.86000013 -0.56000000 28 200 141 0.000000 0.000000 0.000000 0.000000 51.808199 0.000000 216.000000 0.637305 0.747873 -0.185817
10.84000015 -5.88000011 -0.63000000 28 200 141 0.000000 0.000000 0.000000 0.000000 51.808199 0.000000 216.000000 0.413388 0.889588 -0.194278
10.68999958 -5.63000011 -0.50000000 28 200 141 0.000000 0.000000 0.000000 0.000000 51.808199 0.000000 216.000000 0.939854 0.099984 -0.326616
10.67000008 -5.57999992 -0.43000001 28 200 141 0.000000 0.000000 0.000000 0.000000 51.808199 0.000000 216.000000 0.923651 0.187550 -0.334206
10.65999985 -5.55999994 -0.49000001 28 200 141 0.000000 0.000000 0.000000 0.000000 51.808199 0.000000 216.000000 0.699609 0.216583 -0.680911
10.72999954 -5.65999985 -0.54000002 28 200 141 0.000000 0.000000 0.000000 0.000000 51.808199 0.000000 216.000000 0.882899 0.158023 -0.442174
10.92000008 -5.76999998 -0.68000001 28 200 141 0.000000 0.000000 0.000000 0.000000 51.808199 0.000000 216.000000 0.289705 0.954096 0.075967
10.90999985 -5.80000019 -0.69000000 28 200 141 0.000000 0.000000 0.000000 0.000000 51.808199 0.000000 216.000000 0.837438 0.544822 0.043196
10.89000034 -5.80999994 -0.70999998 28 200 141 0.000000 0.000000 0.000000 0.000000 51.808199 0.000000 216.000000 0.613793 0.762217 -0.205628
10.90999985 -5.84999990 -0.69000000 28 200 141 0.000000 0.000000 0.000000 0.000000 51.808199 0.000000 216.000000 0.739614 0.670946 0.052932
10.90999985 -5.84999990 -0.69000000 28 200 141 0.000000 0.000000 0.000000 0.000000 51.808199 0.000000 216.000000 0.739614 0.670946 0.052932
10.90999985 -5.84999990 -0.76999998 28 200 141 0.000000 0.000000 0.000000 0.000000 51.808199 0.000000 216.000000 0.633979 0.748126 0.195901
10.93000031 -5.86000013 -0.77999997 28 200 141 0.000000 0.000000 0.000000 0.000000 51.808199 0.000000 216.000000 0.777223 0.628244 0.035137
10.57999992 -5.28999996 -0.44999999 28 200 141 0.000000 0.000000 0.000000 0.000000 51.808199 0.000000 216.000000 0.802915 0.383027 -0.456748
10.57999992 -5.28999996 -0.44999999 28 200 141 0.000000 0.000000 0.000000 0.000000 51.808199 0.000000 216.000000 0.802915 0.383027 -0.456748
10.59000015 -5.28000021 -0.43000001 28 200 141 0.000000 0.000000 0.000000 0.000000 51.808199 0.000000 216.000000 -0.450661 0.133052 0.882724
10.59000015 -5.30999994 -0.46000001 28 200 141 0.000000 0.000000 0.000000 0.000000 51.808199 0.000000 216.000000 -0.667261 -0.169487 0.725284
10.60000038 -5.46000004 -0.46000001 28 200 141 0.000000 0.000000 0.000000 0.000000 51.808199 0.000000 216.000000 0.969303 0.178928 -0.168630
11.13000011 -5.94999981 -0.77999997 28 200 141 0.000000 0.000000 0.000000 0.000000 51.808199 0.000000 216.000000 0.450488 0.863309 0.227504
11.27999973 -5.92999983 -0.88000000 28 200 141 0.000000 0.000000 0.000000 0.000000 51.808199 0.000000 216.000000 -0.146434 0.726130 0.671783
11.27000046 -5.98000002 -0.91000003 28 200 141 0.000000 0.000000 0.000000 0.000000 51.808199 0.000000 216.000000 0.070128 0.599667 0.797171
11.27000046 -5.98000002 -0.89999998 28 200 141 0.000000 0.000000 0.000000 0.000000 51.808199 0.000000 216.000000 -0.061025 0.574772 0.816035
11.27999973 -5.98000002 -0.89999998 28 200 141 0.000000 0.000000 0.000000 0.000000 51.808199 0.000000 216.000000 -0.229832 0.488583 0.841703
11.21000004 -5.92999983 -0.88999999 28 200 141 0.000000 0.000000 0.000000 0.000000 51.808199 0.000000 216.000000 0.449321 0.579607 0.679828
11.22999954 -5.94999981 -0.91000003 28 200 141 0.000000 0.000000 0.000000 0.000000 51.808199 0.000000 216.000000 0.028582 0.502226 0.864264
11.25000000 -5.98999977 -0.89999998 28 200 141 0.000000 0.000000 0.000000 0.000000 51.808199 0.000000 216.000000 -0.095354 0.743761 0.661610
11.10000038 -5.90999985 -0.70999998 28 200 141 0.000000 0.000000 0.000000 0.000000 51.808199 0.000000 216.000000 0.359463 0.885873 0.293285
11.09000015 -5.90999985 -0.72000003 28 200 141 0.000000 0.000000 0.000000 0.000000 51.808199 0.000000 216.000000 0.277047 0.888048 0.366900
10.97999954 -5.96000004 -0.73000002 28 200 141 0.000000 0.000000 0.000000 0.000000 51.808199 0.000000 216.000000 0.290355 0.717066 0.633649
10.96000004 -5.94000006 -0.81999999 28 200 141 0.000000 0.000000 0.000000 0.000000 51.808199 0.000000 216.000000 0.422063 0.804006 0.418853
11.03999996 -5.92999983 -0.85000002 28 200 141 0.000000 0.000000 0.000000 0.000000 51.808199 0.000000 216.000000 0.184786 0.974213 0.129476
10.89000034 -5.92000008 -0.56000000 28 200 141 0.000000 0.000000 0.000000 0.000000 51.808199 0.000000 216.000000 0.443369 0.893601 -0.070006
10.88000011 -5.92000008 -0.56000000 28 200 141 0.000000 0.000000 0.000000 0.000000 51.808199 0.000000 216.000000 0.548751 0.822382 0.150200
10.93000031 -5.92999983 -0.69999999 28 200 141 0.000000 0.000000 0.000000 0.000000 51.808199 0.000000 216.000000 0.840854 0.512279 0.174742
10.93000031 -5.94000006 -0.75000000 28 200 141 0.000000 0.000000 0.000000 0.000000 51.808199 0.000000 216.000000 0.250451 0.929641 0.270261
10.93999958 -5.94000006 -0.72000003 28 200 141 0.000000 0.000000 0.000000 0.000000 51.808199 0.000000 216.000000 0.333125 0.764418 0.551990
10.93999958 -5.94000006 -0.72000003 28 200 141 0.000000 0.000000 0.000000 0.000000 51.808199 0.000000 216.000000 0.333125 0.764418 0.551990
10.93999958 -5.94000006 -0.72000003 28 200 141 0.000000 0.000000 0.000000 0.000000 51.808199 0.000000 216.000000 0.333125 0.764418 0.551990
10.92000008 -5.96000004 -0.68000001 28 200 141 0.000000 0.000000 0.000000 0.000000 51.808199 0.000000 216.000000 0.701095 0.679234 0.217043
11.23999977 -5.32999992 -0.31999999 28 200 141 0.000000 0.000000 0.000000 0.000000 51.808199 0.000000 216.000000 0.206063 0.479811 0.852830
11.22999954 -5.42999983 -0.31999999 28 200 141 0.000000 0.000000 0.000000 0.000000 51.808199 0.000000 216.000000 0.556803 -0.597421 -0.577112
11.22000027 -5.55000019 -0.31999999 28 200 141 0.000000 0.000000 0.000000 0.000000 51.808199 0.000000 216.000000 -0.364928 0.016646 0.930887
11.11999989 -5.42000008 -0.31999999 28 200 141 0.000000 0.000000 0.000000 0.000000 51.808199 0.000000 216.000000 -0.217088 0.565044 0.795989
11.11999989 -5.42999983 -0.31999999 28 200 141 0.000000 0.000000 0.000000 0.000000 51.808199 0.000000 216.000000 -0.305091 0.428986 0.850229
11.17000008 -5.51000023 -0.28999999 28 200 141 0.000000 0.000000 0.000000 0.000000 51.808199 0.000000 216.000000 -0.548717 0.240938 0.800536
11.17000008 -5.50000000 -0.30000001 28 200 141 0.000000 0.000000 0.000000 0.000000 51.808199 0.000000 216.000000 -0.449658 0.197375 0.871120
11.15999985 -5.53999996 -0.28000000 28 200 141 0.000000 0.000000 0.000000 0.000000 51.808199 0.000000 216.000000 -0.538352 0.192593 0.820418
11.14000034 -5.48000002 -0.31000000 28 200 141 0.000000 0.000000 0.000000 0.000000 51.808199 0.000000 216.000000 0.753738 -0.247050 -0.608970
11.10999966 -5.44999981 -0.31999999 28 200 141 0.000000 0.000000 0.000000 0.000000 51.808199 0.000000 216.000000 0.872427 -0.088793 -0.480610
11.10999966 -5.44000006 -0.31999999 28 200 141 0.000000 0.000000 0.000000 0.000000 51.808199 0.000000 216.000000 0.512833 0.114123 -0.850869
11.22999954 -5.55999994 -0.31000000 28 200 141 0.000000 0.000000 0.000000 0.000000 51.808199 0.000000 216.000000 -0.388613 0.388613 0.835440
11.22000027 -5.59999990 -0.31999999 28 200 141 0.000000 0.000000 0.000000 0.000000 51.808199 0.000000 216.000000 0.680930 0.427871 -0.594357
11.18999958 -5.59999990 -0.31000000 28 200 141 0.000000 0.000000 0.000000 0.000000 51.808199 0.000000 216.000000 0.813685 -0.223033 -0.536817
11.18999958 -5.59000015 -0.31999999 28 200 141 0.000000 0.000000 0.000000 0.000000 51.808199 0.000000 216.000000 -0.621574 0.236417 0.746828
11.18999958 -5.61999989 -0.30000001 28 200 141 0.000000 0.000000 0.000000 0.000000 51.808199 0.000000 216.000000 0.669420 0.139901 -0.729592
11.15999985 -5.63000011 -0.30000001 28 200 141 0.000000 0.000000 0.000000 0.000000 51.808199 0.000000 216.000000 -0.473723 -0.236100 0.848436
11.13000011 -5.57000017 -0.31000000 28 200 141 0.000000 0.000000 0.000000 0.000000 51.808199 0.000000 216.000000 0.926142 -0.107754 -0.361455
11.18999958 -5.65000010 -0.31000000 28 200 141 0.000000 0.000000 0.000000 0.000000 51.808199 0.000000 216.000000 0.695389 -0.192735 -0.692306
11.10000038 -5.57999992 -0.31999999 28 200 141 0.000000 0.000000 0.000000 0.000000 51.808199 0.000000 216.000000 -0.600373 0.270881 0.752447
11.28999996 -5.26000023 -0.47000000 28 200 141 0.000000 0.000000 0.000000 0.000000 51.808199 0.000000 216.000000 0.268279 0.868498 0.416818
11.28999996 -5.26999998 -0.46000001 28 200 141 0.000000 0.000000 0.000000 0.000000 51.808199 0.000000 216.000000 0.371207 0.737508 0.564169
11.32999992 -5.36999989 -0.41000000 28 200 141 116.000000 1.000000 4.000000 4.000000 179.808199 95.000000 216.000000 -0.089324 0.857795 0.506170
11.34000015 -5.32999992 -0.47000000 28 200 141 116.000000 1.000000 4.000000 4.000000 179.808199 95.000000 216.000000 0.359994 0.837890 0.410299
11.35000038 -5.32999992 -0.46000001 28 200 141 116.000000 1.000000 4.000000 4.000000 179.808199 95.000000 216.000000 -0.039011 0.894552 0.445258
11.28999996 -5.34000015 -0.44999999 28 200 141 0.000000 0.000000 0.000000 0.000000 51.808199 0.000000 216.000000 0.143889 0.864786 0.481083
11.31000042 -5.34000015 -0.44000000 28 200 141 0.000000 0.000000 0.000000 0.000000 51.808199 0.000000 216.000000 -0.116788 0.764296 0.634203
11.32999992 -5.32999992 -0.46000001 28 200 141 0.000000 0.000000 0.000000 0.000000 51.808199 0.000000 216.000000 0.076669 0.771034 0.632161
11.32999992 -5.32999992 -0.47000000 28 200 141 116.000000 1.000000 4.000000 4.000000 179.808199 95.000000 216.000000 0.151777 0.883196 0.443766
11.31000042 -5.30999994 -0.46000001 28 200 141 0.000000 0.000000 0.000000 0.000000 51.808199 0.000000 216.000000 0.261673 0.654976 0.708896
11.30000019 -5.30999994 -0.50000000 28 200 141 0.000000 0.000000 0.000000 0.000000 51.808199 0.000000 216.000000 0.001376 0.763803 0.645448
11.46000004 -5.67000008 -0.77999997 28 200 141 116.000000 1.000000 4.000000 4.000000 179.808199 95.000000 216.000000 -0.261877 0.281911 0.923009
11.47000027 -5.69999981 -0.76999998 28 200 141 116.000000 1.000000 4.000000 4.000000 179.808199 95.000000 216.000000 -0.430626 0.420949 0.798351
11.52000046 -5.84999990 -0.88000000 28 200 141 116.000000 1.000000 4.000000 4.000000 179.808199 95.000000 216.000000 -0.494569 0.554923 0.668926
11.52000046 -5.84999990 -0.88999999 28 200 141 116.000000 1.000000 4.000000 4.000000 179.808199 95.000000 216.000000 -0.402122 0.594082 0.696681
11.51000023 -5.88999987 -0.87000000 28 200 141 116.000000 1.000000 4.000000 4.000000 179.808199 95.000000 216.000000 -0.247818 0.378405 0.891849
11.52999973 -5.90000010 -0.88999999 28 200 141 116.000000 1.000000 4.000000 4.000000 179.808199 95.000000 216.000000 0.599215 -0.592464 -0.538450
11.52999973 -5.90000010 -0.89999998 28 200 141 116.000000 1.000000 4.000000 4.000000 179.808199 95.000000 216.000000 -0.354369 0.703840 0.615656
11.50000000 -5.88000011 -0.88000000 28 200 141 116.000000 1.000000 4.000000 4.000000 179.808199 95.000000 216.000000 -0.485905 0.430279 0.760760
11.48999977 -5.88000011 -0.88999999 28 200 141 116.000000 1.000000 4.000000 4.000000 179.808199 95.000000 216.000000 -0.251637 0.713762 0.653623
11.44999981 -5.63999987 -0.77999997 28 200 141 116.000000 1.000000 4.000000 4.000000 179.808199 95.000000 216.000000 -0.530675 0.467460 0.707012
11.43000031 -5.63000011 -0.75999999 28 200 141 116.000000 1.000000 4.000000 4.000000 179.808199 95.000000 216.000000 -0.132809 0.296473 0.945762
11.38000011 -5.61000013 -0.79000002 28 200 141 116.000000 1.000000 4.000000 4.000000 179.808199 95.000000 216.000000 -0.238782 0.588371 0.772530
11.39999962 -5.71000004 -0.73000002 28 200 141 116.000000 1.000000 4.000000 4.000000 179.808199 95.000000 216.000000 -0.287289 0.678901 0.675691
11.38000011 -5.69000006 -0.76999998 28 200 141 116.000000 1.000000 4.000000 4.000000 179.808199 95.000000 216.000000 -0.503621 0.402571 0.764396
11.31000042 -5.57000017 -0.77999997 28 200 141 0.000000 0.000000 0.000000 0.000000 51.808199 0.000000 216.000000 0.633482 -0.276051 -0.722839
11.35000038 -5.71000004 -0.75999999 28 200 141 116.000000 1.000000 4.000000 4.000000 179.808199 95.000000 216.000000 0.082910 0.673464 0.734556
11.28999996 -5.71000004 -0.77999997 28 200 141 0.000000 0.000000 0.000000 0.000000 51.808199 0.000000 216.000000 -0.296729 0.627142 0.720170
11.34000015 -5.75000000 -0.75999999 28 200 141 116.000000 1.000000 4.000000 4.000000 179.808199 95.000000 216.000000 -0.270806 0.521263 0.809289
11.35999966 -5.75000000 -0.77999997 28 200 141 116.000000 1.000000 4.000000 4.000000 179.808199 95.000000 216.000000 -0.530606 0.438039 0.725658
11.31999969 -5.73999977 -0.79000002 28 200 141 0.000000 0.000000 0.000000 0.000000 51.808199 0.000000 216.000000 -0.095514 0.706807 0.700929
11.32999992 -5.73999977 -0.79000002 28 200 141 116.000000 1.000000 4.000000 4.000000 179.808199 95.000000 216.000000 -0.275801 0.652039 0.706243
11.51000023 -5.90999985 -0.89999998 28 200 141 116.000000 1.000000 4.000000 4.000000 179.808199 95.000000 216.000000 -0.073648 0.651281 0.755255
11.52000046 -5.90999985 -0.88999999 28 200 141 116.000000 1.000000 4.000000 4.000000 179.808199 95.000000 216.000000 -0.367747 0.813501 0.450530
11.51000023 -5.90999985 -0.89999998 28 200 141 116.000000 1.000000 4.000000 4.000000 179.808199 95.000000 216.000000 -0.073648 0.651281 0.755255
11.48999977 -5.92999983 -0.87000000 28 200 141 116.000000 1.000000 4.000000 4.000000 179.808199 95.000000 216.000000 -0.064772 0.726882 0.683701
11.50000000 -5.92999983 -0.86000001 28 200 141 116.000000 1.000000 4.000000 4.000000 179.808199 95.000000 216.000000 -0.413239 0.739220 0.531778
11.47000027 -5.92999983 -0.88999999 28 200 141 116.000000 1.000000 4.000000 4.000000 179.808199 95.000000 216.000000 -0.213377 0.724237 0.655707
11.50000000 -5.90999985 -0.88999999 28 200 141 116.000000 1.000000 4.000000 4.000000 179.808199 95.000000 216.000000 -0.012546 0.726298 0.687265
11.46000004 -5.98000002 -0.85000002 28 200 141 116.000000 1.000000 4.000000 4.000000 179.808199 95.000000 216.000000 -0.015301 0.655172 0.755325
11.47000027 -5.96999979 -0.88000000 28 200 141 116.000000 1.000000 4.000000 4.000000 179.808199 95.000000 216.000000 -0.026208 0.828995 0.558641
11.42000008 -5.94000006 -0.88000000 28 200 141 116.000000 1.000000 4.000000 4.000000 179.808199 95.000000 216.000000 0.086246 0.496268 0.863875
11.40999985 -5.92000008 -0.92000002 28 200 141 116.000000 1.000000 4.000000 4.000000 179.808199 95.000000 216.000000 -0.295056 0.434087 0.851182
11.25000000 -5.21000004 -0.49000001 28 200 141 0.000000 0.000000 0.000000 0.000000 51.808199 0.000000 216.000000 0.108035 0.702968 0.702968
11.23999977 -5.21000004 -0.47999999 28 200 141 0.000000 0.000000 0.000000 0.000000 51.808199 0.000000 216.000000 0.052951 0.734157 0.676912
11.25000000 -5.11000013 -0.76999998 28 200 141 0.000000 0.000000 0.000000 0.000000 51.808199 0.000000 215.000000 0.479263 0.859112 -0.179538
11.22999954 -5.09000015 -0.77999997 28 200 141 0.000000 0.000000 0.000000 0.000000 51.808199 0.000000 215.000000 0.805986 0.531608 -0.260347
11.15999985 -5.11999989 -0.75000000 28 200 141 0.000000 0.000000 0.000000 0.000000 51.808199 0.000000 215.000000 0.313130 0.842803 0.437759
11.18999958 -5.11000013 -0.80000001 28 200 141 0.000000 0.000000 0.000000 0.000000 51.808199 0.000000 215.000000 0.733967 0.647070 -0.206380
11.18999958 -5.11000013 -0.80000001 28 200 141 0.000000 0.000000 0.000000 0.000000 51.808199 0.000000 215.000000 0.733967 0.647070 -0.206380
11.13000011 -5.07999992 -0.75999999 28 200 141 0.000000 0.000000 0.000000 0.000000 51.808199 0.000000 215.000000 0.244842 0.888850 0.387295
11.14999962 -5.11000013 -0.77999997 28 200 141 0.000000 0.000000 0.000000 0.000000 51.808199 0.000000 215.000000 0.748183 0.638021 -0.182073
11.14000034 -5.19999981 -0.72000003 28 200 141 0.000000 0.000000 0.000000 0.000000 51.808199 0.000000 215.000000 0.110729 0.925476 0.362262
11.11999989 -5.17999983 -0.75000000 28 200 141 0.000000 0.000000 0.000000 0.000000 51.808199 0.000000 215.000000 0.670670 0.516029 0.532838
11.07999992 -5.07000017 -0.75000000 28 200 141 0.000000 0.000000 0.000000 0.000000 51.808199 0.000000 215.000000 0.251365 0.797812 0.548008
11.05000019 -5.07999992 -0.73000002 28 200 141 0.000000 0.000000 0.000000 0.000000 51.808199 0.000000 215.000000 0.185985 0.690143 0.699365
11.03999996 -5.11000013 -0.75000000 28 200 141 0.000000 0.000000 0.000000 0.000000 51.808199 0.000000 215.000000 0.365917 0.648148 0.667839
11.10999966 -5.07999992 -0.76999998 28 200 141 0.000000 0.000000 0.000000 0.000000 51.808199 0.000000 215.000000 0.165466 0.830309 0.532173
11.00000000 -5.15000010 -0.69999999 28 200 141 0.000000 0.000000 0.000000 0.000000 51.808199 0.000000 215.000000 0.189270 -0.672449 -0.715535
11.01000023 -5.17000008 -0.72000003 28 200 141 0.000000 0.000000 0.000000 0.000000 51.808199 0.000000 215.000000 0.390898 -0.461678 -0.796274
10.98999977 -5.13000011 -0.72000003 28 200 141 0.000000 0.000000 0.000000 0.000000 51.808199 0.000000 215.000000 -0.100244 0.388618 0.915930
11.00000000 -5.17999983 -0.74000001 28 200 141 0.000000 0.000000 0.000000 0.000000 51.808199 0.000000 215.000000 -0.094227 0.389198 0.916322
11.02000046 -5.17999983 -0.74000001 28 200 141 0.000000 0.000000 0.000000 0.000000 51.808199 0.000000 215.000000 -0.103075 0.458895 0.882491
10.97999954 -5.13000011 -0.73000002 28 200 141 0.000000 0.000000 0.000000 0.000000 51.808199 0.000000 215.000000 0.113547 0.495868 0.860942
10.89000034 -5.11999989 -0.47000000 28 200 141 0.000000 0.000000 0.000000 0.000000 51.808199 0.000000 216.000000 0.737854 -0.230286 -0.634460
10.85999966 -5.15000010 -0.47999999 28 200 141 0.000000 0.000000 0.000000 0.000000 51.808199 0.000000 216.000000 -0.749799 0.278588 0.600158
10.85999966 -5.13000011 -0.47000000 28 200 141 0.000000 0.000000 0.000000 0.000000 51.808199 0.000000 216.000000 -0.521049 0.152034 0.839877
10.85000038 -5.13000011 -0.49000001 28 200 141 0.000000 0.000000 0.000000 0.000000 51.808199 0.000000 216.000000 -0.222165 0.249763 0.942476
10.77999973 -5.15999985 -0.47000000 28 200 141 0.000000 0.000000 0.000000 0.000000 51.808199 0.000000 216.000000 0.824068 0.015083 -0.566290
10.81000042 -5.15999985 -0.47999999 28 200 141 0.000000 0.000000 0.000000 0.000000 51.808199 0.000000 216.000000 -0.308835 0.001230 0.951115
10.78999996 -5.15000010 -0.46000001 28 200 141 0.000000 0.000000 0.000000 0.000000 51.808199 0.000000 216.000000 -0.595680 0.135179 0.791765
10.81000042 -5.15999985 -0.47999999 28 200 141 0.000000 0.000000 0.000000 0.000000 51.808199 0.000000 216.000000 -0.308835 0.001230 0.951115
10.89999962 -5.11000013 -0.67000002 28 200 141 0.000000 0.000000 0.000000 0.000000 51.808199 0.000000 215.000000 -0.338284 0.564885 0.752641
10.88000011 -5.15999985 -0.67000002 28 200 141 0.000000 0.000000 0.000000 0.000000 51.808199 0.000000 215.000000 0.834985 -0.191069 -0.516036
10.77000046 -5.15000010 -0.47999999 28 200 141 0.000000 0.000000 0.000000 0.000000 51.808199 0.000000 216.000000 -0.549162 0.183054 0.815422
10.76000023 -5.15000010 -0.47999999 28 200 141 0.000000 0.000000 0.000000 0.000000 51.808199 0.000000 216.000000 -0.368500 0.250106 0.895352
10.73999977 -5.19000006 -0.41999999 28 200 141 0.000000 0.000000 0.000000 0.000000 51.808199 0.000000 216.000000 -0.592215 -0.035001 0.805020
10.72000027 -5.19000006 -0.43000001 28 200 141 0.000000 0.000000 0.000000 0.000000 51.808199 0.000000 216.000000 0.636202 0.182429 -0.749645
10.88000011 -5.03000021 -0.70999998 28 200 141 0.000000 0.000000 0.000000 0.000000 51.808199 0.000000 215.000000 0.110925 0.652239 0.749853
10.89000034 -5.00000000 -0.70999998 28 200 141 0.000000 0.000000 0.000000 0.000000 51.808199 0.000000 215.000000 -0.150804 0.432306 0.889027
10.88000011 -5.01999998 -0.72000003 28 200 141 0.000000 0.000000 0.000000 0.000000 51.808199 0.000000 215.000000 0.049721 0.768550 0.637854
10.85999966 -5.03000021 -0.73000002 28 200 141 0.000000 0.000000 0.000000 0.000000 51.808199 0.000000 215.000000 -0.102662 0.381903 0.918483
10.84000015 -5.03999996 -0.70999998 28 200 141 0.000000 0.000000 0.000000 0.000000 51.808199 0.000000 215.000000 -0.376001 0.701102 0.605870
10.86999989 -5.07999992 -0.69000000 28 200 141 0.000000 0.000000 0.000000 0.000000 51.808199 0.000000 215.000000 -0.014561 0.443456 0.896178
10.89999962 -5.11999989 -0.69999999 28 200 141 0.000000 0.000000 0.000000 0.000000 51.808199 0.000000 215.000000 -0.246498 0.336930 0.908690
10.89999962 -5.09000015 -0.68000001 28 200 141 0.000000 0.000000 0.000000 0.000000 51.808199 0.000000 215.000000 -0.220025 0.371566 0.901958
10.89000034 -5.11000013 -0.69999999 28 200 141 0.000000 0.000000 0.000000 0.000000 51.808199 0.000000 215.000000 -0.403506 0.038366 0.914172
10.88000011 -5.15999985 -0.69999999 28 200 141 0.000000 0.000000 0.000000 0.000000 51.808199 0.000000 215.000000 -0.263043 0.061670 0.962811
10.88000011 -5.19999981 -0.69000000 28 200 141 0.000000 0.000000 0.000000 0.000000 51.808199 0.000000 215.000000 -0.445878 -0.171042 0.878600
10.81000042 -5.05000019 -0.72000003 28 200 141 0.000000 0.000000 0.000000 0.000000 51.808199 0.000000 215.000000 -0.399875 0.065973 0.914192
10.85000038 -5.07000017 -0.73000002 28 200 141 0.000000 0.000000 0.000000 0.000000 51.808199 0.000000 215.000000 -0.406599 0.253562 0.877715
10.82999992 -5.17000008 -0.70999998 28 200 141 0.000000 0.000000 0.000000 0.000000 51.808199 0.000000 215.000000 -0.616179 0.091771 0.782241
10.82999992 -5.17999983 -0.69999999 28 200 141 0.000000 0.000000 0.000000 0.000000 51.808199 0.000000 215.000000 -0.421520 -0.169477 0.890841
10.82999992 -5.17999983 -0.69999999 28 200 141 0.000000 0.000000 0.000000 0.000000 51.808199 0.000000 215.000000 -0.421520 -0.169477 0.890841
10.82999992 -5.17999983 -0.69999999 28 200 141 0.000000 0.000000 0.000000 0.000000 51.808199 0.000000 215.000000 -0.421520 -0.169477 0.890841
10.77999973 -5.17000008 -0.70999998 28 200 141 0.000000 0.000000 0.000000 0.000000 51.808199 0.000000 215.000000 -0.637026 0.076559 0.767031
10.80000019 -5.21000004 -0.70999998 28 200 141 0.000000 0.000000 0.000000 0.000000 51.808199 0.000000 215.000000 0.886686 0.191993 -0.420626
10.78999996 -5.19000006 -0.69999999 28 200 141 0.000000 0.000000 0.000000 0.000000 51.808199 0.000000 215.000000 -0.441631 -0.180467 0.878860
10.78999996 -5.19999981 -0.72000003 28 200 141 0.000000 0.000000 0.000000 0.000000 51.808199 0.000000 215.000000 -0.437594 0.102059 0.893362
10.77999973 -5.19000006 -0.73000002 28 200 141 0.000000 0.000000 0.000000 0.000000 51.808199 0.000000 215.000000 -0.534252 -0.226326 0.814464
11.27999973 -5.30000019 -0.34999999 28 200 141 0.000000 0.000000 0.000000 0.000000 51.808199 0.000000 216.000000 -0.126062 0.505696 0.853452
11.26000023 -5.30000019 -0.41000000 28 200 141 0.000000 0.000000 0.000000 0.000000 51.808199 0.000000 216.000000 -0.304349 0.782384 0.543366
11.27000046 -5.26999998 -0.44000000 28 200 141 0.000000 0.000000 0.000000 0.000000 51.808199 0.000000 216.000000 -0.006945 0.698706 0.715375
11.27999973 -5.26999998 -0.44000000 28 200 141 0.000000 0.000000 0.000000 0.000000 51.808199 0.000000 216.000000 0.175858 0.643792 0.744719
11.22999954 -5.23000002 -0.46000001 28 200 141 0.000000 0.000000 0.000000 0.000000 51.808199 0.000000 216.000000 -0.096185 0.842693 0.529734
11.26000023 -5.30999994 -0.34000000 28 200 141 0.000000 0.000000 0.000000 0.000000 51.808199 0.000000 216.000000 0.413139 -0.658699 -0.628834
11.22999954 -5.34000015 -0.34000000 28 200 141 0.000000 0.000000 0.000000 0.000000 51.808199 0.000000 216.000000 -0.354468 0.619093 0.700768
11.21000004 -5.32000017 -0.33000001 28 200 141 0.000000 0.000000 0.000000 0.000000 51.808199 0.000000 216.000000 -0.372397 0.785097 0.494917
11.26000023 -5.32000017 -0.47999999 28 200 141 0.000000 0.000000 0.000000 0.000000 51.808199 0.000000 216.000000 0.232917 0.815982 0.529077
11.25000000 -5.30999994 -0.49000001 28 200 141 0.000000 0.000000 0.000000 0.000000 51.808199 0.000000 216.000000 0.017625 0.508422 0.860928
11.27999973 -5.38000011 -0.44000000 28 200 141 0.000000 0.000000 0.000000 0.000000 51.808199 0.000000 216.000000 0.405930 0.654459 0.637890
11.22000027 -5.30999994 -0.46000001 28 200 141 0.000000 0.000000 0.000000 0.000000 51.808199 0.000000 216.000000 -0.269507 0.680943 0.680943
11.23999977 -5.30999994 -0.49000001 28 200 141 0.000000 0.000000 0.000000 0.000000 51.808199 0.000000 216.000000 0.217675 0.578922 0.785791
11.21000004 -5.36999989 -0.41999999 28 200 141 0.000000 0.000000 0.000000 0.000000 51.808199 0.000000 216.000000 -0.212794 0.731575 0.647701
11.18999958 -5.26999998 -0.44999999 28 200 141 0.000000 0.000000 0.000000 0.000000 51.808199 0.000000 216.000000 -0.241516 0.826077 0.509183
11.19999981 -5.28000021 -0.44000000 28 200 141 0.000000 0.000000 0.000000 0.000000 51.808199 0.000000 216.000000 -0.158766 0.769635 0.618430
11.19999981 -5.28000021 -0.43000001 28 200 141 0.000000 0.000000 0.000000 0.000000 51.808199 0.000000 216.000000 -0.343212 0.824026 0.450763
11.19999981 -5.26000023 -0.46000001 28 200 141 0.000000 0.000000 0.000000 0.000000 51.808199 0.000000 216.000000 0.205721 -0.635724 -0.743998
11.18000031 -5.28000021 -0.46000001 28 200 141 0.000000 0.000000 0.000000 0.000000 51.808199 0.000000 216.000000 -0.219951 0.709771 0.669213
11.18000031 -5.36999989 -0.36000001 28 200 141 0.000000 0.000000 0.000000 0.000000 51.808199 0.000000 216.000000 -0.556820 0.687246 0.466525
11.17000008 -5.36999989 -0.37000000 28 200 141 0.000000 0.000000 0.000000 0.000000 51.808199 0.000000 216.000000 -0.518461 0.596145 0.613033
11.15999985 -5.36999989 -0.38999999 28 200 141 0.000000 0.000000 0.000000 0.000000 51.808199 0.000000 216.000000 -0.462456 0.251833 0.850126
11.14999962 -5.32999992 -0.41000000 28 200 141 0.000000 0.000000 0.000000 0.000000 51.808199 0.000000 216.000000 -0.323547 0.574657 0.751723
11.14000034 -5.36999989 -0.41000000 28 200 141 0.000000 0.000000 0.000000 0.000000 51.808199 0.000000 216.000000 -0.133051 0.524893 0.840705
11.13000011 -5.38000011 -0.41000000 28 200 141 0.000000 0.000000 0.000000 0.000000 51.808199 0.000000 216.000000 -0.423392 0.049732 0.904581
11.18999958 -5.32000017 -0.43000001 28 200 141 0.000000 0.000000 0.000000 0.000000 51.808199 0.000000 216.000000 -0.351462 0.787982 0.505528
11.15999985 -5.32000017 -0.43000001 28 200 141 0.000000 0.000000 0.000000 0.000000 51.808199 0.000000 216.000000 0.017659 0.514815 0.857119
11.18999958 -5.32999992 -0.46000001 28 200 141 0.000000 0.000000 0.000000 0.000000 51.808199 0.000000 216.000000 0.015361 0.730365 0.682884
11.17000008 -5.38000011 -0.43000001 28 200 141 0.000000 0.000000 0.000000 0.000000 51.808199 0.000000 216.000000 -0.453432 0.408250 0.792295
11.17000008 -5.34999990 -0.44000000 28 200 141 0.000000 0.000000 0.000000 0.000000 51.808199 0.000000 216.000000 -0.214210 0.787490 0.577904
