//X Y Z R G B PointSourceId ScanDirectionFlag NumberOfReturns ReturnNumber GpsTime Intensity Classification Nx Ny Nz
-21.14999962 4.11999989 0.15000001 23 205 141 0.000000 0.000000 0.000000 0.000000 179.808199 0.000000 189.000000 0.930003 0.177077 0.322085
-21.13999939 4.09999990 0.18000001 23 205 141 0.000000 0.000000 0.000000 0.000000 179.808199 0.000000 189.000000 0.951277 0.242217 0.190797
-21.11000061 4.07999992 0.02000000 23 205 141 0.000000 0.000000 0.000000 0.000000 179.808199 0.000000 189.000000 0.729026 0.396603 0.557877
-21.11000061 4.07000017 0.02000000 23 205 141 0.000000 0.000000 0.000000 0.000000 179.808199 0.000000 189.000000 0.910022 0.224250 0.348673
-21.11000061 4.07000017 0.02000000 23 205 141 0.000000 0.000000 0.000000 0.000000 179.808199 0.000000 189.000000 0.910022 0.224250 0.348673
-21.18000031 4.09999990 0.31999999 23 205 141 0.000000 0.000000 0.000000 0.000000 179.808199 0.000000 189.000000 0.572920 0.650205 0.498995
-21.18000031 4.07999992 0.33000001 23 205 141 0.000000 0.000000 0.000000 0.000000 179.808199 0.000000 189.000000 0.666924 0.559410 0.492213
-21.20000076 4.09000015 0.25999999 23 205 141 0.000000 0.000000 0.000000 0.000000 179.808199 0.000000 189.000000 0.858731 0.427070 0.283182
-21.19000053 4.07999992 0.25999999 23 205 141 0.000000 0.000000 0.000000 0.000000 179.808199 0.000000 189.000000 0.754409 0.488147 0.438839
-21.19000053 4.11999989 0.14000000 23 205 141 0.000000 0.000000 0.000000 0.000000 179.808199 0.000000 189.000000 0.920643 0.343650 0.185260
-21.18000031 4.11999989 0.14000000 23 205 141 0.000000 0.000000 0.000000 0.000000 179.808199 0.000000 189.000000 0.819006 0.418250 0.392805
-21.20000076 4.11000013 0.08000000 23 205 141 0.000000 0.000000 0.000000 0.000000 179.808199 0.000000 189.000000 0.902496 0.405057 0.146389
-21.18000031 4.13000011 0.02000000 23 205 141 0.000000 0.000000 0.000000 0.000000 179.808199 0.000000 189.000000 0.800580 0.305964 0.515225
-21.19000053 4.07000017 0.03000000 23 205 141 0.000000 0.000000 0.000000 0.000000 179.808199 0.000000 189.000000 0.790370 0.428319 0.438017
-21.05999947 4.07000017 -0.09000000 23 205 141 0.000000 0.000000 0.000000 0.000000 179.808199 0.000000 189.000000 0.941381 0.311993 -0.128309
-21.15999985 4.15000010 -0.14000000 23 205 141 0.000000 0.000000 0.000000 0.000000 179.808199 0.000000 189.000000 0.706855 0.464030 0.533884
-21.12000084 4.11000013 -0.02000000 23 205 141 0.000000 0.000000 0.000000 0.000000 179.808199 0.000000 189.000000 0.758422 0.437362 0.483228
-21.12999916 4.09000015 0.01000000 23 205 141 0.000000 0.000000 0.000000 0.000000 179.808199 0.000000 189.000000 0.907523 0.360404 0.215663
-21.14999962 4.11999989 -0.05000000 23 205 141 0.000000 0.000000 0.000000 0.000000 179.808199 0.000000 189.000000 0.763852 0.459620 0.453077
-21.14999962 4.07999992 -0.03000000 23 205 141 0.000000 0.000000 0.000000 0.000000 179.808199 0.000000 189.000000 0.997457 0.048212 0.052498
-21.15999985 4.07999992 -0.04000000 23 205 141 0.000000 0.000000 0.000000 0.000000 179.808199 0.000000 189.000000 0.913804 0.360675 0.186752
-21.12000084 4.11999989 -0.13000000 23 205 141 0.000000 0.000000 0.000000 0.000000 179.808199 0.000000 189.000000 0.790679 0.299476 0.533986
-21.09000015 4.07999992 -0.11000000 23 205 141 0.000000 0.000000 0.000000 0.000000 179.808199 0.000000 189.000000 0.956627 0.190792 -0.220144
-21.12000084 4.09999990 -0.08000000 23 205 141 0.000000 0.000000 0.000000 0.000000 179.808199 0.000000 189.000000 0.776735 0.394043 0.491338
-21.09000015 4.07999992 -0.08000000 23 205 141 0.000000 0.000000 0.000000 0.000000 179.808199 0.000000 189.000000 0.949782 0.258049 -0.176986
-21.13999939 4.11999989 -0.08000000 23 205 141 0.000000 0.000000 0.000000 0.000000 179.808199 0.000000 189.000000 0.965332 0.256513 0.048329
-21.17000008 4.11999989 -0.09000000 23 205 141 0.000000 0.000000 0.000000 0.000000 179.808199 0.000000 189.000000 0.810780 0.300697 0.502212
-21.15999985 4.13000011 -0.15000001 23 205 141 0.000000 0.000000 0.000000 0.000000 179.808199 0.000000 189.000000 0.717837 0.432692 0.545424
-21.07999992 4.07999992 -0.20000000 23 205 141 0.000000 0.000000 0.000000 0.000000 179.808199 0.000000 189.000000 0.948007 0.314292 0.050030
-21.04999924 4.09000015 -0.18000001 23 205 141 0.000000 0.000000 0.000000 0.000000 179.808199 0.000000 189.000000 0.885584 0.028220 0.463621
-21.07999992 4.07999992 -0.31999999 23 205 141 0.000000 0.000000 0.000000 0.000000 179.808199 0.000000 189.000000 0.954454 -0.278873 -0.106050
-21.07999992 4.07000017 -0.25999999 23 205 141 0.000000 0.000000 0.000000 0.000000 179.808199 0.000000 189.000000 0.950655 0.073724 0.301364
-21.14999962 4.15999985 -0.23999999 23 205 141 0.000000 0.000000 0.000000 0.000000 179.808199 0.000000 189.000000 0.782111 0.518730 0.345285
-21.17000008 4.15000010 -0.20999999 23 205 141 0.000000 0.000000 0.000000 0.000000 179.808199 0.000000 189.000000 0.845769 0.527362 -0.081023
-21.17000008 4.15000010 -0.28000000 23 205 141 0.000000 0.000000 0.000000 0.000000 179.808199 0.000000 189.000000 0.834389 0.488912 0.254481
-21.10000038 4.11000013 -0.23000000 23 205 141 0.000000 0.000000 0.000000 0.000000 179.808199 0.000000 189.000000 0.977584 0.172661 0.120490
-21.10000038 4.07999992 -0.18000001 23 205 141 0.000000 0.000000 0.000000 0.000000 179.808199 0.000000 189.000000 0.966270 0.132878 -0.220604
-21.15999985 4.11999989 -0.20000000 23 205 141 0.000000 0.000000 0.000000 0.000000 179.808199 0.000000 189.000000 0.879156 0.434424 -0.195859
-21.17000008 4.11999989 -0.23999999 23 205 141 0.000000 0.000000 0.000000 0.000000 179.808199 0.000000 189.000000 0.812627 0.371989 0.448621
-21.17000008 4.11999989 -0.20999999 23 205 141 0.000000 0.000000 0.000000 0.000000 179.808199 0.000000 189.000000 0.811641 0.492047 0.314847
-21.15999985 4.13000011 -0.20999999 23 205 141 0.000000 0.000000 0.000000 0.000000 179.808199 0.000000 189.000000 0.955378 0.105863 0.275766
-21.11000061 4.11000013 -0.30000001 23 205 141 0.000000 0.000000 0.000000 0.000000 179.808199 0.000000 189.000000 0.932800 0.194392 -0.303475
-21.12000084 4.09000015 -0.31999999 23 205 141 0.000000 0.000000 0.000000 0.000000 179.808199 0.000000 189.000000 0.925064 -0.014153 0.379547
-21.15999985 4.11000013 -0.28999999 23 205 141 0.000000 0.000000 0.000000 0.000000 179.808199 0.000000 189.000000 0.992402 0.076164 0.096626
-21.19000053 4.09000015 0.01000000 23 205 141 0.000000 0.000000 0.000000 0.000000 179.808199 0.000000 189.000000 0.945853 0.315284 0.077186
-21.20000076 4.13000011 -0.07000000 23 205 141 0.000000 0.000000 0.000000 0.000000 179.808199 0.000000 189.000000 0.873310 0.339875 0.349019
-21.18000031 4.13999987 -0.04000000 23 205 141 0.000000 0.000000 0.000000 0.000000 179.808199 0.000000 189.000000 0.971186 0.225076 0.078342
-21.19000053 4.11999989 -0.12000000 23 205 141 0.000000 0.000000 0.000000 0.000000 179.808199 0.000000 189.000000 0.898901 0.429429 -0.086990
-21.18000031 4.11000013 -0.08000000 23 205 141 0.000000 0.000000 0.000000 0.000000 179.808199 0.000000 189.000000 0.845141 0.174394 0.505296
-21.19000053 4.13999987 -0.08000000 23 205 141 0.000000 0.000000 0.000000 0.000000 179.808199 0.000000 189.000000 0.667845 0.574113 0.473685
-21.19000053 4.15000010 -0.25000000 23 205 141 0.000000 0.000000 0.000000 0.000000 179.808199 0.000000 189.000000 0.998159 0.034856 -0.049644
-21.20000076 4.15000010 -0.31999999 23 205 141 0.000000 0.000000 0.000000 0.000000 179.808199 0.000000 189.000000 0.944620 0.293251 0.147301
-21.20000076 4.11999989 -0.20999999 23 205 141 0.000000 0.000000 0.000000 0.000000 179.808199 0.000000 189.000000 0.922358 0.337586 0.187862
-21.19000053 4.13999987 -0.23000000 23 205 141 0.000000 0.000000 0.000000 0.000000 179.808199 0.000000 189.000000 0.975895 0.203055 0.079991
-21.07999992 4.03000021 0.30000001 23 205 141 0.000000 0.000000 0.000000 0.000000 179.808199 0.000000 189.000000 0.886686 0.191993 0.420626
-21.07999992 3.99000001 0.31999999 23 205 141 0.000000 0.000000 0.000000 0.000000 179.808199 0.000000 189.000000 0.934282 0.103809 0.341087
-21.07999992 3.99000001 0.31999999 23 205 141 0.000000 0.000000 0.000000 0.000000 179.808199 0.000000 189.000000 0.934282 0.103809 0.341087
-21.06999969 4.03999996 0.27000001 23 205 141 0.000000 0.000000 0.000000 0.000000 179.808199 0.000000 189.000000 0.976475 0.118172 0.180368
-21.06999969 4.01999998 0.20000000 23 205 141 0.000000 0.000000 0.000000 0.000000 179.808199 0.000000 189.000000 0.978333 0.173953 -0.112268
-21.06999969 4.01000023 0.19000000 23 205 141 0.000000 0.000000 0.000000 0.000000 179.808199 0.000000 189.000000 0.998393 -0.001030 0.056668
-21.04000092 3.97000003 0.20000000 23 205 141 0.000000 0.000000 0.000000 0.000000 179.808199 0.000000 189.000000 0.929678 -0.032416 0.366944
-21.01000023 3.90000010 0.23000000 23 205 141 0.000000 0.000000 0.000000 0.000000 179.808199 0.000000 189.000000 0.950769 0.079123 -0.299629
-21.11000061 4.03000021 0.25999999 23 205 141 0.000000 0.000000 0.000000 0.000000 179.808199 0.000000 189.000000 0.890184 0.166457 0.424104
-21.10000038 4.03999996 0.23000000 23 205 141 0.000000 0.000000 0.000000 0.000000 179.808199 0.000000 189.000000 0.812783 0.263647 0.519494
-21.12999916 4.03999996 0.22000000 23 205 141 0.000000 0.000000 0.000000 0.000000 179.808199 0.000000 189.000000 0.911874 0.251602 0.324319
-21.09000015 3.99000001 0.25999999 23 205 141 0.000000 0.000000 0.000000 0.000000 179.808199 0.000000 189.000000 0.757180 0.397397 0.518415
-21.04000092 3.98000002 0.17000000 23 205 141 0.000000 0.000000 0.000000 0.000000 179.808199 0.000000 189.000000 0.979369 -0.039175 0.198248
-21.04999924 4.03000021 0.17000000 23 205 141 0.000000 0.000000 0.000000 0.000000 179.808199 0.000000 189.000000 0.843867 0.174131 0.507511
-21.06999969 4.05999994 0.12000000 23 205 141 0.000000 0.000000 0.000000 0.000000 179.808199 0.000000 189.000000 0.998840 0.040536 -0.025984
-21.06999969 4.00000000 0.17000000 23 205 141 0.000000 0.000000 0.000000 0.000000 179.808199 0.000000 189.000000 0.974952 0.154734 -0.159766
-21.05999947 3.98000002 0.11000000 23 205 141 0.000000 0.000000 0.000000 0.000000 179.808199 0.000000 189.000000 0.988460 0.097322 -0.116082
-21.05999947 3.98000002 0.11000000 23 205 141 0.000000 0.000000 0.000000 0.000000 179.808199 0.000000 189.000000 0.988460 0.097322 -0.116082
-21.07999992 4.01999998 0.09000000 23 205 141 0.000000 0.000000 0.000000 0.000000 179.808199 0.000000 189.000000 0.987680 0.123903 0.095582
-21.01000023 3.94000006 0.14000000 23 205 141 0.000000 0.000000 0.000000 0.000000 179.808199 0.000000 189.000000 0.994786 -0.022931 -0.099369
-21.03000069 3.94000006 0.09000000 23 205 141 0.000000 0.000000 0.000000 0.000000 179.808199 0.000000 189.000000 0.993522 -0.086835 0.073302
-21.04000092 3.94000006 0.03000000 23 205 141 0.000000 0.000000 0.000000 0.000000 179.808199 0.000000 189.000000 0.963879 -0.212601 0.160429
-21.09000015 4.05999994 0.07000000 23 205 141 0.000000 0.000000 0.000000 0.000000 179.808199 0.000000 189.000000 0.993684 0.059375 -0.095223
-21.10000038 4.03999996 0.09000000 23 205 141 0.000000 0.000000 0.000000 0.000000 179.808199 0.000000 189.000000 0.952065 0.159347 0.261115
-21.13999939 4.05000019 0.04000000 23 205 141 0.000000 0.000000 0.000000 0.000000 179.808199 0.000000 189.000000 0.829291 0.355410 0.431231
-21.02000046 3.83999991 0.25999999 23 205 141 0.000000 0.000000 0.000000 0.000000 179.808199 0.000000 189.000000 0.960739 -0.234614 -0.148109
-21.02000046 3.83999991 0.23000000 23 205 141 0.000000 0.000000 0.000000 0.000000 179.808199 0.000000 189.000000 0.936710 -0.309486 0.163684
-21.01000023 3.79999995 0.30000001 23 205 141 0.000000 0.000000 0.000000 0.000000 179.808199 0.000000 189.000000 0.939614 -0.309568 -0.145920
-21.02000046 3.74000001 0.31999999 23 205 141 0.000000 0.000000 0.000000 0.000000 179.808199 0.000000 189.000000 0.918685 -0.255270 -0.301421
-21.04000092 3.72000003 0.19000000 23 205 141 0.000000 0.000000 0.000000 0.000000 179.808199 0.000000 189.000000 0.902136 -0.078268 -0.424292
-21.02000046 3.80999994 0.12000000 23 205 141 0.000000 0.000000 0.000000 0.000000 179.808199 0.000000 189.000000 0.877715 -0.253562 -0.406599
-21.06999969 4.03000021 0.00000000 23 205 141 0.000000 0.000000 0.000000 0.000000 179.808199 0.000000 189.000000 0.975327 0.001168 0.220763
-21.06999969 4.03999996 0.01000000 23 205 141 0.000000 0.000000 0.000000 0.000000 179.808199 0.000000 189.000000 0.970506 0.218332 -0.102225
-21.05999947 4.05000019 0.00000000 23 205 141 0.000000 0.000000 0.000000 0.000000 179.808199 0.000000 189.000000 0.999102 -0.029963 0.029963
-21.07999992 4.05000019 -0.01000000 23 205 141 0.000000 0.000000 0.000000 0.000000 179.808199 0.000000 189.000000 0.938700 0.257273 -0.229460
-21.05999947 4.05000019 -0.06000000 23 205 141 0.000000 0.000000 0.000000 0.000000 179.808199 0.000000 189.000000 0.916153 0.177549 0.359359
-21.06999969 4.01999998 -0.04000000 23 205 141 0.000000 0.000000 0.000000 0.000000 179.808199 0.000000 189.000000 0.975365 -0.098158 0.197558
-21.06999969 4.05000019 -0.03000000 23 205 141 0.000000 0.000000 0.000000 0.000000 179.808199 0.000000 189.000000 0.909844 0.227824 0.346815
-21.06999969 4.05000019 -0.03000000 23 205 141 0.000000 0.000000 0.000000 0.000000 179.808199 0.000000 189.000000 0.909844 0.227824 0.346815
-21.03000069 3.98000002 -0.11000000 23 205 141 0.000000 0.000000 0.000000 0.000000 179.808199 0.000000 189.000000 0.995076 -0.087055 -0.047385
-21.05999947 4.05000019 -0.08000000 23 205 141 0.000000 0.000000 0.000000 0.000000 179.808199 0.000000 189.000000 0.979871 0.154068 0.126952
-21.05999947 4.05000019 -0.08000000 23 205 141 0.000000 0.000000 0.000000 0.000000 179.808199 0.000000 189.000000 0.979871 0.154068 0.126952
-21.06999969 4.01000023 -0.12000000 23 205 141 0.000000 0.000000 0.000000 0.000000 179.808199 0.000000 189.000000 0.989384 0.140362 0.037658
-21.04000092 3.95000005 0.00000000 23 205 141 0.000000 0.000000 0.000000 0.000000 179.808199 0.000000 189.000000 0.906057 0.216004 -0.363872
-21.01000023 3.97000003 -0.07000000 23 205 141 0.000000 0.000000 0.000000 0.000000 179.808199 0.000000 189.000000 0.921907 0.161369 -0.352205
-21.03000069 3.89000010 -0.02000000 23 205 141 0.000000 0.000000 0.000000 0.000000 179.808199 0.000000 189.000000 0.968913 -0.018054 -0.246742
-21.02000046 3.91000009 -0.01000000 23 205 141 0.000000 0.000000 0.000000 0.000000 179.808199 0.000000 189.000000 0.990268 -0.134677 -0.035084
-21.02000046 3.90000010 -0.03000000 23 205 141 0.000000 0.000000 0.000000 0.000000 179.808199 0.000000 189.000000 0.939175 -0.341401 0.037361
-21.04000092 3.93000007 -0.03000000 23 205 141 0.000000 0.000000 0.000000 0.000000 179.808199 0.000000 189.000000 0.954982 -0.280111 0.097713
-21.02000046 3.96000004 -0.08000000 23 205 141 0.000000 0.000000 0.000000 0.000000 179.808199 0.000000 189.000000 0.998339 -0.047440 0.032681
-21.03000069 3.96000004 -0.14000000 23 205 141 0.000000 0.000000 0.000000 0.000000 179.808199 0.000000 189.000000 0.922851 -0.068310 -0.379052
-21.01000023 3.91000009 -0.10000000 23 205 141 0.000000 0.000000 0.000000 0.000000 179.808199 0.000000 189.000000 0.974273 -0.067573 -0.215003
-21.01000023 3.91000009 -0.09000000 23 205 141 0.000000 0.000000 0.000000 0.000000 179.808199 0.000000 189.000000 0.963101 -0.104154 -0.248169
-21.01000023 3.90000010 -0.09000000 23 205 141 0.000000 0.000000 0.000000 0.000000 179.808199 0.000000 189.000000 0.915956 -0.397137 -0.057498
-21.09000015 4.05000019 -0.08000000 23 205 141 0.000000 0.000000 0.000000 0.000000 179.808199 0.000000 189.000000 0.979824 0.083985 0.181359
-21.12000084 4.05000019 -0.10000000 23 205 141 0.000000 0.000000 0.000000 0.000000 179.808199 0.000000 189.000000 0.829283 0.380680 0.409113
-21.09000015 4.05999994 -0.13000000 23 205 141 0.000000 0.000000 0.000000 0.000000 179.808199 0.000000 189.000000 0.938157 0.123192 0.323549
-21.12000084 4.05999994 -0.15000001 23 205 141 0.000000 0.000000 0.000000 0.000000 179.808199 0.000000 189.000000 0.868681 0.375356 0.323266
-21.04999924 4.01999998 -0.17000000 23 205 141 0.000000 0.000000 0.000000 0.000000 179.808199 0.000000 189.000000 0.913367 -0.033045 0.405794
-21.07999992 4.05999994 -0.19000000 23 205 141 0.000000 0.000000 0.000000 0.000000 179.808199 0.000000 189.000000 0.975897 -0.174133 -0.131539
-21.06999969 4.03000021 -0.20000000 23 205 141 0.000000 0.000000 0.000000 0.000000 179.808199 0.000000 189.000000 0.932512 -0.252526 0.258169
-21.06999969 4.05999994 -0.22000000 23 205 141 0.000000 0.000000 0.000000 0.000000 179.808199 0.000000 189.000000 0.974641 0.206817 -0.085451
-21.04999924 4.00000000 -0.23999999 23 205 141 0.000000 0.000000 0.000000 0.000000 179.808199 0.000000 189.000000 0.916620 0.180482 -0.356700
-21.03000069 3.99000001 -0.28000000 23 205 141 0.000000 0.000000 0.000000 0.000000 179.808199 0.000000 189.000000 0.944563 0.039623 0.325932
-21.03000069 4.00000000 -0.28999999 23 205 141 0.000000 0.000000 0.000000 0.000000 179.808199 0.000000 189.000000 0.930047 0.162654 -0.329479
-21.05999947 4.05999994 -0.25999999 23 205 141 0.000000 0.000000 0.000000 0.000000 179.808199 0.000000 189.000000 0.988083 -0.066494 -0.138822
-21.04999924 4.03000021 -0.28999999 23 205 141 0.000000 0.000000 0.000000 0.000000 179.808199 0.000000 189.000000 0.962066 0.175041 -0.209259
-21.07999992 4.05999994 -0.30000001 23 205 141 0.000000 0.000000 0.000000 0.000000 179.808199 0.000000 189.000000 0.924629 0.145994 0.351776
-21.02000046 3.94000006 -0.18000001 23 205 141 0.000000 0.000000 0.000000 0.000000 179.808199 0.000000 189.000000 0.930372 -0.319423 0.179937
-21.02000046 3.95000005 -0.19000000 23 205 141 0.000000 0.000000 0.000000 0.000000 179.808199 0.000000 189.000000 0.907332 0.130420 -0.399675
-21.02000046 3.94000006 -0.19000000 23 205 141 0.000000 0.000000 0.000000 0.000000 179.808199 0.000000 189.000000 0.972571 -0.132796 -0.190973
-21.02000046 3.95000005 -0.20000000 23 205 141 0.000000 0.000000 0.000000 0.000000 179.808199 0.000000 189.000000 0.970442 0.094157 -0.222210
-21.02000046 3.97000003 -0.17000000 23 205 141 0.000000 0.000000 0.000000 0.000000 179.808199 0.000000 189.000000 0.986310 -0.115407 -0.117786
-21.02000046 3.96000004 -0.22000000 23 205 141 0.000000 0.000000 0.000000 0.000000 179.808199 0.000000 189.000000 0.977375 -0.008174 0.211356
-21.01000023 3.91000009 -0.16000000 23 205 141 0.000000 0.000000 0.000000 0.000000 179.808199 0.000000 189.000000 0.923771 -0.341669 -0.172943
-21.01000023 3.94000006 -0.25000000 23 205 141 0.000000 0.000000 0.000000 0.000000 179.808199 0.000000 189.000000 0.927600 -0.344221 -0.145154
-21.01000023 3.96000004 -0.31999999 23 205 141 0.000000 0.000000 0.000000 0.000000 179.808199 0.000000 189.000000 0.923142 0.046223 -0.381671
-21.03000069 3.92000008 -0.25000000 23 205 141 0.000000 0.000000 0.000000 0.000000 179.808199 0.000000 189.000000 0.892518 -0.439974 0.099169
-21.03000069 3.92000008 -0.30000001 23 205 141 0.000000 0.000000 0.000000 0.000000 179.808199 0.000000 189.000000 0.974214 -0.182744 0.132332
-21.11000061 4.05999994 -0.16000000 23 205 141 0.000000 0.000000 0.000000 0.000000 179.808199 0.000000 189.000000 0.995061 0.034010 -0.093253
-21.11000061 4.05000019 -0.23999999 23 205 141 0.000000 0.000000 0.000000 0.000000 179.808199 0.000000 189.000000 0.884956 0.151583 0.440313
-21.10000038 4.05999994 -0.19000000 23 205 141 0.000000 0.000000 0.000000 0.000000 179.808199 0.000000 189.000000 0.990221 -0.042064 0.133015
-21.11000061 4.05999994 -0.23000000 23 205 141 0.000000 0.000000 0.000000 0.000000 179.808199 0.000000 189.000000 0.932915 0.141517 0.331123
-21.10000038 4.05999994 -0.27000001 23 205 141 0.000000 0.000000 0.000000 0.000000 179.808199 0.000000 189.000000 0.997331 0.054751 -0.048310
-21.10000038 4.05999994 -0.25999999 23 205 141 0.000000 0.000000 0.000000 0.000000 179.808199 0.000000 189.000000 0.990946 0.086520 -0.102671
-21.10000038 4.05999994 -0.27000001 23 205 141 0.000000 0.000000 0.000000 0.000000 179.808199 0.000000 189.000000 0.997331 0.054751 -0.048310
-20.97999954 3.71000004 0.12000000 23 205 141 0.000000 0.000000 0.000000 0.000000 179.808199 0.000000 189.000000 0.891303 -0.039104 -0.451719
-21.00000000 3.71000004 0.14000000 23 205 141 0.000000 0.000000 0.000000 0.000000 179.808199 0.000000 189.000000 0.922481 0.090758 -0.375223
-20.98999977 3.66000009 0.12000000 23 205 141 0.000000 0.000000 0.000000 0.000000 179.808199 0.000000 189.000000 0.745368 -0.641292 -0.182133
-20.98999977 3.71000004 0.07000000 23 205 141 0.000000 0.000000 0.000000 0.000000 179.808199 0.000000 189.000000 0.885425 -0.214335 -0.412410
-20.98999977 3.65000010 0.03000000 23 205 141 0.000000 0.000000 0.000000 0.000000 179.808199 0.000000 189.000000 0.786194 -0.523596 -0.328248
-21.00000000 3.71000004 -0.01000000 23 205 141 0.000000 0.000000 0.000000 0.000000 179.808199 0.000000 189.000000 0.946044 0.058079 -0.318790
-21.00000000 3.70000005 -0.06000000 23 205 141 0.000000 0.000000 0.000000 0.000000 179.808199 0.000000 189.000000 0.870935 -0.131000 -0.473616
-20.98999977 3.66000009 -0.01000000 23 205 141 0.000000 0.000000 0.000000 0.000000 179.808199 0.000000 189.000000 0.709585 -0.550053 -0.440375
-21.00000000 3.65000010 -0.01000000 23 205 141 0.000000 0.000000 0.000000 0.000000 179.808199 0.000000 189.000000 0.810410 -0.512580 -0.283722
-20.98999977 3.66000009 -0.01000000 23 205 141 0.000000 0.000000 0.000000 0.000000 179.808199 0.000000 189.000000 0.709585 -0.550053 -0.440375
-20.97999954 3.69000006 -0.13000000 23 205 141 0.000000 0.000000 0.000000 0.000000 179.808199 0.000000 189.000000 0.928037 -0.019307 -0.371987
-20.97999954 3.69000006 -0.13000000 23 205 141 0.000000 0.000000 0.000000 0.000000 179.808199 0.000000 189.000000 0.928037 -0.019307 -0.371987
-20.98999977 3.69000006 -0.14000000 23 205 141 0.000000 0.000000 0.000000 0.000000 179.808199 0.000000 189.000000 0.905034 -0.188489 -0.381294
-21.00000000 3.65000010 -0.15000001 23 205 141 0.000000 0.000000 0.000000 0.000000 179.808199 0.000000 189.000000 -0.790494 0.396055 0.467183
-20.97999954 3.65000010 -0.14000000 23 205 141 0.000000 0.000000 0.000000 0.000000 179.808199 0.000000 189.000000 0.721022 -0.682369 -0.120418
-20.98999977 3.65000010 -0.14000000 23 205 141 0.000000 0.000000 0.000000 0.000000 179.808199 0.000000 189.000000 0.882724 -0.133052 -0.450661
-20.97999954 3.69000006 -0.20999999 23 205 141 0.000000 0.000000 0.000000 0.000000 179.808199 0.000000 189.000000 0.729807 -0.569086 -0.378844
-20.96999931 3.70000005 -0.20999999 23 205 141 0.000000 0.000000 0.000000 0.000000 179.808199 0.000000 189.000000 0.933502 -0.084135 -0.348561
-20.98999977 3.66000009 -0.17000000 23 205 141 0.000000 0.000000 0.000000 0.000000 179.808199 0.000000 189.000000 0.900059 -0.229771 -0.370268
-20.98999977 3.66000009 -0.23999999 23 205 141 0.000000 0.000000 0.000000 0.000000 179.808199 0.000000 189.000000 0.725522 -0.473167 -0.499730
-20.95999908 3.70000005 -0.30000001 23 205 141 0.000000 0.000000 0.000000 0.000000 179.808199 0.000000 189.000000 0.879074 -0.237305 -0.413419
-20.97999954 3.70000005 -0.30000001 23 205 141 0.000000 0.000000 0.000000 0.000000 179.808199 0.000000 189.000000 0.777223 -0.628244 -0.035137
-21.12000084 3.52999997 0.70999998 23 205 141 0.000000 0.000000 0.000000 0.000000 179.808199 0.000000 189.000000 0.981308 -0.110930 0.157253
-21.12000084 3.51999998 0.74000001 23 205 141 0.000000 0.000000 0.000000 0.000000 179.808199 0.000000 189.000000 0.999658 -0.015192 0.021269
-21.13999939 3.51999998 0.74000001 23 205 141 0.000000 0.000000 0.000000 0.000000 179.808199 0.000000 189.000000 0.931369 0.124092 -0.342275
-21.14999962 3.50999999 0.70999998 23 205 141 0.000000 0.000000 0.000000 0.000000 179.808199 0.000000 189.000000 0.965700 -0.097970 -0.240471
-21.15999985 3.49000001 0.75999999 23 205 141 0.000000 0.000000 0.000000 0.000000 179.808199 0.000000 189.000000 0.933250 -0.279273 0.225945
-21.15999985 3.49000001 0.75999999 23 205 141 0.000000 0.000000 0.000000 0.000000 179.808199 0.000000 189.000000 0.933250 -0.279273 0.225945
-21.17000008 3.46000004 0.75999999 23 205 141 0.000000 0.000000 0.000000 0.000000 179.808199 0.000000 189.000000 0.982791 -0.184632 -0.005734
-21.13999939 3.47000003 0.72000003 23 205 141 0.000000 0.000000 0.000000 0.000000 179.808199 0.000000 189.000000 0.925314 -0.295131 -0.238101
-21.14999962 3.47000003 0.70999998 23 205 141 0.000000 0.000000 0.000000 0.000000 179.808199 0.000000 189.000000 0.925874 0.006403 -0.377777
-21.13999939 3.49000001 0.72000003 23 205 141 0.000000 0.000000 0.000000 0.000000 179.808199 0.000000 189.000000 0.842530 -0.213279 -0.494627
-21.13999939 3.49000001 0.72000003 23 205 141 0.000000 0.000000 0.000000 0.000000 179.808199 0.000000 189.000000 0.842530 -0.213279 -0.494627
-21.18000031 3.48000002 0.75000000 23 205 141 0.000000 0.000000 0.000000 0.000000 179.808199 0.000000 189.000000 0.983163 -0.060630 0.172380
-21.18000031 3.49000001 0.70999998 23 205 141 0.000000 0.000000 0.000000 0.000000 179.808199 0.000000 189.000000 0.918475 -0.325263 0.224962
-21.19000053 3.45000005 0.74000001 23 205 141 0.000000 0.000000 0.000000 0.000000 179.808199 0.000000 189.000000 -0.847889 0.435570 0.302264
-21.03000069 3.70000005 0.55000001 23 205 141 0.000000 0.000000 0.000000 0.000000 179.808199 0.000000 189.000000 0.925434 0.093492 -0.367193
-21.03000069 3.66000009 0.56000000 23 205 141 0.000000 0.000000 0.000000 0.000000 179.808199 0.000000 189.000000 0.908461 -0.175970 -0.379122
-21.04999924 3.65000010 0.54000002 23 205 141 0.000000 0.000000 0.000000 0.000000 179.808199 0.000000 189.000000 0.964572 -0.033176 -0.261725
-21.04000092 3.68000007 0.50999999 23 205 141 0.000000 0.000000 0.000000 0.000000 179.808199 0.000000 189.000000 0.941315 0.335175 0.039810
-21.04999924 3.67000008 0.49000001 23 205 141 0.000000 0.000000 0.000000 0.000000 179.808199 0.000000 189.000000 0.974395 0.224313 0.015429
-21.04000092 3.65000010 0.44000000 23 205 141 0.000000 0.000000 0.000000 0.000000 179.808199 0.000000 189.000000 0.848329 -0.423389 -0.317930
-21.05999947 3.67000008 0.43000001 23 205 141 0.000000 0.000000 0.000000 0.000000 179.808199 0.000000 189.000000 0.944193 0.110533 0.310292
-21.06999969 3.58999991 0.38000000 23 205 141 0.000000 0.000000 0.000000 0.000000 179.808199 0.000000 189.000000 0.969750 -0.073447 -0.232790
-21.05999947 3.59999990 0.36000001 23 205 141 0.000000 0.000000 0.000000 0.000000 179.808199 0.000000 189.000000 0.946193 -0.181070 -0.268202
-21.06999969 3.58999991 0.36000001 23 205 141 0.000000 0.000000 0.000000 0.000000 179.808199 0.000000 189.000000 0.994673 0.087602 -0.054336
-21.12000084 3.53999996 0.68000001 23 205 141 0.000000 0.000000 0.000000 0.000000 179.808199 0.000000 189.000000 0.987914 0.037864 -0.150310
-21.12000084 3.53999996 0.69000000 23 205 141 0.000000 0.000000 0.000000 0.000000 179.808199 0.000000 189.000000 0.948828 -0.169192 -0.266646
-21.11000061 3.51999998 0.62000000 23 205 141 0.000000 0.000000 0.000000 0.000000 179.808199 0.000000 189.000000 0.919118 -0.198073 -0.340572
-21.14999962 3.51999998 0.66000003 23 205 141 0.000000 0.000000 0.000000 0.000000 179.808199 0.000000 189.000000 0.977124 -0.202708 -0.064332
-21.14999962 3.49000001 0.69999999 23 205 141 0.000000 0.000000 0.000000 0.000000 179.808199 0.000000 189.000000 0.959579 -0.273258 -0.067361
-21.14999962 3.49000001 0.67000002 23 205 141 0.000000 0.000000 0.000000 0.000000 179.808199 0.000000 189.000000 0.968809 -0.196850 -0.150532
-21.14999962 3.49000001 0.68000001 23 205 141 0.000000 0.000000 0.000000 0.000000 179.808199 0.000000 189.000000 0.977562 -0.174697 0.117704
-21.14999962 3.50000000 0.69000000 23 205 141 0.000000 0.000000 0.000000 0.000000 179.808199 0.000000 189.000000 0.948308 -0.138155 0.285700
-21.14999962 3.48000002 0.66000003 23 205 141 0.000000 0.000000 0.000000 0.000000 179.808199 0.000000 189.000000 0.919632 -0.043666 -0.390347
-21.12000084 3.52999997 0.57999998 23 205 141 0.000000 0.000000 0.000000 0.000000 179.808199 0.000000 189.000000 0.995177 -0.087064 -0.045185
-21.10000038 3.52999997 0.57999998 23 205 141 0.000000 0.000000 0.000000 0.000000 179.808199 0.000000 189.000000 0.951548 -0.145468 0.270917
-21.12000084 3.50999999 0.61000001 23 205 141 0.000000 0.000000 0.000000 0.000000 179.808199 0.000000 189.000000 0.824283 -0.323094 -0.464940
-21.15999985 3.46000004 0.60000002 23 205 141 0.000000 0.000000 0.000000 0.000000 179.808199 0.000000 189.000000 -0.643202 0.589462 0.488699
-21.15999985 3.46000004 0.60000002 23 205 141 0.000000 0.000000 0.000000 0.000000 179.808199 0.000000 189.000000 -0.643202 0.589462 0.488699
-21.14999962 3.50000000 0.55000001 23 205 141 0.000000 0.000000 0.000000 0.000000 179.808199 0.000000 189.000000 0.962797 -0.267098 -0.040997
-21.17000008 3.50999999 0.50000000 23 205 141 0.000000 0.000000 0.000000 0.000000 179.808199 0.000000 189.000000 0.877412 -0.329980 -0.348227
-21.13999939 3.50999999 0.46000001 23 205 141 0.000000 0.000000 0.000000 0.000000 179.808199 0.000000 189.000000 0.728898 -0.381648 -0.568377
-21.13999939 3.50000000 0.49000001 23 205 141 0.000000 0.000000 0.000000 0.000000 179.808199 0.000000 189.000000 0.964162 -0.020722 -0.264505
-21.14999962 3.48000002 0.51999998 23 205 141 0.000000 0.000000 0.000000 0.000000 179.808199 0.000000 189.000000 0.961873 -0.263022 0.074968
-21.14999962 3.50000000 0.50000000 23 205 141 0.000000 0.000000 0.000000 0.000000 179.808199 0.000000 189.000000 0.773781 -0.483817 -0.408882
-21.14999962 3.49000001 0.46000001 23 205 141 0.000000 0.000000 0.000000 0.000000 179.808199 0.000000 189.000000 0.832753 -0.284848 -0.474747
-21.12999916 3.51999998 0.41999999 23 205 141 0.000000 0.000000 0.000000 0.000000 179.808199 0.000000 189.000000 0.863827 -0.236686 -0.444728
-21.12000084 3.51999998 0.44000000 23 205 141 0.000000 0.000000 0.000000 0.000000 179.808199 0.000000 189.000000 0.842897 -0.272747 -0.463825
-21.11000061 3.51999998 0.40000001 23 205 141 0.000000 0.000000 0.000000 0.000000 179.808199 0.000000 189.000000 0.862055 -0.249981 -0.440875
-21.12999916 3.52999997 0.41999999 23 205 141 0.000000 0.000000 0.000000 0.000000 179.808199 0.000000 189.000000 0.903980 -0.119129 -0.410645
-21.12000084 3.51999998 0.43000001 23 205 141 0.000000 0.000000 0.000000 0.000000 179.808199 0.000000 189.000000 0.897548 -0.277424 -0.342700
-21.12000084 3.51999998 0.44000000 23 205 141 0.000000 0.000000 0.000000 0.000000 179.808199 0.000000 189.000000 0.842897 -0.272747 -0.463825
-21.11000061 3.51999998 0.40000001 23 205 141 0.000000 0.000000 0.000000 0.000000 179.808199 0.000000 189.000000 0.862055 -0.249981 -0.440875
-21.12999916 3.53999996 0.43000001 23 205 141 0.000000 0.000000 0.000000 0.000000 179.808199 0.000000 189.000000 0.756031 -0.480515 -0.444435
-21.12000084 3.50999999 0.44000000 23 205 141 0.000000 0.000000 0.000000 0.000000 179.808199 0.000000 189.000000 0.976680 -0.020077 -0.213759
-21.12000084 3.50999999 0.36000001 23 205 141 0.000000 0.000000 0.000000 0.000000 179.808199 0.000000 189.000000 0.797595 -0.295347 -0.525939
-21.11000061 3.50999999 0.37000000 23 205 141 0.000000 0.000000 0.000000 0.000000 179.808199 0.000000 189.000000 -0.659396 0.662669 0.355059
-21.11000061 3.50999999 0.37000000 23 205 141 0.000000 0.000000 0.000000 0.000000 179.808199 0.000000 189.000000 -0.659396 0.662669 0.355059
-21.12000084 3.50999999 0.37000000 23 205 141 0.000000 0.000000 0.000000 0.000000 179.808199 0.000000 189.000000 -0.613595 0.701953 0.361612
-21.13999939 3.50000000 0.43000001 23 205 141 0.000000 0.000000 0.000000 0.000000 179.808199 0.000000 189.000000 0.776882 -0.336166 -0.532397
-21.14999962 3.50000000 0.43000001 23 205 141 0.000000 0.000000 0.000000 0.000000 179.808199 0.000000 189.000000 -0.721125 0.587038 0.367921
-21.14999962 3.49000001 0.41999999 23 205 141 0.000000 0.000000 0.000000 0.000000 179.808199 0.000000 189.000000 0.942012 -0.323693 -0.088520
-21.20999908 3.49000001 0.69999999 23 205 141 0.000000 0.000000 0.000000 0.000000 179.808199 0.000000 189.000000 0.888460 -0.397663 -0.229137
-21.21999931 3.46000004 0.63999999 23 205 141 0.000000 0.000000 0.000000 0.000000 179.808199 0.000000 189.000000 0.874781 -0.433665 0.216087
-21.26000023 3.43000007 0.69000000 23 205 141 0.000000 0.000000 0.000000 0.000000 179.808199 0.000000 189.000000 0.969874 -0.178560 -0.165714
-21.26000023 3.39000010 0.64999998 23 205 141 0.000000 0.000000 0.000000 0.000000 179.808199 0.000000 189.000000 0.785478 -0.577877 -0.221545
-21.26000023 3.41000009 0.52999997 23 205 141 0.000000 0.000000 0.000000 0.000000 179.808199 0.000000 189.000000 0.792708 -0.466584 -0.392318
-21.27000046 3.44000006 0.64999998 23 205 141 0.000000 0.000000 0.000000 0.000000 179.808199 0.000000 189.000000 0.937304 -0.341437 -0.069869
-21.31999969 3.43000007 0.66000003 23 205 141 0.000000 0.000000 0.000000 0.000000 179.808199 0.000000 189.000000 -0.532247 0.760120 0.372735
-21.28000069 3.41000009 0.57999998 23 205 141 0.000000 0.000000 0.000000 0.000000 179.808199 0.000000 189.000000 -0.693599 0.402254 0.597588
-21.29000092 3.40000010 0.52999997 23 205 141 0.000000 0.000000 0.000000 0.000000 179.808199 0.000000 189.000000 -0.712559 0.611464 0.344050
-21.34000015 3.40000010 0.55000001 23 205 141 0.000000 0.000000 0.000000 0.000000 179.808199 0.000000 189.000000 0.748906 -0.635109 -0.189149
-21.18000031 3.46000004 0.47999999 23 205 141 0.000000 0.000000 0.000000 0.000000 179.808199 0.000000 189.000000 0.927996 -0.245855 -0.279962
-21.22999954 3.50000000 0.50000000 23 205 141 0.000000 0.000000 0.000000 0.000000 179.808199 0.000000 189.000000 0.941495 -0.156689 -0.298390
-21.26000023 3.48000002 0.41999999 23 205 141 0.000000 0.000000 0.000000 0.000000 179.808199 0.000000 189.000000 0.572731 -0.565973 -0.593004
-21.19000053 3.47000003 0.40000001 23 205 141 0.000000 0.000000 0.000000 0.000000 179.808199 0.000000 189.000000 -0.464636 0.788423 0.403116
-21.18000031 3.45000005 0.47999999 23 205 141 0.000000 0.000000 0.000000 0.000000 179.808199 0.000000 189.000000 0.869041 -0.226641 -0.439774
-21.20999908 3.43000007 0.46000001 23 205 141 0.000000 0.000000 0.000000 0.000000 179.808199 0.000000 189.000000 0.917969 -0.395291 0.032832
-21.21999931 3.42000008 0.50000000 23 205 141 0.000000 0.000000 0.000000 0.000000 179.808199 0.000000 189.000000 -0.453524 0.761331 0.463348
-21.22999954 3.44000006 0.47000000 23 205 141 0.000000 0.000000 0.000000 0.000000 179.808199 0.000000 189.000000 -0.625759 0.548171 0.554918
-21.25000000 3.40000010 0.44999999 23 205 141 0.000000 0.000000 0.000000 0.000000 179.808199 0.000000 189.000000 -0.595513 0.719510 0.357308
-21.25000000 3.44000006 0.40000001 23 205 141 0.000000 0.000000 0.000000 0.000000 179.808199 0.000000 189.000000 0.732627 -0.548235 -0.403356
-21.25000000 3.44000006 0.43000001 23 205 141 0.000000 0.000000 0.000000 0.000000 179.808199 0.000000 189.000000 0.865035 -0.498471 -0.056928
-21.25000000 3.44000006 0.40000001 23 205 141 0.000000 0.000000 0.000000 0.000000 179.808199 0.000000 189.000000 0.732627 -0.548235 -0.403356
-21.22999954 3.42000008 0.38999999 23 205 141 0.000000 0.000000 0.000000 0.000000 179.808199 0.000000 189.000000 0.699421 -0.426963 -0.573160
-21.29999924 3.44000006 0.50000000 23 205 141 0.000000 0.000000 0.000000 0.000000 179.808199 0.000000 189.000000 0.791159 -0.609349 -0.052555
-21.27000046 3.43000007 0.47000000 23 205 141 0.000000 0.000000 0.000000 0.000000 179.808199 0.000000 189.000000 0.759035 -0.580062 -0.295624
-21.31999969 3.40000010 0.49000001 23 205 141 0.000000 0.000000 0.000000 0.000000 179.808199 0.000000 189.000000 -0.588486 0.725419 0.357004
-21.31999969 3.41000009 0.37000000 23 205 141 0.000000 0.000000 0.000000 0.000000 179.808199 0.000000 189.000000 0.415635 -0.803989 -0.425264
-21.02000046 3.66000009 0.28000000 23 205 141 0.000000 0.000000 0.000000 0.000000 179.808199 0.000000 189.000000 0.849594 -0.282170 -0.445613
-21.04999924 3.64000010 0.30000001 23 205 141 0.000000 0.000000 0.000000 0.000000 179.808199 0.000000 189.000000 0.953102 0.098056 -0.286323
-21.05999947 3.65000010 0.28000000 23 205 141 0.000000 0.000000 0.000000 0.000000 179.808199 0.000000 189.000000 0.792458 -0.358455 -0.493478
-21.02000046 3.65000010 0.23999999 23 205 141 0.000000 0.000000 0.000000 0.000000 179.808199 0.000000 189.000000 0.910660 0.011725 -0.412989
-21.06999969 3.58999991 0.34999999 23 205 141 0.000000 0.000000 0.000000 0.000000 179.808199 0.000000 189.000000 0.996033 0.024874 -0.085436
-21.06999969 3.58999991 0.34999999 23 205 141 0.000000 0.000000 0.000000 0.000000 179.808199 0.000000 189.000000 0.996033 0.024874 -0.085436
-21.05999947 3.61999989 0.34999999 23 205 141 0.000000 0.000000 0.000000 0.000000 179.808199 0.000000 189.000000 0.952941 0.028801 -0.301785
-21.06999969 3.60999990 0.31000000 23 205 141 0.000000 0.000000 0.000000 0.000000 179.808199 0.000000 189.000000 0.889428 -0.102572 -0.445417
-21.05999947 3.63000011 0.28000000 23 205 141 0.000000 0.000000 0.000000 0.000000 179.808199 0.000000 189.000000 0.953562 0.117058 -0.277519
-21.06999969 3.57999992 0.34999999 23 205 141 0.000000 0.000000 0.000000 0.000000 179.808199 0.000000 189.000000 0.990568 0.035094 -0.132453
-21.06999969 3.56999993 0.31000000 23 205 141 0.000000 0.000000 0.000000 0.000000 179.808199 0.000000 189.000000 0.951381 -0.047123 -0.304391
-21.04999924 3.61999989 0.20999999 23 205 141 0.000000 0.000000 0.000000 0.000000 179.808199 0.000000 189.000000 0.977134 0.001162 -0.212622
-21.04999924 3.61999989 0.20999999 23 205 141 0.000000 0.000000 0.000000 0.000000 179.808199 0.000000 189.000000 0.977134 0.001162 -0.212622
-21.05999947 3.57999992 0.27000001 23 205 141 0.000000 0.000000 0.000000 0.000000 179.808199 0.000000 189.000000 0.982022 0.031603 -0.186104
-21.05999947 3.56999993 0.23999999 23 205 141 0.000000 0.000000 0.000000 0.000000 179.808199 0.000000 189.000000 0.993369 -0.108145 -0.039021
-21.10000038 3.54999995 0.27000001 23 205 141 0.000000 0.000000 0.000000 0.000000 179.808199 0.000000 189.000000 0.823440 -0.325912 -0.464464
-21.01000023 3.66000009 0.16000000 23 205 141 0.000000 0.000000 0.000000 0.000000 179.808199 0.000000 189.000000 0.793821 -0.498744 -0.347998
-21.04000092 3.64000010 0.16000000 23 205 141 0.000000 0.000000 0.000000 0.000000 179.808199 0.000000 189.000000 0.738930 -0.494273 -0.457905
-21.04000092 3.61999989 0.18000001 23 205 141 0.000000 0.000000 0.000000 0.000000 179.808199 0.000000 189.000000 0.888465 -0.197599 -0.414227
-21.04000092 3.61999989 0.18000001 23 205 141 0.000000 0.000000 0.000000 0.000000 179.808199 0.000000 189.000000 0.888465 -0.197599 -0.414227
-21.03000069 3.60999990 0.13000000 23 205 141 0.000000 0.000000 0.000000 0.000000 179.808199 0.000000 189.000000 0.812487 -0.479890 -0.331013
-21.04999924 3.60999990 0.10000000 23 205 141 0.000000 0.000000 0.000000 0.000000 179.808199 0.000000 189.000000 0.989446 -0.058745 -0.132464
-21.03000069 3.58999991 0.02000000 23 205 141 0.000000 0.000000 0.000000 0.000000 179.808199 0.000000 189.000000 0.880826 -0.309725 -0.358072
-21.04000092 3.57999992 0.05000000 23 205 141 0.000000 0.000000 0.000000 0.000000 179.808199 0.000000 189.000000 0.812487 -0.331013 -0.479890
-21.04999924 3.55999994 0.07000000 23 205 141 0.000000 0.000000 0.000000 0.000000 179.808199 0.000000 189.000000 0.987609 -0.126253 -0.093215
-21.04999924 3.55999994 0.07000000 23 205 141 0.000000 0.000000 0.000000 0.000000 179.808199 0.000000 189.000000 0.987609 -0.126253 -0.093215
-21.12000084 3.53999996 0.34000000 23 205 141 0.000000 0.000000 0.000000 0.000000 179.808199 0.000000 189.000000 0.958964 -0.156969 -0.236113
-21.10000038 3.52999997 0.33000001 23 205 141 0.000000 0.000000 0.000000 0.000000 179.808199 0.000000 189.000000 0.705592 -0.552852 -0.443278
-21.11000061 3.52999997 0.31000000 23 205 141 0.000000 0.000000 0.000000 0.000000 179.808199 0.000000 189.000000 0.631071 -0.624376 -0.460331
-21.14999962 3.48000002 0.34999999 23 205 141 0.000000 0.000000 0.000000 0.000000 179.808199 0.000000 189.000000 -0.493155 0.725618 0.479871
-21.15999985 3.48000002 0.34000000 23 205 141 0.000000 0.000000 0.000000 0.000000 179.808199 0.000000 189.000000 -0.501947 0.748806 0.432826
-21.14999962 3.47000003 0.31999999 23 205 141 0.000000 0.000000 0.000000 0.000000 179.808199 0.000000 189.000000 0.494917 -0.785097 -0.372397
-21.17000008 3.47000003 0.28999999 23 205 141 0.000000 0.000000 0.000000 0.000000 179.808199 0.000000 189.000000 0.831565 -0.495237 -0.251475
-21.12999916 3.50999999 0.23000000 23 205 141 0.000000 0.000000 0.000000 0.000000 179.808199 0.000000 189.000000 0.724302 -0.442537 -0.528724
-21.10000038 3.53999996 0.25000000 23 205 141 0.000000 0.000000 0.000000 0.000000 179.808199 0.000000 189.000000 0.902859 -0.322555 -0.284261
-21.12000084 3.50999999 0.23999999 23 205 141 0.000000 0.000000 0.000000 0.000000 179.808199 0.000000 189.000000 0.836686 -0.326855 -0.439456
-21.14999962 3.50999999 0.27000001 23 205 141 0.000000 0.000000 0.000000 0.000000 179.808199 0.000000 189.000000 0.786598 -0.361931 -0.500270
-21.15999985 3.51999998 0.25999999 23 205 141 0.000000 0.000000 0.000000 0.000000 179.808199 0.000000 189.000000 0.834251 -0.350354 -0.425767
-21.17000008 3.44000006 0.31000000 23 205 141 0.000000 0.000000 0.000000 0.000000 179.808199 0.000000 189.000000 0.917945 -0.396706 0.001284
-21.06999969 3.53999996 0.10000000 23 205 141 0.000000 0.000000 0.000000 0.000000 179.808199 0.000000 189.000000 -0.768760 0.461909 0.442322
-21.07999992 3.52999997 0.16000000 23 205 141 0.000000 0.000000 0.000000 0.000000 179.808199 0.000000 189.000000 -0.751644 0.411030 0.515834
-21.11000061 3.50000000 0.08000000 23 205 141 0.000000 0.000000 0.000000 0.000000 179.808199 0.000000 189.000000 0.719745 -0.564925 -0.403518
-21.12999916 3.47000003 0.06000000 23 205 141 0.000000 0.000000 0.000000 0.000000 179.808199 0.000000 189.000000 0.767738 -0.396094 -0.503675
-21.11000061 3.48000002 0.03000000 23 205 141 0.000000 0.000000 0.000000 0.000000 179.808199 0.000000 189.000000 0.791495 -0.432166 -0.432166
-21.10000038 3.50000000 0.05000000 23 205 141 0.000000 0.000000 0.000000 0.000000 179.808199 0.000000 189.000000 0.894931 -0.375959 -0.240319
-21.11000061 3.49000001 0.03000000 23 205 141 0.000000 0.000000 0.000000 0.000000 179.808199 0.000000 189.000000 0.851038 -0.410792 -0.327084
-21.14999962 3.50000000 0.09000000 23 205 141 0.000000 0.000000 0.000000 0.000000 179.808199 0.000000 189.000000 0.860229 -0.463893 -0.211680
-21.15999985 3.45000005 0.03000000 23 205 141 0.000000 0.000000 0.000000 0.000000 179.808199 0.000000 189.000000 -0.685820 0.426770 0.589507
-21.15999985 3.43000007 0.08000000 23 205 141 0.000000 0.000000 0.000000 0.000000 179.808199 0.000000 189.000000 0.853455 -0.481475 -0.199490
-21.23999977 3.44000006 0.34000000 23 205 141 0.000000 0.000000 0.000000 0.000000 179.808199 0.000000 189.000000 0.812713 -0.575972 -0.088056
-21.20000076 3.43000007 0.27000001 23 205 141 0.000000 0.000000 0.000000 0.000000 179.808199 0.000000 189.000000 -0.687800 0.476941 0.547228
-21.20000076 3.44000006 0.19000000 23 205 141 0.000000 0.000000 0.000000 0.000000 179.808199 0.000000 189.000000 -0.566650 0.676971 0.469701
-21.20000076 3.44000006 0.19000000 23 205 141 0.000000 0.000000 0.000000 0.000000 179.808199 0.000000 189.000000 -0.566650 0.676971 0.469701
-21.27000046 3.43000007 0.34999999 23 205 141 0.000000 0.000000 0.000000 0.000000 179.808199 0.000000 189.000000 0.773920 -0.623558 -0.110560
-21.27000046 3.43000007 0.34999999 23 205 141 0.000000 0.000000 0.000000 0.000000 179.808199 0.000000 189.000000 0.773920 -0.623558 -0.110560
-21.28000069 3.41000009 0.34999999 23 205 141 0.000000 0.000000 0.000000 0.000000 179.808199 0.000000 189.000000 -0.722908 0.609701 0.325066
-21.30999947 3.38000011 0.34999999 23 205 141 0.000000 0.000000 0.000000 0.000000 179.808199 0.000000 189.000000 -0.314601 0.784106 0.534981
-21.27000046 3.42000008 0.23999999 23 205 141 0.000000 0.000000 0.000000 0.000000 179.808199 0.000000 189.000000 -0.457156 0.737721 0.496765
-21.28000069 3.41000009 0.23999999 23 205 141 0.000000 0.000000 0.000000 0.000000 179.808199 0.000000 189.000000 -0.361048 0.730264 0.579964
-21.32999992 3.41000009 0.25999999 23 205 141 0.000000 0.000000 0.000000 0.000000 179.808199 0.000000 189.000000 -0.552271 0.723722 0.413791
-21.32999992 3.38000011 0.19000000 23 205 141 0.000000 0.000000 0.000000 0.000000 179.808199 0.000000 189.000000 0.395763 -0.667333 -0.630903
-21.18000031 3.46000004 0.15000001 23 205 141 0.000000 0.000000 0.000000 0.000000 179.808199 0.000000 189.000000 0.849594 -0.445613 -0.282170
-21.19000053 3.46000004 0.12000000 23 205 141 0.000000 0.000000 0.000000 0.000000 179.808199 0.000000 189.000000 0.867459 -0.480639 -0.128459
-21.19000053 3.46000004 0.12000000 23 205 141 0.000000 0.000000 0.000000 0.000000 179.808199 0.000000 189.000000 0.867459 -0.480639 -0.128459
-21.19000053 3.44000006 0.14000000 23 205 141 0.000000 0.000000 0.000000 0.000000 179.808199 0.000000 189.000000 0.711085 -0.603197 -0.361264
-21.20000076 3.44000006 0.11000000 23 205 141 0.000000 0.000000 0.000000 0.000000 179.808199 0.000000 189.000000 0.354414 -0.768706 -0.532430
-21.22999954 3.43000007 0.11000000 23 205 141 0.000000 0.000000 0.000000 0.000000 179.808199 0.000000 189.000000 0.786896 -0.592825 -0.171328
-21.25000000 3.39000010 0.11000000 23 205 141 0.000000 0.000000 0.000000 0.000000 179.808199 0.000000 189.000000 -0.261716 0.825411 0.500202
-21.19000053 3.42000008 0.06000000 23 205 141 0.000000 0.000000 0.000000 0.000000 179.808199 0.000000 189.000000 0.573879 -0.567107 -0.590807
-21.20000076 3.43000007 0.03000000 23 205 141 0.000000 0.000000 0.000000 0.000000 179.808199 0.000000 189.000000 -0.359500 0.778649 0.514263
-21.21999931 3.41000009 0.08000000 23 205 141 0.000000 0.000000 0.000000 0.000000 179.808199 0.000000 189.000000 0.704864 -0.504903 -0.498237
-21.28000069 3.39000010 0.10000000 23 205 141 0.000000 0.000000 0.000000 0.000000 179.808199 0.000000 189.000000 -0.157335 0.908575 0.386959
-21.31999969 3.40000010 0.10000000 23 205 141 0.000000 0.000000 0.000000 0.000000 179.808199 0.000000 189.000000 -0.464727 0.645920 0.605654
-21.29999924 3.39000010 0.02000000 23 205 141 0.000000 0.000000 0.000000 0.000000 179.808199 0.000000 189.000000 -0.171070 0.846424 0.504284
-21.29000092 3.40000010 0.02000000 23 205 141 0.000000 0.000000 0.000000 0.000000 179.808199 0.000000 189.000000 -0.044321 0.901202 0.431127
-21.29000092 3.40000010 0.02000000 23 205 141 0.000000 0.000000 0.000000 0.000000 179.808199 0.000000 189.000000 -0.044321 0.901202 0.431127
-21.32999992 3.39000010 0.06000000 23 205 141 0.000000 0.000000 0.000000 0.000000 179.808199 0.000000 189.000000 -0.636528 0.725420 0.261913
-21.01000023 3.66000009 -0.06000000 23 205 141 0.000000 0.000000 0.000000 0.000000 179.808199 0.000000 189.000000 -0.681980 0.715247 0.152727
-21.01000023 3.66000009 -0.05000000 23 205 141 0.000000 0.000000 0.000000 0.000000 179.808199 0.000000 189.000000 0.738986 -0.657713 -0.145991
-21.04000092 3.60999990 -0.02000000 23 205 141 0.000000 0.000000 0.000000 0.000000 179.808199 0.000000 189.000000 0.877700 -0.148934 -0.455479
-21.03000069 3.63000011 -0.01000000 23 205 141 0.000000 0.000000 0.000000 0.000000 179.808199 0.000000 189.000000 0.680044 -0.683229 -0.265966
-21.02000046 3.58999991 -0.02000000 23 205 141 0.000000 0.000000 0.000000 0.000000 179.808199 0.000000 189.000000 0.701430 -0.551481 -0.451514
-21.03000069 3.61999989 -0.04000000 23 205 141 0.000000 0.000000 0.000000 0.000000 179.808199 0.000000 189.000000 0.778054 -0.417453 -0.469431
-21.03000069 3.59999990 -0.07000000 23 205 141 0.000000 0.000000 0.000000 0.000000 179.808199 0.000000 189.000000 0.817280 -0.357064 -0.452281
-21.04999924 3.58999991 -0.05000000 23 205 141 0.000000 0.000000 0.000000 0.000000 179.808199 0.000000 189.000000 0.825280 -0.232062 -0.514840
-21.05999947 3.55999994 -0.05000000 23 205 141 0.000000 0.000000 0.000000 0.000000 179.808199 0.000000 189.000000 0.866281 -0.272521 -0.418677
-21.04999924 3.54999995 -0.10000000 23 205 141 0.000000 0.000000 0.000000 0.000000 179.808199 0.000000 189.000000 0.731886 -0.427897 -0.530328
-21.01000023 3.68000007 -0.19000000 23 205 141 0.000000 0.000000 0.000000 0.000000 179.808199 0.000000 189.000000 -0.656658 0.747738 0.098425
