//X Y Z R G B PointSourceId ScanDirectionFlag NumberOfReturns ReturnNumber GpsTime Intensity Classification Nx Ny Nz
10.44999981 -8.69999981 -0.12000000 150 79 141 0.000000 0.000000 0.000000 0.000000 51.808199 0.000000 202.000000 -0.430143 0.163657 0.887803
10.59000015 -8.68999958 -0.23999999 150 79 141 0.000000 0.000000 0.000000 0.000000 51.808199 0.000000 202.000000 0.625355 -0.110357 -0.772498
10.52999973 -8.68999958 -0.28999999 150 79 141 0.000000 0.000000 0.000000 0.000000 51.808199 0.000000 202.000000 -0.533549 0.752189 0.386700
10.57999992 -8.68000031 -0.25000000 150 79 141 0.000000 0.000000 0.000000 0.000000 51.808199 0.000000 202.000000 -0.621843 0.188856 0.760030
10.56000042 -8.80000019 -0.20000000 150 79 141 0.000000 0.000000 0.000000 0.000000 51.808199 0.000000 202.000000 0.859991 -0.110550 -0.498192
10.56000042 -8.81000042 -0.19000000 150 79 141 0.000000 0.000000 0.000000 0.000000 51.808199 0.000000 202.000000 0.701495 -0.009724 -0.712608
10.57999992 -8.81999969 -0.23999999 150 79 141 0.000000 0.000000 0.000000 0.000000 51.808199 0.000000 202.000000 0.754175 -0.104379 -0.648325
10.56000042 -8.80000019 -0.20999999 150 79 141 0.000000 0.000000 0.000000 0.000000 51.808199 0.000000 202.000000 0.920114 -0.111404 -0.375472
10.52999973 -8.76000023 -0.22000000 150 79 141 0.000000 0.000000 0.000000 0.000000 51.808199 0.000000 202.000000 0.732531 0.182749 -0.655745
10.55000019 -8.78999996 -0.22000000 150 79 141 0.000000 0.000000 0.000000 0.000000 51.808199 0.000000 202.000000 0.847558 0.282519 -0.449252
10.53999996 -8.77999973 -0.23999999 150 79 141 0.000000 0.000000 0.000000 0.000000 51.808199 0.000000 202.000000 -0.504938 0.200468 0.839554
10.55000019 -8.78999996 -0.22000000 150 79 141 0.000000 0.000000 0.000000 0.000000 51.808199 0.000000 202.000000 0.847558 0.282519 -0.449252
10.55000019 -8.81999969 -0.20999999 150 79 141 0.000000 0.000000 0.000000 0.000000 51.808199 0.000000 202.000000 0.880115 -0.076471 -0.468561
10.56999969 -8.77000046 -0.28000000 150 79 141 0.000000 0.000000 0.000000 0.000000 51.808199 0.000000 202.000000 -0.633391 -0.095082 0.767968
10.56999969 -8.76000023 -0.31999999 150 79 141 0.000000 0.000000 0.000000 0.000000 51.808199 0.000000 202.000000 0.710737 -0.419153 -0.564945
10.56999969 -8.78999996 -0.25000000 150 79 141 0.000000 0.000000 0.000000 0.000000 51.808199 0.000000 202.000000 -0.387984 0.009023 0.921622
10.53999996 -8.77000046 -0.27000001 150 79 141 0.000000 0.000000 0.000000 0.000000 51.808199 0.000000 202.000000 0.722689 0.268427 -0.636920
10.55000019 -8.73999977 -0.25999999 150 79 141 0.000000 0.000000 0.000000 0.000000 51.808199 0.000000 202.000000 0.901588 -0.122368 -0.414927
10.55000019 -8.77000046 -0.25999999 150 79 141 0.000000 0.000000 0.000000 0.000000 51.808199 0.000000 202.000000 -0.370367 0.082154 0.925245
10.52999973 -8.77999973 -0.25000000 150 79 141 0.000000 0.000000 0.000000 0.000000 51.808199 0.000000 202.000000 0.661273 -0.315277 -0.680675
10.55000019 -8.80000019 -0.28000000 150 79 141 0.000000 0.000000 0.000000 0.000000 51.808199 0.000000 202.000000 -0.592854 0.109788 0.797791
10.48999977 -8.80000019 -0.20999999 150 79 141 0.000000 0.000000 0.000000 0.000000 51.808199 0.000000 202.000000 0.846529 -0.226450 -0.481777
10.47000027 -8.76000023 -0.19000000 150 79 141 0.000000 0.000000 0.000000 0.000000 51.808199 0.000000 202.000000 0.865260 0.188487 -0.464539
10.59000015 -8.84000015 -0.11000000 150 79 141 0.000000 0.000000 0.000000 0.000000 51.808199 0.000000 202.000000 0.672983 0.488374 -0.555504
10.57999992 -8.85000038 -0.12000000 150 79 141 0.000000 0.000000 0.000000 0.000000 51.808199 0.000000 202.000000 -0.337548 -0.045265 0.940219
10.56999969 -8.85999966 -0.12000000 150 79 141 0.000000 0.000000 0.000000 0.000000 51.808199 0.000000 202.000000 0.639622 -0.046802 -0.767263
10.55000019 -8.82999992 -0.08000000 150 79 141 0.000000 0.000000 0.000000 0.000000 51.808199 0.000000 202.000000 0.808959 0.389262 -0.440522
10.52000046 -8.85000038 -0.17000000 150 79 141 0.000000 0.000000 0.000000 0.000000 51.808199 0.000000 202.000000 0.645867 0.524450 -0.554804
10.60000038 -8.84000015 -0.28999999 150 79 141 0.000000 0.000000 0.000000 0.000000 51.808199 0.000000 202.000000 0.816823 0.266051 -0.511876
10.60000038 -8.84000015 -0.30000001 150 79 141 0.000000 0.000000 0.000000 0.000000 51.808199 0.000000 202.000000 0.890231 0.257112 -0.376008
10.52999973 -8.93999958 -0.22000000 150 79 141 0.000000 0.000000 0.000000 0.000000 51.808199 0.000000 202.000000 -0.415191 -0.187929 0.890112
10.52999973 -8.94999981 -0.22000000 150 79 141 0.000000 0.000000 0.000000 0.000000 51.808199 0.000000 202.000000 0.625652 0.537960 -0.564942
10.50000000 -8.93000031 -0.23000000 150 79 141 0.000000 0.000000 0.000000 0.000000 51.808199 0.000000 202.000000 0.813345 0.286786 -0.506186
10.39000034 -8.78999996 -0.19000000 150 79 141 0.000000 0.000000 0.000000 0.000000 51.808199 0.000000 202.000000 0.906778 -0.001297 -0.421606
10.40999985 -8.72000027 -0.19000000 150 79 141 0.000000 0.000000 0.000000 0.000000 51.808199 0.000000 202.000000 0.647753 -0.556899 -0.519885
11.51000023 -8.30000019 -0.34999999 150 79 141 116.000000 1.000000 4.000000 4.000000 179.808199 95.000000 202.000000 0.548146 0.531280 -0.645970
11.52999973 -8.31999969 -0.33000001 150 79 141 116.000000 1.000000 4.000000 4.000000 179.808199 95.000000 202.000000 0.416788 0.592802 -0.689111
11.50000000 -8.32999992 -0.33000001 150 79 141 116.000000 1.000000 4.000000 4.000000 179.808199 95.000000 202.000000 0.569905 0.613874 -0.546230
11.46000004 -8.34000015 -0.40000001 150 79 141 116.000000 1.000000 4.000000 4.000000 179.808199 95.000000 202.000000 -0.222624 -0.431802 0.874063
11.39999962 -8.39000034 -0.38999999 150 79 141 116.000000 1.000000 4.000000 4.000000 179.808199 95.000000 202.000000 0.619245 0.545003 -0.565251
11.43000031 -8.39999962 -0.38999999 150 79 141 116.000000 1.000000 4.000000 4.000000 179.808199 95.000000 202.000000 0.762926 0.316413 -0.563762
11.43000031 -8.39999962 -0.38999999 150 79 141 116.000000 1.000000 4.000000 4.000000 179.808199 95.000000 202.000000 0.762926 0.316413 -0.563762
11.39999962 -8.43999958 -0.50000000 150 79 141 116.000000 1.000000 4.000000 4.000000 179.808199 95.000000 202.000000 0.626931 0.392039 -0.673248
11.39999962 -8.44999981 -0.50000000 150 79 141 116.000000 1.000000 4.000000 4.000000 179.808199 95.000000 202.000000 -0.514477 -0.174475 0.839567
11.38000011 -8.46000004 -0.50000000 150 79 141 116.000000 1.000000 4.000000 4.000000 179.808199 95.000000 202.000000 0.692854 0.058814 -0.718675
11.38000011 -8.46000004 -0.50000000 150 79 141 116.000000 1.000000 4.000000 4.000000 179.808199 95.000000 202.000000 0.692854 0.058814 -0.718675
11.38000011 -8.46000004 -0.50000000 150 79 141 116.000000 1.000000 4.000000 4.000000 179.808199 95.000000 202.000000 0.692854 0.058814 -0.718675
11.39000034 -8.50000000 -0.37000000 150 79 141 116.000000 1.000000 4.000000 4.000000 179.808199 95.000000 202.000000 0.703624 0.408930 -0.581111
11.38000011 -8.53999996 -0.41999999 150 79 141 116.000000 1.000000 4.000000 4.000000 179.808199 95.000000 202.000000 -0.282552 -0.305976 0.909144
11.38000011 -8.53999996 -0.41999999 150 79 141 116.000000 1.000000 4.000000 4.000000 179.808199 95.000000 202.000000 -0.282552 -0.305976 0.909144
11.35999966 -8.52000046 -0.49000001 150 79 141 116.000000 1.000000 4.000000 4.000000 179.808199 95.000000 202.000000 -0.501802 -0.174216 0.847256
11.35999966 -8.53999996 -0.51999998 150 79 141 116.000000 1.000000 4.000000 4.000000 179.808199 95.000000 202.000000 -0.622140 -0.032301 0.782239
11.34000015 -8.52999973 -0.62000000 150 79 141 116.000000 1.000000 4.000000 4.000000 179.808199 95.000000 202.000000 -0.359012 -0.076073 0.930228
11.35000038 -8.56999969 -0.54000002 150 79 141 116.000000 1.000000 4.000000 4.000000 179.808199 95.000000 202.000000 -0.447089 -0.414808 0.792493
11.36999989 -8.63000011 -0.55000001 150 79 141 116.000000 1.000000 4.000000 4.000000 179.808199 95.000000 202.000000 0.717366 -0.146494 -0.681121
11.35999966 -8.63000011 -0.56000000 150 79 141 116.000000 1.000000 4.000000 4.000000 179.808199 95.000000 202.000000 -0.530727 0.111351 0.840197
11.35000038 -8.60999966 -0.66000003 150 79 141 116.000000 1.000000 4.000000 4.000000 179.808199 95.000000 202.000000 0.629232 0.175210 -0.757211
11.47999954 -8.65999985 -0.37000000 150 79 141 116.000000 1.000000 4.000000 4.000000 179.808199 95.000000 202.000000 -0.643833 0.004136 0.765155
11.47000027 -8.72999954 -0.44999999 150 79 141 116.000000 1.000000 4.000000 4.000000 179.808199 95.000000 202.000000 0.648602 0.129720 -0.749992
11.42000008 -8.67000008 -0.44999999 150 79 141 116.000000 1.000000 4.000000 4.000000 179.808199 95.000000 202.000000 -0.672512 -0.199435 0.712708
11.43999958 -8.68000031 -0.44000000 150 79 141 116.000000 1.000000 4.000000 4.000000 179.808199 95.000000 202.000000 -0.448899 -0.161255 0.878912
11.42000008 -8.72000027 -0.47999999 150 79 141 116.000000 1.000000 4.000000 4.000000 179.808199 95.000000 202.000000 0.630762 -0.355520 -0.689742
11.43000031 -8.72000027 -0.55000001 150 79 141 116.000000 1.000000 4.000000 4.000000 179.808199 95.000000 202.000000 0.764258 0.158905 -0.625027
11.42000008 -8.73999977 -0.58999997 150 79 141 116.000000 1.000000 4.000000 4.000000 179.808199 95.000000 202.000000 0.704605 -0.251758 -0.663437
11.34000015 -8.68000031 -0.50999999 150 79 141 116.000000 1.000000 4.000000 4.000000 179.808199 95.000000 202.000000 0.742569 -0.169251 -0.648032
11.32999992 -8.65999985 -0.66000003 150 79 141 0.000000 0.000000 0.000000 0.000000 51.808199 0.000000 202.000000 -0.578289 -0.274093 0.768411
10.47999954 -8.64000034 -0.81000000 150 79 141 0.000000 0.000000 0.000000 0.000000 51.808199 0.000000 202.000000 -0.001259 0.935342 -0.353743
10.47000027 -8.64000034 -0.79000002 150 79 141 0.000000 0.000000 0.000000 0.000000 51.808199 0.000000 202.000000 -0.292097 0.946286 -0.138645
10.44999981 -8.56999969 -0.86000001 150 79 141 0.000000 0.000000 0.000000 0.000000 51.808199 0.000000 202.000000 -0.021960 0.983577 -0.179147
10.46000004 -8.60999966 -0.91000003 150 79 141 0.000000 0.000000 0.000000 0.000000 51.808199 0.000000 202.000000 0.089316 -0.704281 0.704281
10.44999981 -8.61999989 -0.92000002 150 79 141 0.000000 0.000000 0.000000 0.000000 51.808199 0.000000 202.000000 0.024879 0.915302 -0.402000
10.38000011 -8.60000038 -0.76999998 150 79 141 0.000000 0.000000 0.000000 0.000000 51.808199 0.000000 202.000000 0.137693 0.919345 -0.368572
10.38000011 -8.60999966 -0.77999997 150 79 141 0.000000 0.000000 0.000000 0.000000 51.808199 0.000000 202.000000 -0.092974 0.928397 -0.359771
10.36999989 -8.61999989 -0.81000000 150 79 141 0.000000 0.000000 0.000000 0.000000 51.808199 0.000000 202.000000 -0.071230 0.968481 -0.238684
10.34000015 -8.59000015 -0.81000000 150 79 141 0.000000 0.000000 0.000000 0.000000 51.808199 0.000000 202.000000 -0.441986 0.864362 -0.239849
10.39000034 -8.64000034 -0.93000001 150 79 141 0.000000 0.000000 0.000000 0.000000 51.808199 0.000000 202.000000 0.321133 0.848599 -0.420421
10.39000034 -8.64000034 -0.93000001 150 79 141 0.000000 0.000000 0.000000 0.000000 51.808199 0.000000 202.000000 0.321133 0.848599 -0.420421
10.35000038 -8.56999969 -0.86000001 150 79 141 0.000000 0.000000 0.000000 0.000000 51.808199 0.000000 202.000000 -0.264237 0.962127 -0.067008
10.42000008 -8.64000034 -0.94999999 150 79 141 0.000000 0.000000 0.000000 0.000000 51.808199 0.000000 202.000000 -0.152293 -0.640838 0.752419
10.40999985 -8.64000034 -0.94999999 150 79 141 0.000000 0.000000 0.000000 0.000000 51.808199 0.000000 202.000000 -0.078530 0.988074 -0.132446
10.38000011 -8.64000034 -0.98000002 150 79 141 0.000000 0.000000 0.000000 0.000000 51.808199 0.000000 202.000000 0.457630 0.700590 -0.547492
10.18999958 -8.63000011 -0.37000000 150 79 141 0.000000 0.000000 0.000000 0.000000 51.808199 0.000000 202.000000 0.884140 -0.410229 -0.223627
10.19999981 -8.56999969 -0.34000000 150 79 141 0.000000 0.000000 0.000000 0.000000 51.808199 0.000000 202.000000 0.735996 -0.671870 -0.083073
10.39000034 -8.63000011 -1.04999995 150 79 141 0.000000 0.000000 0.000000 0.000000 51.808199 0.000000 202.000000 0.579627 0.646830 -0.495623
10.39999962 -8.63000011 -1.11000001 150 79 141 0.000000 0.000000 0.000000 0.000000 51.808199 0.000000 202.000000 0.559391 0.656822 -0.505635
10.39999962 -8.63000011 -1.16999996 150 79 141 0.000000 0.000000 0.000000 0.000000 51.808199 0.000000 202.000000 -0.113993 -0.643985 0.756498
10.35000038 -8.64000034 -1.11000001 150 79 141 0.000000 0.000000 0.000000 0.000000 51.808199 0.000000 202.000000 0.031350 0.954300 -0.297200
10.35000038 -8.64000034 -1.11000001 150 79 141 0.000000 0.000000 0.000000 0.000000 51.808199 0.000000 202.000000 0.031350 0.954300 -0.297200
10.39000034 -8.56000042 -1.35000002 150 79 141 0.000000 0.000000 0.000000 0.000000 51.808199 0.000000 202.000000 0.433076 0.813416 -0.388330
10.36999989 -8.55000019 -1.32000005 150 79 141 0.000000 0.000000 0.000000 0.000000 51.808199 0.000000 202.000000 0.635374 0.457671 -0.621963
10.42000008 -8.57999992 -1.25000000 150 79 141 0.000000 0.000000 0.000000 0.000000 51.808199 0.000000 202.000000 0.093208 0.928023 -0.360673
10.40999985 -8.63000011 -1.21000004 150 79 141 0.000000 0.000000 0.000000 0.000000 51.808199 0.000000 202.000000 0.459150 0.794250 -0.397930
10.40999985 -8.59000015 -1.30999994 150 79 141 0.000000 0.000000 0.000000 0.000000 51.808199 0.000000 202.000000 0.359815 0.801188 -0.478154
10.39999962 -8.57999992 -1.36000001 150 79 141 0.000000 0.000000 0.000000 0.000000 51.808199 0.000000 202.000000 0.689089 0.568957 -0.448825
10.35000038 -8.60000038 -1.35000002 150 79 141 0.000000 0.000000 0.000000 0.000000 51.808199 0.000000 202.000000 0.623551 0.424015 -0.656807
10.35999966 -8.56999969 -1.33000004 150 79 141 0.000000 0.000000 0.000000 0.000000 51.808199 0.000000 202.000000 0.311191 0.813519 -0.491271
10.31000042 -8.63000011 -1.30999994 150 79 141 0.000000 0.000000 0.000000 0.000000 51.808199 0.000000 202.000000 0.068550 0.860374 -0.505032
10.32999992 -8.61999989 -1.36000001 150 79 141 0.000000 0.000000 0.000000 0.000000 51.808199 0.000000 202.000000 0.387769 0.857418 -0.338333
10.35999966 -8.55000019 -1.38000000 150 79 141 0.000000 0.000000 0.000000 0.000000 51.808199 0.000000 202.000000 0.569018 0.726441 -0.385358
10.35000038 -8.60000038 -1.39999998 150 79 141 0.000000 0.000000 0.000000 0.000000 51.808199 0.000000 202.000000 0.168777 0.895819 -0.411124
10.35999966 -8.60000038 -1.39999998 150 79 141 0.000000 0.000000 0.000000 0.000000 51.808199 0.000000 202.000000 -0.446124 -0.306225 0.840952
10.35999966 -8.60000038 -1.39999998 150 79 141 0.000000 0.000000 0.000000 0.000000 51.808199 0.000000 202.000000 -0.446124 -0.306225 0.840952
11.00000000 -8.80000019 -0.41000000 150 79 141 0.000000 0.000000 0.000000 0.000000 51.808199 0.000000 202.000000 0.916351 0.046549 -0.397662
10.98999977 -8.80000019 -0.41000000 150 79 141 0.000000 0.000000 0.000000 0.000000 51.808199 0.000000 202.000000 0.725785 0.133185 -0.674905
10.98999977 -8.76000023 -0.43000001 150 79 141 0.000000 0.000000 0.000000 0.000000 51.808199 0.000000 202.000000 -0.549447 0.090379 0.830626
10.97999954 -8.73999977 -0.43000001 150 79 141 0.000000 0.000000 0.000000 0.000000 51.808199 0.000000 202.000000 -0.620028 -0.325393 0.713922
10.94999981 -8.77000046 -0.44000000 150 79 141 0.000000 0.000000 0.000000 0.000000 51.808199 0.000000 202.000000 0.674165 0.308790 -0.670932
10.97000027 -8.73999977 -0.44000000 150 79 141 0.000000 0.000000 0.000000 0.000000 51.808199 0.000000 202.000000 -0.609125 -0.212341 0.764119
10.96000004 -8.77000046 -0.43000001 150 79 141 0.000000 0.000000 0.000000 0.000000 51.808199 0.000000 202.000000 0.747135 0.178762 -0.640183
10.97999954 -8.76000023 -0.50000000 150 79 141 0.000000 0.000000 0.000000 0.000000 51.808199 0.000000 202.000000 0.772270 0.079690 -0.630277
10.97000027 -8.81999969 -0.44000000 150 79 141 0.000000 0.000000 0.000000 0.000000 51.808199 0.000000 202.000000 0.879546 0.059187 -0.472119
10.96000004 -8.77999973 -0.49000001 150 79 141 0.000000 0.000000 0.000000 0.000000 51.808199 0.000000 202.000000 -0.811095 0.189508 0.553364
10.98999977 -8.69999981 -0.67000002 150 79 141 0.000000 0.000000 0.000000 0.000000 51.808199 0.000000 202.000000 0.786240 0.358551 -0.503258
10.96000004 -8.71000004 -0.58999997 150 79 141 0.000000 0.000000 0.000000 0.000000 51.808199 0.000000 202.000000 0.683750 0.237348 -0.690037
10.98999977 -8.81999969 -0.52999997 150 79 141 0.000000 0.000000 0.000000 0.000000 51.808199 0.000000 202.000000 0.776466 -0.363212 -0.514954
10.98999977 -8.77999973 -0.60000002 150 79 141 0.000000 0.000000 0.000000 0.000000 51.808199 0.000000 202.000000 0.674455 -0.261847 -0.690324
11.00000000 -8.81000042 -0.62000000 150 79 141 0.000000 0.000000 0.000000 0.000000 51.808199 0.000000 202.000000 0.728826 -0.189525 -0.657946
10.98999977 -8.77999973 -0.60000002 150 79 141 0.000000 0.000000 0.000000 0.000000 51.808199 0.000000 202.000000 0.674455 -0.261847 -0.690324
11.02999973 -8.89000034 -0.34000000 150 79 141 0.000000 0.000000 0.000000 0.000000 51.808199 0.000000 202.000000 0.694388 -0.394201 -0.602023
11.02999973 -8.90999985 -0.34000000 150 79 141 0.000000 0.000000 0.000000 0.000000 51.808199 0.000000 202.000000 -0.414688 0.855582 0.309860
11.02999973 -8.90999985 -0.34000000 150 79 141 0.000000 0.000000 0.000000 0.000000 51.808199 0.000000 202.000000 -0.414688 0.855582 0.309860
10.97999954 -8.86999989 -0.37000000 150 79 141 0.000000 0.000000 0.000000 0.000000 51.808199 0.000000 202.000000 0.656956 -0.600120 -0.456359
11.01000023 -8.89000034 -0.43000001 150 79 141 0.000000 0.000000 0.000000 0.000000 51.808199 0.000000 202.000000 0.820487 -0.372949 -0.433255
11.00000000 -8.89999962 -0.41999999 150 79 141 0.000000 0.000000 0.000000 0.000000 51.808199 0.000000 202.000000 0.597588 -0.402254 -0.693599
10.97999954 -8.82999992 -0.43000001 150 79 141 0.000000 0.000000 0.000000 0.000000 51.808199 0.000000 202.000000 0.482788 -0.496060 -0.721693
10.97999954 -8.84000015 -0.41999999 150 79 141 0.000000 0.000000 0.000000 0.000000 51.808199 0.000000 202.000000 0.903788 -0.110014 -0.413598
10.96000004 -8.86999989 -0.43000001 150 79 141 0.000000 0.000000 0.000000 0.000000 51.808199 0.000000 202.000000 0.743796 -0.621141 -0.246884
11.00000000 -8.93000031 -0.37000000 150 79 141 0.000000 0.000000 0.000000 0.000000 51.808199 0.000000 202.000000 0.700589 -0.584653 -0.409091
11.00000000 -8.93999958 -0.34000000 150 79 141 0.000000 0.000000 0.000000 0.000000 51.808199 0.000000 202.000000 -0.187862 0.922358 0.337586
10.98999977 -8.93000031 -0.37000000 150 79 141 0.000000 0.000000 0.000000 0.000000 51.808199 0.000000 202.000000 0.689089 -0.448825 -0.568957
10.98999977 -8.93000031 -0.38000000 150 79 141 0.000000 0.000000 0.000000 0.000000 51.808199 0.000000 202.000000 0.828539 -0.427684 -0.361401
10.97000027 -8.93000031 -0.36000001 150 79 141 0.000000 0.000000 0.000000 0.000000 51.808199 0.000000 202.000000 -0.481422 0.672649 0.561939
11.00000000 -8.93000031 -0.44000000 150 79 141 0.000000 0.000000 0.000000 0.000000 51.808199 0.000000 202.000000 0.720172 -0.534748 -0.442037
11.00000000 -8.93000031 -0.44999999 150 79 141 0.000000 0.000000 0.000000 0.000000 51.808199 0.000000 202.000000 0.789380 -0.379355 -0.482668
10.98999977 -8.93999958 -0.46000001 150 79 141 0.000000 0.000000 0.000000 0.000000 51.808199 0.000000 202.000000 0.875341 -0.430960 -0.219208
10.98999977 -8.94999981 -0.44999999 150 79 141 0.000000 0.000000 0.000000 0.000000 51.808199 0.000000 202.000000 -0.655160 0.588136 0.474195
10.94999981 -8.92000008 -0.44000000 150 79 141 0.000000 0.000000 0.000000 0.000000 51.808199 0.000000 202.000000 -0.577185 0.594111 0.560259
10.97000027 -8.94999981 -0.46000001 150 79 141 0.000000 0.000000 0.000000 0.000000 51.808199 0.000000 202.000000 0.699638 -0.583859 -0.411844
11.00000000 -8.82999992 -0.51999998 150 79 141 0.000000 0.000000 0.000000 0.000000 51.808199 0.000000 202.000000 0.670601 -0.355796 -0.650926
10.97999954 -8.86999989 -0.50999999 150 79 141 0.000000 0.000000 0.000000 0.000000 51.808199 0.000000 202.000000 0.914455 -0.217453 -0.341301
10.98999977 -8.85999966 -0.62000000 150 79 141 0.000000 0.000000 0.000000 0.000000 51.808199 0.000000 202.000000 0.871705 -0.312959 -0.377077
11.02000046 -8.85000038 -0.66000003 150 79 141 0.000000 0.000000 0.000000 0.000000 51.808199 0.000000 202.000000 -0.644811 0.547164 0.533695
10.98999977 -8.86999989 -0.62000000 150 79 141 0.000000 0.000000 0.000000 0.000000 51.808199 0.000000 202.000000 0.770130 -0.263010 -0.581141
10.98999977 -8.89000034 -0.60000002 150 79 141 0.000000 0.000000 0.000000 0.000000 51.808199 0.000000 202.000000 0.910458 -0.302512 -0.282052
10.98999977 -8.86999989 -0.66000003 150 79 141 0.000000 0.000000 0.000000 0.000000 51.808199 0.000000 202.000000 -0.674187 0.139642 0.725239
10.98999977 -8.86999989 -0.67000002 150 79 141 0.000000 0.000000 0.000000 0.000000 51.808199 0.000000 202.000000 0.712287 -0.251117 -0.655430
10.97999954 -8.89999962 -0.60000002 150 79 141 0.000000 0.000000 0.000000 0.000000 51.808199 0.000000 202.000000 -0.675563 0.477756 0.561572
10.98999977 -8.94999981 -0.56000000 150 79 141 0.000000 0.000000 0.000000 0.000000 51.808199 0.000000 202.000000 0.793821 -0.347998 -0.498744
10.97000027 -8.93000031 -0.54000002 150 79 141 0.000000 0.000000 0.000000 0.000000 51.808199 0.000000 202.000000 0.635026 -0.638359 -0.435018
10.94999981 -8.92000008 -0.63999999 150 79 141 0.000000 0.000000 0.000000 0.000000 51.808199 0.000000 202.000000 -0.478694 0.458954 0.748474
10.96000004 -8.97000027 -0.58999997 150 79 141 0.000000 0.000000 0.000000 0.000000 51.808199 0.000000 202.000000 -0.596336 0.565928 0.569306
10.97000027 -8.98999977 -0.63999999 150 79 141 0.000000 0.000000 0.000000 0.000000 51.808199 0.000000 202.000000 0.929582 -0.247606 -0.273073
10.96000004 -8.96000004 -0.67000002 150 79 141 0.000000 0.000000 0.000000 0.000000 51.808199 0.000000 202.000000 0.760451 -0.423563 -0.492249
10.96000004 -8.97999954 -0.67000002 150 79 141 0.000000 0.000000 0.000000 0.000000 51.808199 0.000000 202.000000 0.706002 -0.492365 -0.509056
11.01000023 -8.73999977 -0.82999998 150 79 141 0.000000 0.000000 0.000000 0.000000 51.808199 0.000000 202.000000 0.514618 0.528028 -0.675541
11.02000046 -8.81999969 -0.83999997 150 79 141 0.000000 0.000000 0.000000 0.000000 51.808199 0.000000 202.000000 0.749175 -0.240302 -0.617245
10.98999977 -8.67000008 -0.88000000 150 79 141 0.000000 0.000000 0.000000 0.000000 51.808199 0.000000 202.000000 0.726468 0.534508 -0.431909
10.96000004 -8.68999958 -0.86000001 150 79 141 0.000000 0.000000 0.000000 0.000000 51.808199 0.000000 202.000000 0.403726 0.478310 -0.779888
11.03999996 -8.85000038 -0.75999999 150 79 141 0.000000 0.000000 0.000000 0.000000 51.808199 0.000000 202.000000 -0.500910 0.322809 0.803046
11.03999996 -8.84000015 -0.75999999 150 79 141 0.000000 0.000000 0.000000 0.000000 51.808199 0.000000 202.000000 -0.492518 0.107069 0.863691
11.03999996 -8.84000015 -0.75999999 150 79 141 0.000000 0.000000 0.000000 0.000000 51.808199 0.000000 202.000000 -0.492518 0.107069 0.863691
11.00000000 -8.88000011 -0.70999998 150 79 141 0.000000 0.000000 0.000000 0.000000 51.808199 0.000000 202.000000 0.777725 -0.391298 -0.491964
10.97999954 -8.88000011 -0.68000001 150 79 141 0.000000 0.000000 0.000000 0.000000 51.808199 0.000000 202.000000 0.854040 -0.327046 -0.404545
10.97000027 -8.86999989 -0.75000000 150 79 141 0.000000 0.000000 0.000000 0.000000 51.808199 0.000000 202.000000 -0.637367 0.456696 0.620638
10.97999954 -8.89999962 -0.72000003 150 79 141 0.000000 0.000000 0.000000 0.000000 51.808199 0.000000 202.000000 0.920602 -0.242717 -0.305910
10.98999977 -8.86999989 -0.77999997 150 79 141 0.000000 0.000000 0.000000 0.000000 51.808199 0.000000 202.000000 0.712527 -0.258668 -0.652224
10.97999954 -8.88000011 -0.79000002 150 79 141 0.000000 0.000000 0.000000 0.000000 51.808199 0.000000 202.000000 0.720733 -0.432440 -0.541793
10.98999977 -8.97999954 -0.70999998 150 79 141 0.000000 0.000000 0.000000 0.000000 51.808199 0.000000 202.000000 0.782530 -0.471462 -0.406657
10.97000027 -8.97999954 -0.70999998 150 79 141 0.000000 0.000000 0.000000 0.000000 51.808199 0.000000 202.000000 -0.557256 0.251311 0.791397
10.97999954 -8.97000027 -0.73000002 150 79 141 0.000000 0.000000 0.000000 0.000000 51.808199 0.000000 202.000000 0.868249 -0.233238 -0.437886
10.96000004 -8.92000008 -0.79000002 150 79 141 0.000000 0.000000 0.000000 0.000000 51.808199 0.000000 202.000000 -0.630034 -0.097940 0.770367
10.97999954 -8.97999954 -0.79000002 150 79 141 0.000000 0.000000 0.000000 0.000000 51.808199 0.000000 202.000000 0.714473 -0.504628 -0.484643
11.01000023 -8.86999989 -0.85000002 150 79 141 0.000000 0.000000 0.000000 0.000000 51.808199 0.000000 202.000000 0.820984 -0.385878 -0.420814
10.97999954 -8.93000031 -0.95999998 150 79 141 0.000000 0.000000 0.000000 0.000000 51.808199 0.000000 202.000000 0.808833 -0.352568 -0.470623
10.96000004 -9.01000023 -0.57999998 150 79 141 0.000000 0.000000 0.000000 0.000000 51.808199 0.000000 202.000000 0.820337 -0.459958 -0.339831
10.96000004 -9.07999992 -0.54000002 150 79 141 0.000000 0.000000 0.000000 0.000000 51.808199 0.000000 202.000000 0.686172 -0.469135 -0.555950
10.97000027 -9.07999992 -0.52999997 150 79 141 0.000000 0.000000 0.000000 0.000000 51.808199 0.000000 202.000000 0.581700 -0.635655 -0.507512
10.94999981 -9.07999992 -0.55000001 150 79 141 0.000000 0.000000 0.000000 0.000000 51.808199 0.000000 202.000000 -0.631436 0.751271 0.192043
10.97000027 -9.02000046 -0.75000000 150 79 141 0.000000 0.000000 0.000000 0.000000 51.808199 0.000000 202.000000 0.786447 -0.389186 -0.479620
11.00000000 -9.00000000 -0.79000002 150 79 141 0.000000 0.000000 0.000000 0.000000 51.808199 0.000000 202.000000 -0.489501 0.203331 0.847966
10.94999981 -9.05000019 -0.82999998 150 79 141 0.000000 0.000000 0.000000 0.000000 51.808199 0.000000 202.000000 0.924630 -0.250093 -0.287250
10.96000004 -9.01000023 -0.75999999 150 79 141 0.000000 0.000000 0.000000 0.000000 51.808199 0.000000 202.000000 0.845065 -0.438814 -0.305464
10.96000004 -9.07999992 -0.94999999 150 79 141 0.000000 0.000000 0.000000 0.000000 51.808199 0.000000 202.000000 -0.577877 0.221545 0.785478
10.82999992 -8.68999958 -0.49000001 150 79 141 0.000000 0.000000 0.000000 0.000000 51.808199 0.000000 202.000000 -0.255519 -0.361861 0.896530
10.81000042 -8.72000027 -0.44999999 150 79 141 0.000000 0.000000 0.000000 0.000000 51.808199 0.000000 202.000000 -0.486916 -0.490240 0.722896
10.78999996 -8.71000004 -0.49000001 150 79 141 0.000000 0.000000 0.000000 0.000000 51.808199 0.000000 202.000000 0.592727 0.518425 -0.616369
10.81999969 -8.75000000 -0.49000001 150 79 141 0.000000 0.000000 0.000000 0.000000 51.808199 0.000000 202.000000 0.680480 0.089267 -0.727309
10.93999958 -8.71000004 -0.51999998 150 79 141 0.000000 0.000000 0.000000 0.000000 51.808199 0.000000 202.000000 0.714028 0.189688 -0.673931
10.93999958 -8.69999981 -0.51999998 150 79 141 0.000000 0.000000 0.000000 0.000000 51.808199 0.000000 202.000000 -0.672152 0.058760 0.738078
10.90999985 -8.72999954 -0.50999999 150 79 141 0.000000 0.000000 0.000000 0.000000 51.808199 0.000000 202.000000 -0.666532 -0.052809 0.743604
10.90999985 -8.69999981 -0.51999998 150 79 141 0.000000 0.000000 0.000000 0.000000 51.808199 0.000000 202.000000 -0.279274 -0.262088 0.923751
10.85999966 -8.68999958 -0.54000002 150 79 141 0.000000 0.000000 0.000000 0.000000 51.808199 0.000000 202.000000 -0.656035 -0.104671 0.747437
10.90999985 -8.68000031 -0.66000003 150 79 141 0.000000 0.000000 0.000000 0.000000 51.808199 0.000000 202.000000 -0.407318 -0.505467 0.760654
10.85999966 -8.68999958 -0.61000001 150 79 141 0.000000 0.000000 0.000000 0.000000 51.808199 0.000000 202.000000 -0.609542 -0.318514 0.725953
10.89999962 -8.65999985 -0.66000003 150 79 141 0.000000 0.000000 0.000000 0.000000 51.808199 0.000000 202.000000 -0.473417 -0.395861 0.786874
10.86999989 -8.76000023 -0.51999998 150 79 141 0.000000 0.000000 0.000000 0.000000 51.808199 0.000000 202.000000 -0.426605 -0.116859 0.896857
10.85999966 -8.81000042 -0.63000000 150 79 141 0.000000 0.000000 0.000000 0.000000 51.808199 0.000000 202.000000 -0.525112 0.095865 0.845616
10.81000042 -8.68999958 -0.57999998 150 79 141 0.000000 0.000000 0.000000 0.000000 51.808199 0.000000 202.000000 -0.488665 -0.416754 0.766501
10.78999996 -8.68000031 -0.57999998 150 79 141 0.000000 0.000000 0.000000 0.000000 51.808199 0.000000 202.000000 0.513244 0.715885 -0.473381
10.80000019 -8.71000004 -0.54000002 150 79 141 0.000000 0.000000 0.000000 0.000000 51.808199 0.000000 202.000000 0.561804 0.297613 -0.771883
10.85000038 -8.68000031 -0.61000001 150 79 141 0.000000 0.000000 0.000000 0.000000 51.808199 0.000000 202.000000 0.796604 0.397497 -0.455432
10.77999973 -8.81000042 -0.56999999 150 79 141 0.000000 0.000000 0.000000 0.000000 51.808199 0.000000 202.000000 0.727094 0.233989 -0.645433
10.80000019 -8.81999969 -0.51999998 150 79 141 0.000000 0.000000 0.000000 0.000000 51.808199 0.000000 202.000000 0.912378 -0.211879 -0.350249
10.80000019 -8.76000023 -0.63999999 150 79 141 0.000000 0.000000 0.000000 0.000000 51.808199 0.000000 202.000000 0.882872 0.126940 -0.452133
10.89000034 -8.88000011 -0.37000000 150 79 141 0.000000 0.000000 0.000000 0.000000 51.808199 0.000000 202.000000 -0.436557 0.763566 0.475798
10.85999966 -8.89000034 -0.41999999 150 79 141 0.000000 0.000000 0.000000 0.000000 51.808199 0.000000 202.000000 -0.260158 0.921332 0.288904
10.85999966 -8.89000034 -0.41999999 150 79 141 0.000000 0.000000 0.000000 0.000000 51.808199 0.000000 202.000000 -0.260158 0.921332 0.288904
10.93999958 -8.97999954 -0.38000000 150 79 141 0.000000 0.000000 0.000000 0.000000 51.808199 0.000000 202.000000 -0.400125 0.863104 0.308142
10.93999958 -8.94999981 -0.41999999 150 79 141 0.000000 0.000000 0.000000 0.000000 51.808199 0.000000 202.000000 0.789528 -0.594768 -0.151314
10.93999958 -8.94999981 -0.41999999 150 79 141 0.000000 0.000000 0.000000 0.000000 51.808199 0.000000 202.000000 0.789528 -0.594768 -0.151314
10.93000031 -8.97999954 -0.47000000 150 79 141 0.000000 0.000000 0.000000 0.000000 51.808199 0.000000 202.000000 -0.577559 0.706641 0.408759
10.89000034 -8.94999981 -0.50000000 150 79 141 0.000000 0.000000 0.000000 0.000000 51.808199 0.000000 202.000000 0.819765 -0.498105 -0.282624
10.85000038 -8.89000034 -0.34999999 150 79 141 0.000000 0.000000 0.000000 0.000000 51.808199 0.000000 202.000000 -0.323415 0.855735 0.403882
10.80000019 -8.89000034 -0.49000001 150 79 141 0.000000 0.000000 0.000000 0.000000 51.808199 0.000000 202.000000 -0.678574 0.625741 0.384690
10.78999996 -8.90999985 -0.47999999 150 79 141 0.000000 0.000000 0.000000 0.000000 51.808199 0.000000 202.000000 -0.414455 0.849089 0.327528
10.90999985 -8.89999962 -0.52999997 150 79 141 0.000000 0.000000 0.000000 0.000000 51.808199 0.000000 202.000000 0.781313 -0.174468 -0.599259
10.89000034 -8.84000015 -0.67000002 150 79 141 0.000000 0.000000 0.000000 0.000000 51.808199 0.000000 202.000000 -0.425861 -0.128749 0.895581
10.88000011 -8.89999962 -0.64999998 150 79 141 0.000000 0.000000 0.000000 0.000000 51.808199 0.000000 202.000000 0.898456 -0.093039 -0.429093
10.92000008 -8.97999954 -0.50999999 150 79 141 0.000000 0.000000 0.000000 0.000000 51.808199 0.000000 202.000000 -0.501950 0.853168 0.141951
10.93000031 -8.97000027 -0.50999999 150 79 141 0.000000 0.000000 0.000000 0.000000 51.808199 0.000000 202.000000 -0.435633 0.609218 0.662629
10.89999962 -8.94999981 -0.67000002 150 79 141 0.000000 0.000000 0.000000 0.000000 51.808199 0.000000 202.000000 0.915190 -0.114918 -0.386291
10.82999992 -8.89999962 -0.56000000 150 79 141 0.000000 0.000000 0.000000 0.000000 51.808199 0.000000 202.000000 0.752057 -0.550642 -0.362222
10.77999973 -8.82999992 -0.56000000 150 79 141 0.000000 0.000000 0.000000 0.000000 51.808199 0.000000 202.000000 -0.675591 -0.049991 0.735580
10.60999966 -8.77000046 -0.34999999 150 79 141 0.000000 0.000000 0.000000 0.000000 51.808199 0.000000 202.000000 0.693130 -0.004150 -0.720800
10.63000011 -8.81999969 -0.34000000 150 79 141 0.000000 0.000000 0.000000 0.000000 51.808199 0.000000 202.000000 -0.654635 -0.179373 0.734356
10.60999966 -8.80000019 -0.33000001 150 79 141 0.000000 0.000000 0.000000 0.000000 51.808199 0.000000 202.000000 0.639515 0.348380 -0.685311
10.64000034 -8.81000042 -0.36000001 150 79 141 0.000000 0.000000 0.000000 0.000000 51.808199 0.000000 202.000000 0.710223 0.315475 -0.629332
10.60999966 -8.80000019 -0.33000001 150 79 141 0.000000 0.000000 0.000000 0.000000 51.808199 0.000000 202.000000 0.639515 0.348380 -0.685311
10.64000034 -8.81999969 -0.47000000 150 79 141 0.000000 0.000000 0.000000 0.000000 51.808199 0.000000 202.000000 0.735877 -0.391703 -0.552317
10.64000034 -8.73999977 -0.49000001 150 79 141 0.000000 0.000000 0.000000 0.000000 51.808199 0.000000 202.000000 -0.126486 0.984178 0.124076
10.75000000 -8.81999969 -0.56000000 150 79 141 0.000000 0.000000 0.000000 0.000000 51.808199 0.000000 202.000000 -0.545366 0.329794 0.770592
10.76000023 -8.78999996 -0.63999999 150 79 141 0.000000 0.000000 0.000000 0.000000 51.808199 0.000000 202.000000 0.691595 0.458286 -0.558275
10.76000023 -8.75000000 -0.61000001 150 79 141 0.000000 0.000000 0.000000 0.000000 51.808199 0.000000 202.000000 -0.247768 -0.699115 0.670708
10.73999977 -8.82999992 -0.36000001 150 79 141 0.000000 0.000000 0.000000 0.000000 51.808199 0.000000 202.000000 0.667406 0.506018 -0.546365
10.90999985 -8.68999958 -0.83999997 150 79 141 0.000000 0.000000 0.000000 0.000000 51.808199 0.000000 202.000000 -0.231399 -0.422490 0.876331
10.85999966 -8.72000027 -0.81000000 150 79 141 0.000000 0.000000 0.000000 0.000000 51.808199 0.000000 202.000000 0.531474 0.602337 -0.595588
10.78999996 -8.72999954 -0.70999998 150 79 141 0.000000 0.000000 0.000000 0.000000 51.808199 0.000000 202.000000 -0.671049 -0.073917 0.737719
10.82999992 -8.67000008 -0.77999997 150 79 141 0.000000 0.000000 0.000000 0.000000 51.808199 0.000000 202.000000 0.398147 0.742225 -0.539055
10.82999992 -8.72000027 -0.80000001 150 79 141 0.000000 0.000000 0.000000 0.000000 51.808199 0.000000 202.000000 -0.332239 -0.132622 0.933825
10.84000015 -8.69999981 -0.81999999 150 79 141 0.000000 0.000000 0.000000 0.000000 51.808199 0.000000 202.000000 0.552306 0.586086 -0.592842
10.80000019 -8.72999954 -0.77999997 150 79 141 0.000000 0.000000 0.000000 0.000000 51.808199 0.000000 202.000000 0.834376 0.046121 -0.549263
10.82999992 -8.75000000 -0.74000001 150 79 141 0.000000 0.000000 0.000000 0.000000 51.808199 0.000000 202.000000 0.885315 0.265145 -0.381989
10.81999969 -8.81000042 -0.70999998 150 79 141 0.000000 0.000000 0.000000 0.000000 51.808199 0.000000 202.000000 0.711165 -0.230775 -0.664068
10.78999996 -8.81000042 -0.69999999 150 79 141 0.000000 0.000000 0.000000 0.000000 51.808199 0.000000 202.000000 -0.514923 -0.429377 0.741950
10.81000042 -8.81000042 -0.72000003 150 79 141 0.000000 0.000000 0.000000 0.000000 51.808199 0.000000 202.000000 -0.685317 -0.104640 0.720688
10.84000015 -8.80000019 -0.77999997 150 79 141 0.000000 0.000000 0.000000 0.000000 51.808199 0.000000 202.000000 0.733334 0.317510 -0.601173
10.89000034 -8.68999958 -0.89999998 150 79 141 0.000000 0.000000 0.000000 0.000000 51.808199 0.000000 202.000000 0.862905 0.113427 -0.492473
10.85999966 -8.72999954 -0.89999998 150 79 141 0.000000 0.000000 0.000000 0.000000 51.808199 0.000000 202.000000 0.489955 0.631386 -0.601079
10.85999966 -8.68999958 -0.97000003 150 79 141 0.000000 0.000000 0.000000 0.000000 51.808199 0.000000 202.000000 0.515104 0.669468 -0.535239
10.85999966 -8.69999981 -0.97000003 150 79 141 0.000000 0.000000 0.000000 0.000000 51.808199 0.000000 202.000000 0.369361 0.501621 -0.782271
10.93000031 -8.73999977 -0.88000000 150 79 141 0.000000 0.000000 0.000000 0.000000 51.808199 0.000000 202.000000 -0.579956 0.194339 0.791128
10.85999966 -8.76000023 -0.91000003 150 79 141 0.000000 0.000000 0.000000 0.000000 51.808199 0.000000 202.000000 0.772976 -0.129574 -0.621062
10.88000011 -8.77000046 -0.94999999 150 79 141 0.000000 0.000000 0.000000 0.000000 51.808199 0.000000 202.000000 -0.492235 0.122698 0.861772
10.84000015 -8.81000042 -0.85000002 150 79 141 0.000000 0.000000 0.000000 0.000000 51.808199 0.000000 202.000000 -0.686825 -0.255378 0.680480
10.81000042 -8.77999973 -0.87000000 150 79 141 0.000000 0.000000 0.000000 0.000000 51.808199 0.000000 202.000000 -0.652010 0.216299 0.726703
10.81000042 -8.80000019 -0.87000000 150 79 141 0.000000 0.000000 0.000000 0.000000 51.808199 0.000000 202.000000 0.748683 -0.130011 -0.650054
10.85000038 -8.75000000 -0.95999998 150 79 141 0.000000 0.000000 0.000000 0.000000 51.808199 0.000000 202.000000 -0.403506 0.038366 0.914172
10.84000015 -8.81999969 -1.00999999 150 79 141 0.000000 0.000000 0.000000 0.000000 51.808199 0.000000 202.000000 0.665979 0.287254 -0.688446
10.78999996 -8.81000042 -0.95999998 150 79 141 0.000000 0.000000 0.000000 0.000000 51.808199 0.000000 202.000000 -0.477639 0.143727 0.866720
10.92000008 -8.98999977 -0.69000000 150 79 141 0.000000 0.000000 0.000000 0.000000 51.808199 0.000000 202.000000 -0.533557 0.740413 0.408787
10.88000011 -8.93000031 -0.74000001 150 79 141 0.000000 0.000000 0.000000 0.000000 51.808199 0.000000 202.000000 0.873934 -0.053675 -0.483072
10.89999962 -8.90999985 -0.75000000 150 79 141 0.000000 0.000000 0.000000 0.000000 51.808199 0.000000 202.000000 0.667572 -0.189634 -0.719991
10.92000008 -8.93999958 -0.79000002 150 79 141 0.000000 0.000000 0.000000 0.000000 51.808199 0.000000 202.000000 0.707395 0.086054 -0.701561
10.89000034 -8.93000031 -0.79000002 150 79 141 0.000000 0.000000 0.000000 0.000000 51.808199 0.000000 202.000000 -0.480963 0.119164 0.868605
10.88000011 -8.94999981 -0.79000002 150 79 141 0.000000 0.000000 0.000000 0.000000 51.808199 0.000000 202.000000 0.571733 -0.534629 -0.622329
10.85000038 -8.86999989 -0.70999998 150 79 141 0.000000 0.000000 0.000000 0.000000 51.808199 0.000000 202.000000 -0.678229 -0.203313 0.706165
10.84000015 -8.86999989 -0.75000000 150 79 141 0.000000 0.000000 0.000000 0.000000 51.808199 0.000000 202.000000 0.731655 -0.032424 -0.680904
10.86999989 -8.85999966 -0.89999998 150 79 141 0.000000 0.000000 0.000000 0.000000 51.808199 0.000000 202.000000 -0.587191 0.144930 0.796368
10.85999966 -8.88000011 -0.94999999 150 79 141 0.000000 0.000000 0.000000 0.000000 51.808199 0.000000 202.000000 -0.638663 0.058580 0.767253
10.92000008 -8.92000008 -0.92000002 150 79 141 0.000000 0.000000 0.000000 0.000000 51.808199 0.000000 202.000000 -0.546410 0.136971 0.826242
10.89999962 -8.90999985 -0.94000000 150 79 141 0.000000 0.000000 0.000000 0.000000 51.808199 0.000000 202.000000 0.473266 0.028315 -0.880464
10.80000019 -8.85000038 -0.87000000 150 79 141 0.000000 0.000000 0.000000 0.000000 51.808199 0.000000 202.000000 -0.637189 0.206195 0.742612
10.68000031 -8.77000046 -0.69000000 150 79 141 0.000000 0.000000 0.000000 0.000000 51.808199 0.000000 202.000000 -0.485485 -0.317859 0.814414
10.90999985 -9.01000023 -0.80000001 150 79 141 0.000000 0.000000 0.000000 0.000000 51.808199 0.000000 202.000000 0.673279 -0.603457 -0.427241
10.90999985 -9.01000023 -0.76999998 150 79 141 0.000000 0.000000 0.000000 0.000000 51.808199 0.000000 202.000000 0.810954 -0.046380 -0.583269
10.92000008 -9.02999973 -0.76999998 150 79 141 0.000000 0.000000 0.000000 0.000000 51.808199 0.000000 202.000000 0.674443 -0.696556 -0.244821
10.92000008 -9.05000019 -0.81999999 150 79 141 0.000000 0.000000 0.000000 0.000000 51.808199 0.000000 202.000000 0.641474 -0.365854 -0.674286
10.89000034 -9.01000023 -0.88000000 150 79 141 0.000000 0.000000 0.000000 0.000000 51.808199 0.000000 202.000000 0.840974 -0.266951 -0.470637
10.90999985 -9.03999996 -0.97000003 150 79 141 0.000000 0.000000 0.000000 0.000000 51.808199 0.000000 202.000000 -0.585296 0.252635 0.770457
10.90999985 -9.03999996 -0.97000003 150 79 141 0.000000 0.000000 0.000000 0.000000 51.808199 0.000000 202.000000 -0.585296 0.252635 0.770457
10.88000011 -9.00000000 -0.97000003 150 79 141 0.000000 0.000000 0.000000 0.000000 51.808199 0.000000 202.000000 0.919688 -0.057397 -0.388431
10.85999966 -9.00000000 -1.00999999 150 79 141 0.000000 0.000000 0.000000 0.000000 51.808199 0.000000 202.000000 -0.528597 0.093113 0.843750
10.89000034 -9.06999969 -0.98000002 150 79 141 0.000000 0.000000 0.000000 0.000000 51.808199 0.000000 202.000000 -0.527042 0.063245 0.847483
10.93000031 -9.14000034 -0.98000002 150 79 141 0.000000 0.000000 0.000000 0.000000 51.808199 0.000000 202.000000 0.846295 -0.123388 -0.518228
10.85000038 -8.78999996 -1.05999994 150 79 141 0.000000 0.000000 0.000000 0.000000 51.808199 0.000000 202.000000 0.837276 -0.105563 -0.536493
10.89000034 -8.89999962 -1.02999997 150 79 141 0.000000 0.000000 0.000000 0.000000 51.808199 0.000000 202.000000 0.695407 -0.156050 -0.701468
10.88000011 -8.88000011 -1.04999995 150 79 141 0.000000 0.000000 0.000000 0.000000 51.808199 0.000000 202.000000 -0.350935 0.092776 0.931793
10.89999962 -8.96000004 -1.01999998 150 79 141 0.000000 0.000000 0.000000 0.000000 51.808199 0.000000 202.000000 0.769506 -0.426414 -0.475427
10.56999969 -8.69999981 -0.34000000 150 79 141 0.000000 0.000000 0.000000 0.000000 51.808199 0.000000 202.000000 0.454252 -0.710496 -0.537448
10.56999969 -8.72000027 -0.38000000 150 79 141 0.000000 0.000000 0.000000 0.000000 51.808199 0.000000 202.000000 0.876610 -0.238258 -0.418076
10.55000019 -8.67000008 -0.38999999 150 79 141 0.000000 0.000000 0.000000 0.000000 51.808199 0.000000 202.000000 0.751089 -0.458542 -0.474978
10.53999996 -8.71000004 -0.34000000 150 79 141 0.000000 0.000000 0.000000 0.000000 51.808199 0.000000 202.000000 0.713191 -0.254598 -0.653099
10.55000019 -8.72000027 -0.33000001 150 79 141 0.000000 0.000000 0.000000 0.000000 51.808199 0.000000 202.000000 0.733751 -0.374229 -0.567064
10.55000019 -8.72000027 -0.33000001 150 79 141 0.000000 0.000000 0.000000 0.000000 51.808199 0.000000 202.000000 0.733751 -0.374229 -0.567064
10.52999973 -8.71000004 -0.34999999 150 79 141 0.000000 0.000000 0.000000 0.000000 51.808199 0.000000 202.000000 0.663834 -0.159502 -0.730673
10.56000042 -8.72999954 -0.46000001 150 79 141 0.000000 0.000000 0.000000 0.000000 51.808199 0.000000 202.000000 -0.255946 0.915334 0.310895
10.56000042 -8.71000004 -0.49000001 150 79 141 0.000000 0.000000 0.000000 0.000000 51.808199 0.000000 202.000000 -0.203503 0.930502 0.304553
10.55000019 -8.72000027 -0.43000001 150 79 141 0.000000 0.000000 0.000000 0.000000 51.808199 0.000000 202.000000 0.734451 -0.350126 -0.581372
10.52000046 -8.72000027 -0.47999999 150 79 141 0.000000 0.000000 0.000000 0.000000 51.808199 0.000000 202.000000 0.629792 -0.572385 -0.525108
10.60000038 -8.77000046 -0.36000001 150 79 141 0.000000 0.000000 0.000000 0.000000 51.808199 0.000000 202.000000 0.647665 -0.560188 -0.516450
10.60000038 -8.77000046 -0.37000000 150 79 141 0.000000 0.000000 0.000000 0.000000 51.808199 0.000000 202.000000 0.762186 -0.107620 -0.638349
10.59000015 -8.77999973 -0.38000000 150 79 141 0.000000 0.000000 0.000000 0.000000 51.808199 0.000000 202.000000 0.825992 -0.457835 -0.328823
10.59000015 -8.77999973 -0.38000000 150 79 141 0.000000 0.000000 0.000000 0.000000 51.808199 0.000000 202.000000 0.825992 -0.457835 -0.328823
10.59000015 -8.81999969 -0.40000001 150 79 141 0.000000 0.000000 0.000000 0.000000 51.808199 0.000000 202.000000 -0.685607 0.021031 0.727668
10.52999973 -8.77000046 -0.33000001 150 79 141 0.000000 0.000000 0.000000 0.000000 51.808199 0.000000 202.000000 0.845989 -0.173956 -0.504025
10.52999973 -8.77000046 -0.33000001 150 79 141 0.000000 0.000000 0.000000 0.000000 51.808199 0.000000 202.000000 0.845989 -0.173956 -0.504025
10.57999992 -8.77000046 -0.43000001 150 79 141 0.000000 0.000000 0.000000 0.000000 51.808199 0.000000 202.000000 -0.343823 0.537526 0.769969
10.56999969 -8.77000046 -0.46000001 150 79 141 0.000000 0.000000 0.000000 0.000000 51.808199 0.000000 202.000000 0.729639 -0.216247 -0.648741
10.56000042 -8.76000023 -0.50000000 150 79 141 0.000000 0.000000 0.000000 0.000000 51.808199 0.000000 202.000000 0.729461 -0.545037 -0.413306
10.56000042 -8.78999996 -0.44000000 150 79 141 0.000000 0.000000 0.000000 0.000000 51.808199 0.000000 202.000000 0.426586 -0.566015 -0.705444
10.56000042 -8.77999973 -0.46000001 150 79 141 0.000000 0.000000 0.000000 0.000000 51.808199 0.000000 202.000000 0.693926 -0.415693 -0.587933
10.52999973 -8.73999977 -0.47000000 150 79 141 0.000000 0.000000 0.000000 0.000000 51.808199 0.000000 202.000000 -0.680943 0.680943 0.269507
10.53999996 -8.81000042 -0.47000000 150 79 141 0.000000 0.000000 0.000000 0.000000 51.808199 0.000000 202.000000 0.885605 -0.087863 -0.456052
10.55000019 -8.80000019 -0.46000001 150 79 141 0.000000 0.000000 0.000000 0.000000 51.808199 0.000000 202.000000 0.817877 -0.166577 -0.550754
10.55000019 -8.78999996 -0.46000001 150 79 141 0.000000 0.000000 0.000000 0.000000 51.808199 0.000000 202.000000 0.670157 -0.133432 -0.730127
10.50000000 -8.68999958 -0.46000001 150 79 141 0.000000 0.000000 0.000000 0.000000 51.808199 0.000000 202.000000 -0.412231 0.829200 0.377483
10.47000027 -8.67000008 -0.50000000 150 79 141 0.000000 0.000000 0.000000 0.000000 51.808199 0.000000 202.000000 -0.525045 0.708393 0.471707
10.47999954 -8.72999954 -0.41999999 150 79 141 0.000000 0.000000 0.000000 0.000000 51.808199 0.000000 202.000000 0.912587 -0.235739 -0.334085
10.47999954 -8.73999977 -0.43000001 150 79 141 0.000000 0.000000 0.000000 0.000000 51.808199 0.000000 202.000000 -0.380188 0.778172 0.499906
10.47999954 -8.75000000 -0.41999999 150 79 141 0.000000 0.000000 0.000000 0.000000 51.808199 0.000000 202.000000 0.654002 -0.241114 -0.717039
10.53999996 -8.67000008 -0.54000002 150 79 141 0.000000 0.000000 0.000000 0.000000 51.808199 0.000000 202.000000 -0.129966 0.982639 0.132395
10.55000019 -8.65999985 -0.51999998 150 79 141 0.000000 0.000000 0.000000 0.000000 51.808199 0.000000 202.000000 -0.214873 0.975933 -0.037213
10.55000019 -8.71000004 -0.50999999 150 79 141 0.000000 0.000000 0.000000 0.000000 51.808199 0.000000 202.000000 -0.251201 0.962294 0.104345
10.56999969 -8.69999981 -0.60000002 150 79 141 0.000000 0.000000 0.000000 0.000000 51.808199 0.000000 202.000000 -0.286541 0.780467 -0.555667
10.52999973 -8.72999954 -0.63000000 150 79 141 0.000000 0.000000 0.000000 0.000000 51.808199 0.000000 202.000000 -0.185877 0.982491 0.012700
10.55000019 -8.77000046 -0.52999997 150 79 141 0.000000 0.000000 0.000000 0.000000 51.808199 0.000000 202.000000 -0.392817 0.822212 0.411901
10.55000019 -8.77000046 -0.52999997 150 79 141 0.000000 0.000000 0.000000 0.000000 51.808199 0.000000 202.000000 -0.392817 0.822212 0.411901
10.55000019 -8.78999996 -0.56000000 150 79 141 0.000000 0.000000 0.000000 0.000000 51.808199 0.000000 202.000000 -0.650967 0.758285 -0.035302
10.55000019 -8.78999996 -0.56999999 150 79 141 0.000000 0.000000 0.000000 0.000000 51.808199 0.000000 202.000000 -0.526613 0.803281 -0.278240
10.55000019 -8.73999977 -0.63999999 150 79 141 0.000000 0.000000 0.000000 0.000000 51.808199 0.000000 202.000000 0.129680 0.849480 -0.511436
10.52000046 -8.80000019 -0.64999998 150 79 141 0.000000 0.000000 0.000000 0.000000 51.808199 0.000000 202.000000 -0.337203 0.941411 -0.006268
10.52999973 -8.78999996 -0.63999999 150 79 141 0.000000 0.000000 0.000000 0.000000 51.808199 0.000000 202.000000 0.001117 0.988229 -0.152980
10.52999973 -8.77999973 -0.67000002 150 79 141 0.000000 0.000000 0.000000 0.000000 51.808199 0.000000 202.000000 0.269741 0.930677 -0.247145
10.52999973 -8.78999996 -0.63999999 150 79 141 0.000000 0.000000 0.000000 0.000000 51.808199 0.000000 202.000000 0.001117 0.988229 -0.152980
10.47999954 -8.69999981 -0.58999997 150 79 141 0.000000 0.000000 0.000000 0.000000 51.808199 0.000000 202.000000 -0.241231 0.955593 -0.169261
10.50000000 -8.72999954 -0.61000001 150 79 141 0.000000 0.000000 0.000000 0.000000 51.808199 0.000000 202.000000 -0.255017 0.962401 -0.093549
10.50000000 -8.72999954 -0.61000001 150 79 141 0.000000 0.000000 0.000000 0.000000 51.808199 0.000000 202.000000 -0.255017 0.962401 -0.093549
