//X Y Z R G B PointSourceId ScanDirectionFlag NumberOfReturns ReturnNumber GpsTime Intensity Classification Nx Ny Nz
1.10000002 13.64999962 -0.75000000 135 161 107 0.000000 0.000000 0.000000 0.000000 51.808199 0.000000 3.000000 -0.247558 0.913504 0.322839
1.09000003 13.60999966 -0.69000000 135 161 107 0.000000 0.000000 0.000000 0.000000 51.808199 0.000000 3.000000 -0.416342 0.909207 -0.001297
1.11000001 13.60000038 -0.75000000 135 161 107 0.000000 0.000000 0.000000 0.000000 51.808199 0.000000 3.000000 -0.244540 0.874643 0.418568
1.13000000 13.67000008 -0.75999999 135 161 107 0.000000 0.000000 0.000000 0.000000 51.808199 0.000000 3.000000 -0.455891 0.865446 0.207767
1.12000000 13.67000008 -0.80000001 135 161 107 0.000000 0.000000 0.000000 0.000000 51.808199 0.000000 3.000000 0.724142 -0.508722 -0.465638
1.12000000 13.65999985 -0.81000000 135 161 107 0.000000 0.000000 0.000000 0.000000 51.808199 0.000000 3.000000 0.805157 -0.575962 -0.141386
1.08000004 13.67000008 -0.75999999 135 161 107 0.000000 0.000000 0.000000 0.000000 51.808199 0.000000 3.000000 -0.113438 0.958356 0.262081
1.09000003 13.65999985 -0.80000001 135 161 107 0.000000 0.000000 0.000000 0.000000 51.808199 0.000000 3.000000 -0.009050 0.916683 0.399513
1.08000004 13.67000008 -0.76999998 135 161 107 0.000000 0.000000 0.000000 0.000000 51.808199 0.000000 3.000000 -0.069538 0.940732 0.331946
1.09000003 13.65999985 -0.80000001 135 161 107 0.000000 0.000000 0.000000 0.000000 51.808199 0.000000 3.000000 -0.009050 0.916683 0.399513
1.11000001 13.67000008 -0.82999998 135 161 107 0.000000 0.000000 0.000000 0.000000 51.808199 0.000000 3.000000 0.747095 -0.589643 -0.306871
1.09000003 13.67000008 -0.81999999 135 161 107 0.000000 0.000000 0.000000 0.000000 51.808199 0.000000 3.000000 -0.130518 0.943225 0.305438
1.07000005 13.61999989 -0.80000001 135 161 107 0.000000 0.000000 0.000000 0.000000 51.808199 0.000000 3.000000 -0.535626 0.828057 0.165611
1.05999994 13.64000034 -0.69000000 135 161 107 0.000000 0.000000 0.000000 0.000000 51.808199 0.000000 3.000000 -0.316588 0.896255 0.310642
1.02999997 13.64000034 -0.70999998 135 161 107 0.000000 0.000000 0.000000 0.000000 51.808199 0.000000 3.000000 0.202442 0.911706 0.357504
1.03999996 13.64999962 -0.74000001 135 161 107 0.000000 0.000000 0.000000 0.000000 51.808199 0.000000 3.000000 0.225583 0.973506 -0.037396
1.02999997 13.65999985 -0.75000000 135 161 107 0.000000 0.000000 0.000000 0.000000 51.808199 0.000000 3.000000 0.304102 0.944457 -0.124588
1.02999997 13.65999985 -0.73000002 135 161 107 0.000000 0.000000 0.000000 0.000000 51.808199 0.000000 3.000000 0.407028 0.907131 0.106966
1.05999994 13.61999989 -0.70999998 135 161 107 0.000000 0.000000 0.000000 0.000000 51.808199 0.000000 3.000000 0.071360 0.995752 0.058186
1.01999998 13.64000034 -0.68000001 135 161 107 0.000000 0.000000 0.000000 0.000000 51.808199 0.000000 3.000000 0.360483 0.738908 0.569269
1.00999999 13.65999985 -0.69000000 135 161 107 0.000000 0.000000 0.000000 0.000000 51.808199 0.000000 3.000000 0.463597 0.859679 -0.214545
1.01999998 13.64999962 -0.69999999 135 161 107 0.000000 0.000000 0.000000 0.000000 51.808199 0.000000 3.000000 0.271360 0.960489 -0.061845
1.00000000 13.67000008 -0.69000000 135 161 107 0.000000 0.000000 0.000000 0.000000 51.808199 0.000000 3.000000 0.200097 0.979174 0.034336
1.01999998 13.65999985 -0.75000000 135 161 107 0.000000 0.000000 0.000000 0.000000 51.808199 0.000000 3.000000 0.055748 0.998200 -0.022089
1.01999998 13.65999985 -0.72000003 135 161 107 0.000000 0.000000 0.000000 0.000000 51.808199 0.000000 3.000000 0.048906 0.996601 0.066295
1.01999998 13.64999962 -0.72000003 135 161 107 0.000000 0.000000 0.000000 0.000000 51.808199 0.000000 3.000000 0.052666 0.998586 0.007229
1.01999998 13.67000008 -0.74000001 135 161 107 0.000000 0.000000 0.000000 0.000000 51.808199 0.000000 3.000000 0.436760 0.891895 0.117317
1.01999998 13.64999962 -0.75000000 135 161 107 0.000000 0.000000 0.000000 0.000000 51.808199 0.000000 3.000000 0.011588 0.997586 0.068472
0.99000001 13.64999962 -0.75000000 135 161 107 0.000000 0.000000 0.000000 0.000000 51.808199 0.000000 3.000000 0.467915 0.882626 0.045018
1.01999998 13.64999962 -0.73000002 135 161 107 0.000000 0.000000 0.000000 0.000000 51.808199 0.000000 3.000000 0.048506 0.997062 -0.059285
1.03999996 13.65999985 -0.76999998 135 161 107 0.000000 0.000000 0.000000 0.000000 51.808199 0.000000 3.000000 0.058338 0.902199 0.427357
1.02999997 13.67000008 -0.76999998 135 161 107 0.000000 0.000000 0.000000 0.000000 51.808199 0.000000 3.000000 -0.150237 0.933124 0.326662
1.04999995 13.65999985 -0.80000001 135 161 107 0.000000 0.000000 0.000000 0.000000 51.808199 0.000000 3.000000 -0.171928 0.926734 0.334072
1.02999997 13.64000034 -0.80000001 135 161 107 0.000000 0.000000 0.000000 0.000000 51.808199 0.000000 3.000000 -0.226698 0.914012 0.336437
1.04999995 13.67000008 -0.80000001 135 161 107 0.000000 0.000000 0.000000 0.000000 51.808199 0.000000 3.000000 -0.100519 0.987451 0.121805
1.02999997 13.65999985 -0.76999998 135 161 107 0.000000 0.000000 0.000000 0.000000 51.808199 0.000000 3.000000 0.185323 0.861382 0.472945
1.05999994 13.65999985 -0.79000002 135 161 107 0.000000 0.000000 0.000000 0.000000 51.808199 0.000000 3.000000 0.102752 0.982788 0.153523
1.05999994 13.67000008 -0.81000000 135 161 107 0.000000 0.000000 0.000000 0.000000 51.808199 0.000000 3.000000 -0.168077 0.983429 0.067946
1.04999995 13.67000008 -0.82999998 135 161 107 0.000000 0.000000 0.000000 0.000000 51.808199 0.000000 3.000000 -0.055779 0.896544 0.439429
1.04999995 13.60999966 -0.81000000 135 161 107 0.000000 0.000000 0.000000 0.000000 51.808199 0.000000 3.000000 0.256765 0.939623 0.226231
1.01999998 13.65999985 -0.75999999 135 161 107 0.000000 0.000000 0.000000 0.000000 51.808199 0.000000 3.000000 -0.074197 0.996821 -0.029034
1.00999999 13.64000034 -0.77999997 135 161 107 0.000000 0.000000 0.000000 0.000000 51.808199 0.000000 3.000000 0.090237 0.982981 -0.160020
1.01999998 13.64000034 -0.81000000 135 161 107 0.000000 0.000000 0.000000 0.000000 51.808199 0.000000 3.000000 0.189333 0.900414 0.391673
1.00999999 13.64999962 -0.81999999 135 161 107 0.000000 0.000000 0.000000 0.000000 51.808199 0.000000 3.000000 0.062836 0.995448 -0.071655
1.01999998 13.64999962 -0.81000000 135 161 107 0.000000 0.000000 0.000000 0.000000 51.808199 0.000000 3.000000 -0.138472 0.976790 0.163422
1.13999999 13.65999985 -0.95999998 135 161 107 0.000000 0.000000 0.000000 0.000000 51.808199 0.000000 3.000000 -0.271931 0.790643 0.548577
1.13999999 13.60000038 -0.99000001 135 161 107 0.000000 0.000000 0.000000 0.000000 51.808199 0.000000 3.000000 -0.447235 0.859601 0.247116
1.03999996 13.67000008 -0.86000001 135 161 107 0.000000 0.000000 0.000000 0.000000 51.808199 0.000000 3.000000 0.103817 0.796904 0.595119
1.03999996 13.67000008 -0.85000002 135 161 107 0.000000 0.000000 0.000000 0.000000 51.808199 0.000000 3.000000 0.018053 0.997149 0.073273
0.99000001 13.67000008 -0.85000002 135 161 107 0.000000 0.000000 0.000000 0.000000 51.808199 0.000000 3.000000 -0.083835 0.996466 0.005306
1.04999995 13.67000008 -0.85000002 135 161 107 0.000000 0.000000 0.000000 0.000000 51.808199 0.000000 3.000000 -0.450867 0.892424 0.017290
1.17999995 13.68999958 -1.02999997 135 161 107 0.000000 0.000000 0.000000 0.000000 51.808199 0.000000 3.000000 0.646451 -0.410472 -0.643128
1.16999996 13.68000031 -1.02999997 135 161 107 0.000000 0.000000 0.000000 0.000000 51.808199 0.000000 3.000000 -0.653979 0.516122 0.553108
1.08000004 13.89999962 -1.02999997 135 161 107 0.000000 0.000000 0.000000 0.000000 51.808199 0.000000 3.000000 0.695781 0.718090 -0.015338
1.07000005 13.89999962 -1.04999995 135 161 107 0.000000 0.000000 0.000000 0.000000 51.808199 0.000000 3.000000 0.889838 0.325624 0.319621
1.07000005 13.92000008 -1.04999995 135 161 107 0.000000 0.000000 0.000000 0.000000 51.808199 0.000000 3.000000 0.681355 0.642141 -0.351298
1.07000005 13.92000008 -1.03999996 135 161 107 0.000000 0.000000 0.000000 0.000000 51.808199 0.000000 3.000000 0.806394 0.569131 -0.160678
1.07000005 13.90999985 -1.04999995 135 161 107 0.000000 0.000000 0.000000 0.000000 51.808199 0.000000 3.000000 0.968570 0.222733 0.110730
1.07000005 13.90999985 -1.05999994 135 161 107 0.000000 0.000000 0.000000 0.000000 51.808199 0.000000 3.000000 0.704035 0.619093 -0.347934
1.08000004 13.90999985 -1.08000004 135 161 107 0.000000 0.000000 0.000000 0.000000 51.808199 0.000000 3.000000 0.864158 0.405313 0.298249
1.08000004 13.89999962 -1.05999994 135 161 107 0.000000 0.000000 0.000000 0.000000 51.808199 0.000000 3.000000 0.920470 0.388054 0.046355
1.07000005 13.88000011 -1.01999998 135 161 107 0.000000 0.000000 0.000000 0.000000 51.808199 0.000000 3.000000 0.921753 0.333763 -0.197417
1.08000004 13.89000034 -1.04999995 135 161 107 0.000000 0.000000 0.000000 0.000000 51.808199 0.000000 3.000000 0.951514 0.196258 -0.236863
1.08000004 13.88000011 -1.04999995 135 161 107 0.000000 0.000000 0.000000 0.000000 51.808199 0.000000 3.000000 0.850301 0.063037 -0.522508
1.09000003 13.85999966 -1.10000002 135 161 107 0.000000 0.000000 0.000000 0.000000 51.808199 0.000000 3.000000 0.988348 -0.142183 0.054330
1.09000003 13.86999989 -1.10000002 135 161 107 0.000000 0.000000 0.000000 0.000000 51.808199 0.000000 3.000000 0.978180 0.064242 -0.197575
1.09000003 13.86999989 -1.10000002 135 161 107 0.000000 0.000000 0.000000 0.000000 51.808199 0.000000 3.000000 0.978180 0.064242 -0.197575
1.07000005 13.90999985 -1.12000000 135 161 107 0.000000 0.000000 0.000000 0.000000 51.808199 0.000000 3.000000 0.979369 0.195394 -0.051546
1.07000005 13.92000008 -1.11000001 135 161 107 0.000000 0.000000 0.000000 0.000000 51.808199 0.000000 3.000000 0.796064 0.602389 -0.058388
1.08000004 13.89999962 -1.13000000 135 161 107 0.000000 0.000000 0.000000 0.000000 51.808199 0.000000 3.000000 0.988547 -0.106711 0.106711
1.09000003 13.90999985 -1.14999998 135 161 107 0.000000 0.000000 0.000000 0.000000 51.808199 0.000000 3.000000 0.934544 -0.037589 -0.353856
1.08000004 13.85999966 -1.13000000 135 161 107 0.000000 0.000000 0.000000 0.000000 51.808199 0.000000 3.000000 0.997539 -0.043930 -0.054645
1.08000004 13.85999966 -1.11000001 135 161 107 0.000000 0.000000 0.000000 0.000000 51.808199 0.000000 3.000000 0.888334 -0.320161 -0.329180
1.07000005 13.88000011 -1.14999998 135 161 107 0.000000 0.000000 0.000000 0.000000 51.808199 0.000000 3.000000 0.899143 0.211306 -0.383265
1.03999996 13.94999981 -1.10000002 135 161 107 0.000000 0.000000 0.000000 0.000000 51.808199 0.000000 3.000000 0.766323 0.634451 0.101102
1.02999997 13.93999958 -1.08000004 135 161 107 0.000000 0.000000 0.000000 0.000000 51.808199 0.000000 3.000000 0.707197 0.598903 0.375750
1.03999996 13.93999958 -1.10000002 135 161 107 0.000000 0.000000 0.000000 0.000000 51.808199 0.000000 3.000000 0.867007 0.498295 0.001336
1.02999997 13.96000004 -1.10000002 135 161 107 0.000000 0.000000 0.000000 0.000000 51.808199 0.000000 3.000000 0.677495 0.732388 0.067894
1.03999996 13.93999958 -1.10000002 135 161 107 0.000000 0.000000 0.000000 0.000000 51.808199 0.000000 3.000000 0.867007 0.498295 0.001336
0.99000001 13.94999981 -1.08000004 135 161 107 0.000000 0.000000 0.000000 0.000000 51.808199 0.000000 3.000000 0.182176 0.908012 0.377262
1.00000000 13.96000004 -1.05999994 135 161 107 0.000000 0.000000 0.000000 0.000000 51.808199 0.000000 3.000000 0.052861 0.993109 0.104597
1.00999999 13.97000027 -1.09000003 135 161 107 0.000000 0.000000 0.000000 0.000000 51.808199 0.000000 3.000000 0.075305 0.974021 0.213569
1.03999996 13.94999981 -1.11000001 135 161 107 0.000000 0.000000 0.000000 0.000000 51.808199 0.000000 3.000000 0.597997 0.788879 0.141670
1.02999997 13.94999981 -1.11000001 135 161 107 0.000000 0.000000 0.000000 0.000000 51.808199 0.000000 3.000000 0.586244 0.768561 -0.256187
1.02999997 13.94999981 -1.11000001 135 161 107 0.000000 0.000000 0.000000 0.000000 51.808199 0.000000 3.000000 0.586244 0.768561 -0.256187
1.02999997 13.94999981 -1.11000001 135 161 107 0.000000 0.000000 0.000000 0.000000 51.808199 0.000000 3.000000 0.586244 0.768561 -0.256187
1.03999996 13.93999958 -1.13999999 135 161 107 0.000000 0.000000 0.000000 0.000000 51.808199 0.000000 3.000000 0.794527 0.528099 0.299732
1.03999996 13.93999958 -1.16999996 135 161 107 0.000000 0.000000 0.000000 0.000000 51.808199 0.000000 3.000000 0.754392 0.621173 -0.212221
1.04999995 13.93999958 -1.14999998 135 161 107 0.000000 0.000000 0.000000 0.000000 51.808199 0.000000 3.000000 0.789761 0.569435 -0.228084
1.00000000 13.97999954 -1.13999999 135 161 107 0.000000 0.000000 0.000000 0.000000 51.808199 0.000000 3.000000 0.548058 0.774951 0.314774
1.01999998 13.96000004 -1.11000001 135 161 107 0.000000 0.000000 0.000000 0.000000 51.808199 0.000000 3.000000 0.596493 0.757878 -0.264229
1.01999998 13.96000004 -1.11000001 135 161 107 0.000000 0.000000 0.000000 0.000000 51.808199 0.000000 3.000000 0.596493 0.757878 -0.264229
1.00000000 13.96000004 -1.11000001 135 161 107 0.000000 0.000000 0.000000 0.000000 51.808199 0.000000 3.000000 0.260613 0.963135 -0.066727
1.00999999 13.97000027 -1.13000000 135 161 107 0.000000 0.000000 0.000000 0.000000 51.808199 0.000000 3.000000 0.403530 0.883001 0.239735
1.01999998 13.96000004 -1.13999999 135 161 107 0.000000 0.000000 0.000000 0.000000 51.808199 0.000000 3.000000 0.463819 0.839218 0.283876
1.00000000 13.96000004 -1.12000000 135 161 107 0.000000 0.000000 0.000000 0.000000 51.808199 0.000000 3.000000 0.249225 0.933537 0.257673
1.00999999 13.97000027 -1.14999998 135 161 107 0.000000 0.000000 0.000000 0.000000 51.808199 0.000000 3.000000 0.736314 0.664624 -0.126951
1.00999999 13.96000004 -1.15999997 135 161 107 0.000000 0.000000 0.000000 0.000000 51.808199 0.000000 3.000000 0.871719 0.468494 -0.143594
1.00999999 13.94999981 -1.15999997 135 161 107 0.000000 0.000000 0.000000 0.000000 51.808199 0.000000 3.000000 0.843007 0.508788 -0.174570
1.01999998 13.97000027 -1.17999995 135 161 107 0.000000 0.000000 0.000000 0.000000 51.808199 0.000000 3.000000 0.448899 0.878912 0.161255
1.00999999 13.97000027 -1.15999997 135 161 107 0.000000 0.000000 0.000000 0.000000 51.808199 0.000000 3.000000 0.509621 0.822519 0.252487
1.00000000 13.97000027 -1.15999997 135 161 107 0.000000 0.000000 0.000000 0.000000 51.808199 0.000000 3.000000 0.235507 0.932156 0.274993
1.00999999 13.96000004 -1.14999998 135 161 107 0.000000 0.000000 0.000000 0.000000 51.808199 0.000000 3.000000 0.479686 0.874063 -0.076918
1.04999995 13.92000008 -1.01999998 135 161 107 0.000000 0.000000 0.000000 0.000000 51.808199 0.000000 3.000000 0.569435 0.789761 0.228084
1.04999995 13.93000031 -1.03999996 135 161 107 0.000000 0.000000 0.000000 0.000000 51.808199 0.000000 3.000000 0.887196 0.390842 0.245205
1.04999995 13.89999962 -1.03999996 135 161 107 0.000000 0.000000 0.000000 0.000000 51.808199 0.000000 3.000000 0.824914 0.466666 -0.318967
1.03999996 13.93000031 -1.10000002 135 161 107 0.000000 0.000000 0.000000 0.000000 51.808199 0.000000 3.000000 0.788033 0.595903 -0.154605
1.05999994 13.89999962 -1.10000002 135 161 107 0.000000 0.000000 0.000000 0.000000 51.808199 0.000000 3.000000 0.972103 0.191379 -0.135613
1.05999994 13.93000031 -1.05999994 135 161 107 0.000000 0.000000 0.000000 0.000000 51.808199 0.000000 3.000000 0.893482 0.431873 -0.123190
1.04999995 13.89999962 -1.10000002 135 161 107 0.000000 0.000000 0.000000 0.000000 51.808199 0.000000 3.000000 0.906753 0.346055 -0.240925
1.03999996 13.93000031 -1.09000003 135 161 107 0.000000 0.000000 0.000000 0.000000 51.808199 0.000000 3.000000 0.721918 0.683534 0.107771
1.03999996 13.93000031 -1.10000002 135 161 107 0.000000 0.000000 0.000000 0.000000 51.808199 0.000000 3.000000 0.788033 0.595903 -0.154605
1.05999994 13.90999985 -1.08000004 135 161 107 0.000000 0.000000 0.000000 0.000000 51.808199 0.000000 3.000000 0.965162 0.261019 -0.018211
1.04999995 13.88000011 -1.03999996 135 161 107 0.000000 0.000000 0.000000 0.000000 51.808199 0.000000 3.000000 0.834187 0.370574 -0.408420
1.05999994 13.85999966 -1.09000003 135 161 107 0.000000 0.000000 0.000000 0.000000 51.808199 0.000000 3.000000 0.975186 -0.064849 -0.211678
1.05999994 13.89000034 -1.10000002 135 161 107 0.000000 0.000000 0.000000 0.000000 51.808199 0.000000 3.000000 0.998230 0.032746 -0.049647
1.05999994 13.89000034 -1.08000004 135 161 107 0.000000 0.000000 0.000000 0.000000 51.808199 0.000000 3.000000 0.971186 0.225076 -0.078342
1.04999995 13.89999962 -1.12000000 135 161 107 0.000000 0.000000 0.000000 0.000000 51.808199 0.000000 3.000000 0.904632 0.421800 0.061032
1.05999994 13.92000008 -1.13000000 135 161 107 0.000000 0.000000 0.000000 0.000000 51.808199 0.000000 3.000000 0.869701 0.140368 -0.473198
1.04999995 13.90999985 -1.13999999 135 161 107 0.000000 0.000000 0.000000 0.000000 51.808199 0.000000 3.000000 0.990560 -0.082065 -0.109805
1.03999996 13.89999962 -1.13999999 135 161 107 0.000000 0.000000 0.000000 0.000000 51.808199 0.000000 3.000000 0.833336 0.530305 -0.155972
1.04999995 13.92000008 -1.13999999 135 161 107 0.000000 0.000000 0.000000 0.000000 51.808199 0.000000 3.000000 0.958039 0.124506 0.258186
1.02999997 13.92000008 -1.17999995 135 161 107 0.000000 0.000000 0.000000 0.000000 51.808199 0.000000 3.000000 0.911044 0.381136 0.157272
1.04999995 13.89999962 -1.14999998 135 161 107 0.000000 0.000000 0.000000 0.000000 51.808199 0.000000 3.000000 0.971228 0.047645 0.233339
1.04999995 13.92000008 -1.15999997 135 161 107 0.000000 0.000000 0.000000 0.000000 51.808199 0.000000 3.000000 0.787186 0.383087 -0.483303
1.04999995 13.93000031 -1.14999998 135 161 107 0.000000 0.000000 0.000000 0.000000 51.808199 0.000000 3.000000 0.858408 0.511187 -0.042714
1.05999994 13.92000008 -1.16999996 135 161 107 0.000000 0.000000 0.000000 0.000000 51.808199 0.000000 3.000000 0.836949 0.520669 -0.168583
1.04999995 13.93000031 -1.15999997 135 161 107 0.000000 0.000000 0.000000 0.000000 51.808199 0.000000 3.000000 0.868935 0.467437 -0.162650
1.04999995 13.89999962 -1.16999996 135 161 107 0.000000 0.000000 0.000000 0.000000 51.808199 0.000000 3.000000 0.979086 -0.086569 0.184112
1.04999995 13.93000031 -1.16999996 135 161 107 0.000000 0.000000 0.000000 0.000000 51.808199 0.000000 3.000000 0.979855 0.189222 0.063877
1.05999994 13.88000011 -1.11000001 135 161 107 0.000000 0.000000 0.000000 0.000000 51.808199 0.000000 3.000000 0.974346 0.121637 0.189352
1.05999994 13.88000011 -1.13000000 135 161 107 0.000000 0.000000 0.000000 0.000000 51.808199 0.000000 3.000000 0.962760 0.136793 -0.233199
1.05999994 13.86999989 -1.13999999 135 161 107 0.000000 0.000000 0.000000 0.000000 51.808199 0.000000 3.000000 0.944689 0.113256 -0.307790
1.05999994 13.88000011 -1.13999999 135 161 107 0.000000 0.000000 0.000000 0.000000 51.808199 0.000000 3.000000 0.999754 0.007019 -0.021058
1.05999994 13.89000034 -1.13000000 135 161 107 0.000000 0.000000 0.000000 0.000000 51.808199 0.000000 3.000000 0.991663 0.122692 -0.039396
1.05999994 13.86999989 -1.13999999 135 161 107 0.000000 0.000000 0.000000 0.000000 51.808199 0.000000 3.000000 0.944689 0.113256 -0.307790
1.04999995 13.89000034 -1.17999995 135 161 107 0.000000 0.000000 0.000000 0.000000 51.808199 0.000000 3.000000 0.811212 0.058045 -0.581864
1.05999994 13.86999989 -1.14999998 135 161 107 0.000000 0.000000 0.000000 0.000000 51.808199 0.000000 3.000000 0.972511 -0.088410 -0.215422
1.04999995 13.85999966 -1.17999995 135 161 107 0.000000 0.000000 0.000000 0.000000 51.808199 0.000000 3.000000 0.905512 -0.063807 -0.419495
1.04999995 13.89000034 -1.17999995 135 161 107 0.000000 0.000000 0.000000 0.000000 51.808199 0.000000 3.000000 0.811212 0.058045 -0.581864
1.07000005 13.89999962 -1.23000002 135 161 107 0.000000 0.000000 0.000000 0.000000 51.808199 0.000000 3.000000 0.822819 -0.012322 -0.568170
1.07000005 13.92000008 -1.21000004 135 161 107 0.000000 0.000000 0.000000 0.000000 51.808199 0.000000 3.000000 0.933994 0.354003 0.048333
1.07000005 13.90999985 -1.22000003 135 161 107 0.000000 0.000000 0.000000 0.000000 51.808199 0.000000 3.000000 0.980639 0.178188 0.081215
1.07000005 13.86999989 -1.19000006 135 161 107 0.000000 0.000000 0.000000 0.000000 51.808199 0.000000 3.000000 0.984808 -0.092139 -0.147183
1.02999997 13.97999954 -1.20000005 135 161 107 0.000000 0.000000 0.000000 0.000000 51.808199 0.000000 3.000000 0.665607 0.625770 0.406668
1.02999997 13.96000004 -1.23000002 135 161 107 0.000000 0.000000 0.000000 0.000000 51.808199 0.000000 3.000000 0.831854 0.545407 0.102716
1.03999996 13.97000027 -1.20000005 135 161 107 0.000000 0.000000 0.000000 0.000000 51.808199 0.000000 3.000000 0.673364 0.682961 0.283101
1.04999995 13.94999981 -1.22000003 135 161 107 0.000000 0.000000 0.000000 0.000000 51.808199 0.000000 3.000000 0.995295 0.042891 0.086882
1.04999995 13.94999981 -1.21000004 135 161 107 0.000000 0.000000 0.000000 0.000000 51.808199 0.000000 3.000000 0.750469 0.653540 -0.098398
1.04999995 13.97000027 -1.22000003 135 161 107 0.000000 0.000000 0.000000 0.000000 51.808199 0.000000 3.000000 0.714733 0.697613 -0.049931
1.04999995 13.94999981 -1.23000002 135 161 107 0.000000 0.000000 0.000000 0.000000 51.808199 0.000000 3.000000 0.965966 -0.068908 -0.249322
1.04999995 13.94999981 -1.21000004 135 161 107 0.000000 0.000000 0.000000 0.000000 51.808199 0.000000 3.000000 0.750469 0.653540 -0.098398
1.02999997 13.94999981 -1.23000002 135 161 107 0.000000 0.000000 0.000000 0.000000 51.808199 0.000000 3.000000 0.927659 0.288384 0.237242
1.02999997 13.94999981 -1.22000003 135 161 107 0.000000 0.000000 0.000000 0.000000 51.808199 0.000000 3.000000 0.818176 0.502169 0.280026
1.02999997 13.94999981 -1.26999998 135 161 107 0.000000 0.000000 0.000000 0.000000 51.808199 0.000000 3.000000 0.885371 0.464654 0.014645
1.02999997 13.93999958 -1.26999998 135 161 107 0.000000 0.000000 0.000000 0.000000 51.808199 0.000000 3.000000 0.946202 0.050070 -0.319680
1.02999997 13.96000004 -1.24000001 135 161 107 0.000000 0.000000 0.000000 0.000000 51.808199 0.000000 3.000000 0.813705 0.576315 -0.075793
1.02999997 13.96000004 -1.24000001 135 161 107 0.000000 0.000000 0.000000 0.000000 51.808199 0.000000 3.000000 0.813705 0.576315 -0.075793
1.02999997 13.93999958 -1.24000001 135 161 107 0.000000 0.000000 0.000000 0.000000 51.808199 0.000000 3.000000 0.907259 0.057968 -0.416557
1.02999997 13.93999958 -1.26999998 135 161 107 0.000000 0.000000 0.000000 0.000000 51.808199 0.000000 3.000000 0.946202 0.050070 -0.319680
1.02999997 13.96000004 -1.25000000 135 161 107 0.000000 0.000000 0.000000 0.000000 51.808199 0.000000 3.000000 0.804703 0.544221 -0.237225
1.05999994 13.93999958 -1.25999999 135 161 107 0.000000 0.000000 0.000000 0.000000 51.808199 0.000000 3.000000 0.912386 0.033010 -0.407999
1.01999998 13.98999977 -1.21000004 135 161 107 0.000000 0.000000 0.000000 0.000000 51.808199 0.000000 3.000000 0.519226 0.852314 -0.062979
1.00999999 13.98999977 -1.23000002 135 161 107 0.000000 0.000000 0.000000 0.000000 51.808199 0.000000 3.000000 0.437335 0.848400 0.298254
1.00000000 13.98999977 -1.26999998 135 161 107 0.000000 0.000000 0.000000 0.000000 51.808199 0.000000 3.000000 0.912055 0.409306 -0.025006
1.01999998 13.97999954 -1.25999999 135 161 107 0.000000 0.000000 0.000000 0.000000 51.808199 0.000000 3.000000 0.738562 0.646049 -0.192735
0.99000001 14.01000023 -1.26999998 135 161 107 0.000000 0.000000 0.000000 0.000000 51.808199 0.000000 3.000000 0.328997 0.943124 -0.047737
1.00000000 13.98999977 -1.25000000 135 161 107 0.000000 0.000000 0.000000 0.000000 51.808199 0.000000 3.000000 0.807995 0.585689 -0.064127
1.00000000 13.98999977 -1.25000000 135 161 107 0.000000 0.000000 0.000000 0.000000 51.808199 0.000000 3.000000 0.807995 0.585689 -0.064127
1.01999998 13.97000027 -1.19000006 135 161 107 0.000000 0.000000 0.000000 0.000000 51.808199 0.000000 3.000000 0.589428 0.801914 -0.097510
1.00000000 13.97000027 -1.21000004 135 161 107 0.000000 0.000000 0.000000 0.000000 51.808199 0.000000 3.000000 0.722095 0.649729 0.237552
1.00999999 13.97000027 -1.22000003 135 161 107 0.000000 0.000000 0.000000 0.000000 51.808199 0.000000 3.000000 0.599710 0.692227 0.401459
1.01999998 13.96000004 -1.20000005 135 161 107 0.000000 0.000000 0.000000 0.000000 51.808199 0.000000 3.000000 0.767270 0.587663 0.256807
1.00000000 13.97000027 -1.20000005 135 161 107 0.000000 0.000000 0.000000 0.000000 51.808199 0.000000 3.000000 0.474432 0.879135 -0.045119
1.00000000 13.97000027 -1.21000004 135 161 107 0.000000 0.000000 0.000000 0.000000 51.808199 0.000000 3.000000 0.722095 0.649729 0.237552
1.00000000 13.97000027 -1.20000005 135 161 107 0.000000 0.000000 0.000000 0.000000 51.808199 0.000000 3.000000 0.474432 0.879135 -0.045119
0.99000001 13.97000027 -1.19000006 135 161 107 0.000000 0.000000 0.000000 0.000000 51.808199 0.000000 3.000000 0.465314 0.877978 -0.112415
1.00000000 13.97000027 -1.21000004 135 161 107 0.000000 0.000000 0.000000 0.000000 51.808199 0.000000 3.000000 0.722095 0.649729 0.237552
1.01999998 13.96000004 -1.22000003 135 161 107 0.000000 0.000000 0.000000 0.000000 51.808199 0.000000 3.000000 0.800852 0.596016 0.058321
1.00000000 13.97000027 -1.20000005 135 161 107 0.000000 0.000000 0.000000 0.000000 51.808199 0.000000 3.000000 0.474432 0.879135 -0.045119
1.01999998 13.96000004 -1.23000002 135 161 107 0.000000 0.000000 0.000000 0.000000 51.808199 0.000000 3.000000 0.665205 0.731575 0.149332
1.01999998 13.97000027 -1.25999999 135 161 107 0.000000 0.000000 0.000000 0.000000 51.808199 0.000000 3.000000 0.761640 0.647880 0.012486
1.01999998 13.96000004 -1.24000001 135 161 107 0.000000 0.000000 0.000000 0.000000 51.808199 0.000000 3.000000 0.647074 0.757585 -0.085792
1.02999997 14.00000000 -1.33000004 135 161 107 0.000000 0.000000 0.000000 0.000000 51.808199 0.000000 3.000000 0.832367 0.438999 -0.338297
1.02999997 13.97999954 -1.35000002 135 161 107 0.000000 0.000000 0.000000 0.000000 51.808199 0.000000 3.000000 0.855088 0.518439 -0.006733
1.03999996 13.96000004 -1.27999997 135 161 107 0.000000 0.000000 0.000000 0.000000 51.808199 0.000000 3.000000 0.815962 0.573879 -0.069777
1.02999997 13.97000027 -1.35000002 135 161 107 0.000000 0.000000 0.000000 0.000000 51.808199 0.000000 3.000000 0.963251 -0.038332 -0.265852
1.00999999 13.98999977 -1.29999995 135 161 107 0.000000 0.000000 0.000000 0.000000 51.808199 0.000000 3.000000 0.697692 0.697692 0.162643
0.99000001 13.97999954 -1.28999996 135 161 107 0.000000 0.000000 0.000000 0.000000 51.808199 0.000000 3.000000 0.750063 0.661331 0.006932
0.99000001 14.01000023 -1.28999996 135 161 107 0.000000 0.000000 0.000000 0.000000 51.808199 0.000000 3.000000 0.517255 0.855822 0.004031
1.00000000 14.00000000 -1.27999997 135 161 107 0.000000 0.000000 0.000000 0.000000 51.808199 0.000000 3.000000 0.913748 0.400862 -0.066135
1.01999998 13.97999954 -1.30999994 135 161 107 0.000000 0.000000 0.000000 0.000000 51.808199 0.000000 3.000000 0.934019 0.354641 -0.042869
1.00999999 13.98999977 -1.29999995 135 161 107 0.000000 0.000000 0.000000 0.000000 51.808199 0.000000 3.000000 0.697692 0.697692 0.162643
1.00999999 13.98999977 -1.29999995 135 161 107 0.000000 0.000000 0.000000 0.000000 51.808199 0.000000 3.000000 0.697692 0.697692 0.162643
1.01999998 13.97999954 -1.30999994 135 161 107 0.000000 0.000000 0.000000 0.000000 51.808199 0.000000 3.000000 0.934019 0.354641 -0.042869
1.00999999 13.97999954 -1.29999995 135 161 107 0.000000 0.000000 0.000000 0.000000 51.808199 0.000000 3.000000 0.755486 0.590074 0.284699
0.99000001 13.97999954 -1.27999997 135 161 107 0.000000 0.000000 0.000000 0.000000 51.808199 0.000000 3.000000 0.659292 0.740021 0.133054
0.99000001 13.98999977 -1.36000001 135 161 107 0.000000 0.000000 0.000000 0.000000 51.808199 0.000000 3.000000 0.618544 0.765162 -0.178691
1.01999998 13.98999977 -1.36000001 135 161 107 0.000000 0.000000 0.000000 0.000000 51.808199 0.000000 3.000000 0.980561 0.187971 -0.056272
1.00000000 13.97999954 -1.35000002 135 161 107 0.000000 0.000000 0.000000 0.000000 51.808199 0.000000 3.000000 0.936055 0.349236 -0.042843
0.99000001 13.97999954 -1.33000004 135 161 107 0.000000 0.000000 0.000000 0.000000 51.808199 0.000000 3.000000 0.664563 0.746399 -0.035274
1.00000000 13.97999954 -1.35000002 135 161 107 0.000000 0.000000 0.000000 0.000000 51.808199 0.000000 3.000000 0.936055 0.349236 -0.042843
1.00000000 13.97999954 -1.35000002 135 161 107 0.000000 0.000000 0.000000 0.000000 51.808199 0.000000 3.000000 0.936055 0.349236 -0.042843
1.01999998 13.97999954 -1.36000001 135 161 107 0.000000 0.000000 0.000000 0.000000 51.808199 0.000000 3.000000 0.905004 0.281066 -0.319327
0.99000001 13.98999977 -1.34000003 135 161 107 0.000000 0.000000 0.000000 0.000000 51.808199 0.000000 3.000000 0.704154 0.679283 0.206738
1.01999998 13.97000027 -1.30999994 135 161 107 0.000000 0.000000 0.000000 0.000000 51.808199 0.000000 3.000000 0.963626 0.061562 -0.260066
1.01999998 13.94999981 -1.29999995 135 161 107 0.000000 0.000000 0.000000 0.000000 51.808199 0.000000 3.000000 0.977686 0.158173 -0.138246
1.01999998 13.93999958 -1.36000001 135 161 107 0.000000 0.000000 0.000000 0.000000 51.808199 0.000000 3.000000 0.955847 0.041559 -0.290910
1.01999998 13.97000027 -1.32000005 135 161 107 0.000000 0.000000 0.000000 0.000000 51.808199 0.000000 3.000000 0.995480 0.001067 -0.094960
1.01999998 13.97000027 -1.36000001 135 161 107 0.000000 0.000000 0.000000 0.000000 51.808199 0.000000 3.000000 0.935992 -0.138008 -0.323840
1.02999997 13.92000008 -1.20000005 135 161 107 0.000000 0.000000 0.000000 0.000000 51.808199 0.000000 3.000000 0.990082 0.087053 0.110267
1.05999994 13.93000031 -1.21000004 135 161 107 0.000000 0.000000 0.000000 0.000000 51.808199 0.000000 3.000000 0.882653 0.425854 -0.198928
1.03999996 13.90999985 -1.20000005 135 161 107 0.000000 0.000000 0.000000 0.000000 51.808199 0.000000 3.000000 0.888748 -0.219608 -0.402368
1.02999997 13.89999962 -1.19000006 135 161 107 0.000000 0.000000 0.000000 0.000000 51.808199 0.000000 3.000000 0.902418 0.119293 -0.414018
1.03999996 13.93000031 -1.24000001 135 161 107 0.000000 0.000000 0.000000 0.000000 51.808199 0.000000 3.000000 0.888705 0.172522 -0.424781
1.03999996 13.90999985 -1.25999999 135 161 107 0.000000 0.000000 0.000000 0.000000 51.808199 0.000000 3.000000 0.994457 0.083709 -0.063618
1.02999997 13.89999962 -1.26999998 135 161 107 0.000000 0.000000 0.000000 0.000000 51.808199 0.000000 3.000000 0.746356 -0.589059 -0.309778
1.03999996 13.92000008 -1.24000001 135 161 107 0.000000 0.000000 0.000000 0.000000 51.808199 0.000000 3.000000 0.991733 0.116741 -0.053270
1.03999996 13.90999985 -1.24000001 135 161 107 0.000000 0.000000 0.000000 0.000000 51.808199 0.000000 3.000000 0.979252 -0.139540 0.146950
1.05999994 13.88000011 -1.20000005 135 161 107 0.000000 0.000000 0.000000 0.000000 51.808199 0.000000 3.000000 0.997713 0.020102 -0.064539
1.05999994 13.89000034 -1.21000004 135 161 107 0.000000 0.000000 0.000000 0.000000 51.808199 0.000000 3.000000 0.938494 -0.146170 -0.312831
1.03999996 13.85999966 -1.19000006 135 161 107 0.000000 0.000000 0.000000 0.000000 51.808199 0.000000 3.000000 0.912755 -0.307163 -0.269314
1.04999995 13.88000011 -1.21000004 135 161 107 0.000000 0.000000 0.000000 0.000000 51.808199 0.000000 3.000000 0.813433 -0.106226 -0.571877
1.05999994 13.86999989 -1.21000004 135 161 107 0.000000 0.000000 0.000000 0.000000 51.808199 0.000000 3.000000 0.936955 -0.078190 -0.340590
1.05999994 13.88000011 -1.20000005 135 161 107 0.000000 0.000000 0.000000 0.000000 51.808199 0.000000 3.000000 0.997713 0.020102 -0.064539
1.05999994 13.86999989 -1.25000000 135 161 107 0.000000 0.000000 0.000000 0.000000 51.808199 0.000000 3.000000 0.998089 -0.047730 0.039245
1.02999997 13.89000034 -1.25999999 135 161 107 0.000000 0.000000 0.000000 0.000000 51.808199 0.000000 3.000000 0.871260 -0.473792 -0.128169
1.05999994 13.88000011 -1.24000001 135 161 107 0.000000 0.000000 0.000000 0.000000 51.808199 0.000000 3.000000 0.922507 -0.022057 -0.385351
1.02999997 13.89000034 -1.25999999 135 161 107 0.000000 0.000000 0.000000 0.000000 51.808199 0.000000 3.000000 0.871260 -0.473792 -0.128169
1.05999994 13.85999966 -1.25999999 135 161 107 0.000000 0.000000 0.000000 0.000000 51.808199 0.000000 3.000000 0.911902 -0.178385 -0.369613
1.01999998 13.86999989 -1.23000002 135 161 107 0.000000 0.000000 0.000000 0.000000 51.808199 0.000000 3.000000 0.657937 -0.503128 -0.560340
1.00999999 13.86999989 -1.25000000 135 161 107 0.000000 0.000000 0.000000 0.000000 51.808199 0.000000 3.000000 -0.525515 0.835166 0.162269
1.01999998 13.89000034 -1.26999998 135 161 107 0.000000 0.000000 0.000000 0.000000 51.808199 0.000000 3.000000 0.969301 -0.230067 -0.086747
1.02999997 13.90999985 -1.27999997 135 161 107 0.000000 0.000000 0.000000 0.000000 51.808199 0.000000 3.000000 0.937865 0.252234 -0.238299
1.04999995 13.90999985 -1.27999997 135 161 107 0.000000 0.000000 0.000000 0.000000 51.808199 0.000000 3.000000 0.991130 -0.030375 0.129376
1.04999995 13.90999985 -1.34000003 135 161 107 0.000000 0.000000 0.000000 0.000000 51.808199 0.000000 3.000000 0.991112 0.123747 -0.048818
1.04999995 13.89999962 -1.35000002 135 161 107 0.000000 0.000000 0.000000 0.000000 51.808199 0.000000 3.000000 0.953817 -0.094991 -0.284974
1.04999995 13.90999985 -1.33000004 135 161 107 0.000000 0.000000 0.000000 0.000000 51.808199 0.000000 3.000000 0.981549 -0.176607 -0.073286
1.04999995 13.90999985 -1.36000001 135 161 107 0.000000 0.000000 0.000000 0.000000 51.808199 0.000000 3.000000 0.860492 0.028638 -0.508658
1.05999994 13.92000008 -1.32000005 135 161 107 0.000000 0.000000 0.000000 0.000000 51.808199 0.000000 3.000000 0.947926 0.288266 -0.135418
1.04999995 13.92000008 -1.36000001 135 161 107 0.000000 0.000000 0.000000 0.000000 51.808199 0.000000 3.000000 0.741823 -0.370096 -0.559220
1.04999995 13.88000011 -1.36000001 135 161 107 0.000000 0.000000 0.000000 0.000000 51.808199 0.000000 3.000000 0.987155 -0.153918 -0.042819
1.03999996 13.88000011 -1.33000004 135 161 107 0.000000 0.000000 0.000000 0.000000 51.808199 0.000000 3.000000 0.789003 -0.448776 -0.419613
1.05999994 13.89000034 -1.34000003 135 161 107 0.000000 0.000000 0.000000 0.000000 51.808199 0.000000 3.000000 0.980733 -0.150976 -0.123972
1.00999999 13.90999985 -1.34000003 135 161 107 0.000000 0.000000 0.000000 0.000000 51.808199 0.000000 3.000000 0.959857 0.083299 -0.267837
1.01999998 13.93000031 -1.33000004 135 161 107 0.000000 0.000000 0.000000 0.000000 51.808199 0.000000 3.000000 0.998219 0.059208 -0.007271
1.01999998 13.88000011 -1.34000003 135 161 107 0.000000 0.000000 0.000000 0.000000 51.808199 0.000000 3.000000 -0.558877 0.609530 0.562254
1.00999999 13.88000011 -1.35000002 135 161 107 0.000000 0.000000 0.000000 0.000000 51.808199 0.000000 3.000000 0.909196 -0.245847 -0.336039
0.99000001 13.89000034 -1.35000002 135 161 107 0.000000 0.000000 0.000000 0.000000 51.808199 0.000000 3.000000 0.658700 -0.709248 -0.251159
1.07000005 13.85000038 -1.03999996 135 161 107 0.000000 0.000000 0.000000 0.000000 51.808199 0.000000 3.000000 0.994914 -0.067810 0.074480
1.11000001 13.81999969 -1.01999998 135 161 107 0.000000 0.000000 0.000000 0.000000 51.808199 0.000000 3.000000 0.819446 -0.084671 -0.566867
1.10000002 13.84000015 -1.01999998 135 161 107 0.000000 0.000000 0.000000 0.000000 51.808199 0.000000 3.000000 0.889418 0.044810 -0.454893
1.08000004 13.81000042 -1.04999995 135 161 107 0.000000 0.000000 0.000000 0.000000 51.808199 0.000000 3.000000 0.676445 -0.391974 -0.623520
1.10000002 13.84000015 -1.03999996 135 161 107 0.000000 0.000000 0.000000 0.000000 51.808199 0.000000 3.000000 0.932849 -0.360158 -0.008909
1.10000002 13.85000038 -1.02999997 135 161 107 0.000000 0.000000 0.000000 0.000000 51.808199 0.000000 3.000000 0.999827 0.015012 0.011009
1.09000003 13.84000015 -1.04999995 135 161 107 0.000000 0.000000 0.000000 0.000000 51.808199 0.000000 3.000000 0.780233 -0.410393 -0.472033
1.08000004 13.81000042 -1.04999995 135 161 107 0.000000 0.000000 0.000000 0.000000 51.808199 0.000000 3.000000 0.676445 -0.391974 -0.623520
1.07000005 13.85000038 -1.03999996 135 161 107 0.000000 0.000000 0.000000 0.000000 51.808199 0.000000 3.000000 0.994914 -0.067810 0.074480
1.08000004 13.81000042 -1.04999995 135 161 107 0.000000 0.000000 0.000000 0.000000 51.808199 0.000000 3.000000 0.676445 -0.391974 -0.623520
1.09000003 13.82999992 -1.03999996 135 161 107 0.000000 0.000000 0.000000 0.000000 51.808199 0.000000 3.000000 0.976497 0.074738 -0.202161
1.09000003 13.81999969 -1.05999994 135 161 107 0.000000 0.000000 0.000000 0.000000 51.808199 0.000000 3.000000 0.914515 -0.402174 0.043801
1.09000003 13.81999969 -1.05999994 135 161 107 0.000000 0.000000 0.000000 0.000000 51.808199 0.000000 3.000000 0.914515 -0.402174 0.043801
1.10000002 13.82999992 -1.07000005 135 161 107 0.000000 0.000000 0.000000 0.000000 51.808199 0.000000 3.000000 0.998131 -0.013587 -0.059574
1.08000004 13.84000015 -1.05999994 135 161 107 0.000000 0.000000 0.000000 0.000000 51.808199 0.000000 3.000000 0.904000 -0.185990 -0.384957
1.09000003 13.78999996 -1.03999996 135 161 107 0.000000 0.000000 0.000000 0.000000 51.808199 0.000000 3.000000 0.604488 -0.506827 -0.614590
1.07000005 13.77999973 -1.01999998 135 161 107 0.000000 0.000000 0.000000 0.000000 51.808199 0.000000 3.000000 -0.383020 0.871331 0.306721
1.10000002 13.78999996 -1.03999996 135 161 107 0.000000 0.000000 0.000000 0.000000 51.808199 0.000000 3.000000 0.829813 -0.422019 -0.365118
1.08000004 13.77999973 -1.04999995 135 161 107 0.000000 0.000000 0.000000 0.000000 51.808199 0.000000 3.000000 0.885998 -0.435050 -0.160434
1.07000005 13.78999996 -1.10000002 135 161 107 0.000000 0.000000 0.000000 0.000000 51.808199 0.000000 3.000000 0.641747 -0.648380 -0.409590
1.08000004 13.78999996 -1.09000003 135 161 107 0.000000 0.000000 0.000000 0.000000 51.808199 0.000000 3.000000 -0.694324 0.681786 0.230396
1.08000004 13.80000019 -1.09000003 135 161 107 0.000000 0.000000 0.000000 0.000000 51.808199 0.000000 3.000000 0.955792 -0.141452 -0.257786
1.10000002 13.81999969 -1.11000001 135 161 107 0.000000 0.000000 0.000000 0.000000 51.808199 0.000000 3.000000 0.985978 -0.162981 0.035833
1.08000004 13.85000038 -1.17999995 135 161 107 0.000000 0.000000 0.000000 0.000000 51.808199 0.000000 3.000000 0.926290 -0.181322 -0.330316
1.09000003 13.77999973 -1.12000000 135 161 107 0.000000 0.000000 0.000000 0.000000 51.808199 0.000000 3.000000 0.460336 -0.627730 -0.627730
1.07000005 13.80000019 -1.11000001 135 161 107 0.000000 0.000000 0.000000 0.000000 51.808199 0.000000 3.000000 0.596499 -0.525528 -0.606638
1.07000005 13.77000046 -1.13999999 135 161 107 0.000000 0.000000 0.000000 0.000000 51.808199 0.000000 3.000000 -0.361203 0.902275 0.235440
1.13999999 13.68999958 -1.10000002 135 161 107 0.000000 0.000000 0.000000 0.000000 51.808199 0.000000 3.000000 0.878490 -0.400952 -0.259793
1.07000005 13.72000027 -1.03999996 135 161 107 0.000000 0.000000 0.000000 0.000000 51.808199 0.000000 3.000000 -0.617433 0.766837 0.175321
1.08000004 13.69999981 -1.09000003 135 161 107 0.000000 0.000000 0.000000 0.000000 51.808199 0.000000 3.000000 -0.589520 0.805441 -0.061083
1.05999994 13.84000015 -1.08000004 135 161 107 0.000000 0.000000 0.000000 0.000000 51.808199 0.000000 3.000000 0.935113 -0.075605 -0.346191
1.05999994 13.77000046 -1.04999995 135 161 107 0.000000 0.000000 0.000000 0.000000 51.808199 0.000000 3.000000 -0.455093 0.757393 0.468237
1.04999995 13.77000046 -1.09000003 135 161 107 0.000000 0.000000 0.000000 0.000000 51.808199 0.000000 3.000000 0.769776 -0.637493 -0.032367
1.05999994 13.82999992 -1.10000002 135 161 107 0.000000 0.000000 0.000000 0.000000 51.808199 0.000000 3.000000 0.978706 -0.201463 0.039339
1.05999994 13.81000042 -1.13000000 135 161 107 0.000000 0.000000 0.000000 0.000000 51.808199 0.000000 3.000000 -0.556567 0.800161 0.223552
1.05999994 13.82999992 -1.13000000 135 161 107 0.000000 0.000000 0.000000 0.000000 51.808199 0.000000 3.000000 0.904252 -0.283774 -0.319061
1.04999995 13.82999992 -1.16999996 135 161 107 0.000000 0.000000 0.000000 0.000000 51.808199 0.000000 3.000000 0.921439 -0.338286 -0.191082
1.04999995 13.85000038 -1.16999996 135 161 107 0.000000 0.000000 0.000000 0.000000 51.808199 0.000000 3.000000 0.910965 -0.387195 0.142206
1.05999994 13.81000042 -1.16999996 135 161 107 0.000000 0.000000 0.000000 0.000000 51.808199 0.000000 3.000000 -0.647231 0.456573 0.610437
1.03999996 13.80000019 -1.12000000 135 161 107 0.000000 0.000000 0.000000 0.000000 51.808199 0.000000 3.000000 -0.510038 0.859228 0.039868
1.03999996 13.77000046 -1.13000000 135 161 107 0.000000 0.000000 0.000000 0.000000 51.808199 0.000000 3.000000 -0.169073 0.824419 0.540137
1.03999996 13.77000046 -1.15999997 135 161 107 0.000000 0.000000 0.000000 0.000000 51.808199 0.000000 3.000000 -0.654944 0.754393 0.044042
1.04999995 13.77999973 -1.15999997 135 161 107 0.000000 0.000000 0.000000 0.000000 51.808199 0.000000 3.000000 -0.616206 0.710507 0.339808
1.05999994 13.80000019 -1.16999996 135 161 107 0.000000 0.000000 0.000000 0.000000 51.808199 0.000000 3.000000 -0.614128 0.677031 0.405556
1.04999995 13.78999996 -1.16999996 135 161 107 0.000000 0.000000 0.000000 0.000000 51.808199 0.000000 3.000000 0.676574 -0.417248 -0.606755
1.04999995 13.80000019 -1.17999995 135 161 107 0.000000 0.000000 0.000000 0.000000 51.808199 0.000000 3.000000 0.608906 -0.504329 -0.612279
1.04999995 13.78999996 -1.16999996 135 161 107 0.000000 0.000000 0.000000 0.000000 51.808199 0.000000 3.000000 0.676574 -0.417248 -0.606755
1.04999995 13.80000019 -1.17999995 135 161 107 0.000000 0.000000 0.000000 0.000000 51.808199 0.000000 3.000000 0.608906 -0.504329 -0.612279
1.02999997 13.78999996 -1.17999995 135 161 107 0.000000 0.000000 0.000000 0.000000 51.808199 0.000000 3.000000 -0.167960 0.943578 0.285395
0.99000001 13.77000046 -1.13000000 135 161 107 0.000000 0.000000 0.000000 0.000000 51.808199 0.000000 3.000000 0.535232 -0.781279 -0.321139
1.03999996 13.76000023 -1.04999995 135 161 107 0.000000 0.000000 0.000000 0.000000 51.808199 0.000000 3.000000 -0.558412 0.823911 0.096676
1.03999996 13.75000000 -1.05999994 135 161 107 0.000000 0.000000 0.000000 0.000000 51.808199 0.000000 3.000000 -0.459331 0.888217 0.009266
1.03999996 13.75000000 -1.05999994 135 161 107 0.000000 0.000000 0.000000 0.000000 51.808199 0.000000 3.000000 -0.459331 0.888217 0.009266
1.03999996 13.76000023 -1.08000004 135 161 107 0.000000 0.000000 0.000000 0.000000 51.808199 0.000000 3.000000 0.639513 -0.713241 -0.286899
1.02999997 13.75000000 -1.07000005 135 161 107 0.000000 0.000000 0.000000 0.000000 51.808199 0.000000 3.000000 -0.219285 0.972534 0.078050
1.02999997 13.72000027 -1.01999998 135 161 107 0.000000 0.000000 0.000000 0.000000 51.808199 0.000000 3.000000 -0.159158 0.986317 0.042984
1.00000000 13.73999977 -1.04999995 135 161 107 0.000000 0.000000 0.000000 0.000000 51.808199 0.000000 3.000000 -0.417262 0.907846 -0.041326
0.99000001 13.72999954 -1.08000004 135 161 107 0.000000 0.000000 0.000000 0.000000 51.808199 0.000000 3.000000 -0.310286 0.950636 -0.003709
1.01999998 13.72999954 -1.10000002 135 161 107 0.000000 0.000000 0.000000 0.000000 51.808199 0.000000 3.000000 -0.087863 0.885605 0.456052
1.00999999 13.73999977 -1.05999994 135 161 107 0.000000 0.000000 0.000000 0.000000 51.808199 0.000000 3.000000 -0.389840 0.892953 0.225077
0.99000001 13.72999954 -1.07000005 135 161 107 0.000000 0.000000 0.000000 0.000000 51.808199 0.000000 3.000000 -0.267681 0.962406 0.046066
1.01999998 13.75000000 -1.07000005 135 161 107 0.000000 0.000000 0.000000 0.000000 51.808199 0.000000 3.000000 -0.278170 0.956129 -0.091861
1.01999998 13.72999954 -1.09000003 135 161 107 0.000000 0.000000 0.000000 0.000000 51.808199 0.000000 3.000000 -0.137340 0.868857 0.475631
1.01999998 13.76000023 -1.11000001 135 161 107 0.000000 0.000000 0.000000 0.000000 51.808199 0.000000 3.000000 0.460930 -0.655359 -0.598371
1.01999998 13.73999977 -1.11000001 135 161 107 0.000000 0.000000 0.000000 0.000000 51.808199 0.000000 3.000000 -0.424929 0.773338 0.470515
1.07000005 13.85000038 -1.19000006 135 161 107 0.000000 0.000000 0.000000 0.000000 51.808199 0.000000 3.000000 0.940259 -0.177589 -0.290475
1.04999995 13.85000038 -1.23000002 135 161 107 0.000000 0.000000 0.000000 0.000000 51.808199 0.000000 3.000000 0.669129 -0.474595 -0.571862
1.04999995 13.85000038 -1.23000002 135 161 107 0.000000 0.000000 0.000000 0.000000 51.808199 0.000000 3.000000 0.669129 -0.474595 -0.571862
1.05999994 13.84000015 -1.20000005 135 161 107 0.000000 0.000000 0.000000 0.000000 51.808199 0.000000 3.000000 0.920700 -0.265725 -0.285834
1.04999995 13.81000042 -1.20000005 135 161 107 0.000000 0.000000 0.000000 0.000000 51.808199 0.000000 3.000000 0.812015 -0.582015 0.043476
1.03999996 13.84000015 -1.22000003 135 161 107 0.000000 0.000000 0.000000 0.000000 51.808199 0.000000 3.000000 -0.585637 0.729191 0.353992
1.04999995 13.81000042 -1.21000004 135 161 107 0.000000 0.000000 0.000000 0.000000 51.808199 0.000000 3.000000 0.787664 -0.477127 -0.389789
1.04999995 13.85000038 -1.24000001 135 161 107 0.000000 0.000000 0.000000 0.000000 51.808199 0.000000 3.000000 0.891237 -0.452968 0.022715
1.04999995 13.84000015 -1.25000000 135 161 107 0.000000 0.000000 0.000000 0.000000 51.808199 0.000000 3.000000 0.804697 -0.580268 0.125503
1.04999995 13.85000038 -1.24000001 135 161 107 0.000000 0.000000 0.000000 0.000000 51.808199 0.000000 3.000000 0.891237 -0.452968 0.022715
1.02999997 13.78999996 -1.22000003 135 161 107 0.000000 0.000000 0.000000 0.000000 51.808199 0.000000 3.000000 -0.375944 0.906010 0.194454
1.03999996 13.80000019 -1.19000006 135 161 107 0.000000 0.000000 0.000000 0.000000 51.808199 0.000000 3.000000 0.647895 -0.657787 -0.384121
1.03999996 13.80000019 -1.22000003 135 161 107 0.000000 0.000000 0.000000 0.000000 51.808199 0.000000 3.000000 0.793114 -0.487451 -0.365186
1.01999998 13.84000015 -1.26999998 135 161 107 0.000000 0.000000 0.000000 0.000000 51.808199 0.000000 3.000000 0.752490 -0.658602 -0.001381
1.01999998 13.81000042 -1.25999999 135 161 107 0.000000 0.000000 0.000000 0.000000 51.808199 0.000000 3.000000 -0.658458 0.677968 0.326790
1.00999999 13.81000042 -1.26999998 135 161 107 0.000000 0.000000 0.000000 0.000000 51.808199 0.000000 3.000000 0.634955 -0.520427 -0.570954
1.01999998 13.82999992 -1.25999999 135 161 107 0.000000 0.000000 0.000000 0.000000 51.808199 0.000000 3.000000 0.677547 -0.460062 -0.573823
1.00999999 13.81000042 -1.26999998 135 161 107 0.000000 0.000000 0.000000 0.000000 51.808199 0.000000 3.000000 0.634955 -0.520427 -0.570954
1.00999999 13.78999996 -1.19000006 135 161 107 0.000000 0.000000 0.000000 0.000000 51.808199 0.000000 3.000000 -0.213778 0.927317 0.307218
1.00999999 13.78999996 -1.24000001 135 161 107 0.000000 0.000000 0.000000 0.000000 51.808199 0.000000 3.000000 -0.276385 0.915977 0.290855
1.00999999 13.78999996 -1.24000001 135 161 107 0.000000 0.000000 0.000000 0.000000 51.808199 0.000000 3.000000 -0.276385 0.915977 0.290855
1.01999998 13.80000019 -1.24000001 135 161 107 0.000000 0.000000 0.000000 0.000000 51.808199 0.000000 3.000000 -0.557388 0.825279 -0.090738
1.02999997 13.85000038 -1.36000001 135 161 107 0.000000 0.000000 0.000000 0.000000 51.808199 0.000000 3.000000 0.906550 -0.256295 -0.335380
1.04999995 13.85000038 -1.35000002 135 161 107 0.000000 0.000000 0.000000 0.000000 51.808199 0.000000 3.000000 0.849797 -0.521756 -0.074941
1.02999997 13.82999992 -1.35000002 135 161 107 0.000000 0.000000 0.000000 0.000000 51.808199 0.000000 3.000000 0.773370 -0.504231 -0.384253
1.00999999 13.84000015 -1.29999995 135 161 107 0.000000 0.000000 0.000000 0.000000 51.808199 0.000000 3.000000 0.817129 -0.571848 -0.072729
1.00999999 13.82999992 -1.28999996 135 161 107 0.000000 0.000000 0.000000 0.000000 51.808199 0.000000 3.000000 0.754008 -0.616632 -0.226358
1.01999998 13.84000015 -1.29999995 135 161 107 0.000000 0.000000 0.000000 0.000000 51.808199 0.000000 3.000000 0.838776 -0.507482 -0.197271
1.00999999 13.82999992 -1.30999994 135 161 107 0.000000 0.000000 0.000000 0.000000 51.808199 0.000000 3.000000 -0.686624 0.695965 0.210191
1.01999998 13.84000015 -1.29999995 135 161 107 0.000000 0.000000 0.000000 0.000000 51.808199 0.000000 3.000000 0.838776 -0.507482 -0.197271
