//X Y Z R G B PointSourceId ScanDirectionFlag NumberOfReturns ReturnNumber GpsTime Intensity Classification Nx Ny Nz
6.32999992 16.70000076 -0.80000001 178 48 142 0.000000 0.000000 0.000000 0.000000 51.808199 0.000000 244.000000 0.937442 -0.302356 -0.172578
6.34000015 16.69000053 -0.81000000 178 48 142 0.000000 0.000000 0.000000 0.000000 51.808199 0.000000 244.000000 0.988834 -0.126953 -0.078035
6.38999987 16.67000008 -0.69999999 178 48 142 0.000000 0.000000 0.000000 0.000000 51.808199 0.000000 244.000000 0.939575 -0.333398 0.077749
6.38000011 16.68000031 -0.69000000 178 48 142 0.000000 0.000000 0.000000 0.000000 51.808199 0.000000 244.000000 0.912667 -0.381098 0.147658
6.38000011 16.67000008 -0.72000003 178 48 142 0.000000 0.000000 0.000000 0.000000 51.808199 0.000000 244.000000 0.841614 -0.538355 0.043124
6.34000015 16.64999962 -0.75000000 178 48 142 0.000000 0.000000 0.000000 0.000000 51.808199 0.000000 244.000000 -0.601072 0.709167 0.368505
6.34000015 16.64999962 -0.75000000 178 48 142 0.000000 0.000000 0.000000 0.000000 51.808199 0.000000 244.000000 -0.601072 0.709167 0.368505
6.38999987 16.67000008 -0.76999998 178 48 142 0.000000 0.000000 0.000000 0.000000 51.808199 0.000000 244.000000 0.892796 -0.437259 -0.108260
6.38000011 16.67000008 -0.80000001 178 48 142 0.000000 0.000000 0.000000 0.000000 51.808199 0.000000 244.000000 -0.679183 0.731095 0.064890
6.34999990 16.67000008 -0.76999998 178 48 142 0.000000 0.000000 0.000000 0.000000 51.808199 0.000000 244.000000 -0.697351 0.711910 0.082983
6.34999990 16.67000008 -0.75999999 178 48 142 0.000000 0.000000 0.000000 0.000000 51.808199 0.000000 244.000000 0.823106 -0.385385 -0.417104
6.32999992 16.68000031 -0.82999998 178 48 142 0.000000 0.000000 0.000000 0.000000 51.808199 0.000000 244.000000 0.927723 -0.362203 -0.090214
6.32999992 16.67000008 -0.82999998 178 48 142 0.000000 0.000000 0.000000 0.000000 51.808199 0.000000 244.000000 0.328188 -0.813336 -0.480392
6.30999994 16.63999939 -0.75999999 178 48 142 0.000000 0.000000 0.000000 0.000000 51.808199 0.000000 244.000000 -0.235189 0.822393 0.518031
6.32999992 16.63999939 -0.79000002 178 48 142 0.000000 0.000000 0.000000 0.000000 51.808199 0.000000 244.000000 -0.664569 0.644780 0.377633
6.46000004 16.71999931 -0.87000000 178 48 142 0.000000 0.000000 0.000000 0.000000 51.808199 0.000000 244.000000 0.873627 -0.443488 -0.200237
6.46999979 16.71999931 -0.86000001 178 48 142 0.000000 0.000000 0.000000 0.000000 51.808199 0.000000 244.000000 0.880826 0.309725 -0.358072
6.42999983 16.71999931 -0.86000001 178 48 142 0.000000 0.000000 0.000000 0.000000 51.808199 0.000000 244.000000 0.862651 -0.004025 -0.505784
6.40000010 16.70000076 -0.94999999 178 48 142 0.000000 0.000000 0.000000 0.000000 51.808199 0.000000 244.000000 0.818412 -0.343511 -0.460654
6.42000008 16.70000076 -0.98000002 178 48 142 0.000000 0.000000 0.000000 0.000000 51.808199 0.000000 244.000000 0.851833 -0.268596 -0.449707
6.36999989 16.72999954 -0.85000002 178 48 142 0.000000 0.000000 0.000000 0.000000 51.808199 0.000000 244.000000 0.883966 0.111733 -0.454005
6.34999990 16.75000000 -0.91000003 178 48 142 0.000000 0.000000 0.000000 0.000000 51.808199 0.000000 244.000000 0.905777 0.421447 0.044152
6.34999990 16.75000000 -0.91000003 178 48 142 0.000000 0.000000 0.000000 0.000000 51.808199 0.000000 244.000000 0.905777 0.421447 0.044152
6.36000013 16.71999931 -0.87000000 178 48 142 0.000000 0.000000 0.000000 0.000000 51.808199 0.000000 244.000000 0.930937 -0.281117 -0.233087
6.36000013 16.70000076 -0.86000001 178 48 142 0.000000 0.000000 0.000000 0.000000 51.808199 0.000000 244.000000 0.970843 -0.063074 -0.231271
6.34999990 16.70999908 -0.93000001 178 48 142 0.000000 0.000000 0.000000 0.000000 51.808199 0.000000 244.000000 0.982189 -0.125360 -0.139965
6.32999992 16.73999977 -0.88000000 178 48 142 0.000000 0.000000 0.000000 0.000000 51.808199 0.000000 244.000000 0.986450 -0.026413 -0.161920
6.32999992 16.72999954 -0.88000000 178 48 142 0.000000 0.000000 0.000000 0.000000 51.808199 0.000000 244.000000 0.919763 -0.353538 -0.170431
6.32999992 16.73999977 -0.86000001 178 48 142 0.000000 0.000000 0.000000 0.000000 51.808199 0.000000 244.000000 0.834257 0.527917 -0.159119
6.32000017 16.75000000 -0.86000001 178 48 142 0.000000 0.000000 0.000000 0.000000 51.808199 0.000000 244.000000 0.827090 0.559377 0.054951
6.32999992 16.73999977 -0.88000000 178 48 142 0.000000 0.000000 0.000000 0.000000 51.808199 0.000000 244.000000 0.986450 -0.026413 -0.161920
6.32999992 16.73999977 -0.87000000 178 48 142 0.000000 0.000000 0.000000 0.000000 51.808199 0.000000 244.000000 0.860313 0.509765 0.001338
6.32000017 16.76000023 -0.85000002 178 48 142 0.000000 0.000000 0.000000 0.000000 51.808199 0.000000 244.000000 0.767655 0.640861 0.001378
6.30999994 16.76000023 -0.87000000 178 48 142 0.000000 0.000000 0.000000 0.000000 51.808199 0.000000 244.000000 0.812640 0.579237 0.064043
6.32999992 16.72999954 -0.86000001 178 48 142 0.000000 0.000000 0.000000 0.000000 51.808199 0.000000 244.000000 0.941887 0.293913 -0.162677
6.32999992 16.76000023 -0.88000000 178 48 142 0.000000 0.000000 0.000000 0.000000 51.808199 0.000000 244.000000 0.731160 0.605265 0.314738
6.32000017 16.73999977 -0.91000003 178 48 142 0.000000 0.000000 0.000000 0.000000 51.808199 0.000000 244.000000 0.871409 0.404637 -0.277335
6.32000017 16.76000023 -0.89999998 178 48 142 0.000000 0.000000 0.000000 0.000000 51.808199 0.000000 244.000000 0.894597 0.446636 -0.014579
6.32000017 16.77000046 -0.89999998 178 48 142 0.000000 0.000000 0.000000 0.000000 51.808199 0.000000 244.000000 0.636157 0.758898 0.139206
6.32999992 16.73999977 -0.89999998 178 48 142 0.000000 0.000000 0.000000 0.000000 51.808199 0.000000 244.000000 0.987103 0.157065 -0.030954
6.34000015 16.70000076 -0.88000000 178 48 142 0.000000 0.000000 0.000000 0.000000 51.808199 0.000000 244.000000 0.843996 -0.533271 -0.057386
6.32999992 16.71999931 -0.86000001 178 48 142 0.000000 0.000000 0.000000 0.000000 51.808199 0.000000 244.000000 0.970351 0.228538 -0.078677
6.32000017 16.71999931 -0.89999998 178 48 142 0.000000 0.000000 0.000000 0.000000 51.808199 0.000000 244.000000 0.962603 -0.010925 -0.270694
6.38000011 16.73999977 -1.00000000 178 48 142 0.000000 0.000000 0.000000 0.000000 51.808199 0.000000 244.000000 0.927177 0.032510 -0.373211
6.38000011 16.70999908 -0.94000000 178 48 142 0.000000 0.000000 0.000000 0.000000 51.808199 0.000000 244.000000 0.977281 -0.027312 -0.210181
6.38999987 16.71999931 -0.97000003 178 48 142 0.000000 0.000000 0.000000 0.000000 51.808199 0.000000 244.000000 0.803149 -0.247003 -0.542164
6.38999987 16.70000076 -0.95999998 178 48 142 0.000000 0.000000 0.000000 0.000000 51.808199 0.000000 244.000000 0.941893 -0.298516 -0.154029
6.38000011 16.71999931 -0.98000002 178 48 142 0.000000 0.000000 0.000000 0.000000 51.808199 0.000000 244.000000 0.835491 -0.533011 -0.133620
6.38999987 16.70000076 -0.98000002 178 48 142 0.000000 0.000000 0.000000 0.000000 51.808199 0.000000 244.000000 0.901967 -0.266323 -0.339893
6.38999987 16.70000076 -0.99000001 178 48 142 0.000000 0.000000 0.000000 0.000000 51.808199 0.000000 244.000000 0.779023 -0.546431 -0.307467
6.38000011 16.71999931 -1.00000000 178 48 142 0.000000 0.000000 0.000000 0.000000 51.808199 0.000000 244.000000 0.965982 -0.146126 0.213369
6.30999994 16.75000000 -0.95999998 178 48 142 0.000000 0.000000 0.000000 0.000000 51.808199 0.000000 244.000000 0.988781 -0.109083 -0.102045
6.32999992 16.75000000 -0.94999999 178 48 142 0.000000 0.000000 0.000000 0.000000 51.808199 0.000000 244.000000 0.943635 0.325794 -0.058409
6.30999994 16.76000023 -0.95999998 178 48 142 0.000000 0.000000 0.000000 0.000000 51.808199 0.000000 244.000000 0.984995 0.137636 0.104125
6.30999994 16.75000000 -0.95999998 178 48 142 0.000000 0.000000 0.000000 0.000000 51.808199 0.000000 244.000000 0.988781 -0.109083 -0.102045
6.32999992 16.76000023 -0.99000001 178 48 142 0.000000 0.000000 0.000000 0.000000 51.808199 0.000000 244.000000 0.829637 0.553566 -0.072575
6.32999992 16.75000000 -0.98000002 178 48 142 0.000000 0.000000 0.000000 0.000000 51.808199 0.000000 244.000000 0.995518 -0.088321 0.033802
6.32000017 16.71999931 -0.95999998 178 48 142 0.000000 0.000000 0.000000 0.000000 51.808199 0.000000 244.000000 0.943615 -0.262344 0.201909
6.34000015 16.68000031 -0.85000002 178 48 142 0.000000 0.000000 0.000000 0.000000 51.808199 0.000000 244.000000 0.817069 -0.572659 -0.066786
6.38000011 16.67000008 -0.94999999 178 48 142 0.000000 0.000000 0.000000 0.000000 51.808199 0.000000 244.000000 0.809344 -0.586461 0.032039
6.38999987 16.68000031 -0.95999998 178 48 142 0.000000 0.000000 0.000000 0.000000 51.808199 0.000000 244.000000 0.899132 -0.435412 0.044485
6.32000017 16.57999992 -0.73000002 178 48 142 0.000000 0.000000 0.000000 0.000000 51.808199 0.000000 244.000000 0.165522 0.984913 0.050478
6.28999996 16.60000038 -0.69999999 178 48 142 0.000000 0.000000 0.000000 0.000000 51.808199 0.000000 244.000000 0.234489 0.895188 0.379017
6.28999996 16.62000084 -0.68000001 178 48 142 0.000000 0.000000 0.000000 0.000000 51.808199 0.000000 244.000000 0.173938 0.984091 0.036188
6.28000021 16.61000061 -0.68000001 178 48 142 0.000000 0.000000 0.000000 0.000000 51.808199 0.000000 244.000000 0.562526 0.824756 0.057803
6.26999998 16.63999939 -0.69999999 178 48 142 0.000000 0.000000 0.000000 0.000000 51.808199 0.000000 244.000000 0.368169 0.811247 0.454235
6.30000019 16.60000038 -0.69000000 178 48 142 0.000000 0.000000 0.000000 0.000000 51.808199 0.000000 244.000000 0.318792 0.940234 0.119715
6.28000021 16.63999939 -0.75000000 178 48 142 0.000000 0.000000 0.000000 0.000000 51.808199 0.000000 244.000000 0.147389 0.988970 0.014626
6.28000021 16.62000084 -0.72000003 178 48 142 0.000000 0.000000 0.000000 0.000000 51.808199 0.000000 244.000000 -0.035152 0.989919 -0.137205
6.30000019 16.62000084 -0.72000003 178 48 142 0.000000 0.000000 0.000000 0.000000 51.808199 0.000000 244.000000 0.137348 0.978760 0.152197
6.25000000 16.63999939 -0.69000000 178 48 142 0.000000 0.000000 0.000000 0.000000 51.808199 0.000000 244.000000 0.497269 0.786940 0.365307
6.26000023 16.62000084 -0.69000000 178 48 142 0.000000 0.000000 0.000000 0.000000 51.808199 0.000000 244.000000 0.353491 0.798153 0.487849
6.28000021 16.62999916 -0.75999999 178 48 142 0.000000 0.000000 0.000000 0.000000 51.808199 0.000000 244.000000 -0.007868 0.988040 0.153995
6.30000019 16.77000046 -0.98000002 178 48 142 0.000000 0.000000 0.000000 0.000000 51.808199 0.000000 244.000000 0.983927 0.156997 -0.085090
6.28000021 16.77000046 -0.97000003 178 48 142 0.000000 0.000000 0.000000 0.000000 51.808199 0.000000 244.000000 0.232137 0.972595 0.013095
6.30000019 16.77000046 -0.94999999 178 48 142 0.000000 0.000000 0.000000 0.000000 51.808199 0.000000 244.000000 0.713975 0.623311 0.318941
6.26000023 16.59000015 -0.69999999 178 48 142 0.000000 0.000000 0.000000 0.000000 51.808199 0.000000 244.000000 -0.028003 0.967945 0.249596
6.26000023 16.59000015 -0.68000001 178 48 142 0.000000 0.000000 0.000000 0.000000 51.808199 0.000000 244.000000 0.235948 0.936812 -0.258286
6.26000023 16.59000015 -0.69000000 178 48 142 0.000000 0.000000 0.000000 0.000000 51.808199 0.000000 244.000000 0.114391 0.990231 -0.079727
6.28000021 16.59000015 -0.72000003 178 48 142 0.000000 0.000000 0.000000 0.000000 51.808199 0.000000 244.000000 0.015201 0.978721 -0.204631
6.40000010 16.73999977 -1.01999998 178 48 142 0.000000 0.000000 0.000000 0.000000 51.808199 0.000000 244.000000 0.955293 -0.289521 -0.059945
6.42999983 16.70000076 -1.09000003 178 48 142 0.000000 0.000000 0.000000 0.000000 51.808199 0.000000 244.000000 0.817456 -0.282905 -0.501727
6.42000008 16.73999977 -1.13999999 178 48 142 0.000000 0.000000 0.000000 0.000000 51.808199 0.000000 244.000000 0.913466 -0.395790 0.094497
6.40999985 16.70999908 -1.12000000 178 48 142 0.000000 0.000000 0.000000 0.000000 51.808199 0.000000 244.000000 0.925885 -0.363012 -0.104689
6.40999985 16.70999908 -1.14999998 178 48 142 0.000000 0.000000 0.000000 0.000000 51.808199 0.000000 244.000000 0.911166 -0.411789 -0.014380
6.40999985 16.71999931 -1.15999997 178 48 142 0.000000 0.000000 0.000000 0.000000 51.808199 0.000000 244.000000 0.911102 -0.046689 -0.409529
6.38000011 16.71999931 -1.01999998 178 48 142 0.000000 0.000000 0.000000 0.000000 51.808199 0.000000 244.000000 0.865860 -0.358340 -0.349112
6.38000011 16.71999931 -1.03999996 178 48 142 0.000000 0.000000 0.000000 0.000000 51.808199 0.000000 244.000000 0.943900 -0.207466 0.256928
6.34000015 16.77000046 -1.02999997 178 48 142 0.000000 0.000000 0.000000 0.000000 51.808199 0.000000 244.000000 0.861722 0.485539 0.147266
6.34000015 16.77000046 -1.09000003 178 48 142 0.000000 0.000000 0.000000 0.000000 51.808199 0.000000 244.000000 0.917053 0.397170 0.035627
6.30999994 16.71999931 -1.05999994 178 48 142 0.000000 0.000000 0.000000 0.000000 51.808199 0.000000 244.000000 0.929995 -0.180405 -0.320254
6.38000011 16.69000053 -1.13999999 178 48 142 0.000000 0.000000 0.000000 0.000000 51.808199 0.000000 244.000000 0.780395 -0.499259 -0.376464
6.38000011 16.67000008 -1.13000000 178 48 142 0.000000 0.000000 0.000000 0.000000 51.808199 0.000000 244.000000 0.793114 -0.487451 -0.365186
6.44999981 16.71999931 -1.23000002 178 48 142 0.000000 0.000000 0.000000 0.000000 51.808199 0.000000 244.000000 0.977844 -0.115259 0.174748
6.44999981 16.71999931 -1.26999998 178 48 142 0.000000 0.000000 0.000000 0.000000 51.808199 0.000000 244.000000 0.996020 0.088606 0.009608
6.42999983 16.72999954 -1.34000003 178 48 142 0.000000 0.000000 0.000000 0.000000 51.808199 0.000000 244.000000 0.853437 -0.377751 -0.359096
6.42999983 16.71999931 -1.34000003 178 48 142 0.000000 0.000000 0.000000 0.000000 51.808199 0.000000 244.000000 0.910191 -0.206271 -0.359172
6.36000013 16.72999954 -1.25999999 178 48 142 0.000000 0.000000 0.000000 0.000000 51.808199 0.000000 244.000000 0.638359 -0.635026 -0.435018
6.38000011 16.71999931 -1.19000006 178 48 142 0.000000 0.000000 0.000000 0.000000 51.808199 0.000000 244.000000 0.910214 -0.011753 -0.413971
6.34000015 16.76000023 -1.22000003 178 48 142 0.000000 0.000000 0.000000 0.000000 51.808199 0.000000 244.000000 0.992695 -0.113291 -0.041502
6.28000021 16.77000046 -1.05999994 178 48 142 0.000000 0.000000 0.000000 0.000000 51.808199 0.000000 244.000000 0.982514 0.022092 0.184875
6.46999979 16.72999954 -1.50000000 178 48 142 0.000000 0.000000 0.000000 0.000000 51.808199 0.000000 244.000000 0.996098 -0.083279 0.029202
6.25000000 16.73999977 -1.50000000 178 48 142 0.000000 0.000000 0.000000 0.000000 51.808199 0.000000 89.000000 -0.198683 0.976139 0.087618
6.26000023 16.75000000 -1.52999997 178 48 142 0.000000 0.000000 0.000000 0.000000 51.808199 0.000000 89.000000 -0.685677 0.685677 0.244322
6.26999998 16.63999939 -1.52999997 178 48 142 0.000000 0.000000 0.000000 0.000000 51.808199 0.000000 89.000000 -0.092659 0.995263 0.029433
6.19999981 16.77000046 -1.48000002 178 48 142 0.000000 0.000000 0.000000 0.000000 51.808199 0.000000 89.000000 -0.222278 0.974966 -0.005880
6.21000004 16.77000046 -1.48000002 178 48 142 0.000000 0.000000 0.000000 0.000000 51.808199 0.000000 89.000000 -0.265398 0.960305 -0.085902
6.19999981 16.77000046 -1.47000003 178 48 142 0.000000 0.000000 0.000000 0.000000 51.808199 0.000000 89.000000 -0.132413 0.958355 -0.253027
6.19000006 16.73999977 -1.52999997 178 48 142 0.000000 0.000000 0.000000 0.000000 51.808199 0.000000 89.000000 0.049923 0.899956 0.433112
6.19000006 16.77000046 -1.49000001 178 48 142 0.000000 0.000000 0.000000 0.000000 51.808199 0.000000 89.000000 0.154342 0.979144 0.132117
6.19999981 16.75000000 -1.50999999 178 48 142 0.000000 0.000000 0.000000 0.000000 51.808199 0.000000 89.000000 0.159766 0.974952 0.154734
6.19999981 16.75000000 -1.50999999 178 48 142 0.000000 0.000000 0.000000 0.000000 51.808199 0.000000 89.000000 0.159766 0.974952 0.154734
6.28000021 16.71999931 -1.53999996 178 48 142 0.000000 0.000000 0.000000 0.000000 51.808199 0.000000 89.000000 0.821874 -0.561879 -0.093887
6.23999977 16.75000000 -1.61000001 178 48 142 0.000000 0.000000 0.000000 0.000000 51.808199 0.000000 89.000000 -0.587354 0.803058 -0.100564
6.23000002 16.73999977 -1.60000002 178 48 142 0.000000 0.000000 0.000000 0.000000 51.808199 0.000000 89.000000 -0.571060 0.811815 -0.121846
6.23999977 16.71999931 -1.54999995 178 48 142 0.000000 0.000000 0.000000 0.000000 51.808199 0.000000 89.000000 -0.555603 0.831357 0.012286
6.23000002 16.73999977 -1.70000005 178 48 142 0.000000 0.000000 0.000000 0.000000 51.808199 0.000000 89.000000 -0.643861 0.742207 0.185936
6.25000000 16.70999908 -1.65999997 178 48 142 0.000000 0.000000 0.000000 0.000000 51.808199 0.000000 89.000000 0.732125 -0.592518 -0.336031
6.23999977 16.68000031 -1.54999995 178 48 142 0.000000 0.000000 0.000000 0.000000 51.808199 0.000000 89.000000 0.021610 0.999190 0.033958
6.23000002 16.67000008 -1.53999996 178 48 142 0.000000 0.000000 0.000000 0.000000 51.808199 0.000000 89.000000 0.009404 0.863789 0.503765
6.23999977 16.68000031 -1.53999996 178 48 142 0.000000 0.000000 0.000000 0.000000 51.808199 0.000000 89.000000 -0.145121 0.911587 0.384642
6.23000002 16.68000031 -1.54999995 178 48 142 0.000000 0.000000 0.000000 0.000000 51.808199 0.000000 89.000000 0.132658 0.957499 0.256121
6.23999977 16.68000031 -1.54999995 178 48 142 0.000000 0.000000 0.000000 0.000000 51.808199 0.000000 89.000000 0.021610 0.999190 0.033958
6.23000002 16.68000031 -1.54999995 178 48 142 0.000000 0.000000 0.000000 0.000000 51.808199 0.000000 89.000000 0.132658 0.957499 0.256121
6.19000006 16.73999977 -1.57000005 178 48 142 0.000000 0.000000 0.000000 0.000000 51.808199 0.000000 89.000000 0.268938 0.961921 0.048784
6.17999983 16.76000023 -1.54999995 178 48 142 0.000000 0.000000 0.000000 0.000000 51.808199 0.000000 89.000000 0.032315 0.992866 -0.114776
6.17999983 16.75000000 -1.55999994 178 48 142 0.000000 0.000000 0.000000 0.000000 51.808199 0.000000 89.000000 0.277368 0.958757 -0.062060
6.19000006 16.73999977 -1.54999995 178 48 142 0.000000 0.000000 0.000000 0.000000 51.808199 0.000000 89.000000 0.127824 0.964493 -0.231117
6.17999983 16.75000000 -1.58000004 178 48 142 0.000000 0.000000 0.000000 0.000000 51.808199 0.000000 89.000000 0.288163 0.951333 -0.109213
6.19000006 16.75000000 -1.59000003 178 48 142 0.000000 0.000000 0.000000 0.000000 51.808199 0.000000 89.000000 0.033551 0.999412 -0.007117
6.19000006 16.73999977 -1.60000002 178 48 142 0.000000 0.000000 0.000000 0.000000 51.808199 0.000000 89.000000 -0.185504 0.966439 -0.177721
6.17999983 16.73999977 -1.60000002 178 48 142 0.000000 0.000000 0.000000 0.000000 51.808199 0.000000 89.000000 -0.164365 0.972175 -0.166913
6.21999979 16.72999954 -1.60000002 178 48 142 0.000000 0.000000 0.000000 0.000000 51.808199 0.000000 89.000000 -0.398226 0.903501 -0.158434
6.19000006 16.71999931 -1.54999995 178 48 142 0.000000 0.000000 0.000000 0.000000 51.808199 0.000000 89.000000 0.234923 0.971890 -0.015503
6.21000004 16.71999931 -1.61000001 178 48 142 0.000000 0.000000 0.000000 0.000000 51.808199 0.000000 89.000000 -0.414300 0.904808 0.098379
6.21999979 16.70000076 -1.58000004 178 48 142 0.000000 0.000000 0.000000 0.000000 51.808199 0.000000 89.000000 -0.222418 0.963809 0.146978
6.19000006 16.71999931 -1.59000003 178 48 142 0.000000 0.000000 0.000000 0.000000 51.808199 0.000000 89.000000 -0.007215 0.998800 0.048445
6.13999987 16.75000000 -1.55999994 178 48 142 0.000000 0.000000 0.000000 0.000000 51.808199 0.000000 89.000000 0.346482 0.937912 0.016499
6.17000008 16.75000000 -1.59000003 178 48 142 0.000000 0.000000 0.000000 0.000000 51.808199 0.000000 89.000000 0.177453 0.971521 -0.157026
6.15000010 16.76000023 -1.61000001 178 48 142 0.000000 0.000000 0.000000 0.000000 51.808199 0.000000 89.000000 0.290088 0.951648 0.101072
6.17000008 16.76000023 -1.61000001 178 48 142 0.000000 0.000000 0.000000 0.000000 51.808199 0.000000 89.000000 0.250789 0.921469 0.296647
6.21000004 16.73999977 -1.63999999 178 48 142 0.000000 0.000000 0.000000 0.000000 51.808199 0.000000 89.000000 0.019524 0.917618 0.396984
6.21999979 16.75000000 -1.65999997 178 48 142 0.000000 0.000000 0.000000 0.000000 51.808199 0.000000 89.000000 -0.255349 0.965885 0.043175
6.21999979 16.72999954 -1.62000000 178 48 142 0.000000 0.000000 0.000000 0.000000 51.808199 0.000000 89.000000 -0.341667 0.908688 0.239894
6.21000004 16.75000000 -1.65999997 178 48 142 0.000000 0.000000 0.000000 0.000000 51.808199 0.000000 89.000000 0.040372 0.998948 -0.021739
6.21999979 16.72999954 -1.62000000 178 48 142 0.000000 0.000000 0.000000 0.000000 51.808199 0.000000 89.000000 -0.341667 0.908688 0.239894
6.21999979 16.73999977 -1.66999996 178 48 142 0.000000 0.000000 0.000000 0.000000 51.808199 0.000000 89.000000 -0.202765 0.964116 -0.171369
6.21999979 16.75000000 -1.66999996 178 48 142 0.000000 0.000000 0.000000 0.000000 51.808199 0.000000 89.000000 -0.352823 0.935302 -0.026943
6.21999979 16.71999931 -1.62000000 178 48 142 0.000000 0.000000 0.000000 0.000000 51.808199 0.000000 89.000000 -0.514483 0.811601 0.276789
6.13999987 16.72999954 -1.64999998 178 48 142 0.000000 0.000000 0.000000 0.000000 51.808199 0.000000 89.000000 0.394999 0.914376 0.088841
6.17000008 16.73999977 -1.64999998 178 48 142 0.000000 0.000000 0.000000 0.000000 51.808199 0.000000 89.000000 -0.293735 0.915931 0.273477
6.15999985 16.75000000 -1.65999997 178 48 142 0.000000 0.000000 0.000000 0.000000 51.808199 0.000000 89.000000 0.293203 0.932919 -0.209030
6.13999987 16.76000023 -1.66999996 178 48 142 0.000000 0.000000 0.000000 0.000000 51.808199 0.000000 89.000000 0.657559 0.728397 0.192494
6.15000010 16.71999931 -1.62000000 178 48 142 0.000000 0.000000 0.000000 0.000000 51.808199 0.000000 89.000000 0.471198 0.871788 -0.134010
6.21999979 16.68000031 -1.55999994 178 48 142 0.000000 0.000000 0.000000 0.000000 51.808199 0.000000 89.000000 -0.106966 0.907131 0.407028
6.15000010 17.03000069 -1.80999994 178 48 142 0.000000 0.000000 0.000000 0.000000 51.808199 0.000000 244.000000 0.110184 0.993839 -0.012000
6.13999987 17.02000046 -1.73000002 178 48 142 0.000000 0.000000 0.000000 0.000000 51.808199 0.000000 244.000000 -0.201714 0.976785 -0.072128
6.13999987 17.02000046 -1.73000002 178 48 142 0.000000 0.000000 0.000000 0.000000 51.808199 0.000000 244.000000 -0.201714 0.976785 -0.072128
6.07000017 17.12000084 -1.74000001 178 48 142 0.000000 0.000000 0.000000 0.000000 51.808199 0.000000 244.000000 0.032908 0.968968 0.244984
6.09999990 17.12000084 -1.75999999 178 48 142 0.000000 0.000000 0.000000 0.000000 51.808199 0.000000 244.000000 0.148390 0.959940 0.237687
6.03999996 17.14999962 -1.79999995 178 48 142 0.000000 0.000000 0.000000 0.000000 51.808199 0.000000 244.000000 -0.109509 0.987935 -0.109509
5.94000006 17.13999939 -1.75999999 178 48 142 0.000000 0.000000 0.000000 0.000000 51.808199 0.000000 244.000000 0.677938 -0.614951 -0.402785
6.11000013 17.04999924 -1.72000003 178 48 142 0.000000 0.000000 0.000000 0.000000 51.808199 0.000000 244.000000 -0.163468 0.969226 0.184063
6.11000013 17.04999924 -1.72000003 178 48 142 0.000000 0.000000 0.000000 0.000000 51.808199 0.000000 244.000000 -0.163468 0.969226 0.184063
6.09999990 17.04000092 -1.74000001 178 48 142 0.000000 0.000000 0.000000 0.000000 51.808199 0.000000 244.000000 -0.283223 0.957923 0.046574
6.09999990 17.04999924 -1.72000003 178 48 142 0.000000 0.000000 0.000000 0.000000 51.808199 0.000000 244.000000 -0.462130 0.859531 0.218270
6.13000011 17.04000092 -1.76999998 178 48 142 0.000000 0.000000 0.000000 0.000000 51.808199 0.000000 244.000000 0.238698 0.970543 0.032715
6.07999992 17.11000061 -1.75000000 178 48 142 0.000000 0.000000 0.000000 0.000000 51.808199 0.000000 244.000000 -0.342082 0.939124 -0.032030
6.05000019 17.05999947 -1.76999998 178 48 142 0.000000 0.000000 0.000000 0.000000 51.808199 0.000000 244.000000 -0.452103 0.847114 0.279285
6.11000013 17.03000069 -1.83000004 178 48 142 0.000000 0.000000 0.000000 0.000000 51.808199 0.000000 244.000000 -0.012206 0.990871 -0.134261
6.09000015 17.09000015 -1.79999995 178 48 142 0.000000 0.000000 0.000000 0.000000 51.808199 0.000000 244.000000 -0.372172 0.876504 0.305333
6.05999994 17.07999992 -1.80999994 178 48 142 0.000000 0.000000 0.000000 0.000000 51.808199 0.000000 244.000000 -0.173881 0.881094 0.439816
6.05000019 17.07999992 -1.84000003 178 48 142 0.000000 0.000000 0.000000 0.000000 51.808199 0.000000 244.000000 -0.128703 0.951344 0.279963
6.05999994 17.07999992 -1.86000001 178 48 142 0.000000 0.000000 0.000000 0.000000 51.808199 0.000000 244.000000 -0.482047 0.874314 -0.056630
6.05999994 17.06999969 -1.82000005 178 48 142 0.000000 0.000000 0.000000 0.000000 51.808199 0.000000 244.000000 -0.266946 0.963221 0.030754
6.11999989 17.02000046 -1.76999998 178 48 142 0.000000 0.000000 0.000000 0.000000 51.808199 0.000000 244.000000 -0.461796 0.862318 0.207733
6.11999989 17.01000023 -1.85000002 178 48 142 0.000000 0.000000 0.000000 0.000000 51.808199 0.000000 244.000000 0.230422 -0.840812 -0.489838
6.09000015 17.01000023 -1.80999994 178 48 142 0.000000 0.000000 0.000000 0.000000 51.808199 0.000000 244.000000 -0.426013 0.785614 0.448691
6.01999998 17.09000015 -1.80999994 178 48 142 0.000000 0.000000 0.000000 0.000000 51.808199 0.000000 244.000000 -0.645666 0.753028 0.126747
5.96999979 17.10000038 -1.83000004 178 48 142 0.000000 0.000000 0.000000 0.000000 51.808199 0.000000 244.000000 -0.389628 0.913753 -0.115086
5.96999979 17.11000061 -1.78999996 178 48 142 0.000000 0.000000 0.000000 0.000000 51.808199 0.000000 244.000000 0.830240 -0.442690 -0.338713
5.92999983 17.03000069 -1.76999998 178 48 142 0.000000 0.000000 0.000000 0.000000 51.808199 0.000000 244.000000 0.918223 -0.343088 -0.197881
5.94999981 17.10000038 -1.82000005 178 48 142 0.000000 0.000000 0.000000 0.000000 51.808199 0.000000 244.000000 -0.660739 0.740918 -0.120269
5.94999981 17.09000015 -1.78999996 178 48 142 0.000000 0.000000 0.000000 0.000000 51.808199 0.000000 244.000000 -0.691610 0.717818 0.080081
6.57000017 16.79000092 -0.22000000 178 48 142 0.000000 0.000000 0.000000 0.000000 51.808199 0.000000 90.000000 0.788749 0.609947 0.076424
6.51999998 16.75000000 -0.22000000 178 48 142 0.000000 0.000000 0.000000 0.000000 51.808199 0.000000 90.000000 0.560594 0.826064 -0.057895
6.51000023 16.70000076 -0.17000000 178 48 142 0.000000 0.000000 0.000000 0.000000 51.808199 0.000000 90.000000 0.739243 0.665760 0.101407
6.51000023 16.70000076 -0.18000001 178 48 142 0.000000 0.000000 0.000000 0.000000 51.808199 0.000000 90.000000 0.790677 0.597829 -0.132027
6.51000023 16.69000053 -0.20999999 178 48 142 0.000000 0.000000 0.000000 0.000000 51.808199 0.000000 90.000000 0.864418 0.500453 -0.048253
6.55000019 16.75000000 -0.25000000 178 48 142 0.000000 0.000000 0.000000 0.000000 51.808199 0.000000 90.000000 0.561810 0.825025 0.060851
6.50000000 16.69000053 -0.27000001 178 48 142 0.000000 0.000000 0.000000 0.000000 51.808199 0.000000 90.000000 0.951914 0.271022 -0.142854
6.51000023 16.70000076 -0.30000001 178 48 142 0.000000 0.000000 0.000000 0.000000 51.808199 0.000000 90.000000 0.969564 0.221217 -0.104920
6.50000000 16.70999908 -0.31000000 178 48 142 0.000000 0.000000 0.000000 0.000000 51.808199 0.000000 90.000000 0.975119 0.136793 -0.174442
6.51000023 16.64999962 -0.23000000 178 48 142 0.000000 0.000000 0.000000 0.000000 51.808199 0.000000 90.000000 0.987068 -0.152304 -0.049993
6.51999998 16.67000008 -0.25000000 178 48 142 0.000000 0.000000 0.000000 0.000000 51.808199 0.000000 90.000000 0.989171 0.131039 -0.066099
6.48000002 16.44000053 -0.27000001 178 48 142 0.000000 0.000000 0.000000 0.000000 51.808199 0.000000 240.000000 0.700320 -0.625227 -0.344446
6.48999977 16.43000031 -0.28999999 178 48 142 0.000000 0.000000 0.000000 0.000000 51.808199 0.000000 240.000000 -0.657430 0.749904 0.073690
6.55000019 16.37999916 -0.20999999 178 48 142 0.000000 0.000000 0.000000 0.000000 51.808199 0.000000 240.000000 0.769736 -0.614878 -0.171558
6.48999977 16.40999985 -0.27000001 178 48 142 0.000000 0.000000 0.000000 0.000000 51.808199 0.000000 240.000000 -0.239985 0.970688 0.013134
6.51999998 16.39999962 -0.25000000 178 48 142 0.000000 0.000000 0.000000 0.000000 51.808199 0.000000 240.000000 0.758429 -0.561978 -0.330102
6.50000000 16.36000061 -0.25999999 178 48 142 0.000000 0.000000 0.000000 0.000000 51.808199 0.000000 240.000000 -0.274845 0.903901 0.327756
6.19999981 16.47999954 -0.31000000 178 48 142 0.000000 0.000000 0.000000 0.000000 51.808199 0.000000 244.000000 0.703624 0.581111 0.408930
6.48000002 16.79000092 -0.49000001 178 48 142 0.000000 0.000000 0.000000 0.000000 51.808199 0.000000 244.000000 0.721880 0.567309 -0.396294
6.51000023 16.79000092 -1.49000001 178 48 142 0.000000 0.000000 0.000000 0.000000 51.808199 0.000000 244.000000 0.918753 0.234361 -0.317753
6.48999977 16.81999969 -1.55999994 178 48 142 0.000000 0.000000 0.000000 0.000000 51.808199 0.000000 244.000000 0.883001 0.239735 -0.403530
6.48000002 16.81999969 -1.61000001 178 48 142 0.000000 0.000000 0.000000 0.000000 51.808199 0.000000 244.000000 0.960772 0.123509 -0.248319
6.48999977 16.84000015 -1.60000002 178 48 142 0.000000 0.000000 0.000000 0.000000 51.808199 0.000000 244.000000 0.984774 0.040789 0.168985
6.48000002 16.80999947 -1.57000005 178 48 142 0.000000 0.000000 0.000000 0.000000 51.808199 0.000000 244.000000 0.984821 0.045669 0.167455
6.48999977 16.80999947 -1.54999995 178 48 142 0.000000 0.000000 0.000000 0.000000 51.808199 0.000000 244.000000 0.878605 -0.416181 -0.234195
6.48000002 16.80999947 -1.63000000 178 48 142 0.000000 0.000000 0.000000 0.000000 51.808199 0.000000 244.000000 0.968019 0.225150 -0.110667
6.50000000 16.76000023 -0.47999999 178 48 142 0.000000 0.000000 0.000000 0.000000 51.808199 0.000000 244.000000 0.931919 0.229808 0.280563
6.48000002 16.48999977 -0.38999999 178 48 142 0.000000 0.000000 0.000000 0.000000 51.808199 0.000000 240.000000 0.846611 -0.521766 -0.104928
6.50000000 16.43000031 -0.37000000 178 48 142 0.000000 0.000000 0.000000 0.000000 51.808199 0.000000 240.000000 -0.464860 0.831114 0.305211
6.48000002 16.48999977 -0.46000001 178 48 142 0.000000 0.000000 0.000000 0.000000 51.808199 0.000000 240.000000 0.624579 -0.637974 -0.450433
6.50000000 16.48999977 -0.41999999 178 48 142 0.000000 0.000000 0.000000 0.000000 51.808199 0.000000 240.000000 0.641633 -0.584375 -0.496803
6.48999977 16.50000000 -0.47000000 178 48 142 0.000000 0.000000 0.000000 0.000000 51.808199 0.000000 240.000000 0.777684 -0.604866 0.171303
6.48000002 16.70000076 -0.80000001 178 48 142 0.000000 0.000000 0.000000 0.000000 51.808199 0.000000 244.000000 0.840578 -0.302981 -0.449033
6.48000002 16.67000008 -0.76999998 178 48 142 0.000000 0.000000 0.000000 0.000000 51.808199 0.000000 244.000000 0.889364 -0.457199 0.001318
6.48000002 16.72999954 -0.93000001 178 48 142 0.000000 0.000000 0.000000 0.000000 51.808199 0.000000 244.000000 0.939108 -0.342768 0.024210
6.51999998 16.71999931 -0.92000002 178 48 142 0.000000 0.000000 0.000000 0.000000 51.808199 0.000000 244.000000 0.928146 0.274322 -0.251580
6.53000021 16.75000000 -1.00000000 178 48 142 0.000000 0.000000 0.000000 0.000000 51.808199 0.000000 244.000000 0.994408 -0.047670 -0.094230
6.48999977 16.72999954 -0.99000001 178 48 142 0.000000 0.000000 0.000000 0.000000 51.808199 0.000000 244.000000 0.987397 -0.014737 -0.157575
6.48999977 16.71999931 -0.94999999 178 48 142 0.000000 0.000000 0.000000 0.000000 51.808199 0.000000 244.000000 0.957865 0.285242 -0.033631
6.48999977 16.70999908 -1.00000000 178 48 142 0.000000 0.000000 0.000000 0.000000 51.808199 0.000000 244.000000 0.927853 0.062388 -0.367690
6.57000017 16.72999954 -1.16999996 178 48 142 0.000000 0.000000 0.000000 0.000000 51.808199 0.000000 244.000000 0.847758 -0.456958 -0.269251
6.57999992 16.75000000 -1.16999996 178 48 142 0.000000 0.000000 0.000000 0.000000 51.808199 0.000000 244.000000 0.959928 -0.011006 -0.280030
6.53999996 16.71999931 -1.09000003 178 48 142 0.000000 0.000000 0.000000 0.000000 51.808199 0.000000 244.000000 0.974846 -0.057201 0.215415
6.57000017 16.75000000 -1.19000006 178 48 142 0.000000 0.000000 0.000000 0.000000 51.808199 0.000000 244.000000 0.993095 -0.116899 0.009833
6.57000017 16.70000076 -1.23000002 178 48 142 0.000000 0.000000 0.000000 0.000000 51.808199 0.000000 244.000000 0.836224 -0.542762 -0.078351
6.48000002 16.77000046 -1.38999999 178 48 142 0.000000 0.000000 0.000000 0.000000 51.808199 0.000000 244.000000 0.846436 -0.126747 -0.517186
6.34999990 16.78000069 -0.97000003 178 48 142 0.000000 0.000000 0.000000 0.000000 51.808199 0.000000 244.000000 0.764296 0.629685 -0.139099
6.28999996 16.79999924 -0.88999999 178 48 142 0.000000 0.000000 0.000000 0.000000 51.808199 0.000000 244.000000 0.543991 0.837662 -0.048945
6.28000021 16.81999969 -1.00000000 178 48 142 0.000000 0.000000 0.000000 0.000000 51.808199 0.000000 244.000000 0.087469 0.983723 -0.156964
6.34000015 16.79000092 -1.09000003 178 48 142 0.000000 0.000000 0.000000 0.000000 51.808199 0.000000 244.000000 0.841684 0.516252 -0.158278
6.36999989 16.78000069 -1.10000002 178 48 142 0.000000 0.000000 0.000000 0.000000 51.808199 0.000000 244.000000 0.941498 0.330373 -0.066597
6.30999994 16.84000015 -1.08000004 178 48 142 0.000000 0.000000 0.000000 0.000000 51.808199 0.000000 244.000000 0.653809 0.701766 -0.282944
6.34999990 16.79999924 -1.02999997 178 48 142 0.000000 0.000000 0.000000 0.000000 51.808199 0.000000 244.000000 0.818987 0.350089 -0.454641
6.30999994 16.80999947 -1.04999995 178 48 142 0.000000 0.000000 0.000000 0.000000 51.808199 0.000000 244.000000 0.404800 0.906249 0.121860
6.36000013 16.78000069 -1.30999994 178 48 142 0.000000 0.000000 0.000000 0.000000 51.808199 0.000000 244.000000 0.961533 -0.211774 -0.174944
6.25000000 16.86000061 -1.16999996 178 48 142 0.000000 0.000000 0.000000 0.000000 51.808199 0.000000 244.000000 -0.198064 0.969872 0.141839
6.26000023 16.87999916 -1.13999999 178 48 142 0.000000 0.000000 0.000000 0.000000 51.808199 0.000000 244.000000 -0.109868 0.949101 0.295188
6.25000000 16.87999916 -1.15999997 178 48 142 0.000000 0.000000 0.000000 0.000000 51.808199 0.000000 244.000000 0.029359 0.980607 0.193773
6.23000002 16.86000061 -1.17999995 178 48 142 0.000000 0.000000 0.000000 0.000000 51.808199 0.000000 244.000000 -0.153480 0.821044 0.549846
6.28999996 16.87999916 -1.15999997 178 48 142 0.000000 0.000000 0.000000 0.000000 51.808199 0.000000 244.000000 0.522664 0.849506 -0.071849
6.28000021 16.81999969 -1.02999997 178 48 142 0.000000 0.000000 0.000000 0.000000 51.808199 0.000000 244.000000 0.116302 0.957854 0.262658
6.28000021 16.81999969 -1.02999997 178 48 142 0.000000 0.000000 0.000000 0.000000 51.808199 0.000000 244.000000 0.116302 0.957854 0.262658
6.26999998 16.84000015 -1.08000004 178 48 142 0.000000 0.000000 0.000000 0.000000 51.808199 0.000000 244.000000 0.293876 0.950157 -0.104109
6.26999998 16.85000038 -1.10000002 178 48 142 0.000000 0.000000 0.000000 0.000000 51.808199 0.000000 244.000000 0.253012 0.915181 0.313735
6.28000021 16.79000092 -1.01999998 178 48 142 0.000000 0.000000 0.000000 0.000000 51.808199 0.000000 244.000000 0.282031 0.928292 -0.242348
6.28999996 16.80999947 -1.08000004 178 48 142 0.000000 0.000000 0.000000 0.000000 51.808199 0.000000 244.000000 0.642039 0.700260 0.312125
6.23999977 16.80999947 -1.09000003 178 48 142 0.000000 0.000000 0.000000 0.000000 51.808199 0.000000 244.000000 -0.105744 0.832914 0.543205
6.26000023 16.82999992 -1.16999996 178 48 142 0.000000 0.000000 0.000000 0.000000 51.808199 0.000000 244.000000 0.126177 0.981238 -0.145777
6.23999977 16.84000015 -1.12000000 178 48 142 0.000000 0.000000 0.000000 0.000000 51.808199 0.000000 244.000000 -0.046083 0.992466 0.113521
6.19000006 16.90999985 -1.17999995 178 48 142 0.000000 0.000000 0.000000 0.000000 51.808199 0.000000 244.000000 -0.416029 0.896392 0.152973
6.28999996 16.92000008 -1.25000000 178 48 142 0.000000 0.000000 0.000000 0.000000 51.808199 0.000000 244.000000 0.262003 0.958069 0.116011
6.26999998 16.87000084 -1.21000004 178 48 142 0.000000 0.000000 0.000000 0.000000 51.808199 0.000000 244.000000 0.445234 0.874196 0.193773
6.26999998 16.88999939 -1.23000002 178 48 142 0.000000 0.000000 0.000000 0.000000 51.808199 0.000000 244.000000 0.394862 0.861936 -0.318041
6.26000023 16.90999985 -1.19000006 178 48 142 0.000000 0.000000 0.000000 0.000000 51.808199 0.000000 244.000000 -0.090389 0.994279 0.056912
6.25000000 16.89999962 -1.20000005 178 48 142 0.000000 0.000000 0.000000 0.000000 51.808199 0.000000 244.000000 0.005213 0.997827 -0.065688
6.25000000 16.89999962 -1.23000002 178 48 142 0.000000 0.000000 0.000000 0.000000 51.808199 0.000000 244.000000 0.278744 0.924857 -0.258731
6.23000002 16.93000031 -1.26999998 178 48 142 0.000000 0.000000 0.000000 0.000000 51.808199 0.000000 244.000000 0.115100 0.882434 0.456138
6.23000002 16.87000084 -1.23000002 178 48 142 0.000000 0.000000 0.000000 0.000000 51.808199 0.000000 244.000000 -0.124164 0.992212 -0.009889
6.23000002 16.92000008 -1.30999994 178 48 142 0.000000 0.000000 0.000000 0.000000 51.808199 0.000000 244.000000 0.044432 0.898075 0.437593
6.23000002 16.93000031 -1.34000003 178 48 142 0.000000 0.000000 0.000000 0.000000 51.808199 0.000000 244.000000 0.344028 0.910151 0.230804
6.30000019 16.85000038 -1.20000005 178 48 142 0.000000 0.000000 0.000000 0.000000 51.808199 0.000000 244.000000 0.789603 0.612259 -0.040817
6.23999977 16.84000015 -1.21000004 178 48 142 0.000000 0.000000 0.000000 0.000000 51.808199 0.000000 244.000000 0.232727 0.923770 0.304116
6.23999977 16.81999969 -1.30999994 178 48 142 0.000000 0.000000 0.000000 0.000000 51.808199 0.000000 244.000000 0.833995 0.532871 -0.143181
6.21000004 16.87999916 -1.19000006 178 48 142 0.000000 0.000000 0.000000 0.000000 51.808199 0.000000 244.000000 -0.416816 0.760077 0.498545
6.21999979 16.88999939 -1.23000002 178 48 142 0.000000 0.000000 0.000000 0.000000 51.808199 0.000000 244.000000 -0.279150 0.958710 -0.054314
6.21000004 16.88999939 -1.24000001 178 48 142 0.000000 0.000000 0.000000 0.000000 51.808199 0.000000 244.000000 -0.077065 0.977381 -0.196944
6.21000004 16.86000061 -1.24000001 178 48 142 0.000000 0.000000 0.000000 0.000000 51.808199 0.000000 244.000000 0.038637 0.994627 -0.096041
6.19000006 16.87999916 -1.26999998 178 48 142 0.000000 0.000000 0.000000 0.000000 51.808199 0.000000 244.000000 0.014185 0.994047 0.108025
6.21999979 16.90999985 -1.30999994 178 48 142 0.000000 0.000000 0.000000 0.000000 51.808199 0.000000 244.000000 -0.101006 0.973901 0.203260
6.21000004 16.93000031 -1.33000004 178 48 142 0.000000 0.000000 0.000000 0.000000 51.808199 0.000000 244.000000 0.171952 0.913763 0.368063
6.19000006 16.90999985 -1.34000003 178 48 142 0.000000 0.000000 0.000000 0.000000 51.808199 0.000000 244.000000 -0.348000 0.829845 0.436180
6.21999979 16.90999985 -1.36000001 178 48 142 0.000000 0.000000 0.000000 0.000000 51.808199 0.000000 244.000000 0.032773 0.969835 0.241548
6.19999981 16.92000008 -1.35000002 178 48 142 0.000000 0.000000 0.000000 0.000000 51.808199 0.000000 244.000000 -0.043580 0.993394 -0.106156
6.21000004 16.90999985 -1.32000005 178 48 142 0.000000 0.000000 0.000000 0.000000 51.808199 0.000000 244.000000 -0.017652 0.977908 -0.208291
6.17999983 16.87999916 -1.27999997 178 48 142 0.000000 0.000000 0.000000 0.000000 51.808199 0.000000 244.000000 -0.662176 0.726703 0.182828
6.17999983 16.87999916 -1.32000005 178 48 142 0.000000 0.000000 0.000000 0.000000 51.808199 0.000000 244.000000 -0.274849 0.895860 0.349133
6.15999985 16.86000061 -1.30999994 178 48 142 0.000000 0.000000 0.000000 0.000000 51.808199 0.000000 244.000000 0.721467 -0.570271 -0.392780
6.17000008 16.87999916 -1.28999996 178 48 142 0.000000 0.000000 0.000000 0.000000 51.808199 0.000000 244.000000 0.793876 -0.572758 -0.204227
6.17000008 16.87000084 -1.27999997 178 48 142 0.000000 0.000000 0.000000 0.000000 51.808199 0.000000 244.000000 0.861625 -0.490909 -0.128882
6.21999979 16.82999992 -1.29999995 178 48 142 0.000000 0.000000 0.000000 0.000000 51.808199 0.000000 244.000000 0.271109 0.961879 -0.035900
6.23000002 16.95000076 -1.38999999 178 48 142 0.000000 0.000000 0.000000 0.000000 51.808199 0.000000 244.000000 0.428745 0.903379 -0.009178
6.21999979 16.95000076 -1.38999999 178 48 142 0.000000 0.000000 0.000000 0.000000 51.808199 0.000000 244.000000 0.117617 0.888502 0.443543
6.21000004 16.95000076 -1.37000000 178 48 142 0.000000 0.000000 0.000000 0.000000 51.808199 0.000000 244.000000 0.429044 0.896068 0.113943
6.19999981 16.97999954 -1.44000006 178 48 142 0.000000 0.000000 0.000000 0.000000 51.808199 0.000000 244.000000 0.297176 0.954222 0.033855
6.21000004 16.97999954 -1.42999995 178 48 142 0.000000 0.000000 0.000000 0.000000 51.808199 0.000000 244.000000 0.377770 0.925856 -0.008964
6.19000006 16.98999977 -1.47000003 178 48 142 0.000000 0.000000 0.000000 0.000000 51.808199 0.000000 244.000000 0.216574 0.846609 0.486157
6.21999979 16.98999977 -1.50000000 178 48 142 0.000000 0.000000 0.000000 0.000000 51.808199 0.000000 244.000000 0.390567 0.911322 -0.130189
6.17999983 16.97999954 -1.50000000 178 48 142 0.000000 0.000000 0.000000 0.000000 51.808199 0.000000 244.000000 -0.069661 0.985875 -0.152309
6.17999983 17.03000069 -1.61000001 178 48 142 0.000000 0.000000 0.000000 0.000000 51.808199 0.000000 244.000000 -0.293774 0.955694 0.018593
6.19000006 16.95000076 -1.54999995 178 48 142 0.000000 0.000000 0.000000 0.000000 51.808199 0.000000 244.000000 -0.221544 0.975029 0.015401
6.19000006 16.96999931 -1.53999996 178 48 142 0.000000 0.000000 0.000000 0.000000 51.808199 0.000000 244.000000 -0.121342 0.910759 0.394709
6.17999983 16.96999931 -1.59000003 178 48 142 0.000000 0.000000 0.000000 0.000000 51.808199 0.000000 244.000000 -0.094686 0.968327 0.231035
6.15999985 17.01000023 -1.53999996 178 48 142 0.000000 0.000000 0.000000 0.000000 51.808199 0.000000 244.000000 -0.043776 0.959318 0.278915
6.13999987 17.01000023 -1.54999995 178 48 142 0.000000 0.000000 0.000000 0.000000 51.808199 0.000000 244.000000 -0.052650 0.993624 0.099698
6.17000008 16.95999908 -1.59000003 178 48 142 0.000000 0.000000 0.000000 0.000000 51.808199 0.000000 244.000000 -0.190136 0.977665 0.089548
6.15999985 17.00000000 -1.63000000 178 48 142 0.000000 0.000000 0.000000 0.000000 51.808199 0.000000 244.000000 0.032773 0.969835 -0.241548
6.15000010 16.98999977 -1.65999997 178 48 142 0.000000 0.000000 0.000000 0.000000 51.808199 0.000000 244.000000 0.068330 0.997618 -0.009461
6.25000000 16.89999962 -1.38000000 178 48 142 0.000000 0.000000 0.000000 0.000000 51.808199 0.000000 244.000000 0.723234 0.657910 0.209971
6.23999977 16.94000053 -1.38000000 178 48 142 0.000000 0.000000 0.000000 0.000000 51.808199 0.000000 244.000000 0.244540 0.964077 0.103706
6.23000002 16.90999985 -1.37000000 178 48 142 0.000000 0.000000 0.000000 0.000000 51.808199 0.000000 244.000000 0.061785 0.987395 -0.145719
6.23999977 16.94000053 -1.37000000 178 48 142 0.000000 0.000000 0.000000 0.000000 51.808199 0.000000 244.000000 0.256380 0.966539 -0.008426
6.19999981 16.87000084 -1.40999997 178 48 142 0.000000 0.000000 0.000000 0.000000 51.808199 0.000000 244.000000 0.226477 0.913121 0.338995
6.21000004 16.92000008 -1.38000000 178 48 142 0.000000 0.000000 0.000000 0.000000 51.808199 0.000000 244.000000 -0.028773 0.986326 0.162278
6.17000008 16.89999962 -1.40999997 178 48 142 0.000000 0.000000 0.000000 0.000000 51.808199 0.000000 244.000000 -0.551255 0.812456 -0.189826
6.19999981 16.92000008 -1.44000006 178 48 142 0.000000 0.000000 0.000000 0.000000 51.808199 0.000000 244.000000 -0.132157 0.990610 0.035016
6.13999987 16.92000008 -1.48000002 178 48 142 0.000000 0.000000 0.000000 0.000000 51.808199 0.000000 244.000000 -0.338777 0.869171 0.360238
6.21000004 16.92000008 -1.45000005 178 48 142 0.000000 0.000000 0.000000 0.000000 51.808199 0.000000 244.000000 0.180569 0.980403 -0.078772
6.15000010 16.93000031 -1.52999997 178 48 142 0.000000 0.000000 0.000000 0.000000 51.808199 0.000000 244.000000 0.628305 -0.741118 -0.236594
6.21000004 16.79999924 -1.47000003 178 48 142 0.000000 0.000000 0.000000 0.000000 51.808199 0.000000 89.000000 -0.358956 0.919209 -0.161882
6.11999989 17.03000069 -1.59000003 178 48 142 0.000000 0.000000 0.000000 0.000000 51.808199 0.000000 244.000000 -0.100954 0.932812 0.345934
6.13000011 17.04000092 -1.69000006 178 48 142 0.000000 0.000000 0.000000 0.000000 51.808199 0.000000 244.000000 -0.220129 0.966767 -0.130018
6.09999990 17.06999969 -1.67999995 178 48 142 0.000000 0.000000 0.000000 0.000000 51.808199 0.000000 244.000000 -0.201087 0.969574 -0.139608
6.44999981 16.70999908 -0.47000000 178 48 142 0.000000 0.000000 0.000000 0.000000 51.808199 0.000000 244.000000 0.990766 0.023563 -0.133523
6.44999981 16.75000000 -0.54000002 178 48 142 0.000000 0.000000 0.000000 0.000000 51.808199 0.000000 244.000000 0.946724 0.158465 -0.280360
6.44999981 16.71999931 -0.52999997 178 48 142 0.000000 0.000000 0.000000 0.000000 51.808199 0.000000 244.000000 0.971032 0.088959 -0.221771
6.44999981 16.76000023 -0.66000003 178 48 142 0.000000 0.000000 0.000000 0.000000 51.808199 0.000000 244.000000 0.826231 0.358612 -0.434442
6.44999981 16.69000053 -0.63999999 178 48 142 0.000000 0.000000 0.000000 0.000000 51.808199 0.000000 244.000000 0.966280 0.183372 0.180771
6.46999979 16.69000053 -0.67000002 178 48 142 0.000000 0.000000 0.000000 0.000000 51.808199 0.000000 244.000000 0.965747 -0.082057 -0.246171
6.42999983 16.77000046 -0.62000000 178 48 142 0.000000 0.000000 0.000000 0.000000 51.808199 0.000000 244.000000 0.530868 0.841620 0.099268
6.42999983 16.73999977 -0.58999997 178 48 142 0.000000 0.000000 0.000000 0.000000 51.808199 0.000000 244.000000 0.891841 0.330145 -0.309231
6.40000010 16.75000000 -0.64999998 178 48 142 0.000000 0.000000 0.000000 0.000000 51.808199 0.000000 244.000000 0.801502 0.575939 0.160902
6.42999983 16.71999931 -0.67000002 178 48 142 0.000000 0.000000 0.000000 0.000000 51.808199 0.000000 244.000000 0.959073 -0.011024 -0.282945
6.44000006 16.62000084 -0.57999998 178 48 142 0.000000 0.000000 0.000000 0.000000 51.808199 0.000000 244.000000 0.970826 -0.227479 -0.075826
6.44000006 16.60000038 -0.56999999 178 48 142 0.000000 0.000000 0.000000 0.000000 51.808199 0.000000 244.000000 0.858111 -0.492646 0.144724
6.40999985 16.65999985 -0.54000002 178 48 142 0.000000 0.000000 0.000000 0.000000 51.808199 0.000000 244.000000 0.947226 -0.055416 -0.315742
6.40999985 16.67000008 -0.56999999 178 48 142 0.000000 0.000000 0.000000 0.000000 51.808199 0.000000 244.000000 0.965524 -0.066372 0.251712
6.44999981 16.68000031 -0.64999998 178 48 142 0.000000 0.000000 0.000000 0.000000 51.808199 0.000000 244.000000 0.893808 -0.447572 -0.028057
6.44000006 16.60000038 -0.62000000 178 48 142 0.000000 0.000000 0.000000 0.000000 51.808199 0.000000 244.000000 0.803173 -0.588219 -0.094405
6.44000006 16.61000061 -0.58999997 178 48 142 0.000000 0.000000 0.000000 0.000000 51.808199 0.000000 244.000000 0.966129 -0.258034 -0.003600
6.44999981 16.62000084 -0.64999998 178 48 142 0.000000 0.000000 0.000000 0.000000 51.808199 0.000000 244.000000 0.981660 -0.108262 -0.156920
6.46000004 16.48999977 -0.44999999 178 48 142 0.000000 0.000000 0.000000 0.000000 51.808199 0.000000 240.000000 -0.401776 0.909864 -0.103551
6.46000004 16.48999977 -0.47000000 178 48 142 0.000000 0.000000 0.000000 0.000000 51.808199 0.000000 240.000000 -0.673762 0.738465 0.026725
6.46000004 16.48999977 -0.41999999 178 48 142 0.000000 0.000000 0.000000 0.000000 51.808199 0.000000 240.000000 -0.212473 0.971846 0.101836
6.30999994 16.56999969 -0.61000001 178 48 142 0.000000 0.000000 0.000000 0.000000 51.808199 0.000000 244.000000 0.143255 0.875445 0.461599
6.30999994 16.57999992 -0.63000000 178 48 142 0.000000 0.000000 0.000000 0.000000 51.808199 0.000000 244.000000 0.291892 0.955853 0.033824
6.25000000 16.60000038 -0.56000000 178 48 142 0.000000 0.000000 0.000000 0.000000 51.808199 0.000000 244.000000 0.551119 0.794674 -0.254483
6.23999977 16.55999947 -0.44000000 178 48 142 0.000000 0.000000 0.000000 0.000000 51.808199 0.000000 244.000000 0.776413 0.578780 0.249393
6.23000002 16.55999947 -0.44999999 178 48 142 0.000000 0.000000 0.000000 0.000000 51.808199 0.000000 244.000000 0.349919 0.936131 0.034863
