//X Y Z R G B PointSourceId ScanDirectionFlag NumberOfReturns ReturnNumber GpsTime Intensity Classification Nx Ny Nz
11.10999966 -11.52999973 -0.94999999 144 204 81 0.000000 0.000000 0.000000 0.000000 51.808199 0.000000 208.000000 0.075074 0.997110 -0.011631
11.07999992 -11.52999973 -1.00999999 144 204 81 0.000000 0.000000 0.000000 0.000000 51.808199 0.000000 208.000000 -0.087086 0.843732 0.529653
11.10000038 -11.52999973 -1.00000000 144 204 81 0.000000 0.000000 0.000000 0.000000 51.808199 0.000000 208.000000 -0.047952 0.875468 0.480891
11.07999992 -11.52999973 -0.98000002 144 204 81 0.000000 0.000000 0.000000 0.000000 51.808199 0.000000 208.000000 0.089548 0.977665 -0.190136
11.10000038 -11.52999973 -1.00000000 144 204 81 0.000000 0.000000 0.000000 0.000000 51.808199 0.000000 208.000000 -0.047952 0.875468 0.480891
11.06000042 -11.52000046 -1.00000000 144 204 81 0.000000 0.000000 0.000000 0.000000 51.808199 0.000000 208.000000 0.024518 0.981869 0.187968
11.06000042 -11.53999996 -0.95999998 144 204 81 0.000000 0.000000 0.000000 0.000000 51.808199 0.000000 208.000000 0.038389 0.985319 0.166353
11.06999969 -11.53999996 -0.97000003 144 204 81 0.000000 0.000000 0.000000 0.000000 51.808199 0.000000 208.000000 -0.197881 0.918223 0.343088
11.03999996 -11.53999996 -0.95999998 144 204 81 0.000000 0.000000 0.000000 0.000000 51.808199 0.000000 208.000000 -0.451641 0.891076 -0.044757
11.02999973 -11.53999996 -0.94999999 144 204 81 0.000000 0.000000 0.000000 0.000000 51.808199 0.000000 208.000000 0.756412 -0.654082 0.004149
11.05000019 -11.53999996 -0.94999999 144 204 81 0.000000 0.000000 0.000000 0.000000 51.808199 0.000000 208.000000 -0.013966 0.995918 0.089171
11.05000019 -11.53999996 -0.94000000 144 204 81 0.000000 0.000000 0.000000 0.000000 51.808199 0.000000 208.000000 -0.235134 0.950048 -0.205232
11.05000019 -11.53999996 -0.94000000 144 204 81 0.000000 0.000000 0.000000 0.000000 51.808199 0.000000 208.000000 -0.235134 0.950048 -0.205232
11.06000042 -11.52999973 -1.00000000 144 204 81 0.000000 0.000000 0.000000 0.000000 51.808199 0.000000 208.000000 -0.001091 0.992091 0.125512
11.05000019 -11.55000019 -0.98000002 144 204 81 0.000000 0.000000 0.000000 0.000000 51.808199 0.000000 208.000000 -0.549962 0.822719 -0.143791
11.03999996 -11.52999973 -1.00000000 144 204 81 0.000000 0.000000 0.000000 0.000000 51.808199 0.000000 208.000000 -0.294050 0.908482 0.296976
11.02999973 -11.52999973 -0.99000001 144 204 81 0.000000 0.000000 0.000000 0.000000 51.808199 0.000000 208.000000 -0.484151 0.873667 -0.048004
11.06000042 -11.52999973 -0.99000001 144 204 81 0.000000 0.000000 0.000000 0.000000 51.808199 0.000000 208.000000 0.041702 0.997641 0.054533
11.06000042 -11.52999973 -1.00999999 144 204 81 0.000000 0.000000 0.000000 0.000000 51.808199 0.000000 208.000000 -0.086900 0.953306 0.289234
11.06999969 -11.52999973 -1.00999999 144 204 81 0.000000 0.000000 0.000000 0.000000 51.808199 0.000000 208.000000 -0.038622 0.960571 0.275339
11.06000042 -11.52999973 -0.99000001 144 204 81 0.000000 0.000000 0.000000 0.000000 51.808199 0.000000 208.000000 0.041702 0.997641 0.054533
11.01000023 -11.56000042 -0.93000001 144 204 81 0.000000 0.000000 0.000000 0.000000 51.808199 0.000000 208.000000 -0.450867 0.892424 -0.017290
11.01000023 -11.56000042 -0.93000001 144 204 81 0.000000 0.000000 0.000000 0.000000 51.808199 0.000000 208.000000 -0.450867 0.892424 -0.017290
11.02000046 -11.55000019 -0.91000003 144 204 81 0.000000 0.000000 0.000000 0.000000 51.808199 0.000000 208.000000 -0.624491 0.651136 0.431315
11.01000023 -11.56000042 -0.92000002 144 204 81 0.000000 0.000000 0.000000 0.000000 51.808199 0.000000 208.000000 -0.646159 0.762100 -0.041004
10.97999954 -11.56000042 -0.88000000 144 204 81 0.000000 0.000000 0.000000 0.000000 51.808199 0.000000 208.000000 0.681175 -0.540588 -0.493726
10.97999954 -11.56000042 -0.88999999 144 204 81 0.000000 0.000000 0.000000 0.000000 51.808199 0.000000 208.000000 -0.557074 0.751969 0.352435
11.00000000 -11.56000042 -0.94999999 144 204 81 0.000000 0.000000 0.000000 0.000000 51.808199 0.000000 208.000000 0.856341 -0.497466 -0.138590
10.98999977 -11.56000042 -0.95999998 144 204 81 0.000000 0.000000 0.000000 0.000000 51.808199 0.000000 208.000000 0.889211 -0.439626 -0.126624
11.01000023 -11.55000019 -0.97000003 144 204 81 0.000000 0.000000 0.000000 0.000000 51.808199 0.000000 208.000000 -0.317782 0.912715 0.256837
10.98999977 -11.56000042 -0.97000003 144 204 81 0.000000 0.000000 0.000000 0.000000 51.808199 0.000000 208.000000 0.604315 -0.683787 -0.408948
11.01000023 -11.56000042 -0.97000003 144 204 81 0.000000 0.000000 0.000000 0.000000 51.808199 0.000000 208.000000 -0.480805 0.825355 0.296000
11.02000046 -11.56000042 -0.94000000 144 204 81 0.000000 0.000000 0.000000 0.000000 51.808199 0.000000 208.000000 -0.585266 0.804193 -0.103626
10.98999977 -11.55000019 -0.98000002 144 204 81 0.000000 0.000000 0.000000 0.000000 51.808199 0.000000 208.000000 0.852426 -0.522804 0.006755
11.02000046 -11.55000019 -1.00000000 144 204 81 0.000000 0.000000 0.000000 0.000000 51.808199 0.000000 208.000000 -0.602193 0.697884 0.387713
11.01000023 -11.53999996 -1.00999999 144 204 81 0.000000 0.000000 0.000000 0.000000 51.808199 0.000000 208.000000 -0.584600 0.809989 0.046486
11.02000046 -11.55000019 -1.00000000 144 204 81 0.000000 0.000000 0.000000 0.000000 51.808199 0.000000 208.000000 -0.602193 0.697884 0.387713
11.00000000 -11.55000019 -0.98000002 144 204 81 0.000000 0.000000 0.000000 0.000000 51.808199 0.000000 208.000000 0.737328 -0.670430 0.082895
11.00000000 -11.56000042 -1.00999999 144 204 81 0.000000 0.000000 0.000000 0.000000 51.808199 0.000000 208.000000 0.818038 -0.573049 0.049279
11.09000015 -11.56999969 -0.70999998 144 204 81 0.000000 0.000000 0.000000 0.000000 51.808199 0.000000 208.000000 -0.194822 0.920071 0.339872
11.10999966 -11.56999969 -0.74000001 144 204 81 0.000000 0.000000 0.000000 0.000000 51.808199 0.000000 208.000000 -0.076181 0.980680 0.180174
11.09000015 -11.56999969 -0.75000000 144 204 81 0.000000 0.000000 0.000000 0.000000 51.808199 0.000000 208.000000 -0.048158 0.993394 0.104155
11.06999969 -11.59000015 -0.69000000 144 204 81 0.000000 0.000000 0.000000 0.000000 51.808199 0.000000 208.000000 -0.054240 0.977529 0.203702
11.06999969 -11.57999992 -0.69999999 144 204 81 0.000000 0.000000 0.000000 0.000000 51.808199 0.000000 208.000000 -0.201467 0.915891 0.347210
11.03999996 -11.60000038 -0.69000000 144 204 81 0.000000 0.000000 0.000000 0.000000 51.808199 0.000000 208.000000 -0.307953 0.897080 0.316879
11.05000019 -11.59000015 -0.69999999 144 204 81 0.000000 0.000000 0.000000 0.000000 51.808199 0.000000 208.000000 -0.361401 0.828539 0.427684
11.03999996 -11.60000038 -0.69000000 144 204 81 0.000000 0.000000 0.000000 0.000000 51.808199 0.000000 208.000000 -0.307953 0.897080 0.316879
11.06999969 -11.57999992 -0.69999999 144 204 81 0.000000 0.000000 0.000000 0.000000 51.808199 0.000000 208.000000 -0.201467 0.915891 0.347210
11.06000042 -11.57999992 -0.69999999 144 204 81 0.000000 0.000000 0.000000 0.000000 51.808199 0.000000 208.000000 -0.035820 0.911411 0.409936
11.06999969 -11.57999992 -0.70999998 144 204 81 0.000000 0.000000 0.000000 0.000000 51.808199 0.000000 208.000000 0.090977 0.973326 0.210617
11.05000019 -11.57999992 -0.68000001 144 204 81 0.000000 0.000000 0.000000 0.000000 51.808199 0.000000 208.000000 -0.138019 0.990424 -0.003312
11.03999996 -11.59000015 -0.70999998 144 204 81 0.000000 0.000000 0.000000 0.000000 51.808199 0.000000 208.000000 -0.257504 0.919248 0.297784
11.06000042 -11.56999969 -0.74000001 144 204 81 0.000000 0.000000 0.000000 0.000000 51.808199 0.000000 208.000000 -0.468881 0.858367 0.208225
11.06000042 -11.56999969 -0.72000003 144 204 81 0.000000 0.000000 0.000000 0.000000 51.808199 0.000000 208.000000 -0.313531 0.820853 0.477387
11.02999973 -11.56999969 -0.76999998 144 204 81 0.000000 0.000000 0.000000 0.000000 51.808199 0.000000 208.000000 -0.564391 0.825507 -0.001360
11.02999973 -11.59000015 -0.79000002 144 204 81 0.000000 0.000000 0.000000 0.000000 51.808199 0.000000 208.000000 -0.515404 0.856258 0.034360
11.03999996 -11.56999969 -0.81999999 144 204 81 0.000000 0.000000 0.000000 0.000000 51.808199 0.000000 208.000000 -0.507653 0.735849 0.448124
11.06999969 -11.57999992 -0.81999999 144 204 81 0.000000 0.000000 0.000000 0.000000 51.808199 0.000000 208.000000 -0.198248 0.979369 0.039175
11.01000023 -11.60999966 -0.68000001 144 204 81 0.000000 0.000000 0.000000 0.000000 51.808199 0.000000 208.000000 0.651444 -0.674301 -0.347763
11.01000023 -11.60000038 -0.69000000 144 204 81 0.000000 0.000000 0.000000 0.000000 51.808199 0.000000 208.000000 -0.549733 0.828226 0.108786
11.01000023 -11.59000015 -0.69999999 144 204 81 0.000000 0.000000 0.000000 0.000000 51.808199 0.000000 208.000000 -0.430426 0.846867 0.312331
10.98999977 -11.59000015 -0.70999998 144 204 81 0.000000 0.000000 0.000000 0.000000 51.808199 0.000000 208.000000 0.712527 -0.652224 -0.258668
11.02000046 -11.59000015 -0.70999998 144 204 81 0.000000 0.000000 0.000000 0.000000 51.808199 0.000000 208.000000 -0.179424 0.974910 0.131745
11.02000046 -11.57999992 -0.70999998 144 204 81 0.000000 0.000000 0.000000 0.000000 51.808199 0.000000 208.000000 -0.548532 0.785650 0.286122
11.00000000 -11.59000015 -0.70999998 144 204 81 0.000000 0.000000 0.000000 0.000000 51.808199 0.000000 208.000000 -0.360343 0.817519 0.449239
10.98999977 -11.60999966 -0.70999998 144 204 81 0.000000 0.000000 0.000000 0.000000 51.808199 0.000000 208.000000 0.715885 -0.473381 -0.513244
11.02000046 -11.57999992 -0.70999998 144 204 81 0.000000 0.000000 0.000000 0.000000 51.808199 0.000000 208.000000 -0.548532 0.785650 0.286122
11.00000000 -11.60000038 -0.73000002 144 204 81 0.000000 0.000000 0.000000 0.000000 51.808199 0.000000 208.000000 -0.672936 0.710235 0.206698
11.01000023 -11.56999969 -0.74000001 144 204 81 0.000000 0.000000 0.000000 0.000000 51.808199 0.000000 208.000000 -0.165244 0.985683 0.033511
11.02000046 -11.57999992 -0.72000003 144 204 81 0.000000 0.000000 0.000000 0.000000 51.808199 0.000000 208.000000 -0.645961 0.763155 -0.018137
11.02000046 -11.57999992 -0.72000003 144 204 81 0.000000 0.000000 0.000000 0.000000 51.808199 0.000000 208.000000 -0.645961 0.763155 -0.018137
10.98999977 -11.60000038 -0.72000003 144 204 81 0.000000 0.000000 0.000000 0.000000 51.808199 0.000000 208.000000 0.905582 -0.408837 0.113023
11.00000000 -11.57999992 -0.72000003 144 204 81 0.000000 0.000000 0.000000 0.000000 51.808199 0.000000 208.000000 -0.450453 0.891379 0.050353
11.00000000 -11.60000038 -0.73000002 144 204 81 0.000000 0.000000 0.000000 0.000000 51.808199 0.000000 208.000000 -0.672936 0.710235 0.206698
10.98999977 -11.64000034 -0.69999999 144 204 81 0.000000 0.000000 0.000000 0.000000 51.808199 0.000000 208.000000 0.763446 -0.644907 -0.035279
10.97999954 -11.60999966 -0.69000000 144 204 81 0.000000 0.000000 0.000000 0.000000 51.808199 0.000000 208.000000 -0.679857 0.713468 -0.169582
10.94999981 -11.60999966 -0.69999999 144 204 81 0.000000 0.000000 0.000000 0.000000 51.808199 0.000000 208.000000 0.711923 -0.603907 -0.358416
10.97000027 -11.60999966 -0.74000001 144 204 81 0.000000 0.000000 0.000000 0.000000 51.808199 0.000000 208.000000 0.727987 -0.656889 -0.196294
10.94999981 -11.61999989 -0.68000001 144 204 81 0.000000 0.000000 0.000000 0.000000 51.808199 0.000000 208.000000 0.812341 -0.566715 -0.137610
10.97999954 -11.64000034 -0.68000001 144 204 81 0.000000 0.000000 0.000000 0.000000 51.808199 0.000000 208.000000 0.776002 -0.431112 -0.460395
10.96000004 -11.64999962 -0.69999999 144 204 81 0.000000 0.000000 0.000000 0.000000 51.808199 0.000000 208.000000 0.952846 -0.142594 0.267863
10.97000027 -11.63000011 -0.73000002 144 204 81 0.000000 0.000000 0.000000 0.000000 51.808199 0.000000 208.000000 0.729462 -0.680350 0.070779
10.97999954 -11.61999989 -0.74000001 144 204 81 0.000000 0.000000 0.000000 0.000000 51.808199 0.000000 208.000000 0.945674 -0.271557 -0.178764
11.00000000 -11.60000038 -0.79000002 144 204 81 0.000000 0.000000 0.000000 0.000000 51.808199 0.000000 208.000000 -0.574227 0.731280 0.368094
10.98999977 -11.60000038 -0.76999998 144 204 81 0.000000 0.000000 0.000000 0.000000 51.808199 0.000000 208.000000 -0.605729 0.766843 -0.212237
10.98999977 -11.60999966 -0.76999998 144 204 81 0.000000 0.000000 0.000000 0.000000 51.808199 0.000000 208.000000 -0.525576 0.849007 -0.054370
11.02000046 -11.57999992 -0.81999999 144 204 81 0.000000 0.000000 0.000000 0.000000 51.808199 0.000000 208.000000 -0.331359 0.810166 0.483563
11.00000000 -11.59000015 -0.81000000 144 204 81 0.000000 0.000000 0.000000 0.000000 51.808199 0.000000 208.000000 -0.450298 0.795688 0.405107
11.01000023 -11.56999969 -0.82999998 144 204 81 0.000000 0.000000 0.000000 0.000000 51.808199 0.000000 208.000000 -0.566650 0.676971 0.469701
11.00000000 -11.59000015 -0.81000000 144 204 81 0.000000 0.000000 0.000000 0.000000 51.808199 0.000000 208.000000 -0.450298 0.795688 0.405107
11.02000046 -11.57999992 -0.81999999 144 204 81 0.000000 0.000000 0.000000 0.000000 51.808199 0.000000 208.000000 -0.331359 0.810166 0.483563
11.00000000 -11.57999992 -0.81000000 144 204 81 0.000000 0.000000 0.000000 0.000000 51.808199 0.000000 208.000000 -0.382832 0.833408 0.398586
10.98999977 -11.60000038 -0.81999999 144 204 81 0.000000 0.000000 0.000000 0.000000 51.808199 0.000000 208.000000 0.701565 -0.710173 0.058822
10.98999977 -11.59000015 -0.82999998 144 204 81 0.000000 0.000000 0.000000 0.000000 51.808199 0.000000 208.000000 0.932461 -0.346805 -0.101208
11.00000000 -11.57999992 -0.81000000 144 204 81 0.000000 0.000000 0.000000 0.000000 51.808199 0.000000 208.000000 -0.382832 0.833408 0.398586
10.98999977 -11.59000015 -0.81000000 144 204 81 0.000000 0.000000 0.000000 0.000000 51.808199 0.000000 208.000000 0.714207 -0.680704 -0.162943
11.01000023 -11.56999969 -0.81999999 144 204 81 0.000000 0.000000 0.000000 0.000000 51.808199 0.000000 208.000000 0.742402 -0.669424 -0.026665
10.97999954 -11.60000038 -0.80000001 144 204 81 0.000000 0.000000 0.000000 0.000000 51.808199 0.000000 208.000000 -0.662813 0.710044 0.237731
10.97999954 -11.60000038 -0.77999997 144 204 81 0.000000 0.000000 0.000000 0.000000 51.808199 0.000000 208.000000 0.699819 -0.711363 -0.064932
10.97000027 -11.60999966 -0.80000001 144 204 81 0.000000 0.000000 0.000000 0.000000 51.808199 0.000000 208.000000 0.736211 -0.497977 -0.458271
10.97000027 -11.60999966 -0.77999997 144 204 81 0.000000 0.000000 0.000000 0.000000 51.808199 0.000000 208.000000 -0.565335 0.821658 0.072625
10.97999954 -11.60000038 -0.80000001 144 204 81 0.000000 0.000000 0.000000 0.000000 51.808199 0.000000 208.000000 -0.662813 0.710044 0.237731
10.96000004 -11.60999966 -0.82999998 144 204 81 0.000000 0.000000 0.000000 0.000000 51.808199 0.000000 208.000000 0.971219 -0.237088 0.022866
10.96000004 -11.60000038 -0.81000000 144 204 81 0.000000 0.000000 0.000000 0.000000 51.808199 0.000000 208.000000 0.829912 -0.557404 -0.023397
10.96000004 -11.60999966 -0.82999998 144 204 81 0.000000 0.000000 0.000000 0.000000 51.808199 0.000000 208.000000 0.971219 -0.237088 0.022866
10.94999981 -11.61999989 -0.76999998 144 204 81 0.000000 0.000000 0.000000 0.000000 51.808199 0.000000 208.000000 0.775716 -0.570333 0.270158
10.96000004 -11.64999962 -0.79000002 144 204 81 0.000000 0.000000 0.000000 0.000000 51.808199 0.000000 208.000000 0.969720 0.142191 -0.198556
10.96000004 -11.64999962 -0.80000001 144 204 81 0.000000 0.000000 0.000000 0.000000 51.808199 0.000000 208.000000 0.997524 -0.070130 -0.005234
10.97000027 -11.61999989 -0.79000002 144 204 81 0.000000 0.000000 0.000000 0.000000 51.808199 0.000000 208.000000 0.760707 -0.645230 -0.070730
10.94999981 -11.63000011 -0.75999999 144 204 81 0.000000 0.000000 0.000000 0.000000 51.808199 0.000000 208.000000 0.910805 -0.361156 0.200003
10.97000027 -11.64999962 -0.77999997 144 204 81 0.000000 0.000000 0.000000 0.000000 51.808199 0.000000 208.000000 0.967083 -0.013248 -0.254115
10.94999981 -11.63000011 -0.80000001 144 204 81 0.000000 0.000000 0.000000 0.000000 51.808199 0.000000 208.000000 0.955024 -0.270041 -0.122506
10.96000004 -11.64999962 -0.80000001 144 204 81 0.000000 0.000000 0.000000 0.000000 51.808199 0.000000 208.000000 0.997524 -0.070130 -0.005234
10.96000004 -11.64000034 -0.79000002 144 204 81 0.000000 0.000000 0.000000 0.000000 51.808199 0.000000 208.000000 0.982897 -0.097927 -0.155958
10.94999981 -11.63000011 -0.81000000 144 204 81 0.000000 0.000000 0.000000 0.000000 51.808199 0.000000 208.000000 0.942333 -0.318554 0.102630
10.96000004 -11.63000011 -0.81999999 144 204 81 0.000000 0.000000 0.000000 0.000000 51.808199 0.000000 208.000000 0.880393 -0.246630 -0.405070
10.97000027 -11.61999989 -0.81000000 144 204 81 0.000000 0.000000 0.000000 0.000000 51.808199 0.000000 208.000000 0.815237 -0.545010 -0.195839
10.96000004 -11.64000034 -0.81000000 144 204 81 0.000000 0.000000 0.000000 0.000000 51.808199 0.000000 208.000000 0.981749 0.017428 -0.189379
10.94999981 -11.64000034 -0.81999999 144 204 81 0.000000 0.000000 0.000000 0.000000 51.808199 0.000000 208.000000 0.910879 -0.172482 -0.374900
10.96000004 -11.64000034 -0.81000000 144 204 81 0.000000 0.000000 0.000000 0.000000 51.808199 0.000000 208.000000 0.981749 0.017428 -0.189379
10.96000004 -11.63000011 -0.81999999 144 204 81 0.000000 0.000000 0.000000 0.000000 51.808199 0.000000 208.000000 0.880393 -0.246630 -0.405070
10.96000004 -11.64999962 -0.82999998 144 204 81 0.000000 0.000000 0.000000 0.000000 51.808199 0.000000 208.000000 0.953023 0.070737 0.294524
10.98999977 -11.72999954 -0.75000000 144 204 81 0.000000 0.000000 0.000000 0.000000 51.808199 0.000000 208.000000 0.862342 0.504752 -0.039885
10.94999981 -11.65999985 -0.68000001 144 204 81 0.000000 0.000000 0.000000 0.000000 51.808199 0.000000 208.000000 0.909497 -0.187628 0.370960
10.96000004 -11.68000031 -0.70999998 144 204 81 0.000000 0.000000 0.000000 0.000000 51.808199 0.000000 208.000000 0.954051 0.227411 0.195116
10.96000004 -11.65999985 -0.70999998 144 204 81 0.000000 0.000000 0.000000 0.000000 51.808199 0.000000 208.000000 0.928628 -0.267955 0.256613
10.96000004 -11.67000008 -0.70999998 144 204 81 0.000000 0.000000 0.000000 0.000000 51.808199 0.000000 208.000000 0.959291 -0.008554 0.282288
10.97999954 -11.65999985 -0.69000000 144 204 81 0.000000 0.000000 0.000000 0.000000 51.808199 0.000000 208.000000 0.965649 -0.234680 -0.111569
10.97000027 -11.68000031 -0.68000001 144 204 81 0.000000 0.000000 0.000000 0.000000 51.808199 0.000000 208.000000 0.916284 -0.305428 0.259107
10.96000004 -11.68000031 -0.72000003 144 204 81 0.000000 0.000000 0.000000 0.000000 51.808199 0.000000 208.000000 0.983029 -0.127273 0.132121
10.97000027 -11.68999958 -0.74000001 144 204 81 0.000000 0.000000 0.000000 0.000000 51.808199 0.000000 208.000000 0.956288 0.272666 -0.105674
10.97000027 -11.68000031 -0.72000003 144 204 81 0.000000 0.000000 0.000000 0.000000 51.808199 0.000000 208.000000 0.938387 -0.294369 0.181044
10.94999981 -11.68999958 -0.75000000 144 204 81 0.000000 0.000000 0.000000 0.000000 51.808199 0.000000 208.000000 0.920982 -0.043605 -0.387156
10.97000027 -11.68000031 -0.73000002 144 204 81 0.000000 0.000000 0.000000 0.000000 51.808199 0.000000 208.000000 0.982460 -0.184865 -0.024416
10.97999954 -11.65999985 -0.73000002 144 204 81 0.000000 0.000000 0.000000 0.000000 51.808199 0.000000 208.000000 0.898950 -0.321371 0.297675
10.94999981 -11.68999958 -0.72000003 144 204 81 0.000000 0.000000 0.000000 0.000000 51.808199 0.000000 208.000000 0.908409 0.038571 -0.416299
10.96000004 -11.68000031 -0.72000003 144 204 81 0.000000 0.000000 0.000000 0.000000 51.808199 0.000000 208.000000 0.983029 -0.127273 0.132121
10.97999954 -11.72999954 -0.69999999 144 204 81 0.000000 0.000000 0.000000 0.000000 51.808199 0.000000 208.000000 0.957314 0.110710 -0.267006
10.97000027 -11.71000004 -0.68000001 144 204 81 0.000000 0.000000 0.000000 0.000000 51.808199 0.000000 208.000000 0.971766 0.225963 0.067912
10.94999981 -11.69999981 -0.68000001 144 204 81 0.000000 0.000000 0.000000 0.000000 51.808199 0.000000 208.000000 0.953091 -0.142233 0.267184
10.97000027 -11.72999954 -0.70999998 144 204 81 0.000000 0.000000 0.000000 0.000000 51.808199 0.000000 208.000000 0.971673 0.227832 0.062808
10.97000027 -11.72000027 -0.68000001 144 204 81 0.000000 0.000000 0.000000 0.000000 51.808199 0.000000 208.000000 0.972332 0.111950 0.205032
10.94999981 -11.69999981 -0.68000001 144 204 81 0.000000 0.000000 0.000000 0.000000 51.808199 0.000000 208.000000 0.953091 -0.142233 0.267184
10.97000027 -11.72000027 -0.69999999 144 204 81 0.000000 0.000000 0.000000 0.000000 51.808199 0.000000 208.000000 0.955662 0.280621 -0.089230
10.96000004 -11.72000027 -0.73000002 144 204 81 0.000000 0.000000 0.000000 0.000000 51.808199 0.000000 208.000000 0.981770 0.110708 0.154504
10.96000004 -11.71000004 -0.75000000 144 204 81 0.000000 0.000000 0.000000 0.000000 51.808199 0.000000 208.000000 0.846863 0.521921 0.102084
10.96000004 -11.69999981 -0.73000002 144 204 81 0.000000 0.000000 0.000000 0.000000 51.808199 0.000000 208.000000 0.963072 -0.038424 0.266487
10.96000004 -11.71000004 -0.73000002 144 204 81 0.000000 0.000000 0.000000 0.000000 51.808199 0.000000 208.000000 0.964314 0.261194 -0.043326
10.97000027 -11.69999981 -0.75000000 144 204 81 0.000000 0.000000 0.000000 0.000000 51.808199 0.000000 208.000000 0.995003 -0.058660 0.080796
10.94999981 -11.69999981 -0.74000001 144 204 81 0.000000 0.000000 0.000000 0.000000 51.808199 0.000000 208.000000 0.900828 0.372303 -0.223382
10.98999977 -11.72999954 -0.77999997 144 204 81 0.000000 0.000000 0.000000 0.000000 51.808199 0.000000 208.000000 0.788189 0.614591 0.032200
10.96000004 -11.68000031 -0.75999999 144 204 81 0.000000 0.000000 0.000000 0.000000 51.808199 0.000000 208.000000 0.957319 -0.157567 0.242309
10.94999981 -11.68999958 -0.76999998 144 204 81 0.000000 0.000000 0.000000 0.000000 51.808199 0.000000 208.000000 0.975188 0.216306 -0.047128
10.96000004 -11.67000008 -0.75999999 144 204 81 0.000000 0.000000 0.000000 0.000000 51.808199 0.000000 208.000000 0.977083 0.079687 0.197378
10.97000027 -11.68000031 -0.77999997 144 204 81 0.000000 0.000000 0.000000 0.000000 51.808199 0.000000 208.000000 0.972708 0.195551 0.124900
10.96000004 -11.67000008 -0.77999997 144 204 81 0.000000 0.000000 0.000000 0.000000 51.808199 0.000000 208.000000 0.965202 0.261029 -0.015783
10.94999981 -11.68000031 -0.79000002 144 204 81 0.000000 0.000000 0.000000 0.000000 51.808199 0.000000 208.000000 0.953825 -0.245499 -0.173057
10.94999981 -11.67000008 -0.80000001 144 204 81 0.000000 0.000000 0.000000 0.000000 51.808199 0.000000 208.000000 0.953868 -0.161877 0.252849
10.96000004 -11.67000008 -0.79000002 144 204 81 0.000000 0.000000 0.000000 0.000000 51.808199 0.000000 208.000000 0.948665 -0.006200 -0.316222
10.97000027 -11.67000008 -0.77999997 144 204 81 0.000000 0.000000 0.000000 0.000000 51.808199 0.000000 208.000000 0.996962 0.073889 0.024630
10.94999981 -11.68999958 -0.77999997 144 204 81 0.000000 0.000000 0.000000 0.000000 51.808199 0.000000 208.000000 0.962415 0.218671 0.161057
10.96000004 -11.67000008 -0.80000001 144 204 81 0.000000 0.000000 0.000000 0.000000 51.808199 0.000000 208.000000 0.966207 0.236127 -0.103385
10.96000004 -11.67000008 -0.81000000 144 204 81 0.000000 0.000000 0.000000 0.000000 51.808199 0.000000 208.000000 0.951775 0.285664 0.111896
10.97000027 -11.68000031 -0.83999997 144 204 81 0.000000 0.000000 0.000000 0.000000 51.808199 0.000000 208.000000 0.946308 0.026532 -0.322174
10.96000004 -11.67000008 -0.82999998 144 204 81 0.000000 0.000000 0.000000 0.000000 51.808199 0.000000 208.000000 0.961650 -0.131430 0.240738
10.94999981 -11.65999985 -0.81000000 144 204 81 0.000000 0.000000 0.000000 0.000000 51.808199 0.000000 208.000000 0.956656 0.287877 -0.043999
10.97000027 -11.65999985 -0.82999998 144 204 81 0.000000 0.000000 0.000000 0.000000 51.808199 0.000000 208.000000 0.986790 0.064381 0.148662
10.97000027 -11.69999981 -0.76999998 144 204 81 0.000000 0.000000 0.000000 0.000000 51.808199 0.000000 208.000000 0.967643 0.237821 -0.084307
10.94999981 -11.69999981 -0.77999997 144 204 81 0.000000 0.000000 0.000000 0.000000 51.808199 0.000000 208.000000 0.939840 0.242942 0.240166
10.97999954 -11.72999954 -0.76999998 144 204 81 0.000000 0.000000 0.000000 0.000000 51.808199 0.000000 208.000000 0.646007 0.735860 0.202942
10.97000027 -11.72000027 -0.76999998 144 204 81 0.000000 0.000000 0.000000 0.000000 51.808199 0.000000 208.000000 0.968996 0.219707 0.113028
10.97000027 -11.72000027 -0.79000002 144 204 81 0.000000 0.000000 0.000000 0.000000 51.808199 0.000000 208.000000 0.978994 0.036786 0.200545
10.97000027 -11.72999954 -0.79000002 144 204 81 0.000000 0.000000 0.000000 0.000000 51.808199 0.000000 208.000000 0.948265 0.316923 -0.018790
10.97000027 -11.71000004 -0.77999997 144 204 81 0.000000 0.000000 0.000000 0.000000 51.808199 0.000000 208.000000 0.924656 0.324267 0.199658
10.96000004 -11.69999981 -0.75999999 144 204 81 0.000000 0.000000 0.000000 0.000000 51.808199 0.000000 208.000000 0.979052 0.192422 -0.066561
10.97999954 -11.73999977 -0.77999997 144 204 81 0.000000 0.000000 0.000000 0.000000 51.808199 0.000000 208.000000 0.915641 0.330207 -0.229271
10.97000027 -11.72999954 -0.77999997 144 204 81 0.000000 0.000000 0.000000 0.000000 51.808199 0.000000 208.000000 0.977596 0.165210 0.130429
10.96000004 -11.71000004 -0.75999999 144 204 81 0.000000 0.000000 0.000000 0.000000 51.808199 0.000000 208.000000 0.805986 0.531608 0.260347
10.94999981 -11.69999981 -0.77999997 144 204 81 0.000000 0.000000 0.000000 0.000000 51.808199 0.000000 208.000000 0.939840 0.242942 0.240166
10.97000027 -11.71000004 -0.77999997 144 204 81 0.000000 0.000000 0.000000 0.000000 51.808199 0.000000 208.000000 0.924656 0.324267 0.199658
10.97000027 -11.69999981 -0.80000001 144 204 81 0.000000 0.000000 0.000000 0.000000 51.808199 0.000000 208.000000 0.890998 0.362668 0.273120
10.97000027 -11.69999981 -0.82999998 144 204 81 0.000000 0.000000 0.000000 0.000000 51.808199 0.000000 208.000000 0.969064 0.246736 -0.005960
10.97000027 -11.72000027 -0.81000000 144 204 81 0.000000 0.000000 0.000000 0.000000 51.808199 0.000000 208.000000 0.950320 0.300306 -0.081902
10.97000027 -11.71000004 -0.83999997 144 204 81 0.000000 0.000000 0.000000 0.000000 51.808199 0.000000 208.000000 0.823922 0.543818 -0.159421
10.97000027 -11.69999981 -0.81000000 144 204 81 0.000000 0.000000 0.000000 0.000000 51.808199 0.000000 208.000000 0.827627 0.561264 0.004077
10.97000027 -11.69999981 -0.81999999 144 204 81 0.000000 0.000000 0.000000 0.000000 51.808199 0.000000 208.000000 0.808351 0.564491 -0.167089
10.97999954 -11.71000004 -0.83999997 144 204 81 0.000000 0.000000 0.000000 0.000000 51.808199 0.000000 208.000000 0.870399 0.492198 -0.012070
10.97000027 -11.72000027 -0.81000000 144 204 81 0.000000 0.000000 0.000000 0.000000 51.808199 0.000000 208.000000 0.950320 0.300306 -0.081902
10.97999954 -11.72000027 -0.81000000 144 204 81 0.000000 0.000000 0.000000 0.000000 51.808199 0.000000 208.000000 0.994571 0.070166 -0.076848
10.97000027 -11.73999977 -0.81000000 144 204 81 0.000000 0.000000 0.000000 0.000000 51.808199 0.000000 208.000000 0.988491 0.140220 -0.056783
10.97999954 -11.72999954 -0.83999997 144 204 81 0.000000 0.000000 0.000000 0.000000 51.808199 0.000000 208.000000 0.912770 0.396678 0.097454
11.02999973 -11.56999969 -0.86000001 144 204 81 0.000000 0.000000 0.000000 0.000000 51.808199 0.000000 208.000000 -0.322101 0.770799 0.549655
11.02999973 -11.56999969 -0.85000002 144 204 81 0.000000 0.000000 0.000000 0.000000 51.808199 0.000000 208.000000 0.788848 -0.567909 -0.234943
11.02000046 -11.56999969 -0.88000000 144 204 81 0.000000 0.000000 0.000000 0.000000 51.808199 0.000000 208.000000 -0.268149 0.929301 0.253962
11.00000000 -11.57999992 -0.85000002 144 204 81 0.000000 0.000000 0.000000 0.000000 51.808199 0.000000 208.000000 -0.704184 0.709784 -0.018200
11.00000000 -11.57999992 -0.86000001 144 204 81 0.000000 0.000000 0.000000 0.000000 51.808199 0.000000 208.000000 -0.625257 0.768514 -0.135796
11.02000046 -11.56999969 -0.88000000 144 204 81 0.000000 0.000000 0.000000 0.000000 51.808199 0.000000 208.000000 -0.268149 0.929301 0.253962
10.98999977 -11.57999992 -0.89999998 144 204 81 0.000000 0.000000 0.000000 0.000000 51.808199 0.000000 208.000000 0.813387 -0.579380 -0.052158
10.98999977 -11.59000015 -0.91000003 144 204 81 0.000000 0.000000 0.000000 0.000000 51.808199 0.000000 208.000000 0.791397 -0.557256 -0.251311
11.01000023 -11.56999969 -0.92000002 144 204 81 0.000000 0.000000 0.000000 0.000000 51.808199 0.000000 208.000000 -0.479580 0.856072 0.192728
10.98999977 -11.57999992 -0.91000003 144 204 81 0.000000 0.000000 0.000000 0.000000 51.808199 0.000000 208.000000 0.810592 -0.414090 -0.414090
10.98999977 -11.57999992 -0.91000003 144 204 81 0.000000 0.000000 0.000000 0.000000 51.808199 0.000000 208.000000 0.810592 -0.414090 -0.414090
10.98999977 -11.59000015 -0.91000003 144 204 81 0.000000 0.000000 0.000000 0.000000 51.808199 0.000000 208.000000 0.791397 -0.557256 -0.251311
10.97999954 -11.57999992 -0.88000000 144 204 81 0.000000 0.000000 0.000000 0.000000 51.808199 0.000000 208.000000 0.883861 -0.448377 -0.133224
10.97000027 -11.60999966 -0.87000000 144 204 81 0.000000 0.000000 0.000000 0.000000 51.808199 0.000000 208.000000 0.990764 0.003306 -0.135555
10.97999954 -11.59000015 -0.87000000 144 204 81 0.000000 0.000000 0.000000 0.000000 51.808199 0.000000 208.000000 0.904337 -0.426574 0.014438
10.97999954 -11.60000038 -0.86000001 144 204 81 0.000000 0.000000 0.000000 0.000000 51.808199 0.000000 208.000000 0.797924 -0.497303 -0.340597
10.97000027 -11.59000015 -0.87000000 144 204 81 0.000000 0.000000 0.000000 0.000000 51.808199 0.000000 208.000000 0.837191 -0.491295 -0.240291
10.97999954 -11.59000015 -0.86000001 144 204 81 0.000000 0.000000 0.000000 0.000000 51.808199 0.000000 208.000000 0.868681 -0.323266 -0.375356
10.97000027 -11.60000038 -0.88000000 144 204 81 0.000000 0.000000 0.000000 0.000000 51.808199 0.000000 208.000000 0.690252 -0.714003 0.117269
10.97999954 -11.59000015 -0.88999999 144 204 81 0.000000 0.000000 0.000000 0.000000 51.808199 0.000000 208.000000 0.971535 -0.228379 -0.062958
10.94999981 -11.57999992 -0.91000003 144 204 81 0.000000 0.000000 0.000000 0.000000 51.808199 0.000000 208.000000 0.911820 -0.312666 -0.266129
10.97999954 -11.59000015 -0.93000001 144 204 81 0.000000 0.000000 0.000000 0.000000 51.808199 0.000000 208.000000 0.828260 -0.508635 0.235109
10.97999954 -11.60999966 -0.92000002 144 204 81 0.000000 0.000000 0.000000 0.000000 51.808199 0.000000 208.000000 0.882469 -0.460235 -0.097114
10.94999981 -11.56999969 -0.91000003 144 204 81 0.000000 0.000000 0.000000 0.000000 51.808199 0.000000 208.000000 0.816677 -0.386847 -0.428238
10.97000027 -11.60999966 -0.89999998 144 204 81 0.000000 0.000000 0.000000 0.000000 51.808199 0.000000 208.000000 0.856301 -0.515959 -0.023143
10.97999954 -11.60000038 -0.89999998 144 204 81 0.000000 0.000000 0.000000 0.000000 51.808199 0.000000 208.000000 0.787370 -0.581702 0.204133
10.97999954 -11.60000038 -0.89999998 144 204 81 0.000000 0.000000 0.000000 0.000000 51.808199 0.000000 208.000000 0.787370 -0.581702 0.204133
10.97000027 -11.60000038 -0.88999999 144 204 81 0.000000 0.000000 0.000000 0.000000 51.808199 0.000000 208.000000 0.759515 -0.649195 0.041017
10.97000027 -11.56999969 -0.88999999 144 204 81 0.000000 0.000000 0.000000 0.000000 51.808199 0.000000 208.000000 0.800494 -0.410716 -0.436487
10.97999954 -11.60000038 -0.93000001 144 204 81 0.000000 0.000000 0.000000 0.000000 51.808199 0.000000 208.000000 0.853488 -0.492567 0.170106
10.96000004 -11.63000011 -0.87000000 144 204 81 0.000000 0.000000 0.000000 0.000000 51.808199 0.000000 208.000000 0.878722 -0.419220 -0.228259
10.96000004 -11.64000034 -0.87000000 144 204 81 0.000000 0.000000 0.000000 0.000000 51.808199 0.000000 208.000000 0.987454 0.014704 -0.157223
10.96000004 -11.64999962 -0.86000001 144 204 81 0.000000 0.000000 0.000000 0.000000 51.808199 0.000000 208.000000 0.994741 -0.056557 -0.085390
10.94999981 -11.63000011 -0.88000000 144 204 81 0.000000 0.000000 0.000000 0.000000 51.808199 0.000000 208.000000 0.983578 0.180189 -0.010329
10.96000004 -11.64999962 -0.87000000 144 204 81 0.000000 0.000000 0.000000 0.000000 51.808199 0.000000 208.000000 0.942875 -0.190771 -0.273118
10.96000004 -11.64000034 -0.86000001 144 204 81 0.000000 0.000000 0.000000 0.000000 51.808199 0.000000 208.000000 0.927209 -0.054076 -0.370620
10.96000004 -11.64999962 -0.85000002 144 204 81 0.000000 0.000000 0.000000 0.000000 51.808199 0.000000 208.000000 0.967146 -0.250103 -0.045585
10.94999981 -11.61999989 -0.87000000 144 204 81 0.000000 0.000000 0.000000 0.000000 51.808199 0.000000 208.000000 0.998844 -0.001022 -0.048051
10.96000004 -11.64999962 -0.85000002 144 204 81 0.000000 0.000000 0.000000 0.000000 51.808199 0.000000 208.000000 0.967146 -0.250103 -0.045585
10.97000027 -11.63000011 -0.85000002 144 204 81 0.000000 0.000000 0.000000 0.000000 51.808199 0.000000 208.000000 0.964161 -0.152236 -0.217294
10.94999981 -11.61999989 -0.86000001 144 204 81 0.000000 0.000000 0.000000 0.000000 51.808199 0.000000 208.000000 0.983425 -0.097500 -0.152870
10.96000004 -11.63000011 -0.86000001 144 204 81 0.000000 0.000000 0.000000 0.000000 51.808199 0.000000 208.000000 0.890092 -0.200894 -0.409120
10.97000027 -11.61999989 -0.87000000 144 204 81 0.000000 0.000000 0.000000 0.000000 51.808199 0.000000 208.000000 0.897606 -0.404859 -0.174334
10.97000027 -11.61999989 -0.91000003 144 204 81 0.000000 0.000000 0.000000 0.000000 51.808199 0.000000 208.000000 0.956989 -0.271385 0.102581
10.94999981 -11.64000034 -0.88999999 144 204 81 0.000000 0.000000 0.000000 0.000000 51.808199 0.000000 208.000000 0.913941 -0.241883 0.325890
10.96000004 -11.64999962 -0.91000003 144 204 81 0.000000 0.000000 0.000000 0.000000 51.808199 0.000000 208.000000 0.987328 -0.133295 -0.086111
10.96000004 -11.64999962 -0.89999998 144 204 81 0.000000 0.000000 0.000000 0.000000 51.808199 0.000000 208.000000 0.981552 -0.068313 -0.178573
10.98999977 -11.56999969 -0.95999998 144 204 81 0.000000 0.000000 0.000000 0.000000 51.808199 0.000000 208.000000 0.902627 -0.308755 -0.299891
10.98999977 -11.57999992 -0.94000000 144 204 81 0.000000 0.000000 0.000000 0.000000 51.808199 0.000000 208.000000 0.861692 -0.504844 -0.051176
11.00000000 -11.56999969 -0.99000001 144 204 81 0.000000 0.000000 0.000000 0.000000 51.808199 0.000000 208.000000 0.742514 -0.659518 0.117083
10.98999977 -11.56999969 -0.98000002 144 204 81 0.000000 0.000000 0.000000 0.000000 51.808199 0.000000 208.000000 0.794096 -0.607086 0.029308
10.97999954 -11.59000015 -0.97000003 144 204 81 0.000000 0.000000 0.000000 0.000000 51.808199 0.000000 208.000000 0.712821 -0.695257 -0.092213
10.97000027 -11.60000038 -0.98000002 144 204 81 0.000000 0.000000 0.000000 0.000000 51.808199 0.000000 208.000000 0.734106 -0.668852 -0.117160
10.97000027 -11.60000038 -0.99000001 144 204 81 0.000000 0.000000 0.000000 0.000000 51.808199 0.000000 208.000000 0.745103 -0.666523 -0.023855
10.97999954 -11.56999969 -0.99000001 144 204 81 0.000000 0.000000 0.000000 0.000000 51.808199 0.000000 208.000000 0.730201 -0.681806 0.044125
10.97999954 -11.60000038 -1.00000000 144 204 81 0.000000 0.000000 0.000000 0.000000 51.808199 0.000000 208.000000 0.972434 -0.133123 0.191444
10.97999954 -11.57999992 -1.00999999 144 204 81 0.000000 0.000000 0.000000 0.000000 51.808199 0.000000 208.000000 0.898989 -0.428024 0.092808
10.97999954 -11.59000015 -1.00000000 144 204 81 0.000000 0.000000 0.000000 0.000000 51.808199 0.000000 208.000000 0.983828 -0.161381 0.077702
10.97000027 -11.60000038 -0.99000001 144 204 81 0.000000 0.000000 0.000000 0.000000 51.808199 0.000000 208.000000 0.745103 -0.666523 -0.023855
10.97999954 -11.59000015 -1.00000000 144 204 81 0.000000 0.000000 0.000000 0.000000 51.808199 0.000000 208.000000 0.983828 -0.161381 0.077702
10.96000004 -11.60000038 -1.00999999 144 204 81 0.000000 0.000000 0.000000 0.000000 51.808199 0.000000 208.000000 0.822981 -0.559743 -0.096906
10.96000004 -11.60000038 -1.00999999 144 204 81 0.000000 0.000000 0.000000 0.000000 51.808199 0.000000 208.000000 0.822981 -0.559743 -0.096906
10.97999954 -11.60999966 -1.00999999 144 204 81 0.000000 0.000000 0.000000 0.000000 51.808199 0.000000 208.000000 0.980677 -0.066181 0.184102
10.97000027 -11.60000038 -0.99000001 144 204 81 0.000000 0.000000 0.000000 0.000000 51.808199 0.000000 208.000000 0.745103 -0.666523 -0.023855
10.97999954 -11.60000038 -1.00999999 144 204 81 0.000000 0.000000 0.000000 0.000000 51.808199 0.000000 208.000000 0.991991 -0.092677 -0.085812
10.97999954 -11.64000034 -0.97000003 144 204 81 0.000000 0.000000 0.000000 0.000000 51.808199 0.000000 208.000000 0.924575 -0.366290 0.104849
10.96000004 -11.64000034 -0.94000000 144 204 81 0.000000 0.000000 0.000000 0.000000 51.808199 0.000000 208.000000 0.985371 0.021846 -0.169019
10.97000027 -11.64000034 -0.97000003 144 204 81 0.000000 0.000000 0.000000 0.000000 51.808199 0.000000 208.000000 0.958148 -0.157268 0.239207
10.97999954 -11.63000011 -0.99000001 144 204 81 0.000000 0.000000 0.000000 0.000000 51.808199 0.000000 208.000000 0.966733 -0.241367 0.084668
10.97000027 -11.63000011 -0.98000002 144 204 81 0.000000 0.000000 0.000000 0.000000 51.808199 0.000000 208.000000 0.985311 0.031261 -0.167885
10.97999954 -11.63000011 -1.00000000 144 204 81 0.000000 0.000000 0.000000 0.000000 51.808199 0.000000 208.000000 0.914443 -0.387147 -0.117948
10.97000027 -11.61999989 -1.00999999 144 204 81 0.000000 0.000000 0.000000 0.000000 51.808199 0.000000 208.000000 0.982959 0.024371 0.182201
10.97999954 -11.64999962 -0.99000001 144 204 81 0.000000 0.000000 0.000000 0.000000 51.808199 0.000000 208.000000 0.896709 0.396761 0.196200
10.94999981 -11.64000034 -0.98000002 144 204 81 0.000000 0.000000 0.000000 0.000000 51.808199 0.000000 208.000000 0.907813 -0.309448 0.283050
10.97000027 -11.64999962 -1.00999999 144 204 81 0.000000 0.000000 0.000000 0.000000 51.808199 0.000000 208.000000 0.977910 0.165263 0.127986
10.98999977 -11.73999977 -0.88000000 144 204 81 0.000000 0.000000 0.000000 0.000000 51.808199 0.000000 208.000000 0.693067 0.702206 -0.162985
11.00000000 -11.73999977 -0.85000002 144 204 81 0.000000 0.000000 0.000000 0.000000 51.808199 0.000000 208.000000 0.898979 0.430904 -0.078471
10.98999977 -11.73999977 -0.86000001 144 204 81 0.000000 0.000000 0.000000 0.000000 51.808199 0.000000 208.000000 0.922783 0.373734 0.093773
10.98999977 -11.73999977 -0.88000000 144 204 81 0.000000 0.000000 0.000000 0.000000 51.808199 0.000000 208.000000 0.693067 0.702206 -0.162985
11.02000046 -11.73999977 -0.91000003 144 204 81 0.000000 0.000000 0.000000 0.000000 51.808199 0.000000 208.000000 0.514473 0.857455 -0.009452
11.00000000 -11.72999954 -0.89999998 144 204 81 0.000000 0.000000 0.000000 0.000000 51.808199 0.000000 208.000000 0.668779 0.703398 0.240760
11.01000023 -11.72999954 -0.91000003 144 204 81 0.000000 0.000000 0.000000 0.000000 51.808199 0.000000 208.000000 0.558326 0.825289 -0.084682
10.97000027 -11.67000008 -0.85000002 144 204 81 0.000000 0.000000 0.000000 0.000000 51.808199 0.000000 208.000000 0.982239 0.185703 -0.026863
10.94999981 -11.68999958 -0.86000001 144 204 81 0.000000 0.000000 0.000000 0.000000 51.808199 0.000000 208.000000 0.871081 0.475005 0.124850
10.96000004 -11.65999985 -0.85000002 144 204 81 0.000000 0.000000 0.000000 0.000000 51.808199 0.000000 208.000000 0.993577 0.075390 0.084392
10.94999981 -11.68999958 -0.86000001 144 204 81 0.000000 0.000000 0.000000 0.000000 51.808199 0.000000 208.000000 0.871081 0.475005 0.124850
10.96000004 -11.67000008 -0.86000001 144 204 81 0.000000 0.000000 0.000000 0.000000 51.808199 0.000000 208.000000 0.983846 -0.178985 0.003420
10.94999981 -11.68000031 -0.88000000 144 204 81 0.000000 0.000000 0.000000 0.000000 51.808199 0.000000 208.000000 0.959718 -0.221066 -0.173411
10.94999981 -11.68000031 -0.85000002 144 204 81 0.000000 0.000000 0.000000 0.000000 51.808199 0.000000 208.000000 0.987164 0.100490 -0.124134
10.94999981 -11.68999958 -0.85000002 144 204 81 0.000000 0.000000 0.000000 0.000000 51.808199 0.000000 208.000000 0.898442 0.249321 0.361442
10.97999954 -11.68999958 -0.91000003 144 204 81 0.000000 0.000000 0.000000 0.000000 51.808199 0.000000 208.000000 0.946193 0.181070 0.268202
10.94999981 -11.65999985 -0.89999998 144 204 81 0.000000 0.000000 0.000000 0.000000 51.808199 0.000000 208.000000 0.981469 0.191195 0.012746
10.94999981 -11.68000031 -0.89999998 144 204 81 0.000000 0.000000 0.000000 0.000000 51.808199 0.000000 208.000000 0.946448 0.247912 0.206822
10.96000004 -11.68000031 -0.92000002 144 204 81 0.000000 0.000000 0.000000 0.000000 51.808199 0.000000 208.000000 0.859060 0.501714 -0.101486
10.97999954 -11.68999958 -0.92000002 144 204 81 0.000000 0.000000 0.000000 0.000000 51.808199 0.000000 208.000000 0.734556 0.673464 -0.082910
10.94999981 -11.67000008 -0.89999998 144 204 81 0.000000 0.000000 0.000000 0.000000 51.808199 0.000000 208.000000 0.996802 0.076018 0.024626
10.94999981 -11.67000008 -0.88999999 144 204 81 0.000000 0.000000 0.000000 0.000000 51.808199 0.000000 208.000000 0.927696 -0.065032 0.367628
10.97000027 -11.67000008 -0.89999998 144 204 81 0.000000 0.000000 0.000000 0.000000 51.808199 0.000000 208.000000 0.890265 0.397150 -0.222935
10.97999954 -11.68999958 -0.91000003 144 204 81 0.000000 0.000000 0.000000 0.000000 51.808199 0.000000 208.000000 0.946193 0.181070 0.268202
10.96000004 -11.71000004 -0.86000001 144 204 81 0.000000 0.000000 0.000000 0.000000 51.808199 0.000000 208.000000 0.801610 0.596645 -0.037904
10.96000004 -11.69999981 -0.86000001 144 204 81 0.000000 0.000000 0.000000 0.000000 51.808199 0.000000 208.000000 0.887929 0.437510 0.142011
10.96000004 -11.71000004 -0.86000001 144 204 81 0.000000 0.000000 0.000000 0.000000 51.808199 0.000000 208.000000 0.801610 0.596645 -0.037904
10.96000004 -11.69999981 -0.87000000 144 204 81 0.000000 0.000000 0.000000 0.000000 51.808199 0.000000 208.000000 0.972277 0.158869 0.171578
10.96000004 -11.69999981 -0.87000000 144 204 81 0.000000 0.000000 0.000000 0.000000 51.808199 0.000000 208.000000 0.972277 0.158869 0.171578
10.96000004 -11.73999977 -0.87000000 144 204 81 0.000000 0.000000 0.000000 0.000000 51.808199 0.000000 208.000000 0.854833 0.509475 -0.098470
10.97999954 -11.71000004 -0.89999998 144 204 81 0.000000 0.000000 0.000000 0.000000 51.808199 0.000000 208.000000 0.879437 0.474380 -0.039418
10.97999954 -11.72000027 -0.92000002 144 204 81 0.000000 0.000000 0.000000 0.000000 51.808199 0.000000 208.000000 0.976300 0.200172 -0.082279
10.97999954 -11.72000027 -0.89999998 144 204 81 0.000000 0.000000 0.000000 0.000000 51.808199 0.000000 208.000000 0.763691 0.624010 -0.165492
10.97999954 -11.72000027 -0.92000002 144 204 81 0.000000 0.000000 0.000000 0.000000 51.808199 0.000000 208.000000 0.976300 0.200172 -0.082279
10.97999954 -11.72000027 -0.88999999 144 204 81 0.000000 0.000000 0.000000 0.000000 51.808199 0.000000 208.000000 0.632216 0.733118 0.250679
10.97000027 -11.71000004 -0.89999998 144 204 81 0.000000 0.000000 0.000000 0.000000 51.808199 0.000000 208.000000 0.866920 0.323753 0.378990
10.96000004 -11.69999981 -0.93000001 144 204 81 0.000000 0.000000 0.000000 0.000000 51.808199 0.000000 208.000000 0.885632 0.308242 0.347336
10.97999954 -11.69999981 -0.93000001 144 204 81 0.000000 0.000000 0.000000 0.000000 51.808199 0.000000 208.000000 0.998805 0.048346 -0.007200
10.98999977 -11.65999985 -1.00000000 144 204 81 0.000000 0.000000 0.000000 0.000000 51.808199 0.000000 208.000000 0.923055 0.264752 0.279063
10.98999977 -11.68999958 -1.00999999 144 204 81 0.000000 0.000000 0.000000 0.000000 51.808199 0.000000 208.000000 0.817044 0.559963 -0.137405
10.98999977 -11.68999958 -1.00999999 144 204 81 0.000000 0.000000 0.000000 0.000000 51.808199 0.000000 208.000000 0.817044 0.559963 -0.137405
10.98999977 -11.69999981 -0.97000003 144 204 81 0.000000 0.000000 0.000000 0.000000 51.808199 0.000000 208.000000 0.893481 0.440487 -0.087542
11.00000000 -11.73999977 -0.95999998 144 204 81 0.000000 0.000000 0.000000 0.000000 51.808199 0.000000 208.000000 0.845685 0.528376 -0.075078
10.98999977 -11.69999981 -0.94999999 144 204 81 0.000000 0.000000 0.000000 0.000000 51.808199 0.000000 208.000000 0.680275 0.732924 0.006927
10.98999977 -11.72000027 -0.97000003 144 204 81 0.000000 0.000000 0.000000 0.000000 51.808199 0.000000 208.000000 0.700318 0.697293 0.152769
10.98999977 -11.72999954 -0.94000000 144 204 81 0.000000 0.000000 0.000000 0.000000 51.808199 0.000000 208.000000 0.713319 0.503813 0.487185
10.98999977 -11.72999954 -0.95999998 144 204 81 0.000000 0.000000 0.000000 0.000000 51.808199 0.000000 208.000000 0.627288 0.777384 -0.046728
11.01000023 -11.73999977 -0.94999999 144 204 81 0.000000 0.000000 0.000000 0.000000 51.808199 0.000000 208.000000 0.801090 0.538745 0.260784
10.98999977 -11.72000027 -0.94999999 144 204 81 0.000000 0.000000 0.000000 0.000000 51.808199 0.000000 208.000000 0.932535 0.359858 0.029666
11.00000000 -11.73999977 -0.98000002 144 204 81 0.000000 0.000000 0.000000 0.000000 51.808199 0.000000 208.000000 0.853049 0.491060 0.176544
10.98999977 -11.72999954 -0.98000002 144 204 81 0.000000 0.000000 0.000000 0.000000 51.808199 0.000000 208.000000 0.664068 0.711165 -0.230775
11.00000000 -11.71000004 -1.00999999 144 204 81 0.000000 0.000000 0.000000 0.000000 51.808199 0.000000 208.000000 0.608347 0.788383 -0.091470
11.00000000 -11.72000027 -0.98000002 144 204 81 0.000000 0.000000 0.000000 0.000000 51.808199 0.000000 208.000000 0.744420 0.480324 0.463818
11.00000000 -11.71000004 -0.99000001 144 204 81 0.000000 0.000000 0.000000 0.000000 51.808199 0.000000 208.000000 0.843124 0.370724 0.389495
11.01000023 -11.72000027 -1.00000000 144 204 81 0.000000 0.000000 0.000000 0.000000 51.808199 0.000000 208.000000 0.730201 0.681994 0.041118
11.00000000 -11.72999954 -0.98000002 144 204 81 0.000000 0.000000 0.000000 0.000000 51.808199 0.000000 208.000000 0.824491 0.475849 0.306239
10.97000027 -11.68999958 -0.97000003 144 204 81 0.000000 0.000000 0.000000 0.000000 51.808199 0.000000 208.000000 0.928749 0.292620 0.227593
10.96000004 -11.67000008 -0.94999999 144 204 81 0.000000 0.000000 0.000000 0.000000 51.808199 0.000000 208.000000 0.941192 0.329483 0.074823
10.96000004 -11.68000031 -0.97000003 144 204 81 0.000000 0.000000 0.000000 0.000000 51.808199 0.000000 208.000000 0.801994 0.577973 0.150841
10.96000004 -11.67000008 -0.94999999 144 204 81 0.000000 0.000000 0.000000 0.000000 51.808199 0.000000 208.000000 0.941192 0.329483 0.074823
10.94999981 -11.67000008 -0.94999999 144 204 81 0.000000 0.000000 0.000000 0.000000 51.808199 0.000000 208.000000 0.913076 0.344747 -0.217811
10.97000027 -11.68999958 -0.97000003 144 204 81 0.000000 0.000000 0.000000 0.000000 51.808199 0.000000 208.000000 0.928749 0.292620 0.227593
10.96000004 -11.67000008 -0.94999999 144 204 81 0.000000 0.000000 0.000000 0.000000 51.808199 0.000000 208.000000 0.941192 0.329483 0.074823
10.96000004 -11.68000031 -0.97000003 144 204 81 0.000000 0.000000 0.000000 0.000000 51.808199 0.000000 208.000000 0.801994 0.577973 0.150841
10.97000027 -11.68999958 -0.94999999 144 204 81 0.000000 0.000000 0.000000 0.000000 51.808199 0.000000 208.000000 0.726569 0.675843 0.123830
10.97999954 -11.72000027 -0.94000000 144 204 81 0.000000 0.000000 0.000000 0.000000 51.808199 0.000000 208.000000 0.622107 0.741804 0.250418
10.94999981 -11.71000004 -0.94999999 144 204 81 0.000000 0.000000 0.000000 0.000000 51.808199 0.000000 208.000000 0.834974 0.541799 -0.096288
10.94999981 -11.71000004 -0.94999999 144 204 81 0.000000 0.000000 0.000000 0.000000 51.808199 0.000000 208.000000 0.834974 0.541799 -0.096288
10.96000004 -11.72000027 -0.94000000 144 204 81 0.000000 0.000000 0.000000 0.000000 51.808199 0.000000 208.000000 0.902778 0.344964 0.256888
10.97000027 -11.69999981 -0.98000002 144 204 81 0.000000 0.000000 0.000000 0.000000 51.808199 0.000000 208.000000 0.815610 0.576963 -0.043518
11.17000008 -11.81999969 -0.38000000 144 204 81 0.000000 0.000000 0.000000 0.000000 51.808199 0.000000 208.000000 0.851431 -0.496051 0.170286
