//X Y Z R G B PointSourceId ScanDirectionFlag NumberOfReturns ReturnNumber GpsTime Intensity Classification Nx Ny Nz
12.21000004 9.85999966 -0.56000000 1 244 133 0.000000 0.000000 0.000000 0.000000 51.808199 0.000000 217.000000 -0.168079 -0.595092 0.785885
12.18000031 9.89999962 -0.51999998 1 244 133 0.000000 0.000000 0.000000 0.000000 51.808199 0.000000 217.000000 -0.307911 -0.553602 0.773767
12.18999958 9.88000011 -0.58999997 1 244 133 0.000000 0.000000 0.000000 0.000000 51.808199 0.000000 217.000000 0.040557 0.986110 -0.161068
12.18999958 9.88000011 -0.58999997 1 244 133 0.000000 0.000000 0.000000 0.000000 51.808199 0.000000 217.000000 0.040557 0.986110 -0.161068
12.22999954 9.85999966 -0.60000002 1 244 133 0.000000 0.000000 0.000000 0.000000 51.808199 0.000000 217.000000 -0.243356 -0.620166 0.745769
12.18000031 9.89000034 -0.63999999 1 244 133 0.000000 0.000000 0.000000 0.000000 51.808199 0.000000 217.000000 0.028705 0.859782 -0.509855
12.11999989 9.89999962 -0.56999999 1 244 133 0.000000 0.000000 0.000000 0.000000 51.808199 0.000000 217.000000 0.080554 0.960258 -0.267236
12.11999989 9.89999962 -0.56999999 1 244 133 0.000000 0.000000 0.000000 0.000000 51.808199 0.000000 217.000000 0.080554 0.960258 -0.267236
12.13000011 9.89999962 -0.56000000 1 244 133 0.000000 0.000000 0.000000 0.000000 51.808199 0.000000 217.000000 0.199409 0.811337 -0.549517
12.10999966 9.89999962 -0.56000000 1 244 133 0.000000 0.000000 0.000000 0.000000 51.808199 0.000000 217.000000 0.033831 0.883677 -0.466874
12.09000015 9.89999962 -0.56000000 1 244 133 0.000000 0.000000 0.000000 0.000000 51.808199 0.000000 217.000000 0.293509 0.729764 -0.617492
12.06999969 9.89999962 -0.57999998 1 244 133 0.000000 0.000000 0.000000 0.000000 51.808199 0.000000 217.000000 0.217063 0.967152 -0.132293
12.13000011 9.89999962 -0.63000000 1 244 133 0.000000 0.000000 0.000000 0.000000 51.808199 0.000000 217.000000 0.100423 0.967368 -0.232626
12.13000011 9.89000034 -0.60000002 1 244 133 0.000000 0.000000 0.000000 0.000000 51.808199 0.000000 217.000000 0.030093 0.919808 -0.391213
12.10999966 9.89000034 -0.58999997 1 244 133 0.000000 0.000000 0.000000 0.000000 51.808199 0.000000 217.000000 -0.358416 -0.603907 0.711923
12.14000034 9.89000034 -0.63999999 1 244 133 0.000000 0.000000 0.000000 0.000000 51.808199 0.000000 217.000000 -0.327821 -0.573283 0.750920
12.06000042 9.89000034 -0.55000001 1 244 133 0.000000 0.000000 0.000000 0.000000 51.808199 0.000000 217.000000 0.316766 0.841068 -0.438479
11.98999977 9.85999966 -0.55000001 1 244 133 0.000000 0.000000 0.000000 0.000000 51.808199 0.000000 217.000000 0.227708 0.920857 -0.316500
11.98999977 9.86999989 -0.62000000 1 244 133 0.000000 0.000000 0.000000 0.000000 51.808199 0.000000 217.000000 0.577022 0.811301 -0.094001
12.01000023 9.85000038 -0.60000002 1 244 133 0.000000 0.000000 0.000000 0.000000 51.808199 0.000000 217.000000 0.397265 0.892748 -0.212559
12.01000023 9.85000038 -0.58999997 1 244 133 0.000000 0.000000 0.000000 0.000000 51.808199 0.000000 217.000000 0.401880 0.821232 -0.405056
12.01000023 9.85000038 -0.58999997 1 244 133 0.000000 0.000000 0.000000 0.000000 51.808199 0.000000 217.000000 0.401880 0.821232 -0.405056
12.23999977 9.84000015 -0.74000001 1 244 133 0.000000 0.000000 0.000000 0.000000 51.808199 0.000000 217.000000 -0.020933 0.760566 -0.648923
12.23999977 9.85000038 -0.74000001 1 244 133 0.000000 0.000000 0.000000 0.000000 51.808199 0.000000 217.000000 0.185458 0.761759 -0.620749
12.27000046 9.88000011 -0.81999999 1 244 133 0.000000 0.000000 0.000000 0.000000 51.808199 0.000000 217.000000 -0.067484 -0.633201 0.771040
12.26000023 9.81999969 -0.76999998 1 244 133 0.000000 0.000000 0.000000 0.000000 51.808199 0.000000 217.000000 0.419341 0.817955 -0.393830
12.26000023 9.81999969 -0.76999998 1 244 133 0.000000 0.000000 0.000000 0.000000 51.808199 0.000000 217.000000 0.419341 0.817955 -0.393830
12.26000023 9.81000042 -0.73000002 1 244 133 0.000000 0.000000 0.000000 0.000000 51.808199 0.000000 217.000000 0.106889 -0.789225 0.604731
12.26000023 9.81000042 -0.73000002 1 244 133 0.000000 0.000000 0.000000 0.000000 51.808199 0.000000 217.000000 0.106889 -0.789225 0.604731
12.23999977 9.81000042 -0.73000002 1 244 133 0.000000 0.000000 0.000000 0.000000 51.808199 0.000000 217.000000 0.509900 0.783348 -0.355482
12.25000000 9.80000019 -0.73000002 1 244 133 0.000000 0.000000 0.000000 0.000000 51.808199 0.000000 217.000000 -0.035333 -0.708077 0.705251
12.25000000 9.78999996 -0.74000001 1 244 133 0.000000 0.000000 0.000000 0.000000 51.808199 0.000000 217.000000 0.340594 0.708891 -0.617632
12.25000000 9.81000042 -0.73000002 1 244 133 0.000000 0.000000 0.000000 0.000000 51.808199 0.000000 217.000000 0.129021 0.784508 -0.606548
12.27999973 9.81000042 -0.76999998 1 244 133 0.000000 0.000000 0.000000 0.000000 51.808199 0.000000 217.000000 0.086636 0.850740 -0.518397
12.31000042 9.73999977 -0.77999997 1 244 133 0.000000 0.000000 0.000000 0.000000 51.808199 0.000000 217.000000 0.210625 0.864905 -0.455606
12.22000027 9.89999962 -0.70999998 1 244 133 0.000000 0.000000 0.000000 0.000000 51.808199 0.000000 217.000000 0.548325 0.701656 -0.454993
12.31000042 9.72000027 -0.74000001 1 244 133 0.000000 0.000000 0.000000 0.000000 51.808199 0.000000 217.000000 0.386553 0.705666 -0.593812
12.28999996 9.72000027 -0.69999999 1 244 133 0.000000 0.000000 0.000000 0.000000 51.808199 0.000000 217.000000 0.237693 0.713080 -0.659560
12.31000042 9.69999981 -0.75000000 1 244 133 0.000000 0.000000 0.000000 0.000000 51.808199 0.000000 217.000000 0.212604 0.956051 -0.201907
12.52000046 9.88000011 -1.02999997 1 244 133 0.000000 0.000000 0.000000 0.000000 51.808199 0.000000 217.000000 0.847727 -0.421530 0.321981
12.43000031 9.64999962 -1.02999997 1 244 133 0.000000 0.000000 0.000000 0.000000 51.808199 0.000000 217.000000 0.090214 0.927723 -0.362203
12.47000027 9.65999985 -1.07000005 1 244 133 0.000000 0.000000 0.000000 0.000000 51.808199 0.000000 217.000000 0.098613 -0.690289 0.716782
12.46000004 9.60000038 -1.11000001 1 244 133 0.000000 0.000000 0.000000 0.000000 51.808199 0.000000 217.000000 0.335384 -0.594618 0.730716
12.47000027 9.59000015 -1.11000001 1 244 133 0.000000 0.000000 0.000000 0.000000 51.808199 0.000000 217.000000 0.015292 -0.649226 0.760442
12.47999954 9.59000015 -1.14999998 1 244 133 0.000000 0.000000 0.000000 0.000000 51.808199 0.000000 217.000000 -0.012452 -0.612935 0.790035
12.35000038 9.60999966 -1.02999997 1 244 133 0.000000 0.000000 0.000000 0.000000 51.808199 0.000000 217.000000 -0.009563 -0.558767 0.829270
12.63000011 9.47999954 -1.07000005 1 244 133 0.000000 0.000000 0.000000 0.000000 51.808199 0.000000 217.000000 0.507051 -0.567695 0.648554
12.60999966 9.52999973 -1.07000005 1 244 133 0.000000 0.000000 0.000000 0.000000 51.808199 0.000000 217.000000 0.784807 -0.470884 0.402922
12.60999966 9.52999973 -1.07000005 1 244 133 0.000000 0.000000 0.000000 0.000000 51.808199 0.000000 217.000000 0.784807 -0.470884 0.402922
12.57999992 9.48999977 -1.01999998 1 244 133 0.000000 0.000000 0.000000 0.000000 51.808199 0.000000 217.000000 0.452511 -0.515498 0.727664
12.60999966 9.52000046 -1.13999999 1 244 133 0.000000 0.000000 0.000000 0.000000 51.808199 0.000000 217.000000 -0.170286 0.851431 -0.496051
12.60999966 9.52000046 -1.13999999 1 244 133 0.000000 0.000000 0.000000 0.000000 51.808199 0.000000 217.000000 -0.170286 0.851431 -0.496051
12.60000038 9.53999996 -1.14999998 1 244 133 0.000000 0.000000 0.000000 0.000000 51.808199 0.000000 217.000000 -0.221549 0.776198 -0.590282
12.60999966 9.43999958 -1.04999995 1 244 133 0.000000 0.000000 0.000000 0.000000 51.808199 0.000000 217.000000 -0.012443 0.783901 -0.620761
12.59000015 9.46000004 -1.04999995 1 244 133 0.000000 0.000000 0.000000 0.000000 51.808199 0.000000 217.000000 -0.467481 0.854779 -0.225420
12.60000038 9.47000027 -1.01999998 1 244 133 0.000000 0.000000 0.000000 0.000000 51.808199 0.000000 217.000000 -0.477192 0.853526 -0.209242
12.60999966 9.47000027 -1.07000005 1 244 133 0.000000 0.000000 0.000000 0.000000 51.808199 0.000000 217.000000 0.488269 -0.478339 0.729921
12.59000015 9.46000004 -1.09000003 1 244 133 0.000000 0.000000 0.000000 0.000000 51.808199 0.000000 217.000000 0.628076 -0.463938 0.624726
12.57999992 9.40999985 -1.07000005 1 244 133 0.000000 0.000000 0.000000 0.000000 51.808199 0.000000 217.000000 -0.521579 0.773488 -0.360100
12.60999966 9.43999958 -1.11000001 1 244 133 0.000000 0.000000 0.000000 0.000000 51.808199 0.000000 217.000000 0.648380 -0.641747 0.409590
12.59000015 9.39000034 -1.13000000 1 244 133 0.000000 0.000000 0.000000 0.000000 51.808199 0.000000 217.000000 0.674684 -0.574235 0.463741
12.60000038 9.40999985 -1.17999995 1 244 133 0.000000 0.000000 0.000000 0.000000 51.808199 0.000000 217.000000 0.238615 -0.509560 0.826687
12.60000038 9.39000034 -1.16999996 1 244 133 0.000000 0.000000 0.000000 0.000000 51.808199 0.000000 217.000000 0.673252 -0.589722 0.446050
12.60000038 9.39000034 -1.15999997 1 244 133 0.000000 0.000000 0.000000 0.000000 51.808199 0.000000 217.000000 -0.721469 0.549769 -0.420994
12.60999966 9.40999985 -1.14999998 1 244 133 0.000000 0.000000 0.000000 0.000000 51.808199 0.000000 217.000000 -0.384138 0.605058 -0.697383
12.56000042 9.44999981 -1.01999998 1 244 133 0.000000 0.000000 0.000000 0.000000 51.808199 0.000000 217.000000 0.552155 -0.606188 0.572417
12.56999969 9.46000004 -1.01999998 1 244 133 0.000000 0.000000 0.000000 0.000000 51.808199 0.000000 217.000000 -0.618718 0.744666 -0.250321
12.56000042 9.43999958 -1.01999998 1 244 133 0.000000 0.000000 0.000000 0.000000 51.808199 0.000000 217.000000 -0.586656 0.673568 -0.449602
12.53999996 9.43000031 -1.04999995 1 244 133 0.000000 0.000000 0.000000 0.000000 51.808199 0.000000 217.000000 0.261668 -0.626417 0.734256
12.56999969 9.44999981 -1.01999998 1 244 133 0.000000 0.000000 0.000000 0.000000 51.808199 0.000000 217.000000 0.612460 -0.582090 0.534848
12.56999969 9.43999958 -1.02999997 1 244 133 0.000000 0.000000 0.000000 0.000000 51.808199 0.000000 217.000000 -0.364464 0.813279 -0.453590
12.56000042 9.43999958 -1.01999998 1 244 133 0.000000 0.000000 0.000000 0.000000 51.808199 0.000000 217.000000 -0.586656 0.673568 -0.449602
12.56000042 9.43000031 -1.03999996 1 244 133 0.000000 0.000000 0.000000 0.000000 51.808199 0.000000 217.000000 0.483582 -0.722880 0.493552
12.56999969 9.44999981 -1.07000005 1 244 133 0.000000 0.000000 0.000000 0.000000 51.808199 0.000000 217.000000 0.437753 -0.486938 0.755820
12.55000019 9.42000008 -1.04999995 1 244 133 0.000000 0.000000 0.000000 0.000000 51.808199 0.000000 217.000000 0.391510 -0.436254 0.810186
12.55000019 9.39999962 -1.04999995 1 244 133 0.000000 0.000000 0.000000 0.000000 51.808199 0.000000 217.000000 -0.295876 0.887629 -0.352949
12.55000019 9.39999962 -1.04999995 1 244 133 0.000000 0.000000 0.000000 0.000000 51.808199 0.000000 217.000000 -0.295876 0.887629 -0.352949
12.55000019 9.42000008 -1.04999995 1 244 133 0.000000 0.000000 0.000000 0.000000 51.808199 0.000000 217.000000 0.391510 -0.436254 0.810186
12.53999996 9.39000034 -1.10000002 1 244 133 0.000000 0.000000 0.000000 0.000000 51.808199 0.000000 217.000000 0.446264 -0.529212 0.721653
12.56000042 9.40999985 -1.09000003 1 244 133 0.000000 0.000000 0.000000 0.000000 51.808199 0.000000 217.000000 -0.255791 0.897486 -0.359290
12.53999996 9.39000034 -1.05999994 1 244 133 0.000000 0.000000 0.000000 0.000000 51.808199 0.000000 217.000000 0.635398 -0.678086 0.369417
12.53999996 9.39000034 -1.10000002 1 244 133 0.000000 0.000000 0.000000 0.000000 51.808199 0.000000 217.000000 0.446264 -0.529212 0.721653
12.51000023 9.42000008 -1.04999995 1 244 133 0.000000 0.000000 0.000000 0.000000 51.808199 0.000000 217.000000 -0.454756 0.704621 -0.544707
12.52000046 9.40999985 -1.04999995 1 244 133 0.000000 0.000000 0.000000 0.000000 51.808199 0.000000 217.000000 0.322833 -0.702446 0.634310
12.48999977 9.42000008 -1.02999997 1 244 133 0.000000 0.000000 0.000000 0.000000 51.808199 0.000000 217.000000 -0.149771 0.715574 -0.682292
12.52999973 9.39999962 -1.02999997 1 244 133 0.000000 0.000000 0.000000 0.000000 51.808199 0.000000 217.000000 -0.295904 0.911033 -0.287158
12.52000046 9.39999962 -1.05999994 1 244 133 0.000000 0.000000 0.000000 0.000000 51.808199 0.000000 217.000000 0.431909 -0.534508 0.726468
12.52000046 9.39000034 -1.09000003 1 244 133 0.000000 0.000000 0.000000 0.000000 51.808199 0.000000 217.000000 -0.513424 0.808603 -0.287329
12.56999969 9.39000034 -1.12000000 1 244 133 0.000000 0.000000 0.000000 0.000000 51.808199 0.000000 217.000000 -0.571482 0.716412 -0.400202
12.57999992 9.52000046 -1.25999999 1 244 133 0.000000 0.000000 0.000000 0.000000 51.808199 0.000000 217.000000 0.650271 -0.424090 0.630314
12.60999966 9.43000031 -1.23000002 1 244 133 0.000000 0.000000 0.000000 0.000000 51.808199 0.000000 217.000000 -0.590661 0.763922 -0.259891
12.63000011 9.39000034 -1.35000002 1 244 133 0.000000 0.000000 0.000000 0.000000 51.808199 0.000000 217.000000 -0.266931 0.930729 -0.249983
12.56999969 9.52999973 -1.25000000 1 244 133 0.000000 0.000000 0.000000 0.000000 51.808199 0.000000 217.000000 0.614786 -0.601311 0.510356
12.56999969 9.52999973 -1.25000000 1 244 133 0.000000 0.000000 0.000000 0.000000 51.808199 0.000000 217.000000 0.614786 -0.601311 0.510356
12.56999969 9.50000000 -1.21000004 1 244 133 0.000000 0.000000 0.000000 0.000000 51.808199 0.000000 217.000000 -0.222556 0.764161 -0.605415
12.51000023 9.52000046 -1.32000005 1 244 133 0.000000 0.000000 0.000000 0.000000 51.808199 0.000000 217.000000 0.109284 -0.569734 0.814530
12.56999969 9.44999981 -1.35000002 1 244 133 0.000000 0.000000 0.000000 0.000000 51.808199 0.000000 217.000000 -0.358175 0.888694 -0.286240
12.57999992 9.38000011 -1.13999999 1 244 133 0.000000 0.000000 0.000000 0.000000 51.808199 0.000000 217.000000 -0.255498 0.916617 -0.307464
12.57999992 9.35999966 -1.14999998 1 244 133 0.000000 0.000000 0.000000 0.000000 51.808199 0.000000 217.000000 -0.384982 0.866594 -0.317495
12.57999992 9.38000011 -1.13999999 1 244 133 0.000000 0.000000 0.000000 0.000000 51.808199 0.000000 217.000000 -0.255498 0.916617 -0.307464
12.59000015 9.36999989 -1.17999995 1 244 133 0.000000 0.000000 0.000000 0.000000 51.808199 0.000000 217.000000 -0.581068 0.716047 -0.386830
12.53999996 9.38000011 -1.03999996 1 244 133 0.000000 0.000000 0.000000 0.000000 51.808199 0.000000 217.000000 -0.453432 0.792295 -0.408250
12.52999973 9.38000011 -1.10000002 1 244 133 0.000000 0.000000 0.000000 0.000000 51.808199 0.000000 217.000000 -0.418204 0.756048 -0.503485
12.53999996 9.38000011 -1.11000001 1 244 133 0.000000 0.000000 0.000000 0.000000 51.808199 0.000000 217.000000 0.551482 -0.527871 0.645925
12.55000019 9.35999966 -1.13000000 1 244 133 0.000000 0.000000 0.000000 0.000000 51.808199 0.000000 217.000000 0.555548 -0.501840 0.662965
12.56000042 9.36999989 -1.13000000 1 244 133 0.000000 0.000000 0.000000 0.000000 51.808199 0.000000 217.000000 -0.473057 0.718715 -0.509574
12.53999996 9.36999989 -1.12000000 1 244 133 0.000000 0.000000 0.000000 0.000000 51.808199 0.000000 217.000000 -0.175867 0.934725 -0.308805
12.53999996 9.38000011 -1.11000001 1 244 133 0.000000 0.000000 0.000000 0.000000 51.808199 0.000000 217.000000 0.551482 -0.527871 0.645925
12.56000042 9.38000011 -1.13000000 1 244 133 0.000000 0.000000 0.000000 0.000000 51.808199 0.000000 217.000000 0.363311 -0.468943 0.805045
12.53999996 9.36999989 -1.11000001 1 244 133 0.000000 0.000000 0.000000 0.000000 51.808199 0.000000 217.000000 -0.369011 0.762406 -0.531571
12.56999969 9.38000011 -1.13000000 1 244 133 0.000000 0.000000 0.000000 0.000000 51.808199 0.000000 217.000000 -0.504603 0.805151 -0.311620
12.55000019 9.35999966 -1.15999997 1 244 133 0.000000 0.000000 0.000000 0.000000 51.808199 0.000000 217.000000 -0.406717 0.662368 -0.629166
12.53999996 9.36999989 -1.14999998 1 244 133 0.000000 0.000000 0.000000 0.000000 51.808199 0.000000 217.000000 -0.074965 0.906399 -0.415717
12.53999996 9.32999992 -1.17999995 1 244 133 0.000000 0.000000 0.000000 0.000000 51.808199 0.000000 217.000000 -0.316942 0.794744 -0.517619
12.53999996 9.31999969 -1.15999997 1 244 133 0.000000 0.000000 0.000000 0.000000 51.808199 0.000000 217.000000 -0.169055 0.926307 -0.336712
12.51000023 9.38000011 -1.11000001 1 244 133 0.000000 0.000000 0.000000 0.000000 51.808199 0.000000 217.000000 -0.131676 0.960846 -0.243797
12.48999977 9.35999966 -1.11000001 1 244 133 0.000000 0.000000 0.000000 0.000000 51.808199 0.000000 217.000000 0.026640 -0.657576 0.752917
12.51000023 9.35999966 -1.13999999 1 244 133 0.000000 0.000000 0.000000 0.000000 51.808199 0.000000 217.000000 0.175433 0.911397 -0.372261
12.52000046 9.38000011 -1.11000001 1 244 133 0.000000 0.000000 0.000000 0.000000 51.808199 0.000000 217.000000 0.123335 -0.649364 0.750410
12.51000023 9.35000038 -1.13999999 1 244 133 0.000000 0.000000 0.000000 0.000000 51.808199 0.000000 217.000000 0.073886 0.743204 -0.664972
12.52000046 9.35999966 -1.13000000 1 244 133 0.000000 0.000000 0.000000 0.000000 51.808199 0.000000 217.000000 -0.250506 0.913696 -0.320011
12.52999973 9.35999966 -1.13999999 1 244 133 0.000000 0.000000 0.000000 0.000000 51.808199 0.000000 217.000000 -0.293574 0.779162 -0.553824
12.52000046 9.35999966 -1.13999999 1 244 133 0.000000 0.000000 0.000000 0.000000 51.808199 0.000000 217.000000 -0.057127 0.854119 -0.516930
12.52999973 9.36999989 -1.12000000 1 244 133 0.000000 0.000000 0.000000 0.000000 51.808199 0.000000 217.000000 -0.035429 0.922459 -0.384467
12.52999973 9.38000011 -1.11000001 1 244 133 0.000000 0.000000 0.000000 0.000000 51.808199 0.000000 217.000000 0.085703 -0.637686 0.765514
12.48999977 9.36999989 -1.13999999 1 244 133 0.000000 0.000000 0.000000 0.000000 51.808199 0.000000 217.000000 0.361264 -0.603197 0.711085
12.48999977 9.35999966 -1.14999998 1 244 133 0.000000 0.000000 0.000000 0.000000 51.808199 0.000000 217.000000 -0.366506 0.874443 -0.317841
12.48999977 9.35999966 -1.14999998 1 244 133 0.000000 0.000000 0.000000 0.000000 51.808199 0.000000 217.000000 -0.366506 0.874443 -0.317841
12.48999977 9.35999966 -1.15999997 1 244 133 0.000000 0.000000 0.000000 0.000000 51.808199 0.000000 217.000000 -0.043188 0.927881 -0.370367
12.52999973 9.35000038 -1.17999995 1 244 133 0.000000 0.000000 0.000000 0.000000 51.808199 0.000000 217.000000 0.376037 -0.586224 0.717591
12.52000046 9.35000038 -1.14999998 1 244 133 0.000000 0.000000 0.000000 0.000000 51.808199 0.000000 217.000000 -0.155233 0.767121 -0.622438
12.52999973 9.32999992 -1.17999995 1 244 133 0.000000 0.000000 0.000000 0.000000 51.808199 0.000000 217.000000 -0.138856 0.774904 -0.616638
12.48999977 9.34000015 -1.16999996 1 244 133 0.000000 0.000000 0.000000 0.000000 51.808199 0.000000 217.000000 0.012452 0.790035 -0.612935
12.48999977 9.32999992 -1.17999995 1 244 133 0.000000 0.000000 0.000000 0.000000 51.808199 0.000000 217.000000 -0.018440 0.960098 -0.279055
12.48999977 9.34000015 -1.17999995 1 244 133 0.000000 0.000000 0.000000 0.000000 51.808199 0.000000 217.000000 -0.219977 -0.706734 0.672411
12.50000000 9.34000015 -1.15999997 1 244 133 0.000000 0.000000 0.000000 0.000000 51.808199 0.000000 217.000000 0.096501 0.961146 -0.258622
12.50000000 9.34000015 -1.16999996 1 244 133 0.000000 0.000000 0.000000 0.000000 51.808199 0.000000 217.000000 -0.041847 0.894990 -0.444120
12.61999989 9.36999989 -1.21000004 1 244 133 0.000000 0.000000 0.000000 0.000000 51.808199 0.000000 217.000000 -0.359290 0.897486 -0.255791
12.61999989 9.38000011 -1.19000006 1 244 133 0.000000 0.000000 0.000000 0.000000 51.808199 0.000000 217.000000 0.293555 -0.646462 0.704211
12.61999989 9.36999989 -1.21000004 1 244 133 0.000000 0.000000 0.000000 0.000000 51.808199 0.000000 217.000000 -0.359290 0.897486 -0.255791
12.61999989 9.38000011 -1.25000000 1 244 133 0.000000 0.000000 0.000000 0.000000 51.808199 0.000000 217.000000 0.450224 -0.437222 0.778547
12.61999989 9.38000011 -1.25000000 1 244 133 0.000000 0.000000 0.000000 0.000000 51.808199 0.000000 217.000000 0.450224 -0.437222 0.778547
12.61999989 9.32999992 -1.20000005 1 244 133 0.000000 0.000000 0.000000 0.000000 51.808199 0.000000 217.000000 0.006924 0.740862 -0.671622
12.61999989 9.32999992 -1.25000000 1 244 133 0.000000 0.000000 0.000000 0.000000 51.808199 0.000000 217.000000 -0.692488 0.653747 -0.305082
12.57999992 9.35000038 -1.20000005 1 244 133 0.000000 0.000000 0.000000 0.000000 51.808199 0.000000 217.000000 0.404875 -0.752379 0.519617
12.60000038 9.35999966 -1.23000002 1 244 133 0.000000 0.000000 0.000000 0.000000 51.808199 0.000000 217.000000 -0.289014 0.876120 -0.385856
12.60000038 9.35000038 -1.21000004 1 244 133 0.000000 0.000000 0.000000 0.000000 51.808199 0.000000 217.000000 0.363702 -0.575726 0.732298
12.60999966 9.35999966 -1.19000006 1 244 133 0.000000 0.000000 0.000000 0.000000 51.808199 0.000000 217.000000 -0.533833 0.824190 -0.189034
12.59000015 9.35000038 -1.21000004 1 244 133 0.000000 0.000000 0.000000 0.000000 51.808199 0.000000 217.000000 -0.490703 0.688324 -0.534247
12.60000038 9.35000038 -1.22000003 1 244 133 0.000000 0.000000 0.000000 0.000000 51.808199 0.000000 217.000000 0.657051 -0.689339 0.305117
12.59000015 9.36999989 -1.23000002 1 244 133 0.000000 0.000000 0.000000 0.000000 51.808199 0.000000 217.000000 0.481878 -0.612842 0.626274
12.60000038 9.35999966 -1.21000004 1 244 133 0.000000 0.000000 0.000000 0.000000 51.808199 0.000000 217.000000 0.644256 -0.486136 0.590428
12.60999966 9.35000038 -1.25999999 1 244 133 0.000000 0.000000 0.000000 0.000000 51.808199 0.000000 217.000000 -0.635761 0.738858 -0.223376
12.57999992 9.34000015 -1.20000005 1 244 133 0.000000 0.000000 0.000000 0.000000 51.808199 0.000000 217.000000 0.057803 0.824756 -0.562526
12.59000015 9.34000015 -1.22000003 1 244 133 0.000000 0.000000 0.000000 0.000000 51.808199 0.000000 217.000000 -0.596028 0.729201 -0.336179
12.57999992 9.34000015 -1.23000002 1 244 133 0.000000 0.000000 0.000000 0.000000 51.808199 0.000000 217.000000 -0.609623 0.743326 -0.275365
12.59000015 9.34000015 -1.22000003 1 244 133 0.000000 0.000000 0.000000 0.000000 51.808199 0.000000 217.000000 -0.596028 0.729201 -0.336179
12.57999992 9.30000019 -1.25000000 1 244 133 0.000000 0.000000 0.000000 0.000000 51.808199 0.000000 217.000000 0.592984 -0.562575 0.576090
12.57999992 9.32999992 -1.25999999 1 244 133 0.000000 0.000000 0.000000 0.000000 51.808199 0.000000 217.000000 0.531499 -0.474850 0.701446
12.60000038 9.34000015 -1.24000001 1 244 133 0.000000 0.000000 0.000000 0.000000 51.808199 0.000000 217.000000 -0.568783 0.701444 -0.429490
12.61999989 9.35999966 -1.29999995 1 244 133 0.000000 0.000000 0.000000 0.000000 51.808199 0.000000 217.000000 -0.326981 0.864275 -0.382246
12.61999989 9.31999969 -1.27999997 1 244 133 0.000000 0.000000 0.000000 0.000000 51.808199 0.000000 217.000000 0.466284 -0.516065 0.718509
12.61999989 9.34000015 -1.29999995 1 244 133 0.000000 0.000000 0.000000 0.000000 51.808199 0.000000 217.000000 -0.488782 0.845911 -0.213369
12.61999989 9.31999969 -1.27999997 1 244 133 0.000000 0.000000 0.000000 0.000000 51.808199 0.000000 217.000000 0.466284 -0.516065 0.718509
12.64999962 9.32999992 -1.33000004 1 244 133 0.000000 0.000000 0.000000 0.000000 51.808199 0.000000 217.000000 0.703373 -0.560371 0.437322
12.63000011 9.31000042 -1.35000002 1 244 133 0.000000 0.000000 0.000000 0.000000 51.808199 0.000000 217.000000 0.683123 -0.559526 0.469334
12.61999989 9.31000042 -1.36000001 1 244 133 0.000000 0.000000 0.000000 0.000000 51.808199 0.000000 217.000000 -0.401816 0.795564 -0.453455
12.60000038 9.31000042 -1.28999996 1 244 133 0.000000 0.000000 0.000000 0.000000 51.808199 0.000000 217.000000 0.022714 0.888514 -0.458286
12.60999966 9.32999992 -1.29999995 1 244 133 0.000000 0.000000 0.000000 0.000000 51.808199 0.000000 217.000000 0.439635 -0.797141 0.413869
12.60000038 9.31000042 -1.28999996 1 244 133 0.000000 0.000000 0.000000 0.000000 51.808199 0.000000 217.000000 0.022714 0.888514 -0.458286
12.60999966 9.32999992 -1.30999994 1 244 133 0.000000 0.000000 0.000000 0.000000 51.808199 0.000000 217.000000 -0.486117 0.743182 -0.459751
12.60000038 9.34000015 -1.29999995 1 244 133 0.000000 0.000000 0.000000 0.000000 51.808199 0.000000 217.000000 -0.029546 -0.733025 0.679560
12.60999966 9.32999992 -1.30999994 1 244 133 0.000000 0.000000 0.000000 0.000000 51.808199 0.000000 217.000000 -0.486117 0.743182 -0.459751
12.59000015 9.31000042 -1.28999996 1 244 133 0.000000 0.000000 0.000000 0.000000 51.808199 0.000000 217.000000 -0.317370 0.813162 -0.487897
12.59000015 9.32999992 -1.33000004 1 244 133 0.000000 0.000000 0.000000 0.000000 51.808199 0.000000 217.000000 -0.244822 0.935919 -0.253216
12.59000015 9.30000019 -1.32000005 1 244 133 0.000000 0.000000 0.000000 0.000000 51.808199 0.000000 217.000000 -0.567146 0.584076 -0.580690
12.60999966 9.32999992 -1.32000005 1 244 133 0.000000 0.000000 0.000000 0.000000 51.808199 0.000000 217.000000 -0.634296 0.740272 -0.222861
12.63000011 9.25000000 -1.36000001 1 244 133 0.000000 0.000000 0.000000 0.000000 51.808199 0.000000 217.000000 -0.473407 0.851527 -0.225360
12.60000038 9.28999996 -1.29999995 1 244 133 0.000000 0.000000 0.000000 0.000000 51.808199 0.000000 217.000000 0.209693 -0.675678 0.706744
12.57999992 9.27999973 -1.27999997 1 244 133 0.000000 0.000000 0.000000 0.000000 51.808199 0.000000 217.000000 -0.580251 0.603935 -0.546417
12.59000015 9.27999973 -1.33000004 1 244 133 0.000000 0.000000 0.000000 0.000000 51.808199 0.000000 217.000000 -0.454115 0.814220 -0.361698
12.59000015 9.27999973 -1.33000004 1 244 133 0.000000 0.000000 0.000000 0.000000 51.808199 0.000000 217.000000 -0.454115 0.814220 -0.361698
12.60999966 9.28999996 -1.33000004 1 244 133 0.000000 0.000000 0.000000 0.000000 51.808199 0.000000 217.000000 -0.257503 0.888610 -0.379557
12.59000015 9.25000000 -1.36000001 1 244 133 0.000000 0.000000 0.000000 0.000000 51.808199 0.000000 217.000000 -0.456779 0.781889 -0.424268
12.56000042 9.35000038 -1.20000005 1 244 133 0.000000 0.000000 0.000000 0.000000 51.808199 0.000000 217.000000 -0.304401 0.652287 -0.694162
12.56999969 9.32999992 -1.22000003 1 244 133 0.000000 0.000000 0.000000 0.000000 51.808199 0.000000 217.000000 -0.308500 0.641228 -0.702605
12.55000019 9.32999992 -1.23000002 1 244 133 0.000000 0.000000 0.000000 0.000000 51.808199 0.000000 217.000000 -0.415345 0.838526 -0.352651
12.56000042 9.32999992 -1.21000004 1 244 133 0.000000 0.000000 0.000000 0.000000 51.808199 0.000000 217.000000 -0.351418 0.668512 -0.655436
12.56999969 9.34000015 -1.20000005 1 244 133 0.000000 0.000000 0.000000 0.000000 51.808199 0.000000 217.000000 -0.325596 0.922759 -0.206163
12.56000042 9.30000019 -1.23000002 1 244 133 0.000000 0.000000 0.000000 0.000000 51.808199 0.000000 217.000000 -0.187494 0.963692 -0.190116
12.56999969 9.32999992 -1.23000002 1 244 133 0.000000 0.000000 0.000000 0.000000 51.808199 0.000000 217.000000 -0.260079 0.814500 -0.518602
12.53999996 9.31000042 -1.19000006 1 244 133 0.000000 0.000000 0.000000 0.000000 51.808199 0.000000 217.000000 -0.413511 0.853351 -0.317490
12.53999996 9.31999969 -1.21000004 1 244 133 0.000000 0.000000 0.000000 0.000000 51.808199 0.000000 217.000000 -0.319968 0.838160 -0.441712
12.56999969 9.32999992 -1.25999999 1 244 133 0.000000 0.000000 0.000000 0.000000 51.808199 0.000000 217.000000 0.231430 -0.566927 0.790591
12.55000019 9.31999969 -1.26999998 1 244 133 0.000000 0.000000 0.000000 0.000000 51.808199 0.000000 217.000000 -0.138665 -0.791734 0.594919
12.52000046 9.38000011 -1.22000003 1 244 133 0.000000 0.000000 0.000000 0.000000 51.808199 0.000000 217.000000 0.082569 -0.630128 0.772088
12.50000000 9.32999992 -1.19000006 1 244 133 0.000000 0.000000 0.000000 0.000000 51.808199 0.000000 217.000000 0.156131 0.825262 -0.542740
12.50000000 9.30000019 -1.20000005 1 244 133 0.000000 0.000000 0.000000 0.000000 51.808199 0.000000 217.000000 -0.247713 0.705273 -0.664250
12.52999973 9.31000042 -1.19000006 1 244 133 0.000000 0.000000 0.000000 0.000000 51.808199 0.000000 217.000000 -0.100968 -0.610195 0.785791
12.52999973 9.31000042 -1.19000006 1 244 133 0.000000 0.000000 0.000000 0.000000 51.808199 0.000000 217.000000 -0.100968 -0.610195 0.785791
12.51000023 9.30000019 -1.22000003 1 244 133 0.000000 0.000000 0.000000 0.000000 51.808199 0.000000 217.000000 -0.159944 0.820648 -0.548593
12.51000023 9.32999992 -1.24000001 1 244 133 0.000000 0.000000 0.000000 0.000000 51.808199 0.000000 217.000000 -0.094925 0.937217 -0.335580
12.52999973 9.30000019 -1.24000001 1 244 133 0.000000 0.000000 0.000000 0.000000 51.808199 0.000000 217.000000 -0.255047 0.850665 -0.459695
12.52999973 9.30000019 -1.24000001 1 244 133 0.000000 0.000000 0.000000 0.000000 51.808199 0.000000 217.000000 -0.255047 0.850665 -0.459695
12.50000000 9.30000019 -1.25999999 1 244 133 0.000000 0.000000 0.000000 0.000000 51.808199 0.000000 217.000000 0.070004 -0.590037 0.804336
12.50000000 9.30000019 -1.25999999 1 244 133 0.000000 0.000000 0.000000 0.000000 51.808199 0.000000 217.000000 0.070004 -0.590037 0.804336
12.48999977 9.32999992 -1.27999997 1 244 133 0.000000 0.000000 0.000000 0.000000 51.808199 0.000000 217.000000 0.050383 0.969557 -0.239624
12.53999996 9.28999996 -1.25000000 1 244 133 0.000000 0.000000 0.000000 0.000000 51.808199 0.000000 217.000000 0.181903 -0.612967 0.768884
12.53999996 9.28999996 -1.25000000 1 244 133 0.000000 0.000000 0.000000 0.000000 51.808199 0.000000 217.000000 0.181903 -0.612967 0.768884
12.48999977 9.28999996 -1.21000004 1 244 133 0.000000 0.000000 0.000000 0.000000 51.808199 0.000000 217.000000 -0.403542 0.869519 -0.284764
12.50000000 9.28999996 -1.23000002 1 244 133 0.000000 0.000000 0.000000 0.000000 51.808199 0.000000 217.000000 0.006663 0.878131 -0.478375
12.48999977 9.28999996 -1.20000005 1 244 133 0.000000 0.000000 0.000000 0.000000 51.808199 0.000000 217.000000 -0.049981 0.901007 -0.430916
12.52000046 9.28999996 -1.23000002 1 244 133 0.000000 0.000000 0.000000 0.000000 51.808199 0.000000 217.000000 -0.220594 0.955907 -0.193855
12.48999977 9.27000046 -1.23000002 1 244 133 0.000000 0.000000 0.000000 0.000000 51.808199 0.000000 217.000000 -0.365409 0.812197 -0.454766
12.52000046 9.28999996 -1.24000001 1 244 133 0.000000 0.000000 0.000000 0.000000 51.808199 0.000000 217.000000 -0.396140 0.843950 -0.361693
12.51000023 9.27999973 -1.25000000 1 244 133 0.000000 0.000000 0.000000 0.000000 51.808199 0.000000 217.000000 -0.106667 0.910134 -0.400348
12.51000023 9.27999973 -1.24000001 1 244 133 0.000000 0.000000 0.000000 0.000000 51.808199 0.000000 217.000000 -0.245847 0.909196 -0.336039
12.50000000 9.27999973 -1.24000001 1 244 133 0.000000 0.000000 0.000000 0.000000 51.808199 0.000000 217.000000 -0.052023 0.955440 -0.290565
12.50000000 9.22000027 -1.25000000 1 244 133 0.000000 0.000000 0.000000 0.000000 51.808199 0.000000 217.000000 -0.097398 0.977679 -0.186166
12.56000042 9.27999973 -1.27999997 1 244 133 0.000000 0.000000 0.000000 0.000000 51.808199 0.000000 217.000000 0.026700 -0.704039 0.709660
12.56999969 9.27000046 -1.33000004 1 244 133 0.000000 0.000000 0.000000 0.000000 51.808199 0.000000 217.000000 -0.575612 0.685729 -0.445474
12.56000042 9.27000046 -1.32000005 1 244 133 0.000000 0.000000 0.000000 0.000000 51.808199 0.000000 217.000000 -0.340781 0.872584 -0.349950
12.56999969 9.25000000 -1.36000001 1 244 133 0.000000 0.000000 0.000000 0.000000 51.808199 0.000000 217.000000 -0.475377 0.727145 -0.495254
12.56000042 9.23999977 -1.34000003 1 244 133 0.000000 0.000000 0.000000 0.000000 51.808199 0.000000 217.000000 0.435128 -0.541015 0.719699
12.48999977 9.27999973 -1.27999997 1 244 133 0.000000 0.000000 0.000000 0.000000 51.808199 0.000000 217.000000 0.085232 0.962993 -0.255696
12.51000023 9.27000046 -1.29999995 1 244 133 0.000000 0.000000 0.000000 0.000000 51.808199 0.000000 217.000000 -0.329671 0.763872 -0.554812
12.51000023 9.27999973 -1.29999995 1 244 133 0.000000 0.000000 0.000000 0.000000 51.808199 0.000000 217.000000 -0.154938 0.922649 -0.353147
12.50000000 9.28999996 -1.27999997 1 244 133 0.000000 0.000000 0.000000 0.000000 51.808199 0.000000 217.000000 -0.119808 0.858863 -0.497996
12.50000000 9.25000000 -1.32000005 1 244 133 0.000000 0.000000 0.000000 0.000000 51.808199 0.000000 217.000000 -0.172942 0.953194 -0.248018
12.48999977 9.23999977 -1.35000002 1 244 133 0.000000 0.000000 0.000000 0.000000 51.808199 0.000000 217.000000 0.171413 0.842160 -0.511258
12.52000046 9.22999954 -1.36000001 1 244 133 0.000000 0.000000 0.000000 0.000000 51.808199 0.000000 217.000000 -0.381813 0.813150 -0.439325
12.43999958 9.47999954 -1.14999998 1 244 133 0.000000 0.000000 0.000000 0.000000 51.808199 0.000000 217.000000 0.287705 0.832011 -0.474324
12.43000031 9.51000023 -1.17999995 1 244 133 0.000000 0.000000 0.000000 0.000000 51.808199 0.000000 217.000000 -0.198436 0.957551 -0.209090
12.47000027 9.40999985 -1.01999998 1 244 133 0.000000 0.000000 0.000000 0.000000 51.808199 0.000000 217.000000 -0.291051 0.932207 -0.215125
12.47000027 9.40999985 -1.01999998 1 244 133 0.000000 0.000000 0.000000 0.000000 51.808199 0.000000 217.000000 -0.291051 0.932207 -0.215125
12.44999981 9.42000008 -1.01999998 1 244 133 0.000000 0.000000 0.000000 0.000000 51.808199 0.000000 217.000000 0.011563 0.926363 -0.376455
12.44999981 9.39999962 -1.08000004 1 244 133 0.000000 0.000000 0.000000 0.000000 51.808199 0.000000 217.000000 -0.213082 -0.670352 0.710791
12.46000004 9.40999985 -1.07000005 1 244 133 0.000000 0.000000 0.000000 0.000000 51.808199 0.000000 217.000000 0.061865 -0.738067 0.671885
12.46000004 9.40999985 -1.08000004 1 244 133 0.000000 0.000000 0.000000 0.000000 51.808199 0.000000 217.000000 -0.045807 0.850907 -0.523315
12.46000004 9.40999985 -1.07000005 1 244 133 0.000000 0.000000 0.000000 0.000000 51.808199 0.000000 217.000000 0.061865 -0.738067 0.671885
12.46000004 9.40999985 -1.07000005 1 244 133 0.000000 0.000000 0.000000 0.000000 51.808199 0.000000 217.000000 0.061865 -0.738067 0.671885
12.42000008 9.46000004 -1.02999997 1 244 133 0.000000 0.000000 0.000000 0.000000 51.808199 0.000000 217.000000 -0.223121 0.728654 -0.647519
12.43999958 9.39999962 -1.04999995 1 244 133 0.000000 0.000000 0.000000 0.000000 51.808199 0.000000 217.000000 0.275120 -0.602719 0.749025
12.43999958 9.42000008 -1.03999996 1 244 133 0.000000 0.000000 0.000000 0.000000 51.808199 0.000000 217.000000 0.028848 0.951984 -0.304785
12.43999958 9.42000008 -1.03999996 1 244 133 0.000000 0.000000 0.000000 0.000000 51.808199 0.000000 217.000000 0.028848 0.951984 -0.304785
12.40999985 9.42000008 -1.05999994 1 244 133 0.000000 0.000000 0.000000 0.000000 51.808199 0.000000 217.000000 0.142051 0.909970 -0.389585
12.42000008 9.42000008 -1.08000004 1 244 133 0.000000 0.000000 0.000000 0.000000 51.808199 0.000000 217.000000 0.312930 -0.579321 0.752636
12.40999985 9.40999985 -1.08000004 1 244 133 0.000000 0.000000 0.000000 0.000000 51.808199 0.000000 217.000000 -0.017936 0.809857 -0.586353
12.47999954 9.39000034 -1.11000001 1 244 133 0.000000 0.000000 0.000000 0.000000 51.808199 0.000000 217.000000 -0.152221 -0.619435 0.770149
12.42000008 9.39000034 -1.13000000 1 244 133 0.000000 0.000000 0.000000 0.000000 51.808199 0.000000 217.000000 -0.014561 0.896178 -0.443456
12.42000008 9.39000034 -1.13000000 1 244 133 0.000000 0.000000 0.000000 0.000000 51.808199 0.000000 217.000000 -0.014561 0.896178 -0.443456
12.43000031 9.40999985 -1.12000000 1 244 133 0.000000 0.000000 0.000000 0.000000 51.808199 0.000000 217.000000 -0.079989 -0.667544 0.740261
12.39999962 9.53999996 -1.02999997 1 244 133 0.000000 0.000000 0.000000 0.000000 51.808199 0.000000 217.000000 0.032342 -0.648248 0.760742
12.35999966 9.48999977 -1.11000001 1 244 133 0.000000 0.000000 0.000000 0.000000 51.808199 0.000000 217.000000 0.204945 0.915805 -0.345397
12.38000011 9.47000027 -1.13000000 1 244 133 0.000000 0.000000 0.000000 0.000000 51.808199 0.000000 217.000000 0.316715 0.909278 -0.270010
12.38000011 9.46000004 -1.14999998 1 244 133 0.000000 0.000000 0.000000 0.000000 51.808199 0.000000 217.000000 0.175925 -0.689932 0.702171
12.39000034 9.47000027 -1.15999997 1 244 133 0.000000 0.000000 0.000000 0.000000 51.808199 0.000000 217.000000 -0.185752 -0.634012 0.750683
12.39000034 9.47000027 -1.16999996 1 244 133 0.000000 0.000000 0.000000 0.000000 51.808199 0.000000 217.000000 -0.107758 -0.680499 0.724783
12.39999962 9.46000004 -1.15999997 1 244 133 0.000000 0.000000 0.000000 0.000000 51.808199 0.000000 217.000000 -0.379011 0.713722 -0.589026
12.39999962 9.44999981 -1.17999995 1 244 133 0.000000 0.000000 0.000000 0.000000 51.808199 0.000000 217.000000 0.197351 0.960263 -0.197351
12.39999962 9.42000008 -1.15999997 1 244 133 0.000000 0.000000 0.000000 0.000000 51.808199 0.000000 217.000000 -0.058252 -0.589620 0.805577
12.40999985 9.43000031 -1.24000001 1 244 133 0.000000 0.000000 0.000000 0.000000 51.808199 0.000000 217.000000 -0.206752 -0.682438 0.701093
12.40999985 9.43000031 -1.24000001 1 244 133 0.000000 0.000000 0.000000 0.000000 51.808199 0.000000 217.000000 -0.206752 -0.682438 0.701093
12.42000008 9.46000004 -1.28999996 1 244 133 0.000000 0.000000 0.000000 0.000000 51.808199 0.000000 217.000000 -0.183606 0.960301 -0.210025
12.40999985 9.46000004 -1.29999995 1 244 133 0.000000 0.000000 0.000000 0.000000 51.808199 0.000000 217.000000 0.120330 0.756146 -0.643244
12.43999958 9.47000027 -1.29999995 1 244 133 0.000000 0.000000 0.000000 0.000000 51.808199 0.000000 217.000000 -0.055666 -0.629454 0.775042
12.40999985 9.39999962 -1.28999996 1 244 133 0.000000 0.000000 0.000000 0.000000 51.808199 0.000000 217.000000 0.040566 0.821112 -0.569323
12.39999962 9.39999962 -1.20000005 1 244 133 0.000000 0.000000 0.000000 0.000000 51.808199 0.000000 217.000000 -0.285703 0.797126 -0.531944
12.46000004 9.36999989 -1.12000000 1 244 133 0.000000 0.000000 0.000000 0.000000 51.808199 0.000000 217.000000 -0.110892 -0.752587 0.649088
12.47999954 9.35000038 -1.13999999 1 244 133 0.000000 0.000000 0.000000 0.000000 51.808199 0.000000 217.000000 -0.450815 0.790138 -0.415267
12.47999954 9.38000011 -1.12000000 1 244 133 0.000000 0.000000 0.000000 0.000000 51.808199 0.000000 217.000000 0.186832 0.850460 -0.491743
12.47000027 9.38000011 -1.11000001 1 244 133 0.000000 0.000000 0.000000 0.000000 51.808199 0.000000 217.000000 -0.165077 0.900027 -0.403362
12.46000004 9.35000038 -1.13000000 1 244 133 0.000000 0.000000 0.000000 0.000000 51.808199 0.000000 217.000000 0.078480 -0.549362 0.831891
12.46000004 9.35999966 -1.13000000 1 244 133 0.000000 0.000000 0.000000 0.000000 51.808199 0.000000 217.000000 0.509056 -0.706002 0.492365
12.47000027 9.35999966 -1.13999999 1 244 133 0.000000 0.000000 0.000000 0.000000 51.808199 0.000000 217.000000 -0.162629 -0.706753 0.688514
12.47000027 9.38000011 -1.11000001 1 244 133 0.000000 0.000000 0.000000 0.000000 51.808199 0.000000 217.000000 -0.165077 0.900027 -0.403362
12.47000027 9.38000011 -1.12000000 1 244 133 0.000000 0.000000 0.000000 0.000000 51.808199 0.000000 217.000000 0.197770 0.837880 -0.508767
12.47000027 9.36999989 -1.13000000 1 244 133 0.000000 0.000000 0.000000 0.000000 51.808199 0.000000 217.000000 0.104015 0.777918 -0.619697
12.47000027 9.35999966 -1.15999997 1 244 133 0.000000 0.000000 0.000000 0.000000 51.808199 0.000000 217.000000 0.284413 0.868448 -0.406087
12.44999981 9.36999989 -1.15999997 1 244 133 0.000000 0.000000 0.000000 0.000000 51.808199 0.000000 217.000000 0.260030 0.761179 -0.594130
12.47999954 9.35000038 -1.16999996 1 244 133 0.000000 0.000000 0.000000 0.000000 51.808199 0.000000 217.000000 0.029557 -0.724858 0.688264
12.44999981 9.36999989 -1.16999996 1 244 133 0.000000 0.000000 0.000000 0.000000 51.808199 0.000000 217.000000 0.233087 0.930937 -0.281117
12.47000027 9.38000011 -1.14999998 1 244 133 0.000000 0.000000 0.000000 0.000000 51.808199 0.000000 217.000000 -0.089601 0.934797 -0.343695
12.47999954 9.35000038 -1.16999996 1 244 133 0.000000 0.000000 0.000000 0.000000 51.808199 0.000000 217.000000 0.029557 -0.724858 0.688264
12.47000027 9.34000015 -1.13999999 1 244 133 0.000000 0.000000 0.000000 0.000000 51.808199 0.000000 217.000000 0.180671 -0.584524 0.791005
12.47000027 9.32999992 -1.16999996 1 244 133 0.000000 0.000000 0.000000 0.000000 51.808199 0.000000 217.000000 -0.119526 0.979621 -0.161422
12.47000027 9.32999992 -1.16999996 1 244 133 0.000000 0.000000 0.000000 0.000000 51.808199 0.000000 217.000000 -0.119526 0.979621 -0.161422
12.46000004 9.31999969 -1.17999995 1 244 133 0.000000 0.000000 0.000000 0.000000 51.808199 0.000000 217.000000 -0.077745 0.909747 -0.407818
12.43999958 9.36999989 -1.12000000 1 244 133 0.000000 0.000000 0.000000 0.000000 51.808199 0.000000 217.000000 -0.070006 0.893601 -0.443369
12.46000004 9.31999969 -1.21000004 1 244 133 0.000000 0.000000 0.000000 0.000000 51.808199 0.000000 217.000000 0.011815 0.901849 -0.431890
12.47000027 9.31000042 -1.22000003 1 244 133 0.000000 0.000000 0.000000 0.000000 51.808199 0.000000 217.000000 0.263933 0.890213 -0.371295
12.47000027 9.31999969 -1.21000004 1 244 133 0.000000 0.000000 0.000000 0.000000 51.808199 0.000000 217.000000 0.088673 0.871244 -0.482774
12.46000004 9.31999969 -1.21000004 1 244 133 0.000000 0.000000 0.000000 0.000000 51.808199 0.000000 217.000000 0.011815 0.901849 -0.431890
12.47000027 9.31000042 -1.22000003 1 244 133 0.000000 0.000000 0.000000 0.000000 51.808199 0.000000 217.000000 0.263933 0.890213 -0.371295
12.47999954 9.31999969 -1.24000001 1 244 133 0.000000 0.000000 0.000000 0.000000 51.808199 0.000000 217.000000 0.275692 0.734648 -0.619909
12.47999954 9.31000042 -1.25000000 1 244 133 0.000000 0.000000 0.000000 0.000000 51.808199 0.000000 217.000000 -0.437408 0.805921 -0.398955
12.47999954 9.31000042 -1.25000000 1 244 133 0.000000 0.000000 0.000000 0.000000 51.808199 0.000000 217.000000 -0.437408 0.805921 -0.398955
12.46000004 9.31999969 -1.25999999 1 244 133 0.000000 0.000000 0.000000 0.000000 51.808199 0.000000 217.000000 -0.046769 -0.619334 0.783734
12.42000008 9.35000038 -1.19000006 1 244 133 0.000000 0.000000 0.000000 0.000000 51.808199 0.000000 217.000000 -0.317582 0.863762 -0.391224
12.40999985 9.35000038 -1.19000006 1 244 133 0.000000 0.000000 0.000000 0.000000 51.808199 0.000000 217.000000 0.055010 0.950520 -0.305753
12.43000031 9.35000038 -1.20000005 1 244 133 0.000000 0.000000 0.000000 0.000000 51.808199 0.000000 217.000000 -0.189601 0.722951 -0.664375
12.43000031 9.35000038 -1.20000005 1 244 133 0.000000 0.000000 0.000000 0.000000 51.808199 0.000000 217.000000 -0.189601 0.722951 -0.664375
12.40999985 9.35999966 -1.25999999 1 244 133 0.000000 0.000000 0.000000 0.000000 51.808199 0.000000 217.000000 0.102812 0.917086 -0.385204
12.40999985 9.35999966 -1.25999999 1 244 133 0.000000 0.000000 0.000000 0.000000 51.808199 0.000000 217.000000 0.102812 0.917086 -0.385204
12.43999958 9.34000015 -1.21000004 1 244 133 0.000000 0.000000 0.000000 0.000000 51.808199 0.000000 217.000000 0.252332 0.775802 -0.578325
12.42000008 9.34000015 -1.24000001 1 244 133 0.000000 0.000000 0.000000 0.000000 51.808199 0.000000 217.000000 0.232049 0.932414 -0.277052
12.42000008 9.34000015 -1.24000001 1 244 133 0.000000 0.000000 0.000000 0.000000 51.808199 0.000000 217.000000 0.232049 0.932414 -0.277052
12.43000031 9.34000015 -1.24000001 1 244 133 0.000000 0.000000 0.000000 0.000000 51.808199 0.000000 217.000000 -0.008998 0.924214 -0.381769
12.46000004 9.31000042 -1.27999997 1 244 133 0.000000 0.000000 0.000000 0.000000 51.808199 0.000000 217.000000 0.017880 -0.562521 0.826590
12.40999985 9.32999992 -1.36000001 1 244 133 0.000000 0.000000 0.000000 0.000000 51.808199 0.000000 217.000000 -0.121291 0.930809 -0.344795
12.47000027 9.28999996 -1.26999998 1 244 133 0.000000 0.000000 0.000000 0.000000 51.808199 0.000000 217.000000 0.143727 0.866720 -0.477639
12.46000004 9.27999973 -1.26999998 1 244 133 0.000000 0.000000 0.000000 0.000000 51.808199 0.000000 217.000000 -0.030896 0.987513 -0.154478
12.47000027 9.26000023 -1.33000004 1 244 133 0.000000 0.000000 0.000000 0.000000 51.808199 0.000000 217.000000 0.104205 0.929721 -0.353213
12.47000027 9.26000023 -1.36000001 1 244 133 0.000000 0.000000 0.000000 0.000000 51.808199 0.000000 217.000000 0.222994 0.887544 -0.403161
12.47999954 9.22999954 -1.28999996 1 244 133 0.000000 0.000000 0.000000 0.000000 51.808199 0.000000 217.000000 0.250896 -0.642232 0.724286
12.46000004 9.23999977 -1.34000003 1 244 133 0.000000 0.000000 0.000000 0.000000 51.808199 0.000000 217.000000 0.104839 0.725010 -0.680712
12.47000027 9.22999954 -1.35000002 1 244 133 0.000000 0.000000 0.000000 0.000000 51.808199 0.000000 217.000000 0.076880 -0.697724 0.712229
12.44999981 9.25000000 -1.36000001 1 244 133 0.000000 0.000000 0.000000 0.000000 51.808199 0.000000 217.000000 0.023843 -0.750361 0.660598
12.47999954 9.22999954 -1.35000002 1 244 133 0.000000 0.000000 0.000000 0.000000 51.808199 0.000000 217.000000 -0.213369 0.845911 -0.488782
12.40999985 9.27999973 -1.29999995 1 244 133 0.000000 0.000000 0.000000 0.000000 51.808199 0.000000 217.000000 0.217010 0.952956 -0.211618
12.43000031 9.27999973 -1.32000005 1 244 133 0.000000 0.000000 0.000000 0.000000 51.808199 0.000000 217.000000 0.123848 0.723688 -0.678924
12.43000031 9.27999973 -1.33000004 1 244 133 0.000000 0.000000 0.000000 0.000000 51.808199 0.000000 217.000000 -0.107989 0.893364 -0.436164
12.43000031 9.27999973 -1.33000004 1 244 133 0.000000 0.000000 0.000000 0.000000 51.808199 0.000000 217.000000 -0.107989 0.893364 -0.436164
12.39999962 9.36999989 -1.25000000 1 244 133 0.000000 0.000000 0.000000 0.000000 51.808199 0.000000 217.000000 0.093631 0.887402 -0.451387
12.39999962 9.35999966 -1.25999999 1 244 133 0.000000 0.000000 0.000000 0.000000 51.808199 0.000000 217.000000 -0.028056 0.990945 -0.131303
12.39999962 9.34000015 -1.35000002 1 244 133 0.000000 0.000000 0.000000 0.000000 51.808199 0.000000 217.000000 -0.163364 0.810823 -0.562031
12.39000034 9.27999973 -1.28999996 1 244 133 0.000000 0.000000 0.000000 0.000000 51.808199 0.000000 217.000000 -0.003850 0.920197 -0.391437
12.36999989 9.27000046 -1.29999995 1 244 133 0.000000 0.000000 0.000000 0.000000 51.808199 0.000000 217.000000 -0.055834 -0.688615 0.722974
12.38000011 9.28999996 -1.29999995 1 244 133 0.000000 0.000000 0.000000 0.000000 51.808199 0.000000 217.000000 -0.029626 0.709612 -0.703969
12.39999962 9.27000046 -1.32000005 1 244 133 0.000000 0.000000 0.000000 0.000000 51.808199 0.000000 217.000000 0.209768 -0.734966 0.644843
12.39000034 9.23999977 -1.34000003 1 244 133 0.000000 0.000000 0.000000 0.000000 51.808199 0.000000 217.000000 0.009719 0.728940 -0.684509
12.39999962 9.23999977 -1.35000002 1 244 133 0.000000 0.000000 0.000000 0.000000 51.808199 0.000000 217.000000 0.085912 -0.662540 0.744083
12.64000034 9.39999962 -1.38000000 1 244 133 0.000000 0.000000 0.000000 0.000000 51.808199 0.000000 217.000000 0.490066 -0.618056 0.614688
12.56999969 9.44999981 -1.39999998 1 244 133 0.000000 0.000000 0.000000 0.000000 51.808199 0.000000 217.000000 0.288645 -0.485235 0.825367
12.51000023 9.47000027 -1.38000000 1 244 133 0.000000 0.000000 0.000000 0.000000 51.808199 0.000000 217.000000 0.352208 -0.553470 0.754732
12.53999996 9.39999962 -1.48000002 1 244 133 0.000000 0.000000 0.000000 0.000000 51.808199 0.000000 217.000000 -0.369948 0.805557 -0.462835
12.53999996 9.39999962 -1.50000000 1 244 133 0.000000 0.000000 0.000000 0.000000 51.808199 0.000000 217.000000 -0.435986 0.832623 -0.341549
12.53999996 9.39999962 -1.50000000 1 244 133 0.000000 0.000000 0.000000 0.000000 51.808199 0.000000 217.000000 -0.435986 0.832623 -0.341549
12.52999973 9.39000034 -1.53999996 1 244 133 0.000000 0.000000 0.000000 0.000000 51.808199 0.000000 217.000000 -0.384355 0.691179 -0.611999
12.64999962 9.35000038 -1.41999996 1 244 133 0.000000 0.000000 0.000000 0.000000 51.808199 0.000000 217.000000 -0.384478 0.879022 -0.281951
12.61999989 9.31000042 -1.37000000 1 244 133 0.000000 0.000000 0.000000 0.000000 51.808199 0.000000 217.000000 -0.709319 0.553169 -0.436887
12.64000034 9.26000023 -1.44000006 1 244 133 0.000000 0.000000 0.000000 0.000000 51.808199 0.000000 217.000000 -0.264043 0.887602 -0.377417
12.64000034 9.27999973 -1.42999995 1 244 133 0.000000 0.000000 0.000000 0.000000 51.808199 0.000000 217.000000 0.683504 -0.553154 0.476280
