//X Y Z R G B PointSourceId ScanDirectionFlag NumberOfReturns ReturnNumber GpsTime Intensity Classification Nx Ny Nz
6.98000002 -19.15999985 -0.25999999 202 74 117 0.000000 0.000000 0.000000 0.000000 51.808199 0.000000 215.000000 0.805352 -0.590967 -0.046544
6.96000004 -19.20999908 -0.30000001 202 74 117 0.000000 0.000000 0.000000 0.000000 51.808199 0.000000 215.000000 0.781369 -0.603716 0.158080
6.96000004 -19.20000076 -0.25999999 202 74 117 0.000000 0.000000 0.000000 0.000000 51.808199 0.000000 215.000000 0.719126 -0.666545 0.196406
6.98999977 -19.18000031 -0.30000001 202 74 117 0.000000 0.000000 0.000000 0.000000 51.808199 0.000000 215.000000 0.830050 -0.481211 -0.281874
6.96000004 -19.20000076 -0.25000000 202 74 117 0.000000 0.000000 0.000000 0.000000 51.808199 0.000000 215.000000 -0.528187 0.778634 0.338746
6.96000004 -19.20000076 -0.25000000 202 74 117 0.000000 0.000000 0.000000 0.000000 51.808199 0.000000 215.000000 -0.528187 0.778634 0.338746
6.98999977 -19.21999931 -0.20000000 202 74 117 0.000000 0.000000 0.000000 0.000000 51.808199 0.000000 215.000000 0.548304 -0.799933 0.243863
6.98000002 -19.23999977 -0.20999999 202 74 117 0.000000 0.000000 0.000000 0.000000 51.808199 0.000000 215.000000 0.963591 -0.217753 0.155165
6.98999977 -19.22999954 -0.23999999 202 74 117 0.000000 0.000000 0.000000 0.000000 51.808199 0.000000 215.000000 0.848231 -0.432644 -0.305487
6.96000004 -19.22999954 -0.28000000 202 74 117 0.000000 0.000000 0.000000 0.000000 51.808199 0.000000 215.000000 0.917752 -0.328897 -0.222616
6.98999977 -19.21999931 -0.31999999 202 74 117 0.000000 0.000000 0.000000 0.000000 51.808199 0.000000 215.000000 0.946171 -0.293917 0.135551
6.98999977 -19.21999931 -0.28999999 202 74 117 0.000000 0.000000 0.000000 0.000000 51.808199 0.000000 215.000000 0.764983 -0.450472 -0.460300
6.98000002 -19.21999931 -0.31000000 202 74 117 0.000000 0.000000 0.000000 0.000000 51.808199 0.000000 215.000000 0.961390 -0.273446 0.030933
7.00000000 -19.30999947 -0.06000000 202 74 117 0.000000 0.000000 0.000000 0.000000 51.808199 0.000000 215.000000 0.936469 -0.258964 0.236567
7.00000000 -19.32999992 -0.11000000 202 74 117 0.000000 0.000000 0.000000 0.000000 51.808199 0.000000 215.000000 0.799623 0.597942 -0.055391
7.01000023 -19.31999969 -0.11000000 202 74 117 0.000000 0.000000 0.000000 0.000000 51.808199 0.000000 215.000000 0.787357 0.604182 0.122609
7.03000021 -19.29999924 -0.12000000 202 74 117 0.000000 0.000000 0.000000 0.000000 51.808199 0.000000 215.000000 0.989954 -0.105611 -0.094005
7.00000000 -19.31999969 -0.12000000 202 74 117 0.000000 0.000000 0.000000 0.000000 51.808199 0.000000 215.000000 0.893591 0.426130 -0.141093
7.03000021 -19.29999924 -0.15000001 202 74 117 0.000000 0.000000 0.000000 0.000000 51.808199 0.000000 215.000000 -0.454818 0.729362 0.511050
7.01000023 -19.31999969 -0.12000000 202 74 117 0.000000 0.000000 0.000000 0.000000 51.808199 0.000000 215.000000 0.482739 0.600480 0.637485
7.15999985 -19.34000015 -0.30000001 202 74 117 0.000000 0.000000 0.000000 0.000000 51.808199 0.000000 215.000000 0.899016 -0.417653 -0.131667
7.15999985 -19.32999992 -0.30000001 202 74 117 0.000000 0.000000 0.000000 0.000000 51.808199 0.000000 215.000000 0.975050 -0.203908 -0.087742
7.15999985 -19.34000015 -0.31000000 202 74 117 0.000000 0.000000 0.000000 0.000000 51.808199 0.000000 215.000000 0.815982 -0.529077 -0.232917
7.15999985 -19.34000015 -0.30000001 202 74 117 0.000000 0.000000 0.000000 0.000000 51.808199 0.000000 215.000000 0.899016 -0.417653 -0.131667
7.11999989 -19.34000015 -0.28999999 202 74 117 0.000000 0.000000 0.000000 0.000000 51.808199 0.000000 215.000000 -0.626838 0.779050 -0.012454
7.09000015 -19.34000015 -0.31999999 202 74 117 0.000000 0.000000 0.000000 0.000000 51.808199 0.000000 215.000000 -0.327416 0.915900 0.232220
7.07999992 -19.37999916 -0.25000000 202 74 117 0.000000 0.000000 0.000000 0.000000 51.808199 0.000000 215.000000 -0.161631 0.902561 0.399072
7.11999989 -19.35000038 -0.28000000 202 74 117 0.000000 0.000000 0.000000 0.000000 51.808199 0.000000 215.000000 0.896588 -0.405702 -0.177585
7.09999990 -19.36000061 -0.28000000 202 74 117 0.000000 0.000000 0.000000 0.000000 51.808199 0.000000 215.000000 -0.295904 0.911033 0.287158
7.07999992 -19.36000061 -0.30000001 202 74 117 0.000000 0.000000 0.000000 0.000000 51.808199 0.000000 215.000000 -0.247137 0.862705 0.441207
7.09000015 -19.36000061 -0.30000001 202 74 117 0.000000 0.000000 0.000000 0.000000 51.808199 0.000000 215.000000 -0.743534 0.602822 0.289419
7.11000013 -19.37000084 -0.31999999 202 74 117 0.000000 0.000000 0.000000 0.000000 51.808199 0.000000 215.000000 -0.531976 0.846511 -0.020513
7.07999992 -19.36000061 -0.31999999 202 74 117 0.000000 0.000000 0.000000 0.000000 51.808199 0.000000 215.000000 -0.198418 0.977483 -0.071820
7.09000015 -19.36000061 -0.31999999 202 74 117 0.000000 0.000000 0.000000 0.000000 51.808199 0.000000 215.000000 -0.194322 0.978850 0.063969
7.09000015 -19.36000061 -0.28999999 202 74 117 0.000000 0.000000 0.000000 0.000000 51.808199 0.000000 215.000000 -0.617729 0.744119 0.254359
7.07999992 -19.36000061 -0.31000000 202 74 117 0.000000 0.000000 0.000000 0.000000 51.808199 0.000000 215.000000 -0.220053 0.866740 0.447591
7.09000015 -19.36000061 -0.30000001 202 74 117 0.000000 0.000000 0.000000 0.000000 51.808199 0.000000 215.000000 -0.743534 0.602822 0.289419
7.11000013 -19.38999939 -0.28000000 202 74 117 0.000000 0.000000 0.000000 0.000000 51.808199 0.000000 215.000000 -0.153744 0.980271 0.124225
7.03999996 -19.37000084 -0.20999999 202 74 117 0.000000 0.000000 0.000000 0.000000 51.808199 0.000000 215.000000 0.205808 0.953713 0.219260
7.00000000 -19.32999992 -0.16000000 202 74 117 0.000000 0.000000 0.000000 0.000000 51.808199 0.000000 215.000000 0.320565 0.921803 0.217984
7.01999998 -19.37000084 -0.20000000 202 74 117 0.000000 0.000000 0.000000 0.000000 51.808199 0.000000 215.000000 0.073348 0.929519 0.361406
7.03000021 -19.36000061 -0.20999999 202 74 117 0.000000 0.000000 0.000000 0.000000 51.808199 0.000000 215.000000 0.024062 0.943486 0.330537
7.05000019 -19.34000015 -0.28000000 202 74 117 0.000000 0.000000 0.000000 0.000000 51.808199 0.000000 215.000000 -0.286117 0.958188 0.003653
7.05999994 -19.37999916 -0.25999999 202 74 117 0.000000 0.000000 0.000000 0.000000 51.808199 0.000000 215.000000 0.081205 0.970708 0.226124
7.07000017 -19.37000084 -0.28999999 202 74 117 0.000000 0.000000 0.000000 0.000000 51.808199 0.000000 215.000000 -0.157630 0.981218 -0.111197
7.07000017 -19.39999962 -0.31000000 202 74 117 0.000000 0.000000 0.000000 0.000000 51.808199 0.000000 215.000000 -0.132077 0.991134 0.014429
7.17000008 -19.07999992 -0.63000000 202 74 117 0.000000 0.000000 0.000000 0.000000 51.808199 0.000000 215.000000 0.717818 0.691610 -0.080081
7.17999983 -19.10000038 -0.62000000 202 74 117 0.000000 0.000000 0.000000 0.000000 51.808199 0.000000 215.000000 0.954332 0.249595 -0.164172
7.17000008 -19.12000084 -0.63000000 202 74 117 0.000000 0.000000 0.000000 0.000000 51.808199 0.000000 215.000000 0.966263 0.108497 0.233588
7.17000008 -19.12000084 -0.63000000 202 74 117 0.000000 0.000000 0.000000 0.000000 51.808199 0.000000 215.000000 0.966263 0.108497 0.233588
7.19000006 -19.11000061 -0.66000003 202 74 117 0.000000 0.000000 0.000000 0.000000 51.808199 0.000000 215.000000 0.897510 0.432851 -0.084358
7.19999981 -19.12000084 -0.63999999 202 74 117 0.000000 0.000000 0.000000 0.000000 51.808199 0.000000 215.000000 0.779888 0.403726 0.478310
7.19000006 -19.11000061 -0.66000003 202 74 117 0.000000 0.000000 0.000000 0.000000 51.808199 0.000000 215.000000 0.897510 0.432851 -0.084358
7.17999983 -19.12000084 -0.67000002 202 74 117 0.000000 0.000000 0.000000 0.000000 51.808199 0.000000 215.000000 0.838653 0.260059 0.478571
7.19000006 -19.11000061 -0.66000003 202 74 117 0.000000 0.000000 0.000000 0.000000 51.808199 0.000000 215.000000 0.897510 0.432851 -0.084358
7.17999983 -19.12000084 -0.64999998 202 74 117 0.000000 0.000000 0.000000 0.000000 51.808199 0.000000 215.000000 0.948972 0.243710 -0.200142
7.23000002 -19.15999985 -0.34999999 202 74 117 0.000000 0.000000 0.000000 0.000000 51.808199 0.000000 215.000000 0.750479 0.580135 0.316583
7.21000004 -19.18000031 -0.36000001 202 74 117 0.000000 0.000000 0.000000 0.000000 51.808199 0.000000 215.000000 0.985293 0.091738 -0.144160
7.21000004 -19.20000076 -0.38000000 202 74 117 0.000000 0.000000 0.000000 0.000000 51.808199 0.000000 215.000000 0.924050 0.214334 0.316533
7.21000004 -19.17000008 -0.40000001 202 74 117 0.000000 0.000000 0.000000 0.000000 51.808199 0.000000 215.000000 0.975599 0.100667 0.195120
7.17000008 -19.15999985 -0.37000000 202 74 117 0.000000 0.000000 0.000000 0.000000 51.808199 0.000000 215.000000 0.935723 0.350734 0.037532
7.19999981 -19.15999985 -0.36000001 202 74 117 0.000000 0.000000 0.000000 0.000000 51.808199 0.000000 215.000000 0.800114 0.577943 -0.160623
7.17000008 -19.15999985 -0.37000000 202 74 117 0.000000 0.000000 0.000000 0.000000 51.808199 0.000000 215.000000 0.935723 0.350734 0.037532
7.17000008 -19.13999939 -0.34999999 202 74 117 0.000000 0.000000 0.000000 0.000000 51.808199 0.000000 215.000000 0.731897 0.554268 0.396376
7.19999981 -19.15999985 -0.38999999 202 74 117 0.000000 0.000000 0.000000 0.000000 51.808199 0.000000 215.000000 0.687746 0.678216 0.258898
7.19999981 -19.14999962 -0.40000001 202 74 117 0.000000 0.000000 0.000000 0.000000 51.808199 0.000000 215.000000 0.970397 0.209301 -0.120507
7.17000008 -19.15999985 -0.40000001 202 74 117 0.000000 0.000000 0.000000 0.000000 51.808199 0.000000 215.000000 0.982521 0.137577 -0.125402
7.17000008 -19.17000008 -0.34999999 202 74 117 0.000000 0.000000 0.000000 0.000000 51.808199 0.000000 215.000000 0.813501 0.367747 0.450530
7.17000008 -19.19000053 -0.37000000 202 74 117 0.000000 0.000000 0.000000 0.000000 51.808199 0.000000 215.000000 0.957606 0.225084 0.179801
7.17000008 -19.18000031 -0.34999999 202 74 117 0.000000 0.000000 0.000000 0.000000 51.808199 0.000000 215.000000 0.848499 0.393890 0.353412
7.17999983 -19.20999908 -0.33000001 202 74 117 0.000000 0.000000 0.000000 0.000000 51.808199 0.000000 215.000000 0.869345 0.048220 0.491848
7.17999983 -19.19000053 -0.36000001 202 74 117 0.000000 0.000000 0.000000 0.000000 51.808199 0.000000 215.000000 0.945360 0.119006 0.303532
7.17000008 -19.17000008 -0.34999999 202 74 117 0.000000 0.000000 0.000000 0.000000 51.808199 0.000000 215.000000 0.813501 0.367747 0.450530
7.17000008 -19.20999908 -0.36000001 202 74 117 0.000000 0.000000 0.000000 0.000000 51.808199 0.000000 215.000000 0.908984 0.089116 0.407192
7.17000008 -19.20999908 -0.34999999 202 74 117 0.000000 0.000000 0.000000 0.000000 51.808199 0.000000 215.000000 0.928902 0.360569 0.084446
7.17000008 -19.17000008 -0.36000001 202 74 117 0.000000 0.000000 0.000000 0.000000 51.808199 0.000000 215.000000 0.958649 0.274447 -0.075313
7.17999983 -19.20999908 -0.37000000 202 74 117 0.000000 0.000000 0.000000 0.000000 51.808199 0.000000 215.000000 0.985486 0.111361 -0.128125
7.17999983 -19.18000031 -0.34999999 202 74 117 0.000000 0.000000 0.000000 0.000000 51.808199 0.000000 215.000000 0.936195 0.302846 -0.178389
7.17000008 -19.20999908 -0.40000001 202 74 117 0.000000 0.000000 0.000000 0.000000 51.808199 0.000000 215.000000 0.930842 -0.336863 0.141620
7.19000006 -19.17000008 -0.41000000 202 74 117 0.000000 0.000000 0.000000 0.000000 51.808199 0.000000 215.000000 0.994921 0.098948 0.018485
7.17999983 -19.20000076 -0.41000000 202 74 117 0.000000 0.000000 0.000000 0.000000 51.808199 0.000000 215.000000 0.886864 0.457869 -0.061874
7.17999983 -19.20000076 -0.40000001 202 74 117 0.000000 0.000000 0.000000 0.000000 51.808199 0.000000 215.000000 0.987585 -0.083574 0.133012
7.17999983 -19.20000076 -0.40000001 202 74 117 0.000000 0.000000 0.000000 0.000000 51.808199 0.000000 215.000000 0.987585 -0.083574 0.133012
7.17000008 -19.20000076 -0.38000000 202 74 117 0.000000 0.000000 0.000000 0.000000 51.808199 0.000000 215.000000 0.960482 0.173072 -0.217991
7.19000006 -19.17000008 -0.41000000 202 74 117 0.000000 0.000000 0.000000 0.000000 51.808199 0.000000 215.000000 0.994921 0.098948 0.018485
7.17999983 -19.20000076 -0.41000000 202 74 117 0.000000 0.000000 0.000000 0.000000 51.808199 0.000000 215.000000 0.886864 0.457869 -0.061874
7.17000008 -19.17000008 -0.40000001 202 74 117 0.000000 0.000000 0.000000 0.000000 51.808199 0.000000 215.000000 0.856965 0.502657 0.113782
7.21999979 -19.20999908 -0.47999999 202 74 117 0.000000 0.000000 0.000000 0.000000 51.808199 0.000000 215.000000 0.882540 -0.449163 0.139197
7.17999983 -19.15999985 -0.43000001 202 74 117 0.000000 0.000000 0.000000 0.000000 51.808199 0.000000 215.000000 0.972970 0.211081 -0.093675
7.17000008 -19.14999962 -0.43000001 202 74 117 0.000000 0.000000 0.000000 0.000000 51.808199 0.000000 215.000000 0.779575 0.625619 -0.029392
7.17999983 -19.15999985 -0.43000001 202 74 117 0.000000 0.000000 0.000000 0.000000 51.808199 0.000000 215.000000 0.972970 0.211081 -0.093675
7.17999983 -19.15999985 -0.44000000 202 74 117 0.000000 0.000000 0.000000 0.000000 51.808199 0.000000 215.000000 0.875649 0.408435 0.257721
7.17999983 -19.15999985 -0.44000000 202 74 117 0.000000 0.000000 0.000000 0.000000 51.808199 0.000000 215.000000 0.875649 0.408435 0.257721
7.17000008 -19.14999962 -0.47999999 202 74 117 0.000000 0.000000 0.000000 0.000000 51.808199 0.000000 215.000000 0.953371 0.225195 -0.200923
7.17000008 -19.19000053 -0.41999999 202 74 117 0.000000 0.000000 0.000000 0.000000 51.808199 0.000000 215.000000 0.872941 0.216370 0.437217
7.17999983 -19.18000031 -0.43000001 202 74 117 0.000000 0.000000 0.000000 0.000000 51.808199 0.000000 215.000000 0.870897 0.489623 0.042516
7.17999983 -19.20000076 -0.44000000 202 74 117 0.000000 0.000000 0.000000 0.000000 51.808199 0.000000 215.000000 0.982297 -0.175453 -0.065646
7.17999983 -19.20000076 -0.44999999 202 74 117 0.000000 0.000000 0.000000 0.000000 51.808199 0.000000 215.000000 0.979921 -0.083785 -0.180927
7.17000008 -19.18000031 -0.43000001 202 74 117 0.000000 0.000000 0.000000 0.000000 51.808199 0.000000 215.000000 0.951772 -0.013650 0.306503
7.19000006 -19.20999908 -0.44999999 202 74 117 0.000000 0.000000 0.000000 0.000000 51.808199 0.000000 215.000000 0.965562 0.020699 0.259350
7.17999983 -19.20999908 -0.41999999 202 74 117 0.000000 0.000000 0.000000 0.000000 51.808199 0.000000 215.000000 0.988071 -0.019241 0.152794
7.17000008 -19.20999908 -0.41999999 202 74 117 0.000000 0.000000 0.000000 0.000000 51.808199 0.000000 215.000000 0.972604 -0.096384 0.211545
7.19999981 -19.20000076 -0.44000000 202 74 117 0.000000 0.000000 0.000000 0.000000 51.808199 0.000000 215.000000 0.930829 -0.040358 0.363219
7.17999983 -19.18000031 -0.44999999 202 74 117 0.000000 0.000000 0.000000 0.000000 51.808199 0.000000 215.000000 0.984280 0.077549 0.158678
7.17999983 -19.17000008 -0.43000001 202 74 117 0.000000 0.000000 0.000000 0.000000 51.808199 0.000000 215.000000 0.998948 0.036307 -0.028008
7.17999983 -19.18000031 -0.44000000 202 74 117 0.000000 0.000000 0.000000 0.000000 51.808199 0.000000 215.000000 0.943224 0.227865 0.241675
7.17000008 -19.18000031 -0.47999999 202 74 117 0.000000 0.000000 0.000000 0.000000 51.808199 0.000000 215.000000 0.975279 -0.169450 -0.141836
7.19000006 -19.19000053 -0.47999999 202 74 117 0.000000 0.000000 0.000000 0.000000 51.808199 0.000000 215.000000 0.959899 -0.013451 0.280022
7.17000008 -19.20000076 -0.49000001 202 74 117 0.000000 0.000000 0.000000 0.000000 51.808199 0.000000 215.000000 0.960943 0.276133 0.018409
7.19000006 -19.19000053 -0.47999999 202 74 117 0.000000 0.000000 0.000000 0.000000 51.808199 0.000000 215.000000 0.959899 -0.013451 0.280022
7.17999983 -19.20000076 -0.47999999 202 74 117 0.000000 0.000000 0.000000 0.000000 51.808199 0.000000 215.000000 0.933630 0.316742 -0.167362
7.19000006 -19.19000053 -0.49000001 202 74 117 0.000000 0.000000 0.000000 0.000000 51.808199 0.000000 215.000000 0.947139 -0.320705 -0.008735
7.17999983 -19.18000031 -0.46000001 202 74 117 0.000000 0.000000 0.000000 0.000000 51.808199 0.000000 215.000000 0.972062 -0.065297 -0.225459
7.17999983 -19.17000008 -0.47000000 202 74 117 0.000000 0.000000 0.000000 0.000000 51.808199 0.000000 215.000000 0.926638 0.341393 -0.157459
7.17000008 -19.20999908 -0.46000001 202 74 117 0.000000 0.000000 0.000000 0.000000 51.808199 0.000000 215.000000 0.942064 -0.321971 -0.094074
7.17999983 -19.20000076 -0.49000001 202 74 117 0.000000 0.000000 0.000000 0.000000 51.808199 0.000000 215.000000 0.999904 0.012934 -0.004975
7.17999983 -19.18000031 -0.46000001 202 74 117 0.000000 0.000000 0.000000 0.000000 51.808199 0.000000 215.000000 0.972062 -0.065297 -0.225459
7.17999983 -19.20000076 -0.49000001 202 74 117 0.000000 0.000000 0.000000 0.000000 51.808199 0.000000 215.000000 0.999904 0.012934 -0.004975
7.17999983 -19.20000076 -0.46000001 202 74 117 0.000000 0.000000 0.000000 0.000000 51.808199 0.000000 215.000000 0.993778 0.108952 -0.023111
7.17999983 -19.20000076 -0.47999999 202 74 117 0.000000 0.000000 0.000000 0.000000 51.808199 0.000000 215.000000 0.933630 0.316742 -0.167362
7.17999983 -19.25000000 -0.33000001 202 74 117 0.000000 0.000000 0.000000 0.000000 51.808199 0.000000 215.000000 0.922065 0.317806 0.220897
7.17999983 -19.21999931 -0.33000001 202 74 117 0.000000 0.000000 0.000000 0.000000 51.808199 0.000000 215.000000 0.924190 -0.011568 0.381758
7.17999983 -19.22999954 -0.34000000 202 74 117 0.000000 0.000000 0.000000 0.000000 51.808199 0.000000 215.000000 0.996295 -0.003183 -0.085942
7.17000008 -19.21999931 -0.40000001 202 74 117 0.000000 0.000000 0.000000 0.000000 51.808199 0.000000 215.000000 0.916105 -0.329338 0.228667
7.17999983 -19.25000000 -0.40000001 202 74 117 0.000000 0.000000 0.000000 0.000000 51.808199 0.000000 215.000000 0.826191 -0.559769 -0.063771
7.17000008 -19.25000000 -0.38999999 202 74 117 0.000000 0.000000 0.000000 0.000000 51.808199 0.000000 215.000000 0.938727 -0.001253 0.344659
7.19000006 -19.27000046 -0.36000001 202 74 117 0.000000 0.000000 0.000000 0.000000 51.808199 0.000000 215.000000 0.794496 -0.587236 -0.154694
7.19000006 -19.27000046 -0.33000001 202 74 117 0.000000 0.000000 0.000000 0.000000 51.808199 0.000000 215.000000 0.997940 -0.060193 -0.022176
7.17999983 -19.27000046 -0.41000000 202 74 117 0.000000 0.000000 0.000000 0.000000 51.808199 0.000000 215.000000 0.997144 -0.044102 0.061313
7.17000008 -19.26000023 -0.40000001 202 74 117 0.000000 0.000000 0.000000 0.000000 51.808199 0.000000 215.000000 0.891899 -0.442460 -0.093517
7.19000006 -19.21999931 -0.44999999 202 74 117 0.000000 0.000000 0.000000 0.000000 51.808199 0.000000 215.000000 0.964910 -0.219475 0.144152
7.17999983 -19.25000000 -0.44999999 202 74 117 0.000000 0.000000 0.000000 0.000000 51.808199 0.000000 215.000000 0.992817 0.039175 -0.113049
7.17000008 -19.25000000 -0.41999999 202 74 117 0.000000 0.000000 0.000000 0.000000 51.808199 0.000000 215.000000 0.950701 0.039243 0.307617
7.17999983 -19.25000000 -0.44999999 202 74 117 0.000000 0.000000 0.000000 0.000000 51.808199 0.000000 215.000000 0.992817 0.039175 -0.113049
7.19000006 -19.22999954 -0.44000000 202 74 117 0.000000 0.000000 0.000000 0.000000 51.808199 0.000000 215.000000 0.950104 0.011178 -0.311733
7.19000006 -19.23999977 -0.41999999 202 74 117 0.000000 0.000000 0.000000 0.000000 51.808199 0.000000 215.000000 0.988000 -0.076000 -0.134462
7.17000008 -19.22999954 -0.44999999 202 74 117 0.000000 0.000000 0.000000 0.000000 51.808199 0.000000 215.000000 0.904787 -0.402284 -0.139741
7.17999983 -19.21999931 -0.50000000 202 74 117 0.000000 0.000000 0.000000 0.000000 51.808199 0.000000 215.000000 0.857418 -0.387769 0.338333
7.19000006 -19.21999931 -0.46000001 202 74 117 0.000000 0.000000 0.000000 0.000000 51.808199 0.000000 215.000000 0.866281 -0.418677 0.272521
7.17999983 -19.25000000 -0.50000000 202 74 117 0.000000 0.000000 0.000000 0.000000 51.808199 0.000000 215.000000 0.875623 -0.451699 -0.171032
7.17999983 -19.21999931 -0.49000001 202 74 117 0.000000 0.000000 0.000000 0.000000 51.808199 0.000000 215.000000 0.891572 -0.232134 -0.388861
7.19000006 -19.23999977 -0.46000001 202 74 117 0.000000 0.000000 0.000000 0.000000 51.808199 0.000000 215.000000 0.924299 -0.359526 0.128107
7.17000008 -19.23999977 -0.47000000 202 74 117 0.000000 0.000000 0.000000 0.000000 51.808199 0.000000 215.000000 0.997472 0.009460 0.070422
7.17000008 -19.23999977 -0.47000000 202 74 117 0.000000 0.000000 0.000000 0.000000 51.808199 0.000000 215.000000 0.997472 0.009460 0.070422
7.19000006 -19.22999954 -0.47000000 202 74 117 0.000000 0.000000 0.000000 0.000000 51.808199 0.000000 215.000000 0.988091 0.047272 0.146427
7.17999983 -19.21999931 -0.49000001 202 74 117 0.000000 0.000000 0.000000 0.000000 51.808199 0.000000 215.000000 0.891572 -0.232134 -0.388861
7.17000008 -19.27000046 -0.44999999 202 74 117 0.000000 0.000000 0.000000 0.000000 51.808199 0.000000 215.000000 -0.702295 0.699300 0.133271
7.17000008 -19.27000046 -0.43000001 202 74 117 0.000000 0.000000 0.000000 0.000000 51.808199 0.000000 215.000000 0.876671 -0.439075 -0.196623
7.17000008 -19.26000023 -0.44999999 202 74 117 0.000000 0.000000 0.000000 0.000000 51.808199 0.000000 215.000000 0.712521 -0.698068 -0.070818
7.17000008 -19.27000046 -0.41999999 202 74 117 0.000000 0.000000 0.000000 0.000000 51.808199 0.000000 215.000000 0.986688 -0.088837 0.136217
7.17999983 -19.26000023 -0.44999999 202 74 117 0.000000 0.000000 0.000000 0.000000 51.808199 0.000000 215.000000 0.903980 -0.410645 -0.119129
7.17000008 -19.26000023 -0.44000000 202 74 117 0.000000 0.000000 0.000000 0.000000 51.808199 0.000000 215.000000 0.829767 -0.556432 0.043232
7.17000008 -19.26000023 -0.41999999 202 74 117 0.000000 0.000000 0.000000 0.000000 51.808199 0.000000 215.000000 0.956523 -0.196656 0.215385
7.17000008 -19.27000046 -0.43000001 202 74 117 0.000000 0.000000 0.000000 0.000000 51.808199 0.000000 215.000000 0.876671 -0.439075 -0.196623
7.17999983 -19.26000023 -0.46000001 202 74 117 0.000000 0.000000 0.000000 0.000000 51.808199 0.000000 215.000000 0.838207 -0.533140 -0.114763
7.17000008 -19.26000023 -0.50000000 202 74 117 0.000000 0.000000 0.000000 0.000000 51.808199 0.000000 215.000000 0.795159 -0.563560 0.223880
7.21999979 -19.17000008 -0.54000002 202 74 117 0.000000 0.000000 0.000000 0.000000 51.808199 0.000000 215.000000 0.944997 -0.026638 0.325992
7.21000004 -19.18000031 -0.51999998 202 74 117 0.000000 0.000000 0.000000 0.000000 51.808199 0.000000 215.000000 0.964400 -0.069155 0.255245
7.17000008 -19.14999962 -0.52999997 202 74 117 0.000000 0.000000 0.000000 0.000000 51.808199 0.000000 215.000000 0.870522 0.254971 0.420928
7.17999983 -19.12999916 -0.54000002 202 74 117 0.000000 0.000000 0.000000 0.000000 51.808199 0.000000 215.000000 0.759932 0.614446 0.212038
7.19000006 -19.15999985 -0.56999999 202 74 117 0.000000 0.000000 0.000000 0.000000 51.808199 0.000000 215.000000 0.931756 0.266417 0.246683
7.17999983 -19.15999985 -0.56000000 202 74 117 0.000000 0.000000 0.000000 0.000000 51.808199 0.000000 215.000000 0.863837 0.056850 0.500554
7.17999983 -19.12999916 -0.55000001 202 74 117 0.000000 0.000000 0.000000 0.000000 51.808199 0.000000 215.000000 0.763010 0.646265 0.012508
7.17000008 -19.20000076 -0.51999998 202 74 117 0.000000 0.000000 0.000000 0.000000 51.808199 0.000000 215.000000 0.937385 -0.221462 0.268819
7.19999981 -19.17000008 -0.57999998 202 74 117 0.000000 0.000000 0.000000 0.000000 51.808199 0.000000 215.000000 0.937868 0.304359 -0.166640
7.17000008 -19.20999908 -0.57999998 202 74 117 0.000000 0.000000 0.000000 0.000000 51.808199 0.000000 215.000000 0.766280 -0.597729 0.235658
7.19999981 -19.20000076 -0.56000000 202 74 117 0.000000 0.000000 0.000000 0.000000 51.808199 0.000000 215.000000 0.910509 -0.391421 0.133279
7.17000008 -19.20999908 -0.57999998 202 74 117 0.000000 0.000000 0.000000 0.000000 51.808199 0.000000 215.000000 0.766280 -0.597729 0.235658
7.19999981 -19.17000008 -0.56999999 202 74 117 0.000000 0.000000 0.000000 0.000000 51.808199 0.000000 215.000000 0.912508 -0.402697 0.071862
7.23000002 -19.15999985 -0.61000001 202 74 117 0.000000 0.000000 0.000000 0.000000 51.808199 0.000000 215.000000 0.981063 0.162089 0.106028
7.21999979 -19.12999916 -0.66000003 202 74 117 0.000000 0.000000 0.000000 0.000000 51.808199 0.000000 215.000000 0.925966 0.377341 0.014166
7.23999977 -19.18000031 -0.67000002 202 74 117 0.000000 0.000000 0.000000 0.000000 51.808199 0.000000 215.000000 0.860615 -0.441691 -0.253479
7.19000006 -19.15999985 -0.63000000 202 74 117 0.000000 0.000000 0.000000 0.000000 51.808199 0.000000 215.000000 0.952481 0.145203 0.267760
7.17000008 -19.13999939 -0.62000000 202 74 117 0.000000 0.000000 0.000000 0.000000 51.808199 0.000000 215.000000 0.998643 -0.011407 -0.050814
7.19000006 -19.15999985 -0.61000001 202 74 117 0.000000 0.000000 0.000000 0.000000 51.808199 0.000000 215.000000 0.930472 0.326847 -0.165510
7.19000006 -19.15999985 -0.62000000 202 74 117 0.000000 0.000000 0.000000 0.000000 51.808199 0.000000 215.000000 0.968902 0.247303 0.008363
7.19999981 -19.13999939 -0.63000000 202 74 117 0.000000 0.000000 0.000000 0.000000 51.808199 0.000000 215.000000 0.976318 -0.216310 -0.003508
7.19000006 -19.12999916 -0.60000002 202 74 117 0.000000 0.000000 0.000000 0.000000 51.808199 0.000000 215.000000 0.813519 0.491271 0.311191
7.19000006 -19.14999962 -0.62000000 202 74 117 0.000000 0.000000 0.000000 0.000000 51.808199 0.000000 215.000000 0.967690 -0.223706 0.116327
7.19000006 -19.14999962 -0.63000000 202 74 117 0.000000 0.000000 0.000000 0.000000 51.808199 0.000000 215.000000 0.959071 -0.064785 -0.275654
7.19999981 -19.13999939 -0.63000000 202 74 117 0.000000 0.000000 0.000000 0.000000 51.808199 0.000000 215.000000 0.976318 -0.216310 -0.003508
7.17999983 -19.12999916 -0.63000000 202 74 117 0.000000 0.000000 0.000000 0.000000 51.808199 0.000000 215.000000 0.891089 0.096523 0.443446
7.19000006 -19.15999985 -0.60000002 202 74 117 0.000000 0.000000 0.000000 0.000000 51.808199 0.000000 215.000000 0.951581 0.140135 0.273596
7.19999981 -19.13999939 -0.63999999 202 74 117 0.000000 0.000000 0.000000 0.000000 51.808199 0.000000 215.000000 0.984737 -0.172012 -0.026552
7.17999983 -19.12999916 -0.64999998 202 74 117 0.000000 0.000000 0.000000 0.000000 51.808199 0.000000 215.000000 0.988900 0.144856 0.033077
7.17999983 -19.13999939 -0.67000002 202 74 117 0.000000 0.000000 0.000000 0.000000 51.808199 0.000000 215.000000 0.901927 0.183271 0.391075
7.17999983 -19.12999916 -0.64999998 202 74 117 0.000000 0.000000 0.000000 0.000000 51.808199 0.000000 215.000000 0.988900 0.144856 0.033077
7.19999981 -19.12999916 -0.63999999 202 74 117 0.000000 0.000000 0.000000 0.000000 51.808199 0.000000 215.000000 0.917294 0.386877 -0.094327
7.17999983 -19.13999939 -0.66000003 202 74 117 0.000000 0.000000 0.000000 0.000000 51.808199 0.000000 215.000000 0.913927 -0.080121 0.397891
7.17999983 -19.13999939 -0.63999999 202 74 117 0.000000 0.000000 0.000000 0.000000 51.808199 0.000000 215.000000 0.955838 0.260443 0.136171
7.17999983 -19.12999916 -0.66000003 202 74 117 0.000000 0.000000 0.000000 0.000000 51.808199 0.000000 215.000000 0.817742 0.363617 0.446185
7.19999981 -19.12999916 -0.64999998 202 74 117 0.000000 0.000000 0.000000 0.000000 51.808199 0.000000 215.000000 0.887378 0.429937 -0.166474
7.19000006 -19.20999908 -0.61000001 202 74 117 0.000000 0.000000 0.000000 0.000000 51.808199 0.000000 215.000000 0.849940 -0.506441 0.145327
7.19000006 -19.19000053 -0.60000002 202 74 117 0.000000 0.000000 0.000000 0.000000 51.808199 0.000000 215.000000 0.960925 -0.189013 -0.202230
7.19999981 -19.20999908 -0.61000001 202 74 117 0.000000 0.000000 0.000000 0.000000 51.808199 0.000000 215.000000 0.958844 -0.281277 -0.038754
7.17999983 -19.19000053 -0.58999997 202 74 117 0.000000 0.000000 0.000000 0.000000 51.808199 0.000000 215.000000 0.988312 -0.049589 -0.144153
7.17999983 -19.19000053 -0.61000001 202 74 117 0.000000 0.000000 0.000000 0.000000 51.808199 0.000000 215.000000 0.982757 -0.174686 0.060605
7.19000006 -19.17000008 -0.58999997 202 74 117 0.000000 0.000000 0.000000 0.000000 51.808199 0.000000 215.000000 0.937485 0.236118 -0.255678
7.19999981 -19.20999908 -0.63000000 202 74 117 0.000000 0.000000 0.000000 0.000000 51.808199 0.000000 215.000000 0.834049 -0.542060 0.102630
7.19000006 -19.18000031 -0.61000001 202 74 117 0.000000 0.000000 0.000000 0.000000 51.808199 0.000000 215.000000 0.933672 -0.341851 -0.106744
7.19000006 -19.19000053 -0.58999997 202 74 117 0.000000 0.000000 0.000000 0.000000 51.808199 0.000000 215.000000 0.999777 -0.009043 0.019091
7.19000006 -19.18000031 -0.58999997 202 74 117 0.000000 0.000000 0.000000 0.000000 51.808199 0.000000 215.000000 0.885760 -0.446446 -0.126945
7.19999981 -19.20999908 -0.62000000 202 74 117 0.000000 0.000000 0.000000 0.000000 51.808199 0.000000 215.000000 0.847682 -0.522856 -0.089755
7.19999981 -19.20000076 -0.61000001 202 74 117 0.000000 0.000000 0.000000 0.000000 51.808199 0.000000 215.000000 0.772297 -0.634437 -0.032355
7.17999983 -19.20999908 -0.60000002 202 74 117 0.000000 0.000000 0.000000 0.000000 51.808199 0.000000 215.000000 0.994452 -0.054445 -0.090001
7.17999983 -19.18000031 -0.62000000 202 74 117 0.000000 0.000000 0.000000 0.000000 51.808199 0.000000 215.000000 0.994219 0.007573 0.107103
7.19999981 -19.17000008 -0.61000001 202 74 117 0.000000 0.000000 0.000000 0.000000 51.808199 0.000000 215.000000 0.892518 -0.099169 0.439974
7.19000006 -19.19000053 -0.62000000 202 74 117 0.000000 0.000000 0.000000 0.000000 51.808199 0.000000 215.000000 0.973787 0.163353 0.158288
7.19000006 -19.20000076 -0.67000002 202 74 117 0.000000 0.000000 0.000000 0.000000 51.808199 0.000000 215.000000 0.821658 -0.565335 -0.072625
7.19000006 -19.20999908 -0.63999999 202 74 117 0.000000 0.000000 0.000000 0.000000 51.808199 0.000000 215.000000 0.977654 -0.051836 -0.203728
7.17000008 -19.23999977 -0.54000002 202 74 117 0.000000 0.000000 0.000000 0.000000 51.808199 0.000000 215.000000 0.991178 -0.041913 -0.125738
7.17999983 -19.23999977 -0.50999999 202 74 117 0.000000 0.000000 0.000000 0.000000 51.808199 0.000000 215.000000 0.991232 -0.127428 0.034958
7.17999983 -19.25000000 -0.50999999 202 74 117 0.000000 0.000000 0.000000 0.000000 51.808199 0.000000 215.000000 0.973503 -0.212062 0.085569
7.17999983 -19.25000000 -0.50999999 202 74 117 0.000000 0.000000 0.000000 0.000000 51.808199 0.000000 215.000000 0.973503 -0.212062 0.085569
7.17999983 -19.23999977 -0.50999999 202 74 117 0.000000 0.000000 0.000000 0.000000 51.808199 0.000000 215.000000 0.991232 -0.127428 0.034958
7.17999983 -19.23999977 -0.51999998 202 74 117 0.000000 0.000000 0.000000 0.000000 51.808199 0.000000 215.000000 0.851431 -0.387580 0.353336
7.17999983 -19.23999977 -0.51999998 202 74 117 0.000000 0.000000 0.000000 0.000000 51.808199 0.000000 215.000000 0.851431 -0.387580 0.353336
7.17999983 -19.23999977 -0.51999998 202 74 117 0.000000 0.000000 0.000000 0.000000 51.808199 0.000000 215.000000 0.851431 -0.387580 0.353336
7.17999983 -19.22999954 -0.50999999 202 74 117 0.000000 0.000000 0.000000 0.000000 51.808199 0.000000 215.000000 0.891324 -0.393361 0.225409
7.17999983 -19.23999977 -0.56999999 202 74 117 0.000000 0.000000 0.000000 0.000000 51.808199 0.000000 215.000000 -0.746388 0.599348 -0.289285
7.19000006 -19.22999954 -0.55000001 202 74 117 0.000000 0.000000 0.000000 0.000000 51.808199 0.000000 215.000000 0.968389 -0.240539 -0.066055
7.19000006 -19.22999954 -0.55000001 202 74 117 0.000000 0.000000 0.000000 0.000000 51.808199 0.000000 215.000000 0.968389 -0.240539 -0.066055
7.17000008 -19.25000000 -0.56999999 202 74 117 0.000000 0.000000 0.000000 0.000000 51.808199 0.000000 215.000000 0.888578 -0.446401 0.105615
7.19999981 -19.21999931 -0.56999999 202 74 117 0.000000 0.000000 0.000000 0.000000 51.808199 0.000000 215.000000 0.987474 -0.149688 -0.049896
7.17000008 -19.25000000 -0.56000000 202 74 117 0.000000 0.000000 0.000000 0.000000 51.808199 0.000000 215.000000 0.965718 -0.255959 0.043278
7.17999983 -19.22999954 -0.56999999 202 74 117 0.000000 0.000000 0.000000 0.000000 51.808199 0.000000 215.000000 0.959624 -0.186630 0.210455
7.19000006 -19.23999977 -0.55000001 202 74 117 0.000000 0.000000 0.000000 0.000000 51.808199 0.000000 215.000000 0.794612 -0.600663 0.088290
7.19000006 -19.25000000 -0.57999998 202 74 117 0.000000 0.000000 0.000000 0.000000 51.808199 0.000000 215.000000 0.736314 -0.664624 -0.126951
7.19000006 -19.23999977 -0.57999998 202 74 117 0.000000 0.000000 0.000000 0.000000 51.808199 0.000000 215.000000 -0.678536 0.728364 0.095259
7.17000008 -19.27000046 -0.51999998 202 74 117 0.000000 0.000000 0.000000 0.000000 51.808199 0.000000 215.000000 0.707885 -0.630131 -0.319115
7.17000008 -19.27000046 -0.52999997 202 74 117 0.000000 0.000000 0.000000 0.000000 51.808199 0.000000 215.000000 -0.576431 0.795444 -0.187074
7.17999983 -19.27000046 -0.54000002 202 74 117 0.000000 0.000000 0.000000 0.000000 51.808199 0.000000 215.000000 -0.641473 0.705781 0.300640
7.17000008 -19.27000046 -0.54000002 202 74 117 0.000000 0.000000 0.000000 0.000000 51.808199 0.000000 215.000000 0.814500 -0.518602 0.260079
7.17999983 -19.26000023 -0.51999998 202 74 117 0.000000 0.000000 0.000000 0.000000 51.808199 0.000000 215.000000 0.821216 -0.460451 -0.337031
7.17000008 -19.27000046 -0.56999999 202 74 117 0.000000 0.000000 0.000000 0.000000 51.808199 0.000000 215.000000 0.889838 -0.319621 -0.325624
7.17000008 -19.27000046 -0.55000001 202 74 117 0.000000 0.000000 0.000000 0.000000 51.808199 0.000000 215.000000 0.798044 -0.593042 0.106894
7.17000008 -19.28000069 -0.55000001 202 74 117 0.000000 0.000000 0.000000 0.000000 51.808199 0.000000 215.000000 0.825389 -0.511834 -0.238241
7.17000008 -19.26000023 -0.55000001 202 74 117 0.000000 0.000000 0.000000 0.000000 51.808199 0.000000 215.000000 0.916970 -0.228883 -0.326770
7.19000006 -19.22999954 -0.63000000 202 74 117 0.000000 0.000000 0.000000 0.000000 51.808199 0.000000 215.000000 0.974804 -0.144648 -0.169805
7.19000006 -19.21999931 -0.63000000 202 74 117 0.000000 0.000000 0.000000 0.000000 51.808199 0.000000 215.000000 0.852681 -0.493814 0.170536
7.17999983 -19.21999931 -0.63000000 202 74 117 0.000000 0.000000 0.000000 0.000000 51.808199 0.000000 215.000000 0.766353 -0.601580 0.225398
7.19000006 -19.21999931 -0.63000000 202 74 117 0.000000 0.000000 0.000000 0.000000 51.808199 0.000000 215.000000 0.852681 -0.493814 0.170536
7.17999983 -19.22999954 -0.58999997 202 74 117 0.000000 0.000000 0.000000 0.000000 51.808199 0.000000 215.000000 -0.635724 0.743998 0.205721
7.17000008 -19.22999954 -0.58999997 202 74 117 0.000000 0.000000 0.000000 0.000000 51.808199 0.000000 215.000000 0.806186 -0.411908 -0.424730
7.19999981 -19.21999931 -0.58999997 202 74 117 0.000000 0.000000 0.000000 0.000000 51.808199 0.000000 215.000000 0.920792 -0.274370 -0.277243
7.19000006 -19.23999977 -0.64999998 202 74 117 0.000000 0.000000 0.000000 0.000000 51.808199 0.000000 215.000000 0.953692 -0.300580 0.011133
7.17000008 -19.23999977 -0.63999999 202 74 117 0.000000 0.000000 0.000000 0.000000 51.808199 0.000000 215.000000 0.829278 -0.557928 -0.031842
7.19999981 -19.21999931 -0.63999999 202 74 117 0.000000 0.000000 0.000000 0.000000 51.808199 0.000000 215.000000 0.941422 -0.335948 0.029380
7.17000008 -19.25000000 -0.67000002 202 74 117 0.000000 0.000000 0.000000 0.000000 51.808199 0.000000 215.000000 0.866832 -0.489455 0.095054
7.19999981 -19.29000092 -0.63000000 202 74 117 0.000000 0.000000 0.000000 0.000000 51.808199 0.000000 215.000000 0.547044 -0.703342 -0.453930
7.17000008 -19.26000023 -0.63000000 202 74 117 0.000000 0.000000 0.000000 0.000000 51.808199 0.000000 215.000000 0.721242 -0.672448 0.166206
7.17000008 -19.26000023 -0.67000002 202 74 117 0.000000 0.000000 0.000000 0.000000 51.808199 0.000000 215.000000 0.833876 -0.545939 0.081249
7.17000008 -19.26000023 -0.67000002 202 74 117 0.000000 0.000000 0.000000 0.000000 51.808199 0.000000 215.000000 0.833876 -0.545939 0.081249
7.17000008 -19.27000046 -0.63999999 202 74 117 0.000000 0.000000 0.000000 0.000000 51.808199 0.000000 215.000000 0.840228 -0.477716 -0.256523
7.21000004 -19.10000038 -0.69000000 202 74 117 0.000000 0.000000 0.000000 0.000000 51.808199 0.000000 215.000000 0.795501 0.571718 0.200791
7.21000004 -19.09000015 -0.70999998 202 74 117 0.000000 0.000000 0.000000 0.000000 51.808199 0.000000 215.000000 0.827233 0.544116 -0.140084
7.21999979 -19.12000084 -0.72000003 202 74 117 0.000000 0.000000 0.000000 0.000000 51.808199 0.000000 215.000000 0.987698 0.154149 0.026263
7.17999983 -19.06999969 -0.75000000 202 74 117 0.000000 0.000000 0.000000 0.000000 51.808199 0.000000 215.000000 0.709510 0.662314 0.240698
7.17999983 -19.10000038 -0.69999999 202 74 117 0.000000 0.000000 0.000000 0.000000 51.808199 0.000000 215.000000 0.978424 0.203293 -0.036854
7.19000006 -19.12000084 -0.73000002 202 74 117 0.000000 0.000000 0.000000 0.000000 51.808199 0.000000 215.000000 0.956082 -0.177349 0.233353
7.17999983 -19.09000015 -0.74000001 202 74 117 0.000000 0.000000 0.000000 0.000000 51.808199 0.000000 215.000000 0.830186 0.412721 0.374770
7.17999983 -19.12000084 -0.74000001 202 74 117 0.000000 0.000000 0.000000 0.000000 51.808199 0.000000 215.000000 0.896577 0.442311 0.022580
7.19000006 -19.12000084 -0.75000000 202 74 117 0.000000 0.000000 0.000000 0.000000 51.808199 0.000000 215.000000 0.969873 0.157588 0.185775
7.19000006 -19.09000015 -0.75000000 202 74 117 0.000000 0.000000 0.000000 0.000000 51.808199 0.000000 215.000000 0.999020 0.043969 -0.005113
7.17999983 -19.07999992 -0.79000002 202 74 117 0.000000 0.000000 0.000000 0.000000 51.808199 0.000000 215.000000 0.933979 0.112186 0.339260
7.17000008 -19.06999969 -0.76999998 202 74 117 0.000000 0.000000 0.000000 0.000000 51.808199 0.000000 215.000000 0.933947 0.294563 0.202425
7.17999983 -19.10000038 -0.77999997 202 74 117 0.000000 0.000000 0.000000 0.000000 51.808199 0.000000 215.000000 0.870501 0.119031 0.477556
7.19999981 -19.11000061 -0.80000001 202 74 117 0.000000 0.000000 0.000000 0.000000 51.808199 0.000000 215.000000 0.940731 -0.122470 0.316269
7.19000006 -19.12000084 -0.76999998 202 74 117 0.000000 0.000000 0.000000 0.000000 51.808199 0.000000 215.000000 0.964003 -0.265556 -0.013338
7.19000006 -19.12000084 -0.77999997 202 74 117 0.000000 0.000000 0.000000 0.000000 51.808199 0.000000 215.000000 0.968809 0.196850 0.150532
7.17999983 -19.10000038 -0.77999997 202 74 117 0.000000 0.000000 0.000000 0.000000 51.808199 0.000000 215.000000 0.870501 0.119031 0.477556
7.19000006 -19.10000038 -0.75999999 202 74 117 0.000000 0.000000 0.000000 0.000000 51.808199 0.000000 215.000000 0.942776 0.194060 0.271134
7.19000006 -19.10000038 -0.75999999 202 74 117 0.000000 0.000000 0.000000 0.000000 51.808199 0.000000 215.000000 0.942776 0.194060 0.271134
7.19999981 -19.12000084 -0.79000002 202 74 117 0.000000 0.000000 0.000000 0.000000 51.808199 0.000000 215.000000 0.991367 0.058181 -0.117504
7.19999981 -19.11000061 -0.79000002 202 74 117 0.000000 0.000000 0.000000 0.000000 51.808199 0.000000 215.000000 0.961569 0.274561 -0.001210
7.19999981 -19.11000061 -0.80000001 202 74 117 0.000000 0.000000 0.000000 0.000000 51.808199 0.000000 215.000000 0.940731 -0.122470 0.316269
7.19999981 -19.11000061 -0.81999999 202 74 117 0.000000 0.000000 0.000000 0.000000 51.808199 0.000000 215.000000 0.999478 0.029486 -0.013218
7.17000008 -19.11000061 -0.81999999 202 74 117 0.000000 0.000000 0.000000 0.000000 51.808199 0.000000 215.000000 0.952344 -0.023777 -0.304099
7.19000006 -19.12000084 -0.82999998 202 74 117 0.000000 0.000000 0.000000 0.000000 51.808199 0.000000 215.000000 0.929322 -0.203860 -0.307899
7.19000006 -19.12000084 -0.88000000 202 74 117 0.000000 0.000000 0.000000 0.000000 51.808199 0.000000 215.000000 0.896144 -0.236912 0.375233
7.19999981 -19.11000061 -0.85000002 202 74 117 0.000000 0.000000 0.000000 0.000000 51.808199 0.000000 215.000000 0.985814 0.147931 0.079291
7.19999981 -19.12000084 -0.85000002 202 74 117 0.000000 0.000000 0.000000 0.000000 51.808199 0.000000 215.000000 0.970496 -0.227986 -0.078487
7.19000006 -19.12000084 -0.87000000 202 74 117 0.000000 0.000000 0.000000 0.000000 51.808199 0.000000 215.000000 0.974582 -0.003518 -0.224001
7.17999983 -19.12000084 -0.92000002 202 74 117 0.000000 0.000000 0.000000 0.000000 51.808199 0.000000 215.000000 0.919801 -0.327581 -0.216003
7.17999983 -19.12000084 -0.92000002 202 74 117 0.000000 0.000000 0.000000 0.000000 51.808199 0.000000 215.000000 0.919801 -0.327581 -0.216003
7.19999981 -19.10000038 -0.94999999 202 74 117 0.000000 0.000000 0.000000 0.000000 51.808199 0.000000 215.000000 0.956285 -0.264392 0.124962
7.19000006 -19.11000061 -0.94999999 202 74 117 0.000000 0.000000 0.000000 0.000000 51.808199 0.000000 215.000000 0.910022 -0.224250 -0.348673
7.19999981 -19.11000061 -0.95999998 202 74 117 0.000000 0.000000 0.000000 0.000000 51.808199 0.000000 215.000000 0.880947 -0.312789 0.355099
7.23000002 -19.14999962 -0.69000000 202 74 117 0.000000 0.000000 0.000000 0.000000 51.808199 0.000000 215.000000 0.974941 -0.220764 0.027446
7.21999979 -19.12999916 -0.72000003 202 74 117 0.000000 0.000000 0.000000 0.000000 51.808199 0.000000 215.000000 0.989979 -0.141108 0.005555
7.21999979 -19.12999916 -0.75000000 202 74 117 0.000000 0.000000 0.000000 0.000000 51.808199 0.000000 215.000000 0.966927 0.254709 0.013279
7.21000004 -19.17000008 -0.70999998 202 74 117 0.000000 0.000000 0.000000 0.000000 51.808199 0.000000 215.000000 0.955017 -0.237080 0.178145
7.21000004 -19.20000076 -0.69999999 202 74 117 0.000000 0.000000 0.000000 0.000000 51.808199 0.000000 215.000000 0.924805 -0.368021 0.096419
7.21000004 -19.17000008 -0.72000003 202 74 117 0.000000 0.000000 0.000000 0.000000 51.808199 0.000000 215.000000 0.943615 -0.156138 0.291910
7.19000006 -19.13999939 -0.68000001 202 74 117 0.000000 0.000000 0.000000 0.000000 51.808199 0.000000 215.000000 0.973532 0.010646 0.228301
7.19000006 -19.14999962 -0.69000000 202 74 117 0.000000 0.000000 0.000000 0.000000 51.808199 0.000000 215.000000 0.947681 0.279047 -0.155026
7.19000006 -19.13999939 -0.69000000 202 74 117 0.000000 0.000000 0.000000 0.000000 51.808199 0.000000 215.000000 0.982903 -0.151123 0.105182
7.19000006 -19.14999962 -0.69000000 202 74 117 0.000000 0.000000 0.000000 0.000000 51.808199 0.000000 215.000000 0.947681 0.279047 -0.155026
7.19000006 -19.14999962 -0.69000000 202 74 117 0.000000 0.000000 0.000000 0.000000 51.808199 0.000000 215.000000 0.947681 0.279047 -0.155026
7.17999983 -19.12999916 -0.68000001 202 74 117 0.000000 0.000000 0.000000 0.000000 51.808199 0.000000 215.000000 0.958871 0.167968 -0.228807
7.19000006 -19.13999939 -0.69999999 202 74 117 0.000000 0.000000 0.000000 0.000000 51.808199 0.000000 215.000000 0.898320 0.003934 0.439324
7.19999981 -19.12999916 -0.70999998 202 74 117 0.000000 0.000000 0.000000 0.000000 51.808199 0.000000 215.000000 0.928777 -0.078846 0.362156
7.19999981 -19.13999939 -0.72000003 202 74 117 0.000000 0.000000 0.000000 0.000000 51.808199 0.000000 215.000000 0.959426 0.251931 0.126618
7.17999983 -19.12999916 -0.75000000 202 74 117 0.000000 0.000000 0.000000 0.000000 51.808199 0.000000 215.000000 0.971059 0.170159 0.167600
7.19000006 -19.12999916 -0.73000002 202 74 117 0.000000 0.000000 0.000000 0.000000 51.808199 0.000000 215.000000 0.964622 0.013347 -0.263299
7.19000006 -19.12999916 -0.74000001 202 74 117 0.000000 0.000000 0.000000 0.000000 51.808199 0.000000 215.000000 0.954244 0.175324 -0.242241
7.19000006 -19.12999916 -0.73000002 202 74 117 0.000000 0.000000 0.000000 0.000000 51.808199 0.000000 215.000000 0.964622 0.013347 -0.263299
7.19999981 -19.17000008 -0.69000000 202 74 117 0.000000 0.000000 0.000000 0.000000 51.808199 0.000000 215.000000 0.984055 -0.177565 0.010310
7.19999981 -19.17000008 -0.70999998 202 74 117 0.000000 0.000000 0.000000 0.000000 51.808199 0.000000 215.000000 0.905994 -0.133856 0.401568
7.19000006 -19.17000008 -0.68000001 202 74 117 0.000000 0.000000 0.000000 0.000000 51.808199 0.000000 215.000000 0.999430 0.019436 -0.027620
7.19999981 -19.19000053 -0.75000000 202 74 117 0.000000 0.000000 0.000000 0.000000 51.808199 0.000000 215.000000 0.996455 -0.068459 0.048899
7.19999981 -19.19000053 -0.75000000 202 74 117 0.000000 0.000000 0.000000 0.000000 51.808199 0.000000 215.000000 0.996455 -0.068459 0.048899
7.19000006 -19.20999908 -0.74000001 202 74 117 0.000000 0.000000 0.000000 0.000000 51.808199 0.000000 215.000000 0.903846 -0.353042 -0.241709
7.19999981 -19.19000053 -0.74000001 202 74 117 0.000000 0.000000 0.000000 0.000000 51.808199 0.000000 215.000000 0.985892 -0.059929 -0.156286
7.19999981 -19.20000076 -0.73000002 202 74 117 0.000000 0.000000 0.000000 0.000000 51.808199 0.000000 215.000000 0.990430 -0.053815 -0.127096
7.19999981 -19.18000031 -0.75000000 202 74 117 0.000000 0.000000 0.000000 0.000000 51.808199 0.000000 215.000000 0.962626 -0.270701 -0.008497
7.21999979 -19.15999985 -0.76999998 202 74 117 0.000000 0.000000 0.000000 0.000000 51.808199 0.000000 215.000000 0.967006 -0.038090 -0.251889
7.21999979 -19.15999985 -0.75999999 202 74 117 0.000000 0.000000 0.000000 0.000000 51.808199 0.000000 215.000000 0.973856 0.109042 0.199283
7.21999979 -19.17000008 -0.76999998 202 74 117 0.000000 0.000000 0.000000 0.000000 51.808199 0.000000 215.000000 0.987534 -0.145740 0.059462
7.25000000 -19.18000031 -0.76999998 202 74 117 0.000000 0.000000 0.000000 0.000000 51.808199 0.000000 215.000000 0.982403 -0.058349 -0.177428
7.21999979 -19.18000031 -0.83999997 202 74 117 0.000000 0.000000 0.000000 0.000000 51.808199 0.000000 215.000000 -0.701371 0.701371 0.127114
7.21999979 -19.18000031 -0.83999997 202 74 117 0.000000 0.000000 0.000000 0.000000 51.808199 0.000000 215.000000 -0.701371 0.701371 0.127114
7.23000002 -19.17000008 -0.83999997 202 74 117 0.000000 0.000000 0.000000 0.000000 51.808199 0.000000 215.000000 0.956342 -0.274542 0.100188
7.19999981 -19.12999916 -0.76999998 202 74 117 0.000000 0.000000 0.000000 0.000000 51.808199 0.000000 215.000000 0.966705 -0.222098 -0.127097
7.19999981 -19.13999939 -0.79000002 202 74 117 0.000000 0.000000 0.000000 0.000000 51.808199 0.000000 215.000000 0.958925 0.078097 0.272698
7.19000006 -19.13999939 -0.80000001 202 74 117 0.000000 0.000000 0.000000 0.000000 51.808199 0.000000 215.000000 0.985362 0.050381 -0.162860
7.19999981 -19.12999916 -0.77999997 202 74 117 0.000000 0.000000 0.000000 0.000000 51.808199 0.000000 215.000000 0.965941 0.229619 0.119300
7.19999981 -19.12999916 -0.76999998 202 74 117 0.000000 0.000000 0.000000 0.000000 51.808199 0.000000 215.000000 0.966705 -0.222098 -0.127097
7.17999983 -19.13999939 -0.83999997 202 74 117 0.000000 0.000000 0.000000 0.000000 51.808199 0.000000 215.000000 0.991692 -0.126053 0.025657
7.19999981 -19.20000076 -0.75999999 202 74 117 0.000000 0.000000 0.000000 0.000000 51.808199 0.000000 215.000000 0.852746 -0.323455 -0.410123
7.19999981 -19.20000076 -0.76999998 202 74 117 0.000000 0.000000 0.000000 0.000000 51.808199 0.000000 215.000000 0.841231 -0.390068 -0.374403
7.19999981 -19.18000031 -0.80000001 202 74 117 0.000000 0.000000 0.000000 0.000000 51.808199 0.000000 215.000000 0.723865 -0.686299 -0.070797
7.19999981 -19.19000053 -0.76999998 202 74 117 0.000000 0.000000 0.000000 0.000000 51.808199 0.000000 215.000000 0.833249 -0.454926 -0.314227
7.19999981 -19.18000031 -0.76999998 202 74 117 0.000000 0.000000 0.000000 0.000000 51.808199 0.000000 215.000000 0.900806 -0.424804 0.089942
7.19999981 -19.18000031 -0.77999997 202 74 117 0.000000 0.000000 0.000000 0.000000 51.808199 0.000000 215.000000 0.862450 -0.505480 0.025887
7.19999981 -19.20000076 -0.80000001 202 74 117 0.000000 0.000000 0.000000 0.000000 51.808199 0.000000 215.000000 0.809058 -0.582808 0.075894
7.19999981 -19.18000031 -0.77999997 202 74 117 0.000000 0.000000 0.000000 0.000000 51.808199 0.000000 215.000000 0.862450 -0.505480 0.025887
7.19999981 -19.17000008 -0.81999999 202 74 117 0.000000 0.000000 0.000000 0.000000 51.808199 0.000000 215.000000 -0.664746 0.738771 0.111038
7.19999981 -19.17000008 -0.83999997 202 74 117 0.000000 0.000000 0.000000 0.000000 51.808199 0.000000 215.000000 0.859287 -0.399561 -0.319340
