//X Y Z R G B PointSourceId ScanDirectionFlag NumberOfReturns ReturnNumber GpsTime Intensity Classification Nx Ny Nz
10.47999954 -8.77999973 -0.16000000 59 20 216 0.000000 0.000000 0.000000 0.000000 51.808199 0.000000 202.000000 0.132284 0.934173 -0.331393
10.47999954 -8.81000042 -0.20999999 59 20 216 0.000000 0.000000 0.000000 0.000000 51.808199 0.000000 202.000000 -0.264526 0.736554 -0.622507
10.51000023 -8.78999996 -0.23999999 59 20 216 0.000000 0.000000 0.000000 0.000000 51.808199 0.000000 202.000000 -0.157409 0.888132 -0.431791
10.43000031 -8.75000000 -0.17000000 59 20 216 0.000000 0.000000 0.000000 0.000000 51.808199 0.000000 202.000000 -0.291359 0.948579 -0.123728
10.44999981 -8.73999977 -0.17000000 59 20 216 0.000000 0.000000 0.000000 0.000000 51.808199 0.000000 202.000000 -0.214389 0.976131 0.034733
10.43999958 -8.75000000 -0.18000001 59 20 216 0.000000 0.000000 0.000000 0.000000 51.808199 0.000000 202.000000 -0.453797 0.889983 -0.044702
10.46000004 -8.77000046 -0.22000000 59 20 216 0.000000 0.000000 0.000000 0.000000 51.808199 0.000000 202.000000 0.044521 0.989729 -0.135845
10.47000027 -8.77000046 -0.20999999 59 20 216 0.000000 0.000000 0.000000 0.000000 51.808199 0.000000 202.000000 -0.154746 0.948662 -0.275852
10.44999981 -8.77999973 -0.20000000 59 20 216 0.000000 0.000000 0.000000 0.000000 51.808199 0.000000 202.000000 -0.025361 0.969759 -0.242742
10.47000027 -8.77999973 -0.20999999 59 20 216 0.000000 0.000000 0.000000 0.000000 51.808199 0.000000 202.000000 -0.132878 0.966270 -0.220604
10.47000027 -8.77999973 -0.22000000 59 20 216 0.000000 0.000000 0.000000 0.000000 51.808199 0.000000 202.000000 -0.079243 0.991117 -0.106806
10.57999992 -8.86999989 -0.01000000 59 20 216 0.000000 0.000000 0.000000 0.000000 51.808199 0.000000 202.000000 0.453279 -0.670720 -0.587089
10.57999992 -8.86999989 -0.01000000 59 20 216 0.000000 0.000000 0.000000 0.000000 51.808199 0.000000 202.000000 0.453279 -0.670720 -0.587089
10.57999992 -8.84000015 -0.08000000 59 20 216 0.000000 0.000000 0.000000 0.000000 51.808199 0.000000 202.000000 -0.332589 0.869024 -0.366308
10.57999992 -8.85999966 -0.12000000 59 20 216 0.000000 0.000000 0.000000 0.000000 51.808199 0.000000 202.000000 -0.039104 0.891303 -0.451719
10.57999992 -8.85999966 -0.12000000 59 20 216 0.000000 0.000000 0.000000 0.000000 51.808199 0.000000 202.000000 -0.039104 0.891303 -0.451719
10.53999996 -8.82999992 -0.25000000 59 20 216 0.000000 0.000000 0.000000 0.000000 51.808199 0.000000 202.000000 -0.085598 0.784890 -0.613694
10.57999992 -8.93999958 -0.23999999 59 20 216 0.000000 0.000000 0.000000 0.000000 51.808199 0.000000 202.000000 -0.485261 0.039641 0.873470
10.53999996 -8.97999954 -0.23000000 59 20 216 0.000000 0.000000 0.000000 0.000000 51.808199 0.000000 202.000000 -0.375404 0.284945 0.881974
10.60000038 -8.94999981 -0.27000001 59 20 216 0.000000 0.000000 0.000000 0.000000 51.808199 0.000000 202.000000 0.803757 -0.006870 -0.594918
10.57999992 -8.94999981 -0.25000000 59 20 216 0.000000 0.000000 0.000000 0.000000 51.808199 0.000000 202.000000 -0.694435 0.199515 0.691342
10.47000027 -8.84000015 -0.17000000 59 20 216 0.000000 0.000000 0.000000 0.000000 51.808199 0.000000 202.000000 0.078192 0.988486 -0.129542
10.47000027 -8.82999992 -0.19000000 59 20 216 0.000000 0.000000 0.000000 0.000000 51.808199 0.000000 202.000000 0.262708 0.905535 -0.333154
10.60000038 -9.00000000 -0.20999999 59 20 216 0.000000 0.000000 0.000000 0.000000 51.808199 0.000000 202.000000 -0.594085 0.349941 0.724296
10.59000015 -9.01000023 -0.22000000 59 20 216 0.000000 0.000000 0.000000 0.000000 51.808199 0.000000 202.000000 -0.432605 0.027953 0.901150
10.38000011 -8.64000034 -0.38999999 59 20 216 0.000000 0.000000 0.000000 0.000000 51.808199 0.000000 202.000000 -0.309512 0.931337 -0.191869
10.39000034 -8.60000038 -0.43000001 59 20 216 0.000000 0.000000 0.000000 0.000000 51.808199 0.000000 202.000000 0.286669 -0.629392 0.722279
10.30000019 -8.63000011 -0.34999999 59 20 216 0.000000 0.000000 0.000000 0.000000 51.808199 0.000000 202.000000 0.346682 -0.836115 0.425116
10.31999969 -8.60999966 -0.37000000 59 20 216 0.000000 0.000000 0.000000 0.000000 51.808199 0.000000 202.000000 0.034715 0.831762 -0.554045
10.30000019 -8.63000011 -0.34000000 59 20 216 0.000000 0.000000 0.000000 0.000000 51.808199 0.000000 202.000000 -0.006557 0.900868 -0.434043
10.26000023 -8.61999989 -0.34999999 59 20 216 0.000000 0.000000 0.000000 0.000000 51.808199 0.000000 202.000000 -0.361044 0.921429 -0.143581
10.28999996 -8.64000034 -0.36000001 59 20 216 0.000000 0.000000 0.000000 0.000000 51.808199 0.000000 202.000000 -0.139042 0.766972 -0.626435
10.28999996 -8.61999989 -0.34999999 59 20 216 0.000000 0.000000 0.000000 0.000000 51.808199 0.000000 202.000000 -0.108352 0.940389 -0.322381
10.27000046 -8.61999989 -0.34999999 59 20 216 0.000000 0.000000 0.000000 0.000000 51.808199 0.000000 202.000000 -0.256977 0.958773 -0.121314
10.26000023 -8.61999989 -0.38999999 59 20 216 0.000000 0.000000 0.000000 0.000000 51.808199 0.000000 202.000000 -0.364584 0.931149 0.006352
10.28999996 -8.64000034 -0.38000000 59 20 216 0.000000 0.000000 0.000000 0.000000 51.808199 0.000000 202.000000 0.193609 0.797305 -0.571682
10.27999973 -8.63000011 -0.47999999 59 20 216 0.000000 0.000000 0.000000 0.000000 51.808199 0.000000 202.000000 -0.240832 0.684719 -0.687867
10.22999954 -8.60999966 -0.34999999 59 20 216 0.000000 0.000000 0.000000 0.000000 51.808199 0.000000 202.000000 -0.088115 0.810373 -0.579251
10.22999954 -8.64000034 -0.36000001 59 20 216 0.000000 0.000000 0.000000 0.000000 51.808199 0.000000 202.000000 -0.140099 0.904273 -0.403314
10.19999981 -8.63000011 -0.38999999 59 20 216 0.000000 0.000000 0.000000 0.000000 51.808199 0.000000 202.000000 -0.438720 0.851270 -0.287862
11.01000023 -8.81999969 -0.36000001 59 20 216 0.000000 0.000000 0.000000 0.000000 51.808199 0.000000 202.000000 0.703346 0.258793 -0.662066
10.98999977 -8.78999996 -0.37000000 59 20 216 0.000000 0.000000 0.000000 0.000000 51.808199 0.000000 202.000000 -0.450893 -0.009256 0.892530
11.00000000 -8.80000019 -0.36000001 59 20 216 0.000000 0.000000 0.000000 0.000000 51.808199 0.000000 202.000000 0.641474 0.365854 -0.674286
11.00000000 -8.81999969 -0.37000000 59 20 216 0.000000 0.000000 0.000000 0.000000 51.808199 0.000000 202.000000 0.749658 0.236322 -0.618194
10.97999954 -8.80000019 -0.37000000 59 20 216 0.000000 0.000000 0.000000 0.000000 51.808199 0.000000 202.000000 -0.510710 -0.425318 0.747181
11.05000019 -8.86999989 -0.34000000 59 20 216 0.000000 0.000000 0.000000 0.000000 51.808199 0.000000 202.000000 0.697773 0.098423 -0.709525
11.02999973 -8.84000015 -0.34000000 59 20 216 0.000000 0.000000 0.000000 0.000000 51.808199 0.000000 202.000000 -0.371118 -0.016694 0.928436
11.02999973 -8.89000034 -0.34999999 59 20 216 0.000000 0.000000 0.000000 0.000000 51.808199 0.000000 202.000000 -0.400317 -0.038314 0.915576
11.02999973 -8.85999966 -0.34999999 59 20 216 0.000000 0.000000 0.000000 0.000000 51.808199 0.000000 202.000000 -0.396864 -0.371766 0.839219
11.05000019 -8.86999989 -0.34000000 59 20 216 0.000000 0.000000 0.000000 0.000000 51.808199 0.000000 202.000000 0.697773 0.098423 -0.709525
11.02000046 -8.82999992 -0.36000001 59 20 216 0.000000 0.000000 0.000000 0.000000 51.808199 0.000000 202.000000 -0.578269 -0.017942 0.815649
11.02000046 -8.89999962 -0.34999999 59 20 216 0.000000 0.000000 0.000000 0.000000 51.808199 0.000000 202.000000 -0.568062 -0.087726 0.818297
10.97000027 -8.89000034 -0.37000000 59 20 216 0.000000 0.000000 0.000000 0.000000 51.808199 0.000000 202.000000 -0.528454 0.095952 0.843522
11.01000023 -8.92000008 -0.34000000 59 20 216 0.000000 0.000000 0.000000 0.000000 51.808199 0.000000 202.000000 0.616255 0.236780 -0.751109
10.96000004 -8.94999981 -0.34999999 59 20 216 0.000000 0.000000 0.000000 0.000000 51.808199 0.000000 202.000000 0.705546 -0.092410 -0.702613
10.96000004 -8.94999981 -0.34999999 59 20 216 0.000000 0.000000 0.000000 0.000000 51.808199 0.000000 202.000000 0.705546 -0.092410 -0.702613
10.97999954 -8.98999977 -0.37000000 59 20 216 0.000000 0.000000 0.000000 0.000000 51.808199 0.000000 202.000000 -0.275733 -0.030912 0.960737
11.00000000 -9.00000000 -0.34999999 59 20 216 0.000000 0.000000 0.000000 0.000000 51.808199 0.000000 202.000000 0.717205 -0.230698 -0.657568
10.89999962 -8.89000034 -0.41000000 59 20 216 0.000000 0.000000 0.000000 0.000000 51.808199 0.000000 202.000000 0.716443 -0.169563 -0.676726
10.85999966 -8.89000034 -0.41000000 59 20 216 0.000000 0.000000 0.000000 0.000000 51.808199 0.000000 202.000000 -0.682396 0.061775 0.728368
10.93000031 -8.90999985 -0.34000000 59 20 216 0.000000 0.000000 0.000000 0.000000 51.808199 0.000000 202.000000 0.739147 0.240105 -0.629295
10.93000031 -8.98999977 -0.37000000 59 20 216 0.000000 0.000000 0.000000 0.000000 51.808199 0.000000 202.000000 -0.498574 0.300402 0.813131
10.93000031 -8.94999981 -0.38000000 59 20 216 0.000000 0.000000 0.000000 0.000000 51.808199 0.000000 202.000000 0.798882 -0.026490 -0.600904
10.86999989 -8.93000031 -0.37000000 59 20 216 0.000000 0.000000 0.000000 0.000000 51.808199 0.000000 202.000000 -0.646127 0.061604 0.760740
10.88000011 -8.94999981 -0.37000000 59 20 216 0.000000 0.000000 0.000000 0.000000 51.808199 0.000000 202.000000 -0.568459 0.241401 0.786498
10.89000034 -8.97000027 -0.41000000 59 20 216 0.000000 0.000000 0.000000 0.000000 51.808199 0.000000 202.000000 -0.631114 0.271840 0.726497
10.81999969 -8.89000034 -0.34999999 59 20 216 0.000000 0.000000 0.000000 0.000000 51.808199 0.000000 202.000000 -0.673271 0.133455 0.727252
10.84000015 -8.89000034 -0.43000001 59 20 216 0.000000 0.000000 0.000000 0.000000 51.808199 0.000000 202.000000 -0.705781 -0.300640 0.641473
10.81999969 -8.88000011 -0.43000001 59 20 216 0.000000 0.000000 0.000000 0.000000 51.808199 0.000000 202.000000 -0.618912 -0.110258 0.777683
10.81999969 -8.89000034 -0.44000000 59 20 216 0.000000 0.000000 0.000000 0.000000 51.808199 0.000000 202.000000 -0.358516 -0.355439 0.863209
10.81000042 -8.88000011 -0.44000000 59 20 216 0.000000 0.000000 0.000000 0.000000 51.808199 0.000000 202.000000 -0.530027 -0.313560 0.787878
10.81000042 -8.86999989 -0.44000000 59 20 216 0.000000 0.000000 0.000000 0.000000 51.808199 0.000000 202.000000 -0.365364 -0.125464 0.922371
10.80000019 -8.86999989 -0.46000001 59 20 216 0.000000 0.000000 0.000000 0.000000 51.808199 0.000000 202.000000 -0.215223 -0.423024 0.880187
10.80000019 -8.90999985 -0.41999999 59 20 216 0.000000 0.000000 0.000000 0.000000 51.808199 0.000000 202.000000 -0.536617 0.054642 0.842055
10.78999996 -8.92000008 -0.43000001 59 20 216 0.000000 0.000000 0.000000 0.000000 51.808199 0.000000 202.000000 0.636413 -0.307734 -0.707304
10.76000023 -8.65999985 -0.38000000 59 20 216 0.000000 0.000000 0.000000 0.000000 51.808199 0.000000 202.000000 -0.032379 -0.640541 0.767241
10.76000023 -8.77000046 -0.33000001 59 20 216 0.000000 0.000000 0.000000 0.000000 51.808199 0.000000 202.000000 0.533000 0.456620 -0.712327
10.73999977 -8.81000042 -0.41000000 59 20 216 0.000000 0.000000 0.000000 0.000000 51.808199 0.000000 202.000000 -0.429301 -0.245530 0.869146
10.77000046 -8.76000023 -0.46000001 59 20 216 0.000000 0.000000 0.000000 0.000000 51.808199 0.000000 202.000000 -0.611600 -0.116425 0.782554
10.65999985 -8.65999985 -0.36000001 59 20 216 0.000000 0.000000 0.000000 0.000000 51.808199 0.000000 202.000000 0.182598 0.822446 -0.538740
10.65999985 -8.68000031 -0.36000001 59 20 216 0.000000 0.000000 0.000000 0.000000 51.808199 0.000000 202.000000 -0.232707 -0.598167 0.766840
10.61999989 -8.68999958 -0.34999999 59 20 216 0.000000 0.000000 0.000000 0.000000 51.808199 0.000000 202.000000 0.275987 0.687573 -0.671620
10.63000011 -8.68000031 -0.34999999 59 20 216 0.000000 0.000000 0.000000 0.000000 51.808199 0.000000 202.000000 -0.180754 -0.575680 0.797446
10.60999966 -8.71000004 -0.38999999 59 20 216 0.000000 0.000000 0.000000 0.000000 51.808199 0.000000 202.000000 0.449097 0.727504 -0.518699
10.60999966 -8.73999977 -0.36000001 59 20 216 0.000000 0.000000 0.000000 0.000000 51.808199 0.000000 202.000000 -0.075700 0.824129 -0.561321
10.64000034 -8.78999996 -0.47000000 59 20 216 0.000000 0.000000 0.000000 0.000000 51.808199 0.000000 202.000000 -0.532037 -0.257437 0.806637
10.72000027 -8.86999989 -0.41000000 59 20 216 0.000000 0.000000 0.000000 0.000000 51.808199 0.000000 202.000000 -0.045194 -0.334438 0.941333
10.73999977 -8.85000038 -0.46000001 59 20 216 0.000000 0.000000 0.000000 0.000000 51.808199 0.000000 202.000000 -0.397609 -0.066044 0.915175
10.57999992 -8.67000008 -0.36000001 59 20 216 0.000000 0.000000 0.000000 0.000000 51.808199 0.000000 202.000000 0.238381 0.828949 -0.505982
10.59000015 -8.68000031 -0.34999999 59 20 216 0.000000 0.000000 0.000000 0.000000 51.808199 0.000000 202.000000 0.164836 0.784863 -0.597343
10.60000038 -8.65999985 -0.37000000 59 20 216 0.000000 0.000000 0.000000 0.000000 51.808199 0.000000 202.000000 0.289350 0.877141 -0.383276
10.60000038 -8.68000031 -0.41000000 59 20 216 0.000000 0.000000 0.000000 0.000000 51.808199 0.000000 202.000000 0.216941 0.838940 -0.499116
10.57999992 -8.71000004 -0.37000000 59 20 216 0.000000 0.000000 0.000000 0.000000 51.808199 0.000000 202.000000 0.229189 0.870319 -0.435909
10.56999969 -8.69999981 -0.36000001 59 20 216 0.000000 0.000000 0.000000 0.000000 51.808199 0.000000 202.000000 0.361289 0.769561 -0.526542
10.56000042 -8.72000027 -0.38999999 59 20 216 0.000000 0.000000 0.000000 0.000000 51.808199 0.000000 202.000000 0.513387 0.573984 -0.637947
10.59000015 -8.72000027 -0.38000000 59 20 216 0.000000 0.000000 0.000000 0.000000 51.808199 0.000000 202.000000 0.177281 0.900817 -0.396359
10.56999969 -8.71000004 -0.41000000 59 20 216 0.000000 0.000000 0.000000 0.000000 51.808199 0.000000 202.000000 -0.120705 -0.710821 0.692939
10.56000042 -8.71000004 -0.41000000 59 20 216 0.000000 0.000000 0.000000 0.000000 51.808199 0.000000 202.000000 0.067550 -0.777540 0.625194
10.53999996 -8.67000008 -0.34000000 59 20 216 0.000000 0.000000 0.000000 0.000000 51.808199 0.000000 202.000000 -0.219571 -0.621339 0.752148
10.52999973 -8.69999981 -0.36000001 59 20 216 0.000000 0.000000 0.000000 0.000000 51.808199 0.000000 202.000000 0.203332 -0.551901 0.808741
10.52999973 -8.71000004 -0.38999999 59 20 216 0.000000 0.000000 0.000000 0.000000 51.808199 0.000000 202.000000 -0.449196 -0.532073 0.717719
10.56000042 -8.68000031 -0.47999999 59 20 216 0.000000 0.000000 0.000000 0.000000 51.808199 0.000000 202.000000 0.400339 0.799069 -0.448572
10.52999973 -8.68000031 -0.44999999 59 20 216 0.000000 0.000000 0.000000 0.000000 51.808199 0.000000 202.000000 0.509801 0.573737 -0.641037
10.53999996 -8.68000031 -0.44000000 59 20 216 0.000000 0.000000 0.000000 0.000000 51.808199 0.000000 202.000000 0.217494 0.838038 -0.500389
10.57999992 -8.75000000 -0.38000000 59 20 216 0.000000 0.000000 0.000000 0.000000 51.808199 0.000000 202.000000 0.453439 0.709225 -0.539808
10.52999973 -8.76000023 -0.34999999 59 20 216 0.000000 0.000000 0.000000 0.000000 51.808199 0.000000 202.000000 0.172596 -0.698021 0.694966
10.56000042 -8.76000023 -0.44999999 59 20 216 0.000000 0.000000 0.000000 0.000000 51.808199 0.000000 202.000000 0.465122 0.705185 -0.535141
10.56000042 -8.77000046 -0.41999999 59 20 216 0.000000 0.000000 0.000000 0.000000 51.808199 0.000000 202.000000 -0.536056 -0.278246 0.797009
10.52000046 -8.77000046 -0.49000001 59 20 216 0.000000 0.000000 0.000000 0.000000 51.808199 0.000000 202.000000 0.531925 0.705342 -0.468561
10.51000023 -8.69999981 -0.40000001 59 20 216 0.000000 0.000000 0.000000 0.000000 51.808199 0.000000 202.000000 -0.172384 -0.660550 0.730724
10.51000023 -8.71000004 -0.40000001 59 20 216 0.000000 0.000000 0.000000 0.000000 51.808199 0.000000 202.000000 -0.223225 -0.654066 0.722751
10.47000027 -8.71000004 -0.40000001 59 20 216 0.000000 0.000000 0.000000 0.000000 51.808199 0.000000 202.000000 -0.045335 0.939092 -0.340664
10.51000023 -8.65999985 -0.49000001 59 20 216 0.000000 0.000000 0.000000 0.000000 51.808199 0.000000 202.000000 -0.116425 -0.611600 0.782554
10.50000000 -8.67000008 -0.50000000 59 20 216 0.000000 0.000000 0.000000 0.000000 51.808199 0.000000 202.000000 0.027181 0.928044 -0.371477
10.51000023 -8.76000023 -0.34999999 59 20 216 0.000000 0.000000 0.000000 0.000000 51.808199 0.000000 202.000000 -0.001254 0.939536 -0.342448
10.51000023 -8.76000023 -0.34999999 59 20 216 0.000000 0.000000 0.000000 0.000000 51.808199 0.000000 202.000000 -0.001254 0.939536 -0.342448
10.51000023 -8.75000000 -0.46000001 59 20 216 0.000000 0.000000 0.000000 0.000000 51.808199 0.000000 202.000000 0.592335 0.534958 -0.602461
10.52000046 -8.75000000 -0.51999998 59 20 216 0.000000 0.000000 0.000000 0.000000 51.808199 0.000000 202.000000 0.638691 0.457645 -0.618575
10.52999973 -8.75000000 -0.50999999 59 20 216 0.000000 0.000000 0.000000 0.000000 51.808199 0.000000 202.000000 0.609121 0.507882 -0.609121
10.52000046 -8.76000023 -0.55000001 59 20 216 0.000000 0.000000 0.000000 0.000000 51.808199 0.000000 202.000000 0.574113 0.473685 -0.667845
10.55000019 -8.77000046 -0.56000000 59 20 216 0.000000 0.000000 0.000000 0.000000 51.808199 0.000000 202.000000 -0.454481 -0.180910 0.872192
10.55000019 -8.76000023 -0.56000000 59 20 216 0.000000 0.000000 0.000000 0.000000 51.808199 0.000000 202.000000 -0.151197 -0.439190 0.885580
10.53999996 -8.77000046 -0.56999999 59 20 216 0.000000 0.000000 0.000000 0.000000 51.808199 0.000000 202.000000 -0.169332 -0.340064 0.925031
10.43999958 -8.72000027 -0.56000000 59 20 216 0.000000 0.000000 0.000000 0.000000 51.808199 0.000000 202.000000 0.502548 0.512565 -0.696220
10.51000023 -8.73999977 -0.55000001 59 20 216 0.000000 0.000000 0.000000 0.000000 51.808199 0.000000 202.000000 -0.520218 -0.386495 0.761574
10.51000023 -8.75000000 -0.55000001 59 20 216 0.000000 0.000000 0.000000 0.000000 51.808199 0.000000 202.000000 -0.463475 -0.486566 0.740570
10.51000023 -8.78999996 -0.56000000 59 20 216 0.000000 0.000000 0.000000 0.000000 51.808199 0.000000 202.000000 -0.454897 -0.501214 0.736107
10.50000000 -8.81999969 -0.57999998 59 20 216 0.000000 0.000000 0.000000 0.000000 51.808199 0.000000 202.000000 -0.326388 -0.461989 0.824643
10.46000004 -8.76000023 -0.57999998 59 20 216 0.000000 0.000000 0.000000 0.000000 51.808199 0.000000 202.000000 -0.205067 -0.471505 0.857689
10.35999966 -8.64999962 -0.38999999 59 20 216 0.000000 0.000000 0.000000 0.000000 51.808199 0.000000 202.000000 -0.020215 0.871937 -0.489201
10.35999966 -8.64999962 -0.40000001 59 20 216 0.000000 0.000000 0.000000 0.000000 51.808199 0.000000 202.000000 -0.126503 -0.647400 0.751579
10.35000038 -8.64999962 -0.38999999 59 20 216 0.000000 0.000000 0.000000 0.000000 51.808199 0.000000 202.000000 0.280813 0.872797 -0.399210
10.35000038 -8.67000008 -0.47999999 59 20 216 0.000000 0.000000 0.000000 0.000000 51.808199 0.000000 202.000000 0.055984 0.891655 -0.449241
10.36999989 -8.69999981 -0.49000001 59 20 216 0.000000 0.000000 0.000000 0.000000 51.808199 0.000000 202.000000 0.355852 0.838683 -0.412287
10.32999992 -8.71000004 -0.37000000 59 20 216 0.000000 0.000000 0.000000 0.000000 51.808199 0.000000 202.000000 0.233503 0.802568 -0.548963
10.31000042 -8.67000008 -0.43000001 59 20 216 0.000000 0.000000 0.000000 0.000000 51.808199 0.000000 202.000000 -0.226659 0.938621 -0.260033
10.31999969 -8.65999985 -0.43000001 59 20 216 0.000000 0.000000 0.000000 0.000000 51.808199 0.000000 202.000000 0.082486 -0.609240 0.788684
10.31000042 -8.68999958 -0.44000000 59 20 216 0.000000 0.000000 0.000000 0.000000 51.808199 0.000000 202.000000 0.199566 0.808930 -0.552997
10.30000019 -8.68000031 -0.47999999 59 20 216 0.000000 0.000000 0.000000 0.000000 51.808199 0.000000 202.000000 -0.236686 0.863827 -0.444728
10.34000015 -8.67000008 -0.50000000 59 20 216 0.000000 0.000000 0.000000 0.000000 51.808199 0.000000 202.000000 -0.119715 0.940234 -0.318792
10.30000019 -8.68999958 -0.47999999 59 20 216 0.000000 0.000000 0.000000 0.000000 51.808199 0.000000 202.000000 -0.196460 0.847326 -0.493399
10.31999969 -8.71000004 -0.49000001 59 20 216 0.000000 0.000000 0.000000 0.000000 51.808199 0.000000 202.000000 -0.167265 -0.580154 0.797147
10.27000046 -8.68000031 -0.41999999 59 20 216 0.000000 0.000000 0.000000 0.000000 51.808199 0.000000 202.000000 0.061798 0.977859 -0.199934
10.27999973 -8.67000008 -0.44999999 59 20 216 0.000000 0.000000 0.000000 0.000000 51.808199 0.000000 202.000000 -0.123183 0.976753 -0.175442
10.26000023 -8.65999985 -0.41999999 59 20 216 0.000000 0.000000 0.000000 0.000000 51.808199 0.000000 202.000000 -0.064786 -0.689607 0.721280
10.27999973 -8.68999958 -0.44000000 59 20 216 0.000000 0.000000 0.000000 0.000000 51.808199 0.000000 202.000000 -0.165040 0.971046 -0.172716
10.35999966 -8.68999958 -0.51999998 59 20 216 0.000000 0.000000 0.000000 0.000000 51.808199 0.000000 202.000000 0.045782 0.847654 -0.528570
10.35000038 -8.68999958 -0.51999998 59 20 216 0.000000 0.000000 0.000000 0.000000 51.808199 0.000000 202.000000 0.133057 0.885614 -0.444953
10.35999966 -8.69999981 -0.54000002 59 20 216 0.000000 0.000000 0.000000 0.000000 51.808199 0.000000 202.000000 0.051244 0.928969 -0.366594
10.36999989 -8.69999981 -0.52999997 59 20 216 0.000000 0.000000 0.000000 0.000000 51.808199 0.000000 202.000000 0.189695 0.877893 -0.439682
10.40999985 -8.76000023 -0.57999998 59 20 216 0.000000 0.000000 0.000000 0.000000 51.808199 0.000000 202.000000 0.606243 0.558960 -0.565715
10.35000038 -8.80000019 -0.56000000 59 20 216 0.000000 0.000000 0.000000 0.000000 51.808199 0.000000 202.000000 0.502755 0.703189 -0.502755
10.39000034 -8.76000023 -0.60000002 59 20 216 0.000000 0.000000 0.000000 0.000000 51.808199 0.000000 202.000000 0.082986 -0.700287 0.709022
10.40999985 -8.77999973 -0.62000000 59 20 216 0.000000 0.000000 0.000000 0.000000 51.808199 0.000000 202.000000 -0.070821 0.709654 -0.700982
10.35999966 -8.76000023 -0.58999997 59 20 216 0.000000 0.000000 0.000000 0.000000 51.808199 0.000000 202.000000 0.213053 -0.667151 0.713805
10.31999969 -8.68000031 -0.50999999 59 20 216 0.000000 0.000000 0.000000 0.000000 51.808199 0.000000 202.000000 0.146668 0.936208 -0.319380
10.31000042 -8.68000031 -0.51999998 59 20 216 0.000000 0.000000 0.000000 0.000000 51.808199 0.000000 202.000000 0.268905 0.673059 -0.688971
10.31000042 -8.68000031 -0.50999999 59 20 216 0.000000 0.000000 0.000000 0.000000 51.808199 0.000000 202.000000 0.147041 0.945652 -0.290036
10.34000015 -8.69999981 -0.55000001 59 20 216 0.000000 0.000000 0.000000 0.000000 51.808199 0.000000 202.000000 0.409979 0.782686 -0.468316
10.27000046 -8.68000031 -0.50999999 59 20 216 0.000000 0.000000 0.000000 0.000000 51.808199 0.000000 202.000000 0.418366 0.809483 -0.411955
10.27000046 -8.68000031 -0.51999998 59 20 216 0.000000 0.000000 0.000000 0.000000 51.808199 0.000000 202.000000 -0.142272 0.941708 -0.304869
10.27999973 -8.71000004 -0.50999999 59 20 216 0.000000 0.000000 0.000000 0.000000 51.808199 0.000000 202.000000 0.205568 0.896624 -0.392182
10.32999992 -8.78999996 -0.55000001 59 20 216 0.000000 0.000000 0.000000 0.000000 51.808199 0.000000 202.000000 0.486210 0.700075 -0.522968
10.31999969 -8.81999969 -0.67000002 59 20 216 0.000000 0.000000 0.000000 0.000000 51.808199 0.000000 202.000000 -0.119169 -0.354768 0.927329
10.32999992 -8.82999992 -0.67000002 59 20 216 0.000000 0.000000 0.000000 0.000000 51.808199 0.000000 202.000000 -0.044040 0.728785 -0.683325
10.34000015 -8.84000015 -0.68000001 59 20 216 0.000000 0.000000 0.000000 0.000000 51.808199 0.000000 202.000000 -0.196002 -0.668258 0.717645
10.31000042 -8.89000034 -0.69000000 59 20 216 0.000000 0.000000 0.000000 0.000000 51.808199 0.000000 202.000000 -0.168395 -0.229388 0.958658
10.30000019 -8.86999989 -0.68000001 59 20 216 0.000000 0.000000 0.000000 0.000000 51.808199 0.000000 202.000000 -0.155368 -0.314861 0.936335
10.31000042 -8.86999989 -0.68000001 59 20 216 0.000000 0.000000 0.000000 0.000000 51.808199 0.000000 202.000000 -0.051016 -0.357109 0.932669
10.32999992 -8.89000034 -0.68000001 59 20 216 0.000000 0.000000 0.000000 0.000000 51.808199 0.000000 202.000000 -0.217829 -0.070148 0.973463
10.22999954 -8.64999962 -0.37000000 59 20 216 0.000000 0.000000 0.000000 0.000000 51.808199 0.000000 202.000000 0.309893 -0.796186 0.519667
10.23999977 -8.64999962 -0.37000000 59 20 216 0.000000 0.000000 0.000000 0.000000 51.808199 0.000000 202.000000 0.069024 0.995924 -0.058068
11.01000023 -8.57999992 0.37000000 59 20 216 0.000000 0.000000 0.000000 0.000000 51.808199 0.000000 202.000000 0.738446 -0.507165 -0.444389
11.02999973 -8.57999992 0.23000000 59 20 216 0.000000 0.000000 0.000000 0.000000 51.808199 0.000000 202.000000 -0.165787 0.929244 -0.330181
11.02000046 -8.64000034 0.31000000 59 20 216 0.000000 0.000000 0.000000 0.000000 51.808199 0.000000 202.000000 -0.635321 0.771158 0.041034
10.94999981 -8.60999966 0.23999999 59 20 216 0.000000 0.000000 0.000000 0.000000 51.808199 0.000000 202.000000 -0.564423 0.825348 0.015106
10.98999977 -8.63000011 0.17000000 59 20 216 0.000000 0.000000 0.000000 0.000000 51.808199 0.000000 202.000000 -0.239950 0.896501 -0.372438
11.00000000 -8.63000011 0.12000000 59 20 216 0.000000 0.000000 0.000000 0.000000 51.808199 0.000000 202.000000 -0.279349 0.908249 -0.311525
10.97000027 -8.61999989 0.18000001 59 20 216 0.000000 0.000000 0.000000 0.000000 51.808199 0.000000 202.000000 -0.481083 0.864786 -0.143889
11.00000000 -8.64000034 0.06000000 59 20 216 0.000000 0.000000 0.000000 0.000000 51.808199 0.000000 202.000000 0.285214 0.802066 -0.524731
10.65999985 -8.56999969 -0.30000001 59 20 216 0.000000 0.000000 0.000000 0.000000 51.808199 0.000000 16.000000 0.405948 0.651174 -0.641232
10.63000011 -8.59000015 -0.28999999 59 20 216 0.000000 0.000000 0.000000 0.000000 51.808199 0.000000 16.000000 0.031150 0.876276 -0.480801
10.55000019 -8.47000027 -0.04000000 59 20 216 0.000000 0.000000 0.000000 0.000000 51.808199 0.000000 203.000000 -0.454481 0.872192 0.180910
10.47999954 -8.50000000 -0.01000000 59 20 216 0.000000 0.000000 0.000000 0.000000 51.808199 0.000000 203.000000 -0.551072 0.831566 0.069415
11.06000042 -8.64999962 0.19000000 59 20 216 0.000000 0.000000 0.000000 0.000000 51.808199 0.000000 202.000000 -0.064985 0.877988 -0.474252
11.02000046 -8.65999985 0.27000001 59 20 216 0.000000 0.000000 0.000000 0.000000 51.808199 0.000000 202.000000 0.631142 -0.604214 -0.486400
11.02000046 -8.69999981 0.25999999 59 20 216 0.000000 0.000000 0.000000 0.000000 51.808199 0.000000 202.000000 0.676058 -0.704162 -0.217026
11.03999996 -8.68999958 0.16000000 59 20 216 0.000000 0.000000 0.000000 0.000000 51.808199 0.000000 202.000000 -0.388917 0.844996 -0.367050
11.10000038 -8.73999977 0.12000000 59 20 216 0.000000 0.000000 0.000000 0.000000 51.808199 0.000000 202.000000 -0.569961 -0.210471 0.794258
11.10000038 -8.77000046 0.09000000 59 20 216 0.000000 0.000000 0.000000 0.000000 51.808199 0.000000 202.000000 -0.569317 -0.348727 0.744492
11.06999969 -8.75000000 0.03000000 59 20 216 0.000000 0.000000 0.000000 0.000000 51.808199 0.000000 202.000000 -0.551142 0.137416 0.823019
11.00000000 -8.71000004 0.17000000 59 20 216 0.000000 0.000000 0.000000 0.000000 51.808199 0.000000 202.000000 -0.245464 0.935570 -0.253880
11.01000023 -8.69999981 0.17000000 59 20 216 0.000000 0.000000 0.000000 0.000000 51.808199 0.000000 202.000000 -0.469569 0.874912 -0.118463
10.94999981 -8.65999985 0.12000000 59 20 216 0.000000 0.000000 0.000000 0.000000 51.808199 0.000000 202.000000 -0.466627 0.842393 -0.269504
10.97000027 -8.69999981 0.11000000 59 20 216 0.000000 0.000000 0.000000 0.000000 51.808199 0.000000 202.000000 -0.181495 0.832479 -0.523487
10.98999977 -8.65999985 0.09000000 59 20 216 0.000000 0.000000 0.000000 0.000000 51.808199 0.000000 202.000000 0.269113 -0.641730 0.718165
10.98999977 -8.65999985 0.03000000 59 20 216 0.000000 0.000000 0.000000 0.000000 51.808199 0.000000 202.000000 0.370128 0.682681 -0.630041
11.00000000 -8.64999962 0.05000000 59 20 216 0.000000 0.000000 0.000000 0.000000 51.808199 0.000000 202.000000 0.243365 0.843361 -0.479078
10.98999977 -8.65999985 0.02000000 59 20 216 0.000000 0.000000 0.000000 0.000000 51.808199 0.000000 202.000000 -0.422452 -0.558300 0.714027
11.00000000 -8.72000027 0.05000000 59 20 216 0.000000 0.000000 0.000000 0.000000 51.808199 0.000000 202.000000 -0.133120 0.755343 -0.641667
10.97999954 -8.64999962 0.06000000 59 20 216 0.000000 0.000000 0.000000 0.000000 51.808199 0.000000 202.000000 -0.126792 0.840909 -0.526114
10.97000027 -8.68999958 0.02000000 59 20 216 0.000000 0.000000 0.000000 0.000000 51.808199 0.000000 202.000000 0.057317 0.851360 -0.521441
11.02000046 -8.81000042 0.11000000 59 20 216 0.000000 0.000000 0.000000 0.000000 51.808199 0.000000 202.000000 -0.444554 0.009234 0.895704
10.96000004 -8.73999977 0.16000000 59 20 216 0.000000 0.000000 0.000000 0.000000 51.808199 0.000000 202.000000 -0.625990 0.771018 0.116911
10.97999954 -8.73999977 0.10000000 59 20 216 0.000000 0.000000 0.000000 0.000000 51.808199 0.000000 202.000000 0.060711 -0.552047 0.831600
11.01000023 -8.77999973 0.06000000 59 20 216 0.000000 0.000000 0.000000 0.000000 51.808199 0.000000 202.000000 -0.631350 0.070470 0.772289
11.03999996 -8.82999992 0.05000000 59 20 216 0.000000 0.000000 0.000000 0.000000 51.808199 0.000000 202.000000 -0.246405 0.370345 0.895616
11.00000000 -8.85999966 0.08000000 59 20 216 0.000000 0.000000 0.000000 0.000000 51.808199 0.000000 202.000000 -0.474037 0.377623 0.795418
11.00000000 -8.89000034 0.05000000 59 20 216 0.000000 0.000000 0.000000 0.000000 51.808199 0.000000 202.000000 -0.176237 0.715676 0.675831
10.96000004 -8.85000038 0.03000000 59 20 216 0.000000 0.000000 0.000000 0.000000 51.808199 0.000000 202.000000 -0.655660 -0.004141 0.755045
10.94999981 -8.85999966 0.05000000 59 20 216 0.000000 0.000000 0.000000 0.000000 51.808199 0.000000 202.000000 -0.407229 0.197046 0.891817
10.97000027 -8.92000008 0.05000000 59 20 216 0.000000 0.000000 0.000000 0.000000 51.808199 0.000000 202.000000 0.733811 -0.482029 -0.478716
11.13000011 -8.72999954 -0.05000000 59 20 216 0.000000 0.000000 0.000000 0.000000 51.808199 0.000000 202.000000 0.535440 0.562465 -0.630029
11.11999989 -8.77000046 0.00000000 59 20 216 0.000000 0.000000 0.000000 0.000000 51.808199 0.000000 202.000000 -0.593482 -0.187656 0.782664
11.07999992 -8.76000023 -0.05000000 59 20 216 0.000000 0.000000 0.000000 0.000000 51.808199 0.000000 202.000000 -0.541172 0.179386 0.821556
11.06999969 -8.76000023 -0.05000000 59 20 216 0.000000 0.000000 0.000000 0.000000 51.808199 0.000000 202.000000 -0.647874 -0.038110 0.760793
11.05000019 -8.76000023 -0.07000000 59 20 216 0.000000 0.000000 0.000000 0.000000 51.808199 0.000000 202.000000 -0.524395 0.017707 0.851291
11.07999992 -8.75000000 -0.11000000 59 20 216 0.000000 0.000000 0.000000 0.000000 51.808199 0.000000 202.000000 -0.558142 0.001358 0.829744
11.01000023 -8.64999962 -0.01000000 59 20 216 0.000000 0.000000 0.000000 0.000000 51.808199 0.000000 202.000000 0.019996 0.891836 -0.451917
11.00000000 -8.71000004 -0.13000000 59 20 216 0.000000 0.000000 0.000000 0.000000 51.808199 0.000000 202.000000 0.321785 0.732505 -0.599910
11.01000023 -8.77000046 -0.12000000 59 20 216 0.000000 0.000000 0.000000 0.000000 51.808199 0.000000 202.000000 0.507357 -0.098613 -0.856075
11.07999992 -8.77000046 -0.19000000 59 20 216 0.000000 0.000000 0.000000 0.000000 51.808199 0.000000 202.000000 -0.509784 -0.395774 0.763861
11.02000046 -8.69999981 -0.17000000 59 20 216 0.000000 0.000000 0.000000 0.000000 51.808199 0.000000 202.000000 -0.152856 -0.658339 0.737037
11.01000023 -8.85999966 0.01000000 59 20 216 0.000000 0.000000 0.000000 0.000000 51.808199 0.000000 202.000000 -0.404068 0.449144 0.796868
11.02999973 -8.85999966 -0.22000000 59 20 216 0.000000 0.000000 0.000000 0.000000 51.808199 0.000000 202.000000 -0.255349 -0.043175 0.965885
11.05000019 -8.86999989 -0.23999999 59 20 216 0.000000 0.000000 0.000000 0.000000 51.808199 0.000000 202.000000 0.559732 -0.283830 -0.778550
11.00000000 -8.82999992 -0.20000000 59 20 216 0.000000 0.000000 0.000000 0.000000 51.808199 0.000000 202.000000 0.675713 0.279550 -0.682103
11.01000023 -8.86999989 -0.20000000 59 20 216 0.000000 0.000000 0.000000 0.000000 51.808199 0.000000 202.000000 -0.227187 0.119369 0.966508
11.01000023 -8.89000034 -0.31999999 59 20 216 0.000000 0.000000 0.000000 0.000000 51.808199 0.000000 202.000000 -0.487845 0.209939 0.847309
10.81000042 -8.72000027 0.19000000 59 20 216 0.000000 0.000000 0.000000 0.000000 51.808199 0.000000 202.000000 -0.195849 0.882055 0.428511
10.93000031 -8.67000008 0.15000001 59 20 216 0.000000 0.000000 0.000000 0.000000 51.808199 0.000000 202.000000 -0.550512 0.815964 0.176465
10.93999958 -8.65999985 0.10000000 59 20 216 0.000000 0.000000 0.000000 0.000000 51.808199 0.000000 202.000000 0.260480 0.877802 -0.402012
10.93000031 -8.65999985 0.09000000 59 20 216 0.000000 0.000000 0.000000 0.000000 51.808199 0.000000 202.000000 -0.184699 0.870302 -0.456576
10.90999985 -8.68999958 0.07000000 59 20 216 0.000000 0.000000 0.000000 0.000000 51.808199 0.000000 202.000000 -0.375299 0.891520 -0.253660
10.92000008 -8.67000008 0.08000000 59 20 216 0.000000 0.000000 0.000000 0.000000 51.808199 0.000000 202.000000 -0.395423 0.733419 -0.552935
10.89999962 -8.68000031 0.09000000 59 20 216 0.000000 0.000000 0.000000 0.000000 51.808199 0.000000 202.000000 -0.381733 0.790847 -0.478374
10.85999966 -8.71000004 0.04000000 59 20 216 0.000000 0.000000 0.000000 0.000000 51.808199 0.000000 202.000000 0.076342 0.793672 -0.603537
10.92000008 -8.73999977 0.12000000 59 20 216 0.000000 0.000000 0.000000 0.000000 51.808199 0.000000 202.000000 0.057124 0.975974 -0.210266
10.93999958 -8.73999977 0.06000000 59 20 216 0.000000 0.000000 0.000000 0.000000 51.808199 0.000000 202.000000 -0.201314 -0.585501 0.785278
10.80000019 -8.72000027 0.05000000 59 20 216 0.000000 0.000000 0.000000 0.000000 51.808199 0.000000 202.000000 -0.076746 0.877695 -0.473034
10.80000019 -8.72000027 0.05000000 59 20 216 0.000000 0.000000 0.000000 0.000000 51.808199 0.000000 202.000000 -0.076746 0.877695 -0.473034
10.81000042 -8.71000004 0.02000000 59 20 216 0.000000 0.000000 0.000000 0.000000 51.808199 0.000000 202.000000 0.010025 0.990209 -0.139231
10.88000011 -8.88000011 0.08000000 59 20 216 0.000000 0.000000 0.000000 0.000000 51.808199 0.000000 202.000000 -0.292626 0.749953 0.593246
10.85999966 -8.89999962 0.07000000 59 20 216 0.000000 0.000000 0.000000 0.000000 51.808199 0.000000 202.000000 -0.706421 0.658797 0.258757
10.81000042 -8.90999985 0.03000000 59 20 216 0.000000 0.000000 0.000000 0.000000 51.808199 0.000000 202.000000 -0.253076 0.845121 0.470875
10.64999962 -8.81000042 0.20000000 59 20 216 0.000000 0.000000 0.000000 0.000000 51.808199 0.000000 202.000000 -0.276874 0.317893 0.906799
10.77000046 -8.72000027 0.15000001 59 20 216 0.000000 0.000000 0.000000 0.000000 51.808199 0.000000 202.000000 -0.375722 0.822783 0.426452
10.75000000 -8.72000027 0.03000000 59 20 216 0.000000 0.000000 0.000000 0.000000 51.808199 0.000000 202.000000 0.036089 0.999156 -0.019591
10.76000023 -8.73999977 0.17000000 59 20 216 0.000000 0.000000 0.000000 0.000000 51.808199 0.000000 202.000000 -0.328911 0.880632 0.341036
10.73999977 -8.77000046 0.13000000 59 20 216 0.000000 0.000000 0.000000 0.000000 51.808199 0.000000 202.000000 0.454869 -0.826319 -0.332101
10.65999985 -8.71000004 0.13000000 59 20 216 0.000000 0.000000 0.000000 0.000000 51.808199 0.000000 202.000000 -0.457144 0.526963 0.716470
10.67000008 -8.78999996 0.16000000 59 20 216 0.000000 0.000000 0.000000 0.000000 51.808199 0.000000 202.000000 -0.479521 0.778613 0.404749
10.65999985 -8.77000046 0.06000000 59 20 216 0.000000 0.000000 0.000000 0.000000 51.808199 0.000000 202.000000 -0.473203 0.861852 0.182457
10.68000031 -8.78999996 0.04000000 59 20 216 0.000000 0.000000 0.000000 0.000000 51.808199 0.000000 202.000000 -0.639342 0.721838 0.264938
10.61999989 -8.81999969 0.05000000 59 20 216 0.000000 0.000000 0.000000 0.000000 51.808199 0.000000 202.000000 -0.631744 0.763170 0.135907
10.72000027 -8.88000011 0.20000000 59 20 216 0.000000 0.000000 0.000000 0.000000 51.808199 0.000000 202.000000 -0.238824 -0.018002 0.970896
10.68000031 -8.88000011 0.20000000 59 20 216 0.000000 0.000000 0.000000 0.000000 51.808199 0.000000 202.000000 -0.228538 -0.078677 0.970351
10.65999985 -8.89999962 0.20000000 59 20 216 0.000000 0.000000 0.000000 0.000000 51.808199 0.000000 202.000000 -0.202399 -0.029591 0.978856
10.67000008 -8.88000011 0.20000000 59 20 216 0.000000 0.000000 0.000000 0.000000 51.808199 0.000000 202.000000 -0.158577 0.059907 0.985528
10.68000031 -8.86999989 0.20000000 59 20 216 0.000000 0.000000 0.000000 0.000000 51.808199 0.000000 202.000000 -0.148041 0.057118 0.987330
10.67000008 -8.86999989 0.19000000 59 20 216 0.000000 0.000000 0.000000 0.000000 51.808199 0.000000 202.000000 -0.645603 0.258559 0.718571
10.61999989 -8.84000015 0.19000000 59 20 216 0.000000 0.000000 0.000000 0.000000 51.808199 0.000000 202.000000 -0.621026 0.229952 0.749299
10.64999962 -8.90999985 0.19000000 59 20 216 0.000000 0.000000 0.000000 0.000000 51.808199 0.000000 202.000000 -0.623352 0.113471 0.773664
10.60999966 -8.94999981 0.20000000 59 20 216 0.000000 0.000000 0.000000 0.000000 51.808199 0.000000 202.000000 -0.036257 -0.176606 0.983614
10.76000023 -8.84000015 0.13000000 59 20 216 0.000000 0.000000 0.000000 0.000000 51.808199 0.000000 202.000000 0.622757 -0.116859 -0.773639
10.75000000 -8.84000015 0.13000000 59 20 216 0.000000 0.000000 0.000000 0.000000 51.808199 0.000000 202.000000 -0.666137 0.199377 0.718686
10.71000004 -8.82999992 0.16000000 59 20 216 0.000000 0.000000 0.000000 0.000000 51.808199 0.000000 202.000000 0.724352 -0.420751 -0.546152
10.69999981 -8.85000038 0.15000001 59 20 216 0.000000 0.000000 0.000000 0.000000 51.808199 0.000000 202.000000 -0.411557 0.200652 0.889022
10.76000023 -8.89000034 0.02000000 59 20 216 0.000000 0.000000 0.000000 0.000000 51.808199 0.000000 202.000000 -0.335449 0.829960 0.445690
10.75000000 -8.86999989 0.04000000 59 20 216 0.000000 0.000000 0.000000 0.000000 51.808199 0.000000 202.000000 0.718529 -0.573837 -0.392971
10.64999962 -8.85999966 0.09000000 59 20 216 0.000000 0.000000 0.000000 0.000000 51.808199 0.000000 202.000000 -0.194352 0.221159 0.955676
10.65999985 -8.82999992 0.03000000 59 20 216 0.000000 0.000000 0.000000 0.000000 51.808199 0.000000 202.000000 0.782029 -0.616012 -0.094659
10.64999962 -8.88000011 0.06000000 59 20 216 0.000000 0.000000 0.000000 0.000000 51.808199 0.000000 202.000000 0.497198 -0.608435 -0.618548
10.67000008 -8.89999962 0.04000000 59 20 216 0.000000 0.000000 0.000000 0.000000 51.808199 0.000000 202.000000 -0.277660 0.194776 0.940727
10.64999962 -8.88000011 0.03000000 59 20 216 0.000000 0.000000 0.000000 0.000000 51.808199 0.000000 202.000000 -0.437794 0.036148 0.898348
10.61999989 -8.89999962 0.02000000 59 20 216 0.000000 0.000000 0.000000 0.000000 51.808199 0.000000 202.000000 0.760387 -0.302554 -0.574693
10.67000008 -8.92000008 0.05000000 59 20 216 0.000000 0.000000 0.000000 0.000000 51.808199 0.000000 202.000000 -0.400748 -0.003866 0.916180
10.92000008 -8.72000027 -0.07000000 59 20 216 0.000000 0.000000 0.000000 0.000000 51.808199 0.000000 202.000000 0.530460 0.641604 -0.554036
10.90999985 -8.68999958 -0.15000001 59 20 216 0.000000 0.000000 0.000000 0.000000 51.808199 0.000000 202.000000 -0.317982 -0.737654 0.595612
10.85000038 -8.71000004 0.01000000 59 20 216 0.000000 0.000000 0.000000 0.000000 51.808199 0.000000 202.000000 -0.159798 0.891125 -0.424688
10.85000038 -8.69999981 -0.02000000 59 20 216 0.000000 0.000000 0.000000 0.000000 51.808199 0.000000 202.000000 0.094520 -0.594751 0.798334
10.81999969 -8.72000027 0.01000000 59 20 216 0.000000 0.000000 0.000000 0.000000 51.808199 0.000000 202.000000 0.036926 0.865709 -0.499184
10.81000042 -8.71000004 -0.04000000 59 20 216 0.000000 0.000000 0.000000 0.000000 51.808199 0.000000 202.000000 0.037328 0.847485 -0.529505
10.81999969 -8.71000004 -0.11000000 59 20 216 0.000000 0.000000 0.000000 0.000000 51.808199 0.000000 202.000000 -0.344777 -0.684652 0.642168
10.81000042 -8.72000027 -0.12000000 59 20 216 0.000000 0.000000 0.000000 0.000000 51.808199 0.000000 202.000000 0.089888 0.848945 -0.520781
10.92000008 -8.72000027 -0.18000001 59 20 216 0.000000 0.000000 0.000000 0.000000 51.808199 0.000000 202.000000 -0.497603 -0.544515 0.675199
10.92000008 -8.72000027 -0.18000001 59 20 216 0.000000 0.000000 0.000000 0.000000 51.808199 0.000000 202.000000 -0.497603 -0.544515 0.675199
10.88000011 -8.77999973 -0.25999999 59 20 216 0.000000 0.000000 0.000000 0.000000 51.808199 0.000000 202.000000 0.522117 0.488755 -0.698936
10.78999996 -8.71000004 -0.31999999 59 20 216 0.000000 0.000000 0.000000 0.000000 51.808199 0.000000 202.000000 0.207238 0.799785 -0.563380
10.92000008 -8.89000034 -0.02000000 59 20 216 0.000000 0.000000 0.000000 0.000000 51.808199 0.000000 202.000000 -0.337450 0.328371 0.882213
10.88000011 -8.89999962 0.01000000 59 20 216 0.000000 0.000000 0.000000 0.000000 51.808199 0.000000 202.000000 0.651029 -0.526543 -0.546730
10.89000034 -8.89000034 0.01000000 59 20 216 0.000000 0.000000 0.000000 0.000000 51.808199 0.000000 202.000000 -0.524093 0.628574 0.574648
10.88000011 -8.90999985 0.00000000 59 20 216 0.000000 0.000000 0.000000 0.000000 51.808199 0.000000 202.000000 -0.660470 0.593587 0.459821
10.78999996 -8.86999989 -0.03000000 59 20 216 0.000000 0.000000 0.000000 0.000000 51.808199 0.000000 202.000000 -0.702951 0.001381 0.711237
10.84000015 -8.89999962 -0.12000000 59 20 216 0.000000 0.000000 0.000000 0.000000 51.808199 0.000000 202.000000 0.615642 -0.315093 -0.722289
10.81000042 -8.89999962 -0.11000000 59 20 216 0.000000 0.000000 0.000000 0.000000 51.808199 0.000000 202.000000 -0.675109 0.029598 0.737124
10.93999958 -8.86999989 -0.20999999 59 20 216 0.000000 0.000000 0.000000 0.000000 51.808199 0.000000 202.000000 -0.538373 -0.354065 0.764717
10.92000008 -8.89000034 -0.23000000 59 20 216 0.000000 0.000000 0.000000 0.000000 51.808199 0.000000 202.000000 0.785920 0.129253 -0.604668
10.93999958 -8.86999989 -0.22000000 59 20 216 0.000000 0.000000 0.000000 0.000000 51.808199 0.000000 202.000000 -0.693064 0.006945 0.720842
10.88000011 -8.92000008 -0.30000001 59 20 216 0.000000 0.000000 0.000000 0.000000 51.808199 0.000000 202.000000 0.672411 0.219977 -0.706734
10.82999992 -8.88000011 -0.23000000 59 20 216 0.000000 0.000000 0.000000 0.000000 51.808199 0.000000 202.000000 0.632574 -0.272469 -0.724990
10.84000015 -8.86999989 -0.22000000 59 20 216 0.000000 0.000000 0.000000 0.000000 51.808199 0.000000 202.000000 -0.494569 0.332363 0.803079
10.76000023 -8.73999977 -0.15000001 59 20 216 0.000000 0.000000 0.000000 0.000000 51.808199 0.000000 202.000000 0.204238 0.888950 -0.409945
10.76000023 -8.73999977 -0.15000001 59 20 216 0.000000 0.000000 0.000000 0.000000 51.808199 0.000000 202.000000 0.204238 0.888950 -0.409945
10.73999977 -8.80000019 -0.09000000 59 20 216 0.000000 0.000000 0.000000 0.000000 51.808199 0.000000 202.000000 -0.038309 -0.708005 0.705167
10.76000023 -8.81000042 -0.10000000 59 20 216 0.000000 0.000000 0.000000 0.000000 51.808199 0.000000 202.000000 0.393803 0.703572 -0.591528
10.72000027 -8.78999996 -0.08000000 59 20 216 0.000000 0.000000 0.000000 0.000000 51.808199 0.000000 202.000000 0.224946 0.824800 -0.518752
10.68999958 -8.81000042 -0.11000000 59 20 216 0.000000 0.000000 0.000000 0.000000 51.808199 0.000000 202.000000 0.310393 0.898506 -0.310393
10.61999989 -8.71000004 -0.08000000 59 20 216 0.000000 0.000000 0.000000 0.000000 51.808199 0.000000 202.000000 0.162447 -0.827137 0.538011
10.65999985 -8.76000023 -0.11000000 59 20 216 0.000000 0.000000 0.000000 0.000000 51.808199 0.000000 202.000000 -0.061807 -0.708624 0.702874
10.63000011 -8.80000019 -0.15000001 59 20 216 0.000000 0.000000 0.000000 0.000000 51.808199 0.000000 202.000000 0.244203 0.707401 -0.663287
10.77000046 -8.71000004 -0.31999999 59 20 216 0.000000 0.000000 0.000000 0.000000 51.808199 0.000000 202.000000 -0.052887 -0.704686 0.707545
10.60999966 -8.72000027 -0.18000001 59 20 216 0.000000 0.000000 0.000000 0.000000 51.808199 0.000000 202.000000 -0.167211 0.805925 -0.567913
10.63000011 -8.76000023 -0.18000001 59 20 216 0.000000 0.000000 0.000000 0.000000 51.808199 0.000000 202.000000 0.356989 0.776977 -0.518523
10.68999958 -8.89000034 0.00000000 59 20 216 0.000000 0.000000 0.000000 0.000000 51.808199 0.000000 202.000000 -0.351487 0.542618 0.762904
10.68999958 -8.89999962 0.01000000 59 20 216 0.000000 0.000000 0.000000 0.000000 51.808199 0.000000 202.000000 -0.586849 0.094186 0.804200
10.68999958 -8.89999962 0.00000000 59 20 216 0.000000 0.000000 0.000000 0.000000 51.808199 0.000000 202.000000 -0.601441 0.151485 0.784424
10.68999958 -8.89999962 0.01000000 59 20 216 0.000000 0.000000 0.000000 0.000000 51.808199 0.000000 202.000000 -0.586849 0.094186 0.804200
10.69999981 -8.89000034 0.01000000 59 20 216 0.000000 0.000000 0.000000 0.000000 51.808199 0.000000 202.000000 -0.450131 0.604079 0.657626
10.60999966 -8.85000038 -0.03000000 59 20 216 0.000000 0.000000 0.000000 0.000000 51.808199 0.000000 202.000000 -0.456682 0.806004 0.376562
10.64000034 -8.89999962 0.00000000 59 20 216 0.000000 0.000000 0.000000 0.000000 51.808199 0.000000 202.000000 -0.680649 0.570273 0.459898
10.64000034 -8.90999985 -0.25999999 59 20 216 0.000000 0.000000 0.000000 0.000000 51.808199 0.000000 202.000000 0.570310 -0.058022 -0.819378
10.61999989 -8.93999958 -0.25000000 59 20 216 0.000000 0.000000 0.000000 0.000000 51.808199 0.000000 202.000000 -0.704085 0.130054 0.698105
10.56999969 -8.76000023 0.20999999 59 20 216 0.000000 0.000000 0.000000 0.000000 51.808199 0.000000 202.000000 -0.405524 0.233213 0.883834
10.55000019 -8.75000000 0.16000000 59 20 216 0.000000 0.000000 0.000000 0.000000 51.808199 0.000000 202.000000 -0.494850 0.442241 0.748029
10.55000019 -8.77999973 0.10000000 59 20 216 0.000000 0.000000 0.000000 0.000000 51.808199 0.000000 202.000000 -0.195139 0.619222 0.760582
10.51000023 -8.71000004 0.03000000 59 20 216 0.000000 0.000000 0.000000 0.000000 51.808199 0.000000 202.000000 -0.628771 0.648785 0.428632
10.51000023 -8.75000000 0.05000000 59 20 216 0.000000 0.000000 0.000000 0.000000 51.808199 0.000000 202.000000 -0.209798 0.937837 0.276488
10.59000015 -8.86999989 0.17000000 59 20 216 0.000000 0.000000 0.000000 0.000000 51.808199 0.000000 202.000000 -0.163474 0.116767 0.979613
10.59000015 -8.93999958 0.16000000 59 20 216 0.000000 0.000000 0.000000 0.000000 51.808199 0.000000 202.000000 -0.507569 0.141885 0.849849
10.60000038 -8.92000008 0.13000000 59 20 216 0.000000 0.000000 0.000000 0.000000 51.808199 0.000000 202.000000 -0.144216 0.030660 0.989071
10.53999996 -8.93000031 0.06000000 59 20 216 0.000000 0.000000 0.000000 0.000000 51.808199 0.000000 202.000000 -0.357155 0.048406 0.932790
10.51000023 -8.89000034 0.03000000 59 20 216 0.000000 0.000000 0.000000 0.000000 51.808199 0.000000 202.000000 -0.604025 0.229436 0.763225
10.59000015 -8.72999954 -0.05000000 59 20 216 0.000000 0.000000 0.000000 0.000000 51.808199 0.000000 202.000000 -0.488648 0.863422 -0.125405
10.60000038 -8.72000027 -0.06000000 59 20 216 0.000000 0.000000 0.000000 0.000000 51.808199 0.000000 202.000000 -0.504738 0.825795 -0.251597
10.52000046 -8.72999954 -0.15000001 59 20 216 0.000000 0.000000 0.000000 0.000000 51.808199 0.000000 202.000000 -0.222036 0.929158 -0.295577
10.52000046 -8.72000027 -0.08000000 59 20 216 0.000000 0.000000 0.000000 0.000000 51.808199 0.000000 202.000000 -0.433738 0.883541 0.176708
10.56000042 -8.77000046 -0.02000000 59 20 216 0.000000 0.000000 0.000000 0.000000 51.808199 0.000000 202.000000 -0.426389 0.904262 0.022442
10.56000042 -8.77000046 -0.02000000 59 20 216 0.000000 0.000000 0.000000 0.000000 51.808199 0.000000 202.000000 -0.426389 0.904262 0.022442
10.59000015 -8.80000019 -0.02000000 59 20 216 0.000000 0.000000 0.000000 0.000000 51.808199 0.000000 202.000000 -0.665734 0.743379 -0.064704
10.56000042 -8.78999996 -0.06000000 59 20 216 0.000000 0.000000 0.000000 0.000000 51.808199 0.000000 202.000000 -0.615061 0.780257 0.113572
