//X Y Z R G B PointSourceId ScanDirectionFlag NumberOfReturns ReturnNumber GpsTime Intensity Classification Nx Ny Nz
12.40999985 11.88000011 -1.36000001 135 0 188 0.000000 0.000000 0.000000 0.000000 51.808199 0.000000 217.000000 0.602868 0.790623 -0.107079
12.42000008 11.85999966 -1.19000006 135 0 188 0.000000 0.000000 0.000000 0.000000 51.808199 0.000000 217.000000 0.569905 0.546230 -0.613874
12.42000008 11.84000015 -1.32000005 135 0 188 0.000000 0.000000 0.000000 0.000000 51.808199 0.000000 217.000000 0.627288 0.777384 0.046728
12.52999973 11.93999958 -1.44000006 135 0 188 0.000000 0.000000 0.000000 0.000000 51.808199 0.000000 217.000000 0.888048 0.277047 -0.366900
12.43000031 11.85999966 -1.42999995 135 0 188 0.000000 0.000000 0.000000 0.000000 51.808199 0.000000 217.000000 0.720462 0.674959 0.159260
12.36999989 11.96000004 -1.41999996 135 0 188 0.000000 0.000000 0.000000 0.000000 51.808199 0.000000 217.000000 0.945814 0.090767 -0.311764
12.39000034 11.93999958 -1.45000005 135 0 188 0.000000 0.000000 0.000000 0.000000 51.808199 0.000000 217.000000 0.766192 0.518928 -0.379029
12.39999962 11.92000008 -1.48000002 135 0 188 0.000000 0.000000 0.000000 0.000000 51.808199 0.000000 217.000000 0.783014 0.300182 -0.544775
12.38000011 11.94999981 -1.49000001 135 0 188 0.000000 0.000000 0.000000 0.000000 51.808199 0.000000 217.000000 0.779023 0.307467 -0.546431
12.36999989 11.93000031 -1.52999997 135 0 188 0.000000 0.000000 0.000000 0.000000 51.808199 0.000000 217.000000 0.748255 0.488421 -0.448953
12.39999962 11.86999989 -1.44000006 135 0 188 0.000000 0.000000 0.000000 0.000000 51.808199 0.000000 217.000000 0.542996 0.600510 -0.586977
12.40999985 11.89999962 -1.61000001 135 0 188 0.000000 0.000000 0.000000 0.000000 51.808199 0.000000 217.000000 0.700581 0.685116 0.199503
12.42000008 11.93000031 -1.65999997 135 0 188 0.000000 0.000000 0.000000 0.000000 51.808199 0.000000 217.000000 0.845851 0.530921 0.051559
12.38000011 11.94999981 -1.70000005 135 0 188 0.000000 0.000000 0.000000 0.000000 51.808199 0.000000 217.000000 0.893224 0.394544 -0.215606
12.36999989 11.96000004 -1.69000006 135 0 188 0.000000 0.000000 0.000000 0.000000 51.808199 0.000000 217.000000 0.505930 0.739942 -0.443306
12.39999962 11.89999962 -1.63000000 135 0 188 0.000000 0.000000 0.000000 0.000000 51.808199 0.000000 217.000000 0.769868 0.439691 -0.462575
12.39999962 11.89999962 -1.67999995 135 0 188 0.000000 0.000000 0.000000 0.000000 51.808199 0.000000 217.000000 0.507844 0.675449 -0.534661
12.64000034 11.60000038 -1.03999996 135 0 188 0.000000 0.000000 0.000000 0.000000 51.808199 0.000000 217.000000 0.456753 0.746965 -0.483136
12.40999985 11.90999985 -1.73000002 135 0 188 0.000000 0.000000 0.000000 0.000000 51.808199 0.000000 217.000000 0.834183 0.535108 -0.133411
12.39000034 11.96000004 -1.73000002 135 0 188 0.000000 0.000000 0.000000 0.000000 51.808199 0.000000 217.000000 0.767270 0.587663 -0.256807
13.09000015 12.39000034 -0.28999999 135 0 188 0.000000 0.000000 0.000000 0.000000 51.808199 0.000000 217.000000 -0.043681 0.917306 0.395779
13.06000042 12.35000038 -0.31000000 135 0 188 0.000000 0.000000 0.000000 0.000000 51.808199 0.000000 217.000000 0.233805 -0.670031 -0.704552
13.09000015 12.50000000 -0.55000001 135 0 188 0.000000 0.000000 0.000000 0.000000 51.808199 0.000000 217.000000 -0.133387 0.971818 0.194364
13.07999992 12.50000000 -0.58999997 135 0 188 0.000000 0.000000 0.000000 0.000000 51.808199 0.000000 217.000000 0.158196 0.963555 0.215721
13.06999969 12.50000000 -0.61000001 135 0 188 0.000000 0.000000 0.000000 0.000000 51.808199 0.000000 217.000000 -0.051281 0.996163 0.070921
13.06999969 12.50000000 -0.61000001 135 0 188 0.000000 0.000000 0.000000 0.000000 51.808199 0.000000 217.000000 -0.051281 0.996163 0.070921
13.05000019 12.47999954 -0.64999998 135 0 188 0.000000 0.000000 0.000000 0.000000 51.808199 0.000000 217.000000 0.100317 0.993022 0.061993
13.14000034 12.46000004 -0.41000000 135 0 188 0.000000 0.000000 0.000000 0.000000 51.808199 0.000000 217.000000 -0.367212 0.929137 -0.043125
13.11999989 12.42000008 -0.34999999 135 0 188 0.000000 0.000000 0.000000 0.000000 51.808199 0.000000 217.000000 -0.515119 0.841707 0.161810
13.11999989 12.42000008 -0.49000001 135 0 188 0.000000 0.000000 0.000000 0.000000 51.808199 0.000000 217.000000 -0.478613 0.769375 0.423074
13.10999966 12.39000034 -0.40000001 135 0 188 0.000000 0.000000 0.000000 0.000000 51.808199 0.000000 217.000000 0.344625 -0.752349 -0.561431
13.10000038 12.36999989 -0.44000000 135 0 188 0.000000 0.000000 0.000000 0.000000 51.808199 0.000000 217.000000 -0.564840 0.735111 0.374923
13.10000038 12.39000034 -0.49000001 135 0 188 0.000000 0.000000 0.000000 0.000000 51.808199 0.000000 217.000000 -0.261578 0.831167 0.490652
13.09000015 12.42000008 -0.47000000 135 0 188 0.000000 0.000000 0.000000 0.000000 51.808199 0.000000 217.000000 -0.482871 0.764409 0.427218
13.06999969 12.36999989 -0.41000000 135 0 188 0.000000 0.000000 0.000000 0.000000 51.808199 0.000000 217.000000 -0.485905 0.760760 0.430279
13.02000046 12.35999966 -0.34999999 135 0 188 0.000000 0.000000 0.000000 0.000000 51.808199 0.000000 217.000000 -0.445799 0.875414 0.186853
13.02000046 12.35999966 -0.34999999 135 0 188 0.000000 0.000000 0.000000 0.000000 51.808199 0.000000 217.000000 -0.445799 0.875414 0.186853
13.06999969 12.35999966 -0.44000000 135 0 188 0.000000 0.000000 0.000000 0.000000 51.808199 0.000000 217.000000 -0.425169 0.713026 0.557517
13.06999969 12.35999966 -0.44000000 135 0 188 0.000000 0.000000 0.000000 0.000000 51.808199 0.000000 217.000000 -0.425169 0.713026 0.557517
13.07999992 12.36999989 -0.44000000 135 0 188 0.000000 0.000000 0.000000 0.000000 51.808199 0.000000 217.000000 -0.499043 0.813897 0.297537
13.06999969 12.36999989 -0.46000001 135 0 188 0.000000 0.000000 0.000000 0.000000 51.808199 0.000000 217.000000 -0.014401 0.907290 0.420260
13.09000015 12.39000034 -0.49000001 135 0 188 0.000000 0.000000 0.000000 0.000000 51.808199 0.000000 217.000000 -0.557755 0.716641 0.418730
13.01000023 12.35000038 -0.41999999 135 0 188 0.000000 0.000000 0.000000 0.000000 51.808199 0.000000 217.000000 0.619909 -0.734648 -0.275692
13.03999996 12.34000015 -0.47000000 135 0 188 0.000000 0.000000 0.000000 0.000000 51.808199 0.000000 217.000000 -0.430319 0.586496 0.686184
13.02999973 12.32999992 -0.50000000 135 0 188 0.000000 0.000000 0.000000 0.000000 51.808199 0.000000 217.000000 -0.212967 0.874206 0.436358
13.10000038 12.42000008 -0.67000002 135 0 188 0.000000 0.000000 0.000000 0.000000 51.808199 0.000000 217.000000 0.194226 0.976076 0.097731
13.07999992 12.47000027 -0.56000000 135 0 188 0.000000 0.000000 0.000000 0.000000 51.808199 0.000000 217.000000 0.139155 0.848114 0.511212
13.06999969 12.47000027 -0.57999998 135 0 188 0.000000 0.000000 0.000000 0.000000 51.808199 0.000000 217.000000 -0.423014 0.890783 0.166029
13.06999969 12.47000027 -0.60000002 135 0 188 0.000000 0.000000 0.000000 0.000000 51.808199 0.000000 217.000000 0.036822 0.998391 0.043134
13.05000019 12.35000038 -0.61000001 135 0 188 0.000000 0.000000 0.000000 0.000000 51.808199 0.000000 217.000000 -0.344056 0.938908 0.008822
13.06000042 12.34000015 -0.58999997 135 0 188 0.000000 0.000000 0.000000 0.000000 51.808199 0.000000 217.000000 -0.284586 0.958147 0.031068
13.03999996 12.35999966 -0.64999998 135 0 188 0.000000 0.000000 0.000000 0.000000 51.808199 0.000000 217.000000 -0.450917 0.762460 0.464035
13.02000046 12.31000042 -0.64999998 135 0 188 0.000000 0.000000 0.000000 0.000000 51.808199 0.000000 217.000000 0.010684 0.972213 0.233853
13.03999996 12.32999992 -0.66000003 135 0 188 0.000000 0.000000 0.000000 0.000000 51.808199 0.000000 217.000000 -0.219387 0.942397 0.252502
13.02000046 12.31000042 -0.64999998 135 0 188 0.000000 0.000000 0.000000 0.000000 51.808199 0.000000 217.000000 0.010684 0.972213 0.233853
13.07999992 12.36999989 -0.69000000 135 0 188 0.000000 0.000000 0.000000 0.000000 51.808199 0.000000 217.000000 -0.052025 0.988470 0.142201
13.07999992 12.36999989 -0.82999998 135 0 188 0.000000 0.000000 0.000000 0.000000 51.808199 0.000000 217.000000 -0.193336 0.802270 0.564786
13.07999992 12.34000015 -0.76999998 135 0 188 0.000000 0.000000 0.000000 0.000000 51.808199 0.000000 217.000000 -0.325213 0.945267 -0.026574
13.06999969 12.34000015 -0.81000000 135 0 188 0.000000 0.000000 0.000000 0.000000 51.808199 0.000000 217.000000 -0.221149 0.784072 0.579935
13.06999969 12.39000034 -0.86000001 135 0 188 0.000000 0.000000 0.000000 0.000000 51.808199 0.000000 217.000000 -0.017768 0.843303 0.537144
13.06000042 12.34000015 -0.89999998 135 0 188 0.000000 0.000000 0.000000 0.000000 51.808199 0.000000 217.000000 0.214784 0.940892 0.261898
13.06000042 12.34000015 -0.88999999 135 0 188 0.000000 0.000000 0.000000 0.000000 51.808199 0.000000 217.000000 -0.310057 0.891227 0.331027
13.06000042 12.34000015 -0.88999999 135 0 188 0.000000 0.000000 0.000000 0.000000 51.808199 0.000000 217.000000 -0.310057 0.891227 0.331027
13.02999973 12.31000042 -1.00999999 135 0 188 0.000000 0.000000 0.000000 0.000000 51.808199 0.000000 217.000000 -0.068126 0.871733 0.485223
13.02000046 12.28999996 -0.83999997 135 0 188 0.000000 0.000000 0.000000 0.000000 51.808199 0.000000 217.000000 -0.019398 0.999486 -0.025523
13.03999996 12.27999973 -0.95999998 135 0 188 0.000000 0.000000 0.000000 0.000000 51.808199 0.000000 217.000000 -0.271813 0.926442 0.260428
13.03999996 12.30000019 -0.92000002 135 0 188 0.000000 0.000000 0.000000 0.000000 51.808199 0.000000 217.000000 -0.131345 0.990230 0.046827
13.02000046 12.30000019 -0.94000000 135 0 188 0.000000 0.000000 0.000000 0.000000 51.808199 0.000000 217.000000 -0.089356 0.995832 -0.018302
12.93000031 12.34000015 -0.46000001 135 0 188 0.000000 0.000000 0.000000 0.000000 51.808199 0.000000 217.000000 -0.565135 0.672460 0.477933
12.90999985 12.39999962 -0.55000001 135 0 188 0.000000 0.000000 0.000000 0.000000 51.808199 0.000000 217.000000 -0.563489 0.739885 0.367493
12.90999985 12.38000011 -0.64999998 135 0 188 0.000000 0.000000 0.000000 0.000000 51.808199 0.000000 217.000000 -0.390630 0.604900 0.693905
12.86999989 12.36999989 -0.67000002 135 0 188 0.000000 0.000000 0.000000 0.000000 51.808199 0.000000 217.000000 -0.037727 0.811830 0.582673
12.97000027 12.50000000 -0.73000002 135 0 188 0.000000 0.000000 0.000000 0.000000 51.808199 0.000000 217.000000 -0.307039 0.891163 0.333999
12.97000027 12.51000023 -0.75999999 135 0 188 0.000000 0.000000 0.000000 0.000000 51.808199 0.000000 217.000000 -0.553546 0.751589 0.358750
12.97000027 12.51000023 -0.87000000 135 0 188 0.000000 0.000000 0.000000 0.000000 51.808199 0.000000 217.000000 -0.101928 0.984504 0.142699
12.92000008 12.47999954 -0.94000000 135 0 188 0.000000 0.000000 0.000000 0.000000 51.808199 0.000000 217.000000 -0.341370 0.860377 0.378442
12.90999985 12.32999992 -0.68000001 135 0 188 0.000000 0.000000 0.000000 0.000000 51.808199 0.000000 217.000000 -0.295648 0.939198 0.174639
12.88000011 12.35999966 -0.82999998 135 0 188 0.000000 0.000000 0.000000 0.000000 51.808199 0.000000 217.000000 -0.329688 0.923974 0.193851
12.89999962 12.34000015 -0.77999997 135 0 188 0.000000 0.000000 0.000000 0.000000 51.808199 0.000000 217.000000 -0.363815 0.777756 0.512575
12.84000015 12.42000008 -0.98000002 135 0 188 0.000000 0.000000 0.000000 0.000000 51.808199 0.000000 217.000000 -0.577183 0.754036 0.313512
12.85000038 12.34000015 -0.91000003 135 0 188 0.000000 0.000000 0.000000 0.000000 51.808199 0.000000 217.000000 0.623251 -0.579337 -0.525288
12.81000042 12.36999989 -1.00999999 135 0 188 0.000000 0.000000 0.000000 0.000000 51.808199 0.000000 217.000000 0.666070 -0.616239 -0.420239
13.00000000 12.30000019 -0.63000000 135 0 188 0.000000 0.000000 0.000000 0.000000 51.808199 0.000000 217.000000 -0.499375 0.811287 0.304036
12.97000027 12.30000019 -0.69000000 135 0 188 0.000000 0.000000 0.000000 0.000000 51.808199 0.000000 217.000000 -0.411660 0.840538 0.352181
12.94999981 12.30000019 -0.69999999 135 0 188 0.000000 0.000000 0.000000 0.000000 51.808199 0.000000 217.000000 -0.305006 0.937099 0.169754
12.97999954 12.28999996 -0.79000002 135 0 188 0.000000 0.000000 0.000000 0.000000 51.808199 0.000000 217.000000 -0.380188 0.778172 0.499906
13.00000000 12.27999973 -0.81999999 135 0 188 0.000000 0.000000 0.000000 0.000000 51.808199 0.000000 217.000000 -0.254547 0.716210 0.649807
12.93999958 12.30000019 -0.82999998 135 0 188 0.000000 0.000000 0.000000 0.000000 51.808199 0.000000 217.000000 -0.088200 0.921355 0.378583
12.93999958 12.28999996 -0.89999998 135 0 188 0.000000 0.000000 0.000000 0.000000 51.808199 0.000000 217.000000 -0.037455 0.839279 0.542410
13.00000000 12.28999996 -0.93000001 135 0 188 0.000000 0.000000 0.000000 0.000000 51.808199 0.000000 217.000000 -0.101358 0.963541 0.247621
12.98999977 12.25000000 -0.88999999 135 0 188 0.000000 0.000000 0.000000 0.000000 51.808199 0.000000 217.000000 -0.207531 0.794769 0.570327
13.01000023 12.42000008 -1.08000004 135 0 188 0.000000 0.000000 0.000000 0.000000 51.808199 0.000000 217.000000 0.092168 0.909297 0.405813
12.90999985 12.47999954 -1.13999999 135 0 188 0.000000 0.000000 0.000000 0.000000 51.808199 0.000000 217.000000 0.393907 0.865983 0.308075
12.85000038 12.47000027 -1.15999997 135 0 188 0.000000 0.000000 0.000000 0.000000 51.808199 0.000000 217.000000 0.212562 0.976344 0.039630
12.86999989 12.47000027 -1.13000000 135 0 188 0.000000 0.000000 0.000000 0.000000 51.808199 0.000000 217.000000 -0.117834 0.833565 0.539708
12.97000027 12.40999985 -1.25999999 135 0 188 0.000000 0.000000 0.000000 0.000000 51.808199 0.000000 217.000000 0.504938 0.839554 0.200468
12.97999954 12.42000008 -1.29999995 135 0 188 0.000000 0.000000 0.000000 0.000000 51.808199 0.000000 217.000000 0.622140 0.782239 0.032301
12.97000027 12.40999985 -1.27999997 135 0 188 0.000000 0.000000 0.000000 0.000000 51.808199 0.000000 217.000000 0.612423 0.787400 -0.070278
12.93999958 12.43000031 -1.28999996 135 0 188 0.000000 0.000000 0.000000 0.000000 51.808199 0.000000 217.000000 0.435100 0.898665 0.055574
12.89999962 12.44999981 -1.33000004 135 0 188 0.000000 0.000000 0.000000 0.000000 51.808199 0.000000 217.000000 0.033332 0.987326 0.155168
12.90999985 12.44999981 -1.32000005 135 0 188 0.000000 0.000000 0.000000 0.000000 51.808199 0.000000 217.000000 0.314608 0.923895 0.217806
12.89999962 12.43999958 -1.28999996 135 0 188 0.000000 0.000000 0.000000 0.000000 51.808199 0.000000 217.000000 0.059331 0.998212 0.007286
12.88000011 12.46000004 -1.34000003 135 0 188 0.000000 0.000000 0.000000 0.000000 51.808199 0.000000 217.000000 0.131956 0.918138 0.373645
12.82999992 12.40999985 -1.01999998 135 0 188 0.000000 0.000000 0.000000 0.000000 51.808199 0.000000 217.000000 -0.311707 0.893362 0.323639
12.81999969 12.46000004 -1.08000004 135 0 188 0.000000 0.000000 0.000000 0.000000 51.808199 0.000000 217.000000 -0.125617 0.981764 0.142691
12.81999969 12.43999958 -1.13000000 135 0 188 0.000000 0.000000 0.000000 0.000000 51.808199 0.000000 217.000000 -0.378277 0.896384 0.231088
12.82999992 12.43999958 -1.15999997 135 0 188 0.000000 0.000000 0.000000 0.000000 51.808199 0.000000 217.000000 0.142410 0.974183 0.175177
12.80000019 12.40999985 -1.11000001 135 0 188 0.000000 0.000000 0.000000 0.000000 51.808199 0.000000 217.000000 -0.358151 0.929584 0.087190
12.80000019 12.42000008 -1.13999999 135 0 188 0.000000 0.000000 0.000000 0.000000 51.808199 0.000000 217.000000 0.126908 -0.838757 -0.529511
12.80000019 12.40999985 -1.16999996 135 0 188 0.000000 0.000000 0.000000 0.000000 51.808199 0.000000 217.000000 -0.307443 0.930751 0.197943
12.82999992 12.47000027 -1.24000001 135 0 188 0.000000 0.000000 0.000000 0.000000 51.808199 0.000000 217.000000 0.190484 0.980816 0.041410
12.80000019 12.43000031 -1.23000002 135 0 188 0.000000 0.000000 0.000000 0.000000 51.808199 0.000000 217.000000 -0.235698 0.944172 0.230185
12.76000023 12.43999958 -1.20000005 135 0 188 0.000000 0.000000 0.000000 0.000000 51.808199 0.000000 217.000000 -0.157623 0.984850 0.072293
12.78999996 12.42000008 -1.21000004 135 0 188 0.000000 0.000000 0.000000 0.000000 51.808199 0.000000 217.000000 -0.503370 0.794206 0.340374
12.77999973 12.42000008 -1.30999994 135 0 188 0.000000 0.000000 0.000000 0.000000 51.808199 0.000000 217.000000 -0.476790 0.805281 0.352410
12.77999973 12.42000008 -1.35000002 135 0 188 0.000000 0.000000 0.000000 0.000000 51.808199 0.000000 217.000000 -0.300279 0.857720 0.417311
12.73999977 12.40999985 -1.28999996 135 0 188 0.000000 0.000000 0.000000 0.000000 51.808199 0.000000 217.000000 -0.459235 0.835963 0.300449
12.72999954 12.38000011 -1.20000005 135 0 188 0.000000 0.000000 0.000000 0.000000 51.808199 0.000000 217.000000 -0.641409 0.755039 0.136056
12.72999954 12.38000011 -1.32000005 135 0 188 0.000000 0.000000 0.000000 0.000000 51.808199 0.000000 217.000000 -0.587102 0.753475 0.295951
12.93000031 12.39999962 -1.44000006 135 0 188 0.000000 0.000000 0.000000 0.000000 51.808199 0.000000 217.000000 0.678203 0.703148 -0.213595
12.97000027 12.39000034 -1.38000000 135 0 188 0.000000 0.000000 0.000000 0.000000 51.808199 0.000000 217.000000 0.592312 0.805708 0.001368
12.97000027 12.35999966 -1.48000002 135 0 188 0.000000 0.000000 0.000000 0.000000 51.808199 0.000000 217.000000 0.843737 0.527515 -0.099179
12.97000027 12.35000038 -1.50000000 135 0 188 0.000000 0.000000 0.000000 0.000000 51.808199 0.000000 217.000000 0.798859 0.538328 -0.268379
12.94999981 12.39000034 -1.50000000 135 0 188 0.000000 0.000000 0.000000 0.000000 51.808199 0.000000 217.000000 0.760911 0.646703 0.052821
12.93999958 12.35999966 -1.50999999 135 0 188 0.000000 0.000000 0.000000 0.000000 51.808199 0.000000 217.000000 0.569401 0.821545 -0.029093
12.92000008 12.39000034 -1.50999999 135 0 188 0.000000 0.000000 0.000000 0.000000 51.808199 0.000000 217.000000 0.507260 0.861665 -0.014880
12.96000004 12.35999966 -1.49000001 135 0 188 0.000000 0.000000 0.000000 0.000000 51.808199 0.000000 217.000000 0.254455 0.951850 -0.170983
12.94999981 12.35000038 -1.50000000 135 0 188 0.000000 0.000000 0.000000 0.000000 51.808199 0.000000 217.000000 0.698221 0.715147 -0.032443
12.94999981 12.32999992 -1.50000000 135 0 188 0.000000 0.000000 0.000000 0.000000 51.808199 0.000000 217.000000 0.747781 0.663286 -0.029573
12.85999966 12.43000031 -1.46000004 135 0 188 0.000000 0.000000 0.000000 0.000000 51.808199 0.000000 217.000000 0.358516 0.863209 0.355439
12.88000011 12.43000031 -1.50999999 135 0 188 0.000000 0.000000 0.000000 0.000000 51.808199 0.000000 217.000000 0.039012 0.993127 -0.110347
12.90999985 12.42000008 -1.47000003 135 0 188 0.000000 0.000000 0.000000 0.000000 51.808199 0.000000 217.000000 0.351690 0.933889 -0.064542
12.93999958 12.32999992 -1.59000003 135 0 188 0.000000 0.000000 0.000000 0.000000 51.808199 0.000000 217.000000 0.780675 0.606189 0.151923
12.93999958 12.31000042 -1.61000001 135 0 188 0.000000 0.000000 0.000000 0.000000 51.808199 0.000000 217.000000 0.865532 0.333607 -0.373578
12.93000031 12.32999992 -1.58000004 135 0 188 0.000000 0.000000 0.000000 0.000000 51.808199 0.000000 217.000000 0.906506 0.382365 -0.179010
12.92000008 12.35999966 -1.63000000 135 0 188 0.000000 0.000000 0.000000 0.000000 51.808199 0.000000 217.000000 0.837673 0.458467 -0.296838
12.92000008 12.35000038 -1.64999998 135 0 188 0.000000 0.000000 0.000000 0.000000 51.808199 0.000000 217.000000 0.826220 0.563145 0.015072
12.85999966 12.42000008 -1.58000004 135 0 188 0.000000 0.000000 0.000000 0.000000 51.808199 0.000000 217.000000 0.257048 0.966060 -0.025583
12.88000011 12.42000008 -1.55999994 135 0 188 0.000000 0.000000 0.000000 0.000000 51.808199 0.000000 217.000000 0.333867 0.937241 -0.100562
12.88000011 12.42000008 -1.53999996 135 0 188 0.000000 0.000000 0.000000 0.000000 51.808199 0.000000 217.000000 0.357982 0.932327 -0.051140
12.86999989 12.38000011 -1.67999995 135 0 188 0.000000 0.000000 0.000000 0.000000 51.808199 0.000000 217.000000 0.754913 0.650185 -0.085819
12.90999985 12.32999992 -1.62000000 135 0 188 0.000000 0.000000 0.000000 0.000000 51.808199 0.000000 217.000000 0.880570 0.472269 0.039469
12.89000034 12.36999989 -1.65999997 135 0 188 0.000000 0.000000 0.000000 0.000000 51.808199 0.000000 217.000000 0.825622 0.532805 -0.185652
12.88000011 12.39000034 -1.65999997 135 0 188 0.000000 0.000000 0.000000 0.000000 51.808199 0.000000 217.000000 0.390247 0.904859 -0.170108
12.76000023 12.43000031 -1.44000006 135 0 188 0.000000 0.000000 0.000000 0.000000 51.808199 0.000000 217.000000 -0.153487 0.944012 0.292033
12.76000023 12.40999985 -1.38999999 135 0 188 0.000000 0.000000 0.000000 0.000000 51.808199 0.000000 217.000000 -0.169745 0.985435 -0.010253
12.77000046 12.40999985 -1.38999999 135 0 188 0.000000 0.000000 0.000000 0.000000 51.808199 0.000000 217.000000 -0.263727 0.964591 0.003613
12.78999996 12.42000008 -1.37000000 135 0 188 0.000000 0.000000 0.000000 0.000000 51.808199 0.000000 217.000000 -0.157843 0.978127 0.135471
12.76000023 12.42000008 -1.40999997 135 0 188 0.000000 0.000000 0.000000 0.000000 51.808199 0.000000 217.000000 -0.149756 0.975304 0.162341
12.77999973 12.43999958 -1.52999997 135 0 188 0.000000 0.000000 0.000000 0.000000 51.808199 0.000000 217.000000 0.107596 0.987280 0.117055
12.76000023 12.44999981 -1.49000001 135 0 188 0.000000 0.000000 0.000000 0.000000 51.808199 0.000000 217.000000 0.353289 0.930911 -0.092688
12.75000000 12.39999962 -1.47000003 135 0 188 0.000000 0.000000 0.000000 0.000000 51.808199 0.000000 217.000000 -0.346027 0.933062 0.098288
12.75000000 12.42000008 -1.48000002 135 0 188 0.000000 0.000000 0.000000 0.000000 51.808199 0.000000 217.000000 0.126169 0.919229 0.372960
12.77000046 12.43000031 -1.50999999 135 0 188 0.000000 0.000000 0.000000 0.000000 51.808199 0.000000 217.000000 -0.125045 0.965557 0.228176
12.69999981 12.39999962 -1.44000006 135 0 188 0.000000 0.000000 0.000000 0.000000 51.808199 0.000000 217.000000 -0.422027 0.906235 0.025136
12.71000004 12.39999962 -1.38000000 135 0 188 0.000000 0.000000 0.000000 0.000000 51.808199 0.000000 217.000000 -0.493802 0.797435 0.346780
12.71000004 12.42000008 -1.47000003 135 0 188 0.000000 0.000000 0.000000 0.000000 51.808199 0.000000 217.000000 -0.327344 0.814406 0.479155
12.73999977 12.40999985 -1.51999998 135 0 188 0.000000 0.000000 0.000000 0.000000 51.808199 0.000000 217.000000 0.394680 0.886168 0.242765
12.69999981 12.43000031 -1.48000002 135 0 188 0.000000 0.000000 0.000000 0.000000 51.808199 0.000000 217.000000 0.107448 0.772745 0.625556
12.68000031 12.39999962 -1.48000002 135 0 188 0.000000 0.000000 0.000000 0.000000 51.808199 0.000000 217.000000 -0.232135 0.961327 0.148199
12.67000008 12.40999985 -1.51999998 135 0 188 0.000000 0.000000 0.000000 0.000000 51.808199 0.000000 217.000000 -0.435888 0.845406 0.308690
12.68999958 12.40999985 -1.52999997 135 0 188 0.000000 0.000000 0.000000 0.000000 51.808199 0.000000 217.000000 -0.168753 0.914671 0.367286
12.68000031 12.39999962 -1.49000001 135 0 188 0.000000 0.000000 0.000000 0.000000 51.808199 0.000000 217.000000 0.078922 0.929674 0.359831
12.68000031 12.40999985 -1.50999999 135 0 188 0.000000 0.000000 0.000000 0.000000 51.808199 0.000000 217.000000 -0.026084 0.841561 0.539532
12.75000000 12.43000031 -1.60000002 135 0 188 0.000000 0.000000 0.000000 0.000000 51.808199 0.000000 217.000000 0.087450 0.976729 0.195838
12.75000000 12.43000031 -1.55999994 135 0 188 0.000000 0.000000 0.000000 0.000000 51.808199 0.000000 217.000000 0.195070 0.975352 0.103126
12.77000046 12.42000008 -1.65999997 135 0 188 0.000000 0.000000 0.000000 0.000000 51.808199 0.000000 217.000000 0.388324 0.916990 -0.091290
12.77999973 12.43000031 -1.66999996 135 0 188 0.000000 0.000000 0.000000 0.000000 51.808199 0.000000 217.000000 0.285839 0.915556 0.282937
12.71000004 12.43000031 -1.57000005 135 0 188 0.000000 0.000000 0.000000 0.000000 51.808199 0.000000 217.000000 0.047195 0.995488 -0.082317
12.68999958 12.44999981 -1.53999996 135 0 188 0.000000 0.000000 0.000000 0.000000 51.808199 0.000000 217.000000 -0.138020 0.966141 0.217994
12.73999977 12.44999981 -1.58000004 135 0 188 0.000000 0.000000 0.000000 0.000000 51.808199 0.000000 217.000000 -0.153947 0.985963 0.064634
12.73999977 12.43999958 -1.64999998 135 0 188 0.000000 0.000000 0.000000 0.000000 51.808199 0.000000 217.000000 0.338229 0.878181 0.338229
12.73999977 12.43999958 -1.63000000 135 0 188 0.000000 0.000000 0.000000 0.000000 51.808199 0.000000 217.000000 0.093588 0.993386 0.066526
12.68000031 12.47000027 -1.62000000 135 0 188 0.000000 0.000000 0.000000 0.000000 51.808199 0.000000 217.000000 0.272313 0.952431 0.136821
12.98999977 12.28999996 -1.04999995 135 0 188 0.000000 0.000000 0.000000 0.000000 51.808199 0.000000 217.000000 0.184247 0.843341 0.504806
12.97000027 12.26000023 -1.09000003 135 0 188 0.000000 0.000000 0.000000 0.000000 51.808199 0.000000 217.000000 0.018966 0.942001 0.335074
12.92000008 12.25000000 -1.08000004 135 0 188 0.000000 0.000000 0.000000 0.000000 51.808199 0.000000 217.000000 -0.292709 0.795851 0.530040
12.90999985 12.23999977 -1.15999997 135 0 188 0.000000 0.000000 0.000000 0.000000 51.808199 0.000000 217.000000 -0.202282 0.881476 0.426711
12.84000015 12.28999996 -1.13000000 135 0 188 0.000000 0.000000 0.000000 0.000000 51.808199 0.000000 217.000000 0.025876 0.859361 0.510714
12.90999985 12.25000000 -1.15999997 135 0 188 0.000000 0.000000 0.000000 0.000000 51.808199 0.000000 217.000000 -0.228889 0.872173 0.432347
12.97999954 12.26000023 -1.24000001 135 0 188 0.000000 0.000000 0.000000 0.000000 51.808199 0.000000 217.000000 0.329349 0.855072 0.400477
12.96000004 12.25000000 -1.28999996 135 0 188 0.000000 0.000000 0.000000 0.000000 51.808199 0.000000 217.000000 0.293988 0.955770 0.008611
12.81999969 12.30000019 -1.14999998 135 0 188 0.000000 0.000000 0.000000 0.000000 51.808199 0.000000 217.000000 0.009385 0.867461 0.497416
12.90999985 12.22000027 -1.49000001 135 0 188 0.000000 0.000000 0.000000 0.000000 51.808199 0.000000 217.000000 0.743117 0.656395 0.130083
12.89999962 12.28999996 -1.69000006 135 0 188 0.000000 0.000000 0.000000 0.000000 51.808199 0.000000 217.000000 0.873808 0.137209 -0.466512
12.77999973 12.28999996 -1.48000002 135 0 188 0.000000 0.000000 0.000000 0.000000 51.808199 0.000000 217.000000 0.337814 0.894390 0.293169
12.81000042 12.21000004 -1.47000003 135 0 188 0.000000 0.000000 0.000000 0.000000 51.808199 0.000000 217.000000 0.606641 0.767177 -0.208388
12.76000023 12.17000008 -1.45000005 135 0 188 0.000000 0.000000 0.000000 0.000000 51.808199 0.000000 217.000000 -0.348484 0.845425 0.404741
12.75000000 12.17000008 -1.60000002 135 0 188 0.000000 0.000000 0.000000 0.000000 51.808199 0.000000 217.000000 0.962569 0.258126 -0.082651
12.71000004 12.22999954 -1.54999995 135 0 188 0.000000 0.000000 0.000000 0.000000 51.808199 0.000000 217.000000 0.215359 0.820197 0.529997
12.86999989 12.32999992 -1.78999996 135 0 188 0.000000 0.000000 0.000000 0.000000 51.808199 0.000000 217.000000 0.885180 0.274091 -0.375939
12.85000038 12.35999966 -1.76999998 135 0 188 0.000000 0.000000 0.000000 0.000000 51.808199 0.000000 217.000000 0.697386 0.554247 -0.454383
12.85999966 12.38000011 -1.74000001 135 0 188 0.000000 0.000000 0.000000 0.000000 51.808199 0.000000 217.000000 0.652181 0.675065 -0.344888
12.88000011 12.32999992 -1.74000001 135 0 188 0.000000 0.000000 0.000000 0.000000 51.808199 0.000000 217.000000 0.929507 0.244756 -0.275881
12.90999985 12.31999969 -1.71000004 135 0 188 0.000000 0.000000 0.000000 0.000000 51.808199 0.000000 217.000000 0.806724 0.560604 -0.186868
12.76000023 12.43000031 -1.71000004 135 0 188 0.000000 0.000000 0.000000 0.000000 51.808199 0.000000 217.000000 0.232187 0.965948 -0.114169
12.72999954 12.46000004 -1.75999999 135 0 188 0.000000 0.000000 0.000000 0.000000 51.808199 0.000000 217.000000 0.072674 0.974325 -0.213095
12.72000027 12.43999958 -1.77999997 135 0 188 0.000000 0.000000 0.000000 0.000000 51.808199 0.000000 217.000000 0.068353 0.993923 -0.086282
12.89000034 12.26000023 -1.75999999 135 0 188 0.000000 0.000000 0.000000 0.000000 51.808199 0.000000 217.000000 0.973392 0.103979 -0.204199
12.89000034 12.30000019 -1.75000000 135 0 188 0.000000 0.000000 0.000000 0.000000 51.808199 0.000000 217.000000 0.880129 0.403330 -0.250395
12.89000034 12.25000000 -1.75000000 135 0 188 0.000000 0.000000 0.000000 0.000000 51.808199 0.000000 217.000000 0.955195 -0.046811 -0.292252
12.67000008 11.60999966 -1.08000004 135 0 188 0.000000 0.000000 0.000000 0.000000 51.808199 0.000000 217.000000 0.845290 0.518269 -0.129932
12.63000011 12.44999981 -0.92000002 135 0 188 0.000000 0.000000 0.000000 0.000000 51.808199 0.000000 217.000000 -0.542470 0.673468 0.502162
12.63000011 12.39999962 -0.93000001 135 0 188 0.000000 0.000000 0.000000 0.000000 51.808199 0.000000 217.000000 0.599653 -0.565870 -0.565870
12.51000023 12.40999985 -1.03999996 135 0 188 0.000000 0.000000 0.000000 0.000000 51.808199 0.000000 217.000000 0.706561 -0.594565 -0.383750
12.51000023 12.40999985 -1.03999996 135 0 188 0.000000 0.000000 0.000000 0.000000 51.808199 0.000000 217.000000 0.706561 -0.594565 -0.383750
12.50000000 12.34000015 -1.10000002 135 0 188 0.000000 0.000000 0.000000 0.000000 51.808199 0.000000 217.000000 -0.663717 0.600188 0.446379
12.51000023 12.38000011 -1.15999997 135 0 188 0.000000 0.000000 0.000000 0.000000 51.808199 0.000000 217.000000 -0.691549 0.622558 0.366307
12.50000000 12.35000038 -1.20000005 135 0 188 0.000000 0.000000 0.000000 0.000000 51.808199 0.000000 217.000000 0.884153 -0.347938 -0.311788
12.52000046 12.36999989 -1.19000006 135 0 188 0.000000 0.000000 0.000000 0.000000 51.808199 0.000000 217.000000 0.662669 -0.659396 -0.355059
12.52000046 12.32999992 -1.36000001 135 0 188 0.000000 0.000000 0.000000 0.000000 51.808199 0.000000 217.000000 -0.466627 0.376830 0.800162
12.47000027 12.35000038 -1.07000005 135 0 188 0.000000 0.000000 0.000000 0.000000 51.808199 0.000000 217.000000 0.864161 -0.397545 -0.308519
12.40999985 12.36999989 -1.14999998 135 0 188 0.000000 0.000000 0.000000 0.000000 51.808199 0.000000 217.000000 0.519186 -0.696143 -0.495814
12.40999985 12.36999989 -1.14999998 135 0 188 0.000000 0.000000 0.000000 0.000000 51.808199 0.000000 217.000000 0.519186 -0.696143 -0.495814
12.40999985 12.34000015 -1.28999996 135 0 188 0.000000 0.000000 0.000000 0.000000 51.808199 0.000000 217.000000 0.785715 -0.293651 -0.544445
12.38000011 12.39999962 -1.24000001 135 0 188 0.000000 0.000000 0.000000 0.000000 51.808199 0.000000 217.000000 -0.518931 0.482222 0.705813
12.35000038 12.40999985 -1.23000002 135 0 188 0.000000 0.000000 0.000000 0.000000 51.808199 0.000000 217.000000 0.663844 -0.258249 -0.701868
12.51000023 12.42000008 -1.52999997 135 0 188 0.000000 0.000000 0.000000 0.000000 51.808199 0.000000 217.000000 -0.310382 0.944468 0.107901
12.50000000 12.43000031 -1.45000005 135 0 188 0.000000 0.000000 0.000000 0.000000 51.808199 0.000000 217.000000 -0.321028 0.811267 0.488658
12.52000046 12.35000038 -1.37000000 135 0 188 0.000000 0.000000 0.000000 0.000000 51.808199 0.000000 217.000000 0.550039 -0.690474 -0.469790
12.53999996 12.34000015 -1.39999998 135 0 188 0.000000 0.000000 0.000000 0.000000 51.808199 0.000000 217.000000 -0.681894 0.706523 0.189330
12.55000019 12.34000015 -1.50000000 135 0 188 0.000000 0.000000 0.000000 0.000000 51.808199 0.000000 217.000000 -0.485378 0.840607 0.240392
12.64000034 12.42000008 -1.67999995 135 0 188 0.000000 0.000000 0.000000 0.000000 51.808199 0.000000 217.000000 -0.020051 0.977761 0.208762
12.60999966 12.35999966 -1.70000005 135 0 188 0.000000 0.000000 0.000000 0.000000 51.808199 0.000000 217.000000 -0.382902 0.911334 0.151183
12.63000011 12.34000015 -1.67999995 135 0 188 0.000000 0.000000 0.000000 0.000000 51.808199 0.000000 217.000000 -0.334977 0.828794 0.448209
12.52999973 12.40999985 -1.66999996 135 0 188 0.000000 0.000000 0.000000 0.000000 51.808199 0.000000 217.000000 0.062920 0.854310 0.515942
12.52000046 12.39999962 -1.66999996 135 0 188 0.000000 0.000000 0.000000 0.000000 51.808199 0.000000 217.000000 -0.154402 0.884565 0.440118
12.43999958 12.39999962 -1.38000000 135 0 188 0.000000 0.000000 0.000000 0.000000 51.808199 0.000000 217.000000 0.783348 -0.509900 -0.355482
12.46000004 12.43999958 -1.49000001 135 0 188 0.000000 0.000000 0.000000 0.000000 51.808199 0.000000 217.000000 -0.448164 0.787928 0.422278
12.39000034 12.31999969 -1.38000000 135 0 188 0.000000 0.000000 0.000000 0.000000 51.808199 0.000000 217.000000 0.889983 -0.044702 -0.453797
12.47000027 12.40999985 -1.59000003 135 0 188 0.000000 0.000000 0.000000 0.000000 51.808199 0.000000 217.000000 0.583294 -0.535954 -0.610345
12.47000027 12.39999962 -1.58000004 135 0 188 0.000000 0.000000 0.000000 0.000000 51.808199 0.000000 217.000000 0.752939 -0.359394 -0.551288
12.44999981 12.39999962 -1.66999996 135 0 188 0.000000 0.000000 0.000000 0.000000 51.808199 0.000000 217.000000 -0.308084 0.875688 0.371826
12.40999985 12.36999989 -1.58000004 135 0 188 0.000000 0.000000 0.000000 0.000000 51.808199 0.000000 217.000000 0.804815 -0.144301 -0.575718
12.42000008 12.35000038 -1.64999998 135 0 188 0.000000 0.000000 0.000000 0.000000 51.808199 0.000000 217.000000 -0.707945 0.534707 0.461414
12.40999985 12.36999989 -1.66999996 135 0 188 0.000000 0.000000 0.000000 0.000000 51.808199 0.000000 217.000000 -0.330259 0.552580 0.765235
12.53999996 12.26000023 -1.13999999 135 0 188 0.000000 0.000000 0.000000 0.000000 51.808199 0.000000 217.000000 0.815222 -0.209541 -0.539913
12.52999973 12.28999996 -1.14999998 135 0 188 0.000000 0.000000 0.000000 0.000000 51.808199 0.000000 217.000000 0.513912 -0.604899 -0.608269
12.51000023 12.25000000 -1.17999995 135 0 188 0.000000 0.000000 0.000000 0.000000 51.808199 0.000000 217.000000 0.906497 -0.133515 -0.400545
12.51000023 12.17000008 -1.22000003 135 0 188 0.000000 0.000000 0.000000 0.000000 51.808199 0.000000 217.000000 0.722449 -0.463364 -0.513188
12.52000046 12.26000023 -1.22000003 135 0 188 0.000000 0.000000 0.000000 0.000000 51.808199 0.000000 217.000000 0.577252 -0.207811 -0.789680
12.48999977 12.15999985 -1.27999997 135 0 188 0.000000 0.000000 0.000000 0.000000 51.808199 0.000000 217.000000 -0.649472 0.076664 0.756511
12.50000000 12.06999969 -1.32000005 135 0 188 0.000000 0.000000 0.000000 0.000000 51.808199 0.000000 217.000000 0.652929 0.279371 -0.704014
12.47999954 11.97999954 -1.34000003 135 0 188 0.000000 0.000000 0.000000 0.000000 51.808199 0.000000 217.000000 0.956051 0.212604 -0.201907
12.52999973 12.28999996 -1.50999999 135 0 188 0.000000 0.000000 0.000000 0.000000 51.808199 0.000000 217.000000 0.834186 -0.287382 -0.470686
12.64000034 12.21000004 -1.57000005 135 0 188 0.000000 0.000000 0.000000 0.000000 51.808199 0.000000 217.000000 -0.360004 0.734669 0.575029
12.52999973 11.97999954 -1.52999997 135 0 188 0.000000 0.000000 0.000000 0.000000 51.808199 0.000000 217.000000 0.687163 0.587333 -0.427605
12.39999962 12.26000023 -1.38000000 135 0 188 0.000000 0.000000 0.000000 0.000000 51.808199 0.000000 217.000000 -0.561409 0.517576 0.645705
12.47000027 12.09000015 -1.38000000 135 0 188 0.000000 0.000000 0.000000 0.000000 51.808199 0.000000 217.000000 0.928481 0.341781 -0.145291
12.47999954 12.05000019 -1.39999998 135 0 188 0.000000 0.000000 0.000000 0.000000 51.808199 0.000000 217.000000 0.849381 0.219537 -0.479953
12.43999958 12.06000042 -1.41999996 135 0 188 0.000000 0.000000 0.000000 0.000000 51.808199 0.000000 217.000000 0.851663 0.023240 -0.523574
12.44999981 12.01000023 -1.40999997 135 0 188 0.000000 0.000000 0.000000 0.000000 51.808199 0.000000 217.000000 0.868498 0.103765 -0.484710
12.47999954 11.97999954 -1.40999997 135 0 188 0.000000 0.000000 0.000000 0.000000 51.808199 0.000000 217.000000 0.831935 0.547439 -0.090521
12.43999958 12.02999973 -1.42999995 135 0 188 0.000000 0.000000 0.000000 0.000000 51.808199 0.000000 217.000000 0.852553 0.235554 -0.466549
12.43999958 12.02000046 -1.44000006 135 0 188 0.000000 0.000000 0.000000 0.000000 51.808199 0.000000 217.000000 0.555242 0.498208 -0.665955
12.42000008 12.02999973 -1.46000004 135 0 188 0.000000 0.000000 0.000000 0.000000 51.808199 0.000000 217.000000 0.830558 0.285163 -0.478389
12.43999958 11.97999954 -1.59000003 135 0 188 0.000000 0.000000 0.000000 0.000000 51.808199 0.000000 217.000000 0.871673 0.451376 -0.190910
12.39999962 11.97999954 -1.69000006 135 0 188 0.000000 0.000000 0.000000 0.000000 51.808199 0.000000 217.000000 0.802911 0.586461 0.106762
12.64000034 12.43000031 -1.77999997 135 0 188 0.000000 0.000000 0.000000 0.000000 51.808199 0.000000 217.000000 -0.008960 0.927997 0.372479
12.51000023 12.39000034 -1.75000000 135 0 188 0.000000 0.000000 0.000000 0.000000 51.808199 0.000000 217.000000 -0.086857 0.968011 0.235394
12.64999962 11.80000019 -0.56000000 135 0 188 0.000000 0.000000 0.000000 0.000000 51.808199 0.000000 217.000000 0.735030 0.335875 -0.588998
12.63000011 11.81999969 -0.60000002 135 0 188 0.000000 0.000000 0.000000 0.000000 51.808199 0.000000 217.000000 0.735652 -0.012516 -0.677244
12.63000011 11.81999969 -0.60000002 135 0 188 0.000000 0.000000 0.000000 0.000000 51.808199 0.000000 217.000000 0.735652 -0.012516 -0.677244
12.65999985 11.77000046 -0.51999998 135 0 188 0.000000 0.000000 0.000000 0.000000 51.808199 0.000000 217.000000 0.729219 0.451421 -0.514256
12.65999985 11.73999977 -0.57999998 135 0 188 0.000000 0.000000 0.000000 0.000000 51.808199 0.000000 217.000000 0.772593 0.135988 -0.620167
12.60999966 11.72999954 -0.64999998 135 0 188 0.000000 0.000000 0.000000 0.000000 51.808199 0.000000 217.000000 0.685104 0.438400 -0.581755
12.63000011 11.86999989 -0.68000001 135 0 188 0.000000 0.000000 0.000000 0.000000 51.808199 0.000000 217.000000 0.730716 0.594618 -0.335384
12.57999992 11.85000038 -0.74000001 135 0 188 0.000000 0.000000 0.000000 0.000000 51.808199 0.000000 217.000000 0.689277 0.290814 -0.663570
12.60999966 11.80000019 -0.81000000 135 0 188 0.000000 0.000000 0.000000 0.000000 51.808199 0.000000 217.000000 0.938038 0.037418 -0.344506
12.60000038 11.81000042 -0.83999997 135 0 188 0.000000 0.000000 0.000000 0.000000 51.808199 0.000000 217.000000 0.702497 0.376749 -0.603786
12.60999966 11.80000019 -0.89999998 135 0 188 0.000000 0.000000 0.000000 0.000000 51.808199 0.000000 217.000000 0.879291 0.408938 -0.244164
12.52000046 11.88000011 -0.99000001 135 0 188 0.000000 0.000000 0.000000 0.000000 51.808199 0.000000 217.000000 0.746965 0.456753 -0.483136
12.55000019 11.85999966 -0.95999998 135 0 188 0.000000 0.000000 0.000000 0.000000 51.808199 0.000000 217.000000 0.679828 0.579607 -0.449321
12.61999989 11.75000000 -0.79000002 135 0 188 0.000000 0.000000 0.000000 0.000000 51.808199 0.000000 217.000000 0.853455 0.199490 -0.481475
12.60999966 11.76000023 -0.92000002 135 0 188 0.000000 0.000000 0.000000 0.000000 51.808199 0.000000 217.000000 0.822642 0.372487 -0.429549
12.55000019 11.72999954 -0.89999998 135 0 188 0.000000 0.000000 0.000000 0.000000 51.808199 0.000000 217.000000 0.931068 0.150350 -0.332426
12.52999973 11.67000008 -0.98000002 135 0 188 0.000000 0.000000 0.000000 0.000000 51.808199 0.000000 217.000000 0.743744 0.523740 -0.415380
12.43000031 11.84000015 -0.94999999 135 0 188 0.000000 0.000000 0.000000 0.000000 51.808199 0.000000 217.000000 0.662369 0.487973 -0.568463
12.59000015 11.84000015 -1.08000004 135 0 188 0.000000 0.000000 0.000000 0.000000 51.808199 0.000000 217.000000 0.718364 0.350223 -0.601080
12.57999992 11.82999992 -1.04999995 135 0 188 0.000000 0.000000 0.000000 0.000000 51.808199 0.000000 217.000000 0.869773 0.226051 -0.438629
12.60000038 11.81999969 -1.02999997 135 0 188 0.000000 0.000000 0.000000 0.000000 51.808199 0.000000 217.000000 0.705048 0.620377 -0.343568
12.55000019 11.90999985 -1.03999996 135 0 188 0.000000 0.000000 0.000000 0.000000 51.808199 0.000000 217.000000 0.875636 0.423598 -0.232006
12.53999996 11.89000034 -1.04999995 135 0 188 0.000000 0.000000 0.000000 0.000000 51.808199 0.000000 217.000000 0.606512 0.698557 -0.379686
12.48999977 11.88000011 -1.07000005 135 0 188 0.000000 0.000000 0.000000 0.000000 51.808199 0.000000 217.000000 0.655540 0.290105 -0.697213
12.51000023 11.94999981 -1.15999997 135 0 188 0.000000 0.000000 0.000000 0.000000 51.808199 0.000000 217.000000 0.775646 -0.020888 -0.630822
12.56999969 11.82999992 -1.05999994 135 0 188 0.000000 0.000000 0.000000 0.000000 51.808199 0.000000 217.000000 0.636067 0.517964 -0.571954
12.53999996 11.86999989 -1.01999998 135 0 188 0.000000 0.000000 0.000000 0.000000 51.808199 0.000000 217.000000 0.826575 0.281751 -0.487228
12.48999977 11.80000019 -1.10000002 135 0 188 0.000000 0.000000 0.000000 0.000000 51.808199 0.000000 217.000000 0.700860 0.366023 -0.612227
12.56000042 11.78999996 -1.13000000 135 0 188 0.000000 0.000000 0.000000 0.000000 51.808199 0.000000 217.000000 0.945620 0.248414 -0.209985
12.60000038 11.78999996 -1.25999999 135 0 188 0.000000 0.000000 0.000000 0.000000 51.808199 0.000000 217.000000 0.345171 0.937992 0.032079
12.56999969 11.85999966 -1.24000001 135 0 188 0.000000 0.000000 0.000000 0.000000 51.808199 0.000000 217.000000 0.955200 0.246460 -0.163863
12.56999969 11.82999992 -1.22000003 135 0 188 0.000000 0.000000 0.000000 0.000000 51.808199 0.000000 217.000000 0.882287 0.262140 -0.390963
12.56000042 11.75000000 -1.01999998 135 0 188 0.000000 0.000000 0.000000 0.000000 51.808199 0.000000 217.000000 0.936462 0.224695 -0.269355
12.61999989 11.76000023 -1.24000001 135 0 188 0.000000 0.000000 0.000000 0.000000 51.808199 0.000000 217.000000 0.358184 0.933332 0.024392
12.63000011 11.72000027 -1.22000003 135 0 188 0.000000 0.000000 0.000000 0.000000 51.808199 0.000000 217.000000 0.532535 0.819402 0.212099
12.44999981 11.93000031 -1.34000003 135 0 188 0.000000 0.000000 0.000000 0.000000 51.808199 0.000000 217.000000 0.664309 0.329718 -0.670806
12.47000027 11.78999996 -1.23000002 135 0 188 0.000000 0.000000 0.000000 0.000000 51.808199 0.000000 217.000000 0.760654 0.407318 -0.505467
12.43999958 11.93999958 -1.37000000 135 0 188 0.000000 0.000000 0.000000 0.000000 51.808199 0.000000 217.000000 0.769704 0.576883 -0.273427
12.43999958 11.89999962 -1.38000000 135 0 188 0.000000 0.000000 0.000000 0.000000 51.808199 0.000000 217.000000 0.852727 0.510486 -0.110725
12.40999985 11.89000034 -1.41999996 135 0 188 0.000000 0.000000 0.000000 0.000000 51.808199 0.000000 217.000000 0.598970 0.598970 -0.531480
12.46000004 11.96000004 -1.45000005 135 0 188 0.000000 0.000000 0.000000 0.000000 51.808199 0.000000 217.000000 0.910403 0.353485 -0.214976
12.43999958 11.92000008 -1.48000002 135 0 188 0.000000 0.000000 0.000000 0.000000 51.808199 0.000000 217.000000 0.774909 0.629880 -0.052608
12.43999958 11.92000008 -1.48000002 135 0 188 0.000000 0.000000 0.000000 0.000000 51.808199 0.000000 217.000000 0.774909 0.629880 -0.052608
12.40999985 11.89000034 -1.50000000 135 0 188 0.000000 0.000000 0.000000 0.000000 51.808199 0.000000 217.000000 0.779107 0.470067 -0.414765
12.43000031 11.85999966 -1.42999995 135 0 188 0.000000 0.000000 0.000000 0.000000 51.808199 0.000000 217.000000 0.720462 0.674959 0.159260
12.39999962 11.92000008 -1.48000002 135 0 188 0.000000 0.000000 0.000000 0.000000 51.808199 0.000000 217.000000 0.783014 0.300182 -0.544775
12.42000008 11.89000034 -1.58000004 135 0 188 0.000000 0.000000 0.000000 0.000000 51.808199 0.000000 217.000000 0.716771 0.463989 -0.520532
12.32999992 11.85999966 -1.61000001 135 0 188 0.000000 0.000000 0.000000 0.000000 51.808199 0.000000 217.000000 0.764230 0.633643 0.120199
12.60000038 11.56999969 -1.01999998 135 0 188 0.000000 0.000000 0.000000 0.000000 51.808199 0.000000 217.000000 0.841618 0.539569 -0.023340
12.60000038 11.56999969 -1.01999998 135 0 188 0.000000 0.000000 0.000000 0.000000 51.808199 0.000000 217.000000 0.841618 0.539569 -0.023340
13.02000046 12.34000015 -0.31999999 135 0 188 0.000000 0.000000 0.000000 0.000000 51.808199 0.000000 217.000000 -0.524606 0.558342 0.642684
13.06999969 12.50000000 -0.60000002 135 0 188 0.000000 0.000000 0.000000 0.000000 51.808199 0.000000 217.000000 -0.095970 0.995286 0.014018
13.14000034 12.43000031 -0.41999999 135 0 188 0.000000 0.000000 0.000000 0.000000 51.808199 0.000000 217.000000 -0.552116 0.756124 0.351347
13.11999989 12.40999985 -0.47999999 135 0 188 0.000000 0.000000 0.000000 0.000000 51.808199 0.000000 217.000000 -0.571482 0.716412 0.400202
13.10999966 12.35999966 -0.38000000 135 0 188 0.000000 0.000000 0.000000 0.000000 51.808199 0.000000 217.000000 -0.509042 0.830059 0.227769
13.09000015 12.39000034 -0.41999999 135 0 188 0.000000 0.000000 0.000000 0.000000 51.808199 0.000000 217.000000 -0.393659 0.759549 0.517800
13.07999992 12.36999989 -0.44000000 135 0 188 0.000000 0.000000 0.000000 0.000000 51.808199 0.000000 217.000000 -0.499043 0.813897 0.297537
13.05000019 12.35000038 -0.50000000 135 0 188 0.000000 0.000000 0.000000 0.000000 51.808199 0.000000 217.000000 -0.232072 0.971265 0.052799
13.09000015 12.36999989 -0.47999999 135 0 188 0.000000 0.000000 0.000000 0.000000 51.808199 0.000000 217.000000 -0.357776 0.932820 0.042933
13.07999992 12.39999962 -0.60000002 135 0 188 0.000000 0.000000 0.000000 0.000000 51.808199 0.000000 217.000000 -0.161965 0.839545 0.518586
13.09000015 12.38000011 -0.56000000 135 0 188 0.000000 0.000000 0.000000 0.000000 51.808199 0.000000 217.000000 -0.163127 0.979989 0.114066
13.07999992 12.36999989 -0.63999999 135 0 188 0.000000 0.000000 0.000000 0.000000 51.808199 0.000000 217.000000 -0.148633 0.782199 0.605040
13.07999992 12.36999989 -0.63999999 135 0 188 0.000000 0.000000 0.000000 0.000000 51.808199 0.000000 217.000000 -0.148633 0.782199 0.605040
13.09000015 12.35999966 -0.63000000 135 0 188 0.000000 0.000000 0.000000 0.000000 51.808199 0.000000 217.000000 -0.478203 0.848620 0.226198
13.10000038 12.43999958 -0.72000003 135 0 188 0.000000 0.000000 0.000000 0.000000 51.808199 0.000000 217.000000 -0.236411 0.971102 0.032734
13.06000042 12.46000004 -0.69000000 135 0 188 0.000000 0.000000 0.000000 0.000000 51.808199 0.000000 217.000000 -0.210240 0.944021 0.254212
13.02000046 12.44999981 -0.98000002 135 0 188 0.000000 0.000000 0.000000 0.000000 51.808199 0.000000 217.000000 -0.041746 0.895525 0.443049
13.05000019 12.31999969 -0.99000001 135 0 188 0.000000 0.000000 0.000000 0.000000 51.808199 0.000000 217.000000 -0.199620 0.955230 0.218376
13.02999973 12.30000019 -1.00000000 135 0 188 0.000000 0.000000 0.000000 0.000000 51.808199 0.000000 217.000000 -0.280243 0.885689 0.370161
13.02999973 12.30000019 -0.93000001 135 0 188 0.000000 0.000000 0.000000 0.000000 51.808199 0.000000 217.000000 -0.392588 0.892513 0.222025
12.94999981 12.36999989 -0.50000000 135 0 188 0.000000 0.000000 0.000000 0.000000 51.808199 0.000000 217.000000 -0.158824 0.838649 0.521002
12.97999954 12.31999969 -0.47000000 135 0 188 0.000000 0.000000 0.000000 0.000000 51.808199 0.000000 217.000000 0.541918 -0.599318 -0.589188
12.98999977 12.32999992 -0.47999999 135 0 188 0.000000 0.000000 0.000000 0.000000 51.808199 0.000000 217.000000 -0.278217 0.953322 0.117352
12.97999954 12.31999969 -0.61000001 135 0 188 0.000000 0.000000 0.000000 0.000000 51.808199 0.000000 217.000000 -0.270748 0.755243 0.596911
12.90999985 12.38000011 -0.64999998 135 0 188 0.000000 0.000000 0.000000 0.000000 51.808199 0.000000 217.000000 -0.390630 0.604900 0.693905
12.92000008 12.50000000 -0.81000000 135 0 188 0.000000 0.000000 0.000000 0.000000 51.808199 0.000000 217.000000 -0.001336 0.867007 0.498295
12.88000011 12.47999954 -0.98000002 135 0 188 0.000000 0.000000 0.000000 0.000000 51.808199 0.000000 217.000000 -0.019224 0.931712 0.362688
12.85999966 12.50000000 -0.88000000 135 0 188 0.000000 0.000000 0.000000 0.000000 51.808199 0.000000 217.000000 -0.139431 0.745133 0.652178
12.97000027 12.34000015 -0.72000003 135 0 188 0.000000 0.000000 0.000000 0.000000 51.808199 0.000000 217.000000 0.112064 0.914496 0.388765
12.93999958 12.31000042 -0.94000000 135 0 188 0.000000 0.000000 0.000000 0.000000 51.808199 0.000000 217.000000 0.343964 -0.798316 -0.494348
12.85000038 12.43999958 -0.88000000 135 0 188 0.000000 0.000000 0.000000 0.000000 51.808199 0.000000 217.000000 -0.386998 0.584613 0.713064
12.81999969 12.44999981 -0.97000003 135 0 188 0.000000 0.000000 0.000000 0.000000 51.808199 0.000000 217.000000 -0.242061 0.870517 0.428493
