//X Y Z R G B PointSourceId ScanDirectionFlag NumberOfReturns ReturnNumber GpsTime Intensity Classification Nx Ny Nz
4.38000011 -11.52999973 0.27000001 200 254 28 0.000000 0.000000 0.000000 0.000000 -60.708740 0.000000 179.000000 0.389186 0.479620 0.786447
4.36999989 -11.51000023 0.23999999 200 254 28 0.000000 0.000000 0.000000 0.000000 -60.708740 0.000000 179.000000 0.307229 -0.084978 0.947834
4.44000006 -11.47000027 0.20000000 200 254 28 0.000000 0.000000 0.000000 0.000000 -60.708740 0.000000 179.000000 0.571935 -0.183565 0.799496
4.42999983 -11.47999954 0.20000000 200 254 28 0.000000 0.000000 0.000000 0.000000 -60.708740 0.000000 179.000000 0.414344 0.466340 0.781566
4.44000006 -11.48999977 0.20000000 200 254 28 0.000000 0.000000 0.000000 0.000000 -60.708740 0.000000 179.000000 0.629583 0.192415 0.752729
4.44000006 -11.47000027 0.20000000 200 254 28 0.000000 0.000000 0.000000 0.000000 -60.708740 0.000000 179.000000 0.571935 -0.183565 0.799496
4.42000008 -11.52000046 0.23000000 200 254 28 0.000000 0.000000 0.000000 0.000000 -60.708740 0.000000 179.000000 0.392409 0.269124 0.879538
4.42999983 -11.52000046 0.23000000 200 254 28 0.000000 0.000000 0.000000 0.000000 -60.708740 0.000000 179.000000 0.394801 0.294195 0.870391
4.40999985 -11.52000046 0.23000000 200 254 28 0.000000 0.000000 0.000000 0.000000 -60.708740 0.000000 179.000000 0.413477 0.155948 0.897060
4.42999983 -11.50000000 0.20000000 200 254 28 0.000000 0.000000 0.000000 0.000000 -60.708740 0.000000 179.000000 0.384578 -0.108895 0.916647
4.38000011 -11.47999954 0.23000000 200 254 28 0.000000 0.000000 0.000000 0.000000 -60.708740 0.000000 179.000000 0.834991 0.090231 0.542816
4.38999987 -11.47000027 0.20000000 200 254 28 0.000000 0.000000 0.000000 0.000000 -60.708740 0.000000 179.000000 0.543804 0.322432 0.774800
4.36999989 -11.46000004 0.22000000 200 254 28 0.000000 0.000000 0.000000 0.000000 -60.708740 0.000000 179.000000 0.797144 0.049556 0.601752
4.44000006 -11.56999969 0.28000000 200 254 28 0.000000 0.000000 0.000000 0.000000 -60.708740 0.000000 179.000000 -0.078677 0.970351 0.228538
4.42000008 -11.56999969 0.31000000 200 254 28 0.000000 0.000000 0.000000 0.000000 -60.708740 0.000000 179.000000 -0.001357 0.555013 0.831841
4.42999983 -11.53999996 0.23999999 200 254 28 0.000000 0.000000 0.000000 0.000000 -60.708740 0.000000 179.000000 0.485406 0.354042 0.799397
4.42000008 -11.53999996 0.25999999 200 254 28 0.000000 0.000000 0.000000 0.000000 -60.708740 0.000000 179.000000 0.510287 0.594493 0.621439
4.44999981 -11.56000042 0.25000000 200 254 28 0.000000 0.000000 0.000000 0.000000 -60.708740 0.000000 179.000000 -0.067761 0.679053 0.730955
4.40999985 -11.55000019 0.23999999 200 254 28 0.000000 0.000000 0.000000 0.000000 -60.708740 0.000000 179.000000 0.107746 0.260927 0.959327
4.42999983 -11.57999992 0.28999999 200 254 28 0.000000 0.000000 0.000000 0.000000 -60.708740 0.000000 179.000000 0.298704 0.583032 0.755546
4.44999981 -11.57999992 0.30000001 200 254 28 0.000000 0.000000 0.000000 0.000000 -60.708740 0.000000 179.000000 0.071490 0.966993 0.244570
4.42999983 -11.57999992 0.28999999 200 254 28 0.000000 0.000000 0.000000 0.000000 -60.708740 0.000000 179.000000 0.298704 0.583032 0.755546
4.44999981 -11.57999992 0.27000001 200 254 28 0.000000 0.000000 0.000000 0.000000 -60.708740 0.000000 179.000000 -0.272386 0.727955 0.629196
4.40000010 -11.56999969 0.31000000 200 254 28 0.000000 0.000000 0.000000 0.000000 -60.708740 0.000000 179.000000 0.066598 0.903824 0.422691
4.38999987 -11.56000042 0.28999999 200 254 28 0.000000 0.000000 0.000000 0.000000 -60.708740 0.000000 179.000000 0.150329 0.483095 0.862566
4.34000015 -11.48999977 0.28000000 200 254 28 0.000000 0.000000 0.000000 0.000000 -60.708740 0.000000 179.000000 0.693095 0.149491 0.705175
4.34999990 -11.46000004 0.25999999 200 254 28 0.000000 0.000000 0.000000 0.000000 -60.708740 0.000000 179.000000 0.908004 -0.052462 0.415664
4.34000015 -11.46000004 0.25999999 200 254 28 0.000000 0.000000 0.000000 0.000000 -60.708740 0.000000 179.000000 0.631201 -0.421356 0.651187
4.34999990 -11.47000027 0.25999999 200 254 28 0.000000 0.000000 0.000000 0.000000 -60.708740 0.000000 179.000000 0.508889 0.037035 0.860035
4.34000015 -11.48999977 0.25000000 200 254 28 0.000000 0.000000 0.000000 0.000000 -60.708740 0.000000 179.000000 0.559061 -0.436300 0.705048
4.36000013 -11.48999977 0.27000001 200 254 28 0.000000 0.000000 0.000000 0.000000 -60.708740 0.000000 179.000000 0.426209 -0.104806 0.898533
4.34999990 -11.51000023 0.23999999 200 254 28 0.000000 0.000000 0.000000 0.000000 -60.708740 0.000000 179.000000 0.306413 0.213218 0.927712
4.30000019 -11.47999954 0.31000000 200 254 28 0.000000 0.000000 0.000000 0.000000 -60.708740 0.000000 179.000000 0.520089 -0.460271 0.719485
4.32000017 -11.52999973 0.28999999 200 254 28 0.000000 0.000000 0.000000 0.000000 -60.708740 0.000000 179.000000 0.275027 -0.216392 0.936768
4.30999994 -11.52999973 0.28999999 200 254 28 0.000000 0.000000 0.000000 0.000000 -60.708740 0.000000 179.000000 0.425904 -0.185875 0.885470
4.34000015 -11.53999996 0.27000001 200 254 28 0.000000 0.000000 0.000000 0.000000 -60.708740 0.000000 179.000000 0.747552 0.015313 0.664027
4.32999992 -11.57999992 0.31000000 200 254 28 0.000000 0.000000 0.000000 0.000000 -60.708740 0.000000 179.000000 0.198469 0.616947 0.761568
4.36000013 -11.57999992 0.30000001 200 254 28 0.000000 0.000000 0.000000 0.000000 -60.708740 0.000000 179.000000 -0.093029 0.525254 0.845845
4.34999990 -11.59000015 0.30000001 200 254 28 0.000000 0.000000 0.000000 0.000000 -60.708740 0.000000 179.000000 0.006931 0.691678 0.722173
4.30000019 -11.53999996 0.28999999 200 254 28 0.000000 0.000000 0.000000 0.000000 -60.708740 0.000000 179.000000 0.725785 0.133185 0.674905
4.30999994 -11.53999996 0.28999999 200 254 28 0.000000 0.000000 0.000000 0.000000 -60.708740 0.000000 179.000000 0.388499 0.040825 0.920544
4.30000019 -11.56999969 0.30000001 200 254 28 0.000000 0.000000 0.000000 0.000000 -60.708740 0.000000 179.000000 0.430810 0.081207 0.898782
4.32000017 -11.53999996 0.28999999 200 254 28 0.000000 0.000000 0.000000 0.000000 -60.708740 0.000000 179.000000 0.247270 0.087496 0.964988
4.15999985 -11.55000019 0.67000002 200 254 28 0.000000 0.000000 0.000000 0.000000 -60.708740 0.000000 179.000000 0.398909 0.607467 0.686918
4.15000010 -11.55000019 0.67000002 200 254 28 0.000000 0.000000 0.000000 0.000000 -60.708740 0.000000 179.000000 0.070810 0.692206 0.718218
4.11999989 -11.57999992 0.67000002 200 254 28 0.000000 0.000000 0.000000 0.000000 -60.708740 0.000000 179.000000 0.217043 0.701095 0.679234
4.19000006 -11.55000019 0.66000003 200 254 28 0.000000 0.000000 0.000000 0.000000 -60.708740 0.000000 179.000000 0.101169 0.295622 0.949933
4.13000011 -11.59000015 0.68000001 200 254 28 0.000000 0.000000 0.000000 0.000000 -60.708740 0.000000 179.000000 0.004154 0.743494 0.668729
4.19999981 -11.64000034 0.66000003 200 254 28 0.000000 0.000000 0.000000 0.000000 -60.708740 0.000000 179.000000 0.549897 0.286834 0.784436
4.17000008 -11.65999985 0.69999999 200 254 28 0.000000 0.000000 0.000000 0.000000 -60.708740 0.000000 179.000000 0.513021 0.180978 0.839081
4.19000006 -11.65999985 0.68000001 200 254 28 0.000000 0.000000 0.000000 0.000000 -60.708740 0.000000 179.000000 0.457156 0.496765 0.737721
4.15000010 -11.64999962 0.69000000 200 254 28 0.000000 0.000000 0.000000 0.000000 -60.708740 0.000000 179.000000 0.374334 0.156797 0.913941
4.13000011 -11.68999958 0.69999999 200 254 28 0.000000 0.000000 0.000000 0.000000 -60.708740 0.000000 179.000000 0.427984 0.069735 0.901092
4.13999987 -11.69999981 0.69000000 200 254 28 0.000000 0.000000 0.000000 0.000000 -60.708740 0.000000 179.000000 0.837260 0.075339 0.541589
4.11999989 -11.71000004 0.70999998 200 254 28 0.000000 0.000000 0.000000 0.000000 -60.708740 0.000000 179.000000 0.424704 -0.144428 0.893738
4.07000017 -11.50000000 0.67000002 200 254 28 0.000000 0.000000 0.000000 0.000000 -60.708740 0.000000 179.000000 0.167362 0.933630 0.316742
4.03999996 -11.52000046 0.69000000 200 254 28 0.000000 0.000000 0.000000 0.000000 -60.708740 0.000000 179.000000 -0.110679 0.751144 0.650794
4.09000015 -11.53999996 0.67000002 200 254 28 0.000000 0.000000 0.000000 0.000000 -60.708740 0.000000 179.000000 -0.016788 0.923367 0.383552
4.09999990 -11.57999992 0.68000001 200 254 28 0.000000 0.000000 0.000000 0.000000 -60.708740 0.000000 179.000000 0.159552 0.547250 0.821621
4.01999998 -11.50000000 0.69999999 200 254 28 0.000000 0.000000 0.000000 0.000000 -60.708740 0.000000 179.000000 -0.304170 0.729043 0.613169
4.01999998 -11.52000046 0.68000001 200 254 28 0.000000 0.000000 0.000000 0.000000 -60.708740 0.000000 179.000000 -0.372020 0.824777 0.425845
3.95000005 -11.52000046 0.68000001 200 254 28 0.000000 0.000000 0.000000 0.000000 -60.708740 0.000000 179.000000 -0.439285 0.823064 0.359992
4.01000023 -11.56000042 0.68000001 200 254 28 0.000000 0.000000 0.000000 0.000000 -60.708740 0.000000 179.000000 0.042797 0.995315 0.086692
4.00000000 -11.60999966 0.68000001 200 254 28 0.000000 0.000000 0.000000 0.000000 -60.708740 0.000000 179.000000 -0.150994 0.986731 0.059695
4.03000021 -11.57999992 0.69000000 200 254 28 0.000000 0.000000 0.000000 0.000000 -60.708740 0.000000 179.000000 0.085601 0.773310 0.628223
4.11000013 -11.68999958 0.69999999 200 254 28 0.000000 0.000000 0.000000 0.000000 -60.708740 0.000000 179.000000 0.409704 -0.063551 0.910002
4.09999990 -11.73999977 0.69999999 200 254 28 0.000000 0.000000 0.000000 0.000000 -60.708740 0.000000 179.000000 0.701444 -0.568783 0.429490
4.07999992 -11.77999973 0.69999999 200 254 28 0.000000 0.000000 0.000000 0.000000 -60.708740 0.000000 179.000000 0.913701 -0.312314 0.260020
4.07999992 -11.77999973 0.66000003 200 254 28 0.000000 0.000000 0.000000 0.000000 -60.708740 0.000000 179.000000 0.872381 -0.450214 0.190418
4.11000013 -11.76000023 0.67000002 200 254 28 0.000000 0.000000 0.000000 0.000000 -60.708740 0.000000 179.000000 0.835491 -0.533011 0.133620
3.95000005 -11.68000031 0.66000003 200 254 28 0.000000 0.000000 0.000000 0.000000 -60.708740 0.000000 179.000000 -0.686901 0.686901 -0.237350
3.96000004 -11.61999989 0.68000001 200 254 28 0.000000 0.000000 0.000000 0.000000 -60.708740 0.000000 179.000000 -0.593188 0.763119 0.256471
3.92000008 -11.68999958 0.66000003 200 254 28 0.000000 0.000000 0.000000 0.000000 -60.708740 0.000000 179.000000 -0.749358 0.489142 -0.446321
3.86999989 -11.69999981 0.66000003 200 254 28 0.000000 0.000000 0.000000 0.000000 -60.708740 0.000000 179.000000 0.757531 -0.361733 0.543411
3.86999989 -11.68999958 0.66000003 200 254 28 0.000000 0.000000 0.000000 0.000000 -60.708740 0.000000 179.000000 -0.512633 0.670624 -0.536163
3.91000009 -11.72999954 0.69999999 200 254 28 0.000000 0.000000 0.000000 0.000000 -60.708740 0.000000 179.000000 -0.696206 0.637783 -0.329440
3.92000008 -11.72999954 0.68000001 200 254 28 0.000000 0.000000 0.000000 0.000000 -60.708740 0.000000 179.000000 -0.457631 0.866070 -0.201238
3.89000010 -11.72000027 0.67000002 200 254 28 0.000000 0.000000 0.000000 0.000000 -60.708740 0.000000 179.000000 -0.644685 0.760583 -0.076783
3.89000010 -11.73999977 0.66000003 200 254 28 0.000000 0.000000 0.000000 0.000000 -60.708740 0.000000 179.000000 0.363826 -0.366923 0.856153
3.89000010 -11.72000027 0.67000002 200 254 28 0.000000 0.000000 0.000000 0.000000 -60.708740 0.000000 179.000000 -0.644685 0.760583 -0.076783
3.88000011 -11.76000023 0.67000002 200 254 28 0.000000 0.000000 0.000000 0.000000 -60.708740 0.000000 179.000000 0.546843 -0.325540 0.771354
3.85999990 -11.77999973 0.69999999 200 254 28 0.000000 0.000000 0.000000 0.000000 -60.708740 0.000000 179.000000 0.432953 -0.311912 0.845732
3.80999994 -11.77000046 0.69000000 200 254 28 0.000000 0.000000 0.000000 0.000000 -60.708740 0.000000 179.000000 0.435526 -0.183302 0.881316
4.26000023 -11.43999958 0.49000001 200 254 28 0.000000 0.000000 0.000000 0.000000 -60.708740 0.000000 179.000000 -0.107876 0.740351 0.663508
4.23999977 -11.44999981 0.52999997 200 254 28 0.000000 0.000000 0.000000 0.000000 -60.708740 0.000000 179.000000 0.218903 0.894711 0.389324
4.28000021 -11.44999981 0.50000000 200 254 28 0.000000 0.000000 0.000000 0.000000 -60.708740 0.000000 179.000000 0.018849 0.946229 0.322949
4.28000021 -11.44999981 0.47000000 200 254 28 0.000000 0.000000 0.000000 0.000000 -60.708740 0.000000 179.000000 -0.525018 0.842065 0.123619
4.28000021 -11.44999981 0.44999999 200 254 28 0.000000 0.000000 0.000000 0.000000 -60.708740 0.000000 179.000000 -0.511241 0.849155 0.132544
4.26000023 -11.43999958 0.46000001 200 254 28 0.000000 0.000000 0.000000 0.000000 -60.708740 0.000000 179.000000 -0.074164 0.966652 0.245120
4.28000021 -11.44999981 0.44000000 200 254 28 0.000000 0.000000 0.000000 0.000000 -60.708740 0.000000 179.000000 -0.544191 0.780379 0.308002
4.26000023 -11.43999958 0.43000001 200 254 28 0.000000 0.000000 0.000000 0.000000 -60.708740 0.000000 179.000000 -0.061026 0.998136 -0.001034
4.28000021 -11.43000031 0.43000001 200 254 28 0.000000 0.000000 0.000000 0.000000 -60.708740 0.000000 179.000000 -0.273910 0.934104 0.228961
4.25000000 -11.44999981 0.41999999 200 254 28 0.000000 0.000000 0.000000 0.000000 -60.708740 0.000000 179.000000 -0.655158 0.681169 -0.326766
4.28000021 -11.44999981 0.41999999 200 254 28 0.000000 0.000000 0.000000 0.000000 -60.708740 0.000000 179.000000 -0.372012 0.919657 0.125848
4.23999977 -11.43000031 0.47999999 200 254 28 0.000000 0.000000 0.000000 0.000000 -60.708740 0.000000 179.000000 -0.404637 0.871409 0.277335
4.23999977 -11.44999981 0.46000001 200 254 28 0.000000 0.000000 0.000000 0.000000 -60.708740 0.000000 179.000000 -0.557005 0.826201 0.084482
4.23000002 -11.44999981 0.41999999 200 254 28 0.000000 0.000000 0.000000 0.000000 -60.708740 0.000000 179.000000 -0.441711 0.876036 0.193526
4.25000000 -11.43000031 0.38999999 200 254 28 0.000000 0.000000 0.000000 0.000000 -60.708740 0.000000 179.000000 -0.489896 0.697224 -0.523336
4.26000023 -11.43999958 0.36000001 200 254 28 0.000000 0.000000 0.000000 0.000000 -60.708740 0.000000 179.000000 0.735342 -0.634997 0.236752
4.26000023 -11.40999985 0.38999999 200 254 28 0.000000 0.000000 0.000000 0.000000 -60.708740 0.000000 179.000000 -0.195796 0.976516 -0.089894
4.28000021 -11.43000031 0.38000000 200 254 28 0.000000 0.000000 0.000000 0.000000 -60.708740 0.000000 179.000000 0.775346 -0.622337 0.107401
4.25000000 -11.42000008 0.34000000 200 254 28 0.000000 0.000000 0.000000 0.000000 -60.708740 0.000000 179.000000 -0.493488 0.684192 -0.536982
4.23999977 -11.43999958 0.38999999 200 254 28 0.000000 0.000000 0.000000 0.000000 -60.708740 0.000000 179.000000 -0.616909 0.729074 -0.296437
4.21999979 -11.44999981 0.38000000 200 254 28 0.000000 0.000000 0.000000 0.000000 -60.708740 0.000000 179.000000 -0.268728 0.881247 -0.388830
4.21999979 -11.44999981 0.38000000 200 254 28 0.000000 0.000000 0.000000 0.000000 -60.708740 0.000000 179.000000 -0.268728 0.881247 -0.388830
4.23000002 -11.44999981 0.37000000 200 254 28 0.000000 0.000000 0.000000 0.000000 -60.708740 0.000000 179.000000 -0.296838 0.837673 -0.458467
4.28000021 -11.48999977 0.57999998 200 254 28 0.000000 0.000000 0.000000 0.000000 -60.708740 0.000000 179.000000 0.172827 0.551544 0.816045
4.26999998 -11.50000000 0.57999998 200 254 28 0.000000 0.000000 0.000000 0.000000 -60.708740 0.000000 179.000000 -0.128628 0.578087 0.805773
4.25000000 -11.50000000 0.56999999 200 254 28 0.000000 0.000000 0.000000 0.000000 -60.708740 0.000000 179.000000 0.142463 0.757304 0.637335
4.26000023 -11.52000046 0.58999997 200 254 28 0.000000 0.000000 0.000000 0.000000 -60.708740 0.000000 179.000000 0.476799 0.444029 0.758618
4.21000004 -11.48999977 0.57999998 200 254 28 0.000000 0.000000 0.000000 0.000000 -60.708740 0.000000 179.000000 -0.076914 0.744474 0.663206
4.19999981 -11.48999977 0.56999999 200 254 28 0.000000 0.000000 0.000000 0.000000 -60.708740 0.000000 179.000000 -0.407673 0.877023 0.254231
4.21000004 -11.47999954 0.56999999 200 254 28 0.000000 0.000000 0.000000 0.000000 -60.708740 0.000000 179.000000 -0.193382 0.976765 0.092380
4.23999977 -11.52999973 0.58999997 200 254 28 0.000000 0.000000 0.000000 0.000000 -60.708740 0.000000 179.000000 -0.116694 0.769590 0.627785
4.21000004 -11.52000046 0.58999997 200 254 28 0.000000 0.000000 0.000000 0.000000 -60.708740 0.000000 179.000000 0.411682 0.702669 0.580322
4.23999977 -11.50000000 0.57999998 200 254 28 0.000000 0.000000 0.000000 0.000000 -60.708740 0.000000 179.000000 0.073842 0.696435 0.713810
4.26000023 -11.48999977 0.56000000 200 254 28 0.000000 0.000000 0.000000 0.000000 -60.708740 0.000000 179.000000 0.215535 0.895865 0.388550
4.26000023 -11.48999977 0.56000000 200 254 28 0.000000 0.000000 0.000000 0.000000 -60.708740 0.000000 179.000000 0.215535 0.895865 0.388550
4.28000021 -11.46000004 0.49000001 200 254 28 0.000000 0.000000 0.000000 0.000000 -60.708740 0.000000 179.000000 -0.425724 0.717270 0.551619
4.26999998 -11.51000023 0.52999997 200 254 28 0.000000 0.000000 0.000000 0.000000 -60.708740 0.000000 179.000000 -0.123909 0.700163 0.703149
4.21000004 -11.47999954 0.52999997 200 254 28 0.000000 0.000000 0.000000 0.000000 -60.708740 0.000000 179.000000 -0.110247 0.947065 0.301520
4.21000004 -11.47999954 0.52999997 200 254 28 0.000000 0.000000 0.000000 0.000000 -60.708740 0.000000 179.000000 -0.110247 0.947065 0.301520
4.23000002 -11.48999977 0.55000001 200 254 28 0.000000 0.000000 0.000000 0.000000 -60.708740 0.000000 179.000000 -0.254596 0.919133 0.300624
4.23999977 -11.46000004 0.50000000 200 254 28 0.000000 0.000000 0.000000 0.000000 -60.708740 0.000000 179.000000 -0.585580 0.734814 0.342264
4.23000002 -11.47000027 0.51999998 200 254 28 0.000000 0.000000 0.000000 0.000000 -60.708740 0.000000 179.000000 -0.469191 0.873815 0.127700
4.23000002 -11.56999969 0.63000000 200 254 28 0.000000 0.000000 0.000000 0.000000 -60.708740 0.000000 179.000000 0.320049 0.198797 0.926309
4.21000004 -11.55000019 0.63000000 200 254 28 0.000000 0.000000 0.000000 0.000000 -60.708740 0.000000 179.000000 0.521927 0.589491 0.616516
4.19999981 -11.56000042 0.64999998 200 254 28 0.000000 0.000000 0.000000 0.000000 -60.708740 0.000000 179.000000 0.347514 0.397382 0.849306
4.19999981 -11.55000019 0.64999998 200 254 28 0.000000 0.000000 0.000000 0.000000 -60.708740 0.000000 179.000000 0.361595 0.496590 0.789080
4.19000006 -11.48999977 0.56999999 200 254 28 0.000000 0.000000 0.000000 0.000000 -60.708740 0.000000 179.000000 -0.438084 0.891663 0.114099
4.15999985 -11.51000023 0.62000000 200 254 28 0.000000 0.000000 0.000000 0.000000 -60.708740 0.000000 179.000000 0.298363 0.761066 0.575985
4.17000008 -11.52000046 0.56999999 200 254 28 0.000000 0.000000 0.000000 0.000000 -60.708740 0.000000 179.000000 0.041198 0.731615 0.680473
4.11999989 -11.47999954 0.60000002 200 254 28 0.000000 0.000000 0.000000 0.000000 -60.708740 0.000000 179.000000 -0.526722 0.647885 0.550281
4.11999989 -11.52000046 0.61000001 200 254 28 0.000000 0.000000 0.000000 0.000000 -60.708740 0.000000 179.000000 -0.132840 0.932619 0.335524
4.15000010 -11.52999973 0.62000000 200 254 28 0.000000 0.000000 0.000000 0.000000 -60.708740 0.000000 179.000000 0.074386 0.964493 0.253416
4.15000010 -11.52000046 0.63000000 200 254 28 0.000000 0.000000 0.000000 0.000000 -60.708740 0.000000 179.000000 -0.060616 0.554005 0.830303
4.13999987 -11.52000046 0.63000000 200 254 28 0.000000 0.000000 0.000000 0.000000 -60.708740 0.000000 179.000000 0.017502 0.873769 0.486026
4.15000010 -11.52000046 0.60000002 200 254 28 0.000000 0.000000 0.000000 0.000000 -60.708740 0.000000 179.000000 -0.217133 0.953496 0.209041
4.13999987 -11.51000023 0.56999999 200 254 28 0.000000 0.000000 0.000000 0.000000 -60.708740 0.000000 179.000000 -0.562573 0.759232 0.327227
4.11999989 -11.52999973 0.60000002 200 254 28 0.000000 0.000000 0.000000 0.000000 -60.708740 0.000000 179.000000 -0.098372 0.726777 0.679793
4.13999987 -11.50000000 0.56999999 200 254 28 0.000000 0.000000 0.000000 0.000000 -60.708740 0.000000 179.000000 -0.367495 0.846020 0.386261
4.13999987 -11.50000000 0.58999997 200 254 28 0.000000 0.000000 0.000000 0.000000 -60.708740 0.000000 179.000000 -0.292617 0.956210 -0.006122
4.15000010 -11.52000046 0.60000002 200 254 28 0.000000 0.000000 0.000000 0.000000 -60.708740 0.000000 179.000000 -0.217133 0.953496 0.209041
4.13999987 -11.52000046 0.57999998 200 254 28 0.000000 0.000000 0.000000 0.000000 -60.708740 0.000000 179.000000 -0.256197 0.895948 0.362822
4.11999989 -11.52000046 0.60000002 200 254 28 0.000000 0.000000 0.000000 0.000000 -60.708740 0.000000 179.000000 0.017799 0.833809 0.551766
4.19000006 -11.47000027 0.54000002 200 254 28 0.000000 0.000000 0.000000 0.000000 -60.708740 0.000000 179.000000 -0.009096 0.999586 0.027289
4.17999983 -11.47000027 0.52999997 200 254 28 0.000000 0.000000 0.000000 0.000000 -60.708740 0.000000 179.000000 -0.670260 0.673490 0.311711
4.17999983 -11.46000004 0.49000001 200 254 28 0.000000 0.000000 0.000000 0.000000 -60.708740 0.000000 179.000000 -0.317587 0.947701 0.031632
4.17999983 -11.47999954 0.50000000 200 254 28 0.000000 0.000000 0.000000 0.000000 -60.708740 0.000000 179.000000 -0.130503 0.971803 0.196388
4.11999989 -11.47999954 0.52999997 200 254 28 0.000000 0.000000 0.000000 0.000000 -60.708740 0.000000 179.000000 -0.122207 0.983703 -0.131886
4.13000011 -11.47999954 0.55000001 200 254 28 0.000000 0.000000 0.000000 0.000000 -60.708740 0.000000 179.000000 -0.210451 0.967043 0.143313
4.11999989 -11.47999954 0.55000001 200 254 28 0.000000 0.000000 0.000000 0.000000 -60.708740 0.000000 179.000000 -0.091134 0.993471 0.068632
4.11999989 -11.48999977 0.52999997 200 254 28 0.000000 0.000000 0.000000 0.000000 -60.708740 0.000000 179.000000 -0.713805 0.667151 0.213053
4.11999989 -11.48999977 0.55000001 200 254 28 0.000000 0.000000 0.000000 0.000000 -60.708740 0.000000 179.000000 -0.164246 0.934410 0.316071
4.11999989 -11.48999977 0.52999997 200 254 28 0.000000 0.000000 0.000000 0.000000 -60.708740 0.000000 179.000000 -0.713805 0.667151 0.213053
4.13000011 -11.47999954 0.49000001 200 254 28 0.000000 0.000000 0.000000 0.000000 -60.708740 0.000000 179.000000 -0.540108 0.795203 -0.275565
4.11999989 -11.47000027 0.50999999 200 254 28 0.000000 0.000000 0.000000 0.000000 -60.708740 0.000000 179.000000 -0.699170 0.713410 0.046991
4.15000010 -11.47999954 0.50999999 200 254 28 0.000000 0.000000 0.000000 0.000000 -60.708740 0.000000 179.000000 0.723062 -0.671306 -0.162879
4.15000010 -11.47999954 0.50999999 200 254 28 0.000000 0.000000 0.000000 0.000000 -60.708740 0.000000 179.000000 0.723062 -0.671306 -0.162879
4.13000011 -11.50000000 0.49000001 200 254 28 0.000000 0.000000 0.000000 0.000000 -60.708740 0.000000 179.000000 -0.570084 0.809963 -0.137709
4.13000011 -11.50000000 0.50000000 200 254 28 0.000000 0.000000 0.000000 0.000000 -60.708740 0.000000 179.000000 -0.408225 0.811647 -0.417830
4.19000006 -11.53999996 0.64999998 200 254 28 0.000000 0.000000 0.000000 0.000000 -60.708740 0.000000 179.000000 -0.070278 0.787400 0.612423
4.15000010 -11.55000019 0.64999998 200 254 28 0.000000 0.000000 0.000000 0.000000 -60.708740 0.000000 179.000000 -0.039671 0.868652 0.493832
4.17999983 -11.55000019 0.63999999 200 254 28 0.000000 0.000000 0.000000 0.000000 -60.708740 0.000000 179.000000 0.139877 0.875310 0.462890
4.21000004 -11.46000004 0.47000000 200 254 28 0.000000 0.000000 0.000000 0.000000 -60.708740 0.000000 179.000000 -0.347763 0.918379 0.188786
4.21000004 -11.47000027 0.41999999 200 254 28 0.000000 0.000000 0.000000 0.000000 -60.708740 0.000000 179.000000 0.720124 -0.674450 0.162903
4.26000023 -11.48999977 0.33000001 200 254 28 0.000000 0.000000 0.000000 0.000000 -60.708740 0.000000 179.000000 0.825887 -0.423247 0.372521
4.28000021 -11.52999973 0.31999999 200 254 28 0.000000 0.000000 0.000000 0.000000 -60.708740 0.000000 179.000000 0.301565 0.039115 0.952643
4.25000000 -11.52000046 0.33000001 200 254 28 0.000000 0.000000 0.000000 0.000000 -60.708740 0.000000 179.000000 0.420994 -0.549769 0.721469
4.26999998 -11.52999973 0.31999999 200 254 28 0.000000 0.000000 0.000000 0.000000 -60.708740 0.000000 179.000000 0.297119 -0.135788 0.945136
4.26000023 -11.52000046 0.33000001 200 254 28 0.000000 0.000000 0.000000 0.000000 -60.708740 0.000000 179.000000 0.710544 -0.500875 0.494219
4.21000004 -11.47000027 0.38999999 200 254 28 0.000000 0.000000 0.000000 0.000000 -60.708740 0.000000 179.000000 -0.483237 0.776109 -0.405138
4.21999979 -11.47000027 0.34999999 200 254 28 0.000000 0.000000 0.000000 0.000000 -60.708740 0.000000 179.000000 -0.572515 0.602914 -0.555627
4.19999981 -11.48999977 0.31999999 200 254 28 0.000000 0.000000 0.000000 0.000000 -60.708740 0.000000 179.000000 0.639561 -0.082664 0.764283
4.23999977 -11.47000027 0.34000000 200 254 28 0.000000 0.000000 0.000000 0.000000 -60.708740 0.000000 179.000000 -0.710859 0.531063 -0.461142
4.21000004 -11.52999973 0.36000001 200 254 28 0.000000 0.000000 0.000000 0.000000 -60.708740 0.000000 179.000000 0.762488 -0.357771 0.539084
4.21000004 -11.52999973 0.38000000 200 254 28 0.000000 0.000000 0.000000 0.000000 -60.708740 0.000000 179.000000 0.499041 -0.180251 0.847625
4.19999981 -11.56999969 0.43000001 200 254 28 0.000000 0.000000 0.000000 0.000000 -60.708740 0.000000 179.000000 0.646240 0.015287 0.762981
4.26999998 -11.57999992 0.34999999 200 254 28 0.000000 0.000000 0.000000 0.000000 -60.708740 0.000000 179.000000 0.487277 0.537512 0.688216
4.26999998 -11.60000038 0.34000000 200 254 28 0.000000 0.000000 0.000000 0.000000 -60.708740 0.000000 179.000000 0.567491 0.237880 0.788268
4.21000004 -11.56999969 0.38000000 200 254 28 0.000000 0.000000 0.000000 0.000000 -60.708740 0.000000 179.000000 0.650572 -0.126541 0.748828
4.21999979 -11.56000042 0.37000000 200 254 28 0.000000 0.000000 0.000000 0.000000 -60.708740 0.000000 179.000000 0.502899 0.095451 0.859059
4.23000002 -11.59000015 0.38999999 200 254 28 0.000000 0.000000 0.000000 0.000000 -60.708740 0.000000 179.000000 0.449309 0.423356 0.786696
4.17000008 -11.46000004 0.47999999 200 254 28 0.000000 0.000000 0.000000 0.000000 -60.708740 0.000000 179.000000 -0.492818 0.809742 0.318509
4.17999983 -11.47000027 0.43000001 200 254 28 0.000000 0.000000 0.000000 0.000000 -60.708740 0.000000 179.000000 0.743204 -0.664972 0.073886
4.17000008 -11.47000027 0.44000000 200 254 28 0.000000 0.000000 0.000000 0.000000 -60.708740 0.000000 179.000000 -0.667948 0.742324 -0.052921
4.17000008 -11.47999954 0.44000000 200 254 28 0.000000 0.000000 0.000000 0.000000 -60.708740 0.000000 179.000000 0.623062 -0.659615 0.420359
4.17999983 -11.46000004 0.43000001 200 254 28 0.000000 0.000000 0.000000 0.000000 -60.708740 0.000000 179.000000 -0.662302 0.747761 0.047002
4.15999985 -11.50000000 0.43000001 200 254 28 0.000000 0.000000 0.000000 0.000000 -60.708740 0.000000 179.000000 -0.664375 0.722951 -0.189601
4.15999985 -11.52000046 0.41999999 200 254 28 0.000000 0.000000 0.000000 0.000000 -60.708740 0.000000 179.000000 -0.355498 0.811429 -0.463901
4.17000008 -11.51000023 0.43000001 200 254 28 0.000000 0.000000 0.000000 0.000000 -60.708740 0.000000 179.000000 0.877048 -0.471607 0.091506
4.17000008 -11.52000046 0.41000000 200 254 28 0.000000 0.000000 0.000000 0.000000 -60.708740 0.000000 179.000000 0.473685 -0.574113 0.667845
4.17999983 -11.52000046 0.40000001 200 254 28 0.000000 0.000000 0.000000 0.000000 -60.708740 0.000000 179.000000 -0.737207 0.443644 -0.509613
4.17000008 -11.52000046 0.40000001 200 254 28 0.000000 0.000000 0.000000 0.000000 -60.708740 0.000000 179.000000 0.642737 -0.416866 0.642737
4.17000008 -11.50000000 0.44000000 200 254 28 0.000000 0.000000 0.000000 0.000000 -60.708740 0.000000 179.000000 -0.580095 0.810406 0.082048
4.15000010 -11.47000027 0.46000001 200 254 28 0.000000 0.000000 0.000000 0.000000 -60.708740 0.000000 179.000000 -0.476636 0.867796 -0.140528
4.15000010 -11.47999954 0.47999999 200 254 28 0.000000 0.000000 0.000000 0.000000 -60.708740 0.000000 179.000000 -0.586414 0.807917 0.058215
4.15000010 -11.47999954 0.44000000 200 254 28 0.000000 0.000000 0.000000 0.000000 -60.708740 0.000000 179.000000 0.783099 -0.555289 0.280017
4.13000011 -11.51000023 0.47999999 200 254 28 0.000000 0.000000 0.000000 0.000000 -60.708740 0.000000 179.000000 0.665752 -0.578551 0.471225
4.17999983 -11.52999973 0.38999999 200 254 28 0.000000 0.000000 0.000000 0.000000 -60.708740 0.000000 179.000000 0.675904 -0.044112 0.735668
4.17000008 -11.56000042 0.41000000 200 254 28 0.000000 0.000000 0.000000 0.000000 -60.708740 0.000000 179.000000 0.411863 -0.295500 0.862003
4.13999987 -11.56000042 0.41000000 200 254 28 0.000000 0.000000 0.000000 0.000000 -60.708740 0.000000 179.000000 0.470948 -0.140560 0.870891
4.15000010 -11.53999996 0.44000000 200 254 28 0.000000 0.000000 0.000000 0.000000 -60.708740 0.000000 179.000000 0.698823 -0.297201 0.650629
4.11999989 -11.60000038 0.44999999 200 254 28 0.000000 0.000000 0.000000 0.000000 -60.708740 0.000000 179.000000 0.713247 0.107799 0.692573
4.19000006 -11.57999992 0.38999999 200 254 28 0.000000 0.000000 0.000000 0.000000 -60.708740 0.000000 179.000000 0.891519 -0.001313 0.452981
4.19000006 -11.53999996 0.38000000 200 254 28 0.000000 0.000000 0.000000 0.000000 -60.708740 0.000000 179.000000 0.426364 -0.511966 0.745725
4.19000006 -11.57999992 0.38999999 200 254 28 0.000000 0.000000 0.000000 0.000000 -60.708740 0.000000 179.000000 0.891519 -0.001313 0.452981
4.25000000 -11.63000011 0.64999998 200 254 28 0.000000 0.000000 0.000000 0.000000 -60.708740 0.000000 179.000000 0.589223 -0.004101 0.807960
4.25000000 -11.61999989 0.63999999 200 254 28 0.000000 0.000000 0.000000 0.000000 -60.708740 0.000000 179.000000 0.658593 0.477605 0.581506
4.26999998 -11.61999989 0.63000000 200 254 28 0.000000 0.000000 0.000000 0.000000 -60.708740 0.000000 179.000000 0.594075 0.368228 0.715181
4.23000002 -11.64999962 0.58999997 200 254 28 0.000000 0.000000 0.000000 0.000000 -60.708740 0.000000 179.000000 0.860242 -0.244266 0.447569
4.26000023 -11.63000011 0.49000001 200 254 28 0.000000 0.000000 0.000000 0.000000 -60.708740 0.000000 179.000000 -0.260874 0.965354 0.006011
4.21999979 -11.63000011 0.50000000 200 254 28 0.000000 0.000000 0.000000 0.000000 -60.708740 0.000000 179.000000 -0.407276 0.905524 0.118964
4.21000004 -11.63000011 0.50999999 200 254 28 0.000000 0.000000 0.000000 0.000000 -60.708740 0.000000 179.000000 -0.206149 0.973273 0.101200
4.21999979 -11.64999962 0.50999999 200 254 28 0.000000 0.000000 0.000000 0.000000 -60.708740 0.000000 179.000000 -0.379489 0.783201 0.492528
4.17999983 -11.67000008 0.64999998 200 254 28 0.000000 0.000000 0.000000 0.000000 -60.708740 0.000000 179.000000 0.792405 -0.244416 0.558887
4.17000008 -11.69999981 0.58999997 200 254 28 0.000000 0.000000 0.000000 0.000000 -60.708740 0.000000 179.000000 0.613595 -0.361612 0.701953
4.15000010 -11.69999981 0.60000002 200 254 28 0.000000 0.000000 0.000000 0.000000 -60.708740 0.000000 179.000000 0.897438 -0.295190 0.327824
4.15999985 -11.65999985 0.54000002 200 254 28 0.000000 0.000000 0.000000 0.000000 -60.708740 0.000000 179.000000 0.168583 0.520669 0.836949
4.17000008 -11.64999962 0.52999997 200 254 28 0.000000 0.000000 0.000000 0.000000 -60.708740 0.000000 179.000000 0.470797 0.717009 0.514051
4.19000006 -11.65999985 0.54000002 200 254 28 0.000000 0.000000 0.000000 0.000000 -60.708740 0.000000 179.000000 -0.586049 0.741037 -0.327735
4.19000006 -11.64999962 0.51999998 200 254 28 0.000000 0.000000 0.000000 0.000000 -60.708740 0.000000 179.000000 -0.486155 0.689973 0.536274
4.15999985 -11.68000031 0.56000000 200 254 28 0.000000 0.000000 0.000000 0.000000 -60.708740 0.000000 179.000000 -0.601072 0.799137 0.009628
4.13000011 -11.65999985 0.50000000 200 254 28 0.000000 0.000000 0.000000 0.000000 -60.708740 0.000000 179.000000 0.317612 -0.029104 0.947774
4.15000010 -11.65999985 0.49000001 200 254 28 0.000000 0.000000 0.000000 0.000000 -60.708740 0.000000 179.000000 0.249434 0.286493 0.925043
4.13000011 -11.64000034 0.50999999 200 254 28 0.000000 0.000000 0.000000 0.000000 -60.708740 0.000000 179.000000 0.895282 -0.105080 0.432930
4.13000011 -11.67000008 0.54000002 200 254 28 0.000000 0.000000 0.000000 0.000000 -60.708740 0.000000 179.000000 0.455235 0.293650 0.840554
4.13999987 -11.68000031 0.56000000 200 254 28 0.000000 0.000000 0.000000 0.000000 -60.708740 0.000000 179.000000 -0.290722 0.947191 0.135313
4.17000008 -11.71000004 0.57999998 200 254 28 0.000000 0.000000 0.000000 0.000000 -60.708740 0.000000 179.000000 -0.372680 0.849835 -0.372680
4.13999987 -11.72000027 0.61000001 200 254 28 0.000000 0.000000 0.000000 0.000000 -60.708740 0.000000 179.000000 -0.601004 0.798054 -0.043633
4.11999989 -11.76000023 0.62000000 200 254 28 0.000000 0.000000 0.000000 0.000000 -60.708740 0.000000 179.000000 -0.244540 0.964077 -0.103706
4.13000011 -11.71000004 0.56000000 200 254 28 0.000000 0.000000 0.000000 0.000000 -60.708740 0.000000 179.000000 0.084209 0.990903 0.104973
4.26999998 -11.61999989 0.41000000 200 254 28 0.000000 0.000000 0.000000 0.000000 -60.708740 0.000000 179.000000 0.059972 0.385153 0.920902
4.23000002 -11.61999989 0.47000000 200 254 28 0.000000 0.000000 0.000000 0.000000 -60.708740 0.000000 179.000000 0.139982 0.717974 0.681849
4.23999977 -11.63000011 0.38999999 200 254 28 0.000000 0.000000 0.000000 0.000000 -60.708740 0.000000 179.000000 0.189657 0.318905 0.928617
4.21999979 -11.61999989 0.38999999 200 254 28 0.000000 0.000000 0.000000 0.000000 -60.708740 0.000000 179.000000 0.598995 0.135257 0.789247
4.15999985 -11.63000011 0.44000000 200 254 28 0.000000 0.000000 0.000000 0.000000 -60.708740 0.000000 179.000000 0.603907 0.358416 0.711923
4.13000011 -11.65999985 0.47000000 200 254 28 0.000000 0.000000 0.000000 0.000000 -60.708740 0.000000 179.000000 0.248762 -0.066253 0.966296
4.11000013 -11.47999954 0.56999999 200 254 28 0.000000 0.000000 0.000000 0.000000 -60.708740 0.000000 179.000000 -0.512760 0.855537 0.071646
4.11000013 -11.47999954 0.56999999 200 254 28 0.000000 0.000000 0.000000 0.000000 -60.708740 0.000000 179.000000 -0.512760 0.855537 0.071646
4.07999992 -11.52000046 0.57999998 200 254 28 0.000000 0.000000 0.000000 0.000000 -60.708740 0.000000 179.000000 -0.224940 0.942541 0.247020
4.09999990 -11.51000023 0.56999999 200 254 28 0.000000 0.000000 0.000000 0.000000 -60.708740 0.000000 179.000000 -0.074811 0.996391 -0.040116
4.07999992 -11.51000023 0.60000002 200 254 28 0.000000 0.000000 0.000000 0.000000 -60.708740 0.000000 179.000000 -0.404078 0.905304 -0.130938
4.09000015 -11.52000046 0.58999997 200 254 28 0.000000 0.000000 0.000000 0.000000 -60.708740 0.000000 179.000000 -0.232006 0.875636 0.423598
4.05000019 -11.48999977 0.57999998 200 254 28 0.000000 0.000000 0.000000 0.000000 -60.708740 0.000000 179.000000 -0.567041 0.765106 -0.305084
4.07000017 -11.46000004 0.57999998 200 254 28 0.000000 0.000000 0.000000 0.000000 -60.708740 0.000000 179.000000 0.255384 -0.821872 -0.509220
4.05999994 -11.47999954 0.57999998 200 254 28 0.000000 0.000000 0.000000 0.000000 -60.708740 0.000000 179.000000 -0.485378 0.840607 -0.240392
4.03999996 -11.52999973 0.61000001 200 254 28 0.000000 0.000000 0.000000 0.000000 -60.708740 0.000000 179.000000 -0.203230 0.954238 0.219380
4.07000017 -11.51000023 0.56999999 200 254 28 0.000000 0.000000 0.000000 0.000000 -60.708740 0.000000 179.000000 -0.111085 0.966566 0.231108
4.09000015 -11.48999977 0.54000002 200 254 28 0.000000 0.000000 0.000000 0.000000 -60.708740 0.000000 179.000000 -0.255095 0.958896 -0.124277
4.07999992 -11.52000046 0.52999997 200 254 28 0.000000 0.000000 0.000000 0.000000 -60.708740 0.000000 179.000000 0.643503 -0.676251 0.358593
4.07999992 -11.51000023 0.56000000 200 254 28 0.000000 0.000000 0.000000 0.000000 -60.708740 0.000000 179.000000 -0.151144 0.960749 0.232630
4.11000013 -11.50000000 0.52999997 200 254 28 0.000000 0.000000 0.000000 0.000000 -60.708740 0.000000 179.000000 -0.475377 0.863920 -0.166308
4.07999992 -11.51000023 0.54000002 200 254 28 0.000000 0.000000 0.000000 0.000000 -60.708740 0.000000 179.000000 -0.248274 0.935585 -0.251079
4.09999990 -11.50000000 0.51999998 200 254 28 0.000000 0.000000 0.000000 0.000000 -60.708740 0.000000 179.000000 -0.417453 0.778054 -0.469431
4.07999992 -11.52000046 0.51999998 200 254 28 0.000000 0.000000 0.000000 0.000000 -60.708740 0.000000 179.000000 0.752462 -0.554189 0.355916
4.07000017 -11.51000023 0.56000000 200 254 28 0.000000 0.000000 0.000000 0.000000 -60.708740 0.000000 179.000000 -0.466790 0.883227 0.044910
4.07000017 -11.51000023 0.56000000 200 254 28 0.000000 0.000000 0.000000 0.000000 -60.708740 0.000000 179.000000 -0.466790 0.883227 0.044910
4.07000017 -11.51000023 0.55000001 200 254 28 0.000000 0.000000 0.000000 0.000000 -60.708740 0.000000 179.000000 -0.528570 0.847654 0.045782
4.07000017 -11.51000023 0.56000000 200 254 28 0.000000 0.000000 0.000000 0.000000 -60.708740 0.000000 179.000000 -0.466790 0.883227 0.044910
4.05999994 -11.52000046 0.56000000 200 254 28 0.000000 0.000000 0.000000 0.000000 -60.708740 0.000000 179.000000 -0.600703 0.782275 -0.164928
4.11000013 -11.53999996 0.64999998 200 254 28 0.000000 0.000000 0.000000 0.000000 -60.708740 0.000000 179.000000 -0.047393 0.946588 0.318945
4.05000019 -11.53999996 0.56999999 200 254 28 0.000000 0.000000 0.000000 0.000000 -60.708740 0.000000 179.000000 -0.614940 0.696932 -0.368964
4.03999996 -11.60000038 0.50000000 200 254 28 0.000000 0.000000 0.000000 0.000000 -60.708740 0.000000 179.000000 -0.495254 0.727145 -0.475377
4.05000019 -11.59000015 0.51999998 200 254 28 0.000000 0.000000 0.000000 0.000000 -60.708740 0.000000 179.000000 -0.734227 0.338749 -0.588354
3.99000001 -11.52000046 0.64999998 200 254 28 0.000000 0.000000 0.000000 0.000000 -60.708740 0.000000 179.000000 0.617751 -0.746646 -0.246786
4.01000023 -11.51000023 0.57999998 200 254 28 0.000000 0.000000 0.000000 0.000000 -60.708740 0.000000 179.000000 -0.425674 0.791462 -0.438622
4.03000021 -11.52000046 0.56999999 200 254 28 0.000000 0.000000 0.000000 0.000000 -60.708740 0.000000 179.000000 -0.159568 0.966491 -0.201082
4.01000023 -11.52000046 0.58999997 200 254 28 0.000000 0.000000 0.000000 0.000000 -60.708740 0.000000 179.000000 -0.568941 0.807867 -0.153808
4.01000023 -11.52000046 0.58999997 200 254 28 0.000000 0.000000 0.000000 0.000000 -60.708740 0.000000 179.000000 -0.568941 0.807867 -0.153808
4.01999998 -11.52999973 0.56000000 200 254 28 0.000000 0.000000 0.000000 0.000000 -60.708740 0.000000 179.000000 -0.625761 0.752459 -0.205497
4.01000023 -11.56999969 0.57999998 200 254 28 0.000000 0.000000 0.000000 0.000000 -60.708740 0.000000 179.000000 -0.477476 0.803245 -0.356111
4.00000000 -11.56999969 0.58999997 200 254 28 0.000000 0.000000 0.000000 0.000000 -60.708740 0.000000 179.000000 -0.372944 0.926429 -0.051395
4.01000023 -11.56999969 0.56999999 200 254 28 0.000000 0.000000 0.000000 0.000000 -60.708740 0.000000 179.000000 -0.580707 0.733611 -0.352979
4.01000023 -11.59000015 0.62000000 200 254 28 0.000000 0.000000 0.000000 0.000000 -60.708740 0.000000 179.000000 -0.675631 0.728854 -0.110880
3.99000001 -11.57999992 0.57999998 200 254 28 0.000000 0.000000 0.000000 0.000000 -60.708740 0.000000 179.000000 -0.474320 0.806504 -0.352946
4.01999998 -11.59000015 0.58999997 200 254 28 0.000000 0.000000 0.000000 0.000000 -60.708740 0.000000 179.000000 -0.487844 0.707623 -0.511154
4.00000000 -11.60999966 0.58999997 200 254 28 0.000000 0.000000 0.000000 0.000000 -60.708740 0.000000 179.000000 0.850867 -0.441589 0.284648
4.01000023 -11.57999992 0.56999999 200 254 28 0.000000 0.000000 0.000000 0.000000 -60.708740 0.000000 179.000000 -0.559298 0.626887 -0.542401
3.96000004 -11.56000042 0.63000000 200 254 28 0.000000 0.000000 0.000000 0.000000 -60.708740 0.000000 179.000000 -0.308359 0.950456 -0.039338
3.97000003 -11.60000038 0.63999999 200 254 28 0.000000 0.000000 0.000000 0.000000 -60.708740 0.000000 179.000000 -0.505655 0.861942 0.036999
3.98000002 -11.60999966 0.61000001 200 254 28 0.000000 0.000000 0.000000 0.000000 -60.708740 0.000000 179.000000 -0.386320 0.803096 -0.453645
3.98000002 -11.60999966 0.61000001 200 254 28 0.000000 0.000000 0.000000 0.000000 -60.708740 0.000000 179.000000 -0.386320 0.803096 -0.453645
3.98000002 -11.59000015 0.63999999 200 254 28 0.000000 0.000000 0.000000 0.000000 -60.708740 0.000000 179.000000 -0.543936 0.784980 0.296548
4.03000021 -11.56999969 0.56000000 200 254 28 0.000000 0.000000 0.000000 0.000000 -60.708740 0.000000 179.000000 0.783192 -0.578477 0.227979
4.03000021 -11.60000038 0.52999997 200 254 28 0.000000 0.000000 0.000000 0.000000 -60.708740 0.000000 179.000000 0.866407 -0.314360 0.387966
4.03000021 -11.60000038 0.52999997 200 254 28 0.000000 0.000000 0.000000 0.000000 -60.708740 0.000000 179.000000 0.866407 -0.314360 0.387966
4.01999998 -11.57999992 0.55000001 200 254 28 0.000000 0.000000 0.000000 0.000000 -60.708740 0.000000 179.000000 -0.422619 0.697737 -0.578409
4.03000021 -11.57999992 0.49000001 200 254 28 0.000000 0.000000 0.000000 0.000000 -60.708740 0.000000 179.000000 0.427921 -0.427921 0.796095
3.97000003 -11.59000015 0.56000000 200 254 28 0.000000 0.000000 0.000000 0.000000 -60.708740 0.000000 179.000000 -0.376774 0.669637 -0.640022
4.09000015 -11.50000000 0.47000000 200 254 28 0.000000 0.000000 0.000000 0.000000 -60.708740 0.000000 179.000000 -0.430591 0.730849 -0.529577
4.09000015 -11.52000046 0.47999999 200 254 28 0.000000 0.000000 0.000000 0.000000 -60.708740 0.000000 179.000000 0.808395 -0.421006 0.411401
4.11000013 -11.51000023 0.44999999 200 254 28 0.000000 0.000000 0.000000 0.000000 -60.708740 0.000000 179.000000 0.693304 -0.440589 0.570272
4.09999990 -11.56000042 0.47000000 200 254 28 0.000000 0.000000 0.000000 0.000000 -60.708740 0.000000 179.000000 -0.708066 0.702274 -0.073847
4.09999990 -11.56000042 0.47000000 200 254 28 0.000000 0.000000 0.000000 0.000000 -60.708740 0.000000 179.000000 -0.708066 0.702274 -0.073847
4.09000015 -11.60000038 0.47999999 200 254 28 0.000000 0.000000 0.000000 0.000000 -60.708740 0.000000 179.000000 0.371282 -0.580640 0.724573
4.05999994 -11.60000038 0.46000001 200 254 28 0.000000 0.000000 0.000000 0.000000 -60.708740 0.000000 179.000000 0.381680 -0.410187 0.828292
4.05000019 -11.64999962 0.49000001 200 254 28 0.000000 0.000000 0.000000 0.000000 -60.708740 0.000000 179.000000 0.830951 -0.046086 0.554433
4.07000017 -11.65999985 0.50000000 200 254 28 0.000000 0.000000 0.000000 0.000000 -60.708740 0.000000 179.000000 0.313920 0.018760 0.949264
4.05999994 -11.63000011 0.51999998 200 254 28 0.000000 0.000000 0.000000 0.000000 -60.708740 0.000000 179.000000 0.441694 -0.396721 0.804686
4.05999994 -11.61999989 0.51999998 200 254 28 0.000000 0.000000 0.000000 0.000000 -60.708740 0.000000 179.000000 0.726123 -0.296540 0.620330
4.07000017 -11.64999962 0.50999999 200 254 28 0.000000 0.000000 0.000000 0.000000 -60.708740 0.000000 179.000000 0.888829 -0.160423 0.429240
4.07000017 -11.69999981 0.51999998 200 254 28 0.000000 0.000000 0.000000 0.000000 -60.708740 0.000000 179.000000 0.592146 0.052290 0.804132
4.05999994 -11.67000008 0.51999998 200 254 28 0.000000 0.000000 0.000000 0.000000 -60.708740 0.000000 179.000000 0.820664 0.134076 0.555458
4.07000017 -11.68000031 0.50999999 200 254 28 0.000000 0.000000 0.000000 0.000000 -60.708740 0.000000 179.000000 0.387873 0.148097 0.909737
4.07000017 -11.68000031 0.51999998 200 254 28 0.000000 0.000000 0.000000 0.000000 -60.708740 0.000000 179.000000 0.359645 0.314120 0.878626
4.07000017 -11.68999958 0.51999998 200 254 28 0.000000 0.000000 0.000000 0.000000 -60.708740 0.000000 179.000000 0.418204 0.503485 0.756048
4.09999990 -11.72000027 0.57999998 200 254 28 0.000000 0.000000 0.000000 0.000000 -60.708740 0.000000 179.000000 -0.447597 0.837491 0.313474
4.11000013 -11.72000027 0.56999999 200 254 28 0.000000 0.000000 0.000000 0.000000 -60.708740 0.000000 179.000000 -0.434378 0.842288 0.319166
4.11000013 -11.72000027 0.56999999 200 254 28 0.000000 0.000000 0.000000 0.000000 -60.708740 0.000000 179.000000 -0.434378 0.842288 0.319166
4.09999990 -11.72999954 0.60000002 200 254 28 0.000000 0.000000 0.000000 0.000000 -60.708740 0.000000 179.000000 -0.346154 0.780859 0.520036
4.09000015 -11.72999954 0.57999998 200 254 28 0.000000 0.000000 0.000000 0.000000 -60.708740 0.000000 179.000000 -0.423264 0.742771 0.518787
4.09999990 -11.76000023 0.63000000 200 254 28 0.000000 0.000000 0.000000 0.000000 -60.708740 0.000000 179.000000 -0.454580 0.888559 0.061801
4.09000015 -11.75000000 0.61000001 200 254 28 0.000000 0.000000 0.000000 0.000000 -60.708740 0.000000 179.000000 -0.476367 0.871193 0.118734
4.09000015 -11.77000046 0.64999998 200 254 28 0.000000 0.000000 0.000000 0.000000 -60.708740 0.000000 179.000000 0.841663 -0.522563 0.136130
4.03999996 -11.72999954 0.57999998 200 254 28 0.000000 0.000000 0.000000 0.000000 -60.708740 0.000000 179.000000 0.420780 0.342568 0.839995
4.07000017 -11.77999973 0.63999999 200 254 28 0.000000 0.000000 0.000000 0.000000 -60.708740 0.000000 179.000000 -0.450266 0.890953 0.058849
4.05000019 -11.76000023 0.63999999 200 254 28 0.000000 0.000000 0.000000 0.000000 -60.708740 0.000000 179.000000 -0.505484 0.832292 0.227544
4.07000017 -11.77999973 0.64999998 200 254 28 0.000000 0.000000 0.000000 0.000000 -60.708740 0.000000 179.000000 -0.511885 0.800315 0.312202
4.03999996 -11.77999973 0.57999998 200 254 28 0.000000 0.000000 0.000000 0.000000 -60.708740 0.000000 179.000000 -0.029620 0.692551 0.720761
4.05000019 -11.72999954 0.54000002 200 254 28 0.000000 0.000000 0.000000 0.000000 -60.708740 0.000000 179.000000 0.172963 0.699504 0.693381
4.05000019 -11.72999954 0.54000002 200 254 28 0.000000 0.000000 0.000000 0.000000 -60.708740 0.000000 179.000000 0.172963 0.699504 0.693381
4.05000019 -11.72000027 0.52999997 200 254 28 0.000000 0.000000 0.000000 0.000000 -60.708740 0.000000 179.000000 0.054595 0.533355 0.844128
4.03999996 -11.72000027 0.54000002 200 254 28 0.000000 0.000000 0.000000 0.000000 -60.708740 0.000000 179.000000 0.150074 0.554234 0.818720
4.07000017 -11.71000004 0.52999997 200 254 28 0.000000 0.000000 0.000000 0.000000 -60.708740 0.000000 179.000000 0.542013 0.442561 0.714396
4.07000017 -11.71000004 0.51999998 200 254 28 0.000000 0.000000 0.000000 0.000000 -60.708740 0.000000 179.000000 0.613551 0.373394 0.695796
3.99000001 -11.65999985 0.56999999 200 254 28 0.000000 0.000000 0.000000 0.000000 -60.708740 0.000000 179.000000 0.874953 -0.345416 0.339330
4.00000000 -11.64000034 0.56999999 200 254 28 0.000000 0.000000 0.000000 0.000000 -60.708740 0.000000 179.000000 -0.461560 0.774702 -0.432202
3.98000002 -11.64000034 0.61000001 200 254 28 0.000000 0.000000 0.000000 0.000000 -60.708740 0.000000 179.000000 -0.554195 0.815522 -0.166709
3.96000004 -11.64999962 0.62000000 200 254 28 0.000000 0.000000 0.000000 0.000000 -60.708740 0.000000 179.000000 -0.586818 0.776717 -0.228812
3.97000003 -11.64000034 0.61000001 200 254 28 0.000000 0.000000 0.000000 0.000000 -60.708740 0.000000 179.000000 0.700511 -0.675437 0.230369
3.96000004 -11.63000011 0.60000002 200 254 28 0.000000 0.000000 0.000000 0.000000 -60.708740 0.000000 179.000000 0.838472 -0.510309 0.191178
3.98000002 -11.61999989 0.56999999 200 254 28 0.000000 0.000000 0.000000 0.000000 -60.708740 0.000000 179.000000 0.808076 -0.546413 0.220104
3.98000002 -11.64000034 0.58999997 200 254 28 0.000000 0.000000 0.000000 0.000000 -60.708740 0.000000 179.000000 0.836686 -0.326855 0.439456
3.95000005 -11.68000031 0.63999999 200 254 28 0.000000 0.000000 0.000000 0.000000 -60.708740 0.000000 179.000000 0.791324 -0.545903 0.275311
3.95000005 -11.67000008 0.63999999 200 254 28 0.000000 0.000000 0.000000 0.000000 -60.708740 0.000000 179.000000 -0.507679 0.688634 -0.517732
3.95000005 -11.68000031 0.61000001 200 254 28 0.000000 0.000000 0.000000 0.000000 -60.708740 0.000000 179.000000 0.644589 -0.705672 0.294164
3.95000005 -11.67000008 0.61000001 200 254 28 0.000000 0.000000 0.000000 0.000000 -60.708740 0.000000 179.000000 0.644658 -0.557132 0.523469
3.97000003 -11.68999958 0.56999999 200 254 28 0.000000 0.000000 0.000000 0.000000 -60.708740 0.000000 179.000000 0.569902 -0.118668 0.813099
