//X Y Z R G B PointSourceId ScanDirectionFlag NumberOfReturns ReturnNumber GpsTime Intensity Classification Nx Ny Nz
15.92000008 -11.93000031 -0.09000000 8 140 181 0.000000 0.000000 0.000000 0.000000 -60.708740 0.000000 77.000000 -0.359526 0.128107 0.924299
15.92000008 -11.93000031 -0.09000000 8 140 181 0.000000 0.000000 0.000000 0.000000 -60.708740 0.000000 77.000000 -0.359526 0.128107 0.924299
15.89999962 -11.89000034 -0.05000000 8 140 181 0.000000 0.000000 0.000000 0.000000 -60.708740 0.000000 77.000000 -0.320254 0.180405 0.929995
15.89000034 -11.89000034 -0.05000000 8 140 181 0.000000 0.000000 0.000000 0.000000 -60.708740 0.000000 77.000000 -0.672986 0.009713 0.739591
15.89000034 -11.90999985 -0.05000000 8 140 181 0.000000 0.000000 0.000000 0.000000 -60.708740 0.000000 77.000000 0.803429 -0.004106 -0.595386
15.88000011 -11.88000011 -0.04000000 8 140 181 0.000000 0.000000 0.000000 0.000000 -60.708740 0.000000 77.000000 0.740312 0.130116 -0.659551
15.86999989 -11.89000034 -0.07000000 8 140 181 0.000000 0.000000 0.000000 0.000000 -60.708740 0.000000 77.000000 0.701551 0.276465 -0.656805
15.89000034 -11.92000008 -0.05000000 8 140 181 0.000000 0.000000 0.000000 0.000000 -60.708740 0.000000 77.000000 -0.474596 -0.103419 0.874107
15.88000011 -11.92000008 -0.05000000 8 140 181 0.000000 0.000000 0.000000 0.000000 -60.708740 0.000000 77.000000 -0.537312 0.081238 0.839462
15.86999989 -11.94999981 -0.04000000 8 140 181 0.000000 0.000000 0.000000 0.000000 -60.708740 0.000000 77.000000 -0.405094 -0.216541 0.888261
15.86999989 -11.93999958 -0.04000000 8 140 181 0.000000 0.000000 0.000000 0.000000 -60.708740 0.000000 77.000000 -0.600035 -0.091531 0.794720
15.89000034 -11.92000008 -0.05000000 8 140 181 0.000000 0.000000 0.000000 0.000000 -60.708740 0.000000 77.000000 -0.474596 -0.103419 0.874107
15.89999962 -11.93999958 -0.03000000 8 140 181 0.000000 0.000000 0.000000 0.000000 -60.708740 0.000000 77.000000 -0.419420 0.419420 0.805093
15.86999989 -11.93000031 -0.03000000 8 140 181 0.000000 0.000000 0.000000 0.000000 -60.708740 0.000000 77.000000 -0.255767 -0.147099 0.955482
15.86999989 -11.94999981 -0.07000000 8 140 181 0.000000 0.000000 0.000000 0.000000 -60.708740 0.000000 77.000000 -0.426474 -0.166253 0.889090
15.89999962 -11.94999981 -0.11000000 8 140 181 0.000000 0.000000 0.000000 0.000000 -60.708740 0.000000 77.000000 -0.373466 0.194664 0.906989
15.88000011 -11.92000008 -0.13000000 8 140 181 0.000000 0.000000 0.000000 0.000000 -60.708740 0.000000 77.000000 -0.239084 -0.047817 0.969821
15.94999981 -12.07999992 -0.04000000 8 140 181 0.000000 0.000000 0.000000 0.000000 -60.708740 0.000000 77.000000 0.654902 -0.664750 -0.359458
15.94999981 -12.07999992 -0.03000000 8 140 181 0.000000 0.000000 0.000000 0.000000 -60.708740 0.000000 77.000000 0.856720 -0.342378 -0.385756
15.90999985 -11.98999977 -0.07000000 8 140 181 0.000000 0.000000 0.000000 0.000000 -60.708740 0.000000 77.000000 -0.567104 0.262344 0.780749
15.90999985 -11.98999977 -0.07000000 8 140 181 0.000000 0.000000 0.000000 0.000000 -60.708740 0.000000 77.000000 -0.567104 0.262344 0.780749
15.90999985 -12.02000046 -0.07000000 8 140 181 0.000000 0.000000 0.000000 0.000000 -60.708740 0.000000 77.000000 0.653928 -0.579961 -0.485823
15.90999985 -12.00000000 -0.07000000 8 140 181 0.000000 0.000000 0.000000 0.000000 -60.708740 0.000000 77.000000 -0.449766 0.022688 0.892858
15.88000011 -11.97000027 -0.03000000 8 140 181 0.000000 0.000000 0.000000 0.000000 -60.708740 0.000000 77.000000 0.716204 -0.143241 -0.683033
15.89999962 -11.97000027 -0.09000000 8 140 181 0.000000 0.000000 0.000000 0.000000 -60.708740 0.000000 77.000000 0.619590 0.192181 -0.761035
15.86999989 -11.96000004 -0.08000000 8 140 181 0.000000 0.000000 0.000000 0.000000 -60.708740 0.000000 77.000000 0.692288 0.092208 -0.715706
15.89999962 -12.00000000 -0.08000000 8 140 181 0.000000 0.000000 0.000000 0.000000 -60.708740 0.000000 77.000000 -0.368914 -0.048576 0.928193
15.88000011 -12.02000046 -0.08000000 8 140 181 0.000000 0.000000 0.000000 0.000000 -60.708740 0.000000 77.000000 0.459639 -0.136883 -0.877493
15.89999962 -11.97999954 -0.11000000 8 140 181 0.000000 0.000000 0.000000 0.000000 -60.708740 0.000000 77.000000 -0.425913 0.273256 0.862513
15.93999958 -12.06000042 -0.03000000 8 140 181 0.000000 0.000000 0.000000 0.000000 -60.708740 0.000000 77.000000 -0.459520 0.159009 0.873818
15.92000008 -12.07999992 -0.07000000 8 140 181 0.000000 0.000000 0.000000 0.000000 -60.708740 0.000000 77.000000 0.553824 -0.293574 -0.779162
15.92000008 -12.07999992 -0.07000000 8 140 181 0.000000 0.000000 0.000000 0.000000 -60.708740 0.000000 77.000000 0.553824 -0.293574 -0.779162
15.93999958 -12.09000015 -0.09000000 8 140 181 0.000000 0.000000 0.000000 0.000000 -60.708740 0.000000 77.000000 -0.424689 0.222030 0.877691
15.88000011 -12.05000019 -0.07000000 8 140 181 0.000000 0.000000 0.000000 0.000000 -60.708740 0.000000 77.000000 -0.431219 0.617693 0.657651
15.89999962 -12.10000038 -0.05000000 8 140 181 0.000000 0.000000 0.000000 0.000000 -60.708740 0.000000 77.000000 0.816561 -0.383609 -0.431361
15.89000034 -12.09000015 -0.08000000 8 140 181 0.000000 0.000000 0.000000 0.000000 -60.708740 0.000000 77.000000 0.503621 -0.402571 -0.764396
15.82999992 -11.81999969 -0.09000000 8 140 181 0.000000 0.000000 0.000000 0.000000 -60.708740 0.000000 77.000000 -0.281925 -0.041349 0.958545
15.82999992 -11.85999966 -0.05000000 8 140 181 0.000000 0.000000 0.000000 0.000000 -60.708740 0.000000 77.000000 0.727572 0.006929 -0.685996
15.82999992 -11.85999966 -0.07000000 8 140 181 0.000000 0.000000 0.000000 0.000000 -60.708740 0.000000 77.000000 -0.252494 0.098690 0.962552
15.84000015 -11.81000042 -0.11000000 8 140 181 0.000000 0.000000 0.000000 0.000000 -60.708740 0.000000 77.000000 -0.035301 -0.239806 0.970179
15.84000015 -11.90999985 -0.06000000 8 140 181 0.000000 0.000000 0.000000 0.000000 -60.708740 0.000000 77.000000 -0.197873 -0.182148 0.963156
15.85000038 -11.89999962 -0.05000000 8 140 181 0.000000 0.000000 0.000000 0.000000 -60.708740 0.000000 77.000000 -0.489097 -0.354395 0.796987
15.82999992 -11.89999962 -0.07000000 8 140 181 0.000000 0.000000 0.000000 0.000000 -60.708740 0.000000 77.000000 -0.455791 0.234710 0.858584
15.82999992 -11.88000011 -0.08000000 8 140 181 0.000000 0.000000 0.000000 0.000000 -60.708740 0.000000 77.000000 -0.516186 -0.089586 0.851778
15.84000015 -11.92000008 -0.04000000 8 140 181 0.000000 0.000000 0.000000 0.000000 -60.708740 0.000000 77.000000 -0.333904 0.408451 0.849515
15.82999992 -11.93000031 -0.06000000 8 140 181 0.000000 0.000000 0.000000 0.000000 -60.708740 0.000000 77.000000 -0.496933 0.116671 0.859910
15.85999966 -11.94999981 -0.05000000 8 140 181 0.000000 0.000000 0.000000 0.000000 -60.708740 0.000000 77.000000 0.639263 -0.162473 -0.751628
15.80000019 -11.94999981 -0.04000000 8 140 181 0.000000 0.000000 0.000000 0.000000 -60.708740 0.000000 77.000000 -0.370600 0.260462 0.891524
15.81000042 -11.93000031 -0.06000000 8 140 181 0.000000 0.000000 0.000000 0.000000 -60.708740 0.000000 77.000000 0.464616 -0.287471 -0.837551
15.78999996 -11.93999958 -0.03000000 8 140 181 0.000000 0.000000 0.000000 0.000000 -60.708740 0.000000 77.000000 -0.652132 0.351400 0.671745
15.78999996 -11.94999981 -0.04000000 8 140 181 0.000000 0.000000 0.000000 0.000000 -60.708740 0.000000 77.000000 0.670794 -0.210109 -0.711259
15.80000019 -11.93000031 -0.07000000 8 140 181 0.000000 0.000000 0.000000 0.000000 -60.708740 0.000000 77.000000 -0.370042 -0.059684 0.927096
15.81000042 -11.93999958 -0.07000000 8 140 181 0.000000 0.000000 0.000000 0.000000 -60.708740 0.000000 77.000000 -0.496537 -0.012111 0.867931
15.81000042 -11.94999981 -0.07000000 8 140 181 0.000000 0.000000 0.000000 0.000000 -60.708740 0.000000 77.000000 -0.437058 0.192777 0.878531
15.85999966 -11.96000004 -0.05000000 8 140 181 0.000000 0.000000 0.000000 0.000000 -60.708740 0.000000 77.000000 -0.572567 0.015104 0.819719
15.85999966 -11.97000027 -0.05000000 8 140 181 0.000000 0.000000 0.000000 0.000000 -60.708740 0.000000 77.000000 -0.466249 -0.162237 0.869650
15.81999969 -11.97000027 -0.03000000 8 140 181 0.000000 0.000000 0.000000 0.000000 -60.708740 0.000000 77.000000 0.727459 -0.041123 -0.684918
15.81000042 -11.97000027 -0.05000000 8 140 181 0.000000 0.000000 0.000000 0.000000 -60.708740 0.000000 77.000000 -0.515791 0.277493 0.810529
15.81000042 -11.97000027 -0.05000000 8 140 181 0.000000 0.000000 0.000000 0.000000 -60.708740 0.000000 77.000000 -0.515791 0.277493 0.810529
15.80000019 -11.98999977 -0.06000000 8 140 181 0.000000 0.000000 0.000000 0.000000 -60.708740 0.000000 77.000000 -0.374154 0.260864 0.889920
15.78999996 -11.96000004 -0.05000000 8 140 181 0.000000 0.000000 0.000000 0.000000 -60.708740 0.000000 77.000000 -0.545103 -0.084412 0.834108
15.81000042 -11.97000027 -0.05000000 8 140 181 0.000000 0.000000 0.000000 0.000000 -60.708740 0.000000 77.000000 -0.515791 0.277493 0.810529
15.80000019 -11.97999954 -0.07000000 8 140 181 0.000000 0.000000 0.000000 0.000000 -60.708740 0.000000 77.000000 -0.546628 0.134079 0.826572
15.85999966 -12.03999996 -0.04000000 8 140 181 0.000000 0.000000 0.000000 0.000000 -60.708740 0.000000 77.000000 -0.277211 0.210346 0.937501
15.82999992 -12.06999969 -0.09000000 8 140 181 0.000000 0.000000 0.000000 0.000000 -60.708740 0.000000 77.000000 -0.580855 0.112659 0.806174
15.84000015 -12.05000019 -0.08000000 8 140 181 0.000000 0.000000 0.000000 0.000000 -60.708740 0.000000 77.000000 -0.509855 0.028705 0.859782
15.81999969 -12.06000042 -0.09000000 8 140 181 0.000000 0.000000 0.000000 0.000000 -60.708740 0.000000 77.000000 -0.478585 0.122161 0.869502
15.81000042 -12.06999969 -0.10000000 8 140 181 0.000000 0.000000 0.000000 0.000000 -60.708740 0.000000 77.000000 -0.333921 0.512864 0.790865
15.81000042 -12.07999992 -0.09000000 8 140 181 0.000000 0.000000 0.000000 0.000000 -60.708740 0.000000 77.000000 -0.236223 0.614805 0.752472
15.81999969 -12.06000042 -0.09000000 8 140 181 0.000000 0.000000 0.000000 0.000000 -60.708740 0.000000 77.000000 -0.478585 0.122161 0.869502
15.81999969 -12.06999969 -0.09000000 8 140 181 0.000000 0.000000 0.000000 0.000000 -60.708740 0.000000 77.000000 -0.373216 0.652718 0.659294
15.77000046 -11.97000027 -0.04000000 8 140 181 0.000000 0.000000 0.000000 0.000000 -60.708740 0.000000 77.000000 -0.381484 0.504857 0.774331
15.77000046 -11.96000004 -0.05000000 8 140 181 0.000000 0.000000 0.000000 0.000000 -60.708740 0.000000 77.000000 -0.305541 0.188347 0.933365
15.76000023 -11.97000027 -0.04000000 8 140 181 0.000000 0.000000 0.000000 0.000000 -60.708740 0.000000 77.000000 -0.342054 0.482057 0.806610
15.76000023 -11.97999954 -0.04000000 8 140 181 0.000000 0.000000 0.000000 0.000000 -60.708740 0.000000 77.000000 -0.497771 0.220724 0.838752
15.77000046 -11.98999977 -0.06000000 8 140 181 0.000000 0.000000 0.000000 0.000000 -60.708740 0.000000 77.000000 -0.279229 0.356876 0.891443
15.77000046 -11.97999954 -0.03000000 8 140 181 0.000000 0.000000 0.000000 0.000000 -60.708740 0.000000 77.000000 -0.511876 0.266051 0.816823
15.77999973 -11.97999954 -0.03000000 8 140 181 0.000000 0.000000 0.000000 0.000000 -60.708740 0.000000 77.000000 0.718082 -0.456057 -0.525709
15.77999973 -12.02999973 -0.06000000 8 140 181 0.000000 0.000000 0.000000 0.000000 -60.708740 0.000000 77.000000 -0.586815 -0.069961 0.806693
15.77000046 -12.01000023 -0.06000000 8 140 181 0.000000 0.000000 0.000000 0.000000 -60.708740 0.000000 77.000000 -0.350140 0.008848 0.936656
15.73999977 -12.02999973 -0.05000000 8 140 181 0.000000 0.000000 0.000000 0.000000 -60.708740 0.000000 77.000000 -0.197953 0.374233 0.905961
15.76000023 -12.00000000 -0.04000000 8 140 181 0.000000 0.000000 0.000000 0.000000 -60.708740 0.000000 77.000000 -0.344899 0.294135 0.891364
15.73999977 -12.03999996 -0.04000000 8 140 181 0.000000 0.000000 0.000000 0.000000 -60.708740 0.000000 77.000000 -0.249990 0.434831 0.865117
16.01000023 -12.14999962 -0.09000000 8 140 181 0.000000 0.000000 0.000000 0.000000 -60.708740 0.000000 77.000000 -0.268263 0.446082 0.853842
15.97999954 -12.14999962 -0.09000000 8 140 181 0.000000 0.000000 0.000000 0.000000 -60.708740 0.000000 77.000000 -0.220835 0.507158 0.833080
15.96000004 -12.18999958 -0.05000000 8 140 181 0.000000 0.000000 0.000000 0.000000 -60.708740 0.000000 77.000000 -0.486136 0.590428 0.644256
15.97999954 -12.15999985 -0.11000000 8 140 181 0.000000 0.000000 0.000000 0.000000 -60.708740 0.000000 77.000000 -0.355251 0.289297 0.888878
15.88000011 -12.19999981 -0.04000000 8 140 181 0.000000 0.000000 0.000000 0.000000 -60.708740 0.000000 78.000000 -0.426452 0.822783 0.375722
15.89000034 -12.28999996 -0.08000000 8 140 181 0.000000 0.000000 0.000000 0.000000 -60.708740 0.000000 78.000000 -0.560302 0.677380 0.476675
16.02000046 -12.31000042 -0.03000000 8 140 181 0.000000 0.000000 0.000000 0.000000 -60.708740 0.000000 78.000000 -0.299947 0.614329 0.729816
15.96000004 -12.32999992 -0.04000000 8 140 181 0.000000 0.000000 0.000000 0.000000 -60.708740 0.000000 78.000000 -0.672455 0.733987 0.095228
15.96000004 -12.32999992 -0.04000000 8 140 181 0.000000 0.000000 0.000000 0.000000 -60.708740 0.000000 78.000000 -0.672455 0.733987 0.095228
15.97999954 -12.35000038 -0.03000000 8 140 181 0.000000 0.000000 0.000000 0.000000 -60.708740 0.000000 78.000000 -0.478844 0.865995 0.144090
15.97999954 -12.35000038 -0.03000000 8 140 181 0.000000 0.000000 0.000000 0.000000 -60.708740 0.000000 78.000000 -0.478844 0.865995 0.144090
15.98999977 -12.34000015 -0.04000000 8 140 181 0.000000 0.000000 0.000000 0.000000 -60.708740 0.000000 78.000000 0.487026 -0.533888 -0.691209
16.03000069 -12.39000034 -0.05000000 8 140 181 0.000000 0.000000 0.000000 0.000000 -60.708740 0.000000 78.000000 -0.587786 0.807678 0.046515
16.03000069 -12.39000034 -0.04000000 8 140 181 0.000000 0.000000 0.000000 0.000000 -60.708740 0.000000 78.000000 -0.534130 0.840575 0.090215
15.94999981 -12.39000034 -0.03000000 8 140 181 0.000000 0.000000 0.000000 0.000000 -60.708740 0.000000 78.000000 -0.493986 0.869469 -0.001331
15.92000008 -12.31000042 -0.05000000 8 140 181 0.000000 0.000000 0.000000 0.000000 -60.708740 0.000000 78.000000 -0.440983 0.846377 0.298630
15.89000034 -12.31999969 -0.05000000 8 140 181 0.000000 0.000000 0.000000 0.000000 -60.708740 0.000000 78.000000 -0.507383 0.691581 0.514081
15.89999962 -12.31000042 -0.03000000 8 140 181 0.000000 0.000000 0.000000 0.000000 -60.708740 0.000000 78.000000 -0.710335 0.639782 0.293434
15.89000034 -12.32999992 -0.04000000 8 140 181 0.000000 0.000000 0.000000 0.000000 -60.708740 0.000000 78.000000 -0.617393 0.735447 0.279183
15.85999966 -12.21000004 -0.03000000 8 140 181 0.000000 0.000000 0.000000 0.000000 -60.708740 0.000000 78.000000 0.674926 -0.467257 -0.571092
15.85999966 -12.26000023 -0.03000000 8 140 181 0.000000 0.000000 0.000000 0.000000 -60.708740 0.000000 78.000000 -0.180317 0.798548 0.574288
15.81999969 -12.34000015 -0.04000000 8 140 181 0.000000 0.000000 0.000000 0.000000 -60.708740 0.000000 78.000000 -0.230080 0.724674 0.649546
15.53999996 -11.75000000 0.69000000 8 140 181 0.000000 0.000000 0.000000 0.000000 -60.708740 0.000000 77.000000 -0.583578 0.094126 0.806583
15.50000000 -11.77999973 0.67000002 8 140 181 0.000000 0.000000 0.000000 0.000000 -60.708740 0.000000 77.000000 -0.520873 0.259659 0.813184
15.43999958 -11.77999973 0.80000001 8 140 181 0.000000 0.000000 0.000000 0.000000 -60.708740 0.000000 77.000000 -0.548689 0.133862 0.825240
15.43999958 -11.77999973 0.66000003 8 140 181 0.000000 0.000000 0.000000 0.000000 -60.708740 0.000000 77.000000 -0.351259 0.354327 0.866643
15.67000008 -11.77999973 0.62000000 8 140 181 0.000000 0.000000 0.000000 0.000000 -60.708740 0.000000 77.000000 -0.473421 0.263697 0.840438
15.55000019 -11.77000046 0.63999999 8 140 181 0.000000 0.000000 0.000000 0.000000 -60.708740 0.000000 77.000000 -0.393887 0.393887 0.830485
15.53999996 -11.75000000 0.63000000 8 140 181 0.000000 0.000000 0.000000 0.000000 -60.708740 0.000000 77.000000 -0.418195 0.386393 0.822079
15.55000019 -11.77000046 0.58999997 8 140 181 0.000000 0.000000 0.000000 0.000000 -60.708740 0.000000 77.000000 -0.641421 -0.079635 0.763045
15.53999996 -11.77999973 0.56999999 8 140 181 0.000000 0.000000 0.000000 0.000000 -60.708740 0.000000 77.000000 0.760871 -0.058749 -0.646239
15.52999973 -11.77000046 0.56000000 8 140 181 0.000000 0.000000 0.000000 0.000000 -60.708740 0.000000 77.000000 0.752294 -0.246577 -0.610945
15.56000042 -11.76000023 0.52999997 8 140 181 0.000000 0.000000 0.000000 0.000000 -60.708740 0.000000 77.000000 0.801610 -0.037904 -0.596645
15.53999996 -11.77000046 0.51999998 8 140 181 0.000000 0.000000 0.000000 0.000000 -60.708740 0.000000 77.000000 -0.581434 0.177618 0.793969
15.56000042 -11.72000027 0.52999997 8 140 181 0.000000 0.000000 0.000000 0.000000 -60.708740 0.000000 77.000000 -0.286363 0.286363 0.914326
15.52000046 -11.68999958 0.54000002 8 140 181 0.000000 0.000000 0.000000 0.000000 -60.708740 0.000000 77.000000 -0.449196 0.717719 0.532073
15.48999977 -11.77999973 0.63000000 8 140 181 0.000000 0.000000 0.000000 0.000000 -60.708740 0.000000 77.000000 -0.444455 0.574296 0.687491
15.47999954 -11.76000023 0.63999999 8 140 181 0.000000 0.000000 0.000000 0.000000 -60.708740 0.000000 77.000000 0.795600 -0.154325 -0.585837
15.44999981 -11.76000023 0.60000002 8 140 181 0.000000 0.000000 0.000000 0.000000 -60.708740 0.000000 77.000000 0.750403 -0.341976 -0.565639
15.47999954 -11.77000046 0.60000002 8 140 181 0.000000 0.000000 0.000000 0.000000 -60.708740 0.000000 77.000000 0.500040 -0.526798 -0.687346
15.50000000 -11.72000027 0.54000002 8 140 181 0.000000 0.000000 0.000000 0.000000 -60.708740 0.000000 77.000000 -0.480515 0.756031 0.444435
15.51000023 -11.77000046 0.54000002 8 140 181 0.000000 0.000000 0.000000 0.000000 -60.708740 0.000000 77.000000 0.738924 -0.188956 -0.646751
15.48999977 -11.77999973 0.52999997 8 140 181 0.000000 0.000000 0.000000 0.000000 -60.708740 0.000000 77.000000 -0.278282 0.480387 0.831738
15.51000023 -11.75000000 0.51999998 8 140 181 0.000000 0.000000 0.000000 0.000000 -60.708740 0.000000 77.000000 0.777145 -0.328484 -0.536791
15.46000004 -11.72999954 0.50999999 8 140 181 0.000000 0.000000 0.000000 0.000000 -60.708740 0.000000 77.000000 -0.508239 0.059875 0.859132
15.44999981 -11.77000046 0.55000001 8 140 181 0.000000 0.000000 0.000000 0.000000 -60.708740 0.000000 77.000000 -0.342264 0.294437 0.892279
15.46000004 -11.77000046 0.50999999 8 140 181 0.000000 0.000000 0.000000 0.000000 -60.708740 0.000000 77.000000 -0.492503 0.289248 0.820839
15.46000004 -11.75000000 0.50999999 8 140 181 0.000000 0.000000 0.000000 0.000000 -60.708740 0.000000 77.000000 -0.556034 0.255306 0.790978
15.43999958 -11.77999973 0.64999998 8 140 181 0.000000 0.000000 0.000000 0.000000 -60.708740 0.000000 77.000000 0.770741 -0.142176 -0.621083
15.43999958 -11.77000046 0.64999998 8 140 181 0.000000 0.000000 0.000000 0.000000 -60.708740 0.000000 77.000000 0.730306 -0.448782 -0.515023
15.40999985 -11.77000046 0.50000000 8 140 181 0.000000 0.000000 0.000000 0.000000 -60.708740 0.000000 77.000000 0.846213 -0.305879 -0.436304
15.39000034 -11.77999973 0.47000000 8 140 181 0.000000 0.000000 0.000000 0.000000 -60.708740 0.000000 77.000000 0.753370 -0.372617 -0.541840
15.43999958 -11.77000046 0.46000001 8 140 181 0.000000 0.000000 0.000000 0.000000 -60.708740 0.000000 77.000000 -0.370995 0.361681 0.855307
16.27000046 -12.30000019 0.72000003 8 140 181 0.000000 0.000000 0.000000 0.000000 -60.708740 0.000000 77.000000 -0.115419 0.816697 -0.565406
16.20999908 -12.35000038 0.70999998 8 140 181 0.000000 0.000000 0.000000 0.000000 -60.708740 0.000000 77.000000 0.263601 0.878168 -0.399167
16.20999908 -12.35000038 0.72000003 8 140 181 0.000000 0.000000 0.000000 0.000000 -60.708740 0.000000 77.000000 -0.146026 0.736149 -0.660879
16.13999939 -12.18999958 0.66000003 8 140 181 0.000000 0.000000 0.000000 0.000000 -60.708740 0.000000 77.000000 0.007229 0.998693 -0.050606
16.13999939 -12.14999962 0.66000003 8 140 181 0.000000 0.000000 0.000000 0.000000 -60.708740 0.000000 77.000000 -0.155891 0.752213 -0.640214
16.17000008 -12.26000023 0.68000001 8 140 181 0.000000 0.000000 0.000000 0.000000 -60.708740 0.000000 77.000000 -0.385788 0.919124 -0.079865
16.12000084 -12.25000000 0.69999999 8 140 181 0.000000 0.000000 0.000000 0.000000 -60.708740 0.000000 77.000000 -0.181548 0.953464 -0.240719
16.05999947 -12.27000046 0.74000001 8 140 181 0.000000 0.000000 0.000000 0.000000 -60.708740 0.000000 77.000000 0.031485 0.983026 -0.180746
16.04000092 -12.28999996 0.75000000 8 140 181 0.000000 0.000000 0.000000 0.000000 -60.708740 0.000000 77.000000 0.276164 0.910318 -0.308310
16.04000092 -12.28999996 0.75000000 8 140 181 0.000000 0.000000 0.000000 0.000000 -60.708740 0.000000 77.000000 0.276164 0.910318 -0.308310
16.04000092 -12.27999973 0.69999999 8 140 181 0.000000 0.000000 0.000000 0.000000 -60.708740 0.000000 77.000000 0.127337 0.908152 -0.398803
16.04000092 -12.28999996 0.69999999 8 140 181 0.000000 0.000000 0.000000 0.000000 -60.708740 0.000000 77.000000 -0.349371 0.745866 -0.567118
16.20000076 -12.35000038 0.69000000 8 140 181 0.000000 0.000000 0.000000 0.000000 -60.708740 0.000000 77.000000 0.183805 0.982957 0.003425
16.14999962 -12.31000042 0.69999999 8 140 181 0.000000 0.000000 0.000000 0.000000 -60.708740 0.000000 77.000000 -0.311442 0.947358 -0.074277
16.14999962 -12.31000042 0.69999999 8 140 181 0.000000 0.000000 0.000000 0.000000 -60.708740 0.000000 77.000000 -0.311442 0.947358 -0.074277
16.13999939 -12.31999969 0.69000000 8 140 181 0.000000 0.000000 0.000000 0.000000 -60.708740 0.000000 77.000000 -0.123511 0.887295 -0.444357
16.06999969 -12.31999969 0.77999997 8 140 181 0.000000 0.000000 0.000000 0.000000 -60.708740 0.000000 77.000000 -0.088446 0.960090 -0.265339
16.04999924 -12.31000042 0.77999997 8 140 181 0.000000 0.000000 0.000000 0.000000 -60.708740 0.000000 77.000000 -0.006885 -0.607231 0.794495
16.06999969 -12.32999992 0.74000001 8 140 181 0.000000 0.000000 0.000000 0.000000 -60.708740 0.000000 77.000000 0.229593 0.745004 -0.626303
16.06999969 -12.31999969 0.76999998 8 140 181 0.000000 0.000000 0.000000 0.000000 -60.708740 0.000000 77.000000 0.406430 0.788572 -0.461485
16.04999924 -12.35999966 0.77999997 8 140 181 0.000000 0.000000 0.000000 0.000000 -60.708740 0.000000 77.000000 -0.145615 0.845746 -0.513331
16.04000092 -12.35999966 0.75000000 8 140 181 0.000000 0.000000 0.000000 0.000000 -60.708740 0.000000 77.000000 -0.093634 0.890218 -0.445808
16.09000015 -12.32999992 0.69000000 8 140 181 0.000000 0.000000 0.000000 0.000000 -60.708740 0.000000 77.000000 0.180003 0.879525 -0.440494
16.07999992 -12.35999966 0.72000003 8 140 181 0.000000 0.000000 0.000000 0.000000 -60.708740 0.000000 77.000000 -0.181550 0.982711 -0.036310
16.07999992 -12.35999966 0.72000003 8 140 181 0.000000 0.000000 0.000000 0.000000 -60.708740 0.000000 77.000000 -0.181550 0.982711 -0.036310
16.04999924 -12.30000019 0.67000002 8 140 181 0.000000 0.000000 0.000000 0.000000 -60.708740 0.000000 77.000000 0.273774 0.839882 -0.468664
16.04999924 -12.34000015 0.70999998 8 140 181 0.000000 0.000000 0.000000 0.000000 -60.708740 0.000000 77.000000 -0.391620 0.898250 -0.199449
16.05999947 -12.39999962 0.66000003 8 140 181 0.000000 0.000000 0.000000 0.000000 -60.708740 0.000000 77.000000 -0.093980 0.971124 -0.219286
16.04000092 -12.40999985 0.68000001 8 140 181 0.000000 0.000000 0.000000 0.000000 -60.708740 0.000000 77.000000 -0.373112 0.802272 -0.465990
16.05999947 -12.39999962 0.68000001 8 140 181 0.000000 0.000000 0.000000 0.000000 -60.708740 0.000000 77.000000 -0.319912 0.903714 -0.284530
15.82999992 -11.86999989 0.67000002 8 140 181 0.000000 0.000000 0.000000 0.000000 -60.708740 0.000000 77.000000 -0.198340 0.008119 0.980100
15.82999992 -11.85000038 0.67000002 8 140 181 0.000000 0.000000 0.000000 0.000000 -60.708740 0.000000 77.000000 -0.162502 -0.201503 0.965914
15.77999973 -11.93999958 0.75000000 8 140 181 0.000000 0.000000 0.000000 0.000000 -60.708740 0.000000 77.000000 -0.312390 0.021328 0.949715
15.77000046 -11.88000011 0.66000003 8 140 181 0.000000 0.000000 0.000000 0.000000 -60.708740 0.000000 77.000000 0.527947 0.445196 -0.723237
15.77000046 -11.90999985 0.68000001 8 140 181 0.000000 0.000000 0.000000 0.000000 -60.708740 0.000000 77.000000 0.654467 0.421323 -0.627822
15.75000000 -11.92000008 0.70999998 8 140 181 0.000000 0.000000 0.000000 0.000000 -60.708740 0.000000 77.000000 -0.416029 0.152973 0.896392
15.75000000 -11.92000008 0.70999998 8 140 181 0.000000 0.000000 0.000000 0.000000 -60.708740 0.000000 77.000000 -0.416029 0.152973 0.896392
15.75000000 -11.93000031 0.66000003 8 140 181 0.000000 0.000000 0.000000 0.000000 -60.708740 0.000000 77.000000 -0.280326 0.001214 0.959904
15.69999981 -11.89000034 0.69999999 8 140 181 0.000000 0.000000 0.000000 0.000000 -60.708740 0.000000 77.000000 -0.316786 -0.149479 0.936644
15.71000004 -11.89999962 0.68000001 8 140 181 0.000000 0.000000 0.000000 0.000000 -60.708740 0.000000 77.000000 0.642901 0.149057 -0.751306
15.72000027 -11.90999985 0.68000001 8 140 181 0.000000 0.000000 0.000000 0.000000 -60.708740 0.000000 77.000000 -0.676482 0.117455 0.727032
15.71000004 -11.93000031 0.69999999 8 140 181 0.000000 0.000000 0.000000 0.000000 -60.708740 0.000000 77.000000 -0.547877 0.023343 0.836233
15.72999954 -11.94999981 0.67000002 8 140 181 0.000000 0.000000 0.000000 0.000000 -60.708740 0.000000 77.000000 -0.308962 -0.079522 0.947744
15.76000023 -12.01000023 0.68000001 8 140 181 0.000000 0.000000 0.000000 0.000000 -60.708740 0.000000 77.000000 0.361570 0.766917 -0.530194
15.72000027 -11.96000004 0.70999998 8 140 181 0.000000 0.000000 0.000000 0.000000 -60.708740 0.000000 77.000000 0.503151 0.594021 -0.627677
15.71000004 -11.97999954 0.68000001 8 140 181 0.000000 0.000000 0.000000 0.000000 -60.708740 0.000000 77.000000 -0.379080 -0.001276 0.925363
15.71000004 -11.97000027 0.68000001 8 140 181 0.000000 0.000000 0.000000 0.000000 -60.708740 0.000000 77.000000 -0.367924 -0.301304 0.879686
15.72000027 -11.97999954 0.68000001 8 140 181 0.000000 0.000000 0.000000 0.000000 -60.708740 0.000000 77.000000 -0.613797 -0.322284 0.720685
16.02000046 -12.32999992 0.76999998 8 140 181 0.000000 0.000000 0.000000 0.000000 -60.708740 0.000000 77.000000 -0.139846 -0.735317 0.663138
16.02000046 -12.31000042 0.75000000 8 140 181 0.000000 0.000000 0.000000 0.000000 -60.708740 0.000000 77.000000 -0.199372 0.950746 -0.237347
16.02000046 -12.32999992 0.76999998 8 140 181 0.000000 0.000000 0.000000 0.000000 -60.708740 0.000000 77.000000 -0.139846 -0.735317 0.663138
16.03000069 -12.35999966 0.79000002 8 140 181 0.000000 0.000000 0.000000 0.000000 -60.708740 0.000000 77.000000 0.017988 0.798374 -0.601894
16.00000000 -12.34000015 0.68000001 8 140 181 0.000000 0.000000 0.000000 0.000000 -60.708740 0.000000 77.000000 -0.381927 0.794472 -0.472171
15.94999981 -12.36999989 0.70999998 8 140 181 0.000000 0.000000 0.000000 0.000000 -60.708740 0.000000 77.000000 0.131082 0.971028 -0.199805
15.97999954 -12.36999989 0.69000000 8 140 181 0.000000 0.000000 0.000000 0.000000 -60.708740 0.000000 77.000000 -0.423637 0.780726 -0.459346
16.01000023 -12.39999962 0.67000002 8 140 181 0.000000 0.000000 0.000000 0.000000 -60.708740 0.000000 77.000000 -0.441974 0.851609 -0.281816
15.97000027 -12.40999985 0.69000000 8 140 181 0.000000 0.000000 0.000000 0.000000 -60.708740 0.000000 77.000000 0.046372 0.918156 -0.393496
15.89000034 -12.31999969 0.70999998 8 140 181 0.000000 0.000000 0.000000 0.000000 -60.708740 0.000000 77.000000 -0.311030 0.717142 -0.623672
15.71000004 -12.28999996 0.67000002 8 140 181 0.000000 0.000000 0.000000 0.000000 -60.708740 0.000000 77.000000 -0.146033 0.839322 -0.523654
15.85999966 -12.35999966 0.67000002 8 140 181 0.000000 0.000000 0.000000 0.000000 -60.708740 0.000000 77.000000 0.091470 0.788383 -0.608347
16.13999939 -12.07999992 0.61000001 8 140 181 0.000000 0.000000 0.000000 0.000000 -60.708740 0.000000 77.000000 0.105833 0.824916 -0.555260
16.13999939 -12.09000015 0.60000002 8 140 181 0.000000 0.000000 0.000000 0.000000 -60.708740 0.000000 77.000000 0.142829 0.906472 -0.397377
16.13999939 -12.09000015 0.60000002 8 140 181 0.000000 0.000000 0.000000 0.000000 -60.708740 0.000000 77.000000 0.142829 0.906472 -0.397377
16.14999962 -12.11999989 0.58999997 8 140 181 0.000000 0.000000 0.000000 0.000000 -60.708740 0.000000 77.000000 -0.359615 0.932952 -0.016637
16.09000015 -11.97999954 0.63999999 8 140 181 0.000000 0.000000 0.000000 0.000000 -60.708740 0.000000 77.000000 0.279507 0.666026 -0.691581
16.07999992 -12.02000046 0.57999998 8 140 181 0.000000 0.000000 0.000000 0.000000 -60.708740 0.000000 77.000000 -0.379355 0.789380 -0.482668
16.05999947 -11.96000004 0.63000000 8 140 181 0.000000 0.000000 0.000000 0.000000 -60.708740 0.000000 77.000000 0.378429 0.561909 -0.735561
16.05999947 -11.98999977 0.58999997 8 140 181 0.000000 0.000000 0.000000 0.000000 -60.708740 0.000000 77.000000 0.069831 0.896851 -0.436787
16.11000061 -12.05000019 0.56999999 8 140 181 0.000000 0.000000 0.000000 0.000000 -60.708740 0.000000 77.000000 0.191348 0.864773 -0.464278
16.11000061 -12.11999989 0.61000001 8 140 181 0.000000 0.000000 0.000000 0.000000 -60.708740 0.000000 77.000000 -0.004144 0.747327 -0.664444
16.10000038 -12.09000015 0.57999998 8 140 181 0.000000 0.000000 0.000000 0.000000 -60.708740 0.000000 77.000000 -0.180875 0.794937 -0.579103
16.05999947 -12.06999969 0.58999997 8 140 181 0.000000 0.000000 0.000000 0.000000 -60.708740 0.000000 77.000000 0.352163 0.829084 -0.434282
16.04000092 -12.10000038 0.57999998 8 140 181 0.000000 0.000000 0.000000 0.000000 -60.708740 0.000000 77.000000 -0.100965 0.992636 -0.066932
16.11000061 -12.05000019 0.56000000 8 140 181 0.000000 0.000000 0.000000 0.000000 -60.708740 0.000000 77.000000 0.191573 0.979553 -0.061448
16.10000038 -12.07999992 0.52999997 8 140 181 0.000000 0.000000 0.000000 0.000000 -60.708740 0.000000 77.000000 -0.463590 0.886001 -0.009298
16.05999947 -12.06000042 0.55000001 8 140 181 0.000000 0.000000 0.000000 0.000000 -60.708740 0.000000 77.000000 0.029133 0.817121 -0.575730
16.05999947 -12.10000038 0.52999997 8 140 181 0.000000 0.000000 0.000000 0.000000 -60.708740 0.000000 77.000000 -0.457600 0.875977 -0.152533
16.04999924 -12.10999966 0.54000002 8 140 181 0.000000 0.000000 0.000000 0.000000 -60.708740 0.000000 77.000000 -0.118640 0.975346 -0.186078
16.21999931 -12.18999958 0.64999998 8 140 181 0.000000 0.000000 0.000000 0.000000 -60.708740 0.000000 77.000000 -0.298145 0.773263 -0.559619
16.17000008 -12.14000034 0.62000000 8 140 181 0.000000 0.000000 0.000000 0.000000 -60.708740 0.000000 77.000000 -0.525839 0.820187 -0.225360
16.12000084 -12.14999962 0.63000000 8 140 181 0.000000 0.000000 0.000000 0.000000 -60.708740 0.000000 77.000000 -0.070921 0.996163 0.051281
16.12000084 -12.14999962 0.62000000 8 140 181 0.000000 0.000000 0.000000 0.000000 -60.708740 0.000000 77.000000 -0.181716 0.980784 -0.071002
16.14999962 -12.14000034 0.63999999 8 140 181 0.000000 0.000000 0.000000 0.000000 -60.708740 0.000000 77.000000 -0.468584 0.843451 -0.262714
16.12000084 -12.14999962 0.63999999 8 140 181 0.000000 0.000000 0.000000 0.000000 -60.708740 0.000000 77.000000 -0.159714 0.981448 -0.106070
16.12000084 -12.18000031 0.63000000 8 140 181 0.000000 0.000000 0.000000 0.000000 -60.708740 0.000000 77.000000 0.105854 0.989908 -0.094222
16.12000084 -12.18000031 0.62000000 8 140 181 0.000000 0.000000 0.000000 0.000000 -60.708740 0.000000 77.000000 0.083263 0.973060 -0.214993
16.10000038 -12.13000011 0.63999999 8 140 181 0.000000 0.000000 0.000000 0.000000 -60.708740 0.000000 77.000000 -0.160115 0.964593 -0.209581
16.06999969 -12.14000034 0.56999999 8 140 181 0.000000 0.000000 0.000000 0.000000 -60.708740 0.000000 77.000000 -0.213985 0.972318 -0.093853
16.11000061 -12.23999977 0.64999998 8 140 181 0.000000 0.000000 0.000000 0.000000 -60.708740 0.000000 77.000000 0.141109 0.987760 -0.066473
16.10000038 -12.22000027 0.60000002 8 140 181 0.000000 0.000000 0.000000 0.000000 -60.708740 0.000000 77.000000 0.003232 0.994292 0.106647
16.06999969 -12.27999973 0.58999997 8 140 181 0.000000 0.000000 0.000000 0.000000 -60.708740 0.000000 77.000000 -0.137909 0.988539 0.061422
16.04999924 -12.25000000 0.49000001 8 140 181 0.000000 0.000000 0.000000 0.000000 -60.708740 0.000000 77.000000 -0.072969 0.997239 -0.013748
16.07999992 -12.40999985 0.63999999 8 140 181 0.000000 0.000000 0.000000 0.000000 -60.708740 0.000000 77.000000 -0.435947 0.772296 -0.462071
16.06999969 -12.40999985 0.63999999 8 140 181 0.000000 0.000000 0.000000 0.000000 -60.708740 0.000000 77.000000 -0.280450 0.768465 -0.575160
16.04000092 -12.27000046 0.00000000 8 140 181 0.000000 0.000000 0.000000 0.000000 -60.708740 0.000000 78.000000 0.627677 -0.594021 -0.503151
16.04000092 -12.27000046 0.00000000 8 140 181 0.000000 0.000000 0.000000 0.000000 -60.708740 0.000000 78.000000 0.627677 -0.594021 -0.503151
16.04000092 -12.35999966 -0.02000000 8 140 181 0.000000 0.000000 0.000000 0.000000 -60.708740 0.000000 78.000000 -0.538384 0.717294 0.442303
16.04000092 -12.34000015 -0.02000000 8 140 181 0.000000 0.000000 0.000000 0.000000 -60.708740 0.000000 78.000000 -0.577998 0.477477 0.661766
16.03000069 -12.06000042 0.56999999 8 140 181 0.000000 0.000000 0.000000 0.000000 -60.708740 0.000000 77.000000 -0.005512 0.991048 -0.133389
16.03000069 -11.98999977 0.56000000 8 140 181 0.000000 0.000000 0.000000 0.000000 -60.708740 0.000000 77.000000 0.110924 -0.684771 0.720267
15.72000027 -11.85999966 0.62000000 8 140 181 0.000000 0.000000 0.000000 0.000000 -60.708740 0.000000 77.000000 -0.473464 0.195659 0.858807
15.75000000 -11.89000034 0.64999998 8 140 181 0.000000 0.000000 0.000000 0.000000 -60.708740 0.000000 77.000000 -0.364061 -0.043061 0.930379
15.75000000 -11.89000034 0.64999998 8 140 181 0.000000 0.000000 0.000000 0.000000 -60.708740 0.000000 77.000000 -0.364061 -0.043061 0.930379
15.76000023 -11.88000011 0.60000002 8 140 181 0.000000 0.000000 0.000000 0.000000 -60.708740 0.000000 77.000000 0.731771 -0.082924 -0.676488
15.75000000 -11.89999962 0.60000002 8 140 181 0.000000 0.000000 0.000000 0.000000 -60.708740 0.000000 77.000000 -0.288736 -0.280031 0.915540
15.75000000 -11.93000031 0.56999999 8 140 181 0.000000 0.000000 0.000000 0.000000 -60.708740 0.000000 77.000000 -0.142305 -0.147254 0.978808
15.77000046 -11.93000031 0.56999999 8 140 181 0.000000 0.000000 0.000000 0.000000 -60.708740 0.000000 77.000000 0.680626 0.286664 -0.674220
15.72000027 -11.89000034 0.63999999 8 140 181 0.000000 0.000000 0.000000 0.000000 -60.708740 0.000000 77.000000 -0.121739 -0.301004 0.945820
15.72000027 -11.89999962 0.61000001 8 140 181 0.000000 0.000000 0.000000 0.000000 -60.708740 0.000000 77.000000 -0.543914 0.051735 0.837544
15.72000027 -11.93999958 0.63000000 8 140 181 0.000000 0.000000 0.000000 0.000000 -60.708740 0.000000 77.000000 -0.586681 -0.187433 0.787829
15.71000004 -11.93000031 0.60000002 8 140 181 0.000000 0.000000 0.000000 0.000000 -60.708740 0.000000 77.000000 -0.477180 -0.153223 0.865345
15.71000004 -11.94999981 0.58999997 8 140 181 0.000000 0.000000 0.000000 0.000000 -60.708740 0.000000 77.000000 0.611022 0.503294 -0.611022
15.76000023 -11.93999958 0.52999997 8 140 181 0.000000 0.000000 0.000000 0.000000 -60.708740 0.000000 77.000000 -0.489063 -0.485748 0.724477
15.76000023 -11.93999958 0.52999997 8 140 181 0.000000 0.000000 0.000000 0.000000 -60.708740 0.000000 77.000000 -0.489063 -0.485748 0.724477
15.72999954 -11.90999985 0.54000002 8 140 181 0.000000 0.000000 0.000000 0.000000 -60.708740 0.000000 77.000000 -0.324466 -0.339557 0.882849
15.69999981 -11.89999962 0.49000001 8 140 181 0.000000 0.000000 0.000000 0.000000 -60.708740 0.000000 77.000000 -0.495311 -0.285936 0.820310
15.72000027 -11.93000031 0.54000002 8 140 181 0.000000 0.000000 0.000000 0.000000 -60.708740 0.000000 77.000000 -0.321845 -0.622665 0.713235
15.71000004 -11.93000031 0.49000001 8 140 181 0.000000 0.000000 0.000000 0.000000 -60.708740 0.000000 77.000000 0.563591 0.499661 -0.657803
15.78999996 -11.94999981 0.31999999 8 140 181 0.000000 0.000000 0.000000 0.000000 -60.708740 0.000000 77.000000 0.096355 0.838431 -0.536423
15.78999996 -11.96000004 0.50999999 8 140 181 0.000000 0.000000 0.000000 0.000000 -60.708740 0.000000 77.000000 -0.191160 -0.172954 0.966201
15.69999981 -12.00000000 0.57999998 8 140 181 0.000000 0.000000 0.000000 0.000000 -60.708740 0.000000 77.000000 -0.232566 -0.102939 0.967118
15.77000046 -11.97000027 0.52999997 8 140 181 0.000000 0.000000 0.000000 0.000000 -60.708740 0.000000 77.000000 -0.257794 -0.377005 0.889612
15.73999977 -11.98999977 0.50000000 8 140 181 0.000000 0.000000 0.000000 0.000000 -60.708740 0.000000 77.000000 -0.239359 -0.589792 0.771267
15.75000000 -11.97000027 0.49000001 8 140 181 0.000000 0.000000 0.000000 0.000000 -60.708740 0.000000 77.000000 0.532299 0.620170 -0.576235
15.77000046 -11.98999977 0.51999998 8 140 181 0.000000 0.000000 0.000000 0.000000 -60.708740 0.000000 77.000000 -0.354515 -0.498888 0.790841
15.76000023 -11.98999977 0.50999999 8 140 181 0.000000 0.000000 0.000000 0.000000 -60.708740 0.000000 77.000000 -0.582260 -0.452127 0.675688
15.77000046 -11.98999977 0.51999998 8 140 181 0.000000 0.000000 0.000000 0.000000 -60.708740 0.000000 77.000000 -0.354515 -0.498888 0.790841
15.77999973 -12.02000046 0.54000002 8 140 181 0.000000 0.000000 0.000000 0.000000 -60.708740 0.000000 77.000000 -0.449334 -0.271441 0.851128
15.77999973 -12.00000000 0.50999999 8 140 181 0.000000 0.000000 0.000000 0.000000 -60.708740 0.000000 77.000000 0.247595 0.714398 -0.654471
15.77999973 -12.02999973 0.49000001 8 140 181 0.000000 0.000000 0.000000 0.000000 -60.708740 0.000000 77.000000 0.149714 -0.672956 0.724373
15.77999973 -12.00000000 0.50999999 8 140 181 0.000000 0.000000 0.000000 0.000000 -60.708740 0.000000 77.000000 0.247595 0.714398 -0.654471
15.72999954 -11.98999977 0.52999997 8 140 181 0.000000 0.000000 0.000000 0.000000 -60.708740 0.000000 77.000000 -0.560504 -0.259057 0.786590
15.72000027 -11.98999977 0.49000001 8 140 181 0.000000 0.000000 0.000000 0.000000 -60.708740 0.000000 77.000000 -0.418730 -0.557755 0.716641
15.71000004 -11.96000004 0.50000000 8 140 181 0.000000 0.000000 0.000000 0.000000 -60.708740 0.000000 77.000000 0.670564 0.509225 -0.539476
15.72999954 -11.98999977 0.50000000 8 140 181 0.000000 0.000000 0.000000 0.000000 -60.708740 0.000000 77.000000 -0.085950 -0.668659 0.738585
15.72999954 -12.00000000 0.49000001 8 140 181 0.000000 0.000000 0.000000 0.000000 -60.708740 0.000000 77.000000 -0.511771 -0.432784 0.742151
15.71000004 -12.02000046 0.49000001 8 140 181 0.000000 0.000000 0.000000 0.000000 -60.708740 0.000000 77.000000 -0.026416 -0.596449 0.802216
15.72999954 -12.00000000 0.49000001 8 140 181 0.000000 0.000000 0.000000 0.000000 -60.708740 0.000000 77.000000 -0.511771 -0.432784 0.742151
15.73999977 -12.05000019 0.62000000 8 140 181 0.000000 0.000000 0.000000 0.000000 -60.708740 0.000000 77.000000 0.579996 0.462994 -0.670255
15.75000000 -12.10999966 0.58999997 8 140 181 0.000000 0.000000 0.000000 0.000000 -60.708740 0.000000 77.000000 -0.199936 -0.699001 0.686602
15.72000027 -12.06000042 0.61000001 8 140 181 0.000000 0.000000 0.000000 0.000000 -60.708740 0.000000 77.000000 0.433486 0.780923 -0.449721
15.71000004 -12.10999966 0.63999999 8 140 181 0.000000 0.000000 0.000000 0.000000 -60.708740 0.000000 77.000000 -0.469289 -0.309197 0.827142
15.69999981 -12.10000038 0.63000000 8 140 181 0.000000 0.000000 0.000000 0.000000 -60.708740 0.000000 77.000000 -0.174287 -0.398987 0.900241
15.72000027 -12.10000038 0.64999998 8 140 181 0.000000 0.000000 0.000000 0.000000 -60.708740 0.000000 77.000000 0.144048 0.862835 -0.484526
15.69999981 -12.10000038 0.58999997 8 140 181 0.000000 0.000000 0.000000 0.000000 -60.708740 0.000000 77.000000 0.479146 0.745886 -0.462680
15.69999981 -12.10000038 0.60000002 8 140 181 0.000000 0.000000 0.000000 0.000000 -60.708740 0.000000 77.000000 0.498010 0.714537 -0.491348
15.73999977 -12.07999992 0.51999998 8 140 181 0.000000 0.000000 0.000000 0.000000 -60.708740 0.000000 77.000000 0.073226 -0.595859 0.799744
15.76000023 -12.09000015 0.54000002 8 140 181 0.000000 0.000000 0.000000 0.000000 -60.708740 0.000000 77.000000 -0.442058 -0.655580 0.612209
15.76000023 -12.09000015 0.54000002 8 140 181 0.000000 0.000000 0.000000 0.000000 -60.708740 0.000000 77.000000 -0.442058 -0.655580 0.612209
15.73999977 -12.09000015 0.50999999 8 140 181 0.000000 0.000000 0.000000 0.000000 -60.708740 0.000000 77.000000 -0.061708 0.744796 -0.664433
15.73999977 -12.09000015 0.50999999 8 140 181 0.000000 0.000000 0.000000 0.000000 -60.708740 0.000000 77.000000 -0.061708 0.744796 -0.664433
15.72000027 -12.06000042 0.55000001 8 140 181 0.000000 0.000000 0.000000 0.000000 -60.708740 0.000000 77.000000 -0.430426 -0.312331 0.846867
15.71000004 -12.03999996 0.50999999 8 140 181 0.000000 0.000000 0.000000 0.000000 -60.708740 0.000000 77.000000 -0.231932 -0.354463 0.905850
15.72000027 -12.06999969 0.50000000 8 140 181 0.000000 0.000000 0.000000 0.000000 -60.708740 0.000000 77.000000 0.174949 0.868867 -0.463102
15.71000004 -11.98999977 0.40000001 8 140 181 0.000000 0.000000 0.000000 0.000000 -60.708740 0.000000 77.000000 0.240076 0.881274 -0.407086
15.69999981 -12.00000000 0.46000001 8 140 181 0.000000 0.000000 0.000000 0.000000 -60.708740 0.000000 77.000000 -0.128698 -0.493103 0.860399
15.75000000 -12.02999973 0.31999999 8 140 181 0.000000 0.000000 0.000000 0.000000 -60.708740 0.000000 77.000000 -0.035552 0.967252 -0.251314
15.72000027 -12.02000046 0.36000001 8 140 181 0.000000 0.000000 0.000000 0.000000 -60.708740 0.000000 77.000000 -0.033596 0.893653 -0.447499
15.69999981 -12.02999973 0.34999999 8 140 181 0.000000 0.000000 0.000000 0.000000 -60.708740 0.000000 77.000000 -0.023855 0.745103 -0.666523
15.69999981 -12.06999969 0.36000001 8 140 181 0.000000 0.000000 0.000000 0.000000 -60.708740 0.000000 77.000000 -0.368788 0.824628 -0.428933
15.72999954 -12.06000042 0.33000001 8 140 181 0.000000 0.000000 0.000000 0.000000 -60.708740 0.000000 77.000000 0.347023 0.851217 -0.393707
15.84000015 -11.90999985 0.27000001 8 140 181 0.000000 0.000000 0.000000 0.000000 -60.708740 0.000000 77.000000 -0.680625 0.399101 0.614384
15.80000019 -11.94999981 0.23999999 8 140 181 0.000000 0.000000 0.000000 0.000000 -60.708740 0.000000 77.000000 0.771605 -0.481233 -0.415981
15.75000000 -11.94999981 0.31000000 8 140 181 0.000000 0.000000 0.000000 0.000000 -60.708740 0.000000 77.000000 -0.062013 0.932835 -0.354926
15.82999992 -11.96000004 0.25999999 8 140 181 0.000000 0.000000 0.000000 0.000000 -60.708740 0.000000 77.000000 -0.412472 0.704018 0.578123
15.80000019 -11.97000027 0.28999999 8 140 181 0.000000 0.000000 0.000000 0.000000 -60.708740 0.000000 77.000000 -0.491848 0.869345 -0.048220
15.80000019 -11.97000027 0.28000000 8 140 181 0.000000 0.000000 0.000000 0.000000 -60.708740 0.000000 77.000000 -0.396446 0.909164 -0.127479
15.80000019 -11.98999977 0.28000000 8 140 181 0.000000 0.000000 0.000000 0.000000 -60.708740 0.000000 77.000000 -0.404800 0.906249 0.121860
15.78999996 -12.06999969 0.23999999 8 140 181 0.000000 0.000000 0.000000 0.000000 -60.708740 0.000000 77.000000 -0.312666 0.911820 -0.266129
15.80000019 -12.06999969 0.20999999 8 140 181 0.000000 0.000000 0.000000 0.000000 -60.708740 0.000000 77.000000 -0.016285 0.948307 0.316937
15.75000000 -11.96000004 0.28000000 8 140 181 0.000000 0.000000 0.000000 0.000000 -60.708740 0.000000 77.000000 -0.412791 0.872455 -0.261585
15.77999973 -12.02999973 0.30000001 8 140 181 0.000000 0.000000 0.000000 0.000000 -60.708740 0.000000 77.000000 -0.281283 0.942640 0.179747
15.77999973 -12.01000023 0.27000001 8 140 181 0.000000 0.000000 0.000000 0.000000 -60.708740 0.000000 77.000000 -0.534394 0.820622 -0.202491
15.72000027 -11.96000004 0.28000000 8 140 181 0.000000 0.000000 0.000000 0.000000 -60.708740 0.000000 77.000000 -0.369562 0.882423 -0.291124
15.75000000 -12.03999996 0.28999999 8 140 181 0.000000 0.000000 0.000000 0.000000 -60.708740 0.000000 77.000000 -0.076860 0.994724 -0.067949
15.76000023 -12.03999996 0.30000001 8 140 181 0.000000 0.000000 0.000000 0.000000 -60.708740 0.000000 77.000000 0.015192 0.999658 -0.021269
15.73999977 -12.06999969 0.28999999 8 140 181 0.000000 0.000000 0.000000 0.000000 -60.708740 0.000000 77.000000 -0.077855 0.983368 -0.164094
15.77999973 -12.03999996 0.25999999 8 140 181 0.000000 0.000000 0.000000 0.000000 -60.708740 0.000000 77.000000 -0.396332 0.850172 -0.346596
15.76000023 -12.06000042 0.23999999 8 140 181 0.000000 0.000000 0.000000 0.000000 -60.708740 0.000000 77.000000 0.075441 0.996041 0.047014
15.75000000 -12.06999969 0.27000001 8 140 181 0.000000 0.000000 0.000000 0.000000 -60.708740 0.000000 77.000000 0.007690 0.991959 0.126329
15.77999973 -12.03999996 0.25999999 8 140 181 0.000000 0.000000 0.000000 0.000000 -60.708740 0.000000 77.000000 -0.396332 0.850172 -0.346596
15.69999981 -12.03999996 0.30000001 8 140 181 0.000000 0.000000 0.000000 0.000000 -60.708740 0.000000 77.000000 0.259769 0.840792 -0.474963
15.69999981 -12.03999996 0.30000001 8 140 181 0.000000 0.000000 0.000000 0.000000 -60.708740 0.000000 77.000000 0.259769 0.840792 -0.474963
15.76000023 -12.06000042 0.23000000 8 140 181 0.000000 0.000000 0.000000 0.000000 -60.708740 0.000000 77.000000 -0.451857 0.891646 0.028157
15.81999969 -11.98999977 -0.02000000 8 140 181 0.000000 0.000000 0.000000 0.000000 -60.708740 0.000000 77.000000 -0.376981 0.460398 0.803691
15.78999996 -12.02000046 -0.02000000 8 140 181 0.000000 0.000000 0.000000 0.000000 -60.708740 0.000000 77.000000 -0.348866 0.469934 0.810835
15.80000019 -11.98999977 -0.02000000 8 140 181 0.000000 0.000000 0.000000 0.000000 -60.708740 0.000000 77.000000 -0.322039 0.392919 0.861339
15.81999969 -11.96000004 -0.02000000 8 140 181 0.000000 0.000000 0.000000 0.000000 -60.708740 0.000000 77.000000 -0.577820 -0.245848 0.778256
15.82999992 -11.97999954 -0.02000000 8 140 181 0.000000 0.000000 0.000000 0.000000 -60.708740 0.000000 77.000000 -0.562277 0.462168 0.685744
16.03000069 -12.28999996 0.58999997 8 140 181 0.000000 0.000000 0.000000 0.000000 -60.708740 0.000000 77.000000 -0.224885 0.858789 -0.460335
16.02000046 -12.25000000 0.49000001 8 140 181 0.000000 0.000000 0.000000 0.000000 -60.708740 0.000000 77.000000 -0.415337 0.906065 0.080874
15.88000011 -12.28999996 0.63000000 8 140 181 0.000000 0.000000 0.000000 0.000000 -60.708740 0.000000 77.000000 0.058664 -0.633860 0.771220
16.02000046 -12.22999954 0.47000000 8 140 181 0.000000 0.000000 0.000000 0.000000 -60.708740 0.000000 77.000000 0.028705 0.859782 -0.509855
16.00000000 -12.26000023 0.46000001 8 140 181 0.000000 0.000000 0.000000 0.000000 -60.708740 0.000000 77.000000 -0.065041 0.995463 0.069451
15.98999977 -12.23999977 0.43000001 8 140 181 0.000000 0.000000 0.000000 0.000000 -60.708740 0.000000 77.000000 -0.210389 0.843070 -0.494944
15.96000004 -12.43000031 0.63999999 8 140 181 0.000000 0.000000 0.000000 0.000000 -60.708740 0.000000 77.000000 -0.102134 0.984089 -0.145390
15.90999985 -12.31999969 0.62000000 8 140 181 0.000000 0.000000 0.000000 0.000000 -60.708740 0.000000 77.000000 0.254921 0.796041 -0.548940
15.89999962 -12.30000019 0.64999998 8 140 181 0.000000 0.000000 0.000000 0.000000 -60.708740 0.000000 77.000000 0.171427 0.784318 -0.596203
15.89999962 -12.30000019 0.64999998 8 140 181 0.000000 0.000000 0.000000 0.000000 -60.708740 0.000000 77.000000 0.171427 0.784318 -0.596203
15.93999958 -12.43000031 0.62000000 8 140 181 0.000000 0.000000 0.000000 0.000000 -60.708740 0.000000 77.000000 0.221724 0.972367 -0.073082
15.81999969 -12.23999977 0.62000000 8 140 181 0.000000 0.000000 0.000000 0.000000 -60.708740 0.000000 77.000000 -0.073917 -0.671049 0.737719
15.72000027 -12.13000011 0.55000001 8 140 181 0.000000 0.000000 0.000000 0.000000 -60.708740 0.000000 77.000000 0.287165 0.697859 -0.656148
15.71000004 -12.13000011 0.51999998 8 140 181 0.000000 0.000000 0.000000 0.000000 -60.708740 0.000000 77.000000 -0.082937 0.728972 -0.679501
15.71000004 -12.19999981 0.50999999 8 140 181 0.000000 0.000000 0.000000 0.000000 -60.708740 0.000000 77.000000 -0.203764 0.843734 -0.496581
