//X Y Z R G B PointSourceId ScanDirectionFlag NumberOfReturns ReturnNumber GpsTime Intensity Classification Nx Ny Nz
2.78999996 -21.78000069 -0.22000000 185 8 159 0.000000 0.000000 0.000000 0.000000 -60.708740 0.000000 8.000000 0.750919 -0.422289 -0.507733
2.77999997 -21.79999924 -0.22000000 185 8 159 0.000000 0.000000 0.000000 0.000000 -60.708740 0.000000 8.000000 -0.538441 0.821989 0.185513
2.80999994 -21.78000069 -0.20000000 185 8 159 0.000000 0.000000 0.000000 0.000000 -60.708740 0.000000 8.000000 0.717617 -0.684795 0.126814
2.78999996 -21.79999924 -0.22000000 185 8 159 0.000000 0.000000 0.000000 0.000000 -60.708740 0.000000 8.000000 0.792794 -0.490471 -0.361823
2.80999994 -21.78000069 -0.20000000 185 8 159 0.000000 0.000000 0.000000 0.000000 -60.708740 0.000000 8.000000 0.717617 -0.684795 0.126814
2.79999995 -21.78000069 -0.20000000 185 8 159 0.000000 0.000000 0.000000 0.000000 -60.708740 0.000000 8.000000 0.702206 -0.693067 0.162985
2.78999996 -21.79000092 -0.22000000 185 8 159 0.000000 0.000000 0.000000 0.000000 -60.708740 0.000000 8.000000 -0.697773 0.615682 0.366126
2.79999995 -21.78000069 -0.20000000 185 8 159 0.000000 0.000000 0.000000 0.000000 -60.708740 0.000000 8.000000 0.702206 -0.693067 0.162985
2.77999997 -21.79000092 -0.22000000 185 8 159 0.000000 0.000000 0.000000 0.000000 -60.708740 0.000000 8.000000 0.699946 -0.687585 -0.193142
2.79999995 -21.79000092 -0.20000000 185 8 159 0.000000 0.000000 0.000000 0.000000 -60.708740 0.000000 8.000000 0.751748 -0.652101 0.098181
2.77999997 -21.79999924 -0.23999999 185 8 159 0.000000 0.000000 0.000000 0.000000 -60.708740 0.000000 8.000000 0.650488 -0.744062 -0.152435
2.77999997 -21.79000092 -0.25000000 185 8 159 0.000000 0.000000 0.000000 0.000000 -60.708740 0.000000 8.000000 -0.729602 0.461585 0.504600
2.77999997 -21.79000092 -0.25000000 185 8 159 0.000000 0.000000 0.000000 0.000000 -60.708740 0.000000 8.000000 -0.729602 0.461585 0.504600
2.77999997 -21.79999924 -0.23999999 185 8 159 0.000000 0.000000 0.000000 0.000000 -60.708740 0.000000 8.000000 0.650488 -0.744062 -0.152435
2.77999997 -21.79999924 -0.23000000 185 8 159 0.000000 0.000000 0.000000 0.000000 -60.708740 0.000000 8.000000 -0.598808 0.795994 -0.088444
2.78999996 -21.80999947 -0.25999999 185 8 159 0.000000 0.000000 0.000000 0.000000 -60.708740 0.000000 8.000000 0.823445 -0.433142 -0.366505
2.80999994 -21.78000069 -0.23000000 185 8 159 0.000000 0.000000 0.000000 0.000000 -60.708740 0.000000 8.000000 -0.667406 0.506018 0.546365
2.78999996 -21.79000092 -0.23000000 185 8 159 0.000000 0.000000 0.000000 0.000000 -60.708740 0.000000 8.000000 0.783795 -0.618785 -0.052632
2.78999996 -21.79000092 -0.23000000 185 8 159 0.000000 0.000000 0.000000 0.000000 -60.708740 0.000000 8.000000 0.783795 -0.618785 -0.052632
2.77999997 -21.79000092 -0.23000000 185 8 159 0.000000 0.000000 0.000000 0.000000 -60.708740 0.000000 8.000000 -0.547179 0.785083 0.290243
2.77999997 -21.79000092 -0.23000000 185 8 159 0.000000 0.000000 0.000000 0.000000 -60.708740 0.000000 8.000000 -0.547179 0.785083 0.290243
2.77999997 -21.79999924 -0.23000000 185 8 159 0.000000 0.000000 0.000000 0.000000 -60.708740 0.000000 8.000000 -0.598808 0.795994 -0.088444
2.79999995 -21.78000069 -0.28000000 185 8 159 0.000000 0.000000 0.000000 0.000000 -60.708740 0.000000 8.000000 -0.434482 0.897746 -0.072642
2.78999996 -21.78000069 -0.31000000 185 8 159 0.000000 0.000000 0.000000 0.000000 -60.708740 0.000000 8.000000 0.763122 -0.636181 0.113657
2.77999997 -21.79000092 -0.30000001 185 8 159 0.000000 0.000000 0.000000 0.000000 -60.708740 0.000000 8.000000 0.928221 -0.366786 -0.062235
2.77999997 -21.79999924 -0.31000000 185 8 159 0.000000 0.000000 0.000000 0.000000 -60.708740 0.000000 8.000000 -0.610370 0.776149 -0.158244
2.77999997 -21.79000092 -0.34999999 185 8 159 0.000000 0.000000 0.000000 0.000000 -60.708740 0.000000 8.000000 -0.519509 0.847621 -0.107931
2.77999997 -21.79000092 -0.31999999 185 8 159 0.000000 0.000000 0.000000 0.000000 -60.708740 0.000000 8.000000 -0.679943 0.719141 -0.143225
2.78999996 -21.79000092 -0.33000001 185 8 159 0.000000 0.000000 0.000000 0.000000 -60.708740 0.000000 8.000000 -0.467422 0.851103 0.239040
2.77999997 -21.79000092 -0.34999999 185 8 159 0.000000 0.000000 0.000000 0.000000 -60.708740 0.000000 8.000000 -0.519509 0.847621 -0.107931
2.77999997 -21.80999947 -0.34000000 185 8 159 0.000000 0.000000 0.000000 0.000000 -60.708740 0.000000 8.000000 0.912557 -0.408898 -0.006490
2.77999997 -21.79000092 -0.31999999 185 8 159 0.000000 0.000000 0.000000 0.000000 -60.708740 0.000000 8.000000 -0.679943 0.719141 -0.143225
2.80999994 -21.78000069 -0.31999999 185 8 159 0.000000 0.000000 0.000000 0.000000 -60.708740 0.000000 8.000000 -0.551837 0.797443 -0.244052
2.80999994 -21.78000069 -0.31999999 185 8 159 0.000000 0.000000 0.000000 0.000000 -60.708740 0.000000 8.000000 -0.551837 0.797443 -0.244052
2.80999994 -21.78000069 -0.34000000 185 8 159 0.000000 0.000000 0.000000 0.000000 -60.708740 0.000000 8.000000 0.694074 -0.533517 -0.483343
2.78999996 -21.78000069 -0.34999999 185 8 159 0.000000 0.000000 0.000000 0.000000 -60.708740 0.000000 8.000000 -0.667500 0.692989 0.272416
2.79999995 -21.78000069 -0.34000000 185 8 159 0.000000 0.000000 0.000000 0.000000 -60.708740 0.000000 8.000000 0.656911 -0.579627 -0.482183
2.75000000 -21.80999947 -0.04000000 185 8 159 0.000000 0.000000 0.000000 0.000000 -60.708740 0.000000 8.000000 0.657290 -0.536254 -0.529530
2.75999999 -21.80999947 -0.05000000 185 8 159 0.000000 0.000000 0.000000 0.000000 -60.708740 0.000000 8.000000 0.934003 -0.357082 -0.011437
2.75999999 -21.79999924 -0.04000000 185 8 159 0.000000 0.000000 0.000000 0.000000 -60.708740 0.000000 8.000000 -0.641037 0.573737 0.509801
2.75999999 -21.80999947 -0.05000000 185 8 159 0.000000 0.000000 0.000000 0.000000 -60.708740 0.000000 8.000000 0.934003 -0.357082 -0.011437
2.76999998 -21.78000069 -0.08000000 185 8 159 0.000000 0.000000 0.000000 0.000000 -60.708740 0.000000 8.000000 -0.527127 0.805550 0.270602
2.76999998 -21.79999924 -0.10000000 185 8 159 0.000000 0.000000 0.000000 0.000000 -60.708740 0.000000 8.000000 -0.515942 0.657111 0.549553
2.75000000 -21.79000092 -0.07000000 185 8 159 0.000000 0.000000 0.000000 0.000000 -60.708740 0.000000 8.000000 0.750960 -0.654720 0.086032
2.74000001 -21.80999947 -0.08000000 185 8 159 0.000000 0.000000 0.000000 0.000000 -60.708740 0.000000 8.000000 0.793494 -0.603401 0.079205
2.76999998 -21.84000015 -0.06000000 185 8 159 0.000000 0.000000 0.000000 0.000000 -60.708740 0.000000 8.000000 0.882434 -0.115100 -0.456138
2.75000000 -21.85000038 -0.03000000 185 8 159 0.000000 0.000000 0.000000 0.000000 -60.708740 0.000000 8.000000 0.902937 -0.412971 -0.118992
2.74000001 -21.85000038 -0.03000000 185 8 159 0.000000 0.000000 0.000000 0.000000 -60.708740 0.000000 8.000000 0.828704 -0.424612 -0.364630
2.74000001 -21.85000038 -0.03000000 185 8 159 0.000000 0.000000 0.000000 0.000000 -60.708740 0.000000 8.000000 0.828704 -0.424612 -0.364630
2.75000000 -21.81999969 -0.05000000 185 8 159 0.000000 0.000000 0.000000 0.000000 -60.708740 0.000000 8.000000 0.922212 -0.360261 -0.140488
2.75999999 -21.81999969 -0.07000000 185 8 159 0.000000 0.000000 0.000000 0.000000 -60.708740 0.000000 8.000000 0.827824 -0.560607 -0.020661
2.75000000 -21.84000015 -0.10000000 185 8 159 0.000000 0.000000 0.000000 0.000000 -60.708740 0.000000 8.000000 0.725658 -0.421510 -0.543830
2.75999999 -21.82999992 -0.09000000 185 8 159 0.000000 0.000000 0.000000 0.000000 -60.708740 0.000000 8.000000 0.816828 -0.575013 -0.046395
2.74000001 -21.85000038 -0.08000000 185 8 159 0.000000 0.000000 0.000000 0.000000 -60.708740 0.000000 8.000000 0.986742 -0.160845 -0.021674
2.75999999 -21.81999969 -0.09000000 185 8 159 0.000000 0.000000 0.000000 0.000000 -60.708740 0.000000 8.000000 0.882719 -0.230728 -0.409355
2.75000000 -21.82999992 -0.07000000 185 8 159 0.000000 0.000000 0.000000 0.000000 -60.708740 0.000000 8.000000 0.871935 -0.457288 -0.174975
2.74000001 -21.84000015 -0.08000000 185 8 159 0.000000 0.000000 0.000000 0.000000 -60.708740 0.000000 8.000000 0.720263 -0.210012 -0.661148
2.75000000 -21.82999992 -0.07000000 185 8 159 0.000000 0.000000 0.000000 0.000000 -60.708740 0.000000 8.000000 0.871935 -0.457288 -0.174975
2.76999998 -21.79000092 -0.11000000 185 8 159 0.000000 0.000000 0.000000 0.000000 -60.708740 0.000000 8.000000 0.886715 -0.338728 -0.314641
2.76999998 -21.80999947 -0.15000001 185 8 159 0.000000 0.000000 0.000000 0.000000 -60.708740 0.000000 8.000000 0.954838 -0.268094 -0.128104
2.76999998 -21.79999924 -0.16000000 185 8 159 0.000000 0.000000 0.000000 0.000000 -60.708740 0.000000 8.000000 0.639689 -0.538419 -0.548546
2.76999998 -21.82999992 -0.14000000 185 8 159 0.000000 0.000000 0.000000 0.000000 -60.708740 0.000000 8.000000 0.799494 -0.597845 -0.058222
2.75000000 -21.84000015 -0.13000000 185 8 159 0.000000 0.000000 0.000000 0.000000 -60.708740 0.000000 8.000000 -0.637031 0.728713 0.251335
2.74000001 -21.84000015 -0.11000000 185 8 159 0.000000 0.000000 0.000000 0.000000 -60.708740 0.000000 8.000000 0.951816 -0.298330 0.071031
2.74000001 -21.84000015 -0.12000000 185 8 159 0.000000 0.000000 0.000000 0.000000 -60.708740 0.000000 8.000000 0.729191 -0.585637 -0.353992
2.76999998 -21.82999992 -0.15000001 185 8 159 0.000000 0.000000 0.000000 0.000000 -60.708740 0.000000 8.000000 -0.646896 0.744311 0.165910
2.74000001 -21.85000038 -0.15000001 185 8 159 0.000000 0.000000 0.000000 0.000000 -60.708740 0.000000 8.000000 0.968919 -0.247307 -0.005974
2.74000001 -21.84000015 -0.16000000 185 8 159 0.000000 0.000000 0.000000 0.000000 -60.708740 0.000000 8.000000 0.924622 -0.359652 -0.125396
2.75000000 -21.84000015 -0.15000001 185 8 159 0.000000 0.000000 0.000000 0.000000 -60.708740 0.000000 8.000000 0.822323 -0.567361 0.043428
2.76999998 -21.84000015 -0.18000001 185 8 159 0.000000 0.000000 0.000000 0.000000 -60.708740 0.000000 8.000000 0.735142 -0.434477 -0.520381
2.75000000 -21.82999992 -0.16000000 185 8 159 0.000000 0.000000 0.000000 0.000000 -60.708740 0.000000 8.000000 -0.685427 0.727650 0.026741
2.74000001 -21.82999992 -0.16000000 185 8 159 0.000000 0.000000 0.000000 0.000000 -60.708740 0.000000 8.000000 0.908287 -0.418100 -0.014417
2.74000001 -21.85000038 -0.16000000 185 8 159 0.000000 0.000000 0.000000 0.000000 -60.708740 0.000000 8.000000 0.938820 -0.342907 0.032107
2.73000002 -21.85000038 -0.17000000 185 8 159 0.000000 0.000000 0.000000 0.000000 -60.708740 0.000000 8.000000 0.858443 -0.385139 -0.338737
2.73000002 -21.85000038 -0.18000001 185 8 159 0.000000 0.000000 0.000000 0.000000 -60.708740 0.000000 8.000000 0.709167 -0.601072 -0.368505
2.75999999 -21.76000023 -0.34999999 185 8 159 0.000000 0.000000 0.000000 0.000000 -60.708740 0.000000 8.000000 0.767736 -0.559373 -0.312544
2.74000001 -21.80999947 -0.20999999 185 8 159 0.000000 0.000000 0.000000 0.000000 -60.708740 0.000000 8.000000 -0.679502 0.713095 0.172548
2.75000000 -21.79999924 -0.20999999 185 8 159 0.000000 0.000000 0.000000 0.000000 -60.708740 0.000000 8.000000 0.689258 -0.721048 0.070804
2.74000001 -21.80999947 -0.20000000 185 8 159 0.000000 0.000000 0.000000 0.000000 -60.708740 0.000000 8.000000 -0.622525 0.779945 0.064399
2.75999999 -21.78000069 -0.20999999 185 8 159 0.000000 0.000000 0.000000 0.000000 -60.708740 0.000000 8.000000 0.775689 -0.630856 0.018104
2.75999999 -21.80999947 -0.23999999 185 8 159 0.000000 0.000000 0.000000 0.000000 -60.708740 0.000000 8.000000 0.895734 -0.221368 -0.385561
2.75000000 -21.80999947 -0.27000001 185 8 159 0.000000 0.000000 0.000000 0.000000 -60.708740 0.000000 8.000000 0.918936 -0.330131 -0.215800
2.75000000 -21.79999924 -0.25000000 185 8 159 0.000000 0.000000 0.000000 0.000000 -60.708740 0.000000 8.000000 0.952627 -0.288794 -0.095393
2.76999998 -21.79999924 -0.25000000 185 8 159 0.000000 0.000000 0.000000 0.000000 -60.708740 0.000000 8.000000 -0.577103 0.730780 0.364572
2.75000000 -21.82999992 -0.20000000 185 8 159 0.000000 0.000000 0.000000 0.000000 -60.708740 0.000000 8.000000 -0.705066 0.670520 0.230835
2.75999999 -21.82999992 -0.19000000 185 8 159 0.000000 0.000000 0.000000 0.000000 -60.708740 0.000000 8.000000 0.663377 -0.539099 -0.518945
2.75999999 -21.81999969 -0.20000000 185 8 159 0.000000 0.000000 0.000000 0.000000 -60.708740 0.000000 8.000000 -0.662655 0.747793 0.041150
2.76999998 -21.81999969 -0.22000000 185 8 159 0.000000 0.000000 0.000000 0.000000 -60.708740 0.000000 8.000000 0.943312 -0.202433 -0.263026
2.75000000 -21.82999992 -0.20000000 185 8 159 0.000000 0.000000 0.000000 0.000000 -60.708740 0.000000 8.000000 -0.705066 0.670520 0.230835
2.75999999 -21.81999969 -0.20000000 185 8 159 0.000000 0.000000 0.000000 0.000000 -60.708740 0.000000 8.000000 -0.662655 0.747793 0.041150
2.75999999 -21.85000038 -0.19000000 185 8 159 0.000000 0.000000 0.000000 0.000000 -60.708740 0.000000 8.000000 -0.617967 0.754947 0.219480
2.75999999 -21.82999992 -0.22000000 185 8 159 0.000000 0.000000 0.000000 0.000000 -60.708740 0.000000 8.000000 0.746307 -0.635056 -0.199324
2.74000001 -21.84000015 -0.23000000 185 8 159 0.000000 0.000000 0.000000 0.000000 -60.708740 0.000000 8.000000 0.840278 -0.470248 -0.269814
2.75000000 -21.82999992 -0.25000000 185 8 159 0.000000 0.000000 0.000000 0.000000 -60.708740 0.000000 8.000000 -0.609349 0.791159 0.052555
2.74000001 -21.84000015 -0.23000000 185 8 159 0.000000 0.000000 0.000000 0.000000 -60.708740 0.000000 8.000000 0.840278 -0.470248 -0.269814
2.75000000 -21.81999969 -0.27000001 185 8 159 0.000000 0.000000 0.000000 0.000000 -60.708740 0.000000 8.000000 0.895390 -0.421276 -0.144233
2.73000002 -21.80999947 -0.22000000 185 8 159 0.000000 0.000000 0.000000 0.000000 -60.708740 0.000000 8.000000 0.707879 -0.686567 -0.165933
2.72000003 -21.82999992 -0.22000000 185 8 159 0.000000 0.000000 0.000000 0.000000 -60.708740 0.000000 8.000000 -0.632013 0.661872 0.403095
2.72000003 -21.84000015 -0.25999999 185 8 159 0.000000 0.000000 0.000000 0.000000 -60.708740 0.000000 8.000000 0.788844 -0.560782 -0.251493
2.73000002 -21.85000038 -0.23000000 185 8 159 0.000000 0.000000 0.000000 0.000000 -60.708740 0.000000 8.000000 0.977026 -0.207903 -0.046868
2.73000002 -21.82999992 -0.27000001 185 8 159 0.000000 0.000000 0.000000 0.000000 -60.708740 0.000000 8.000000 -0.517227 0.801939 0.298948
2.73000002 -21.82999992 -0.27000001 185 8 159 0.000000 0.000000 0.000000 0.000000 -60.708740 0.000000 8.000000 -0.517227 0.801939 0.298948
2.73000002 -21.85000038 -0.25000000 185 8 159 0.000000 0.000000 0.000000 0.000000 -60.708740 0.000000 8.000000 0.751957 -0.543171 -0.373532
2.76999998 -21.79000092 -0.31000000 185 8 159 0.000000 0.000000 0.000000 0.000000 -60.708740 0.000000 8.000000 -0.451658 0.829352 0.328908
2.75999999 -21.79999924 -0.31000000 185 8 159 0.000000 0.000000 0.000000 0.000000 -60.708740 0.000000 8.000000 0.716557 -0.696771 0.032507
2.75000000 -21.79999924 -0.28000000 185 8 159 0.000000 0.000000 0.000000 0.000000 -60.708740 0.000000 8.000000 0.840058 -0.505241 -0.197572
2.75000000 -21.80999947 -0.28999999 185 8 159 0.000000 0.000000 0.000000 0.000000 -60.708740 0.000000 8.000000 0.871938 -0.469950 0.137370
2.75999999 -21.80999947 -0.33000001 185 8 159 0.000000 0.000000 0.000000 0.000000 -60.708740 0.000000 8.000000 -0.668838 0.736457 -0.101428
2.75999999 -21.80999947 -0.33000001 185 8 159 0.000000 0.000000 0.000000 0.000000 -60.708740 0.000000 8.000000 -0.668838 0.736457 -0.101428
2.75999999 -21.79000092 -0.31999999 185 8 159 0.000000 0.000000 0.000000 0.000000 -60.708740 0.000000 8.000000 0.708701 -0.481916 -0.515267
2.75999999 -21.80999947 -0.31999999 185 8 159 0.000000 0.000000 0.000000 0.000000 -60.708740 0.000000 8.000000 0.743236 -0.660818 -0.104495
2.75000000 -21.80999947 -0.31999999 185 8 159 0.000000 0.000000 0.000000 0.000000 -60.708740 0.000000 8.000000 0.769792 -0.634031 0.073657
2.76999998 -21.80999947 -0.31999999 185 8 159 0.000000 0.000000 0.000000 0.000000 -60.708740 0.000000 8.000000 -0.664034 0.733298 -0.146057
2.75999999 -21.79000092 -0.34000000 185 8 159 0.000000 0.000000 0.000000 0.000000 -60.708740 0.000000 8.000000 -0.408234 0.863867 0.295091
2.76999998 -21.78000069 -0.33000001 185 8 159 0.000000 0.000000 0.000000 0.000000 -60.708740 0.000000 8.000000 0.893563 -0.439114 0.093399
2.75999999 -21.79999924 -0.31999999 185 8 159 0.000000 0.000000 0.000000 0.000000 -60.708740 0.000000 8.000000 0.838947 -0.362237 -0.406144
2.74000001 -21.81999969 -0.30000001 185 8 159 0.000000 0.000000 0.000000 0.000000 -60.708740 0.000000 8.000000 0.815638 -0.327839 -0.476713
2.75999999 -21.82999992 -0.30000001 185 8 159 0.000000 0.000000 0.000000 0.000000 -60.708740 0.000000 8.000000 -0.566835 0.823095 0.034818
2.75999999 -21.81999969 -0.30000001 185 8 159 0.000000 0.000000 0.000000 0.000000 -60.708740 0.000000 8.000000 0.935015 -0.328962 -0.132404
2.75000000 -21.84000015 -0.28999999 185 8 159 0.000000 0.000000 0.000000 0.000000 -60.708740 0.000000 8.000000 0.780726 -0.459346 -0.423637
2.74000001 -21.84000015 -0.28999999 185 8 159 0.000000 0.000000 0.000000 0.000000 -60.708740 0.000000 8.000000 -0.658132 0.752747 0.015305
2.74000001 -21.82999992 -0.28999999 185 8 159 0.000000 0.000000 0.000000 0.000000 -60.708740 0.000000 8.000000 0.836800 -0.464199 -0.290318
2.74000001 -21.84000015 -0.30000001 185 8 159 0.000000 0.000000 0.000000 0.000000 -60.708740 0.000000 8.000000 0.743832 -0.661996 -0.092066
2.74000001 -21.84000015 -0.34000000 185 8 159 0.000000 0.000000 0.000000 0.000000 -60.708740 0.000000 8.000000 0.723905 -0.679312 -0.120403
2.75000000 -21.81999969 -0.33000001 185 8 159 0.000000 0.000000 0.000000 0.000000 -60.708740 0.000000 8.000000 -0.603521 0.790568 -0.103753
2.74000001 -21.82999992 -0.34999999 185 8 159 0.000000 0.000000 0.000000 0.000000 -60.708740 0.000000 8.000000 0.813130 -0.540555 -0.215916
2.75000000 -21.81999969 -0.33000001 185 8 159 0.000000 0.000000 0.000000 0.000000 -60.708740 0.000000 8.000000 -0.603521 0.790568 -0.103753
2.75000000 -21.81999969 -0.33000001 185 8 159 0.000000 0.000000 0.000000 0.000000 -60.708740 0.000000 8.000000 -0.603521 0.790568 -0.103753
2.75999999 -21.81999969 -0.31999999 185 8 159 0.000000 0.000000 0.000000 0.000000 -60.708740 0.000000 8.000000 0.820039 -0.476914 -0.316368
2.74000001 -21.84000015 -0.34000000 185 8 159 0.000000 0.000000 0.000000 0.000000 -60.708740 0.000000 8.000000 0.723905 -0.679312 -0.120403
2.72000003 -21.80999947 -0.28999999 185 8 159 0.000000 0.000000 0.000000 0.000000 -60.708740 0.000000 8.000000 0.744311 -0.646896 0.165910
2.71000004 -21.80999947 -0.34999999 185 8 159 0.000000 0.000000 0.000000 0.000000 -60.708740 0.000000 8.000000 0.949921 -0.279231 -0.140284
2.73000002 -21.85000038 -0.28000000 185 8 159 0.000000 0.000000 0.000000 0.000000 -60.708740 0.000000 8.000000 0.815389 -0.559930 0.147037
2.73000002 -21.85000038 -0.28999999 185 8 159 0.000000 0.000000 0.000000 0.000000 -60.708740 0.000000 8.000000 -0.706122 0.697165 0.123907
2.73000002 -21.85000038 -0.28999999 185 8 159 0.000000 0.000000 0.000000 0.000000 -60.708740 0.000000 8.000000 -0.706122 0.697165 0.123907
2.73000002 -21.85000038 -0.28999999 185 8 159 0.000000 0.000000 0.000000 0.000000 -60.708740 0.000000 8.000000 -0.706122 0.697165 0.123907
2.71000004 -21.85000038 -0.30000001 185 8 159 0.000000 0.000000 0.000000 0.000000 -60.708740 0.000000 8.000000 -0.487648 0.820065 0.299488
2.73000002 -21.84000015 -0.30000001 185 8 159 0.000000 0.000000 0.000000 0.000000 -60.708740 0.000000 8.000000 0.693267 -0.661245 -0.286593
2.73000002 -21.85000038 -0.28000000 185 8 159 0.000000 0.000000 0.000000 0.000000 -60.708740 0.000000 8.000000 0.815389 -0.559930 0.147037
2.90000010 -21.71999931 -0.38000000 185 8 159 0.000000 0.000000 0.000000 0.000000 -60.708740 0.000000 8.000000 -0.630860 0.762726 0.142356
2.91000009 -21.70999908 -0.37000000 185 8 159 0.000000 0.000000 0.000000 0.000000 -60.708740 0.000000 8.000000 0.743806 -0.667300 -0.038253
2.91000009 -21.70999908 -0.36000001 185 8 159 0.000000 0.000000 0.000000 0.000000 -60.708740 0.000000 8.000000 -0.460420 0.887476 0.020018
2.91000009 -21.70999908 -0.38000000 185 8 159 0.000000 0.000000 0.000000 0.000000 -60.708740 0.000000 8.000000 -0.513284 0.858167 0.009430
2.91000009 -21.70999908 -0.38000000 185 8 159 0.000000 0.000000 0.000000 0.000000 -60.708740 0.000000 8.000000 -0.513284 0.858167 0.009430
2.90000010 -21.71999931 -0.36000001 185 8 159 0.000000 0.000000 0.000000 0.000000 -60.708740 0.000000 8.000000 -0.361662 0.879187 0.310212
2.91000009 -21.70000076 -0.36000001 185 8 159 0.000000 0.000000 0.000000 0.000000 -60.708740 0.000000 8.000000 -0.339923 0.890987 0.300989
2.92000008 -21.70999908 -0.36000001 185 8 159 0.000000 0.000000 0.000000 0.000000 -60.708740 0.000000 8.000000 -0.228127 0.973420 0.020304
2.90000010 -21.70000076 -0.40000001 185 8 159 0.000000 0.000000 0.000000 0.000000 -60.708740 0.000000 8.000000 -0.591704 0.774961 -0.222083
2.85999990 -21.72999954 -0.37000000 185 8 159 0.000000 0.000000 0.000000 0.000000 -60.708740 0.000000 8.000000 -0.191758 0.980227 -0.048833
2.86999989 -21.72999954 -0.38000000 185 8 159 0.000000 0.000000 0.000000 0.000000 -60.708740 0.000000 8.000000 -0.261221 0.964414 -0.040855
2.86999989 -21.70999908 -0.38000000 185 8 159 0.000000 0.000000 0.000000 0.000000 -60.708740 0.000000 8.000000 0.657352 -0.733611 -0.172345
2.85999990 -21.72999954 -0.38000000 185 8 159 0.000000 0.000000 0.000000 0.000000 -60.708740 0.000000 8.000000 -0.208590 0.968729 -0.134368
2.86999989 -21.71999931 -0.37000000 185 8 159 0.000000 0.000000 0.000000 0.000000 -60.708740 0.000000 8.000000 0.737906 -0.667208 -0.101628
2.85999990 -21.72999954 -0.38999999 185 8 159 0.000000 0.000000 0.000000 0.000000 -60.708740 0.000000 8.000000 -0.445911 0.884653 -0.136211
2.89000010 -21.72999954 -0.38000000 185 8 159 0.000000 0.000000 0.000000 0.000000 -60.708740 0.000000 8.000000 -0.352949 0.887629 -0.295876
2.89000010 -21.72999954 -0.36000001 185 8 159 0.000000 0.000000 0.000000 0.000000 -60.708740 0.000000 8.000000 -0.321408 0.940016 0.114308
2.85999990 -21.72999954 -0.38000000 185 8 159 0.000000 0.000000 0.000000 0.000000 -60.708740 0.000000 8.000000 -0.208590 0.968729 -0.134368
2.89000010 -21.72999954 -0.40000001 185 8 159 0.000000 0.000000 0.000000 0.000000 -60.708740 0.000000 8.000000 -0.480763 0.873735 0.073856
2.86999989 -21.70999908 -0.43000001 185 8 159 0.000000 0.000000 0.000000 0.000000 -60.708740 0.000000 8.000000 -0.297288 0.882809 0.363687
2.85999990 -21.72999954 -0.43000001 185 8 159 0.000000 0.000000 0.000000 0.000000 -60.708740 0.000000 8.000000 -0.410842 0.899872 0.146425
2.89000010 -21.71999931 -0.40000001 185 8 159 0.000000 0.000000 0.000000 0.000000 -60.708740 0.000000 8.000000 -0.700581 0.685116 0.199503
2.85999990 -21.71999931 -0.41000000 185 8 159 0.000000 0.000000 0.000000 0.000000 -60.708740 0.000000 8.000000 -0.319869 0.937830 0.134754
2.88000011 -21.72999954 -0.40000001 185 8 159 0.000000 0.000000 0.000000 0.000000 -60.708740 0.000000 8.000000 -0.361442 0.898442 0.249321
2.89000010 -21.70999908 -0.41999999 185 8 159 0.000000 0.000000 0.000000 0.000000 -60.708740 0.000000 8.000000 -0.351911 0.926009 0.136624
2.85999990 -21.71999931 -0.41000000 185 8 159 0.000000 0.000000 0.000000 0.000000 -60.708740 0.000000 8.000000 -0.319869 0.937830 0.134754
2.88000011 -21.72999954 -0.41000000 185 8 159 0.000000 0.000000 0.000000 0.000000 -60.708740 0.000000 8.000000 -0.514584 0.820552 -0.248793
2.88000011 -21.72999954 -0.41000000 185 8 159 0.000000 0.000000 0.000000 0.000000 -60.708740 0.000000 8.000000 -0.514584 0.820552 -0.248793
2.85999990 -21.71999931 -0.43000001 185 8 159 0.000000 0.000000 0.000000 0.000000 -60.708740 0.000000 8.000000 -0.484924 0.835916 -0.257087
2.86999989 -21.73999977 -0.40000001 185 8 159 0.000000 0.000000 0.000000 0.000000 -60.708740 0.000000 8.000000 -0.328276 0.943952 -0.034488
2.85999990 -21.73999977 -0.40000001 185 8 159 0.000000 0.000000 0.000000 0.000000 -60.708740 0.000000 8.000000 -0.412875 0.906679 -0.086416
2.85999990 -21.75000000 -0.43000001 185 8 159 0.000000 0.000000 0.000000 0.000000 -60.708740 0.000000 8.000000 -0.430470 0.862460 0.266192
2.86999989 -21.73999977 -0.41000000 185 8 159 0.000000 0.000000 0.000000 0.000000 -60.708740 0.000000 8.000000 -0.416181 0.878605 -0.234195
2.85999990 -21.75000000 -0.41999999 185 8 159 0.000000 0.000000 0.000000 0.000000 -60.708740 0.000000 8.000000 -0.278164 0.957551 -0.075630
2.85999990 -21.72999954 -0.44999999 185 8 159 0.000000 0.000000 0.000000 0.000000 -60.708740 0.000000 8.000000 -0.169741 0.961866 0.214479
2.86999989 -21.71999931 -0.46000001 185 8 159 0.000000 0.000000 0.000000 0.000000 -60.708740 0.000000 8.000000 -0.445911 0.884653 -0.136211
2.86999989 -21.72999954 -0.47000000 185 8 159 0.000000 0.000000 0.000000 0.000000 -60.708740 0.000000 8.000000 -0.209592 0.977704 0.012880
2.85999990 -21.70999908 -0.44999999 185 8 159 0.000000 0.000000 0.000000 0.000000 -60.708740 0.000000 8.000000 -0.524415 0.776135 -0.350148
2.85999990 -21.71999931 -0.46000001 185 8 159 0.000000 0.000000 0.000000 0.000000 -60.708740 0.000000 8.000000 -0.346810 0.937289 0.034810
2.85999990 -21.71999931 -0.47999999 185 8 159 0.000000 0.000000 0.000000 0.000000 -60.708740 0.000000 8.000000 -0.130514 0.985441 0.108961
2.84999990 -21.72999954 -0.41000000 185 8 159 0.000000 0.000000 0.000000 0.000000 -60.708740 0.000000 8.000000 -0.415945 0.883698 0.214634
2.84999990 -21.72999954 -0.41999999 185 8 159 0.000000 0.000000 0.000000 0.000000 -60.708740 0.000000 8.000000 -0.669331 0.715705 0.199408
2.82999992 -21.72999954 -0.41000000 185 8 159 0.000000 0.000000 0.000000 0.000000 -60.708740 0.000000 8.000000 -0.501950 0.853168 -0.141951
2.84999990 -21.70999908 -0.43000001 185 8 159 0.000000 0.000000 0.000000 0.000000 -60.708740 0.000000 8.000000 -0.516790 0.837349 0.178255
2.82999992 -21.72999954 -0.41000000 185 8 159 0.000000 0.000000 0.000000 0.000000 -60.708740 0.000000 8.000000 -0.501950 0.853168 -0.141951
2.82999992 -21.77000046 -0.36000001 185 8 159 0.000000 0.000000 0.000000 0.000000 -60.708740 0.000000 8.000000 -0.437862 0.896313 -0.070003
2.83999991 -21.75000000 -0.37000000 185 8 159 0.000000 0.000000 0.000000 0.000000 -60.708740 0.000000 8.000000 0.771566 -0.609614 -0.181815
2.84999990 -21.73999977 -0.36000001 185 8 159 0.000000 0.000000 0.000000 0.000000 -60.708740 0.000000 8.000000 -0.575730 0.817121 0.029133
2.82999992 -21.75000000 -0.38000000 185 8 159 0.000000 0.000000 0.000000 0.000000 -60.708740 0.000000 8.000000 -0.501670 0.859803 0.095218
2.81999993 -21.73999977 -0.37000000 185 8 159 0.000000 0.000000 0.000000 0.000000 -60.708740 0.000000 8.000000 -0.480458 0.867134 -0.131296
2.83999991 -21.76000023 -0.37000000 185 8 159 0.000000 0.000000 0.000000 0.000000 -60.708740 0.000000 8.000000 -0.522313 0.851022 -0.054321
2.81999993 -21.75000000 -0.38000000 185 8 159 0.000000 0.000000 0.000000 0.000000 -60.708740 0.000000 8.000000 -0.607685 0.765404 -0.211839
2.81999993 -21.77000046 -0.40000001 185 8 159 0.000000 0.000000 0.000000 0.000000 -60.708740 0.000000 8.000000 -0.526840 0.828754 0.188696
2.81999993 -21.76000023 -0.43000001 185 8 159 0.000000 0.000000 0.000000 0.000000 -60.708740 0.000000 8.000000 -0.317711 0.948187 0.001236
2.82999992 -21.75000000 -0.40000001 185 8 159 0.000000 0.000000 0.000000 0.000000 -60.708740 0.000000 8.000000 -0.357342 0.930160 0.084317
2.82999992 -21.75000000 -0.43000001 185 8 159 0.000000 0.000000 0.000000 0.000000 -60.708740 0.000000 8.000000 0.589778 -0.698813 -0.404750
2.81999993 -21.75000000 -0.41999999 185 8 159 0.000000 0.000000 0.000000 0.000000 -60.708740 0.000000 8.000000 -0.613844 0.751998 -0.240200
2.81999993 -21.75000000 -0.41000000 185 8 159 0.000000 0.000000 0.000000 0.000000 -60.708740 0.000000 8.000000 -0.505730 0.846839 0.164622
2.81999993 -21.76000023 -0.43000001 185 8 159 0.000000 0.000000 0.000000 0.000000 -60.708740 0.000000 8.000000 -0.317711 0.948187 0.001236
2.81999993 -21.76000023 -0.40000001 185 8 159 0.000000 0.000000 0.000000 0.000000 -60.708740 0.000000 8.000000 -0.572538 0.803957 0.160791
2.83999991 -21.75000000 -0.41999999 185 8 159 0.000000 0.000000 0.000000 0.000000 -60.708740 0.000000 8.000000 -0.293917 0.946171 0.135551
2.82999992 -21.76000023 -0.41000000 185 8 159 0.000000 0.000000 0.000000 0.000000 -60.708740 0.000000 8.000000 0.772929 -0.538319 -0.335847
2.82999992 -21.75000000 -0.40000001 185 8 159 0.000000 0.000000 0.000000 0.000000 -60.708740 0.000000 8.000000 -0.357342 0.930160 0.084317
2.83999991 -21.75000000 -0.40000001 185 8 159 0.000000 0.000000 0.000000 0.000000 -60.708740 0.000000 8.000000 -0.375561 0.926726 -0.011536
2.80999994 -21.77000046 -0.37000000 185 8 159 0.000000 0.000000 0.000000 0.000000 -60.708740 0.000000 8.000000 -0.399389 0.916090 0.035589
2.79999995 -21.77000046 -0.36000001 185 8 159 0.000000 0.000000 0.000000 0.000000 -60.708740 0.000000 8.000000 -0.437565 0.890707 -0.123198
2.80999994 -21.77000046 -0.37000000 185 8 159 0.000000 0.000000 0.000000 0.000000 -60.708740 0.000000 8.000000 -0.399389 0.916090 0.035589
2.79999995 -21.77000046 -0.36000001 185 8 159 0.000000 0.000000 0.000000 0.000000 -60.708740 0.000000 8.000000 -0.437565 0.890707 -0.123198
2.77999997 -21.75000000 -0.43000001 185 8 159 0.000000 0.000000 0.000000 0.000000 -60.708740 0.000000 8.000000 0.715251 -0.694940 -0.073991
2.78999996 -21.77000046 -0.40000001 185 8 159 0.000000 0.000000 0.000000 0.000000 -60.708740 0.000000 8.000000 -0.602936 0.796887 -0.037947
2.77999997 -21.77000046 -0.43000001 185 8 159 0.000000 0.000000 0.000000 0.000000 -60.708740 0.000000 8.000000 -0.408443 0.893923 0.184599
2.77999997 -21.77000046 -0.41000000 185 8 159 0.000000 0.000000 0.000000 0.000000 -60.708740 0.000000 8.000000 0.723702 -0.658616 -0.206108
2.84999990 -21.72999954 -0.46000001 185 8 159 0.000000 0.000000 0.000000 0.000000 -60.708740 0.000000 8.000000 -0.662587 0.712712 0.230261
2.84999990 -21.72999954 -0.44000000 185 8 159 0.000000 0.000000 0.000000 0.000000 -60.708740 0.000000 8.000000 -0.571240 0.773786 -0.273752
2.84999990 -21.71999931 -0.44999999 185 8 159 0.000000 0.000000 0.000000 0.000000 -60.708740 0.000000 8.000000 -0.587458 0.756213 -0.288157
2.84999990 -21.72999954 -0.44000000 185 8 159 0.000000 0.000000 0.000000 0.000000 -60.708740 0.000000 8.000000 -0.571240 0.773786 -0.273752
2.83999991 -21.72999954 -0.44000000 185 8 159 0.000000 0.000000 0.000000 0.000000 -60.708740 0.000000 8.000000 -0.571699 0.755286 -0.320473
2.84999990 -21.75000000 -0.47999999 185 8 159 0.000000 0.000000 0.000000 0.000000 -60.708740 0.000000 8.000000 -0.271730 0.884250 0.379822
2.82999992 -21.73999977 -0.47999999 185 8 159 0.000000 0.000000 0.000000 0.000000 -60.708740 0.000000 8.000000 -0.386829 0.890744 -0.238619
2.81999993 -21.75000000 -0.44999999 185 8 159 0.000000 0.000000 0.000000 0.000000 -60.708740 0.000000 8.000000 0.689977 -0.677287 0.255371
2.81999993 -21.73999977 -0.46000001 185 8 159 0.000000 0.000000 0.000000 0.000000 -60.708740 0.000000 8.000000 -0.502169 0.818176 -0.280026
2.82999992 -21.73999977 -0.44999999 185 8 159 0.000000 0.000000 0.000000 0.000000 -60.708740 0.000000 8.000000 -0.365105 0.929239 -0.056677
2.82999992 -21.73999977 -0.47000000 185 8 159 0.000000 0.000000 0.000000 0.000000 -60.708740 0.000000 8.000000 -0.491236 0.841033 -0.226607
2.84999990 -21.73999977 -0.44999999 185 8 159 0.000000 0.000000 0.000000 0.000000 -60.708740 0.000000 8.000000 -0.629082 0.776103 -0.043824
2.82999992 -21.73999977 -0.51999998 185 8 159 0.000000 0.000000 0.000000 0.000000 -60.708740 0.000000 8.000000 -0.396359 0.900817 -0.177281
2.83999991 -21.73999977 -0.51999998 185 8 159 0.000000 0.000000 0.000000 0.000000 -60.708740 0.000000 8.000000 -0.530872 0.781072 0.328788
2.82999992 -21.76000023 -0.50000000 185 8 159 0.000000 0.000000 0.000000 0.000000 -60.708740 0.000000 8.000000 0.750308 -0.660551 0.026646
2.84999990 -21.73999977 -0.50999999 185 8 159 0.000000 0.000000 0.000000 0.000000 -60.708740 0.000000 8.000000 -0.443030 0.890280 0.105483
2.82999992 -21.73999977 -0.50999999 185 8 159 0.000000 0.000000 0.000000 0.000000 -60.708740 0.000000 8.000000 -0.246770 0.962533 0.112403
2.82999992 -21.75000000 -0.49000001 185 8 159 0.000000 0.000000 0.000000 0.000000 -60.708740 0.000000 8.000000 0.772599 -0.634881 -0.004132
2.82999992 -21.75000000 -0.49000001 185 8 159 0.000000 0.000000 0.000000 0.000000 -60.708740 0.000000 8.000000 0.772599 -0.634881 -0.004132
2.83999991 -21.73999977 -0.50000000 185 8 159 0.000000 0.000000 0.000000 0.000000 -60.708740 0.000000 8.000000 -0.633891 0.767955 -0.091805
2.82999992 -21.73999977 -0.49000001 185 8 159 0.000000 0.000000 0.000000 0.000000 -60.708740 0.000000 8.000000 -0.563613 0.745528 0.355709
2.82999992 -21.75000000 -0.50999999 185 8 159 0.000000 0.000000 0.000000 0.000000 -60.708740 0.000000 8.000000 -0.531052 0.738212 0.415964
2.82999992 -21.75000000 -0.49000001 185 8 159 0.000000 0.000000 0.000000 0.000000 -60.708740 0.000000 8.000000 0.772599 -0.634881 -0.004132
2.78999996 -21.72999954 -0.47000000 185 8 159 0.000000 0.000000 0.000000 0.000000 -60.708740 0.000000 8.000000 -0.326890 0.839905 0.433247
2.79999995 -21.77000046 -0.47999999 185 8 159 0.000000 0.000000 0.000000 0.000000 -60.708740 0.000000 8.000000 -0.365783 0.930501 0.019252
2.79999995 -21.77000046 -0.47000000 185 8 159 0.000000 0.000000 0.000000 0.000000 -60.708740 0.000000 8.000000 -0.716231 0.692892 0.083147
2.78999996 -21.77000046 -0.47999999 185 8 159 0.000000 0.000000 0.000000 0.000000 -60.708740 0.000000 8.000000 -0.546018 0.696298 0.465868
2.78999996 -21.77000046 -0.50999999 185 8 159 0.000000 0.000000 0.000000 0.000000 -60.708740 0.000000 8.000000 -0.307564 0.948648 0.073971
2.77999997 -21.76000023 -0.51999998 185 8 159 0.000000 0.000000 0.000000 0.000000 -60.708740 0.000000 8.000000 -0.146761 0.988037 0.047380
2.78999996 -21.78000069 -0.36000001 185 8 159 0.000000 0.000000 0.000000 0.000000 -60.708740 0.000000 8.000000 -0.652378 0.755611 -0.058786
2.78999996 -21.79999924 -0.37000000 185 8 159 0.000000 0.000000 0.000000 0.000000 -60.708740 0.000000 8.000000 0.897290 -0.441440 0.001310
2.80999994 -21.78000069 -0.38000000 185 8 159 0.000000 0.000000 0.000000 0.000000 -60.708740 0.000000 8.000000 -0.407429 0.901455 -0.146220
2.77999997 -21.79000092 -0.43000001 185 8 159 0.000000 0.000000 0.000000 0.000000 -60.708740 0.000000 8.000000 0.846650 -0.522889 0.098847
2.77999997 -21.80999947 -0.41000000 185 8 159 0.000000 0.000000 0.000000 0.000000 -60.708740 0.000000 8.000000 0.862728 -0.504511 -0.034181
2.78999996 -21.78000069 -0.44000000 185 8 159 0.000000 0.000000 0.000000 0.000000 -60.708740 0.000000 8.000000 0.866391 -0.484202 -0.122128
2.77999997 -21.79000092 -0.44000000 185 8 159 0.000000 0.000000 0.000000 0.000000 -60.708740 0.000000 8.000000 -0.549323 0.736257 0.395184
2.77999997 -21.79000092 -0.44000000 185 8 159 0.000000 0.000000 0.000000 0.000000 -60.708740 0.000000 8.000000 -0.549323 0.736257 0.395184
2.78999996 -21.78000069 -0.44000000 185 8 159 0.000000 0.000000 0.000000 0.000000 -60.708740 0.000000 8.000000 0.866391 -0.484202 -0.122128
2.77999997 -21.79000092 -0.44000000 185 8 159 0.000000 0.000000 0.000000 0.000000 -60.708740 0.000000 8.000000 -0.549323 0.736257 0.395184
2.77999997 -21.80999947 -0.44999999 185 8 159 0.000000 0.000000 0.000000 0.000000 -60.708740 0.000000 8.000000 -0.657856 0.731462 0.179415
2.78999996 -21.78000069 -0.44000000 185 8 159 0.000000 0.000000 0.000000 0.000000 -60.708740 0.000000 8.000000 0.866391 -0.484202 -0.122128
2.82999992 -21.75000000 -0.52999997 185 8 159 0.000000 0.000000 0.000000 0.000000 -60.708740 0.000000 8.000000 -0.544471 0.806681 -0.229819
2.81999993 -21.75000000 -0.52999997 185 8 159 0.000000 0.000000 0.000000 0.000000 -60.708740 0.000000 8.000000 -0.472206 0.791307 -0.388401
2.82999992 -21.73999977 -0.52999997 185 8 159 0.000000 0.000000 0.000000 0.000000 -60.708740 0.000000 8.000000 -0.614878 0.769736 -0.171558
2.80999994 -21.76000023 -0.56000000 185 8 159 0.000000 0.000000 0.000000 0.000000 -60.708740 0.000000 8.000000 0.528412 -0.791825 -0.306257
2.80999994 -21.76000023 -0.56000000 185 8 159 0.000000 0.000000 0.000000 0.000000 -60.708740 0.000000 8.000000 0.528412 -0.791825 -0.306257
2.80999994 -21.76000023 -0.54000002 185 8 159 0.000000 0.000000 0.000000 0.000000 -60.708740 0.000000 8.000000 -0.329543 0.937517 0.111641
2.79999995 -21.76000023 -0.54000002 185 8 159 0.000000 0.000000 0.000000 0.000000 -60.708740 0.000000 8.000000 -0.164418 0.985342 -0.045477
2.80999994 -21.73999977 -0.54000002 185 8 159 0.000000 0.000000 0.000000 0.000000 -60.708740 0.000000 8.000000 -0.601937 0.739981 -0.300166
2.79999995 -21.77000046 -0.56000000 185 8 159 0.000000 0.000000 0.000000 0.000000 -60.708740 0.000000 8.000000 -0.441620 0.895470 0.055712
2.80999994 -21.76000023 -0.56000000 185 8 159 0.000000 0.000000 0.000000 0.000000 -60.708740 0.000000 8.000000 0.528412 -0.791825 -0.306257
2.78999996 -21.77000046 -0.56000000 185 8 159 0.000000 0.000000 0.000000 0.000000 -60.708740 0.000000 8.000000 -0.433116 0.810294 0.394759
2.80999994 -21.77000046 -0.57999998 185 8 159 0.000000 0.000000 0.000000 0.000000 -60.708740 0.000000 8.000000 -0.110702 0.976420 -0.185333
2.77999997 -21.76000023 -0.58999997 185 8 159 0.000000 0.000000 0.000000 0.000000 -60.708740 0.000000 8.000000 0.747418 -0.629323 -0.212882
2.78999996 -21.76000023 -0.58999997 185 8 159 0.000000 0.000000 0.000000 0.000000 -60.708740 0.000000 8.000000 -0.626131 0.768907 0.129391
2.78999996 -21.75000000 -0.57999998 185 8 159 0.000000 0.000000 0.000000 0.000000 -60.708740 0.000000 8.000000 -0.356465 0.932595 0.056561
2.78999996 -21.76000023 -0.60000002 185 8 159 0.000000 0.000000 0.000000 0.000000 -60.708740 0.000000 8.000000 -0.656236 0.754181 0.023787
2.79999995 -21.77000046 -0.58999997 185 8 159 0.000000 0.000000 0.000000 0.000000 -60.708740 0.000000 8.000000 0.735772 -0.656558 -0.166044
2.78999996 -21.76000023 -0.57999998 185 8 159 0.000000 0.000000 0.000000 0.000000 -60.708740 0.000000 8.000000 0.777539 -0.626864 0.049751
2.78999996 -21.76000023 -0.57999998 185 8 159 0.000000 0.000000 0.000000 0.000000 -60.708740 0.000000 8.000000 0.777539 -0.626864 0.049751
2.78999996 -21.77000046 -0.57999998 185 8 159 0.000000 0.000000 0.000000 0.000000 -60.708740 0.000000 8.000000 -0.308819 0.949523 0.055101
2.77999997 -21.73999977 -0.60000002 185 8 159 0.000000 0.000000 0.000000 0.000000 -60.708740 0.000000 8.000000 -0.182935 0.949907 0.253399
2.77999997 -21.77000046 -0.63000000 185 8 159 0.000000 0.000000 0.000000 0.000000 -60.708740 0.000000 8.000000 -0.494481 0.822055 -0.282338
2.78999996 -21.76000023 -0.62000000 185 8 159 0.000000 0.000000 0.000000 0.000000 -60.708740 0.000000 8.000000 -0.581606 0.798018 0.157800
2.77999997 -21.76000023 -0.61000001 185 8 159 0.000000 0.000000 0.000000 0.000000 -60.708740 0.000000 8.000000 -0.614937 0.784873 0.076327
2.77999997 -21.78000069 -0.57999998 185 8 159 0.000000 0.000000 0.000000 0.000000 -60.708740 0.000000 8.000000 -0.469726 0.875205 0.115647
2.78999996 -21.79000092 -0.52999997 185 8 159 0.000000 0.000000 0.000000 0.000000 -60.708740 0.000000 8.000000 -0.387130 0.908977 0.154569
2.77999997 -21.79000092 -0.56000000 185 8 159 0.000000 0.000000 0.000000 0.000000 -60.708740 0.000000 8.000000 -0.451264 0.880902 0.142732
2.77999997 -21.79000092 -0.55000001 185 8 159 0.000000 0.000000 0.000000 0.000000 -60.708740 0.000000 8.000000 -0.189609 0.979444 0.068839
2.77999997 -21.78000069 -0.63999999 185 8 159 0.000000 0.000000 0.000000 0.000000 -60.708740 0.000000 8.000000 -0.308300 0.938604 -0.154835
2.76999998 -21.77000046 -0.43000001 185 8 159 0.000000 0.000000 0.000000 0.000000 -60.708740 0.000000 8.000000 -0.277879 0.896049 0.346235
2.75999999 -21.77000046 -0.44000000 185 8 159 0.000000 0.000000 0.000000 0.000000 -60.708740 0.000000 8.000000 -0.278766 0.901197 0.331865
2.75000000 -21.80999947 -0.38000000 185 8 159 0.000000 0.000000 0.000000 0.000000 -60.708740 0.000000 8.000000 0.921636 -0.318643 -0.221479
2.75999999 -21.80999947 -0.38000000 185 8 159 0.000000 0.000000 0.000000 0.000000 -60.708740 0.000000 8.000000 -0.563591 0.657803 0.499661
2.76999998 -21.79999924 -0.38000000 185 8 159 0.000000 0.000000 0.000000 0.000000 -60.708740 0.000000 8.000000 0.812503 -0.394280 -0.429398
2.75999999 -21.80999947 -0.38000000 185 8 159 0.000000 0.000000 0.000000 0.000000 -60.708740 0.000000 8.000000 -0.563591 0.657803 0.499661
2.76999998 -21.80999947 -0.37000000 185 8 159 0.000000 0.000000 0.000000 0.000000 -60.708740 0.000000 8.000000 -0.819190 0.511411 0.259591
2.75999999 -21.80999947 -0.36000001 185 8 159 0.000000 0.000000 0.000000 0.000000 -60.708740 0.000000 8.000000 -0.609756 0.689074 0.391632
2.74000001 -21.80999947 -0.40000001 185 8 159 0.000000 0.000000 0.000000 0.000000 -60.708740 0.000000 8.000000 -0.621007 0.634398 0.460315
2.75000000 -21.81999969 -0.38999999 185 8 159 0.000000 0.000000 0.000000 0.000000 -60.708740 0.000000 8.000000 -0.513552 0.856842 -0.045680
2.74000001 -21.82999992 -0.37000000 185 8 159 0.000000 0.000000 0.000000 0.000000 -60.708740 0.000000 8.000000 0.849158 -0.448466 -0.278943
2.75000000 -21.81999969 -0.36000001 185 8 159 0.000000 0.000000 0.000000 0.000000 -60.708740 0.000000 8.000000 -0.679136 0.733013 0.038281
2.75000000 -21.81999969 -0.36000001 185 8 159 0.000000 0.000000 0.000000 0.000000 -60.708740 0.000000 8.000000 -0.679136 0.733013 0.038281
2.75000000 -21.81999969 -0.37000000 185 8 159 0.000000 0.000000 0.000000 0.000000 -60.708740 0.000000 8.000000 -0.676807 0.734042 -0.055804
2.75000000 -21.81999969 -0.38999999 185 8 159 0.000000 0.000000 0.000000 0.000000 -60.708740 0.000000 8.000000 -0.513552 0.856842 -0.045680
2.73000002 -21.79999924 -0.41000000 185 8 159 0.000000 0.000000 0.000000 0.000000 -60.708740 0.000000 8.000000 0.784107 -0.604883 -0.138899
2.71000004 -21.81999969 -0.38000000 185 8 159 0.000000 0.000000 0.000000 0.000000 -60.708740 0.000000 8.000000 0.650015 -0.592907 -0.475334
2.72000003 -21.85000038 -0.38999999 185 8 159 0.000000 0.000000 0.000000 0.000000 -60.708740 0.000000 8.000000 0.731084 -0.601974 -0.321160
2.71000004 -21.82999992 -0.38999999 185 8 159 0.000000 0.000000 0.000000 0.000000 -60.708740 0.000000 8.000000 0.932031 -0.359479 0.045752
2.73000002 -21.84000015 -0.38999999 185 8 159 0.000000 0.000000 0.000000 0.000000 -60.708740 0.000000 8.000000 -0.530681 0.843683 0.081096
2.71000004 -21.85000038 -0.36000001 185 8 159 0.000000 0.000000 0.000000 0.000000 -60.708740 0.000000 8.000000 0.930338 -0.363475 -0.048551
2.72000003 -21.84000015 -0.43000001 185 8 159 0.000000 0.000000 0.000000 0.000000 -60.708740 0.000000 8.000000 0.837157 -0.456773 -0.300878
2.73000002 -21.84000015 -0.41999999 185 8 159 0.000000 0.000000 0.000000 0.000000 -60.708740 0.000000 8.000000 0.767229 -0.640064 -0.040975
2.72000003 -21.85000038 -0.43000001 185 8 159 0.000000 0.000000 0.000000 0.000000 -60.708740 0.000000 8.000000 0.835203 -0.542954 0.087388
2.72000003 -21.85000038 -0.41999999 185 8 159 0.000000 0.000000 0.000000 0.000000 -60.708740 0.000000 8.000000 -0.605913 0.773799 0.184674
2.72000003 -21.85000038 -0.41999999 185 8 159 0.000000 0.000000 0.000000 0.000000 -60.708740 0.000000 8.000000 -0.605913 0.773799 0.184674
2.75000000 -21.80999947 -0.47000000 185 8 159 0.000000 0.000000 0.000000 0.000000 -60.708740 0.000000 8.000000 -0.692358 0.704478 -0.156046
2.75999999 -21.80999947 -0.44999999 185 8 159 0.000000 0.000000 0.000000 0.000000 -60.708740 0.000000 8.000000 0.791073 -0.605280 -0.088542
2.75000000 -21.79000092 -0.47999999 185 8 159 0.000000 0.000000 0.000000 0.000000 -60.708740 0.000000 8.000000 0.809848 -0.564349 -0.160173
2.76999998 -21.78000069 -0.47000000 185 8 159 0.000000 0.000000 0.000000 0.000000 -60.708740 0.000000 8.000000 -0.259384 0.962885 0.074652
2.76999998 -21.79999924 -0.46000001 185 8 159 0.000000 0.000000 0.000000 0.000000 -60.708740 0.000000 8.000000 0.795638 -0.581253 -0.170602
2.76999998 -21.79999924 -0.46000001 185 8 159 0.000000 0.000000 0.000000 0.000000 -60.708740 0.000000 8.000000 0.795638 -0.581253 -0.170602
2.75999999 -21.79999924 -0.47000000 185 8 159 0.000000 0.000000 0.000000 0.000000 -60.708740 0.000000 8.000000 -0.622085 0.782802 0.015240
2.75000000 -21.80999947 -0.46000001 185 8 159 0.000000 0.000000 0.000000 0.000000 -60.708740 0.000000 8.000000 -0.589236 0.768364 -0.249836
2.75999999 -21.80999947 -0.51999998 185 8 159 0.000000 0.000000 0.000000 0.000000 -60.708740 0.000000 8.000000 -0.504025 0.845989 0.173956
2.75999999 -21.78000069 -0.49000001 185 8 159 0.000000 0.000000 0.000000 0.000000 -60.708740 0.000000 8.000000 -0.535217 0.812851 0.229819
2.75999999 -21.79000092 -0.49000001 185 8 159 0.000000 0.000000 0.000000 0.000000 -60.708740 0.000000 8.000000 0.823457 -0.541472 -0.169491
2.76999998 -21.79000092 -0.49000001 185 8 159 0.000000 0.000000 0.000000 0.000000 -60.708740 0.000000 8.000000 -0.410048 0.907075 0.095264
2.75000000 -21.78000069 -0.50999999 185 8 159 0.000000 0.000000 0.000000 0.000000 -60.708740 0.000000 8.000000 0.697150 -0.668565 -0.258851
2.74000001 -21.82999992 -0.46000001 185 8 159 0.000000 0.000000 0.000000 0.000000 -60.708740 0.000000 8.000000 0.777756 -0.512575 -0.363815
2.74000001 -21.82999992 -0.46000001 185 8 159 0.000000 0.000000 0.000000 0.000000 -60.708740 0.000000 8.000000 0.777756 -0.512575 -0.363815
2.74000001 -21.82999992 -0.47000000 185 8 159 0.000000 0.000000 0.000000 0.000000 -60.708740 0.000000 8.000000 0.903089 -0.398044 -0.161215
2.74000001 -21.81999969 -0.47000000 185 8 159 0.000000 0.000000 0.000000 0.000000 -60.708740 0.000000 8.000000 0.795152 -0.594520 -0.119494
2.74000001 -21.84000015 -0.47000000 185 8 159 0.000000 0.000000 0.000000 0.000000 -60.708740 0.000000 8.000000 0.840599 -0.482311 -0.246514
2.75000000 -21.81999969 -0.46000001 185 8 159 0.000000 0.000000 0.000000 0.000000 -60.708740 0.000000 8.000000 0.808688 -0.556826 -0.189655
2.74000001 -21.82999992 -0.44999999 185 8 159 0.000000 0.000000 0.000000 0.000000 -60.708740 0.000000 8.000000 -0.476828 0.868146 -0.137686
2.75000000 -21.84000015 -0.50000000 185 8 159 0.000000 0.000000 0.000000 0.000000 -60.708740 0.000000 8.000000 -0.479548 0.873312 -0.085784
2.74000001 -21.84000015 -0.51999998 185 8 159 0.000000 0.000000 0.000000 0.000000 -60.708740 0.000000 8.000000 -0.460868 0.811701 0.358807
2.74000001 -21.84000015 -0.51999998 185 8 159 0.000000 0.000000 0.000000 0.000000 -60.708740 0.000000 8.000000 -0.460868 0.811701 0.358807
2.73000002 -21.78000069 -0.47999999 185 8 159 0.000000 0.000000 0.000000 0.000000 -60.708740 0.000000 8.000000 0.879713 -0.467216 -0.088392
2.71000004 -21.80999947 -0.50999999 185 8 159 0.000000 0.000000 0.000000 0.000000 -60.708740 0.000000 8.000000 0.830252 -0.470633 -0.298641
2.72000003 -21.85000038 -0.46000001 185 8 159 0.000000 0.000000 0.000000 0.000000 -60.708740 0.000000 8.000000 0.749018 -0.662216 -0.021001
2.72000003 -21.84000015 -0.46000001 185 8 159 0.000000 0.000000 0.000000 0.000000 -60.708740 0.000000 8.000000 -0.518834 0.853655 0.045657
2.73000002 -21.82999992 -0.47999999 185 8 159 0.000000 0.000000 0.000000 0.000000 -60.708740 0.000000 8.000000 0.853437 -0.377751 -0.359096
2.71000004 -21.82999992 -0.47999999 185 8 159 0.000000 0.000000 0.000000 0.000000 -60.708740 0.000000 8.000000 -0.711182 0.673996 0.199875
2.73000002 -21.84000015 -0.46000001 185 8 159 0.000000 0.000000 0.000000 0.000000 -60.708740 0.000000 8.000000 0.720816 -0.692714 -0.023887
2.72000003 -21.84000015 -0.47000000 185 8 159 0.000000 0.000000 0.000000 0.000000 -60.708740 0.000000 8.000000 -0.432930 0.895282 0.105080
2.70000005 -21.85000038 -0.47999999 185 8 159 0.000000 0.000000 0.000000 0.000000 -60.708740 0.000000 8.000000 -0.534528 0.810313 0.240150
2.73000002 -21.82999992 -0.46000001 185 8 159 0.000000 0.000000 0.000000 0.000000 -60.708740 0.000000 8.000000 0.758163 -0.557710 -0.337859
2.72000003 -21.84000015 -0.49000001 185 8 159 0.000000 0.000000 0.000000 0.000000 -60.708740 0.000000 8.000000 -0.584844 0.719178 0.375152
2.73000002 -21.81999969 -0.50999999 185 8 159 0.000000 0.000000 0.000000 0.000000 -60.708740 0.000000 8.000000 -0.284661 0.943876 0.167528
2.73000002 -21.81999969 -0.50999999 185 8 159 0.000000 0.000000 0.000000 0.000000 -60.708740 0.000000 8.000000 -0.284661 0.943876 0.167528
