//X Y Z R G B PointSourceId ScanDirectionFlag NumberOfReturns ReturnNumber GpsTime Intensity Classification Nx Ny Nz
15.40999985 15.80000019 -0.73000002 127 150 117 97.000000 1.000000 4.000000 1.000000 -60.708740 114.000000 139.000000 -0.055077 0.973036 0.223982
15.43999958 15.78999996 -0.76999998 127 150 117 97.000000 1.000000 4.000000 1.000000 -60.708740 114.000000 139.000000 -0.181686 0.936169 -0.300961
15.42000008 15.78999996 -0.75000000 127 150 117 97.000000 1.000000 4.000000 1.000000 -60.708740 114.000000 139.000000 0.032682 0.924238 -0.380415
15.39000034 15.78999996 -0.76999998 127 150 117 97.000000 1.000000 4.000000 1.000000 -60.708740 114.000000 139.000000 -0.300293 0.854681 -0.423491
15.39999962 15.80000019 -0.74000001 127 150 117 97.000000 1.000000 4.000000 1.000000 -60.708740 114.000000 139.000000 -0.072810 0.973683 -0.215963
15.39999962 15.80000019 -0.74000001 127 150 117 97.000000 1.000000 4.000000 1.000000 -60.708740 114.000000 139.000000 -0.072810 0.973683 -0.215963
15.38000011 15.77999973 -0.70999998 127 150 117 97.000000 1.000000 4.000000 1.000000 -60.708740 114.000000 139.000000 -0.221761 0.969412 0.105178
15.42000008 15.81999969 -0.77999997 127 150 117 97.000000 1.000000 4.000000 1.000000 -60.708740 114.000000 139.000000 0.012979 0.975798 -0.218286
15.40999985 15.77999973 -0.85000002 127 150 117 97.000000 1.000000 4.000000 1.000000 -60.708740 114.000000 139.000000 0.087662 0.820576 -0.564775
15.39000034 15.81999969 -0.80000001 127 150 117 97.000000 1.000000 4.000000 1.000000 -60.708740 114.000000 139.000000 0.046736 0.990568 -0.128808
15.42000008 15.78999996 -0.93000001 127 150 117 97.000000 1.000000 4.000000 1.000000 -60.708740 114.000000 139.000000 0.120419 0.937642 -0.326078
15.42000008 15.77000046 -0.94000000 127 150 117 97.000000 1.000000 4.000000 1.000000 -60.708740 114.000000 139.000000 -0.150269 0.917060 -0.369352
15.39999962 15.81000042 -0.86000001 127 150 117 97.000000 1.000000 4.000000 1.000000 -60.708740 114.000000 139.000000 0.380965 0.910634 -0.160034
15.38000011 15.76000023 -0.88000000 127 150 117 97.000000 1.000000 4.000000 1.000000 -60.708740 114.000000 139.000000 0.343476 0.928352 -0.142081
15.43000031 15.77000046 -0.97000003 127 150 117 97.000000 1.000000 4.000000 1.000000 -60.708740 114.000000 139.000000 0.431757 0.777163 -0.457825
15.42000008 15.77000046 -0.98000002 127 150 117 97.000000 1.000000 4.000000 1.000000 -60.708740 114.000000 139.000000 0.495238 0.656400 -0.569104
15.38000011 15.78999996 -0.97000003 127 150 117 97.000000 1.000000 4.000000 1.000000 -60.708740 114.000000 139.000000 -0.052409 -0.593495 0.803130
15.35000038 15.92000008 -0.99000001 127 150 117 97.000000 1.000000 4.000000 1.000000 -60.708740 114.000000 139.000000 0.187141 0.801817 -0.567510
15.32999992 15.92000008 -1.00000000 127 150 117 97.000000 1.000000 4.000000 1.000000 -60.708740 114.000000 139.000000 0.206106 0.896050 -0.393210
15.35000038 15.92000008 -0.98000002 127 150 117 97.000000 1.000000 4.000000 1.000000 -60.708740 114.000000 139.000000 -0.087742 0.975050 -0.203908
15.35000038 15.85000038 -0.69999999 127 150 117 97.000000 1.000000 4.000000 1.000000 -60.708740 114.000000 139.000000 -0.134963 0.919694 -0.368712
15.35999966 15.82999992 -0.82999998 127 150 117 97.000000 1.000000 4.000000 1.000000 -60.708740 114.000000 139.000000 0.217381 0.973914 -0.065091
15.35999966 15.77000046 -0.73000002 127 150 117 97.000000 1.000000 4.000000 1.000000 -60.708740 114.000000 139.000000 0.099052 0.971710 -0.214403
15.35000038 15.77000046 -0.80000001 127 150 117 97.000000 1.000000 4.000000 1.000000 -60.708740 114.000000 139.000000 -0.032695 0.922002 -0.385802
15.34000015 15.78999996 -0.88000000 127 150 117 97.000000 1.000000 4.000000 1.000000 -60.708740 114.000000 139.000000 0.423630 0.813690 -0.398053
15.35000038 15.81999969 -0.93000001 127 150 117 97.000000 1.000000 4.000000 1.000000 -60.708740 114.000000 139.000000 -0.089548 0.977665 -0.190136
15.34000015 15.81000042 -0.97000003 127 150 117 97.000000 1.000000 4.000000 1.000000 -60.708740 114.000000 139.000000 -0.107792 -0.689572 0.716151
15.35000038 15.80000019 -0.97000003 127 150 117 97.000000 1.000000 4.000000 1.000000 -60.708740 114.000000 139.000000 -0.322898 -0.551015 0.769493
15.28999996 15.77000046 -1.00000000 127 150 117 97.000000 1.000000 4.000000 1.000000 -60.708740 114.000000 139.000000 0.355251 0.888878 -0.289297
15.32999992 15.81000042 -0.97000003 127 150 117 97.000000 1.000000 4.000000 1.000000 -60.708740 114.000000 139.000000 -0.084931 -0.571487 0.816204
15.28999996 15.77000046 -0.99000001 127 150 117 97.000000 1.000000 4.000000 1.000000 -60.708740 114.000000 139.000000 0.099295 0.960707 -0.259197
15.15999985 15.84000015 -0.75000000 127 150 117 97.000000 1.000000 4.000000 1.000000 -60.708740 114.000000 141.000000 0.039995 0.937944 0.344472
15.18000031 15.82999992 -0.74000001 127 150 117 97.000000 1.000000 4.000000 1.000000 -60.708740 114.000000 141.000000 -0.299798 0.940462 0.160166
15.11999989 15.85999966 -0.77999997 127 150 117 97.000000 1.000000 4.000000 1.000000 -60.708740 114.000000 141.000000 -0.060938 0.989949 -0.127624
15.13000011 15.81000042 -0.73000002 127 150 117 97.000000 1.000000 4.000000 1.000000 -60.708740 114.000000 141.000000 0.155467 0.962851 -0.220789
15.14999962 15.78999996 -0.76999998 127 150 117 97.000000 1.000000 4.000000 1.000000 -60.708740 114.000000 141.000000 0.222553 0.974711 -0.020232
15.02999973 15.89999962 -0.72000003 127 150 117 97.000000 1.000000 4.000000 1.000000 -60.708740 114.000000 141.000000 0.215512 0.931068 0.294392
15.02999973 15.85999966 -0.81000000 127 150 117 97.000000 1.000000 4.000000 1.000000 -60.708740 114.000000 141.000000 -0.349686 0.886973 0.301661
15.05000019 15.86999989 -0.82999998 127 150 117 97.000000 1.000000 4.000000 1.000000 -60.708740 114.000000 141.000000 0.329378 0.940513 -0.083337
15.06000042 15.78999996 -0.70999998 127 150 117 97.000000 1.000000 4.000000 1.000000 -60.708740 114.000000 141.000000 0.096844 0.992368 -0.076336
15.02999973 15.78999996 -0.75999999 127 150 117 97.000000 1.000000 4.000000 1.000000 -60.708740 114.000000 141.000000 0.138836 0.986091 0.091371
15.02999973 15.78999996 -0.77999997 127 150 117 97.000000 1.000000 4.000000 1.000000 -60.708740 114.000000 141.000000 0.029591 0.978856 0.202399
15.02999973 15.81999969 -0.79000002 127 150 117 97.000000 1.000000 4.000000 1.000000 -60.708740 114.000000 141.000000 0.005898 0.973168 0.230021
15.05000019 15.85000038 -0.88999999 127 150 117 97.000000 1.000000 4.000000 1.000000 -60.708740 114.000000 141.000000 0.003613 0.964591 0.263727
15.05000019 15.85999966 -0.91000003 127 150 117 97.000000 1.000000 4.000000 1.000000 -60.708740 114.000000 141.000000 0.380298 0.918482 -0.108461
15.02999973 15.82999992 -1.01999998 127 150 117 97.000000 1.000000 4.000000 1.000000 -60.708740 114.000000 141.000000 0.134212 0.952774 -0.272411
15.02999973 15.85000038 -0.94999999 127 150 117 97.000000 1.000000 4.000000 1.000000 -60.708740 114.000000 141.000000 -0.039307 0.949710 -0.310653
15.07999992 15.81000042 -0.88000000 127 150 117 97.000000 1.000000 4.000000 1.000000 -60.708740 114.000000 141.000000 0.340563 0.911549 -0.230423
15.06999969 15.77000046 -0.87000000 127 150 117 97.000000 1.000000 4.000000 1.000000 -60.708740 114.000000 141.000000 0.152484 0.956006 -0.250603
15.07999992 15.80000019 -0.91000003 127 150 117 97.000000 1.000000 4.000000 1.000000 -60.708740 114.000000 141.000000 -0.083655 0.854987 -0.511858
15.07999992 15.75000000 -0.95999998 127 150 117 97.000000 1.000000 4.000000 1.000000 -60.708740 114.000000 141.000000 0.217296 0.976071 -0.008222
15.05000019 15.80000019 -1.08000004 127 150 117 97.000000 1.000000 4.000000 1.000000 -60.708740 114.000000 141.000000 0.259238 0.783999 -0.564040
15.03999996 15.80000019 -1.07000005 127 150 117 97.000000 1.000000 4.000000 1.000000 -60.708740 114.000000 141.000000 0.133120 0.755343 -0.641667
15.02999973 15.77999973 -1.10000002 127 150 117 97.000000 1.000000 4.000000 1.000000 -60.708740 114.000000 141.000000 0.139688 0.925260 -0.352678
15.05000019 15.75000000 -1.09000003 127 150 117 97.000000 1.000000 4.000000 1.000000 -60.708740 114.000000 141.000000 0.078314 0.956460 -0.281161
15.03999996 15.80000019 -1.20000005 127 150 117 97.000000 1.000000 4.000000 1.000000 -60.708740 114.000000 141.000000 0.514913 0.616207 -0.595948
15.03999996 15.78999996 -1.21000004 127 150 117 97.000000 1.000000 4.000000 1.000000 -60.708740 114.000000 141.000000 -0.003870 0.917125 -0.398582
15.39999962 15.73999977 -0.15000001 127 150 117 97.000000 1.000000 4.000000 1.000000 -60.708740 114.000000 139.000000 -0.596989 0.177730 0.782314
15.48999977 15.69999981 -0.33000001 127 150 117 97.000000 1.000000 4.000000 1.000000 -60.708740 114.000000 139.000000 -0.272547 0.880885 0.386987
15.40999985 15.72999954 -0.28000000 127 150 117 97.000000 1.000000 4.000000 1.000000 -60.708740 114.000000 139.000000 -0.142736 0.758752 0.635549
15.43000031 15.73999977 -0.34999999 127 150 117 97.000000 1.000000 4.000000 1.000000 -60.708740 114.000000 139.000000 -0.612842 0.481878 0.626274
15.39000034 15.73999977 -0.28999999 127 150 117 97.000000 1.000000 4.000000 1.000000 -60.708740 114.000000 139.000000 0.121600 -0.876951 -0.464941
15.39999962 15.72999954 -0.28999999 127 150 117 97.000000 1.000000 4.000000 1.000000 -60.708740 114.000000 139.000000 0.057073 -0.856095 -0.513657
15.57999992 15.69999981 -0.40000001 127 150 117 97.000000 1.000000 4.000000 1.000000 -60.708740 114.000000 139.000000 0.051294 0.929862 0.364316
15.55000019 15.68000031 -0.37000000 127 150 117 97.000000 1.000000 4.000000 1.000000 -60.708740 114.000000 139.000000 0.346770 -0.730984 -0.587718
15.52999973 15.68000031 -0.38000000 127 150 117 97.000000 1.000000 4.000000 1.000000 -60.708740 114.000000 139.000000 -0.224194 0.921050 0.318441
15.51000023 15.73999977 -0.38999999 127 150 117 97.000000 1.000000 4.000000 1.000000 -60.708740 114.000000 139.000000 -0.181608 0.835998 0.517808
15.52000046 15.72000027 -0.37000000 127 150 117 97.000000 1.000000 4.000000 1.000000 -60.708740 114.000000 139.000000 -0.554660 0.737911 0.384499
15.47999954 15.71000004 -0.38000000 127 150 117 97.000000 1.000000 4.000000 1.000000 -60.708740 114.000000 139.000000 0.383754 -0.620924 -0.683510
15.47999954 15.72999954 -0.38999999 127 150 117 97.000000 1.000000 4.000000 1.000000 -60.708740 114.000000 139.000000 -0.122541 0.798729 0.589081
15.44999981 15.73999977 -0.37000000 127 150 117 97.000000 1.000000 4.000000 1.000000 -60.708740 114.000000 139.000000 -0.398408 0.542688 0.739433
15.44999981 15.72999954 -0.41999999 127 150 117 97.000000 1.000000 4.000000 1.000000 -60.708740 114.000000 139.000000 0.097402 0.798111 0.594585
15.47000027 15.73999977 -0.40000001 127 150 117 97.000000 1.000000 4.000000 1.000000 -60.708740 114.000000 139.000000 -0.024913 0.913906 0.405161
15.43999958 15.73999977 -0.56000000 127 150 117 97.000000 1.000000 4.000000 1.000000 -60.708740 114.000000 139.000000 -0.326588 0.855940 0.400883
15.44999981 15.73999977 -0.55000001 127 150 117 97.000000 1.000000 4.000000 1.000000 -60.708740 114.000000 139.000000 -0.181326 0.834698 0.520000
15.27999973 15.72000027 -0.16000000 127 150 117 97.000000 1.000000 4.000000 1.000000 -60.708740 114.000000 139.000000 -0.580384 0.328184 0.745285
15.34000015 15.71000004 -0.34999999 127 150 117 97.000000 1.000000 4.000000 1.000000 -60.708740 114.000000 139.000000 -0.230379 0.444195 0.865804
15.34000015 15.73999977 -0.20999999 127 150 117 97.000000 1.000000 4.000000 1.000000 -60.708740 114.000000 139.000000 -0.473016 0.473016 0.743311
15.34000015 15.73999977 -0.20999999 127 150 117 97.000000 1.000000 4.000000 1.000000 -60.708740 114.000000 139.000000 -0.473016 0.473016 0.743311
15.17000008 15.64999962 -0.31999999 127 150 117 97.000000 1.000000 4.000000 1.000000 -60.708740 114.000000 141.000000 0.612795 -0.555399 -0.562151
15.03999996 15.65999985 -0.25000000 127 150 117 97.000000 1.000000 4.000000 1.000000 -60.708740 114.000000 141.000000 -0.442887 0.660152 0.606672
15.09000015 15.60999966 -0.31000000 127 150 117 97.000000 1.000000 4.000000 1.000000 -60.708740 114.000000 141.000000 -0.156046 0.692358 0.704478
15.09000015 15.60999966 -0.31000000 127 150 117 97.000000 1.000000 4.000000 1.000000 -60.708740 114.000000 141.000000 -0.156046 0.692358 0.704478
15.06000042 15.63000011 -0.30000001 127 150 117 97.000000 1.000000 4.000000 1.000000 -60.708740 114.000000 141.000000 -0.696993 0.213620 0.684519
15.22000027 15.73999977 -0.56999999 127 150 117 97.000000 1.000000 4.000000 1.000000 -60.708740 114.000000 141.000000 -0.467746 0.881680 0.062090
15.21000004 15.73999977 -0.60000002 127 150 117 97.000000 1.000000 4.000000 1.000000 -60.708740 114.000000 141.000000 -0.027103 0.930519 0.365239
15.22000027 15.72999954 -0.56999999 127 150 117 97.000000 1.000000 4.000000 1.000000 -60.708740 114.000000 141.000000 -0.543261 0.806379 0.233711
15.15999985 15.68999958 -0.38000000 127 150 117 97.000000 1.000000 4.000000 1.000000 -60.708740 114.000000 141.000000 -0.497380 0.678245 0.540922
15.14000034 15.71000004 -0.38999999 127 150 117 97.000000 1.000000 4.000000 1.000000 -60.708740 114.000000 141.000000 -0.354496 0.856055 0.376169
15.14999962 15.68000031 -0.38000000 127 150 117 97.000000 1.000000 4.000000 1.000000 -60.708740 114.000000 141.000000 -0.528685 0.739501 0.416690
15.10999966 15.71000004 -0.50999999 127 150 117 97.000000 1.000000 4.000000 1.000000 -60.708740 114.000000 141.000000 0.015323 0.739664 0.672802
15.11999989 15.60000038 -0.50999999 127 150 117 97.000000 1.000000 4.000000 1.000000 -60.708740 114.000000 141.000000 -0.447614 0.762419 0.467289
15.10999966 15.61999989 -0.47000000 127 150 117 97.000000 1.000000 4.000000 1.000000 -60.708740 114.000000 141.000000 0.602344 -0.615842 -0.507859
15.11999989 15.60000038 -0.50999999 127 150 117 97.000000 1.000000 4.000000 1.000000 -60.708740 114.000000 141.000000 -0.447614 0.762419 0.467289
15.07999992 15.72000027 -0.51999998 127 150 117 97.000000 1.000000 4.000000 1.000000 -60.708740 114.000000 141.000000 0.328978 -0.771894 -0.544017
15.10000038 15.68000031 -0.44000000 127 150 117 97.000000 1.000000 4.000000 1.000000 -60.708740 114.000000 141.000000 -0.365881 0.840113 0.400427
15.09000015 15.68999958 -0.47000000 127 150 117 97.000000 1.000000 4.000000 1.000000 -60.708740 114.000000 141.000000 -0.347089 0.870015 0.350147
15.06000042 15.64000034 -0.38999999 127 150 117 97.000000 1.000000 4.000000 1.000000 -60.708740 114.000000 141.000000 -0.097503 0.329907 0.938965
15.10000038 15.59000015 -0.51999998 127 150 117 97.000000 1.000000 4.000000 1.000000 -60.708740 114.000000 141.000000 -0.296317 0.823103 0.484455
15.14999962 15.72999954 -0.60000002 127 150 117 97.000000 1.000000 4.000000 1.000000 -60.708740 114.000000 141.000000 -0.012399 0.800434 0.599292
15.14999962 15.71000004 -0.55000001 127 150 117 97.000000 1.000000 4.000000 1.000000 -60.708740 114.000000 141.000000 -0.587515 0.783865 0.200952
15.13000011 15.71000004 -0.57999998 127 150 117 97.000000 1.000000 4.000000 1.000000 -60.708740 114.000000 141.000000 -0.193133 0.703002 0.684462
15.10999966 15.68999958 -0.64999998 127 150 117 97.000000 1.000000 4.000000 1.000000 -60.708740 114.000000 141.000000 -0.596123 0.782126 0.181429
15.10999966 15.60000038 -0.54000002 127 150 117 97.000000 1.000000 4.000000 1.000000 -60.708740 114.000000 141.000000 0.464894 -0.632726 -0.619299
15.14000034 15.64999962 -0.52999997 127 150 117 97.000000 1.000000 4.000000 1.000000 -60.708740 114.000000 141.000000 0.525540 -0.599892 -0.603272
15.18000031 15.59000015 -0.69000000 127 150 117 97.000000 1.000000 4.000000 1.000000 -60.708740 114.000000 141.000000 0.113653 0.981323 0.155203
15.11999989 15.59000015 -0.67000002 127 150 117 97.000000 1.000000 4.000000 1.000000 -60.708740 114.000000 141.000000 -0.244748 0.705821 0.664767
15.13000011 15.60000038 -0.69000000 127 150 117 97.000000 1.000000 4.000000 1.000000 -60.708740 114.000000 141.000000 -0.040322 0.832868 0.552001
15.09000015 15.73999977 -0.55000001 127 150 117 97.000000 1.000000 4.000000 1.000000 -60.708740 114.000000 141.000000 -0.202132 0.825244 0.527366
15.09000015 15.73999977 -0.55000001 127 150 117 97.000000 1.000000 4.000000 1.000000 -60.708740 114.000000 141.000000 -0.202132 0.825244 0.527366
15.06999969 15.72000027 -0.55000001 127 150 117 97.000000 1.000000 4.000000 1.000000 -60.708740 114.000000 141.000000 -0.244188 0.735716 0.631739
15.07999992 15.68999958 -0.56999999 127 150 117 97.000000 1.000000 4.000000 1.000000 -60.708740 114.000000 141.000000 -0.200652 0.798011 0.568258
15.05000019 15.69999981 -0.52999997 127 150 117 97.000000 1.000000 4.000000 1.000000 -60.708740 114.000000 141.000000 -0.126092 0.951666 0.280058
15.06000042 15.73999977 -0.60000002 127 150 117 97.000000 1.000000 4.000000 1.000000 -60.708740 114.000000 141.000000 -0.590407 0.712107 0.379900
15.03999996 15.68000031 -0.52999997 127 150 117 97.000000 1.000000 4.000000 1.000000 -60.708740 114.000000 141.000000 -0.439915 0.509115 0.739782
15.06000042 15.68999958 -0.54000002 127 150 117 97.000000 1.000000 4.000000 1.000000 -60.708740 114.000000 141.000000 0.656933 -0.509081 -0.556125
15.07999992 15.71000004 -0.66000003 127 150 117 97.000000 1.000000 4.000000 1.000000 -60.708740 114.000000 141.000000 0.104304 0.930608 0.350841
15.06999969 15.68999958 -0.69000000 127 150 117 97.000000 1.000000 4.000000 1.000000 -60.708740 114.000000 141.000000 -0.148285 0.988939 0.003345
15.05000019 15.73999977 -0.67000002 127 150 117 97.000000 1.000000 4.000000 1.000000 -60.708740 114.000000 141.000000 -0.051906 0.988523 0.141877
15.09000015 15.57999992 -0.66000003 127 150 117 97.000000 1.000000 4.000000 1.000000 -60.708740 114.000000 141.000000 -0.212901 0.908086 0.360628
15.17000008 15.52999973 -0.66000003 127 150 117 97.000000 1.000000 4.000000 1.000000 -60.708740 114.000000 141.000000 -0.085526 0.778432 0.621876
15.14999962 15.56000042 -0.61000001 127 150 117 97.000000 1.000000 4.000000 1.000000 -60.708740 114.000000 141.000000 -0.189093 0.856130 0.480922
15.13000011 15.53999996 -0.61000001 127 150 117 97.000000 1.000000 4.000000 1.000000 -60.708740 114.000000 141.000000 -0.694183 0.486764 0.530255
15.14000034 15.53999996 -0.69000000 127 150 117 97.000000 1.000000 4.000000 1.000000 -60.708740 114.000000 141.000000 0.051158 0.981518 0.184406
15.14999962 15.52000046 -0.62000000 127 150 117 97.000000 1.000000 4.000000 1.000000 -60.708740 114.000000 141.000000 0.139417 -0.631126 -0.763048
15.13000011 15.52999973 -0.61000001 127 150 117 97.000000 1.000000 4.000000 1.000000 -60.708740 114.000000 141.000000 -0.520965 0.467703 0.714038
15.14000034 15.52000046 -0.62000000 127 150 117 97.000000 1.000000 4.000000 1.000000 -60.708740 114.000000 141.000000 0.252485 -0.581814 -0.773139
15.14999962 15.51000023 -0.66000003 127 150 117 97.000000 1.000000 4.000000 1.000000 -60.708740 114.000000 141.000000 -0.044201 0.906797 0.419243
15.14999962 15.51000023 -0.64999998 127 150 117 97.000000 1.000000 4.000000 1.000000 -60.708740 114.000000 141.000000 -0.183859 0.896132 0.403911
15.09000015 15.56999969 -0.66000003 127 150 117 97.000000 1.000000 4.000000 1.000000 -60.708740 114.000000 141.000000 -0.283517 0.565449 0.774523
15.68000031 15.43999958 -0.85000002 127 150 117 97.000000 1.000000 4.000000 1.000000 -60.708740 114.000000 139.000000 0.735535 0.092125 -0.671194
15.67000008 15.43000031 -0.81999999 127 150 117 97.000000 1.000000 4.000000 1.000000 -60.708740 114.000000 139.000000 0.649624 -0.279322 -0.707084
15.67000008 15.42000008 -0.83999997 127 150 117 97.000000 1.000000 4.000000 1.000000 -60.708740 114.000000 139.000000 -0.280472 0.401757 0.871738
15.64999962 15.42000008 -0.83999997 127 150 117 97.000000 1.000000 4.000000 1.000000 -60.708740 114.000000 139.000000 -0.376078 0.288478 0.880537
15.67000008 15.50000000 -0.91000003 127 150 117 97.000000 1.000000 4.000000 1.000000 -60.708740 114.000000 139.000000 -0.454123 0.079159 0.887415
15.61999989 15.53999996 -0.94000000 127 150 117 97.000000 1.000000 4.000000 1.000000 -60.708740 114.000000 139.000000 -0.081231 -0.097249 0.991940
15.65999985 15.52000046 -0.94999999 127 150 117 97.000000 1.000000 4.000000 1.000000 -60.708740 114.000000 139.000000 -0.278008 -0.258049 0.925269
15.61999989 15.52000046 -0.94999999 127 150 117 97.000000 1.000000 4.000000 1.000000 -60.708740 114.000000 139.000000 -0.178076 -0.299554 0.937313
15.61999989 15.51000023 -0.94999999 127 150 117 97.000000 1.000000 4.000000 1.000000 -60.708740 114.000000 139.000000 -0.238141 -0.462630 0.853969
15.61999989 15.47000027 -0.94000000 127 150 117 97.000000 1.000000 4.000000 1.000000 -60.708740 114.000000 139.000000 -0.044548 -0.072798 0.996351
15.63000011 15.42000008 -0.92000002 127 150 117 97.000000 1.000000 4.000000 1.000000 -60.708740 114.000000 139.000000 -0.395132 -0.300544 0.868069
15.64999962 15.43999958 -0.91000003 127 150 117 97.000000 1.000000 4.000000 1.000000 -60.708740 114.000000 139.000000 -0.656562 -0.043960 0.752990
15.59000015 15.56999969 -0.92000002 127 150 117 97.000000 1.000000 4.000000 1.000000 -60.708740 114.000000 139.000000 -0.018137 -0.645961 0.763155
15.60999966 15.52000046 -0.94000000 127 150 117 97.000000 1.000000 4.000000 1.000000 -60.708740 114.000000 139.000000 -0.213517 -0.443458 0.870492
15.60999966 15.52000046 -0.94000000 127 150 117 97.000000 1.000000 4.000000 1.000000 -60.708740 114.000000 139.000000 -0.213517 -0.443458 0.870492
15.55000019 15.55000019 -0.94000000 127 150 117 97.000000 1.000000 4.000000 1.000000 -60.708740 114.000000 139.000000 -0.319467 -0.208719 0.924325
15.53999996 15.55000019 -0.94000000 127 150 117 97.000000 1.000000 4.000000 1.000000 -60.708740 114.000000 139.000000 -0.502777 -0.148048 0.851643
15.56999969 15.52000046 -0.94999999 127 150 117 97.000000 1.000000 4.000000 1.000000 -60.708740 114.000000 139.000000 -0.056352 -0.193037 0.979572
15.56000042 15.48999977 -0.94999999 127 150 117 97.000000 1.000000 4.000000 1.000000 -60.708740 114.000000 139.000000 -0.492426 -0.017538 0.870178
15.55000019 15.48999977 -0.94999999 127 150 117 97.000000 1.000000 4.000000 1.000000 -60.708740 114.000000 139.000000 -0.186778 -0.321595 0.928273
15.56000042 15.48999977 -0.94999999 127 150 117 97.000000 1.000000 4.000000 1.000000 -60.708740 114.000000 139.000000 -0.492426 -0.017538 0.870178
15.60000038 15.43000031 -0.93000001 127 150 117 97.000000 1.000000 4.000000 1.000000 -60.708740 114.000000 139.000000 -0.231485 -0.293972 0.927359
15.60000038 15.44999981 -0.91000003 127 150 117 97.000000 1.000000 4.000000 1.000000 -60.708740 114.000000 139.000000 -0.448043 -0.471019 0.759867
15.57999992 15.47999954 -0.94000000 127 150 117 97.000000 1.000000 4.000000 1.000000 -60.708740 114.000000 139.000000 -0.481921 -0.068052 0.873568
15.53999996 15.47000027 -0.94999999 127 150 117 97.000000 1.000000 4.000000 1.000000 -60.708740 114.000000 139.000000 0.028120 -0.040618 0.998779
15.48999977 15.59000015 -0.82999998 127 150 117 97.000000 1.000000 4.000000 1.000000 -60.708740 114.000000 139.000000 0.108873 -0.553077 0.825986
15.47000027 15.57999992 -0.85000002 127 150 117 97.000000 1.000000 4.000000 1.000000 -60.708740 114.000000 139.000000 -0.247419 -0.487154 0.837535
15.47000027 15.60999966 -0.81999999 127 150 117 97.000000 1.000000 4.000000 1.000000 -60.708740 114.000000 139.000000 0.480671 0.773962 -0.412236
15.46000004 15.59000015 -0.85000002 127 150 117 97.000000 1.000000 4.000000 1.000000 -60.708740 114.000000 139.000000 -0.503875 -0.428376 0.750069
15.42000008 15.72000027 -0.77999997 127 150 117 97.000000 1.000000 4.000000 1.000000 -60.708740 114.000000 139.000000 -0.183541 0.879526 -0.439029
15.52000046 15.67000008 -0.91000003 127 150 117 97.000000 1.000000 4.000000 1.000000 -60.708740 114.000000 139.000000 -0.213673 -0.373564 0.902659
15.46000004 15.69999981 -0.88000000 127 150 117 97.000000 1.000000 4.000000 1.000000 -60.708740 114.000000 139.000000 0.384942 0.645976 -0.659193
15.44999981 15.68000031 -0.95999998 127 150 117 97.000000 1.000000 4.000000 1.000000 -60.708740 114.000000 139.000000 -0.505118 -0.429433 0.748628
15.44999981 15.65999985 -0.94999999 127 150 117 97.000000 1.000000 4.000000 1.000000 -60.708740 114.000000 139.000000 0.141641 0.891337 -0.430646
15.51000023 15.63000011 -0.92000002 127 150 117 97.000000 1.000000 4.000000 1.000000 -60.708740 114.000000 139.000000 0.129021 -0.606548 0.784508
15.52000046 15.61999989 -0.94000000 127 150 117 97.000000 1.000000 4.000000 1.000000 -60.708740 114.000000 139.000000 -0.123509 -0.438671 0.890120
15.47999954 15.64000034 -0.94000000 127 150 117 97.000000 1.000000 4.000000 1.000000 -60.708740 114.000000 139.000000 0.609322 0.511425 -0.605946
15.47000027 15.64000034 -0.94999999 127 150 117 97.000000 1.000000 4.000000 1.000000 -60.708740 114.000000 139.000000 -0.281302 -0.580085 0.764441
15.47999954 15.64999962 -1.00000000 127 150 117 97.000000 1.000000 4.000000 1.000000 -60.708740 114.000000 139.000000 0.590189 0.325008 -0.738949
15.43000031 15.68000031 -0.89999998 127 150 117 97.000000 1.000000 4.000000 1.000000 -60.708740 114.000000 139.000000 0.460538 0.758822 -0.460538
15.43999958 15.57999992 -0.95999998 127 150 117 97.000000 1.000000 4.000000 1.000000 -60.708740 114.000000 139.000000 -0.440002 -0.139023 0.887170
15.38000011 15.61999989 -0.99000001 127 150 117 97.000000 1.000000 4.000000 1.000000 -60.708740 114.000000 139.000000 -0.179598 -0.676945 0.713786
15.43000031 15.57999992 -0.95999998 127 150 117 97.000000 1.000000 4.000000 1.000000 -60.708740 114.000000 139.000000 -0.134269 -0.176934 0.975021
15.44999981 15.55000019 -0.94000000 127 150 117 97.000000 1.000000 4.000000 1.000000 -60.708740 114.000000 139.000000 -0.280549 -0.143630 0.949033
15.47000027 15.53999996 -0.94000000 127 150 117 97.000000 1.000000 4.000000 1.000000 -60.708740 114.000000 139.000000 -0.416211 -0.299488 0.858531
15.51000023 15.52000046 -0.94000000 127 150 117 97.000000 1.000000 4.000000 1.000000 -60.708740 114.000000 139.000000 -0.194353 -0.114104 0.974273
15.47000027 15.56999969 -0.94000000 127 150 117 97.000000 1.000000 4.000000 1.000000 -60.708740 114.000000 139.000000 -0.193488 -0.499469 0.844448
15.51000023 15.52000046 -0.94000000 127 150 117 97.000000 1.000000 4.000000 1.000000 -60.708740 114.000000 139.000000 -0.194353 -0.114104 0.974273
15.48999977 15.50000000 -0.94999999 127 150 117 97.000000 1.000000 4.000000 1.000000 -60.708740 114.000000 139.000000 -0.046388 -0.009278 0.998880
15.51000023 15.50000000 -0.94999999 127 150 117 97.000000 1.000000 4.000000 1.000000 -60.708740 114.000000 139.000000 -0.082760 -0.386665 0.918499
15.48999977 15.50000000 -0.94999999 127 150 117 97.000000 1.000000 4.000000 1.000000 -60.708740 114.000000 139.000000 -0.046388 -0.009278 0.998880
15.50000000 15.52000046 -0.94999999 127 150 117 97.000000 1.000000 4.000000 1.000000 -60.708740 114.000000 139.000000 -0.330556 0.021530 0.943541
15.44999981 15.53999996 -0.95999998 127 150 117 97.000000 1.000000 4.000000 1.000000 -60.708740 114.000000 139.000000 -0.482826 -0.195821 0.853541
15.47999954 15.56000042 -0.97000003 127 150 117 97.000000 1.000000 4.000000 1.000000 -60.708740 114.000000 139.000000 -0.216457 -0.143873 0.965633
15.47999954 15.52999973 -0.94999999 127 150 117 97.000000 1.000000 4.000000 1.000000 -60.708740 114.000000 139.000000 -0.149955 -0.550824 0.821040
15.46000004 15.52999973 -0.94999999 127 150 117 97.000000 1.000000 4.000000 1.000000 -60.708740 114.000000 139.000000 -0.491285 -0.279174 0.825046
15.46000004 15.52000046 -0.98000002 127 150 117 97.000000 1.000000 4.000000 1.000000 -60.708740 114.000000 139.000000 -0.311788 0.001232 0.950151
15.47000027 15.50000000 -0.95999998 127 150 117 97.000000 1.000000 4.000000 1.000000 -60.708740 114.000000 139.000000 -0.188532 0.012723 0.981985
15.46000004 15.42000008 -0.94000000 127 150 117 97.000000 1.000000 4.000000 1.000000 -60.708740 114.000000 139.000000 -0.540095 -0.261437 0.799967
15.46000004 15.42000008 -0.94000000 127 150 117 97.000000 1.000000 4.000000 1.000000 -60.708740 114.000000 139.000000 -0.540095 -0.261437 0.799967
15.51000023 15.44999981 -0.94999999 127 150 117 97.000000 1.000000 4.000000 1.000000 -60.708740 114.000000 139.000000 -0.194515 0.081965 0.977469
15.46000004 15.44999981 -0.94999999 127 150 117 97.000000 1.000000 4.000000 1.000000 -60.708740 114.000000 139.000000 -0.082232 0.112345 0.990261
15.46000004 15.47000027 -0.95999998 127 150 117 97.000000 1.000000 4.000000 1.000000 -60.708740 114.000000 139.000000 -0.295768 -0.447523 0.843946
15.44999981 15.43000031 -0.98000002 127 150 117 97.000000 1.000000 4.000000 1.000000 -60.708740 114.000000 139.000000 -0.605328 -0.215193 0.766336
15.44999981 15.42000008 -0.99000001 127 150 117 97.000000 1.000000 4.000000 1.000000 -60.708740 114.000000 139.000000 -0.321231 0.336312 0.885271
15.44999981 15.42000008 -0.99000001 127 150 117 97.000000 1.000000 4.000000 1.000000 -60.708740 114.000000 139.000000 -0.321231 0.336312 0.885271
15.43999958 15.55000019 -0.97000003 127 150 117 97.000000 1.000000 4.000000 1.000000 -60.708740 114.000000 139.000000 -0.334885 -0.222778 0.915545
15.43000031 15.50000000 -0.98000002 127 150 117 97.000000 1.000000 4.000000 1.000000 -60.708740 114.000000 139.000000 -0.328801 -0.209237 0.920929
15.43999958 15.50000000 -0.97000003 127 150 117 97.000000 1.000000 4.000000 1.000000 -60.708740 114.000000 139.000000 -0.475818 -0.134502 0.869199
15.39000034 15.48999977 -0.97000003 127 150 117 97.000000 1.000000 4.000000 1.000000 -60.708740 114.000000 139.000000 -0.275148 -0.621865 0.733197
15.38000011 15.52999973 -0.98000002 127 150 117 97.000000 1.000000 4.000000 1.000000 -60.708740 114.000000 139.000000 -0.555457 -0.160199 0.815968
15.39999962 15.48999977 -0.97000003 127 150 117 97.000000 1.000000 4.000000 1.000000 -60.708740 114.000000 139.000000 -0.068412 -0.237575 0.968957
15.39000034 15.48999977 -0.98000002 127 150 117 97.000000 1.000000 4.000000 1.000000 -60.708740 114.000000 139.000000 0.698348 0.268840 -0.663351
15.39000034 15.52000046 -0.97000003 127 150 117 97.000000 1.000000 4.000000 1.000000 -60.708740 114.000000 139.000000 -0.258559 -0.645603 0.718571
15.38000011 15.52999973 -1.00000000 127 150 117 97.000000 1.000000 4.000000 1.000000 -60.708740 114.000000 139.000000 0.540638 0.544006 -0.641692
15.40999985 15.44999981 -0.97000003 127 150 117 97.000000 1.000000 4.000000 1.000000 -60.708740 114.000000 139.000000 -0.158703 -0.407481 0.899318
15.42000008 15.47000027 -0.95999998 127 150 117 97.000000 1.000000 4.000000 1.000000 -60.708740 114.000000 139.000000 -0.448899 -0.161255 0.878912
15.42000008 15.44999981 -0.99000001 127 150 117 97.000000 1.000000 4.000000 1.000000 -60.708740 114.000000 139.000000 -0.614827 -0.311448 0.724560
15.40999985 15.47000027 -0.99000001 127 150 117 97.000000 1.000000 4.000000 1.000000 -60.708740 114.000000 139.000000 -0.391975 -0.439972 0.807948
15.42000008 15.42000008 -1.01999998 127 150 117 97.000000 1.000000 4.000000 1.000000 -60.708740 114.000000 139.000000 -0.149154 0.131896 0.979978
15.40999985 15.43000031 -1.00999999 127 150 117 97.000000 1.000000 4.000000 1.000000 -60.708740 114.000000 139.000000 -0.511302 -0.194566 0.837087
15.40999985 15.43000031 -1.00999999 127 150 117 97.000000 1.000000 4.000000 1.000000 -60.708740 114.000000 139.000000 -0.511302 -0.194566 0.837087
15.39999962 15.47000027 -1.00000000 127 150 117 97.000000 1.000000 4.000000 1.000000 -60.708740 114.000000 139.000000 -0.487519 -0.507486 0.710481
15.39999962 15.43999958 -0.97000003 127 150 117 97.000000 1.000000 4.000000 1.000000 -60.708740 114.000000 139.000000 -0.413213 0.207342 0.886716
15.39999962 15.43000031 -1.00999999 127 150 117 97.000000 1.000000 4.000000 1.000000 -60.708740 114.000000 139.000000 -0.257789 0.110111 0.959907
15.39000034 15.40999985 -1.01999998 127 150 117 97.000000 1.000000 4.000000 1.000000 -60.708740 114.000000 139.000000 -0.318428 0.300656 0.899005
15.36999989 15.42000008 -1.00999999 127 150 117 97.000000 1.000000 4.000000 1.000000 -60.708740 114.000000 139.000000 -0.445968 -0.055917 0.893300
15.39999962 15.43999958 -1.00000000 127 150 117 97.000000 1.000000 4.000000 1.000000 -60.708740 114.000000 139.000000 0.416690 0.528685 -0.739501
15.67000008 15.44999981 -1.05999994 127 150 117 97.000000 1.000000 4.000000 1.000000 -60.708740 114.000000 139.000000 -0.491608 0.094922 0.865628
15.64999962 15.42000008 -1.03999996 127 150 117 97.000000 1.000000 4.000000 1.000000 -60.708740 114.000000 139.000000 -0.236586 0.175101 0.955702
15.38000011 15.43000031 -1.02999997 127 150 117 97.000000 1.000000 4.000000 1.000000 -60.708740 114.000000 139.000000 -0.526128 -0.423871 0.737239
15.38000011 15.43000031 -1.03999996 127 150 117 97.000000 1.000000 4.000000 1.000000 -60.708740 114.000000 139.000000 -0.506938 -0.322597 0.799341
15.43000031 15.42000008 -1.02999997 127 150 117 97.000000 1.000000 4.000000 1.000000 -60.708740 114.000000 139.000000 -0.611277 0.064420 0.788791
15.36999989 15.42000008 -1.04999995 127 150 117 97.000000 1.000000 4.000000 1.000000 -60.708740 114.000000 139.000000 -0.593544 -0.299172 0.747129
15.38000011 15.43999958 -1.02999997 127 150 117 97.000000 1.000000 4.000000 1.000000 -60.708740 114.000000 139.000000 -0.670198 -0.041090 0.741044
15.36999989 15.46000004 -1.02999997 127 150 117 97.000000 1.000000 4.000000 1.000000 -60.708740 114.000000 139.000000 -0.623066 -0.253959 0.739793
15.36999989 15.46000004 -1.02999997 127 150 117 97.000000 1.000000 4.000000 1.000000 -60.708740 114.000000 139.000000 -0.623066 -0.253959 0.739793
15.40999985 15.43000031 -1.03999996 127 150 117 97.000000 1.000000 4.000000 1.000000 -60.708740 114.000000 139.000000 -0.375166 -0.451796 0.809401
15.68000031 15.39999962 -0.82999998 127 150 117 97.000000 1.000000 4.000000 1.000000 -60.708740 114.000000 139.000000 -0.238933 0.087230 0.967110
15.64999962 15.36999989 -0.82999998 127 150 117 97.000000 1.000000 4.000000 1.000000 -60.708740 114.000000 139.000000 -0.621733 0.158837 0.766955
15.64000034 15.35999966 -0.82999998 127 150 117 97.000000 1.000000 4.000000 1.000000 -60.708740 114.000000 139.000000 -0.120468 0.281974 0.951829
15.60999966 15.32999992 -0.81000000 127 150 117 97.000000 1.000000 4.000000 1.000000 -60.708740 114.000000 139.000000 -0.107275 0.215812 0.970524
15.60000038 15.36999989 -0.85000002 127 150 117 97.000000 1.000000 4.000000 1.000000 -60.708740 114.000000 139.000000 -0.411101 0.156132 0.898120
15.60000038 15.30000019 -0.80000001 127 150 117 97.000000 1.000000 4.000000 1.000000 -60.708740 114.000000 139.000000 -0.160446 0.303065 0.939366
15.57999992 15.30000019 -0.81999999 127 150 117 97.000000 1.000000 4.000000 1.000000 -60.708740 114.000000 139.000000 0.031691 0.538744 0.841873
15.57999992 15.25000000 -0.79000002 127 150 117 97.000000 1.000000 4.000000 1.000000 -60.708740 114.000000 139.000000 0.158189 -0.787934 -0.595093
15.60999966 15.27000046 -0.79000002 127 150 117 97.000000 1.000000 4.000000 1.000000 -60.708740 114.000000 139.000000 0.001344 0.525521 0.850780
15.60999966 15.27000046 -0.80000001 127 150 117 97.000000 1.000000 4.000000 1.000000 -60.708740 114.000000 139.000000 -0.107448 0.625556 0.772745
15.59000015 15.25000000 -0.79000002 127 150 117 97.000000 1.000000 4.000000 1.000000 -60.708740 114.000000 139.000000 -0.235897 0.760808 0.604585
15.60999966 15.26000023 -0.79000002 127 150 117 97.000000 1.000000 4.000000 1.000000 -60.708740 114.000000 139.000000 -0.150026 0.470470 0.869569
15.59000015 15.25000000 -0.79000002 127 150 117 97.000000 1.000000 4.000000 1.000000 -60.708740 114.000000 139.000000 -0.235897 0.760808 0.604585
15.59000015 15.26000023 -0.80000001 127 150 117 97.000000 1.000000 4.000000 1.000000 -60.708740 114.000000 139.000000 -0.201678 0.470582 0.858999
15.59000015 15.39000034 -0.98000002 127 150 117 97.000000 1.000000 4.000000 1.000000 -60.708740 114.000000 139.000000 -0.283716 0.232902 0.930194
15.55000019 15.35999966 -1.01999998 127 150 117 97.000000 1.000000 4.000000 1.000000 -60.708740 114.000000 139.000000 -0.509457 -0.060018 0.858400
15.52999973 15.18000031 -0.75000000 127 150 117 97.000000 1.000000 4.000000 1.000000 -60.708740 114.000000 139.000000 0.009398 0.868618 0.495394
15.53999996 15.21000004 -0.76999998 127 150 117 97.000000 1.000000 4.000000 1.000000 -60.708740 114.000000 139.000000 -0.060057 0.919544 0.388371
15.59000015 15.21000004 -0.81999999 127 150 117 97.000000 1.000000 4.000000 1.000000 -60.708740 114.000000 139.000000 -0.297613 0.771883 0.561804
15.57999992 15.15999985 -0.77999997 127 150 117 97.000000 1.000000 4.000000 1.000000 -60.708740 114.000000 139.000000 -0.143077 0.736470 0.661166
15.53999996 15.22000027 -0.80000001 127 150 117 97.000000 1.000000 4.000000 1.000000 -60.708740 114.000000 139.000000 -0.046818 0.642686 0.764697
15.56000042 15.18000031 -0.79000002 127 150 117 97.000000 1.000000 4.000000 1.000000 -60.708740 114.000000 139.000000 -0.287593 0.806202 0.517038
15.53999996 15.09000015 -0.75999999 127 150 117 97.000000 1.000000 4.000000 1.000000 -60.708740 114.000000 139.000000 -0.012676 0.982988 0.183230
15.53999996 15.14999962 -0.75999999 127 150 117 97.000000 1.000000 4.000000 1.000000 -60.708740 114.000000 139.000000 0.009723 0.751422 0.659751
15.52999973 15.06999969 -0.77999997 127 150 117 97.000000 1.000000 4.000000 1.000000 -60.708740 114.000000 139.000000 -0.488616 0.870042 0.065427
15.52000046 15.35000038 -0.98000002 127 150 117 97.000000 1.000000 4.000000 1.000000 -60.708740 114.000000 139.000000 -0.092355 0.234050 0.967828
15.46000004 15.38000011 -1.00999999 127 150 117 97.000000 1.000000 4.000000 1.000000 -60.708740 114.000000 139.000000 -0.666146 -0.058735 0.743505
15.46000004 15.35999966 -0.97000003 127 150 117 97.000000 1.000000 4.000000 1.000000 -60.708740 114.000000 139.000000 -0.215353 0.468355 0.856894
15.47000027 15.32999992 -1.00999999 127 150 117 97.000000 1.000000 4.000000 1.000000 -60.708740 114.000000 139.000000 -0.592854 0.109788 0.797791
15.44999981 15.28999996 -1.00000000 127 150 117 97.000000 1.000000 4.000000 1.000000 -60.708740 114.000000 139.000000 -0.441464 0.233539 0.866354
15.44999981 15.27999973 -1.00000000 127 150 117 97.000000 1.000000 4.000000 1.000000 -60.708740 114.000000 139.000000 -0.317196 0.356656 0.878740
15.43000031 15.39000034 -1.00000000 127 150 117 97.000000 1.000000 4.000000 1.000000 -60.708740 114.000000 139.000000 -0.288833 -0.351688 0.890444
15.42000008 15.38000011 -1.01999998 127 150 117 97.000000 1.000000 4.000000 1.000000 -60.708740 114.000000 139.000000 -0.162432 0.085427 0.983015
15.42000008 15.35000038 -0.98000002 127 150 117 97.000000 1.000000 4.000000 1.000000 -60.708740 114.000000 139.000000 0.001160 0.207706 0.978191
15.43999958 15.32999992 -0.99000001 127 150 117 97.000000 1.000000 4.000000 1.000000 -60.708740 114.000000 139.000000 -0.149594 0.012372 0.988670
15.42000008 15.35000038 -1.00999999 127 150 117 97.000000 1.000000 4.000000 1.000000 -60.708740 114.000000 139.000000 -0.418405 -0.224837 0.879992
15.43999958 15.35999966 -0.99000001 127 150 117 97.000000 1.000000 4.000000 1.000000 -60.708740 114.000000 139.000000 -0.121641 0.303434 0.945056
15.42000008 15.34000015 -1.01999998 127 150 117 97.000000 1.000000 4.000000 1.000000 -60.708740 114.000000 139.000000 -0.170578 -0.147834 0.974191
15.39000034 15.39999962 -1.00999999 127 150 117 97.000000 1.000000 4.000000 1.000000 -60.708740 114.000000 139.000000 -0.083535 0.061259 0.994620
15.39999962 15.38000011 -1.00999999 127 150 117 97.000000 1.000000 4.000000 1.000000 -60.708740 114.000000 139.000000 -0.088410 0.215422 0.972511
15.38000011 15.39999962 -1.01999998 127 150 117 97.000000 1.000000 4.000000 1.000000 -60.708740 114.000000 139.000000 -0.496145 -0.241160 0.834076
15.39000034 15.39000034 -1.00999999 127 150 117 97.000000 1.000000 4.000000 1.000000 -60.708740 114.000000 139.000000 -0.299510 0.101596 0.948669
15.39999962 15.39000034 -1.01999998 127 150 117 97.000000 1.000000 4.000000 1.000000 -60.708740 114.000000 139.000000 -0.240571 0.224075 0.944413
15.36999989 15.32999992 -1.00999999 127 150 117 97.000000 1.000000 4.000000 1.000000 -60.708740 114.000000 139.000000 -0.380711 -0.076680 0.921509
15.38000011 15.32999992 -1.00000000 127 150 117 97.000000 1.000000 4.000000 1.000000 -60.708740 114.000000 139.000000 -0.525790 -0.145807 0.838024
15.39000034 15.32999992 -1.00000000 127 150 117 97.000000 1.000000 4.000000 1.000000 -60.708740 114.000000 139.000000 -0.612635 0.107248 0.783056
15.42000008 15.31000042 -1.00000000 127 150 117 97.000000 1.000000 4.000000 1.000000 -60.708740 114.000000 139.000000 -0.171195 -0.005669 0.985221
15.36999989 15.31999969 -1.00999999 127 150 117 97.000000 1.000000 4.000000 1.000000 -60.708740 114.000000 139.000000 -0.191189 0.015063 0.981438
15.39999962 15.28999996 -1.00999999 127 150 117 97.000000 1.000000 4.000000 1.000000 -60.708740 114.000000 139.000000 -0.128021 0.470370 0.873134
15.39000034 15.31999969 -1.00000000 127 150 117 97.000000 1.000000 4.000000 1.000000 -60.708740 114.000000 139.000000 -0.611565 -0.091517 0.785883
15.36999989 15.31999969 -1.00999999 127 150 117 97.000000 1.000000 4.000000 1.000000 -60.708740 114.000000 139.000000 -0.191189 0.015063 0.981438
15.38000011 15.27999973 -0.99000001 127 150 117 97.000000 1.000000 4.000000 1.000000 -60.708740 114.000000 139.000000 -0.329489 0.611907 0.719032
15.39000034 15.31999969 -1.00000000 127 150 117 97.000000 1.000000 4.000000 1.000000 -60.708740 114.000000 139.000000 -0.611565 -0.091517 0.785883
15.36999989 15.31999969 -1.00999999 127 150 117 97.000000 1.000000 4.000000 1.000000 -60.708740 114.000000 139.000000 -0.191189 0.015063 0.981438
15.38000011 15.30000019 -1.00999999 127 150 117 97.000000 1.000000 4.000000 1.000000 -60.708740 114.000000 139.000000 -0.076154 0.290419 0.953865
15.36999989 15.27000046 -1.00000000 127 150 117 97.000000 1.000000 4.000000 1.000000 -60.708740 114.000000 139.000000 -0.114063 0.518339 0.847534
15.39999962 15.26000023 -0.99000001 127 150 117 97.000000 1.000000 4.000000 1.000000 -60.708740 114.000000 139.000000 -0.116471 0.309252 0.943821
15.39999962 15.26000023 -0.99000001 127 150 117 97.000000 1.000000 4.000000 1.000000 -60.708740 114.000000 139.000000 -0.116471 0.309252 0.943821
15.50000000 15.17000008 -0.75000000 127 150 117 97.000000 1.000000 4.000000 1.000000 -60.708740 114.000000 139.000000 -0.609304 0.716541 0.339585
15.43000031 15.14000034 -0.75000000 127 150 117 97.000000 1.000000 4.000000 1.000000 -60.708740 114.000000 139.000000 0.147864 0.968187 0.201866
15.61999989 15.39000034 -1.13000000 127 150 117 97.000000 1.000000 4.000000 1.000000 -60.708740 114.000000 139.000000 0.734414 -0.018185 -0.678458
15.63000011 15.36999989 -1.13000000 127 150 117 97.000000 1.000000 4.000000 1.000000 -60.708740 114.000000 139.000000 -0.484837 0.422804 0.765618
15.56000042 15.35000038 -1.04999995 127 150 117 97.000000 1.000000 4.000000 1.000000 -60.708740 114.000000 139.000000 -0.668729 0.004154 0.743494
15.60999966 15.38000011 -1.13999999 127 150 117 97.000000 1.000000 4.000000 1.000000 -60.708740 114.000000 139.000000 -0.132901 0.106560 0.985384
15.34000015 15.69999981 -1.00000000 127 150 117 97.000000 1.000000 4.000000 1.000000 -60.708740 114.000000 139.000000 0.129284 0.916110 -0.379511
15.35999966 15.68999958 -0.94999999 127 150 117 97.000000 1.000000 4.000000 1.000000 -60.708740 114.000000 139.000000 0.256042 0.905657 -0.337976
15.28999996 15.72999954 -0.95999998 127 150 117 97.000000 1.000000 4.000000 1.000000 -60.708740 114.000000 139.000000 0.422765 0.856292 -0.296704
15.28999996 15.72999954 -0.99000001 127 150 117 97.000000 1.000000 4.000000 1.000000 -60.708740 114.000000 139.000000 -0.205586 -0.537569 0.817774
15.32999992 15.63000011 -0.98000002 127 150 117 97.000000 1.000000 4.000000 1.000000 -60.708740 114.000000 139.000000 0.536965 0.523499 -0.661527
15.26000023 15.72999954 -1.00999999 127 150 117 97.000000 1.000000 4.000000 1.000000 -60.708740 114.000000 139.000000 0.487858 0.732614 -0.474628
15.35999966 15.51000023 -0.95999998 127 150 117 97.000000 1.000000 4.000000 1.000000 -60.708740 114.000000 139.000000 -0.356876 -0.279229 0.891443
15.35000038 15.52000046 -0.99000001 127 150 117 97.000000 1.000000 4.000000 1.000000 -60.708740 114.000000 139.000000 0.412821 0.674771 -0.611770
15.35999966 15.44999981 -0.99000001 127 150 117 97.000000 1.000000 4.000000 1.000000 -60.708740 114.000000 139.000000 -0.571429 -0.157480 0.805400
15.14999962 15.73999977 -0.72000003 127 150 117 97.000000 1.000000 4.000000 1.000000 -60.708740 114.000000 141.000000 0.106875 0.994258 -0.005398
15.14999962 15.65999985 -0.75999999 127 150 117 97.000000 1.000000 4.000000 1.000000 -60.708740 114.000000 141.000000 -0.066371 0.997670 0.015803
15.13000011 15.68999958 -0.82999998 127 150 117 97.000000 1.000000 4.000000 1.000000 -60.708740 114.000000 141.000000 -0.418536 0.907492 0.035874
15.11999989 15.68999958 -0.85000002 127 150 117 97.000000 1.000000 4.000000 1.000000 -60.708740 114.000000 141.000000 -0.145154 0.927600 -0.344221
15.11999989 15.61999989 -0.70999998 127 150 117 97.000000 1.000000 4.000000 1.000000 -60.708740 114.000000 141.000000 -0.097028 0.812430 0.574928
15.14999962 15.59000015 -0.75000000 127 150 117 97.000000 1.000000 4.000000 1.000000 -60.708740 114.000000 141.000000 -0.438721 0.866889 0.236699
15.11999989 15.64000034 -0.81999999 127 150 117 97.000000 1.000000 4.000000 1.000000 -60.708740 114.000000 141.000000 0.146180 0.972415 -0.181772
15.14000034 15.64999962 -0.82999998 127 150 117 97.000000 1.000000 4.000000 1.000000 -60.708740 114.000000 141.000000 -0.124807 0.966293 0.225168
15.13000011 15.64000034 -0.83999997 127 150 117 97.000000 1.000000 4.000000 1.000000 -60.708740 114.000000 141.000000 0.106922 0.972362 -0.207555
15.10999966 15.64000034 -0.83999997 127 150 117 97.000000 1.000000 4.000000 1.000000 -60.708740 114.000000 141.000000 0.268309 0.957875 0.102398
15.07999992 15.71000004 -0.81000000 127 150 117 97.000000 1.000000 4.000000 1.000000 -60.708740 114.000000 141.000000 -0.217982 0.932399 -0.288298
15.09000015 15.71000004 -0.81999999 127 150 117 97.000000 1.000000 4.000000 1.000000 -60.708740 114.000000 141.000000 -0.338631 0.940919 0.001250
15.07999992 15.72999954 -0.85000002 127 150 117 97.000000 1.000000 4.000000 1.000000 -60.708740 114.000000 141.000000 0.299093 0.903172 -0.307933
15.06999969 15.67000008 -0.79000002 127 150 117 97.000000 1.000000 4.000000 1.000000 -60.708740 114.000000 141.000000 0.113516 0.993536 0.001081
15.07999992 15.67000008 -0.79000002 127 150 117 97.000000 1.000000 4.000000 1.000000 -60.708740 114.000000 141.000000 0.225621 0.971045 0.078531
15.09000015 15.67000008 -0.85000002 127 150 117 97.000000 1.000000 4.000000 1.000000 -60.708740 114.000000 141.000000 -0.386280 0.868749 -0.309940
15.06000042 15.69999981 -0.81000000 127 150 117 97.000000 1.000000 4.000000 1.000000 -60.708740 114.000000 141.000000 -0.227876 0.953302 -0.198211
15.06000042 15.69999981 -0.79000002 127 150 117 97.000000 1.000000 4.000000 1.000000 -60.708740 114.000000 141.000000 -0.327408 0.944876 -0.003735
15.06000042 15.67000008 -0.80000001 127 150 117 97.000000 1.000000 4.000000 1.000000 -60.708740 114.000000 141.000000 -0.006978 0.999864 -0.014953
15.03999996 15.68999958 -0.83999997 127 150 117 97.000000 1.000000 4.000000 1.000000 -60.708740 114.000000 141.000000 -0.320201 0.932879 0.164952
15.07999992 15.63000011 -0.75000000 127 150 117 97.000000 1.000000 4.000000 1.000000 -60.708740 114.000000 141.000000 -0.149105 0.949704 0.275374
15.07999992 15.59000015 -0.69999999 127 150 117 97.000000 1.000000 4.000000 1.000000 -60.708740 114.000000 141.000000 0.133855 0.873654 0.467772
15.10000038 15.60999966 -0.70999998 127 150 117 97.000000 1.000000 4.000000 1.000000 -60.708740 114.000000 141.000000 -0.394793 0.838346 0.375919
15.03999996 15.59000015 -0.72000003 127 150 117 97.000000 1.000000 4.000000 1.000000 -60.708740 114.000000 141.000000 -0.571656 0.662182 0.484483
15.07999992 15.64000034 -0.77999997 127 150 117 97.000000 1.000000 4.000000 1.000000 -60.708740 114.000000 141.000000 0.090011 0.994570 -0.052229
15.07999992 15.61999989 -0.81000000 127 150 117 97.000000 1.000000 4.000000 1.000000 -60.708740 114.000000 141.000000 -0.123971 0.882047 -0.454560
