//X Y Z R G B PointSourceId ScanDirectionFlag NumberOfReturns ReturnNumber GpsTime Intensity Classification Nx Ny Nz
9.60000038 0.77999997 -0.18000001 35 137 169 97.000000 1.000000 4.000000 1.000000 -60.708740 114.000000 31.000000 0.835148 0.520281 0.178425
9.59000015 0.79000002 -0.18000001 35 137 169 97.000000 1.000000 4.000000 1.000000 -60.708740 114.000000 31.000000 0.737932 0.671763 -0.064731
9.60000038 0.73000002 -0.15000001 35 137 169 97.000000 1.000000 4.000000 1.000000 -60.708740 114.000000 31.000000 0.503424 0.523494 0.687400
9.64000034 0.70999998 -0.11000000 35 137 169 97.000000 1.000000 4.000000 1.000000 -60.708740 114.000000 31.000000 0.471029 0.608483 0.638655
9.61999989 0.69000000 -0.16000000 35 137 169 97.000000 1.000000 4.000000 1.000000 -60.708740 114.000000 31.000000 0.482343 0.844481 0.232803
9.52000046 0.77999997 -0.13000000 35 137 169 97.000000 1.000000 4.000000 1.000000 -60.708740 114.000000 31.000000 0.832979 0.174970 0.524911
9.52999973 0.75999999 -0.13000000 35 137 169 97.000000 1.000000 4.000000 1.000000 -60.708740 114.000000 31.000000 0.635942 0.722009 0.272546
9.56999969 0.75999999 -0.18000001 35 137 169 97.000000 1.000000 4.000000 1.000000 -60.708740 114.000000 31.000000 0.527188 0.560874 0.638352
9.64999962 0.76999998 -0.20000000 35 137 169 97.000000 1.000000 4.000000 1.000000 -60.708740 114.000000 31.000000 0.532563 0.773905 0.342706
9.64999962 0.76999998 -0.20999999 35 137 169 97.000000 1.000000 4.000000 1.000000 -60.708740 114.000000 31.000000 0.632033 0.690827 0.351130
9.64000034 0.77999997 -0.20999999 35 137 169 97.000000 1.000000 4.000000 1.000000 -60.708740 114.000000 31.000000 0.462834 0.690073 0.556403
9.64000034 0.80000001 -0.34000000 35 137 169 97.000000 1.000000 4.000000 1.000000 -60.708740 114.000000 31.000000 0.585824 0.780583 0.217945
9.64000034 0.80000001 -0.34000000 35 137 169 97.000000 1.000000 4.000000 1.000000 -60.708740 114.000000 31.000000 0.585824 0.780583 0.217945
9.64999962 0.74000001 -0.33000001 35 137 169 97.000000 1.000000 4.000000 1.000000 -60.708740 114.000000 31.000000 0.399593 0.784626 0.474011
9.64000034 0.73000002 -0.33000001 35 137 169 97.000000 1.000000 4.000000 1.000000 -60.708740 114.000000 31.000000 0.339534 0.539071 0.770791
9.59000015 0.75000000 -0.34999999 35 137 169 97.000000 1.000000 4.000000 1.000000 -60.708740 114.000000 31.000000 0.019902 0.895573 0.444469
9.60000038 0.68000001 -0.20000000 35 137 169 97.000000 1.000000 4.000000 1.000000 -60.708740 114.000000 31.000000 0.719283 0.632776 0.286752
9.63000011 0.69000000 -0.34999999 35 137 169 97.000000 1.000000 4.000000 1.000000 -60.708740 114.000000 31.000000 0.062049 0.930728 0.360410
9.64999962 0.63999999 -0.34999999 35 137 169 97.000000 1.000000 4.000000 1.000000 -60.708740 114.000000 31.000000 0.142238 0.768085 0.624350
9.64000034 0.63999999 -0.34000000 35 137 169 97.000000 1.000000 4.000000 1.000000 -60.708740 114.000000 31.000000 0.293606 0.701125 0.649784
9.55000019 0.77999997 -0.22000000 35 137 169 97.000000 1.000000 4.000000 1.000000 -60.708740 114.000000 31.000000 0.514258 0.832825 0.204793
9.52000046 0.76999998 -0.19000000 35 137 169 97.000000 1.000000 4.000000 1.000000 -60.708740 114.000000 31.000000 0.801669 0.581545 -0.138321
9.53999996 0.79000002 -0.23000000 35 137 169 97.000000 1.000000 4.000000 1.000000 -60.708740 114.000000 31.000000 0.610527 0.741240 0.278961
9.47999954 0.93000001 -0.17000000 35 137 169 97.000000 1.000000 4.000000 1.000000 -60.708740 114.000000 31.000000 0.998556 -0.049041 0.021912
9.47999954 0.95999998 -0.18000001 35 137 169 97.000000 1.000000 4.000000 1.000000 -60.708740 114.000000 31.000000 0.988754 0.071041 -0.131601
9.60999966 0.88000000 -0.41999999 35 137 169 97.000000 1.000000 4.000000 1.000000 -60.708740 114.000000 31.000000 0.529746 0.690173 0.492981
9.57999992 0.87000000 -0.49000001 35 137 169 97.000000 1.000000 4.000000 1.000000 -60.708740 114.000000 31.000000 0.459138 0.692881 0.555975
9.52000046 0.88999999 -0.41999999 35 137 169 97.000000 1.000000 4.000000 1.000000 -60.708740 114.000000 31.000000 0.471110 0.714156 0.517722
9.53999996 0.88999999 -0.44999999 35 137 169 97.000000 1.000000 4.000000 1.000000 -60.708740 114.000000 31.000000 0.824833 0.540408 0.166164
9.52999973 0.88999999 -0.44999999 35 137 169 97.000000 1.000000 4.000000 1.000000 -60.708740 114.000000 31.000000 0.757017 0.606554 0.242935
9.56000042 0.88999999 -0.47999999 35 137 169 97.000000 1.000000 4.000000 1.000000 -60.708740 114.000000 31.000000 0.704235 0.639774 0.307801
9.55000019 0.87000000 -0.44999999 35 137 169 97.000000 1.000000 4.000000 1.000000 -60.708740 114.000000 31.000000 0.689888 0.586820 0.423907
9.64000034 0.76999998 -0.41000000 35 137 169 97.000000 1.000000 4.000000 1.000000 -60.708740 114.000000 31.000000 0.218661 0.764538 0.606358
9.63000011 0.80000001 -0.41999999 35 137 169 97.000000 1.000000 4.000000 1.000000 -60.708740 114.000000 31.000000 0.429258 0.893934 0.128919
9.63000011 0.73000002 -0.38999999 35 137 169 97.000000 1.000000 4.000000 1.000000 -60.708740 114.000000 31.000000 0.230699 0.562039 0.794286
9.64000034 0.73000002 -0.38000000 35 137 169 97.000000 1.000000 4.000000 1.000000 -60.708740 114.000000 31.000000 0.396896 0.911339 0.109250
9.64999962 0.73000002 -0.43000001 35 137 169 97.000000 1.000000 4.000000 1.000000 -60.708740 114.000000 31.000000 0.450404 0.843541 0.292531
9.61999989 0.75000000 -0.40000001 35 137 169 97.000000 1.000000 4.000000 1.000000 -60.708740 114.000000 31.000000 0.435633 0.662629 0.609218
9.61999989 0.77999997 -0.47999999 35 137 169 97.000000 1.000000 4.000000 1.000000 -60.708740 114.000000 31.000000 0.299717 0.788144 0.537587
9.64999962 0.74000001 -0.46000001 35 137 169 97.000000 1.000000 4.000000 1.000000 -60.708740 114.000000 31.000000 -0.199871 0.804061 0.559944
9.61999989 0.72000003 -0.44000000 35 137 169 97.000000 1.000000 4.000000 1.000000 -60.708740 114.000000 31.000000 0.424048 0.590341 0.686791
9.60999966 0.77999997 -0.44999999 35 137 169 97.000000 1.000000 4.000000 1.000000 -60.708740 114.000000 31.000000 0.057655 0.972770 0.224485
9.60000038 0.77999997 -0.44999999 35 137 169 97.000000 1.000000 4.000000 1.000000 -60.708740 114.000000 31.000000 0.280835 0.811127 0.513034
9.57999992 0.72000003 -0.44999999 35 137 169 97.000000 1.000000 4.000000 1.000000 -60.708740 114.000000 31.000000 0.473016 0.743311 0.473016
9.59000015 0.73000002 -0.47999999 35 137 169 97.000000 1.000000 4.000000 1.000000 -60.708740 114.000000 31.000000 0.182295 0.629608 0.755223
9.64000034 0.70999998 -0.37000000 35 137 169 97.000000 1.000000 4.000000 1.000000 -60.708740 114.000000 31.000000 0.232320 0.587816 0.774919
9.61999989 0.68000001 -0.38000000 35 137 169 97.000000 1.000000 4.000000 1.000000 -60.708740 114.000000 31.000000 0.249917 0.808738 0.532432
9.64999962 0.69999999 -0.36000001 35 137 169 97.000000 1.000000 4.000000 1.000000 -60.708740 114.000000 31.000000 -0.058778 0.892607 0.446987
9.61999989 0.67000002 -0.36000001 35 137 169 97.000000 1.000000 4.000000 1.000000 -60.708740 114.000000 31.000000 0.409482 0.628315 0.661471
9.64000034 0.67000002 -0.40000001 35 137 169 97.000000 1.000000 4.000000 1.000000 -60.708740 114.000000 31.000000 0.256986 0.859156 0.442503
9.64000034 0.63999999 -0.41999999 35 137 169 97.000000 1.000000 4.000000 1.000000 -60.708740 114.000000 31.000000 -0.028421 0.960150 0.278036
9.60000038 0.64999998 -0.41999999 35 137 169 97.000000 1.000000 4.000000 1.000000 -60.708740 114.000000 31.000000 0.033062 0.966132 0.255921
9.60000038 0.64999998 -0.41999999 35 137 169 97.000000 1.000000 4.000000 1.000000 -60.708740 114.000000 31.000000 0.033062 0.966132 0.255921
9.61999989 0.70999998 -0.47999999 35 137 169 97.000000 1.000000 4.000000 1.000000 -60.708740 114.000000 31.000000 0.231788 0.893194 0.385329
9.64999962 0.69999999 -0.47999999 35 137 169 97.000000 1.000000 4.000000 1.000000 -60.708740 114.000000 31.000000 0.243918 0.907024 0.343238
9.63000011 0.70999998 -0.50000000 35 137 169 97.000000 1.000000 4.000000 1.000000 -60.708740 114.000000 31.000000 0.163821 0.979228 0.119478
9.61999989 0.63999999 -0.44000000 35 137 169 97.000000 1.000000 4.000000 1.000000 -60.708740 114.000000 31.000000 0.515801 0.782539 0.348688
9.60000038 0.69999999 -0.44999999 35 137 169 97.000000 1.000000 4.000000 1.000000 -60.708740 114.000000 31.000000 0.277694 0.766436 0.579191
9.57999992 0.63999999 -0.47999999 35 137 169 97.000000 1.000000 4.000000 1.000000 -60.708740 114.000000 31.000000 0.100736 0.786907 0.608794
9.57999992 0.67000002 -0.47999999 35 137 169 97.000000 1.000000 4.000000 1.000000 -60.708740 114.000000 31.000000 -0.043437 0.922711 0.383037
9.59000015 0.67000002 -0.47999999 35 137 169 97.000000 1.000000 4.000000 1.000000 -60.708740 114.000000 31.000000 -0.052607 0.786264 0.615646
9.56999969 0.75999999 -0.44000000 35 137 169 97.000000 1.000000 4.000000 1.000000 -60.708740 114.000000 31.000000 0.419582 0.889978 0.178576
9.56000042 0.73000002 -0.49000001 35 137 169 97.000000 1.000000 4.000000 1.000000 -60.708740 114.000000 31.000000 0.207899 0.936243 0.283245
9.53999996 0.67000002 -0.43000001 35 137 169 97.000000 1.000000 4.000000 1.000000 -60.708740 114.000000 31.000000 0.434006 0.683435 0.586989
9.56000042 0.69000000 -0.47999999 35 137 169 97.000000 1.000000 4.000000 1.000000 -60.708740 114.000000 31.000000 0.205183 0.828330 0.521316
9.53999996 0.64999998 -0.47999999 35 137 169 97.000000 1.000000 4.000000 1.000000 -60.708740 114.000000 31.000000 0.553797 0.658161 0.510032
9.56999969 0.67000002 -0.47000000 35 137 169 97.000000 1.000000 4.000000 1.000000 -60.708740 114.000000 31.000000 0.102883 0.827412 0.552091
9.52000046 0.69999999 -0.47000000 35 137 169 97.000000 1.000000 4.000000 1.000000 -60.708740 114.000000 31.000000 0.516388 0.700216 0.492992
9.64999962 0.63000000 -0.34999999 35 137 169 97.000000 1.000000 4.000000 1.000000 -60.708740 114.000000 31.000000 0.035237 0.652590 0.756892
9.61999989 0.60000002 -0.34999999 35 137 169 97.000000 1.000000 4.000000 1.000000 -60.708740 114.000000 31.000000 -0.081758 0.967263 0.240244
9.63000011 0.63000000 -0.34000000 35 137 169 97.000000 1.000000 4.000000 1.000000 -60.708740 114.000000 31.000000 0.065091 0.973914 0.217381
9.64000034 0.63000000 -0.34000000 35 137 169 97.000000 1.000000 4.000000 1.000000 -60.708740 114.000000 31.000000 -0.015328 0.734343 0.678605
9.52999973 0.63000000 -0.44999999 35 137 169 97.000000 1.000000 4.000000 1.000000 -60.708740 114.000000 31.000000 0.195375 0.952623 0.233103
9.56999969 0.63000000 -0.44999999 35 137 169 97.000000 1.000000 4.000000 1.000000 -60.708740 114.000000 31.000000 0.082422 0.782286 0.617442
9.82999992 0.97000003 0.50000000 35 137 169 97.000000 1.000000 4.000000 1.000000 -60.708740 114.000000 31.000000 0.319938 0.935098 0.152417
9.85000038 0.97000003 0.47999999 35 137 169 97.000000 1.000000 4.000000 1.000000 -60.708740 114.000000 31.000000 0.407318 0.760654 0.505467
9.71000004 1.14999998 0.31999999 35 137 169 97.000000 1.000000 4.000000 1.000000 -60.708740 114.000000 31.000000 0.122609 0.604182 0.787357
9.68000031 1.17999995 0.34999999 35 137 169 97.000000 1.000000 4.000000 1.000000 -60.708740 114.000000 31.000000 0.032507 0.696771 0.716557
9.76000023 1.08000004 0.50000000 35 137 169 97.000000 1.000000 4.000000 1.000000 -60.708740 114.000000 31.000000 -0.030762 0.897454 0.440033
9.78999996 1.02999997 0.55000001 35 137 169 97.000000 1.000000 4.000000 1.000000 -60.708740 114.000000 31.000000 0.202425 0.933947 0.294563
9.80000019 0.97000003 0.56000000 35 137 169 97.000000 1.000000 4.000000 1.000000 -60.708740 114.000000 31.000000 0.015204 0.595721 0.803048
9.76000023 1.03999996 0.55000001 35 137 169 97.000000 1.000000 4.000000 1.000000 -60.708740 114.000000 31.000000 0.195914 0.898303 0.393280
9.76000023 1.03999996 0.56000000 35 137 169 97.000000 1.000000 4.000000 1.000000 -60.708740 114.000000 31.000000 0.135476 0.608899 0.781594
9.77000046 1.03999996 0.52999997 35 137 169 97.000000 1.000000 4.000000 1.000000 -60.708740 114.000000 31.000000 -0.083692 0.906890 0.412971
9.77999973 1.00000000 0.52999997 35 137 169 97.000000 1.000000 4.000000 1.000000 -60.708740 114.000000 31.000000 0.296254 0.594110 0.747842
9.73999977 0.98000002 0.50999999 35 137 169 97.000000 1.000000 4.000000 1.000000 -60.708740 114.000000 31.000000 -0.148135 0.973637 0.173457
9.69999981 1.01999998 0.56999999 35 137 169 97.000000 1.000000 4.000000 1.000000 -60.708740 114.000000 31.000000 0.152639 0.751106 0.642294
9.71000004 1.01999998 0.56000000 35 137 169 97.000000 1.000000 4.000000 1.000000 -60.708740 114.000000 31.000000 -0.312722 0.821877 0.476154
9.72999954 0.97000003 0.51999998 35 137 169 97.000000 1.000000 4.000000 1.000000 -60.708740 114.000000 31.000000 0.193525 0.806100 0.559241
9.73999977 1.10000002 0.44999999 35 137 169 97.000000 1.000000 4.000000 1.000000 -60.708740 114.000000 31.000000 -0.164363 0.904711 0.393042
9.78999996 1.11000001 0.46000001 35 137 169 97.000000 1.000000 4.000000 1.000000 -60.708740 114.000000 31.000000 0.146539 0.935386 0.321838
9.80000019 1.10000002 0.47999999 35 137 169 97.000000 1.000000 4.000000 1.000000 -60.708740 114.000000 31.000000 0.354031 0.832367 0.426411
9.78999996 0.97000003 0.44999999 35 137 169 97.000000 1.000000 4.000000 1.000000 -60.708740 114.000000 31.000000 -0.091538 0.957924 0.272035
9.77999973 1.02999997 0.34000000 35 137 169 97.000000 1.000000 4.000000 1.000000 -60.708740 114.000000 31.000000 -0.070965 0.699507 0.711093
9.77000046 1.00000000 0.36000001 35 137 169 97.000000 1.000000 4.000000 1.000000 -60.708740 114.000000 31.000000 0.156037 0.743828 0.649902
9.73999977 1.00000000 0.36000001 35 137 169 97.000000 1.000000 4.000000 1.000000 -60.708740 114.000000 31.000000 0.245849 0.918700 0.309109
9.71000004 1.10000002 0.46000001 35 137 169 97.000000 1.000000 4.000000 1.000000 -60.708740 114.000000 31.000000 0.292900 0.875664 0.383957
9.71000004 1.07000005 0.44999999 35 137 169 97.000000 1.000000 4.000000 1.000000 -60.708740 114.000000 31.000000 0.270422 0.835989 0.477487
9.72000027 1.07000005 0.44999999 35 137 169 97.000000 1.000000 4.000000 1.000000 -60.708740 114.000000 31.000000 -0.334360 0.847563 0.412118
9.71000004 1.05999994 0.43000001 35 137 169 97.000000 1.000000 4.000000 1.000000 -60.708740 114.000000 31.000000 -0.160313 0.938582 0.305553
9.67000008 1.10000002 0.44000000 35 137 169 97.000000 1.000000 4.000000 1.000000 -60.708740 114.000000 31.000000 -0.066044 0.915175 0.397609
9.69999981 1.11000001 0.36000001 35 137 169 97.000000 1.000000 4.000000 1.000000 -60.708740 114.000000 31.000000 0.233158 0.886593 0.399487
9.72999954 1.10000002 0.38000000 35 137 169 97.000000 1.000000 4.000000 1.000000 -60.708740 114.000000 31.000000 -0.070497 0.954912 0.288396
9.71000004 1.11000001 0.36000001 35 137 169 97.000000 1.000000 4.000000 1.000000 -60.708740 114.000000 31.000000 0.233172 0.740203 0.630659
9.69999981 1.10000002 0.38999999 35 137 169 97.000000 1.000000 4.000000 1.000000 -60.708740 114.000000 31.000000 0.043938 0.633552 0.772452
9.72000027 1.08000004 0.38000000 35 137 169 97.000000 1.000000 4.000000 1.000000 -60.708740 114.000000 31.000000 0.139698 0.962220 0.233701
9.68000031 1.12000000 0.34000000 35 137 169 97.000000 1.000000 4.000000 1.000000 -60.708740 114.000000 31.000000 -0.135498 0.790652 0.597084
9.67000008 1.13000000 0.31999999 35 137 169 97.000000 1.000000 4.000000 1.000000 -60.708740 114.000000 31.000000 -0.154012 0.952195 0.263829
9.65999985 1.09000003 0.36000001 35 137 169 97.000000 1.000000 4.000000 1.000000 -60.708740 114.000000 31.000000 -0.183437 0.801969 0.568504
9.67000008 1.07000005 0.34000000 35 137 169 97.000000 1.000000 4.000000 1.000000 -60.708740 114.000000 31.000000 -0.195830 0.535876 0.821272
9.71000004 1.04999995 0.44000000 35 137 169 97.000000 1.000000 4.000000 1.000000 -60.708740 114.000000 31.000000 0.043354 0.964935 0.258885
9.72999954 1.02999997 0.44000000 35 137 169 97.000000 1.000000 4.000000 1.000000 -60.708740 114.000000 31.000000 -0.267293 0.936227 0.228109
9.72000027 1.02999997 0.41999999 35 137 169 97.000000 1.000000 4.000000 1.000000 -60.708740 114.000000 31.000000 0.168215 0.771365 0.613758
9.71000004 1.01999998 0.40000001 35 137 169 97.000000 1.000000 4.000000 1.000000 -60.708740 114.000000 31.000000 -0.031939 0.826246 0.562403
9.72999954 0.98000002 0.47999999 35 137 169 97.000000 1.000000 4.000000 1.000000 -60.708740 114.000000 31.000000 0.095115 0.983653 0.152906
9.71000004 0.99000001 0.46000001 35 137 169 97.000000 1.000000 4.000000 1.000000 -60.708740 114.000000 31.000000 -0.065143 0.877352 0.475405
9.67000008 1.03999996 0.44000000 35 137 169 97.000000 1.000000 4.000000 1.000000 -60.708740 114.000000 31.000000 0.069554 0.904198 0.421413
9.68999958 1.00000000 0.47999999 35 137 169 97.000000 1.000000 4.000000 1.000000 -60.708740 114.000000 31.000000 0.097786 0.871567 0.480425
9.71000004 0.98000002 0.38000000 35 137 169 97.000000 1.000000 4.000000 1.000000 -60.708740 114.000000 31.000000 0.084474 0.978189 0.189761
9.68999958 1.20000005 0.31000000 35 137 169 97.000000 1.000000 4.000000 1.000000 -60.708740 114.000000 31.000000 0.084249 0.899114 0.429531
9.68999958 1.22000003 0.27000001 35 137 169 97.000000 1.000000 4.000000 1.000000 -60.708740 114.000000 31.000000 -0.071254 0.920929 0.383160
9.65999985 1.19000006 0.16000000 35 137 169 97.000000 1.000000 4.000000 1.000000 -60.708740 114.000000 31.000000 0.136560 0.739828 0.658792
9.68000031 1.19000006 0.17000000 35 137 169 97.000000 1.000000 4.000000 1.000000 -60.708740 114.000000 31.000000 -0.222511 0.953427 0.203631
9.67000008 1.20000005 0.04000000 35 137 169 97.000000 1.000000 4.000000 1.000000 -60.708740 114.000000 31.000000 -0.043232 0.556432 0.829767
9.73999977 1.07000005 0.25999999 35 137 169 97.000000 1.000000 4.000000 1.000000 -60.708740 114.000000 31.000000 0.239221 0.773949 0.586325
9.77000046 1.05999994 0.23999999 35 137 169 97.000000 1.000000 4.000000 1.000000 -60.708740 114.000000 31.000000 -0.130310 0.972895 0.191037
9.73999977 1.09000003 0.19000000 35 137 169 97.000000 1.000000 4.000000 1.000000 -60.708740 114.000000 31.000000 -0.219675 0.917464 0.331666
9.73999977 1.08000004 0.20999999 35 137 169 97.000000 1.000000 4.000000 1.000000 -60.708740 114.000000 31.000000 -0.141279 0.971135 0.192191
9.78999996 1.01999998 0.27000001 35 137 169 97.000000 1.000000 4.000000 1.000000 -60.708740 114.000000 31.000000 0.404593 0.882342 0.240367
9.73999977 1.01999998 0.31000000 35 137 169 97.000000 1.000000 4.000000 1.000000 -60.708740 114.000000 31.000000 0.045930 0.844828 0.533063
9.73999977 1.03999996 0.28999999 35 137 169 97.000000 1.000000 4.000000 1.000000 -60.708740 114.000000 31.000000 0.359645 0.878626 0.314120
9.76000023 1.02999997 0.25999999 35 137 169 97.000000 1.000000 4.000000 1.000000 -60.708740 114.000000 31.000000 0.239836 0.619184 0.747723
9.75000000 0.99000001 0.28000000 35 137 169 97.000000 1.000000 4.000000 1.000000 -60.708740 114.000000 31.000000 0.075406 0.553449 0.829462
9.76000023 0.99000001 0.25000000 35 137 169 97.000000 1.000000 4.000000 1.000000 -60.708740 114.000000 31.000000 0.260580 0.902460 0.343023
9.81000042 1.01999998 0.18000001 35 137 169 97.000000 1.000000 4.000000 1.000000 -60.708740 114.000000 31.000000 0.522824 0.788233 0.324567
9.78999996 0.97000003 0.15000001 35 137 169 97.000000 1.000000 4.000000 1.000000 -60.708740 114.000000 31.000000 0.279047 0.947681 0.155026
9.77000046 1.04999995 0.20000000 35 137 169 97.000000 1.000000 4.000000 1.000000 -60.708740 114.000000 31.000000 0.193195 0.804726 0.561331
9.73999977 1.03999996 0.16000000 35 137 169 97.000000 1.000000 4.000000 1.000000 -60.708740 114.000000 31.000000 -0.202659 0.854171 0.478876
9.75000000 0.97000003 0.19000000 35 137 169 97.000000 1.000000 4.000000 1.000000 -60.708740 114.000000 31.000000 0.324311 0.851898 0.411208
9.71000004 1.11000001 0.31000000 35 137 169 97.000000 1.000000 4.000000 1.000000 -60.708740 114.000000 31.000000 0.285228 0.900018 0.329563
9.68000031 1.10000002 0.28999999 35 137 169 97.000000 1.000000 4.000000 1.000000 -60.708740 114.000000 31.000000 -0.168578 0.869278 0.464690
9.68000031 1.08000004 0.30000001 35 137 169 97.000000 1.000000 4.000000 1.000000 -60.708740 114.000000 31.000000 -0.309646 0.792376 0.525604
9.68000031 1.08000004 0.25999999 35 137 169 97.000000 1.000000 4.000000 1.000000 -60.708740 114.000000 31.000000 0.149851 0.871462 0.467010
9.72000027 1.08000004 0.18000001 35 137 169 97.000000 1.000000 4.000000 1.000000 -60.708740 114.000000 31.000000 0.005650 0.986470 0.163847
9.68000031 1.10000002 0.23000000 35 137 169 97.000000 1.000000 4.000000 1.000000 -60.708740 114.000000 31.000000 0.438565 -0.648677 -0.621996
9.65999985 1.07000005 0.19000000 35 137 169 97.000000 1.000000 4.000000 1.000000 -60.708740 114.000000 31.000000 -0.506758 0.697419 0.506758
9.65999985 1.09000003 0.18000001 35 137 169 97.000000 1.000000 4.000000 1.000000 -60.708740 114.000000 31.000000 -0.147309 0.864896 0.479849
9.72000027 1.02999997 0.31000000 35 137 169 97.000000 1.000000 4.000000 1.000000 -60.708740 114.000000 31.000000 0.004158 0.727583 0.686007
9.72999954 1.01999998 0.25000000 35 137 169 97.000000 1.000000 4.000000 1.000000 -60.708740 114.000000 31.000000 -0.090664 0.987880 0.125987
9.72000027 1.00000000 0.28999999 35 137 169 97.000000 1.000000 4.000000 1.000000 -60.708740 114.000000 31.000000 -0.006220 0.946656 0.322186
9.68999958 1.03999996 0.28999999 35 137 169 97.000000 1.000000 4.000000 1.000000 -60.708740 114.000000 31.000000 -0.054735 0.837859 0.543135
9.68999958 1.01999998 0.23999999 35 137 169 97.000000 1.000000 4.000000 1.000000 -60.708740 114.000000 31.000000 -0.289725 0.940577 0.177130
9.72000027 1.01999998 0.22000000 35 137 169 97.000000 1.000000 4.000000 1.000000 -60.708740 114.000000 31.000000 0.233828 0.673235 0.701483
9.65999985 1.01999998 0.23000000 35 137 169 97.000000 1.000000 4.000000 1.000000 -60.708740 114.000000 31.000000 -0.499503 0.590321 0.634049
9.67000008 1.03999996 0.23000000 35 137 169 97.000000 1.000000 4.000000 1.000000 -60.708740 114.000000 31.000000 -0.472718 0.856895 0.205595
9.68000031 1.00999999 0.23000000 35 137 169 97.000000 1.000000 4.000000 1.000000 -60.708740 114.000000 31.000000 -0.095118 0.636562 0.765338
9.75000000 1.05999994 0.00000000 35 137 169 97.000000 1.000000 4.000000 1.000000 -60.708740 114.000000 31.000000 -0.006898 0.633223 0.773939
9.75000000 1.03999996 0.14000000 35 137 169 97.000000 1.000000 4.000000 1.000000 -60.708740 114.000000 31.000000 0.118461 0.910058 0.397192
9.80000019 0.98000002 0.05000000 35 137 169 97.000000 1.000000 4.000000 1.000000 -60.708740 114.000000 31.000000 0.482432 0.731108 0.482432
9.75000000 1.00000000 0.00000000 35 137 169 97.000000 1.000000 4.000000 1.000000 -60.708740 114.000000 31.000000 0.381354 0.815363 0.435605
9.72000027 1.09000003 0.13000000 35 137 169 97.000000 1.000000 4.000000 1.000000 -60.708740 114.000000 31.000000 -0.168214 0.930040 0.326696
9.69999981 1.08000004 0.11000000 35 137 169 97.000000 1.000000 4.000000 1.000000 -60.708740 114.000000 31.000000 0.006889 0.624176 0.781253
9.68000031 1.05999994 0.14000000 35 137 169 97.000000 1.000000 4.000000 1.000000 -60.708740 114.000000 31.000000 -0.081308 0.540624 0.837326
9.71000004 1.09000003 -0.02000000 35 137 169 97.000000 1.000000 4.000000 1.000000 -60.708740 114.000000 31.000000 0.202820 0.877900 0.433769
9.68999958 1.05999994 0.06000000 35 137 169 97.000000 1.000000 4.000000 1.000000 -60.708740 114.000000 31.000000 -0.217064 0.694916 0.685547
9.68999958 1.07000005 0.06000000 35 137 169 97.000000 1.000000 4.000000 1.000000 -60.708740 114.000000 31.000000 -0.376684 0.676057 0.633290
9.68999958 1.04999995 0.07000000 35 137 169 97.000000 1.000000 4.000000 1.000000 -60.708740 114.000000 31.000000 -0.133970 0.552076 0.822961
9.72999954 1.00000000 0.00000000 35 137 169 97.000000 1.000000 4.000000 1.000000 -60.708740 114.000000 31.000000 -0.016657 0.991672 0.127707
9.68999958 1.02999997 0.02000000 35 137 169 97.000000 1.000000 4.000000 1.000000 -60.708740 114.000000 31.000000 -0.518165 0.629562 0.578927
9.68000031 0.99000001 0.01000000 35 137 169 97.000000 1.000000 4.000000 1.000000 -60.708740 114.000000 31.000000 -0.492213 0.666924 0.559410
9.67000008 0.97000003 0.01000000 35 137 169 97.000000 1.000000 4.000000 1.000000 -60.708740 114.000000 31.000000 -0.600716 0.577026 0.553336
9.76000023 0.82999998 0.66000003 35 137 169 97.000000 1.000000 4.000000 1.000000 -60.708740 114.000000 31.000000 -0.240476 0.863596 0.443141
9.80000019 0.79000002 0.67000002 35 137 169 97.000000 1.000000 4.000000 1.000000 -60.708740 114.000000 31.000000 0.456538 0.677281 0.576943
9.80000019 0.79000002 0.67000002 35 137 169 97.000000 1.000000 4.000000 1.000000 -60.708740 114.000000 31.000000 0.456538 0.677281 0.576943
10.00000000 0.75000000 0.34000000 35 137 169 97.000000 1.000000 4.000000 1.000000 -60.708740 114.000000 31.000000 0.802584 0.503800 0.319444
10.00000000 0.67000002 0.41999999 35 137 169 97.000000 1.000000 4.000000 1.000000 -60.708740 114.000000 31.000000 0.956102 0.279992 0.086449
10.05000019 0.63999999 0.37000000 35 137 169 97.000000 1.000000 4.000000 1.000000 -60.708740 114.000000 31.000000 0.925116 0.065224 0.374040
10.06999969 0.64999998 0.33000001 35 137 169 97.000000 1.000000 4.000000 1.000000 -60.708740 114.000000 31.000000 0.989776 -0.049203 -0.133877
10.06999969 0.66000003 0.31999999 35 137 169 97.000000 1.000000 4.000000 1.000000 -60.708740 114.000000 31.000000 0.938978 0.166349 -0.301078
10.06000042 0.66000003 0.33000001 35 137 169 97.000000 1.000000 4.000000 1.000000 -60.708740 114.000000 31.000000 0.888272 0.232819 0.395941
10.00000000 0.67000002 0.36000001 35 137 169 97.000000 1.000000 4.000000 1.000000 -60.708740 114.000000 31.000000 0.921035 0.251453 -0.297433
10.02999973 0.64999998 0.23999999 35 137 169 97.000000 1.000000 4.000000 1.000000 -60.708740 114.000000 31.000000 0.982219 -0.186703 0.019714
10.05000019 0.64999998 0.31000000 35 137 169 97.000000 1.000000 4.000000 1.000000 -60.708740 114.000000 31.000000 0.972856 0.214948 -0.085731
10.06000042 0.66000003 0.30000001 35 137 169 97.000000 1.000000 4.000000 1.000000 -60.708740 114.000000 31.000000 0.964431 0.197062 -0.176182
10.06999969 0.69999999 0.30000001 35 137 169 97.000000 1.000000 4.000000 1.000000 -60.708740 114.000000 31.000000 0.916370 0.099993 0.387643
10.00000000 0.69999999 0.31000000 35 137 169 97.000000 1.000000 4.000000 1.000000 -60.708740 114.000000 31.000000 0.836380 0.548067 0.009520
10.10000038 0.58999997 0.33000001 35 137 169 97.000000 1.000000 4.000000 1.000000 -60.708740 114.000000 31.000000 0.970173 -0.117943 0.211789
10.14000034 0.51999998 0.34000000 35 137 169 97.000000 1.000000 4.000000 1.000000 -60.708740 114.000000 31.000000 0.967430 0.105515 -0.230098
10.11999989 0.51999998 0.31999999 35 137 169 97.000000 1.000000 4.000000 1.000000 -60.708740 114.000000 31.000000 0.895310 -0.442914 -0.047407
10.07999992 0.51999998 0.33000001 35 137 169 97.000000 1.000000 4.000000 1.000000 -60.708740 114.000000 31.000000 0.937501 -0.210346 -0.277211
10.10000038 0.52999997 0.34999999 35 137 169 97.000000 1.000000 4.000000 1.000000 -60.708740 114.000000 31.000000 0.970875 -0.239443 0.008339
10.07999992 0.51999998 0.31999999 35 137 169 97.000000 1.000000 4.000000 1.000000 -60.708740 114.000000 31.000000 0.970466 -0.239904 -0.025317
10.10000038 0.54000002 0.31999999 35 137 169 97.000000 1.000000 4.000000 1.000000 -60.708740 114.000000 31.000000 0.983359 0.041022 0.176981
10.10000038 0.50000000 0.38000000 35 137 169 97.000000 1.000000 4.000000 1.000000 -60.708740 114.000000 31.000000 0.952019 -0.187703 0.241718
10.09000015 0.49000001 0.34999999 35 137 169 97.000000 1.000000 4.000000 1.000000 -60.708740 114.000000 31.000000 0.824734 -0.527040 -0.205044
10.02000046 0.55000001 0.40000001 35 137 169 97.000000 1.000000 4.000000 1.000000 -60.708740 114.000000 31.000000 0.959153 0.223582 0.173309
10.00000000 0.56999999 0.41000000 35 137 169 97.000000 1.000000 4.000000 1.000000 -60.708740 114.000000 31.000000 0.990856 -0.021273 -0.133234
10.03999996 0.55000001 0.36000001 35 137 169 97.000000 1.000000 4.000000 1.000000 -60.708740 114.000000 31.000000 0.978191 -0.206494 0.022419
10.06999969 0.50999999 0.40000001 35 137 169 97.000000 1.000000 4.000000 1.000000 -60.708740 114.000000 31.000000 0.920496 -0.079749 -0.382526
10.06000042 0.52999997 0.41999999 35 137 169 97.000000 1.000000 4.000000 1.000000 -60.708740 114.000000 31.000000 0.993656 0.043493 -0.103715
10.03999996 0.51999998 0.38000000 35 137 169 97.000000 1.000000 4.000000 1.000000 -60.708740 114.000000 31.000000 0.992406 -0.103210 0.066917
10.06000042 0.54000002 0.37000000 35 137 169 97.000000 1.000000 4.000000 1.000000 -60.708740 114.000000 31.000000 0.973821 0.220603 -0.054846
10.06000042 0.54000002 0.37000000 35 137 169 97.000000 1.000000 4.000000 1.000000 -60.708740 114.000000 31.000000 0.973821 0.220603 -0.054846
10.06999969 0.47000000 0.36000001 35 137 169 97.000000 1.000000 4.000000 1.000000 -60.708740 114.000000 31.000000 0.954510 0.021156 -0.297429
10.18999958 0.47000000 0.25999999 35 137 169 97.000000 1.000000 4.000000 1.000000 -60.708740 114.000000 31.000000 0.926054 -0.373857 0.051521
10.18999958 0.50000000 0.31000000 35 137 169 97.000000 1.000000 4.000000 1.000000 -60.708740 114.000000 31.000000 0.997360 0.015865 -0.070862
10.18000031 0.47000000 0.28000000 35 137 169 97.000000 1.000000 4.000000 1.000000 -60.708740 114.000000 31.000000 0.972121 -0.196452 -0.128011
10.13000011 0.49000001 0.28999999 35 137 169 97.000000 1.000000 4.000000 1.000000 -60.708740 114.000000 31.000000 0.985284 -0.154949 0.072152
10.10999966 0.50000000 0.28999999 35 137 169 97.000000 1.000000 4.000000 1.000000 -60.708740 114.000000 31.000000 0.866115 -0.498257 -0.039806
10.10000038 0.49000001 0.30000001 35 137 169 97.000000 1.000000 4.000000 1.000000 -60.708740 114.000000 31.000000 0.982947 0.031557 -0.181161
10.06000042 0.56000000 0.28999999 35 137 169 97.000000 1.000000 4.000000 1.000000 -60.708740 114.000000 31.000000 0.855912 0.116912 -0.503732
10.02999973 0.58999997 0.25000000 35 137 169 97.000000 1.000000 4.000000 1.000000 -60.708740 114.000000 31.000000 0.978602 -0.109830 -0.174001
10.00000000 0.56999999 0.25000000 35 137 169 97.000000 1.000000 4.000000 1.000000 -60.708740 114.000000 31.000000 0.994271 0.016335 0.105634
10.03999996 0.55000001 0.19000000 35 137 169 97.000000 1.000000 4.000000 1.000000 -60.708740 114.000000 31.000000 0.881271 -0.091069 -0.463753
10.02999973 0.63000000 0.23000000 35 137 169 97.000000 1.000000 4.000000 1.000000 -60.708740 114.000000 31.000000 0.945258 -0.314210 0.088084
10.01000023 0.56999999 0.18000001 35 137 169 97.000000 1.000000 4.000000 1.000000 -60.708740 114.000000 31.000000 0.976187 -0.100472 -0.192260
10.02000046 0.52999997 0.23999999 35 137 169 97.000000 1.000000 4.000000 1.000000 -60.708740 114.000000 31.000000 0.980430 0.046348 -0.191332
10.02000046 0.51999998 0.23999999 35 137 169 97.000000 1.000000 4.000000 1.000000 -60.708740 114.000000 31.000000 0.871390 -0.475173 -0.122023
10.06000042 0.54000002 0.25999999 35 137 169 97.000000 1.000000 4.000000 1.000000 -60.708740 114.000000 31.000000 0.936623 -0.342151 -0.075300
10.02000046 0.52999997 0.23999999 35 137 169 97.000000 1.000000 4.000000 1.000000 -60.708740 114.000000 31.000000 0.980430 0.046348 -0.191332
10.00000000 0.52999997 0.20000000 35 137 169 97.000000 1.000000 4.000000 1.000000 -60.708740 114.000000 31.000000 0.836399 -0.548079 0.006800
10.00000000 0.51999998 0.17000000 35 137 169 97.000000 1.000000 4.000000 1.000000 -60.708740 114.000000 31.000000 0.866553 -0.031387 -0.498097
10.01000023 0.50000000 0.20999999 35 137 169 97.000000 1.000000 4.000000 1.000000 -60.708740 114.000000 31.000000 0.835025 -0.549828 0.020567
10.00000000 0.55000001 0.11000000 35 137 169 97.000000 1.000000 4.000000 1.000000 -60.708740 114.000000 31.000000 0.910165 -0.136034 -0.391273
10.02999973 0.61000001 0.10000000 35 137 169 97.000000 1.000000 4.000000 1.000000 -60.708740 114.000000 31.000000 0.980248 0.093763 -0.174131
10.00000000 0.56999999 0.11000000 35 137 169 97.000000 1.000000 4.000000 1.000000 -60.708740 114.000000 31.000000 0.739124 -0.484482 -0.467946
10.02999973 0.58999997 0.12000000 35 137 169 97.000000 1.000000 4.000000 1.000000 -60.708740 114.000000 31.000000 0.891180 -0.452939 -0.025386
10.02000046 0.57999998 0.06000000 35 137 169 97.000000 1.000000 4.000000 1.000000 -60.708740 114.000000 31.000000 0.966907 -0.180403 -0.180403
10.01000023 0.50999999 0.11000000 35 137 169 97.000000 1.000000 4.000000 1.000000 -60.708740 114.000000 31.000000 -0.671610 0.684433 0.283711
9.97000027 0.94999999 0.50999999 35 137 169 97.000000 1.000000 4.000000 1.000000 -60.708740 114.000000 31.000000 0.667022 0.710761 0.223382
9.90999985 0.93000001 0.56000000 35 137 169 97.000000 1.000000 4.000000 1.000000 -60.708740 114.000000 31.000000 0.606906 0.623718 0.492586
9.93999958 0.91000003 0.55000001 35 137 169 97.000000 1.000000 4.000000 1.000000 -60.708740 114.000000 31.000000 0.205624 0.923180 0.324744
9.90999985 0.86000001 0.51999998 35 137 169 97.000000 1.000000 4.000000 1.000000 -60.708740 114.000000 31.000000 0.621816 0.700155 0.350894
9.88000011 0.94000000 0.57999998 35 137 169 97.000000 1.000000 4.000000 1.000000 -60.708740 114.000000 31.000000 -0.114556 0.842497 0.526379
9.86999989 0.94999999 0.55000001 35 137 169 97.000000 1.000000 4.000000 1.000000 -60.708740 114.000000 31.000000 0.082983 0.697351 0.711910
9.86999989 0.94999999 0.50000000 35 137 169 97.000000 1.000000 4.000000 1.000000 -60.708740 114.000000 31.000000 0.200829 0.584090 0.786452
9.86999989 0.88999999 0.55000001 35 137 169 97.000000 1.000000 4.000000 1.000000 -60.708740 114.000000 31.000000 -0.089500 0.853801 0.512849
9.85000038 0.92000002 0.51999998 35 137 169 97.000000 1.000000 4.000000 1.000000 -60.708740 114.000000 31.000000 0.090058 0.983436 0.157302
9.82999992 0.91000003 0.50000000 35 137 169 97.000000 1.000000 4.000000 1.000000 -60.708740 114.000000 31.000000 0.068050 0.982549 0.173110
9.89999962 0.87000000 0.56999999 35 137 169 97.000000 1.000000 4.000000 1.000000 -60.708740 114.000000 31.000000 0.321428 0.529317 0.785180
9.89000034 0.88000000 0.49000001 35 137 169 97.000000 1.000000 4.000000 1.000000 -60.708740 114.000000 31.000000 0.697386 0.554247 0.454383
9.90999985 0.89999998 0.44000000 35 137 169 97.000000 1.000000 4.000000 1.000000 -60.708740 114.000000 31.000000 0.635919 0.655843 0.406789
9.90999985 0.94000000 0.37000000 35 137 169 97.000000 1.000000 4.000000 1.000000 -60.708740 114.000000 31.000000 0.496589 0.648090 0.577390
9.92000008 0.83999997 0.47999999 35 137 169 97.000000 1.000000 4.000000 1.000000 -60.708740 114.000000 31.000000 0.651350 0.744615 0.145914
9.93999958 0.81000000 0.41000000 35 137 169 97.000000 1.000000 4.000000 1.000000 -60.708740 114.000000 31.000000 0.423458 0.679193 0.599483
9.92000008 0.87000000 0.38999999 35 137 169 97.000000 1.000000 4.000000 1.000000 -60.708740 114.000000 31.000000 0.205559 0.823759 0.528363
9.89000034 0.95999998 0.47000000 35 137 169 97.000000 1.000000 4.000000 1.000000 -60.708740 114.000000 31.000000 0.042754 0.856465 0.514431
9.86999989 0.95999998 0.47000000 35 137 169 97.000000 1.000000 4.000000 1.000000 -60.708740 114.000000 31.000000 0.335188 0.857279 0.390796
9.82999992 0.93000001 0.40000001 35 137 169 97.000000 1.000000 4.000000 1.000000 -60.708740 114.000000 31.000000 0.286938 0.562779 0.775208
9.84000015 0.95999998 0.41000000 35 137 169 97.000000 1.000000 4.000000 1.000000 -60.708740 114.000000 31.000000 0.208444 0.776646 0.594451
9.85000038 0.94999999 0.44000000 35 137 169 97.000000 1.000000 4.000000 1.000000 -60.708740 114.000000 31.000000 0.243082 0.949242 0.199626
9.82999992 0.88999999 0.47000000 35 137 169 97.000000 1.000000 4.000000 1.000000 -60.708740 114.000000 31.000000 0.009616 0.811835 0.583807
9.84000015 0.92000002 0.43000001 35 137 169 97.000000 1.000000 4.000000 1.000000 -60.708740 114.000000 31.000000 0.181530 0.779512 0.599507
9.85000038 0.92000002 0.43000001 35 137 169 97.000000 1.000000 4.000000 1.000000 -60.708740 114.000000 31.000000 0.215631 0.963153 0.160743
9.85000038 0.88999999 0.43000001 35 137 169 97.000000 1.000000 4.000000 1.000000 -60.708740 114.000000 31.000000 0.113776 0.755056 0.645713
9.89999962 0.92000002 0.38999999 35 137 169 97.000000 1.000000 4.000000 1.000000 -60.708740 114.000000 31.000000 0.326410 0.885969 0.329418
9.88000011 0.92000002 0.38999999 35 137 169 97.000000 1.000000 4.000000 1.000000 -60.708740 114.000000 31.000000 0.090727 0.819423 0.565963
9.82999992 0.94000000 0.38999999 35 137 169 97.000000 1.000000 4.000000 1.000000 -60.708740 114.000000 31.000000 0.408426 0.843454 0.348961
9.82999992 0.95999998 0.36000001 35 137 169 97.000000 1.000000 4.000000 1.000000 -60.708740 114.000000 31.000000 0.361044 0.921429 0.143581
9.82999992 0.88999999 0.38999999 35 137 169 97.000000 1.000000 4.000000 1.000000 -60.708740 114.000000 31.000000 0.370545 0.865631 0.336720
9.86999989 0.85000002 0.40000001 35 137 169 97.000000 1.000000 4.000000 1.000000 -60.708740 114.000000 31.000000 0.718925 0.669663 0.186274
9.89999962 0.85000002 0.41999999 35 137 169 97.000000 1.000000 4.000000 1.000000 -60.708740 114.000000 31.000000 0.684284 0.533708 0.496901
9.89000034 0.86000001 0.41999999 35 137 169 97.000000 1.000000 4.000000 1.000000 -60.708740 114.000000 31.000000 0.571984 0.761043 0.306019
9.89999962 0.81000000 0.46000001 35 137 169 97.000000 1.000000 4.000000 1.000000 -60.708740 114.000000 31.000000 0.616052 0.445762 0.649443
9.89000034 0.81000000 0.41000000 35 137 169 97.000000 1.000000 4.000000 1.000000 -60.708740 114.000000 31.000000 0.627328 0.417664 0.657280
9.85999966 0.88000000 0.47000000 35 137 169 97.000000 1.000000 4.000000 1.000000 -60.708740 114.000000 31.000000 0.318153 0.935177 0.155633
9.84000015 0.88000000 0.47999999 35 137 169 97.000000 1.000000 4.000000 1.000000 -60.708740 114.000000 31.000000 0.248940 0.580861 0.775003
9.84000015 0.88000000 0.47999999 35 137 169 97.000000 1.000000 4.000000 1.000000 -60.708740 114.000000 31.000000 0.248940 0.580861 0.775003
9.86999989 0.85000002 0.36000001 35 137 169 97.000000 1.000000 4.000000 1.000000 -60.708740 114.000000 31.000000 0.590255 0.797363 0.125744
9.86999989 0.81999999 0.36000001 35 137 169 97.000000 1.000000 4.000000 1.000000 -60.708740 114.000000 31.000000 0.220835 0.833080 0.507158
9.85999966 0.87000000 0.34000000 35 137 169 97.000000 1.000000 4.000000 1.000000 -60.708740 114.000000 31.000000 0.648929 0.703407 0.290015
9.82999992 0.86000001 0.34999999 35 137 169 97.000000 1.000000 4.000000 1.000000 -60.708740 114.000000 31.000000 0.363108 0.551989 0.750640
9.82999992 0.81999999 0.34000000 35 137 169 97.000000 1.000000 4.000000 1.000000 -60.708740 114.000000 31.000000 0.122895 0.786230 0.605590
9.85000038 0.83999997 0.33000001 35 137 169 97.000000 1.000000 4.000000 1.000000 -60.708740 114.000000 31.000000 0.442159 0.893961 0.073004
9.96000004 0.75999999 0.41000000 35 137 169 97.000000 1.000000 4.000000 1.000000 -60.708740 114.000000 31.000000 0.782269 0.576982 0.234836
9.97999954 0.79000002 0.41000000 35 137 169 97.000000 1.000000 4.000000 1.000000 -60.708740 114.000000 31.000000 0.638907 0.769183 0.012473
9.94999981 0.76999998 0.40000001 35 137 169 97.000000 1.000000 4.000000 1.000000 -60.708740 114.000000 31.000000 0.435579 0.825224 0.359551
9.93000031 0.73000002 0.41000000 35 137 169 97.000000 1.000000 4.000000 1.000000 -60.708740 114.000000 31.000000 0.882130 0.380203 0.278014
9.93000031 0.73000002 0.44000000 35 137 169 97.000000 1.000000 4.000000 1.000000 -60.708740 114.000000 31.000000 0.901833 0.305531 0.305531
9.93000031 0.72000003 0.41999999 35 137 169 97.000000 1.000000 4.000000 1.000000 -60.708740 114.000000 31.000000 0.825500 0.564387 0.004080
9.93000031 0.74000001 0.44000000 35 137 169 97.000000 1.000000 4.000000 1.000000 -60.708740 114.000000 31.000000 0.841703 0.488583 0.229832
9.98999977 0.76999998 0.37000000 35 137 169 97.000000 1.000000 4.000000 1.000000 -60.708740 114.000000 31.000000 0.956614 0.250069 0.149512
9.94999981 0.76999998 0.37000000 35 137 169 97.000000 1.000000 4.000000 1.000000 -60.708740 114.000000 31.000000 0.558953 0.633255 0.535312
9.96000004 0.79000002 0.38000000 35 137 169 97.000000 1.000000 4.000000 1.000000 -60.708740 114.000000 31.000000 0.627677 0.594021 0.503151
9.94999981 0.73000002 0.37000000 35 137 169 97.000000 1.000000 4.000000 1.000000 -60.708740 114.000000 31.000000 0.964430 0.257098 -0.061453
9.94999981 0.73000002 0.36000001 35 137 169 97.000000 1.000000 4.000000 1.000000 -60.708740 114.000000 31.000000 0.913941 0.374334 -0.156797
9.94999981 0.73000002 0.38000000 35 137 169 97.000000 1.000000 4.000000 1.000000 -60.708740 114.000000 31.000000 0.917514 0.357675 0.173889
9.97000027 0.72000003 0.38999999 35 137 169 97.000000 1.000000 4.000000 1.000000 -60.708740 114.000000 31.000000 0.934461 0.326993 -0.140922
9.97000027 0.74000001 0.31999999 35 137 169 97.000000 1.000000 4.000000 1.000000 -60.708740 114.000000 31.000000 0.925805 0.302913 0.226118
9.97999954 0.73000002 0.34999999 35 137 169 97.000000 1.000000 4.000000 1.000000 -60.708740 114.000000 31.000000 0.790138 0.450815 0.415267
9.93999958 0.77999997 0.33000001 35 137 169 97.000000 1.000000 4.000000 1.000000 -60.708740 114.000000 31.000000 0.648414 0.570941 0.503573
9.93999958 0.74000001 0.38000000 35 137 169 97.000000 1.000000 4.000000 1.000000 -60.708740 114.000000 31.000000 0.586240 0.616650 0.525420
9.92000008 0.75000000 0.38999999 35 137 169 97.000000 1.000000 4.000000 1.000000 -60.708740 114.000000 31.000000 0.676556 0.617006 0.401964
9.93999958 0.72000003 0.31999999 35 137 169 97.000000 1.000000 4.000000 1.000000 -60.708740 114.000000 31.000000 0.947191 0.290722 -0.135313
9.97000027 0.69000000 0.40000001 35 137 169 97.000000 1.000000 4.000000 1.000000 -60.708740 114.000000 31.000000 0.977277 0.211016 0.020041
9.97999954 0.63999999 0.46000001 35 137 169 97.000000 1.000000 4.000000 1.000000 -60.708740 114.000000 31.000000 0.845578 0.167927 0.506752
9.94999981 0.64999998 0.41999999 35 137 169 97.000000 1.000000 4.000000 1.000000 -60.708740 114.000000 31.000000 0.901805 0.369784 -0.223624
9.96000004 0.63999999 0.41000000 35 137 169 97.000000 1.000000 4.000000 1.000000 -60.708740 114.000000 31.000000 0.980259 0.184477 0.071138
9.94999981 0.66000003 0.44000000 35 137 169 97.000000 1.000000 4.000000 1.000000 -60.708740 114.000000 31.000000 0.774465 0.619870 -0.126352
9.94999981 0.64999998 0.41999999 35 137 169 97.000000 1.000000 4.000000 1.000000 -60.708740 114.000000 31.000000 0.901805 0.369784 -0.223624
9.94999981 0.63999999 0.40000001 35 137 169 97.000000 1.000000 4.000000 1.000000 -60.708740 114.000000 31.000000 0.939685 -0.050549 0.338286
9.93000031 0.67000002 0.43000001 35 137 169 97.000000 1.000000 4.000000 1.000000 -60.708740 114.000000 31.000000 0.907880 0.383390 -0.169604
9.98999977 0.70999998 0.38000000 35 137 169 97.000000 1.000000 4.000000 1.000000 -60.708740 114.000000 31.000000 0.911706 0.357504 0.202442
9.94999981 0.70999998 0.37000000 35 137 169 97.000000 1.000000 4.000000 1.000000 -60.708740 114.000000 31.000000 0.755704 0.634549 0.162045
9.97000027 0.69999999 0.36000001 35 137 169 97.000000 1.000000 4.000000 1.000000 -60.708740 114.000000 31.000000 0.922901 0.384864 0.011585
9.97000027 0.69999999 0.36000001 35 137 169 97.000000 1.000000 4.000000 1.000000 -60.708740 114.000000 31.000000 0.922901 0.384864 0.011585
9.97999954 0.69000000 0.33000001 35 137 169 97.000000 1.000000 4.000000 1.000000 -60.708740 114.000000 31.000000 0.913313 0.367882 -0.174708
9.97999954 0.68000001 0.34000000 35 137 169 97.000000 1.000000 4.000000 1.000000 -60.708740 114.000000 31.000000 0.994711 -0.099581 0.025169
9.97000027 0.64999998 0.37000000 35 137 169 97.000000 1.000000 4.000000 1.000000 -60.708740 114.000000 31.000000 0.955306 -0.067779 0.287743
9.97000027 0.64999998 0.38999999 35 137 169 97.000000 1.000000 4.000000 1.000000 -60.708740 114.000000 31.000000 0.945059 0.192841 0.263960
9.97000027 0.66000003 0.36000001 35 137 169 97.000000 1.000000 4.000000 1.000000 -60.708740 114.000000 31.000000 0.917534 0.082673 0.388969
9.97000027 0.64999998 0.34999999 35 137 169 97.000000 1.000000 4.000000 1.000000 -60.708740 114.000000 31.000000 0.921674 0.305313 -0.239377
9.93999958 0.68000001 0.38000000 35 137 169 97.000000 1.000000 4.000000 1.000000 -60.708740 114.000000 31.000000 0.992715 0.109300 0.050706
9.93999958 0.70999998 0.34000000 35 137 169 97.000000 1.000000 4.000000 1.000000 -60.708740 114.000000 31.000000 0.794495 0.607231 0.006885
9.93000031 0.64999998 0.38999999 35 137 169 97.000000 1.000000 4.000000 1.000000 -60.708740 114.000000 31.000000 0.851688 0.464696 0.242251
9.89999962 0.76999998 0.34000000 35 137 169 97.000000 1.000000 4.000000 1.000000 -60.708740 114.000000 31.000000 0.524160 0.845836 0.099088
9.88000011 0.80000001 0.34999999 35 137 169 97.000000 1.000000 4.000000 1.000000 -60.708740 114.000000 31.000000 0.297650 0.889958 0.345513
9.81999969 0.94999999 0.51999998 35 137 169 97.000000 1.000000 4.000000 1.000000 -60.708740 114.000000 31.000000 -0.223778 0.866578 0.446055
9.76000023 0.94999999 0.54000002 35 137 169 97.000000 1.000000 4.000000 1.000000 -60.708740 114.000000 31.000000 -0.123028 0.895137 0.428478
9.77999973 0.95999998 0.55000001 35 137 169 97.000000 1.000000 4.000000 1.000000 -60.708740 114.000000 31.000000 -0.073724 0.950655 0.301364
9.77000046 0.93000001 0.50000000 35 137 169 97.000000 1.000000 4.000000 1.000000 -60.708740 114.000000 31.000000 0.073902 0.740469 0.668016
9.76000023 0.91000003 0.54000002 35 137 169 97.000000 1.000000 4.000000 1.000000 -60.708740 114.000000 31.000000 -0.018154 0.682852 0.730331
9.78999996 0.81999999 0.61000001 35 137 169 97.000000 1.000000 4.000000 1.000000 -60.708740 114.000000 31.000000 0.072461 0.828330 0.555535
9.73999977 0.82999998 0.63999999 35 137 169 97.000000 1.000000 4.000000 1.000000 -60.708740 114.000000 31.000000 -0.245420 0.956477 0.157865
9.76000023 0.81000000 0.56999999 35 137 169 97.000000 1.000000 4.000000 1.000000 -60.708740 114.000000 31.000000 -0.425784 0.704118 0.568265
9.73999977 0.81999999 0.58999997 35 137 169 97.000000 1.000000 4.000000 1.000000 -60.708740 114.000000 31.000000 -0.004137 0.762647 0.646802
9.73999977 0.88000000 0.50999999 35 137 169 97.000000 1.000000 4.000000 1.000000 -60.708740 114.000000 31.000000 0.093517 0.891899 0.442460
9.76000023 0.81999999 0.54000002 35 137 169 97.000000 1.000000 4.000000 1.000000 -60.708740 114.000000 31.000000 -0.077679 0.851645 0.518331
9.69999981 0.92000002 0.56000000 35 137 169 97.000000 1.000000 4.000000 1.000000 -60.708740 114.000000 31.000000 -0.432948 0.852030 0.294281
9.71000004 0.89999998 0.49000001 35 137 169 97.000000 1.000000 4.000000 1.000000 -60.708740 114.000000 31.000000 -0.197771 0.929945 0.309982
9.71000004 0.88999999 0.51999998 35 137 169 97.000000 1.000000 4.000000 1.000000 -60.708740 114.000000 31.000000 0.475738 -0.724381 -0.498944
9.68000031 0.95999998 0.50000000 35 137 169 97.000000 1.000000 4.000000 1.000000 -60.708740 114.000000 31.000000 -0.202030 0.925382 0.320705
9.72999954 0.85000002 0.51999998 35 137 169 97.000000 1.000000 4.000000 1.000000 -60.708740 114.000000 31.000000 -0.146226 0.923313 0.355120
9.72999954 0.86000001 0.50999999 35 137 169 97.000000 1.000000 4.000000 1.000000 -60.708740 114.000000 31.000000 -0.333930 0.685778 0.646684
9.68000031 0.88000000 0.55000001 35 137 169 97.000000 1.000000 4.000000 1.000000 -60.708740 114.000000 31.000000 0.136649 0.731298 0.668229
9.68000031 0.85000002 0.55000001 35 137 169 97.000000 1.000000 4.000000 1.000000 -60.708740 114.000000 31.000000 -0.423907 0.689888 0.586820
9.65999985 0.88000000 0.55000001 35 137 169 97.000000 1.000000 4.000000 1.000000 -60.708740 114.000000 31.000000 -0.036696 0.876628 0.479767
9.80000019 0.92000002 0.47999999 35 137 169 97.000000 1.000000 4.000000 1.000000 -60.708740 114.000000 31.000000 0.293509 0.617492 0.729764
9.81999969 0.92000002 0.47000000 35 137 169 97.000000 1.000000 4.000000 1.000000 -60.708740 114.000000 31.000000 0.475720 0.623647 0.620285
