//X Y Z R G B PointSourceId ScanDirectionFlag NumberOfReturns ReturnNumber GpsTime Intensity Classification Nx Ny Nz
5.01999998 2.31999993 -0.38000000 140 170 100 97.000000 1.000000 4.000000 1.000000 -60.708740 114.000000 18.000000 0.643572 -0.352081 0.679599
5.42000008 2.07999992 -0.34999999 140 170 100 97.000000 1.000000 4.000000 1.000000 -60.708740 114.000000 18.000000 0.612884 0.192006 0.766490
5.42999983 2.07999992 -0.34999999 140 170 100 97.000000 1.000000 4.000000 1.000000 -60.708740 114.000000 18.000000 0.405690 -0.124936 0.905432
5.42999983 2.03999996 -0.34999999 140 170 100 97.000000 1.000000 4.000000 1.000000 -60.708740 114.000000 18.000000 0.280801 0.321966 0.904151
5.42999983 2.03999996 -0.34999999 140 170 100 97.000000 1.000000 4.000000 1.000000 -60.708740 114.000000 18.000000 0.280801 0.321966 0.904151
5.38999987 1.98000002 -0.30000001 140 170 100 97.000000 1.000000 4.000000 1.000000 -60.708740 114.000000 18.000000 0.374023 0.227347 0.899122
5.38000011 2.00999999 -0.31999999 140 170 100 97.000000 1.000000 4.000000 1.000000 -60.708740 114.000000 18.000000 0.455235 0.293650 0.840554
5.38000011 2.00999999 -0.31999999 140 170 100 97.000000 1.000000 4.000000 1.000000 -60.708740 114.000000 18.000000 0.455235 0.293650 0.840554
5.34000015 2.02999997 -0.31000000 140 170 100 97.000000 1.000000 4.000000 1.000000 -60.708740 114.000000 18.000000 0.371929 0.188118 0.909000
5.36999989 2.02999997 -0.31999999 140 170 100 97.000000 1.000000 4.000000 1.000000 -60.708740 114.000000 18.000000 0.382680 0.251646 0.888949
5.34000015 1.99000001 -0.28999999 140 170 100 97.000000 1.000000 4.000000 1.000000 -60.708740 114.000000 18.000000 0.541445 0.271507 0.795689
5.30999994 1.98000002 -0.34999999 140 170 100 97.000000 1.000000 4.000000 1.000000 -60.708740 114.000000 18.000000 0.878854 0.091401 0.468253
5.48000002 2.17000008 -0.38000000 140 170 100 97.000000 1.000000 4.000000 1.000000 -60.708740 114.000000 18.000000 0.662932 -0.199343 0.721653
5.51000023 2.21000004 -0.38000000 140 170 100 97.000000 1.000000 4.000000 1.000000 -60.708740 114.000000 18.000000 0.276444 -0.429175 0.859877
5.59000015 1.99000001 -0.44999999 140 170 100 97.000000 1.000000 4.000000 1.000000 -60.708740 114.000000 18.000000 0.736263 0.199115 0.646738
5.51999998 2.01999998 -0.38999999 140 170 100 97.000000 1.000000 4.000000 1.000000 -60.708740 114.000000 18.000000 0.497466 0.138590 0.856341
5.53000021 2.00000000 -0.38999999 140 170 100 97.000000 1.000000 4.000000 1.000000 -60.708740 114.000000 18.000000 0.531063 0.461142 0.710859
5.53000021 2.00999999 -0.41000000 140 170 100 97.000000 1.000000 4.000000 1.000000 -60.708740 114.000000 18.000000 0.287862 0.438720 0.851270
5.53999996 2.00999999 -0.41999999 140 170 100 97.000000 1.000000 4.000000 1.000000 -60.708740 114.000000 18.000000 0.570488 0.513271 0.641168
5.51000023 2.00000000 -0.40000001 140 170 100 97.000000 1.000000 4.000000 1.000000 -60.708740 114.000000 18.000000 0.465557 0.245753 0.850213
5.46000004 2.05999994 -0.38000000 140 170 100 97.000000 1.000000 4.000000 1.000000 -60.708740 114.000000 18.000000 0.805795 -0.029226 0.591473
5.46999979 2.00999999 -0.36000001 140 170 100 97.000000 1.000000 4.000000 1.000000 -60.708740 114.000000 18.000000 0.658032 0.155810 0.736693
5.50000000 1.98000002 -0.38999999 140 170 100 97.000000 1.000000 4.000000 1.000000 -60.708740 114.000000 18.000000 0.679964 -0.018151 0.733021
5.48000002 1.99000001 -0.37000000 140 170 100 97.000000 1.000000 4.000000 1.000000 -60.708740 114.000000 18.000000 0.678984 0.322477 0.659538
5.36000013 2.16000009 -0.40000001 140 170 100 97.000000 1.000000 4.000000 1.000000 -60.708740 114.000000 18.000000 0.581604 -0.148017 0.799892
5.36000013 2.16000009 -0.40000001 140 170 100 97.000000 1.000000 4.000000 1.000000 -60.708740 114.000000 18.000000 0.581604 -0.148017 0.799892
5.42000008 2.10999990 -0.38000000 140 170 100 97.000000 1.000000 4.000000 1.000000 -60.708740 114.000000 18.000000 0.705958 0.156373 0.690776
5.42000008 2.10999990 -0.37000000 140 170 100 97.000000 1.000000 4.000000 1.000000 -60.708740 114.000000 18.000000 0.246708 -0.315959 0.916136
5.42000008 2.10999990 -0.38000000 140 170 100 97.000000 1.000000 4.000000 1.000000 -60.708740 114.000000 18.000000 0.705958 0.156373 0.690776
5.42000008 2.09999990 -0.38000000 140 170 100 97.000000 1.000000 4.000000 1.000000 -60.708740 114.000000 18.000000 0.745524 0.152734 0.648742
5.44999981 2.09999990 -0.38999999 140 170 100 97.000000 1.000000 4.000000 1.000000 -60.708740 114.000000 18.000000 0.825626 -0.149709 0.543994
5.38000011 2.13000011 -0.37000000 140 170 100 97.000000 1.000000 4.000000 1.000000 -60.708740 114.000000 18.000000 0.731655 0.032424 0.680904
5.38000011 2.11999989 -0.37000000 140 170 100 97.000000 1.000000 4.000000 1.000000 -60.708740 114.000000 18.000000 0.780176 0.006904 0.625522
5.38999987 2.07999992 -0.37000000 140 170 100 97.000000 1.000000 4.000000 1.000000 -60.708740 114.000000 18.000000 0.571894 0.327027 0.752323
5.44999981 2.02999997 -0.37000000 140 170 100 97.000000 1.000000 4.000000 1.000000 -60.708740 114.000000 18.000000 0.406578 -0.128023 0.904602
5.44000006 2.01999998 -0.41000000 140 170 100 97.000000 1.000000 4.000000 1.000000 -60.708740 114.000000 18.000000 0.589296 0.518378 0.619689
5.40999985 2.03999996 -0.38000000 140 170 100 97.000000 1.000000 4.000000 1.000000 -60.708740 114.000000 18.000000 0.719456 -0.006931 0.694504
5.40999985 2.00999999 -0.37000000 140 170 100 97.000000 1.000000 4.000000 1.000000 -60.708740 114.000000 18.000000 0.718715 0.473057 0.509574
5.36000013 2.13000011 -0.41999999 140 170 100 97.000000 1.000000 4.000000 1.000000 -60.708740 114.000000 18.000000 0.362972 0.029709 0.931326
5.36000013 2.13000011 -0.41999999 140 170 100 97.000000 1.000000 4.000000 1.000000 -60.708740 114.000000 18.000000 0.362972 0.029709 0.931326
5.30000019 2.10999990 -0.37000000 140 170 100 97.000000 1.000000 4.000000 1.000000 -60.708740 114.000000 18.000000 0.560284 0.189798 0.806262
5.30000019 2.09999990 -0.46000001 140 170 100 97.000000 1.000000 4.000000 1.000000 -60.708740 114.000000 18.000000 0.753462 0.257472 0.604981
5.30999994 2.07999992 -0.47000000 140 170 100 97.000000 1.000000 4.000000 1.000000 -60.708740 114.000000 18.000000 0.867274 -0.153048 0.473721
5.34999990 2.04999995 -0.41999999 140 170 100 97.000000 1.000000 4.000000 1.000000 -60.708740 114.000000 18.000000 0.511000 0.197466 0.836592
5.36999989 1.98000002 -0.43000001 140 170 100 97.000000 1.000000 4.000000 1.000000 -60.708740 114.000000 18.000000 0.544372 0.425239 0.723071
5.32999992 2.03999996 -0.38000000 140 170 100 97.000000 1.000000 4.000000 1.000000 -60.708740 114.000000 18.000000 0.454815 0.387316 0.801953
5.32999992 2.02999997 -0.37000000 140 170 100 97.000000 1.000000 4.000000 1.000000 -60.708740 114.000000 18.000000 0.825682 -0.121295 0.550942
5.32000017 1.99000001 -0.36000001 140 170 100 97.000000 1.000000 4.000000 1.000000 -60.708740 114.000000 18.000000 0.752459 0.205497 0.625761
5.36999989 2.04999995 -0.49000001 140 170 100 97.000000 1.000000 4.000000 1.000000 -60.708740 114.000000 18.000000 0.364710 0.084785 0.927253
5.36999989 2.05999994 -0.49000001 140 170 100 97.000000 1.000000 4.000000 1.000000 -60.708740 114.000000 18.000000 0.585857 -0.049410 0.808907
5.51000023 1.89999998 -0.34999999 140 170 100 97.000000 1.000000 4.000000 1.000000 -60.708740 114.000000 18.000000 0.630526 0.676621 0.380291
5.46000004 1.94000006 -0.30000001 140 170 100 97.000000 1.000000 4.000000 1.000000 -60.708740 114.000000 18.000000 0.171303 0.777684 0.604866
5.46999979 1.89999998 -0.34999999 140 170 100 97.000000 1.000000 4.000000 1.000000 -60.708740 114.000000 18.000000 0.248702 0.505129 0.826433
5.46000004 1.92999995 -0.33000001 140 170 100 97.000000 1.000000 4.000000 1.000000 -60.708740 114.000000 18.000000 0.313824 0.524101 0.791728
5.50000000 1.90999997 -0.34999999 140 170 100 97.000000 1.000000 4.000000 1.000000 -60.708740 114.000000 18.000000 0.327969 0.788725 0.519951
5.51999998 1.87000000 -0.30000001 140 170 100 97.000000 1.000000 4.000000 1.000000 -60.708740 114.000000 18.000000 0.091898 0.774567 0.625780
5.51000023 1.88999999 -0.34000000 140 170 100 97.000000 1.000000 4.000000 1.000000 -60.708740 114.000000 18.000000 0.457496 0.457496 0.762493
5.53000021 1.85000002 -0.31999999 140 170 100 97.000000 1.000000 4.000000 1.000000 -60.708740 114.000000 18.000000 0.315778 0.804520 0.503023
5.46000004 1.86000001 -0.33000001 140 170 100 97.000000 1.000000 4.000000 1.000000 -60.708740 114.000000 18.000000 0.255192 0.884965 0.389504
5.48000002 1.88999999 -0.33000001 140 170 100 97.000000 1.000000 4.000000 1.000000 -60.708740 114.000000 18.000000 0.611959 0.520924 0.595101
5.46999979 1.87000000 -0.34999999 140 170 100 97.000000 1.000000 4.000000 1.000000 -60.708740 114.000000 18.000000 0.700955 0.598698 0.387587
5.46000004 1.88000000 -0.34999999 140 170 100 97.000000 1.000000 4.000000 1.000000 -60.708740 114.000000 18.000000 0.336584 0.606502 0.720323
5.40999985 1.82000005 -0.17000000 140 170 100 97.000000 1.000000 4.000000 1.000000 -60.708740 114.000000 18.000000 0.230734 0.897952 0.374759
5.34000015 1.84000003 -0.09000000 140 170 100 97.000000 1.000000 4.000000 1.000000 -60.708740 114.000000 18.000000 0.026279 0.952284 0.304080
5.30000019 1.87000000 -0.09000000 140 170 100 97.000000 1.000000 4.000000 1.000000 -60.708740 114.000000 18.000000 -0.014380 0.911166 0.411789
5.30000019 1.84000003 -0.10000000 140 170 100 97.000000 1.000000 4.000000 1.000000 -60.708740 114.000000 18.000000 0.159009 0.873818 0.459520
5.30999994 1.84000003 -0.10000000 140 170 100 97.000000 1.000000 4.000000 1.000000 -60.708740 114.000000 18.000000 0.017785 0.835896 0.548600
5.34000015 1.88000000 -0.12000000 140 170 100 97.000000 1.000000 4.000000 1.000000 -60.708740 114.000000 18.000000 0.003514 0.975710 0.219037
5.34000015 1.88000000 -0.12000000 140 170 100 97.000000 1.000000 4.000000 1.000000 -60.708740 114.000000 18.000000 0.003514 0.975710 0.219037
5.34000015 1.88000000 -0.16000000 140 170 100 97.000000 1.000000 4.000000 1.000000 -60.708740 114.000000 18.000000 0.432935 0.714923 0.549047
5.32000017 1.88999999 -0.13000000 140 170 100 97.000000 1.000000 4.000000 1.000000 -60.708740 114.000000 18.000000 0.445689 0.889982 0.096403
5.32999992 1.83000004 -0.12000000 140 170 100 97.000000 1.000000 4.000000 1.000000 -60.708740 114.000000 18.000000 0.234889 0.932525 0.274272
5.30999994 1.80999994 -0.17000000 140 170 100 97.000000 1.000000 4.000000 1.000000 -60.708740 114.000000 18.000000 0.421345 0.874179 0.241411
5.44000006 1.95000005 -0.30000001 140 170 100 97.000000 1.000000 4.000000 1.000000 -60.708740 114.000000 18.000000 0.155686 0.523403 0.837741
5.44000006 1.94000006 -0.28999999 140 170 100 97.000000 1.000000 4.000000 1.000000 -60.708740 114.000000 18.000000 0.411030 0.515834 0.751644
5.42999983 1.94000006 -0.33000001 140 170 100 97.000000 1.000000 4.000000 1.000000 -60.708740 114.000000 18.000000 0.726789 0.314244 0.610761
5.42000008 1.89999998 -0.34999999 140 170 100 97.000000 1.000000 4.000000 1.000000 -60.708740 114.000000 18.000000 0.485730 0.375997 0.789109
5.42000008 1.89999998 -0.34999999 140 170 100 97.000000 1.000000 4.000000 1.000000 -60.708740 114.000000 18.000000 0.485730 0.375997 0.789109
5.40999985 1.95000005 -0.28000000 140 170 100 97.000000 1.000000 4.000000 1.000000 -60.708740 114.000000 18.000000 0.263161 0.572021 0.776877
5.40000010 1.92999995 -0.31000000 140 170 100 97.000000 1.000000 4.000000 1.000000 -60.708740 114.000000 18.000000 0.305193 0.670134 0.676593
5.38999987 1.91999996 -0.34999999 140 170 100 97.000000 1.000000 4.000000 1.000000 -60.708740 114.000000 18.000000 0.817441 0.269366 0.509149
5.40000010 1.91999996 -0.34999999 140 170 100 97.000000 1.000000 4.000000 1.000000 -60.708740 114.000000 18.000000 0.439035 0.669402 0.599290
5.38999987 1.89999998 -0.33000001 140 170 100 97.000000 1.000000 4.000000 1.000000 -60.708740 114.000000 18.000000 0.349902 0.415803 0.839450
5.38000011 1.85000002 -0.25999999 140 170 100 97.000000 1.000000 4.000000 1.000000 -60.708740 114.000000 18.000000 0.258332 0.676736 0.689415
5.44000006 1.88999999 -0.30000001 140 170 100 97.000000 1.000000 4.000000 1.000000 -60.708740 114.000000 18.000000 0.553364 0.811095 0.189508
5.34999990 1.94000006 -0.23999999 140 170 100 97.000000 1.000000 4.000000 1.000000 -60.708740 114.000000 18.000000 0.422230 0.554694 0.716963
5.34000015 1.95000005 -0.23999999 140 170 100 97.000000 1.000000 4.000000 1.000000 -60.708740 114.000000 18.000000 0.442960 0.502241 0.742658
5.34999990 1.89999998 -0.27000001 140 170 100 97.000000 1.000000 4.000000 1.000000 -60.708740 114.000000 18.000000 0.302039 0.804909 0.510777
5.36999989 1.92999995 -0.23999999 140 170 100 97.000000 1.000000 4.000000 1.000000 -60.708740 114.000000 18.000000 0.642977 0.713178 0.279208
5.34000015 1.90999997 -0.23000000 140 170 100 97.000000 1.000000 4.000000 1.000000 -60.708740 114.000000 18.000000 0.361977 0.601111 0.712488
5.30999994 1.97000003 -0.25999999 140 170 100 97.000000 1.000000 4.000000 1.000000 -60.708740 114.000000 18.000000 0.569972 0.647313 0.506081
5.32999992 1.89999998 -0.20000000 140 170 100 97.000000 1.000000 4.000000 1.000000 -60.708740 114.000000 18.000000 0.761184 0.443615 0.473080
5.30999994 1.91999996 -0.27000001 140 170 100 97.000000 1.000000 4.000000 1.000000 -60.708740 114.000000 18.000000 0.222849 0.542523 0.809942
5.32000017 1.91999996 -0.27000001 140 170 100 97.000000 1.000000 4.000000 1.000000 -60.708740 114.000000 18.000000 0.269408 0.699823 0.661564
5.36999989 1.90999997 -0.31000000 140 170 100 97.000000 1.000000 4.000000 1.000000 -60.708740 114.000000 18.000000 0.684192 0.466723 0.560402
5.36000013 1.90999997 -0.28000000 140 170 100 97.000000 1.000000 4.000000 1.000000 -60.708740 114.000000 18.000000 0.687566 0.681244 0.251317
5.36000013 1.92999995 -0.33000001 140 170 100 97.000000 1.000000 4.000000 1.000000 -60.708740 114.000000 18.000000 0.657224 0.402281 0.637359
5.32999992 1.91999996 -0.28000000 140 170 100 97.000000 1.000000 4.000000 1.000000 -60.708740 114.000000 18.000000 0.405046 0.576984 0.709244
5.32999992 1.92999995 -0.31000000 140 170 100 97.000000 1.000000 4.000000 1.000000 -60.708740 114.000000 18.000000 0.453859 0.607936 0.651480
5.32999992 1.91999996 -0.28000000 140 170 100 97.000000 1.000000 4.000000 1.000000 -60.708740 114.000000 18.000000 0.405046 0.576984 0.709244
5.36999989 1.86000001 -0.20000000 140 170 100 97.000000 1.000000 4.000000 1.000000 -60.708740 114.000000 18.000000 0.701868 0.663844 0.258249
5.36999989 1.86000001 -0.27000001 140 170 100 97.000000 1.000000 4.000000 1.000000 -60.708740 114.000000 18.000000 0.505740 0.706033 0.495726
5.30000019 1.88999999 -0.20000000 140 170 100 97.000000 1.000000 4.000000 1.000000 -60.708740 114.000000 18.000000 0.339557 0.732727 0.589756
5.30000019 1.88000000 -0.19000000 140 170 100 97.000000 1.000000 4.000000 1.000000 -60.708740 114.000000 18.000000 0.210183 0.699052 0.683483
5.32000017 1.88999999 -0.25000000 140 170 100 97.000000 1.000000 4.000000 1.000000 -60.708740 114.000000 18.000000 0.275870 0.494072 0.824493
5.32000017 1.87000000 -0.23999999 140 170 100 97.000000 1.000000 4.000000 1.000000 -60.708740 114.000000 18.000000 0.741660 0.551743 0.381472
5.30999994 1.88999999 -0.25000000 140 170 100 97.000000 1.000000 4.000000 1.000000 -60.708740 114.000000 18.000000 0.388167 0.462257 0.797273
5.32999992 1.85000002 -0.28000000 140 170 100 97.000000 1.000000 4.000000 1.000000 -60.708740 114.000000 18.000000 0.429674 0.698427 0.572346
5.30999994 1.77999997 -0.10000000 140 170 100 97.000000 1.000000 4.000000 1.000000 -60.708740 114.000000 18.000000 0.025172 0.902207 0.430569
5.34999990 1.79999995 -0.18000001 140 170 100 97.000000 1.000000 4.000000 1.000000 -60.708740 114.000000 18.000000 0.207262 0.956078 0.207262
5.34000015 1.75999999 -0.12000000 140 170 100 97.000000 1.000000 4.000000 1.000000 -60.708740 114.000000 18.000000 -0.093197 0.993731 0.061757
5.34000015 1.75999999 -0.12000000 140 170 100 97.000000 1.000000 4.000000 1.000000 -60.708740 114.000000 18.000000 -0.093197 0.993731 0.061757
5.32000017 1.69000006 -0.08000000 140 170 100 97.000000 1.000000 4.000000 1.000000 -60.708740 114.000000 18.000000 -0.092485 0.992219 -0.083351
5.32999992 1.69000006 -0.08000000 140 170 100 97.000000 1.000000 4.000000 1.000000 -60.708740 114.000000 18.000000 -0.106601 0.991506 -0.074506
5.34000015 1.71000004 -0.14000000 140 170 100 97.000000 1.000000 4.000000 1.000000 -60.708740 114.000000 18.000000 -0.048766 0.926552 0.372993
5.42000008 1.77999997 -0.19000000 140 170 100 97.000000 1.000000 4.000000 1.000000 -60.708740 114.000000 18.000000 -0.007516 0.995395 0.095566
5.42000008 1.75999999 -0.23999999 140 170 100 97.000000 1.000000 4.000000 1.000000 -60.708740 114.000000 18.000000 0.114800 0.978888 0.169114
5.40000010 1.79999995 -0.31000000 140 170 100 97.000000 1.000000 4.000000 1.000000 -60.708740 114.000000 18.000000 0.378510 0.722610 0.578416
5.40999985 1.78999996 -0.30000001 140 170 100 97.000000 1.000000 4.000000 1.000000 -60.708740 114.000000 18.000000 0.175905 0.708210 0.683736
5.44999981 1.71000004 -0.34000000 140 170 100 97.000000 1.000000 4.000000 1.000000 -60.708740 114.000000 18.000000 0.410174 0.908923 0.074949
5.44999981 1.65999997 -0.31999999 140 170 100 97.000000 1.000000 4.000000 1.000000 -60.708740 114.000000 18.000000 0.167146 0.982435 0.082972
5.38999987 1.72000003 -0.34000000 140 170 100 97.000000 1.000000 4.000000 1.000000 -60.708740 114.000000 18.000000 0.020788 0.799661 0.600092
5.34999990 1.79999995 -0.20000000 140 170 100 97.000000 1.000000 4.000000 1.000000 -60.708740 114.000000 18.000000 0.209090 0.957551 0.198436
5.32999992 1.79999995 -0.20000000 140 170 100 97.000000 1.000000 4.000000 1.000000 -60.708740 114.000000 18.000000 0.128743 0.863587 0.487486
5.57999992 1.94000006 -0.40000001 140 170 100 97.000000 1.000000 4.000000 1.000000 -60.708740 114.000000 18.000000 0.447569 0.244266 0.860242
5.59999990 1.94000006 -0.44999999 140 170 100 97.000000 1.000000 4.000000 1.000000 -60.708740 114.000000 18.000000 0.448696 0.296543 0.843051
5.59000015 1.96000004 -0.44999999 140 170 100 97.000000 1.000000 4.000000 1.000000 -60.708740 114.000000 18.000000 0.585796 0.144586 0.797457
5.59000015 1.96000004 -0.44000000 140 170 100 97.000000 1.000000 4.000000 1.000000 -60.708740 114.000000 18.000000 0.519464 0.080680 0.850675
5.59999990 1.95000005 -0.46000001 140 170 100 97.000000 1.000000 4.000000 1.000000 -60.708740 114.000000 18.000000 0.635092 0.179050 0.751398
5.61999989 1.89999998 -0.46000001 140 170 100 97.000000 1.000000 4.000000 1.000000 -60.708740 114.000000 18.000000 0.315137 0.423805 0.849163
5.61999989 1.92999995 -0.44000000 140 170 100 97.000000 1.000000 4.000000 1.000000 -60.708740 114.000000 18.000000 0.453411 0.746891 0.486386
5.61999989 1.90999997 -0.44000000 140 170 100 97.000000 1.000000 4.000000 1.000000 -60.708740 114.000000 18.000000 0.526115 0.693136 0.492711
5.61999989 1.89999998 -0.51999998 140 170 100 97.000000 1.000000 4.000000 1.000000 -60.708740 114.000000 18.000000 0.579217 0.698712 0.419891
5.55000019 1.89999998 -0.46000001 140 170 100 97.000000 1.000000 4.000000 1.000000 -60.708740 114.000000 18.000000 0.533136 0.479655 0.696920
5.57000017 1.87000000 -0.40000001 140 170 100 97.000000 1.000000 4.000000 1.000000 -60.708740 114.000000 18.000000 0.051542 0.851147 0.522390
5.59999990 1.87000000 -0.47999999 140 170 100 97.000000 1.000000 4.000000 1.000000 -60.708740 114.000000 18.000000 0.533898 0.761088 0.368373
5.61999989 1.88999999 -0.46000001 140 170 100 97.000000 1.000000 4.000000 1.000000 -60.708740 114.000000 18.000000 0.600067 0.328338 0.729461
5.53000021 1.92999995 -0.38000000 140 170 100 97.000000 1.000000 4.000000 1.000000 -60.708740 114.000000 18.000000 0.402188 0.333863 0.852514
5.50000000 1.89999998 -0.38999999 140 170 100 97.000000 1.000000 4.000000 1.000000 -60.708740 114.000000 18.000000 0.600661 0.549901 0.580357
5.46999979 1.90999997 -0.38000000 140 170 100 97.000000 1.000000 4.000000 1.000000 -60.708740 114.000000 18.000000 0.493552 0.483582 0.722880
5.46999979 1.91999996 -0.40000001 140 170 100 97.000000 1.000000 4.000000 1.000000 -60.708740 114.000000 18.000000 0.676072 0.442368 0.589268
5.50000000 1.90999997 -0.41000000 140 170 100 97.000000 1.000000 4.000000 1.000000 -60.708740 114.000000 18.000000 0.273685 0.836517 0.474696
5.51999998 1.90999997 -0.44000000 140 170 100 97.000000 1.000000 4.000000 1.000000 -60.708740 114.000000 18.000000 0.713280 0.216950 0.666457
5.51999998 1.86000001 -0.38999999 140 170 100 97.000000 1.000000 4.000000 1.000000 -60.708740 114.000000 18.000000 0.232272 0.600167 0.765408
5.53000021 1.88999999 -0.41999999 140 170 100 97.000000 1.000000 4.000000 1.000000 -60.708740 114.000000 18.000000 0.198639 0.756059 0.623633
5.51999998 1.83000004 -0.37000000 140 170 100 97.000000 1.000000 4.000000 1.000000 -60.708740 114.000000 18.000000 0.500262 0.741313 0.447429
5.48999977 1.87000000 -0.37000000 140 170 100 97.000000 1.000000 4.000000 1.000000 -60.708740 114.000000 18.000000 0.647958 0.533514 0.543612
5.48000002 1.88999999 -0.41000000 140 170 100 97.000000 1.000000 4.000000 1.000000 -60.708740 114.000000 18.000000 0.523156 0.298721 0.798169
5.53999996 1.84000003 -0.46000001 140 170 100 97.000000 1.000000 4.000000 1.000000 -60.708740 114.000000 18.000000 0.785866 0.506233 0.355166
5.53999996 1.84000003 -0.49000001 140 170 100 97.000000 1.000000 4.000000 1.000000 -60.708740 114.000000 18.000000 0.637011 0.623635 0.453097
5.53999996 1.83000004 -0.44000000 140 170 100 97.000000 1.000000 4.000000 1.000000 -60.708740 114.000000 18.000000 0.416299 0.894539 0.162774
5.46000004 1.71000004 -0.36000001 140 170 100 97.000000 1.000000 4.000000 1.000000 -60.708740 114.000000 18.000000 0.083871 0.935898 0.342142
5.44000006 1.97000003 -0.43000001 140 170 100 97.000000 1.000000 4.000000 1.000000 -60.708740 114.000000 18.000000 0.595749 0.481634 0.642738
5.42000008 1.92999995 -0.38999999 140 170 100 97.000000 1.000000 4.000000 1.000000 -60.708740 114.000000 18.000000 0.467746 0.406243 0.784972
5.42000008 1.91999996 -0.38999999 140 170 100 97.000000 1.000000 4.000000 1.000000 -60.708740 114.000000 18.000000 0.517548 0.305464 0.799272
5.42999983 1.90999997 -0.40000001 140 170 100 97.000000 1.000000 4.000000 1.000000 -60.708740 114.000000 18.000000 0.701367 0.358041 0.616353
5.44000006 1.89999998 -0.40000001 140 170 100 97.000000 1.000000 4.000000 1.000000 -60.708740 114.000000 18.000000 0.601421 0.696989 0.390512
5.40999985 1.91999996 -0.38000000 140 170 100 97.000000 1.000000 4.000000 1.000000 -60.708740 114.000000 18.000000 0.447974 0.328514 0.831503
5.40000010 1.91999996 -0.37000000 140 170 100 97.000000 1.000000 4.000000 1.000000 -60.708740 114.000000 18.000000 0.740196 0.574262 0.349763
5.36000013 1.96000004 -0.38999999 140 170 100 97.000000 1.000000 4.000000 1.000000 -60.708740 114.000000 18.000000 0.814692 0.425680 0.393794
5.32999992 1.97000003 -0.37000000 140 170 100 97.000000 1.000000 4.000000 1.000000 -60.708740 114.000000 18.000000 0.537208 0.527104 0.658459
5.44999981 1.70000005 -0.37000000 140 170 100 97.000000 1.000000 4.000000 1.000000 -60.708740 114.000000 18.000000 0.166559 0.811786 0.559697
5.23999977 2.17000008 -0.27000001 140 170 100 97.000000 1.000000 4.000000 1.000000 -60.708740 114.000000 18.000000 -0.691265 0.438078 -0.574666
5.25000000 2.17000008 -0.33000001 140 170 100 97.000000 1.000000 4.000000 1.000000 -60.708740 114.000000 18.000000 0.803989 -0.425264 0.415635
5.23000002 2.00000000 -0.11000000 140 170 100 97.000000 1.000000 4.000000 1.000000 -60.708740 114.000000 18.000000 0.293039 0.603693 0.741406
5.19000006 2.06999993 -0.18000001 140 170 100 97.000000 1.000000 4.000000 1.000000 -60.708740 114.000000 18.000000 0.585884 0.242165 0.773367
5.17000008 2.09999990 -0.16000000 140 170 100 97.000000 1.000000 4.000000 1.000000 -60.708740 114.000000 18.000000 0.746591 -0.139704 0.650450
5.17999983 2.09999990 -0.16000000 140 170 100 97.000000 1.000000 4.000000 1.000000 -60.708740 114.000000 18.000000 0.494963 -0.095022 0.863703
5.15000010 2.10999990 -0.17000000 140 170 100 97.000000 1.000000 4.000000 1.000000 -60.708740 114.000000 18.000000 0.802743 -0.311914 0.508246
5.15999985 2.13000011 -0.18000001 140 170 100 97.000000 1.000000 4.000000 1.000000 -60.708740 114.000000 18.000000 0.470564 0.088494 0.877917
5.13999987 2.08999991 -0.16000000 140 170 100 97.000000 1.000000 4.000000 1.000000 -60.708740 114.000000 18.000000 0.335365 0.106401 0.936060
5.13999987 2.09999990 -0.17000000 140 170 100 97.000000 1.000000 4.000000 1.000000 -60.708740 114.000000 18.000000 0.743710 0.023810 0.668078
5.17000008 1.98000002 -0.12000000 140 170 100 97.000000 1.000000 4.000000 1.000000 -60.708740 114.000000 18.000000 0.508513 0.666270 0.545435
5.19000006 1.98000002 -0.11000000 140 170 100 97.000000 1.000000 4.000000 1.000000 -60.708740 114.000000 18.000000 0.757009 0.538860 0.369551
5.15000010 2.05999994 -0.17000000 140 170 100 97.000000 1.000000 4.000000 1.000000 -60.708740 114.000000 18.000000 0.328167 0.258158 0.908659
5.15999985 2.02999997 -0.17000000 140 170 100 97.000000 1.000000 4.000000 1.000000 -60.708740 114.000000 18.000000 0.564540 0.451299 0.691103
5.13000011 2.00000000 -0.15000001 140 170 100 97.000000 1.000000 4.000000 1.000000 -60.708740 114.000000 18.000000 0.824026 0.343212 0.450763
5.21000004 2.07999992 -0.20999999 140 170 100 97.000000 1.000000 4.000000 1.000000 -60.708740 114.000000 18.000000 0.664686 0.152923 0.731305
5.21000004 2.10999990 -0.34000000 140 170 100 97.000000 1.000000 4.000000 1.000000 -60.708740 114.000000 18.000000 0.851449 -0.219290 0.476388
5.26000023 2.01999998 -0.19000000 140 170 100 97.000000 1.000000 4.000000 1.000000 -60.708740 114.000000 18.000000 0.271803 0.417575 0.867038
5.25000000 2.02999997 -0.20999999 140 170 100 97.000000 1.000000 4.000000 1.000000 -60.708740 114.000000 18.000000 0.790593 0.378390 0.481440
5.26000023 1.99000001 -0.22000000 140 170 100 97.000000 1.000000 4.000000 1.000000 -60.708740 114.000000 18.000000 0.214952 0.425457 0.879080
5.23000002 2.05999994 -0.23999999 140 170 100 97.000000 1.000000 4.000000 1.000000 -60.708740 114.000000 18.000000 0.301050 -0.082105 0.950067
5.26999998 2.03999996 -0.28999999 140 170 100 97.000000 1.000000 4.000000 1.000000 -60.708740 114.000000 18.000000 0.647269 0.482510 0.590108
5.28999996 2.03999996 -0.33000001 140 170 100 97.000000 1.000000 4.000000 1.000000 -60.708740 114.000000 18.000000 0.701102 0.376001 0.605870
5.28999996 2.01999998 -0.33000001 140 170 100 97.000000 1.000000 4.000000 1.000000 -60.708740 114.000000 18.000000 0.766853 0.142566 0.625788
5.25000000 2.00000000 -0.30000001 140 170 100 97.000000 1.000000 4.000000 1.000000 -60.708740 114.000000 18.000000 0.483809 0.557468 0.674654
5.21999979 2.00000000 -0.30000001 140 170 100 97.000000 1.000000 4.000000 1.000000 -60.708740 114.000000 18.000000 0.799801 0.308834 0.514723
5.23000002 2.00000000 -0.28999999 140 170 100 97.000000 1.000000 4.000000 1.000000 -60.708740 114.000000 18.000000 0.426054 0.290701 0.856721
5.19999981 2.11999989 -0.25999999 140 170 100 97.000000 1.000000 4.000000 1.000000 -60.708740 114.000000 18.000000 0.817133 0.090793 0.569255
5.17999983 2.08999991 -0.19000000 140 170 100 97.000000 1.000000 4.000000 1.000000 -60.708740 114.000000 18.000000 0.780991 -0.037994 0.623386
5.19000006 2.05999994 -0.20999999 140 170 100 97.000000 1.000000 4.000000 1.000000 -60.708740 114.000000 18.000000 0.752729 0.306549 0.582603
5.19000006 2.02999997 -0.20999999 140 170 100 97.000000 1.000000 4.000000 1.000000 -60.708740 114.000000 18.000000 0.851533 0.071782 0.519365
5.17999983 2.00000000 -0.25999999 140 170 100 97.000000 1.000000 4.000000 1.000000 -60.708740 114.000000 18.000000 0.337855 0.507583 0.792599
5.17000008 2.00999999 -0.25999999 140 170 100 97.000000 1.000000 4.000000 1.000000 -60.708740 114.000000 18.000000 0.803946 0.106512 0.585086
5.13000011 1.98000002 -0.23000000 140 170 100 97.000000 1.000000 4.000000 1.000000 -60.708740 114.000000 18.000000 0.506907 0.564166 0.651738
5.15000010 2.03999996 -0.28000000 140 170 100 97.000000 1.000000 4.000000 1.000000 -60.708740 114.000000 18.000000 0.818325 0.103199 0.565415
5.15000010 2.03999996 -0.28000000 140 170 100 97.000000 1.000000 4.000000 1.000000 -60.708740 114.000000 18.000000 0.818325 0.103199 0.565415
4.96999979 2.23000002 -0.34999999 140 170 100 97.000000 1.000000 4.000000 1.000000 -60.708740 114.000000 18.000000 0.279992 -0.086449 0.956102
5.09999990 2.07999992 -0.07000000 140 170 100 97.000000 1.000000 4.000000 1.000000 -60.708740 114.000000 18.000000 0.564955 0.241234 0.789070
5.05999994 2.08999991 -0.12000000 140 170 100 97.000000 1.000000 4.000000 1.000000 -60.708740 114.000000 18.000000 0.238347 0.003557 0.971174
5.09999990 2.04999995 -0.05000000 140 170 100 97.000000 1.000000 4.000000 1.000000 -60.708740 114.000000 18.000000 0.390095 0.241770 0.888467
5.11000013 2.05999994 -0.06000000 140 170 100 97.000000 1.000000 4.000000 1.000000 -60.708740 114.000000 18.000000 0.526114 0.126792 0.840909
5.09000015 2.01999998 -0.10000000 140 170 100 97.000000 1.000000 4.000000 1.000000 -60.708740 114.000000 18.000000 0.499040 0.446336 0.742795
5.09000015 2.03999996 -0.10000000 140 170 100 97.000000 1.000000 4.000000 1.000000 -60.708740 114.000000 18.000000 0.535454 0.357508 0.765165
5.11000013 1.99000001 -0.08000000 140 170 100 97.000000 1.000000 4.000000 1.000000 -60.708740 114.000000 18.000000 0.354844 0.502562 0.788364
5.09999990 2.00999999 -0.09000000 140 170 100 97.000000 1.000000 4.000000 1.000000 -60.708740 114.000000 18.000000 0.722656 0.470142 0.506690
5.07999992 2.03999996 -0.04000000 140 170 100 97.000000 1.000000 4.000000 1.000000 -60.708740 114.000000 18.000000 0.505820 0.462701 0.728049
4.98000002 1.98000002 -0.04000000 140 170 100 97.000000 1.000000 4.000000 1.000000 -60.708740 114.000000 18.000000 0.621996 0.648677 0.438565
5.01000023 2.00999999 -0.18000001 140 170 100 97.000000 1.000000 4.000000 1.000000 -60.708740 114.000000 18.000000 0.410570 0.545777 0.730451
4.96000004 2.01999998 -0.12000000 140 170 100 97.000000 1.000000 4.000000 1.000000 -60.708740 114.000000 18.000000 0.369941 0.333100 0.867288
5.15999985 2.24000001 -0.43000001 140 170 100 97.000000 1.000000 4.000000 1.000000 -60.708740 114.000000 18.000000 0.757295 -0.448463 0.474747
5.19999981 2.28999996 -0.44000000 140 170 100 97.000000 1.000000 4.000000 1.000000 -60.708740 114.000000 18.000000 0.563584 -0.084609 0.821714
5.19000006 2.25000000 -0.44999999 140 170 100 97.000000 1.000000 4.000000 1.000000 -60.708740 114.000000 18.000000 0.546152 -0.420751 0.724352
5.19000006 2.24000001 -0.46000001 140 170 100 97.000000 1.000000 4.000000 1.000000 -60.708740 114.000000 18.000000 0.510097 -0.245031 0.824476
5.19000006 2.25000000 -0.46000001 140 170 100 97.000000 1.000000 4.000000 1.000000 -60.708740 114.000000 18.000000 -0.532214 0.572763 -0.623450
5.17000008 2.19000006 -0.41000000 140 170 100 97.000000 1.000000 4.000000 1.000000 -60.708740 114.000000 18.000000 0.453908 0.036367 0.890306
5.15999985 2.19000006 -0.40000001 140 170 100 97.000000 1.000000 4.000000 1.000000 -60.708740 114.000000 18.000000 0.776175 0.061465 0.627515
5.21999979 2.25999999 -0.52999997 140 170 100 97.000000 1.000000 4.000000 1.000000 -60.708740 114.000000 18.000000 0.268750 -0.554788 0.787390
5.26999998 2.20000005 -0.57999998 140 170 100 97.000000 1.000000 4.000000 1.000000 -60.708740 114.000000 18.000000 0.393065 0.051965 0.918041
5.21999979 2.21000004 -0.55000001 140 170 100 97.000000 1.000000 4.000000 1.000000 -60.708740 114.000000 18.000000 0.670902 0.076799 0.737558
5.21999979 2.20000005 -0.58999997 140 170 100 97.000000 1.000000 4.000000 1.000000 -60.708740 114.000000 18.000000 0.384269 0.057175 0.921449
5.19999981 2.24000001 -0.52999997 140 170 100 97.000000 1.000000 4.000000 1.000000 -60.708740 114.000000 18.000000 0.479521 -0.404749 0.778613
5.28999996 2.13000011 -0.36000001 140 170 100 97.000000 1.000000 4.000000 1.000000 -60.708740 114.000000 18.000000 0.468968 -0.156323 0.869271
5.28999996 2.06999993 -0.44000000 140 170 100 97.000000 1.000000 4.000000 1.000000 -60.708740 114.000000 18.000000 0.344872 -0.008843 0.938608
5.26999998 2.05999994 -0.44000000 140 170 100 97.000000 1.000000 4.000000 1.000000 -60.708740 114.000000 18.000000 0.521355 0.060103 0.851221
5.26999998 2.02999997 -0.44000000 140 170 100 97.000000 1.000000 4.000000 1.000000 -60.708740 114.000000 18.000000 0.764354 0.171714 0.621512
5.17999983 2.08999991 -0.41000000 140 170 100 97.000000 1.000000 4.000000 1.000000 -60.708740 114.000000 18.000000 0.866191 0.025836 0.499045
5.26999998 2.13000011 -0.55000001 140 170 100 97.000000 1.000000 4.000000 1.000000 -60.708740 114.000000 18.000000 0.491395 0.210166 0.845199
5.03999996 2.27999997 -0.38000000 140 170 100 97.000000 1.000000 4.000000 1.000000 -60.708740 114.000000 18.000000 0.487845 -0.209939 0.847309
5.07000017 2.29999995 -0.41000000 140 170 100 97.000000 1.000000 4.000000 1.000000 -60.708740 114.000000 18.000000 0.575362 -0.103420 0.811334
5.07000017 2.28999996 -0.43000001 140 170 100 97.000000 1.000000 4.000000 1.000000 -60.708740 114.000000 18.000000 0.378429 -0.561909 0.735561
5.07000017 2.30999994 -0.41999999 140 170 100 97.000000 1.000000 4.000000 1.000000 -60.708740 114.000000 18.000000 0.257780 -0.232699 0.937763
5.07999992 2.25999999 -0.38999999 140 170 100 97.000000 1.000000 4.000000 1.000000 -60.708740 114.000000 18.000000 0.456351 -0.479416 0.749602
5.07999992 2.23000002 -0.41999999 140 170 100 97.000000 1.000000 4.000000 1.000000 -60.708740 114.000000 18.000000 0.309854 -0.576361 0.756173
5.09999990 2.28999996 -0.46000001 140 170 100 97.000000 1.000000 4.000000 1.000000 -60.708740 114.000000 18.000000 0.770877 -0.360389 0.525231
5.11000013 2.27999997 -0.44000000 140 170 100 97.000000 1.000000 4.000000 1.000000 -60.708740 114.000000 18.000000 0.191731 -0.520844 0.831841
5.11999989 2.27999997 -0.44999999 140 170 100 97.000000 1.000000 4.000000 1.000000 -60.708740 114.000000 18.000000 0.212718 -0.622627 0.753052
5.05000019 2.26999998 -0.46000001 140 170 100 97.000000 1.000000 4.000000 1.000000 -60.708740 114.000000 18.000000 0.278488 -0.355928 0.892054
5.07000017 2.24000001 -0.44000000 140 170 100 97.000000 1.000000 4.000000 1.000000 -60.708740 114.000000 18.000000 0.701261 -0.023891 0.712504
5.07999992 2.25000000 -0.44000000 140 170 100 97.000000 1.000000 4.000000 1.000000 -60.708740 114.000000 18.000000 -0.471082 0.575022 -0.668903
5.11000013 2.17000008 -0.38000000 140 170 100 97.000000 1.000000 4.000000 1.000000 -60.708740 114.000000 18.000000 0.544338 0.137191 0.827571
5.11999989 2.16000009 -0.38999999 140 170 100 97.000000 1.000000 4.000000 1.000000 -60.708740 114.000000 18.000000 0.279992 -0.086449 0.956102
5.09000015 2.17000008 -0.41999999 140 170 100 97.000000 1.000000 4.000000 1.000000 -60.708740 114.000000 18.000000 0.848529 -0.126624 0.513775
5.05999994 2.19000006 -0.44000000 140 170 100 97.000000 1.000000 4.000000 1.000000 -60.708740 114.000000 18.000000 0.646240 0.015287 0.762981
5.07000017 2.15000010 -0.50000000 140 170 100 97.000000 1.000000 4.000000 1.000000 -60.708740 114.000000 18.000000 0.435297 0.199204 0.877972
5.03000021 2.25000000 -0.38999999 140 170 100 97.000000 1.000000 4.000000 1.000000 -60.708740 114.000000 18.000000 0.639475 -0.599193 0.481704
4.98999977 2.28999996 -0.38999999 140 170 100 97.000000 1.000000 4.000000 1.000000 -60.708740 114.000000 18.000000 0.486857 -0.680931 0.547087
4.98000002 2.28999996 -0.37000000 140 170 100 97.000000 1.000000 4.000000 1.000000 -60.708740 114.000000 18.000000 0.304814 -0.500654 0.810206
5.00000000 2.19000006 -0.36000001 140 170 100 97.000000 1.000000 4.000000 1.000000 -60.708740 114.000000 18.000000 0.605122 0.091421 0.790866
5.01999998 2.21000004 -0.37000000 140 170 100 97.000000 1.000000 4.000000 1.000000 -60.708740 114.000000 18.000000 0.622889 -0.043786 0.781084
4.96000004 2.16000009 -0.37000000 140 170 100 97.000000 1.000000 4.000000 1.000000 -60.708740 114.000000 18.000000 0.419586 0.083917 0.903829
4.96000004 2.15000010 -0.37000000 140 170 100 97.000000 1.000000 4.000000 1.000000 -60.708740 114.000000 18.000000 0.568258 0.200652 0.798011
4.96999979 2.16000009 -0.40000001 140 170 100 97.000000 1.000000 4.000000 1.000000 -60.708740 114.000000 18.000000 0.770792 -0.384585 0.507911
4.98999977 2.16000009 -0.41000000 140 170 100 97.000000 1.000000 4.000000 1.000000 -60.708740 114.000000 18.000000 0.553282 -0.040416 0.832013
5.11000013 2.14000010 -0.38000000 140 170 100 97.000000 1.000000 4.000000 1.000000 -60.708740 114.000000 18.000000 0.874360 -0.100615 0.474733
5.09999990 2.13000011 -0.41999999 140 170 100 97.000000 1.000000 4.000000 1.000000 -60.708740 114.000000 18.000000 0.874830 -0.134035 0.465519
5.05999994 2.13000011 -0.44999999 140 170 100 97.000000 1.000000 4.000000 1.000000 -60.708740 114.000000 18.000000 0.287344 0.076024 0.954806
4.98000002 2.13000011 -0.41000000 140 170 100 97.000000 1.000000 4.000000 1.000000 -60.708740 114.000000 18.000000 0.886637 -0.044807 0.460291
4.98000002 2.14000010 -0.41999999 140 170 100 97.000000 1.000000 4.000000 1.000000 -60.708740 114.000000 18.000000 0.588841 -0.448721 0.672247
4.96999979 2.06999993 -0.41000000 140 170 100 97.000000 1.000000 4.000000 1.000000 -60.708740 114.000000 18.000000 0.800640 -0.100627 0.590636
4.98000002 2.06999993 -0.43000001 140 170 100 97.000000 1.000000 4.000000 1.000000 -60.708740 114.000000 18.000000 0.720857 -0.012549 0.692971
4.98000002 2.10999990 -0.44999999 140 170 100 97.000000 1.000000 4.000000 1.000000 -60.708740 114.000000 18.000000 0.574670 0.063852 0.815890
4.96000004 2.00000000 -0.41000000 140 170 100 97.000000 1.000000 4.000000 1.000000 -60.708740 114.000000 18.000000 0.383784 0.278432 0.880446
4.96000004 2.01999998 -0.41999999 140 170 100 97.000000 1.000000 4.000000 1.000000 -60.708740 114.000000 18.000000 0.639492 0.192618 0.744277
5.26999998 1.94000006 -0.07000000 140 170 100 97.000000 1.000000 4.000000 1.000000 -60.708740 114.000000 18.000000 0.405180 0.523289 0.749665
5.26000023 1.95000005 -0.17000000 140 170 100 97.000000 1.000000 4.000000 1.000000 -60.708740 114.000000 18.000000 0.790203 0.289794 0.539999
5.26000023 1.95000005 -0.17000000 140 170 100 97.000000 1.000000 4.000000 1.000000 -60.708740 114.000000 18.000000 0.790203 0.289794 0.539999
5.25000000 1.91999996 -0.14000000 140 170 100 97.000000 1.000000 4.000000 1.000000 -60.708740 114.000000 18.000000 0.629562 0.518165 0.578927
5.21999979 1.96000004 -0.11000000 140 170 100 97.000000 1.000000 4.000000 1.000000 -60.708740 114.000000 18.000000 0.226847 0.494800 0.838876
5.21000004 1.95000005 -0.13000000 140 170 100 97.000000 1.000000 4.000000 1.000000 -60.708740 114.000000 18.000000 0.744041 0.585872 0.321180
5.21000004 1.92999995 -0.14000000 140 170 100 97.000000 1.000000 4.000000 1.000000 -60.708740 114.000000 18.000000 0.348922 0.572881 0.741661
5.21000004 1.92999995 -0.14000000 140 170 100 97.000000 1.000000 4.000000 1.000000 -60.708740 114.000000 18.000000 0.348922 0.572881 0.741661
5.21999979 1.92999995 -0.17000000 140 170 100 97.000000 1.000000 4.000000 1.000000 -60.708740 114.000000 18.000000 0.169627 0.701429 0.692260
5.25000000 1.88999999 -0.03000000 140 170 100 97.000000 1.000000 4.000000 1.000000 -60.708740 114.000000 18.000000 0.100385 0.878013 0.467991
5.25000000 1.86000001 -0.03000000 140 170 100 97.000000 1.000000 4.000000 1.000000 -60.708740 114.000000 18.000000 0.066799 0.822906 0.564238
5.26000023 1.86000001 -0.07000000 140 170 100 97.000000 1.000000 4.000000 1.000000 -60.708740 114.000000 18.000000 0.058022 0.819378 0.570310
5.28999996 1.82000005 -0.10000000 140 170 100 97.000000 1.000000 4.000000 1.000000 -60.708740 114.000000 18.000000 0.071679 0.858740 0.507373
5.28999996 1.82000005 -0.10000000 140 170 100 97.000000 1.000000 4.000000 1.000000 -60.708740 114.000000 18.000000 0.071679 0.858740 0.507373
5.28999996 1.82000005 -0.10000000 140 170 100 97.000000 1.000000 4.000000 1.000000 -60.708740 114.000000 18.000000 0.071679 0.858740 0.507373
5.28999996 1.82000005 -0.10000000 140 170 100 97.000000 1.000000 4.000000 1.000000 -60.708740 114.000000 18.000000 0.071679 0.858740 0.507373
5.23999977 1.87000000 -0.05000000 140 170 100 97.000000 1.000000 4.000000 1.000000 -60.708740 114.000000 18.000000 0.400595 0.911935 0.088869
5.21000004 1.88000000 -0.10000000 140 170 100 97.000000 1.000000 4.000000 1.000000 -60.708740 114.000000 18.000000 0.612514 0.761378 0.212441
5.28000021 1.87000000 -0.12000000 140 170 100 97.000000 1.000000 4.000000 1.000000 -60.708740 114.000000 18.000000 0.507138 0.807313 0.301755
5.28999996 1.88000000 -0.16000000 140 170 100 97.000000 1.000000 4.000000 1.000000 -60.708740 114.000000 18.000000 0.234710 0.858584 0.455791
5.28999996 1.88000000 -0.16000000 140 170 100 97.000000 1.000000 4.000000 1.000000 -60.708740 114.000000 18.000000 0.234710 0.858584 0.455791
5.26999998 1.84000003 -0.15000001 140 170 100 97.000000 1.000000 4.000000 1.000000 -60.708740 114.000000 18.000000 0.317771 0.939791 0.125756
5.19000006 1.97000003 -0.09000000 140 170 100 97.000000 1.000000 4.000000 1.000000 -60.708740 114.000000 18.000000 0.504583 0.524699 0.685629
5.13000011 1.90999997 -0.08000000 140 170 100 97.000000 1.000000 4.000000 1.000000 -60.708740 114.000000 18.000000 0.323550 0.561786 0.761388
5.15000010 1.92999995 -0.07000000 140 170 100 97.000000 1.000000 4.000000 1.000000 -60.708740 114.000000 18.000000 0.284575 0.767876 0.573920
5.13000011 1.94000006 -0.14000000 140 170 100 97.000000 1.000000 4.000000 1.000000 -60.708740 114.000000 18.000000 0.199420 0.487303 0.850157
5.26999998 1.94000006 -0.27000001 140 170 100 97.000000 1.000000 4.000000 1.000000 -60.708740 114.000000 18.000000 0.284444 0.513885 0.809329
5.28000021 1.91999996 -0.19000000 140 170 100 97.000000 1.000000 4.000000 1.000000 -60.708740 114.000000 18.000000 0.139099 0.629685 0.764296
5.28999996 1.90999997 -0.20999999 140 170 100 97.000000 1.000000 4.000000 1.000000 -60.708740 114.000000 18.000000 0.605251 0.716186 0.347489
5.28000021 1.91999996 -0.25000000 140 170 100 97.000000 1.000000 4.000000 1.000000 -60.708740 114.000000 18.000000 0.480317 0.805847 0.346275
5.21000004 1.95000005 -0.23999999 140 170 100 97.000000 1.000000 4.000000 1.000000 -60.708740 114.000000 18.000000 0.403449 0.302203 0.863656
5.21000004 1.96000004 -0.27000001 140 170 100 97.000000 1.000000 4.000000 1.000000 -60.708740 114.000000 18.000000 0.492431 0.522478 0.696081
5.21999979 1.95000005 -0.23999999 140 170 100 97.000000 1.000000 4.000000 1.000000 -60.708740 114.000000 18.000000 0.329326 0.501148 0.800247
5.21000004 1.94000006 -0.23999999 140 170 100 97.000000 1.000000 4.000000 1.000000 -60.708740 114.000000 18.000000 0.227708 0.316500 0.920857
5.26999998 1.92999995 -0.28999999 140 170 100 97.000000 1.000000 4.000000 1.000000 -60.708740 114.000000 18.000000 0.370321 0.643535 0.669869
5.26000023 1.88999999 -0.23000000 140 170 100 97.000000 1.000000 4.000000 1.000000 -60.708740 114.000000 18.000000 0.755895 0.520801 0.396723
5.21000004 1.87000000 -0.23999999 140 170 100 97.000000 1.000000 4.000000 1.000000 -60.708740 114.000000 18.000000 0.472606 0.686364 0.552765
5.17000008 1.94000006 -0.22000000 140 170 100 97.000000 1.000000 4.000000 1.000000 -60.708740 114.000000 18.000000 0.766744 0.398837 0.503023
5.17000008 1.94000006 -0.22000000 140 170 100 97.000000 1.000000 4.000000 1.000000 -60.708740 114.000000 18.000000 0.766744 0.398837 0.503023
5.15999985 1.94000006 -0.20999999 140 170 100 97.000000 1.000000 4.000000 1.000000 -60.708740 114.000000 18.000000 0.845689 0.354846 0.398615
5.15999985 1.97000003 -0.27000001 140 170 100 97.000000 1.000000 4.000000 1.000000 -60.708740 114.000000 18.000000 0.507733 0.422289 0.750919
5.15000010 1.97000003 -0.25999999 140 170 100 97.000000 1.000000 4.000000 1.000000 -60.708740 114.000000 18.000000 0.823128 0.345998 0.450272
5.15000010 1.92999995 -0.23000000 140 170 100 97.000000 1.000000 4.000000 1.000000 -60.708740 114.000000 18.000000 0.264974 0.550330 0.791786
5.28999996 1.77999997 -0.10000000 140 170 100 97.000000 1.000000 4.000000 1.000000 -60.708740 114.000000 18.000000 0.135253 0.798144 0.587089
5.26999998 1.79999995 -0.19000000 140 170 100 97.000000 1.000000 4.000000 1.000000 -60.708740 114.000000 18.000000 0.461010 0.843386 0.275989
5.07999992 1.96000004 -0.07000000 140 170 100 97.000000 1.000000 4.000000 1.000000 -60.708740 114.000000 18.000000 0.628760 0.568076 0.530990
5.05999994 1.91999996 -0.07000000 140 170 100 97.000000 1.000000 4.000000 1.000000 -60.708740 114.000000 18.000000 0.648148 0.667839 0.365917
5.09999990 1.97000003 -0.12000000 140 170 100 97.000000 1.000000 4.000000 1.000000 -60.708740 114.000000 18.000000 0.337571 0.647419 0.683296
5.11999989 1.92999995 -0.14000000 140 170 100 97.000000 1.000000 4.000000 1.000000 -60.708740 114.000000 18.000000 0.315840 0.761544 0.565947
5.09999990 1.92999995 -0.12000000 140 170 100 97.000000 1.000000 4.000000 1.000000 -60.708740 114.000000 18.000000 0.351778 0.785477 0.509194
5.07000017 1.96000004 -0.18000001 140 170 100 97.000000 1.000000 4.000000 1.000000 -60.708740 114.000000 18.000000 0.273064 0.467448 0.840790
5.07000017 1.95000005 -0.18000001 140 170 100 97.000000 1.000000 4.000000 1.000000 -60.708740 114.000000 18.000000 0.391380 0.658905 0.642391
5.00000000 1.96000004 -0.05000000 140 170 100 97.000000 1.000000 4.000000 1.000000 -60.708740 114.000000 18.000000 0.297357 0.505035 0.810258
5.00000000 1.96000004 -0.05000000 140 170 100 97.000000 1.000000 4.000000 1.000000 -60.708740 114.000000 18.000000 0.297357 0.505035 0.810258
5.01000023 1.92999995 -0.03000000 140 170 100 97.000000 1.000000 4.000000 1.000000 -60.708740 114.000000 18.000000 0.248970 0.462810 0.850776
4.96999979 1.97000003 -0.13000000 140 170 100 97.000000 1.000000 4.000000 1.000000 -60.708740 114.000000 18.000000 0.370096 0.411043 0.833110
5.11000013 1.94000006 -0.20999999 140 170 100 97.000000 1.000000 4.000000 1.000000 -60.708740 114.000000 18.000000 0.613409 0.489047 0.620131
5.09999990 1.97000003 -0.25000000 140 170 100 97.000000 1.000000 4.000000 1.000000 -60.708740 114.000000 18.000000 0.531450 0.551695 0.642801
4.88000011 2.32999992 -0.23999999 140 170 100 97.000000 1.000000 4.000000 1.000000 -60.708740 114.000000 18.000000 0.700768 -0.354468 0.619093
4.88999987 2.32999992 -0.28000000 140 170 100 97.000000 1.000000 4.000000 1.000000 -60.708740 114.000000 18.000000 0.707313 -0.262262 0.656450
4.94999981 2.28999996 -0.10000000 140 170 100 97.000000 1.000000 4.000000 1.000000 -60.708740 114.000000 18.000000 0.797924 -0.497303 0.340597
4.94000006 2.27999997 -0.33000001 140 170 100 97.000000 1.000000 4.000000 1.000000 -60.708740 114.000000 18.000000 0.808671 -0.328870 0.487745
4.92999983 2.24000001 -0.31000000 140 170 100 97.000000 1.000000 4.000000 1.000000 -60.708740 114.000000 18.000000 0.287045 -0.553473 0.781840
4.94000006 2.26999998 -0.28000000 140 170 100 97.000000 1.000000 4.000000 1.000000 -60.708740 114.000000 18.000000 0.803542 -0.444274 0.396158
4.88999987 2.30999994 -0.30000001 140 170 100 97.000000 1.000000 4.000000 1.000000 -60.708740 114.000000 18.000000 -0.405370 0.683338 -0.607227
4.88999987 2.24000001 -0.31000000 140 170 100 97.000000 1.000000 4.000000 1.000000 -60.708740 114.000000 18.000000 0.431157 -0.614274 0.660886
4.88000011 2.23000002 -0.30000001 140 170 100 97.000000 1.000000 4.000000 1.000000 -60.708740 114.000000 18.000000 0.678943 -0.348470 0.646223
4.88999987 2.24000001 -0.31000000 140 170 100 97.000000 1.000000 4.000000 1.000000 -60.708740 114.000000 18.000000 0.431157 -0.614274 0.660886
4.88999987 2.26999998 -0.31000000 140 170 100 97.000000 1.000000 4.000000 1.000000 -60.708740 114.000000 18.000000 0.534542 -0.195343 0.822256
4.88999987 2.24000001 -0.31000000 140 170 100 97.000000 1.000000 4.000000 1.000000 -60.708740 114.000000 18.000000 0.431157 -0.614274 0.660886
4.90000010 2.25999999 -0.34999999 140 170 100 97.000000 1.000000 4.000000 1.000000 -60.708740 114.000000 18.000000 0.453951 0.033676 0.890390
