//X Y Z R G B PointSourceId ScanDirectionFlag NumberOfReturns ReturnNumber GpsTime Intensity Classification Nx Ny Nz
-6.78999996 6.23000002 -0.94000000 192 213 53 97.000000 1.000000 4.000000 1.000000 -60.708740 114.000000 228.000000 0.957803 0.107867 0.266417
-6.75000000 6.19999981 -0.97000003 192 213 53 97.000000 1.000000 4.000000 1.000000 -60.708740 114.000000 228.000000 0.862705 0.441207 -0.247137
-6.76000023 6.19000006 -0.99000001 192 213 53 97.000000 1.000000 4.000000 1.000000 -60.708740 114.000000 228.000000 0.656191 0.659480 0.366743
-6.69999981 6.11000013 -0.69999999 192 213 53 97.000000 1.000000 4.000000 1.000000 -60.708740 114.000000 228.000000 0.905098 0.284039 0.316416
-6.69999981 6.13999987 -0.79000002 192 213 53 97.000000 1.000000 4.000000 1.000000 -60.708740 114.000000 228.000000 0.608552 0.718903 0.335921
-6.73999977 6.17000008 -0.98000002 192 213 53 97.000000 1.000000 4.000000 1.000000 -60.708740 114.000000 228.000000 0.908999 0.264091 0.322454
-6.53999996 6.19000006 -1.03999996 192 213 53 97.000000 1.000000 4.000000 1.000000 -60.708740 114.000000 228.000000 -0.012186 0.851642 0.523983
-6.55999994 6.32000017 -1.02999997 192 213 53 97.000000 1.000000 4.000000 1.000000 -60.708740 114.000000 228.000000 0.937254 0.271567 0.218646
-6.55000019 6.30999994 -1.09000003 192 213 53 97.000000 1.000000 4.000000 1.000000 -60.708740 114.000000 228.000000 0.462541 0.836312 0.294344
-6.55000019 6.19000006 -1.03999996 192 213 53 97.000000 1.000000 4.000000 1.000000 -60.708740 114.000000 228.000000 -0.048004 0.873667 0.484151
-6.55999994 6.19000006 -1.04999995 192 213 53 97.000000 1.000000 4.000000 1.000000 -60.708740 114.000000 228.000000 0.194980 0.938947 0.283482
-6.55000019 6.17999983 -1.02999997 192 213 53 97.000000 1.000000 4.000000 1.000000 -60.708740 114.000000 228.000000 0.222994 0.887544 0.403161
-6.55000019 6.19000006 -1.04999995 192 213 53 97.000000 1.000000 4.000000 1.000000 -60.708740 114.000000 228.000000 0.003694 0.951830 0.306605
-6.55999994 6.17999983 -1.08000004 192 213 53 97.000000 1.000000 4.000000 1.000000 -60.708740 114.000000 228.000000 0.551986 0.666075 0.501653
-6.57999992 6.19999981 -1.11000001 192 213 53 97.000000 1.000000 4.000000 1.000000 -60.708740 114.000000 228.000000 0.719736 0.670628 0.179550
-6.61999989 6.21000004 -1.14999998 192 213 53 97.000000 1.000000 4.000000 1.000000 -60.708740 114.000000 228.000000 0.478319 0.793978 0.375247
-6.59000015 6.19999981 -1.13999999 192 213 53 97.000000 1.000000 4.000000 1.000000 -60.708740 114.000000 228.000000 0.181548 0.953464 0.240719
-6.59999990 6.21000004 -1.19000006 192 213 53 97.000000 1.000000 4.000000 1.000000 -60.708740 114.000000 228.000000 0.665072 0.741080 0.092087
-6.51000023 6.17999983 -1.32000005 192 213 53 97.000000 1.000000 4.000000 1.000000 -60.708740 114.000000 228.000000 0.195896 0.913705 0.356045
-6.59000015 6.23000002 -1.24000001 192 213 53 97.000000 1.000000 4.000000 1.000000 -60.708740 114.000000 228.000000 0.708726 0.614229 0.347031
-6.59000015 6.21000004 -1.22000003 192 213 53 97.000000 1.000000 4.000000 1.000000 -60.708740 114.000000 228.000000 0.400567 0.900198 0.170851
-6.61999989 6.25000000 -1.24000001 192 213 53 97.000000 1.000000 4.000000 1.000000 -60.708740 114.000000 228.000000 0.796406 0.485535 0.360546
-6.46000004 6.13999987 -1.07000005 192 213 53 97.000000 1.000000 4.000000 1.000000 -60.708740 114.000000 228.000000 0.075405 0.972852 0.218799
-6.51000023 6.15999985 -1.16999996 192 213 53 97.000000 1.000000 4.000000 1.000000 -60.708740 114.000000 228.000000 0.338690 0.931054 0.135750
-6.46999979 6.11999989 -1.24000001 192 213 53 97.000000 1.000000 4.000000 1.000000 -60.708740 114.000000 228.000000 0.179092 0.944678 0.274790
-6.46999979 6.13000011 -1.20000005 192 213 53 97.000000 1.000000 4.000000 1.000000 -60.708740 114.000000 228.000000 -0.407689 0.781269 0.472660
-6.48999977 6.15000010 -1.23000002 192 213 53 97.000000 1.000000 4.000000 1.000000 -60.708740 114.000000 228.000000 0.341152 0.921535 0.185440
-6.48999977 6.15000010 -1.23000002 192 213 53 97.000000 1.000000 4.000000 1.000000 -60.708740 114.000000 228.000000 0.341152 0.921535 0.185440
-6.46999979 6.15999985 -1.29999995 192 213 53 97.000000 1.000000 4.000000 1.000000 -60.708740 114.000000 228.000000 0.104807 0.730700 0.674606
-6.76999998 6.19000006 -1.04999995 192 213 53 97.000000 1.000000 4.000000 1.000000 -60.708740 114.000000 228.000000 0.654453 0.754260 -0.052755
-6.78000021 6.17999983 -1.11000001 192 213 53 97.000000 1.000000 4.000000 1.000000 -60.708740 114.000000 228.000000 0.800877 0.356478 0.481165
-6.78999996 6.19999981 -1.16999996 192 213 53 97.000000 1.000000 4.000000 1.000000 -60.708740 114.000000 228.000000 0.830599 0.545490 -0.112007
-6.78999996 6.21000004 -1.13000000 192 213 53 97.000000 1.000000 4.000000 1.000000 -60.708740 114.000000 228.000000 0.600158 0.749799 0.278588
-6.63999987 6.23000002 -1.26999998 192 213 53 97.000000 1.000000 4.000000 1.000000 -60.708740 114.000000 228.000000 0.569789 0.802541 0.176831
-6.76999998 6.17999983 -1.20000005 192 213 53 97.000000 1.000000 4.000000 1.000000 -60.708740 114.000000 228.000000 0.719214 0.646502 0.254491
-6.76000023 6.15999985 -1.08000004 192 213 53 97.000000 1.000000 4.000000 1.000000 -60.708740 114.000000 228.000000 0.945199 0.320253 0.063532
-6.75000000 6.13000011 -1.07000005 192 213 53 97.000000 1.000000 4.000000 1.000000 -60.708740 114.000000 228.000000 0.702620 0.556448 0.443498
-6.78000021 6.13999987 -1.04999995 192 213 53 97.000000 1.000000 4.000000 1.000000 -60.708740 114.000000 228.000000 0.881180 0.471139 0.039375
-6.75000000 6.13999987 -1.08000004 192 213 53 97.000000 1.000000 4.000000 1.000000 -60.708740 114.000000 228.000000 0.566724 0.647445 0.509547
-6.73999977 6.13999987 -1.09000003 192 213 53 97.000000 1.000000 4.000000 1.000000 -60.708740 114.000000 228.000000 0.925146 0.379116 0.019409
-6.75000000 6.17000008 -1.02999997 192 213 53 97.000000 1.000000 4.000000 1.000000 -60.708740 114.000000 228.000000 0.883046 0.465556 -0.059053
-6.50000000 5.90999985 -0.69999999 192 213 53 97.000000 1.000000 4.000000 1.000000 -60.708740 114.000000 228.000000 0.013428 0.960743 0.277114
-6.48000002 5.92000008 -0.73000002 192 213 53 97.000000 1.000000 4.000000 1.000000 -60.708740 114.000000 228.000000 -0.089030 0.939466 0.330873
-6.53999996 5.90000010 -0.80000001 192 213 53 97.000000 1.000000 4.000000 1.000000 -60.708740 114.000000 228.000000 0.149755 0.718521 0.679191
-6.46999979 5.92000008 -0.88000000 192 213 53 97.000000 1.000000 4.000000 1.000000 -60.708740 114.000000 228.000000 0.098567 0.950182 0.295700
-6.51000023 5.90999985 -0.92000002 192 213 53 97.000000 1.000000 4.000000 1.000000 -60.708740 114.000000 228.000000 -0.086395 0.909203 0.407290
-6.48000002 5.92000008 -0.88000000 192 213 53 97.000000 1.000000 4.000000 1.000000 -60.708740 114.000000 228.000000 0.149755 0.679191 0.718521
-6.46000004 5.90999985 -0.92000002 192 213 53 97.000000 1.000000 4.000000 1.000000 -60.708740 114.000000 228.000000 -0.150475 0.961730 0.228983
-6.50000000 5.90000010 -0.95999998 192 213 53 97.000000 1.000000 4.000000 1.000000 -60.708740 114.000000 228.000000 0.019206 0.999701 0.015162
-6.55000019 5.90000010 -1.00000000 192 213 53 97.000000 1.000000 4.000000 1.000000 -60.708740 114.000000 228.000000 0.152278 0.947358 0.281647
-6.61999989 5.69999981 -0.76999998 192 213 53 97.000000 1.000000 4.000000 1.000000 -60.708740 114.000000 228.000000 0.562293 0.669717 0.485083
-6.53000021 5.75000000 -0.95999998 192 213 53 97.000000 1.000000 4.000000 1.000000 -60.708740 114.000000 228.000000 0.241993 0.785306 0.569854
-6.57000017 5.73000002 -0.88000000 192 213 53 97.000000 1.000000 4.000000 1.000000 -60.708740 114.000000 228.000000 0.440568 0.873719 0.206192
-6.57999992 5.73999977 -0.91000003 192 213 53 97.000000 1.000000 4.000000 1.000000 -60.708740 114.000000 228.000000 0.337900 0.786299 0.517260
-6.71000004 5.94000006 -0.73000002 192 213 53 97.000000 1.000000 4.000000 1.000000 -60.708740 114.000000 228.000000 0.856616 0.419849 0.299892
-6.65000010 5.92999983 -0.77999997 192 213 53 97.000000 1.000000 4.000000 1.000000 -60.708740 114.000000 228.000000 0.719024 0.591270 0.365245
-6.65000010 5.92000008 -0.76999998 192 213 53 97.000000 1.000000 4.000000 1.000000 -60.708740 114.000000 228.000000 0.481600 0.711569 0.511596
-6.65000010 5.88999987 -0.81999999 192 213 53 97.000000 1.000000 4.000000 1.000000 -60.708740 114.000000 228.000000 0.139206 0.758898 0.636157
-6.67999983 5.88999987 -0.81999999 192 213 53 97.000000 1.000000 4.000000 1.000000 -60.708740 114.000000 228.000000 0.606862 0.749466 0.264611
-6.67999983 5.88999987 -0.81999999 192 213 53 97.000000 1.000000 4.000000 1.000000 -60.708740 114.000000 228.000000 0.606862 0.749466 0.264611
-6.76000023 6.00000000 -0.70999998 192 213 53 97.000000 1.000000 4.000000 1.000000 -60.708740 114.000000 228.000000 0.965199 0.247324 0.084978
-6.65999985 5.90000010 -0.88999999 192 213 53 97.000000 1.000000 4.000000 1.000000 -60.708740 114.000000 228.000000 0.484167 0.668452 0.564583
-6.71999979 5.90999985 -0.88999999 192 213 53 97.000000 1.000000 4.000000 1.000000 -60.708740 114.000000 228.000000 0.530310 0.780245 0.331644
-6.63999987 5.73000002 -0.82999998 192 213 53 97.000000 1.000000 4.000000 1.000000 -60.708740 114.000000 228.000000 0.417030 0.780512 0.465711
-6.51999998 5.90000010 -1.05999994 192 213 53 97.000000 1.000000 4.000000 1.000000 -60.708740 114.000000 228.000000 -0.055781 0.893849 0.444884
-6.57999992 5.90000010 -1.09000003 192 213 53 97.000000 1.000000 4.000000 1.000000 -60.708740 114.000000 228.000000 0.061341 0.940997 0.332808
-6.57999992 5.86999989 -1.02999997 192 213 53 97.000000 1.000000 4.000000 1.000000 -60.708740 114.000000 228.000000 0.230003 0.804239 0.547994
-6.57999992 5.86000013 -1.19000006 192 213 53 97.000000 1.000000 4.000000 1.000000 -60.708740 114.000000 228.000000 0.104464 0.860037 0.499423
-6.46999979 5.86999989 -1.24000001 192 213 53 97.000000 1.000000 4.000000 1.000000 -60.708740 114.000000 228.000000 -0.022611 0.974661 0.222542
-6.57000017 5.80000019 -1.13000000 192 213 53 97.000000 1.000000 4.000000 1.000000 -60.708740 114.000000 228.000000 0.287230 0.662715 0.691598
-6.80000019 6.32000017 -0.85000002 192 213 53 97.000000 1.000000 4.000000 1.000000 -60.708740 114.000000 228.000000 0.950358 -0.308327 -0.041872
-6.80000019 6.32999992 -0.74000001 192 213 53 97.000000 1.000000 4.000000 1.000000 -60.708740 114.000000 228.000000 0.942084 -0.320229 -0.099656
-6.80000019 6.32000017 -0.81000000 192 213 53 97.000000 1.000000 4.000000 1.000000 -60.708740 114.000000 228.000000 0.988677 0.059112 -0.137928
-6.80000019 6.30000019 -0.74000001 192 213 53 97.000000 1.000000 4.000000 1.000000 -60.708740 114.000000 228.000000 0.991628 -0.069769 0.108656
-6.80999994 6.28000021 -0.94000000 192 213 53 97.000000 1.000000 4.000000 1.000000 -60.708740 114.000000 228.000000 0.940329 0.261741 -0.217425
-6.80999994 6.32000017 -0.88000000 192 213 53 97.000000 1.000000 4.000000 1.000000 -60.708740 114.000000 228.000000 0.951769 0.236255 0.195754
-6.82000017 6.34000015 -0.98000002 192 213 53 97.000000 1.000000 4.000000 1.000000 -60.708740 114.000000 228.000000 0.977523 -0.208364 0.032148
-6.82000017 6.30999994 -0.97000003 192 213 53 97.000000 1.000000 4.000000 1.000000 -60.708740 114.000000 228.000000 0.969557 -0.050383 -0.239624
-6.80999994 6.28999996 -0.94999999 192 213 53 97.000000 1.000000 4.000000 1.000000 -60.708740 114.000000 228.000000 0.942541 0.247020 -0.224940
-6.82000017 6.28999996 -1.00000000 192 213 53 97.000000 1.000000 4.000000 1.000000 -60.708740 114.000000 228.000000 0.906152 0.418537 -0.060952
-6.84000015 6.32999992 -1.00000000 192 213 53 97.000000 1.000000 4.000000 1.000000 -60.708740 114.000000 228.000000 0.952052 0.109295 -0.285747
-6.82000017 6.23999977 -1.00000000 192 213 53 97.000000 1.000000 4.000000 1.000000 -60.708740 114.000000 228.000000 0.789380 0.482668 0.379355
-6.80999994 6.28999996 -1.02999997 192 213 53 97.000000 1.000000 4.000000 1.000000 -60.708740 114.000000 228.000000 0.988935 0.147384 -0.016876
-6.84000015 6.34000015 -1.02999997 192 213 53 97.000000 1.000000 4.000000 1.000000 -60.708740 114.000000 228.000000 0.974995 -0.137128 -0.174870
-6.86000013 6.30999994 -1.08000004 192 213 53 97.000000 1.000000 4.000000 1.000000 -60.708740 114.000000 228.000000 0.882064 0.465341 -0.073621
-6.84000015 6.28000021 -1.03999996 192 213 53 97.000000 1.000000 4.000000 1.000000 -60.708740 114.000000 228.000000 0.925156 0.297932 0.235209
-6.86000013 6.28000021 -1.02999997 192 213 53 97.000000 1.000000 4.000000 1.000000 -60.708740 114.000000 228.000000 0.904703 0.399092 0.149127
-6.86000013 6.32000017 -1.13000000 192 213 53 97.000000 1.000000 4.000000 1.000000 -60.708740 114.000000 228.000000 0.986803 -0.124686 0.103312
-6.86000013 6.28000021 -1.16999996 192 213 53 97.000000 1.000000 4.000000 1.000000 -60.708740 114.000000 228.000000 0.812231 0.556054 -0.176310
-6.86000013 6.28999996 -1.16999996 192 213 53 97.000000 1.000000 4.000000 1.000000 -60.708740 114.000000 228.000000 0.794631 0.604826 0.052409
-6.86999989 6.32000017 -1.12000000 192 213 53 97.000000 1.000000 4.000000 1.000000 -60.708740 114.000000 228.000000 0.962084 0.244729 0.120422
-6.84999990 6.28999996 -1.13999999 192 213 53 97.000000 1.000000 4.000000 1.000000 -60.708740 114.000000 228.000000 0.801521 0.596579 -0.040708
-6.80000019 6.19000006 -1.07000005 192 213 53 97.000000 1.000000 4.000000 1.000000 -60.708740 114.000000 228.000000 0.722261 0.673807 -0.155960
-6.80999994 6.19999981 -1.08000004 192 213 53 97.000000 1.000000 4.000000 1.000000 -60.708740 114.000000 228.000000 0.797111 0.603705 -0.012433
-6.80999994 6.23000002 -1.03999996 192 213 53 97.000000 1.000000 4.000000 1.000000 -60.708740 114.000000 228.000000 0.944898 0.281430 -0.167227
-6.80000019 6.19999981 -1.15999997 192 213 53 97.000000 1.000000 4.000000 1.000000 -60.708740 114.000000 228.000000 0.864027 0.368097 0.343455
-6.80000019 6.19000006 -1.13000000 192 213 53 97.000000 1.000000 4.000000 1.000000 -60.708740 114.000000 228.000000 0.840831 0.502687 -0.200773
-6.82000017 6.23999977 -1.13000000 192 213 53 97.000000 1.000000 4.000000 1.000000 -60.708740 114.000000 228.000000 0.932849 0.360158 0.008909
-6.82999992 6.23000002 -1.13999999 192 213 53 97.000000 1.000000 4.000000 1.000000 -60.708740 114.000000 228.000000 0.888520 0.449158 -0.093749
-6.82999992 6.21999979 -1.13999999 192 213 53 97.000000 1.000000 4.000000 1.000000 -60.708740 114.000000 228.000000 0.823729 0.556416 0.108959
-6.80000019 6.19000006 -1.13000000 192 213 53 97.000000 1.000000 4.000000 1.000000 -60.708740 114.000000 228.000000 0.840831 0.502687 -0.200773
-6.88999987 6.32999992 -1.17999995 192 213 53 97.000000 1.000000 4.000000 1.000000 -60.708740 114.000000 228.000000 0.813937 0.566665 -0.128052
-6.88000011 6.32000017 -1.14999998 192 213 53 97.000000 1.000000 4.000000 1.000000 -60.708740 114.000000 228.000000 0.888792 0.458263 -0.006603
-6.86000013 6.26999998 -1.25000000 192 213 53 97.000000 1.000000 4.000000 1.000000 -60.708740 114.000000 228.000000 0.995536 0.093634 0.011839
-6.86999989 6.30000019 -1.21000004 192 213 53 97.000000 1.000000 4.000000 1.000000 -60.708740 114.000000 228.000000 0.969151 0.221701 -0.107683
-6.86000013 6.26000023 -1.24000001 192 213 53 97.000000 1.000000 4.000000 1.000000 -60.708740 114.000000 228.000000 0.962108 0.268292 -0.048667
-6.86999989 6.28000021 -1.24000001 192 213 53 97.000000 1.000000 4.000000 1.000000 -60.708740 114.000000 228.000000 0.934947 0.347795 0.070088
-6.86000013 6.26000023 -1.22000003 192 213 53 97.000000 1.000000 4.000000 1.000000 -60.708740 114.000000 228.000000 0.904878 0.419001 -0.075065
-6.84999990 6.28000021 -1.24000001 192 213 53 97.000000 1.000000 4.000000 1.000000 -60.708740 114.000000 228.000000 0.951209 0.298951 0.076356
-6.86999989 6.32999992 -1.22000003 192 213 53 97.000000 1.000000 4.000000 1.000000 -60.708740 114.000000 228.000000 0.852249 0.521813 0.037174
-6.84000015 6.23999977 -1.20000005 192 213 53 97.000000 1.000000 4.000000 1.000000 -60.708740 114.000000 228.000000 0.890120 0.438671 0.123509
-6.86000013 6.25000000 -1.26999998 192 213 53 97.000000 1.000000 4.000000 1.000000 -60.708740 114.000000 228.000000 0.930908 0.363818 0.032368
-6.82000017 6.21000004 -1.21000004 192 213 53 97.000000 1.000000 4.000000 1.000000 -60.708740 114.000000 228.000000 0.918475 0.325263 0.224962
-6.82000017 6.21999979 -1.20000005 192 213 53 97.000000 1.000000 4.000000 1.000000 -60.708740 114.000000 228.000000 0.897648 0.205802 0.389710
-6.84999990 6.23000002 -1.34000003 192 213 53 97.000000 1.000000 4.000000 1.000000 -60.708740 114.000000 228.000000 0.511834 0.825389 0.238241
-6.88000011 6.34000015 -1.20000005 192 213 53 97.000000 1.000000 4.000000 1.000000 -60.708740 114.000000 228.000000 0.923875 0.365444 0.113602
-6.50000000 6.17999983 -1.37000000 192 213 53 97.000000 1.000000 4.000000 1.000000 -60.708740 114.000000 228.000000 0.180865 0.947841 0.262458
-6.59000015 5.53999996 -0.12000000 192 213 53 97.000000 1.000000 4.000000 1.000000 -60.708740 114.000000 228.000000 0.446446 0.885760 0.126945
-6.59000015 5.61000013 -0.20999999 192 213 53 97.000000 1.000000 4.000000 1.000000 -60.708740 114.000000 228.000000 0.329246 0.724990 0.604969
-6.61000013 5.61000013 -0.33000001 192 213 53 97.000000 1.000000 4.000000 1.000000 -60.708740 114.000000 228.000000 0.595808 0.701436 0.391154
-6.59999990 5.53999996 -0.20000000 192 213 53 97.000000 1.000000 4.000000 1.000000 -60.708740 114.000000 228.000000 0.463720 0.647869 0.604343
-6.61000013 5.44000006 -0.13000000 192 213 53 97.000000 1.000000 4.000000 1.000000 -60.708740 114.000000 228.000000 0.282232 0.899893 0.332473
-6.61000013 5.48000002 -0.16000000 192 213 53 97.000000 1.000000 4.000000 1.000000 -60.708740 114.000000 228.000000 0.612186 0.779010 0.135545
-6.57999992 5.46000004 -0.34999999 192 213 53 97.000000 1.000000 4.000000 1.000000 -60.708740 114.000000 228.000000 0.209778 0.930625 0.299884
-6.63000011 5.61000013 -0.07000000 192 213 53 97.000000 1.000000 4.000000 1.000000 -60.708740 114.000000 228.000000 0.602719 0.749025 0.275120
-6.71000004 5.65000010 -0.28999999 192 213 53 97.000000 1.000000 4.000000 1.000000 -60.708740 114.000000 228.000000 0.702876 0.446983 0.553328
-6.76999998 5.65000010 -0.31999999 192 213 53 97.000000 1.000000 4.000000 1.000000 -60.708740 114.000000 228.000000 0.689271 0.430171 0.582974
-6.65000010 5.46999979 -0.10000000 192 213 53 97.000000 1.000000 4.000000 1.000000 -60.708740 114.000000 228.000000 0.172499 0.891485 0.418926
-6.65000010 5.44999981 -0.14000000 192 213 53 97.000000 1.000000 4.000000 1.000000 -60.708740 114.000000 228.000000 0.141412 0.987547 0.068953
-6.69999981 5.42000008 -0.14000000 192 213 53 97.000000 1.000000 4.000000 1.000000 -60.708740 114.000000 228.000000 0.214872 0.971324 0.101782
-6.69000006 5.42999983 -0.15000001 192 213 53 97.000000 1.000000 4.000000 1.000000 -60.708740 114.000000 228.000000 0.298275 0.951638 0.073600
-6.67999983 5.40999985 -0.14000000 192 213 53 97.000000 1.000000 4.000000 1.000000 -60.708740 114.000000 228.000000 0.683787 0.604315 0.408948
-6.63000011 5.46999979 -0.20000000 192 213 53 97.000000 1.000000 4.000000 1.000000 -60.708740 114.000000 228.000000 0.240760 0.668779 0.703398
-6.65000010 5.48000002 -0.23999999 192 213 53 97.000000 1.000000 4.000000 1.000000 -60.708740 114.000000 228.000000 0.164113 0.802497 0.573642
-6.67000008 5.42999983 -0.20000000 192 213 53 97.000000 1.000000 4.000000 1.000000 -60.708740 114.000000 228.000000 0.113428 0.925192 0.362151
-6.69999981 5.44000006 -0.23000000 192 213 53 97.000000 1.000000 4.000000 1.000000 -60.708740 114.000000 228.000000 0.205106 0.926515 0.315439
-6.65999985 5.46000004 -0.28000000 192 213 53 97.000000 1.000000 4.000000 1.000000 -60.708740 114.000000 228.000000 0.058497 0.967074 0.247681
-6.63999987 5.46000004 -0.30000001 192 213 53 97.000000 1.000000 4.000000 1.000000 -60.708740 114.000000 228.000000 0.174569 0.948626 0.263883
-6.63000011 5.46999979 -0.31000000 192 213 53 97.000000 1.000000 4.000000 1.000000 -60.708740 114.000000 228.000000 0.273682 0.942070 0.193915
-6.57000017 5.59000015 -0.51999998 192 213 53 97.000000 1.000000 4.000000 1.000000 -60.708740 114.000000 228.000000 -0.177395 0.878179 0.444221
-6.61000013 5.51999998 -0.49000001 192 213 53 97.000000 1.000000 4.000000 1.000000 -60.708740 114.000000 228.000000 -0.040479 0.986537 0.158447
-6.59000015 5.59000015 -0.54000002 192 213 53 97.000000 1.000000 4.000000 1.000000 -60.708740 114.000000 228.000000 0.340972 0.921048 0.188171
-6.57000017 5.61999989 -0.69000000 192 213 53 97.000000 1.000000 4.000000 1.000000 -60.708740 114.000000 228.000000 0.545547 0.767628 0.336340
-6.59000015 5.53000021 -0.54000002 192 213 53 97.000000 1.000000 4.000000 1.000000 -60.708740 114.000000 228.000000 0.033313 0.963599 0.265267
-6.57000017 5.57000017 -0.61000001 192 213 53 97.000000 1.000000 4.000000 1.000000 -60.708740 114.000000 228.000000 0.076767 0.743042 0.664827
-6.59999990 5.48999977 -0.38999999 192 213 53 97.000000 1.000000 4.000000 1.000000 -60.708740 114.000000 228.000000 0.425027 0.645040 0.635040
-6.63000011 5.65999985 -0.40000001 192 213 53 97.000000 1.000000 4.000000 1.000000 -60.708740 114.000000 228.000000 0.417497 0.617098 0.666998
-6.86999989 5.65999985 -0.17000000 192 213 53 97.000000 1.000000 4.000000 1.000000 -60.708740 114.000000 228.000000 0.799923 0.373511 0.469694
-6.86999989 5.57000017 -0.09000000 192 213 53 97.000000 1.000000 4.000000 1.000000 -60.708740 114.000000 228.000000 0.785639 0.396869 0.474623
-6.88999987 5.57000017 -0.09000000 192 213 53 97.000000 1.000000 4.000000 1.000000 -60.708740 114.000000 228.000000 0.946675 0.320628 0.031683
-6.84000015 5.61999989 -0.22000000 192 213 53 97.000000 1.000000 4.000000 1.000000 -60.708740 114.000000 228.000000 0.886332 0.258576 0.384127
-6.86999989 5.59000015 -0.25999999 192 213 53 97.000000 1.000000 4.000000 1.000000 -60.708740 114.000000 228.000000 0.865944 0.496215 -0.062548
-6.80000019 5.61999989 -0.34000000 192 213 53 97.000000 1.000000 4.000000 1.000000 -60.708740 114.000000 228.000000 0.773367 0.585884 0.242165
-6.53999996 5.61999989 -0.73000002 192 213 53 97.000000 1.000000 4.000000 1.000000 -60.708740 114.000000 228.000000 0.110391 0.858760 0.500346
-6.55999994 5.65000010 -0.70999998 192 213 53 97.000000 1.000000 4.000000 1.000000 -60.708740 114.000000 228.000000 0.438885 0.887778 0.138671
-6.55999994 5.65999985 -0.80000001 192 213 53 97.000000 1.000000 4.000000 1.000000 -60.708740 114.000000 228.000000 0.461142 0.710859 0.531063
-6.07000017 6.05000019 0.33000001 192 213 53 97.000000 1.000000 4.000000 1.000000 -60.708740 114.000000 228.000000 0.746891 0.453411 0.486386
-6.11999989 6.09999990 0.25000000 192 213 53 97.000000 1.000000 4.000000 1.000000 -60.708740 114.000000 228.000000 0.449367 0.876778 0.171257
-6.07999992 6.09999990 0.22000000 192 213 53 97.000000 1.000000 4.000000 1.000000 -60.708740 114.000000 228.000000 0.711934 0.539344 0.449730
-6.07000017 6.03999996 0.20999999 192 213 53 97.000000 1.000000 4.000000 1.000000 -60.708740 114.000000 228.000000 0.755325 0.655172 -0.015301
-6.05999994 6.03000021 0.16000000 192 213 53 97.000000 1.000000 4.000000 1.000000 -60.708740 114.000000 228.000000 0.662932 0.721653 0.199343
-6.07000017 6.05000019 0.20999999 192 213 53 97.000000 1.000000 4.000000 1.000000 -60.708740 114.000000 228.000000 0.687298 0.724449 -0.052869
-6.11999989 6.05000019 0.10000000 192 213 53 97.000000 1.000000 4.000000 1.000000 -60.708740 114.000000 228.000000 0.788791 0.611277 0.064420
-6.11000013 6.03000021 -0.01000000 192 213 53 97.000000 1.000000 4.000000 1.000000 -60.708740 114.000000 228.000000 0.917215 0.388419 0.088587
-6.03000021 5.94999981 0.31999999 192 213 53 97.000000 1.000000 4.000000 1.000000 -60.708740 114.000000 228.000000 0.900296 0.263753 0.346268
-6.07000017 5.98000002 0.16000000 192 213 53 97.000000 1.000000 4.000000 1.000000 -60.708740 114.000000 228.000000 0.945356 0.226392 0.234624
-6.05999994 5.88000011 0.31000000 192 213 53 97.000000 1.000000 4.000000 1.000000 -60.708740 114.000000 228.000000 0.978727 0.119718 0.166618
-6.05000019 5.86000013 0.25000000 192 213 53 97.000000 1.000000 4.000000 1.000000 -60.708740 114.000000 228.000000 0.931992 0.362371 0.008900
-6.09999990 5.94999981 0.08000000 192 213 53 97.000000 1.000000 4.000000 1.000000 -60.708740 114.000000 228.000000 0.959564 0.048919 0.277207
-6.11999989 5.92000008 0.09000000 192 213 53 97.000000 1.000000 4.000000 1.000000 -60.708740 114.000000 228.000000 0.875140 0.312006 -0.369842
-6.19999981 6.13000011 0.00000000 192 213 53 97.000000 1.000000 4.000000 1.000000 -60.708740 114.000000 228.000000 0.876883 0.386192 0.286237
-6.26000023 6.13999987 0.10000000 192 213 53 97.000000 1.000000 4.000000 1.000000 -60.708740 114.000000 228.000000 0.307373 0.811779 0.496525
-6.23999977 6.13000011 -0.01000000 192 213 53 97.000000 1.000000 4.000000 1.000000 -60.708740 114.000000 228.000000 0.669037 0.435458 0.602300
-6.32999992 6.17000008 -0.01000000 192 213 53 97.000000 1.000000 4.000000 1.000000 -60.708740 114.000000 228.000000 0.602955 0.562421 0.565798
-6.23000002 5.82000017 0.34999999 192 213 53 97.000000 1.000000 4.000000 1.000000 -60.708740 114.000000 228.000000 0.767362 0.639705 -0.043971
-6.34999990 5.86000013 0.34000000 192 213 53 97.000000 1.000000 4.000000 1.000000 -60.708740 114.000000 228.000000 0.226518 0.924592 0.306298
-6.34000015 5.80999994 0.41000000 192 213 53 97.000000 1.000000 4.000000 1.000000 -60.708740 114.000000 228.000000 0.860135 0.473891 0.188665
-6.26999998 5.84000015 0.23000000 192 213 53 97.000000 1.000000 4.000000 1.000000 -60.708740 114.000000 228.000000 0.922128 0.248100 -0.296859
-6.13000011 5.98999977 0.00000000 192 213 53 97.000000 1.000000 4.000000 1.000000 -60.708740 114.000000 228.000000 0.870740 0.332075 0.362681
-6.23999977 5.82999992 0.23000000 192 213 53 97.000000 1.000000 4.000000 1.000000 -60.708740 114.000000 228.000000 0.993508 0.113760 -0.001083
-6.38999987 5.98999977 0.30000001 192 213 53 97.000000 1.000000 4.000000 1.000000 -60.708740 114.000000 228.000000 0.140425 0.820379 0.554310
-6.44000006 5.98000002 0.20999999 192 213 53 97.000000 1.000000 4.000000 1.000000 -60.708740 114.000000 228.000000 0.140167 0.978686 0.150090
-6.44999981 5.84999990 0.09000000 192 213 53 97.000000 1.000000 4.000000 1.000000 -60.708740 114.000000 228.000000 0.437623 0.836032 0.330962
-6.51000023 6.38000011 0.34999999 192 213 53 97.000000 1.000000 4.000000 1.000000 -60.708740 114.000000 228.000000 -0.087325 0.894039 0.439396
-6.53000021 6.34999990 0.19000000 192 213 53 97.000000 1.000000 4.000000 1.000000 -60.708740 114.000000 228.000000 -0.372894 0.625871 0.685008
-6.57999992 6.42000008 0.13000000 192 213 53 97.000000 1.000000 4.000000 1.000000 -60.708740 114.000000 228.000000 -0.304575 0.626876 0.717120
-6.59999990 6.40999985 0.14000000 192 213 53 97.000000 1.000000 4.000000 1.000000 -60.708740 114.000000 228.000000 -0.102154 0.924836 0.366393
-6.65999985 6.40999985 0.20000000 192 213 53 97.000000 1.000000 4.000000 1.000000 -60.708740 114.000000 228.000000 -0.513912 0.604899 0.608269
-6.63000011 6.42000008 0.08000000 192 213 53 97.000000 1.000000 4.000000 1.000000 -60.708740 114.000000 228.000000 -0.075418 0.935445 0.345334
-6.71000004 6.40999985 -0.02000000 192 213 53 97.000000 1.000000 4.000000 1.000000 -60.708740 114.000000 228.000000 -0.389447 0.718095 0.576776
-6.67000008 6.42000008 0.00000000 192 213 53 97.000000 1.000000 4.000000 1.000000 -60.708740 114.000000 228.000000 -0.100423 0.967368 0.232626
-6.67000008 6.23999977 0.40000001 192 213 53 97.000000 1.000000 4.000000 1.000000 -60.708740 114.000000 228.000000 -0.189715 0.849982 0.491466
-6.65000010 6.23000002 0.38999999 192 213 53 97.000000 1.000000 4.000000 1.000000 -60.708740 114.000000 228.000000 -0.047812 0.942031 0.332101
-6.59000015 6.23000002 0.28000000 192 213 53 97.000000 1.000000 4.000000 1.000000 -60.708740 114.000000 228.000000 -0.232113 0.967773 0.097665
-6.59999990 6.23000002 0.20000000 192 213 53 97.000000 1.000000 4.000000 1.000000 -60.708740 114.000000 228.000000 -0.269355 0.936462 0.224695
-6.46000004 6.30999994 0.13000000 192 213 53 97.000000 1.000000 4.000000 1.000000 -60.708740 114.000000 228.000000 0.178274 0.766424 0.617101
-6.59999990 6.23000002 0.02000000 192 213 53 97.000000 1.000000 4.000000 1.000000 -60.708740 114.000000 228.000000 -0.119210 0.944302 0.306731
-6.57999992 6.21999979 0.01000000 192 213 53 97.000000 1.000000 4.000000 1.000000 -60.708740 114.000000 228.000000 -0.241093 0.937895 0.249455
-6.46000004 6.03999996 0.00000000 192 213 53 97.000000 1.000000 4.000000 1.000000 -60.708740 114.000000 228.000000 -0.037361 0.939175 0.341401
-6.51000023 6.01000023 0.06000000 192 213 53 97.000000 1.000000 4.000000 1.000000 -60.708740 114.000000 228.000000 0.713975 -0.623311 -0.318941
-6.51000023 6.01999998 0.00000000 192 213 53 97.000000 1.000000 4.000000 1.000000 -60.708740 114.000000 228.000000 0.735561 -0.561909 -0.378429
-6.69999981 6.21000004 0.25000000 192 213 53 97.000000 1.000000 4.000000 1.000000 -60.708740 114.000000 228.000000 -0.510777 0.804909 0.302039
-6.63000011 6.21999979 0.17000000 192 213 53 97.000000 1.000000 4.000000 1.000000 -60.708740 114.000000 228.000000 -0.175321 0.766837 0.617433
-6.76000023 6.32000017 0.20000000 192 213 53 97.000000 1.000000 4.000000 1.000000 -60.708740 114.000000 228.000000 0.703082 -0.628390 -0.332868
-6.75000000 6.32000017 0.11000000 192 213 53 97.000000 1.000000 4.000000 1.000000 -60.708740 114.000000 228.000000 0.825866 -0.482406 -0.291941
-6.73999977 6.30999994 0.08000000 192 213 53 97.000000 1.000000 4.000000 1.000000 -60.708740 114.000000 228.000000 0.695670 -0.555535 -0.455439
-6.48999977 5.96000004 0.17000000 192 213 53 97.000000 1.000000 4.000000 1.000000 -60.708740 114.000000 228.000000 -0.518539 0.708614 0.478523
-6.73000002 5.67000008 0.07000000 192 213 53 97.000000 1.000000 4.000000 1.000000 -60.708740 114.000000 228.000000 0.856714 0.436786 0.274332
-6.59000015 5.50000000 0.33000001 192 213 53 97.000000 1.000000 4.000000 1.000000 -60.708740 114.000000 228.000000 0.558114 0.521019 0.645793
-6.65000010 5.51999998 0.36000001 192 213 53 97.000000 1.000000 4.000000 1.000000 -60.708740 114.000000 228.000000 0.475096 0.837222 0.270820
-6.63999987 5.51999998 0.37000000 192 213 53 97.000000 1.000000 4.000000 1.000000 -60.708740 114.000000 228.000000 0.737854 0.634460 0.230286
-6.65000010 5.51999998 0.37000000 192 213 53 97.000000 1.000000 4.000000 1.000000 -60.708740 114.000000 228.000000 0.672719 0.691803 0.262408
-6.65000010 5.36999989 0.49000001 192 213 53 97.000000 1.000000 4.000000 1.000000 -60.708740 114.000000 228.000000 0.733422 0.615180 0.289214
-6.63000011 5.46000004 0.41000000 192 213 53 97.000000 1.000000 4.000000 1.000000 -60.708740 114.000000 228.000000 0.550512 0.815964 0.176465
-6.65000010 5.48999977 0.43000001 192 213 53 97.000000 1.000000 4.000000 1.000000 -60.708740 114.000000 228.000000 0.871557 0.488455 -0.042415
-6.63000011 5.46000004 0.44999999 192 213 53 97.000000 1.000000 4.000000 1.000000 -60.708740 114.000000 228.000000 0.860482 0.509265 -0.014859
-6.63999987 5.46999979 0.44000000 192 213 53 97.000000 1.000000 4.000000 1.000000 -60.708740 114.000000 228.000000 0.614064 0.767198 0.185291
-6.63999987 5.34999990 0.40000001 192 213 53 97.000000 1.000000 4.000000 1.000000 -60.708740 114.000000 228.000000 0.373625 0.909012 0.184665
-6.61999989 5.51999998 0.22000000 192 213 53 97.000000 1.000000 4.000000 1.000000 -60.708740 114.000000 228.000000 0.805857 0.591519 0.026444
-6.61000013 5.53999996 0.28999999 192 213 53 97.000000 1.000000 4.000000 1.000000 -60.708740 114.000000 228.000000 0.453150 0.885125 0.105876
-6.61999989 5.46000004 0.23999999 192 213 53 97.000000 1.000000 4.000000 1.000000 -60.708740 114.000000 228.000000 0.485368 0.602931 0.633161
-6.59999990 5.46999979 0.25999999 192 213 53 97.000000 1.000000 4.000000 1.000000 -60.708740 114.000000 228.000000 0.609614 0.771566 0.181815
-6.61000013 5.48000002 0.16000000 192 213 53 97.000000 1.000000 4.000000 1.000000 -60.708740 114.000000 228.000000 0.727664 0.515498 0.452511
-6.59999990 5.48999977 0.03000000 192 213 53 97.000000 1.000000 4.000000 1.000000 -60.708740 114.000000 228.000000 0.218975 0.928171 0.300914
-6.63999987 5.61000013 0.15000001 192 213 53 97.000000 1.000000 4.000000 1.000000 -60.708740 114.000000 228.000000 0.395494 0.824342 0.405024
-6.67000008 5.57999992 0.23999999 192 213 53 97.000000 1.000000 4.000000 1.000000 -60.708740 114.000000 228.000000 0.583935 0.556854 0.590706
-6.73000002 5.63000011 0.17000000 192 213 53 97.000000 1.000000 4.000000 1.000000 -60.708740 114.000000 228.000000 0.745773 0.485658 0.456025
-6.78000021 5.63000011 0.17000000 192 213 53 97.000000 1.000000 4.000000 1.000000 -60.708740 114.000000 228.000000 0.914513 0.350635 0.201794
-6.76999998 5.61000013 0.15000001 192 213 53 97.000000 1.000000 4.000000 1.000000 -60.708740 114.000000 228.000000 0.900241 0.251950 0.355087
-6.65000010 5.61000013 0.02000000 192 213 53 97.000000 1.000000 4.000000 1.000000 -60.708740 114.000000 228.000000 0.743536 0.398850 0.536724
-6.63000011 5.59999990 0.05000000 192 213 53 97.000000 1.000000 4.000000 1.000000 -60.708740 114.000000 228.000000 0.546557 0.830708 0.105832
-6.63000011 5.46999979 0.27000001 192 213 53 97.000000 1.000000 4.000000 1.000000 -60.708740 114.000000 228.000000 0.281103 0.882394 0.377310
-6.69999981 5.34000015 0.28999999 192 213 53 97.000000 1.000000 4.000000 1.000000 -60.708740 114.000000 228.000000 0.693596 0.444101 0.567185
-6.65999985 5.40000010 0.15000001 192 213 53 97.000000 1.000000 4.000000 1.000000 -60.708740 114.000000 228.000000 0.785255 0.590085 0.187546
-6.69999981 5.36999989 0.20000000 192 213 53 97.000000 1.000000 4.000000 1.000000 -60.708740 114.000000 228.000000 0.394429 0.828458 0.397597
-6.63000011 5.44000006 -0.01000000 192 213 53 97.000000 1.000000 4.000000 1.000000 -60.708740 114.000000 228.000000 0.264803 0.960711 0.083151
-6.63999987 5.42000008 0.04000000 192 213 53 97.000000 1.000000 4.000000 1.000000 -60.708740 114.000000 228.000000 0.365690 0.752509 0.547723
-6.67000008 5.28999996 0.44000000 192 213 53 97.000000 1.000000 4.000000 1.000000 -60.708740 114.000000 228.000000 0.713668 0.616128 0.333262
-6.76000023 5.32999992 0.31999999 192 213 53 97.000000 1.000000 4.000000 1.000000 -60.708740 114.000000 228.000000 0.663215 0.732709 0.152585
-6.71999979 5.32000017 0.31999999 192 213 53 97.000000 1.000000 4.000000 1.000000 -60.708740 114.000000 228.000000 0.366084 0.804107 0.468396
-6.78000021 5.32999992 0.30000001 192 213 53 97.000000 1.000000 4.000000 1.000000 -60.708740 114.000000 228.000000 0.749684 0.462992 0.472877
-6.82000017 5.57000017 0.15000001 192 213 53 97.000000 1.000000 4.000000 1.000000 -60.708740 114.000000 228.000000 0.677056 0.724883 -0.127041
-6.92000008 5.55000019 0.23999999 192 213 53 97.000000 1.000000 4.000000 1.000000 -60.708740 114.000000 228.000000 0.954066 0.244872 0.172615
-6.88999987 5.57999992 0.10000000 192 213 53 97.000000 1.000000 4.000000 1.000000 -60.708740 114.000000 228.000000 0.857094 0.270420 0.438478
-6.92000008 5.55000019 0.00000000 192 213 53 97.000000 1.000000 4.000000 1.000000 -60.708740 114.000000 228.000000 0.899006 0.355764 0.255383
-6.90999985 5.53999996 0.01000000 192 213 53 97.000000 1.000000 4.000000 1.000000 -60.708740 114.000000 228.000000 0.647709 0.583779 0.489567
-6.80000019 5.34000015 0.23999999 192 213 53 97.000000 1.000000 4.000000 1.000000 -60.708740 114.000000 228.000000 0.467456 0.638354 0.611546
-6.90000010 5.42000008 0.27000001 192 213 53 97.000000 1.000000 4.000000 1.000000 -60.708740 114.000000 228.000000 0.913533 0.159551 0.374167
-6.84000015 5.32000017 0.31999999 192 213 53 97.000000 1.000000 4.000000 1.000000 -60.708740 114.000000 228.000000 0.725754 0.640372 0.251405
-6.80000019 5.32000017 0.25999999 192 213 53 97.000000 1.000000 4.000000 1.000000 -60.708740 114.000000 228.000000 0.554401 0.785007 0.276411
-6.19000006 6.09999990 -0.04000000 192 213 53 97.000000 1.000000 4.000000 1.000000 -60.708740 114.000000 228.000000 0.903206 0.251135 0.348065
-6.19999981 6.09000015 -0.12000000 192 213 53 97.000000 1.000000 4.000000 1.000000 -60.708740 114.000000 228.000000 0.665018 0.671522 0.326818
-6.26000023 6.15000010 -0.10000000 192 213 53 97.000000 1.000000 4.000000 1.000000 -60.708740 114.000000 228.000000 0.438686 0.881745 0.173434
-6.23000002 6.13000011 -0.10000000 192 213 53 97.000000 1.000000 4.000000 1.000000 -60.708740 114.000000 228.000000 0.610597 0.767475 0.195329
-6.26999998 6.17000008 -0.12000000 192 213 53 97.000000 1.000000 4.000000 1.000000 -60.708740 114.000000 228.000000 0.495034 0.774201 0.394404
-6.23000002 6.15000010 -0.14000000 192 213 53 97.000000 1.000000 4.000000 1.000000 -60.708740 114.000000 228.000000 0.796654 0.506091 0.330476
-6.23999977 6.15000010 -0.16000000 192 213 53 97.000000 1.000000 4.000000 1.000000 -60.708740 114.000000 228.000000 0.691598 0.662715 0.287230
-6.21000004 6.09000015 -0.17000000 192 213 53 97.000000 1.000000 4.000000 1.000000 -60.708740 114.000000 228.000000 0.905552 0.072172 0.418052
-6.25000000 6.13999987 -0.19000000 192 213 53 97.000000 1.000000 4.000000 1.000000 -60.708740 114.000000 228.000000 0.797367 0.558931 0.227598
-6.34000015 6.19000006 -0.13000000 192 213 53 97.000000 1.000000 4.000000 1.000000 -60.708740 114.000000 228.000000 0.076295 0.883629 0.461929
-6.40000010 6.21000004 -0.15000001 192 213 53 97.000000 1.000000 4.000000 1.000000 -60.708740 114.000000 228.000000 0.301568 0.685381 0.662804
-6.40999985 6.21000004 -0.15000001 192 213 53 97.000000 1.000000 4.000000 1.000000 -60.708740 114.000000 228.000000 0.460300 0.764983 0.450472
-6.36000013 6.19999981 -0.19000000 192 213 53 97.000000 1.000000 4.000000 1.000000 -60.708740 114.000000 228.000000 0.254624 0.872349 0.417341
-6.36000013 6.19999981 -0.19000000 192 213 53 97.000000 1.000000 4.000000 1.000000 -60.708740 114.000000 228.000000 0.254624 0.872349 0.417341
-6.40999985 6.26000023 -0.28999999 192 213 53 97.000000 1.000000 4.000000 1.000000 -60.708740 114.000000 228.000000 -0.131534 0.805463 0.577865
-6.42999983 6.25000000 -0.25999999 192 213 53 97.000000 1.000000 4.000000 1.000000 -60.708740 114.000000 228.000000 -0.129857 0.911795 0.389572
-6.44999981 6.23000002 -0.25000000 192 213 53 97.000000 1.000000 4.000000 1.000000 -60.708740 114.000000 228.000000 0.049210 0.822510 0.566618
-6.34000015 6.15999985 -0.07000000 192 213 53 97.000000 1.000000 4.000000 1.000000 -60.708740 114.000000 228.000000 0.385218 0.772062 0.505497
-6.44000006 6.26000023 -0.41000000 192 213 53 97.000000 1.000000 4.000000 1.000000 -60.708740 114.000000 228.000000 0.455439 0.695670 0.555535
-6.44999981 6.32999992 -0.37000000 192 213 53 97.000000 1.000000 4.000000 1.000000 -60.708740 114.000000 228.000000 -0.081616 0.895011 0.438514
-6.44000006 6.30000019 -0.41000000 192 213 53 97.000000 1.000000 4.000000 1.000000 -60.708740 114.000000 228.000000 0.473057 0.718715 0.509574
-6.32999992 6.01000023 -0.51999998 192 213 53 97.000000 1.000000 4.000000 1.000000 -60.708740 114.000000 228.000000 0.499503 -0.634049 -0.590321
-6.42999983 5.84999990 -0.11000000 192 213 53 97.000000 1.000000 4.000000 1.000000 -60.708740 114.000000 228.000000 -0.394446 0.869608 0.296976
-6.44999981 5.88000011 -0.20000000 192 213 53 97.000000 1.000000 4.000000 1.000000 -60.708740 114.000000 228.000000 0.329202 0.823792 0.461512
-6.40000010 5.86999989 -0.27000001 192 213 53 97.000000 1.000000 4.000000 1.000000 -60.708740 114.000000 228.000000 -0.615506 0.675232 0.406466
-6.38999987 5.94000006 -0.51999998 192 213 53 97.000000 1.000000 4.000000 1.000000 -60.708740 114.000000 228.000000 -0.119143 0.967234 0.224193
-6.42999983 5.90000010 -0.38999999 192 213 53 97.000000 1.000000 4.000000 1.000000 -60.708740 114.000000 228.000000 0.052994 0.708972 0.703243
-6.42000008 5.92000008 -0.50000000 192 213 53 97.000000 1.000000 4.000000 1.000000 -60.708740 114.000000 228.000000 0.074522 0.945258 0.317701
-6.36000013 5.92999983 -0.56000000 192 213 53 97.000000 1.000000 4.000000 1.000000 -60.708740 114.000000 228.000000 -0.039244 0.889090 0.456048
-6.36999989 5.96999979 -0.55000001 192 213 53 97.000000 1.000000 4.000000 1.000000 -60.708740 114.000000 228.000000 -0.510149 0.849275 0.135942
-6.36999989 5.92000008 -0.52999997 192 213 53 97.000000 1.000000 4.000000 1.000000 -60.708740 114.000000 228.000000 -0.132027 0.790677 0.597829
-6.38999987 5.96000004 -0.54000002 192 213 53 97.000000 1.000000 4.000000 1.000000 -60.708740 114.000000 228.000000 -0.079753 0.767080 0.636575
-6.42999983 5.94999981 -0.67000002 192 213 53 97.000000 1.000000 4.000000 1.000000 -60.708740 114.000000 228.000000 -0.373977 0.644164 0.667229
-6.44000006 5.92000008 -0.61000001 192 213 53 97.000000 1.000000 4.000000 1.000000 -60.708740 114.000000 228.000000 -0.101628 0.737906 0.667208
-6.38999987 6.09000015 -0.77999997 192 213 53 97.000000 1.000000 4.000000 1.000000 -60.708740 114.000000 228.000000 -0.129912 0.883684 0.449694
-6.38999987 6.03000021 -0.75000000 192 213 53 97.000000 1.000000 4.000000 1.000000 -60.708740 114.000000 228.000000 -0.230071 0.864644 0.446607
-6.36999989 6.09000015 -0.88999999 192 213 53 97.000000 1.000000 4.000000 1.000000 -60.708740 114.000000 228.000000 -0.527044 0.641546 0.557354
-6.38000011 6.09000015 -0.87000000 192 213 53 97.000000 1.000000 4.000000 1.000000 -60.708740 114.000000 228.000000 0.729890 -0.673401 -0.117436
-6.42000008 6.15000010 -1.00000000 192 213 53 97.000000 1.000000 4.000000 1.000000 -60.708740 114.000000 228.000000 -0.381671 0.923142 0.046223
-6.42999983 6.13000011 -1.01999998 192 213 53 97.000000 1.000000 4.000000 1.000000 -60.708740 114.000000 228.000000 -0.018188 0.731725 0.681357
-6.38000011 6.01999998 -0.89999998 192 213 53 97.000000 1.000000 4.000000 1.000000 -60.708740 114.000000 228.000000 -0.568932 0.755890 0.323953
-6.44999981 6.11999989 -1.08000004 192 213 53 97.000000 1.000000 4.000000 1.000000 -60.708740 114.000000 228.000000 -0.300503 0.880368 0.366946
-6.40999985 6.11000013 -1.16999996 192 213 53 97.000000 1.000000 4.000000 1.000000 -60.708740 114.000000 228.000000 -0.077624 0.940702 0.330233
-6.42999983 5.94999981 -0.75999999 192 213 53 97.000000 1.000000 4.000000 1.000000 -60.708740 114.000000 228.000000 -0.245000 0.957487 0.152297
-6.44000006 5.90999985 -0.80000001 192 213 53 97.000000 1.000000 4.000000 1.000000 -60.708740 114.000000 228.000000 0.259331 0.914179 0.311487
-6.38999987 5.98000002 -1.01999998 192 213 53 97.000000 1.000000 4.000000 1.000000 -60.708740 114.000000 228.000000 -0.439515 0.646739 0.623342
-6.44000006 5.92000008 -0.86000001 192 213 53 97.000000 1.000000 4.000000 1.000000 -60.708740 114.000000 228.000000 0.132155 0.916740 0.376990
-6.42000008 5.92000008 -0.88999999 192 213 53 97.000000 1.000000 4.000000 1.000000 -60.708740 114.000000 228.000000 0.201317 0.952540 0.228339
-6.44999981 5.88999987 -1.13999999 192 213 53 97.000000 1.000000 4.000000 1.000000 -60.708740 114.000000 228.000000 -0.255750 0.963199 0.082705
-6.44999981 5.90000010 -1.15999997 192 213 53 97.000000 1.000000 4.000000 1.000000 -60.708740 114.000000 228.000000 -0.222042 0.937046 0.269523
-6.44000006 5.90000010 -1.13999999 192 213 53 97.000000 1.000000 4.000000 1.000000 -60.708740 114.000000 228.000000 -0.068685 0.856456 0.511631
-6.40000010 5.94000006 -1.24000001 192 213 53 97.000000 1.000000 4.000000 1.000000 -60.708740 114.000000 228.000000 0.125077 0.925021 0.358738
-6.40000010 5.94999981 -1.28999996 192 213 53 97.000000 1.000000 4.000000 1.000000 -60.708740 114.000000 228.000000 0.234267 -0.665066 -0.709089
-6.38000011 5.98000002 -1.34000003 192 213 53 97.000000 1.000000 4.000000 1.000000 -60.708740 114.000000 228.000000 -0.269851 0.953118 0.136919
-6.51000023 6.36000013 -0.28999999 192 213 53 97.000000 1.000000 4.000000 1.000000 -60.708740 114.000000 228.000000 0.058942 0.702996 0.708747
-6.73999977 6.38000011 -0.34999999 192 213 53 97.000000 1.000000 4.000000 1.000000 -60.708740 114.000000 228.000000 0.899994 -0.434618 -0.033432
-6.73999977 6.38999987 -0.28999999 192 213 53 97.000000 1.000000 4.000000 1.000000 -60.708740 114.000000 228.000000 0.871938 -0.469950 -0.137370
-6.65000010 6.42999983 -0.37000000 192 213 53 97.000000 1.000000 4.000000 1.000000 -60.708740 114.000000 228.000000 -0.685415 0.718125 0.120431
-6.69000006 6.42999983 -0.50000000 192 213 53 97.000000 1.000000 4.000000 1.000000 -60.708740 114.000000 228.000000 0.759338 -0.650262 -0.023773
-6.73000002 6.40000010 -0.51999998 192 213 53 97.000000 1.000000 4.000000 1.000000 -60.708740 114.000000 228.000000 0.888748 -0.402368 -0.219608
-6.75000000 6.38000011 -0.44999999 192 213 53 97.000000 1.000000 4.000000 1.000000 -60.708740 114.000000 228.000000 0.681656 -0.434993 -0.588324
-6.69999981 6.40999985 -0.61000001 192 213 53 97.000000 1.000000 4.000000 1.000000 -60.708740 114.000000 228.000000 0.795517 -0.597003 -0.103636
-6.78000021 6.38000011 -0.56999999 192 213 53 97.000000 1.000000 4.000000 1.000000 -60.708740 114.000000 228.000000 0.860765 -0.456763 -0.224613
-6.75000000 6.38000011 -0.63000000 192 213 53 97.000000 1.000000 4.000000 1.000000 -60.708740 114.000000 228.000000 0.985890 -0.164892 0.028827
-6.61000013 6.42999983 -0.79000002 192 213 53 97.000000 1.000000 4.000000 1.000000 -60.708740 114.000000 228.000000 -0.546353 0.686701 0.479521
-6.53999996 6.34999990 -0.94999999 192 213 53 97.000000 1.000000 4.000000 1.000000 -60.708740 114.000000 228.000000 0.922468 -0.384905 0.030010
-6.53999996 6.34999990 -0.99000001 192 213 53 97.000000 1.000000 4.000000 1.000000 -60.708740 114.000000 228.000000 0.961730 0.273205 0.020827
-6.53999996 6.36000013 -1.00999999 192 213 53 97.000000 1.000000 4.000000 1.000000 -60.708740 114.000000 228.000000 0.879042 0.307135 -0.364628
-6.57999992 6.42000008 -0.86000001 192 213 53 97.000000 1.000000 4.000000 1.000000 -60.708740 114.000000 228.000000 -0.710387 0.558043 0.428881
-6.55999994 6.38000011 -0.99000001 192 213 53 97.000000 1.000000 4.000000 1.000000 -60.708740 114.000000 228.000000 0.947142 -0.194880 0.254842
-6.69999981 6.40999985 -0.81000000 192 213 53 97.000000 1.000000 4.000000 1.000000 -60.708740 114.000000 228.000000 0.769207 -0.297809 -0.565359
-6.75000000 6.38000011 -0.75000000 192 213 53 97.000000 1.000000 4.000000 1.000000 -60.708740 114.000000 228.000000 0.746575 -0.496069 -0.443330
-6.75000000 6.42000008 -0.72000003 192 213 53 97.000000 1.000000 4.000000 1.000000 -60.708740 114.000000 228.000000 0.800924 -0.579360 -0.151203
-6.73999977 6.40000010 -0.80000001 192 213 53 97.000000 1.000000 4.000000 1.000000 -60.708740 114.000000 228.000000 0.972207 -0.219771 -0.080707
-6.75000000 6.40999985 -0.77999997 192 213 53 97.000000 1.000000 4.000000 1.000000 -60.708740 114.000000 228.000000 0.992440 -0.115504 0.041492
-6.65000010 6.42999983 -0.86000001 192 213 53 97.000000 1.000000 4.000000 1.000000 -60.708740 114.000000 228.000000 -0.568024 0.778869 0.265917
-6.69999981 6.48000002 -0.94999999 192 213 53 97.000000 1.000000 4.000000 1.000000 -60.708740 114.000000 228.000000 0.887663 -0.067435 -0.455529
-6.65999985 6.42000008 -0.88000000 192 213 53 97.000000 1.000000 4.000000 1.000000 -60.708740 114.000000 228.000000 0.917090 -0.397537 -0.030176
-6.76999998 6.40999985 -0.93000001 192 213 53 97.000000 1.000000 4.000000 1.000000 -60.708740 114.000000 228.000000 0.981653 -0.080899 0.172665
-6.61000013 6.38999987 -1.23000002 192 213 53 97.000000 1.000000 4.000000 1.000000 -60.708740 114.000000 228.000000 0.921899 0.387428 0.001279
-6.61000013 6.38999987 -1.25999999 192 213 53 97.000000 1.000000 4.000000 1.000000 -60.708740 114.000000 228.000000 0.942238 0.314973 0.113926
-6.63999987 6.42000008 -1.12000000 192 213 53 97.000000 1.000000 4.000000 1.000000 -60.708740 114.000000 228.000000 0.972520 -0.003545 -0.232790
-6.71999979 6.44000006 -1.13999999 192 213 53 97.000000 1.000000 4.000000 1.000000 -60.708740 114.000000 228.000000 0.987782 -0.056876 0.145091
-6.80000019 6.38999987 -0.88000000 192 213 53 97.000000 1.000000 4.000000 1.000000 -60.708740 114.000000 228.000000 0.929702 -0.024500 -0.367497
