//X Y Z R G B PointSourceId ScanDirectionFlag NumberOfReturns ReturnNumber GpsTime Intensity Classification Nx Ny Nz
14.39000034 13.02000046 -1.25999999 71 149 145 97.000000 1.000000 4.000000 1.000000 -60.708740 114.000000 142.000000 0.677667 0.185936 -0.711474
14.39000034 13.03999996 -1.24000001 71 149 145 97.000000 1.000000 4.000000 1.000000 -60.708740 114.000000 142.000000 0.644580 -0.308558 -0.699506
14.35999966 13.05000019 -1.26999998 71 149 145 97.000000 1.000000 4.000000 1.000000 -60.708740 114.000000 142.000000 0.683904 0.149462 -0.714098
14.39000034 13.02999973 -1.25000000 71 149 145 97.000000 1.000000 4.000000 1.000000 -60.708740 114.000000 142.000000 -0.630666 -0.195830 0.750940
14.35999966 13.02000046 -1.25999999 71 149 145 97.000000 1.000000 4.000000 1.000000 -60.708740 114.000000 142.000000 -0.639942 -0.018125 0.768209
14.35999966 13.05000019 -1.26999998 71 149 145 97.000000 1.000000 4.000000 1.000000 -60.708740 114.000000 142.000000 0.683904 0.149462 -0.714098
14.39000034 13.00000000 -1.24000001 71 149 145 97.000000 1.000000 4.000000 1.000000 -60.708740 114.000000 142.000000 -0.318445 -0.013737 0.947842
14.39000034 13.01000023 -1.24000001 71 149 145 97.000000 1.000000 4.000000 1.000000 -60.708740 114.000000 142.000000 -0.686096 0.001380 0.727510
14.35999966 13.01000023 -1.25999999 71 149 145 97.000000 1.000000 4.000000 1.000000 -60.708740 114.000000 142.000000 0.894320 0.067108 -0.442367
14.39000034 12.98999977 -1.24000001 71 149 145 97.000000 1.000000 4.000000 1.000000 -60.708740 114.000000 142.000000 -0.427044 0.144252 0.892650
14.38000011 12.97999954 -1.24000001 71 149 145 97.000000 1.000000 4.000000 1.000000 -60.708740 114.000000 142.000000 -0.359681 -0.212342 0.908593
14.39000034 12.97999954 -1.24000001 71 149 145 97.000000 1.000000 4.000000 1.000000 -60.708740 114.000000 142.000000 0.692270 -0.111178 -0.713023
14.40999985 12.96000004 -1.23000002 71 149 145 97.000000 1.000000 4.000000 1.000000 -60.708740 114.000000 142.000000 -0.202314 0.128514 0.970852
14.40999985 12.93000031 -1.22000003 71 149 145 97.000000 1.000000 4.000000 1.000000 -60.708740 114.000000 142.000000 -0.481599 -0.299627 0.823581
14.43000031 12.96000004 -1.23000002 71 149 145 97.000000 1.000000 4.000000 1.000000 -60.708740 114.000000 142.000000 -0.272020 0.061995 0.960293
14.40999985 12.96000004 -1.23000002 71 149 145 97.000000 1.000000 4.000000 1.000000 -60.708740 114.000000 142.000000 -0.202314 0.128514 0.970852
14.40999985 12.97000027 -1.22000003 71 149 145 97.000000 1.000000 4.000000 1.000000 -60.708740 114.000000 142.000000 -0.624776 -0.113730 0.772477
14.39999962 12.93000031 -1.24000001 71 149 145 97.000000 1.000000 4.000000 1.000000 -60.708740 114.000000 142.000000 -0.174325 0.114980 0.977952
14.39999962 12.93000031 -1.24000001 71 149 145 97.000000 1.000000 4.000000 1.000000 -60.708740 114.000000 142.000000 -0.174325 0.114980 0.977952
14.40999985 12.97000027 -1.25000000 71 149 145 97.000000 1.000000 4.000000 1.000000 -60.708740 114.000000 142.000000 0.619362 -0.278633 -0.733999
14.42000008 12.92000008 -1.22000003 71 149 145 97.000000 1.000000 4.000000 1.000000 -60.708740 114.000000 142.000000 -0.128143 0.231694 0.964312
14.42000008 12.89000034 -1.21000004 71 149 145 97.000000 1.000000 4.000000 1.000000 -60.708740 114.000000 142.000000 -0.042542 0.079630 0.995916
14.42000008 12.89999962 -1.22000003 71 149 145 97.000000 1.000000 4.000000 1.000000 -60.708740 114.000000 142.000000 -0.091861 0.278170 0.956129
14.35999966 12.96000004 -1.26999998 71 149 145 97.000000 1.000000 4.000000 1.000000 -60.708740 114.000000 142.000000 0.927209 -0.054076 -0.370620
14.39000034 12.94999981 -1.24000001 71 149 145 97.000000 1.000000 4.000000 1.000000 -60.708740 114.000000 142.000000 0.739460 0.098497 -0.665955
14.38000011 12.97000027 -1.25000000 71 149 145 97.000000 1.000000 4.000000 1.000000 -60.708740 114.000000 142.000000 -0.607725 -0.132243 0.783059
14.35999966 12.96000004 -1.26999998 71 149 145 97.000000 1.000000 4.000000 1.000000 -60.708740 114.000000 142.000000 0.927209 -0.054076 -0.370620
14.39000034 12.93999958 -1.24000001 71 149 145 97.000000 1.000000 4.000000 1.000000 -60.708740 114.000000 142.000000 -0.425614 -0.147603 0.892786
14.36999989 12.94999981 -1.25999999 71 149 145 97.000000 1.000000 4.000000 1.000000 -60.708740 114.000000 142.000000 0.743951 0.271249 -0.610706
14.38000011 12.93999958 -1.25000000 71 149 145 97.000000 1.000000 4.000000 1.000000 -60.708740 114.000000 142.000000 0.772593 -0.135988 -0.620167
14.38000011 12.94999981 -1.25000000 71 149 145 97.000000 1.000000 4.000000 1.000000 -60.708740 114.000000 142.000000 -0.704290 0.009724 0.709846
14.38000011 12.96000004 -1.25000000 71 149 145 97.000000 1.000000 4.000000 1.000000 -60.708740 114.000000 142.000000 -0.552742 0.348503 0.756982
14.35999966 12.96000004 -1.26999998 71 149 145 97.000000 1.000000 4.000000 1.000000 -60.708740 114.000000 142.000000 0.927209 -0.054076 -0.370620
14.35999966 12.96000004 -1.25000000 71 149 145 97.000000 1.000000 4.000000 1.000000 -60.708740 114.000000 142.000000 -0.626232 -0.058486 0.777440
14.38000011 12.97000027 -1.25000000 71 149 145 97.000000 1.000000 4.000000 1.000000 -60.708740 114.000000 142.000000 -0.607725 -0.132243 0.783059
14.39000034 12.93999958 -1.24000001 71 149 145 97.000000 1.000000 4.000000 1.000000 -60.708740 114.000000 142.000000 -0.425614 -0.147603 0.892786
14.35999966 12.97000027 -1.26999998 71 149 145 97.000000 1.000000 4.000000 1.000000 -60.708740 114.000000 142.000000 0.951475 0.060350 -0.301750
14.35999966 12.96000004 -1.25999999 71 149 145 97.000000 1.000000 4.000000 1.000000 -60.708740 114.000000 142.000000 -0.574772 0.061025 0.816035
14.38000011 12.93000031 -1.24000001 71 149 145 97.000000 1.000000 4.000000 1.000000 -60.708740 114.000000 142.000000 -0.701211 0.026699 0.712453
14.38000011 12.96000004 -1.25000000 71 149 145 97.000000 1.000000 4.000000 1.000000 -60.708740 114.000000 142.000000 -0.552742 0.348503 0.756982
14.39000034 12.94999981 -1.24000001 71 149 145 97.000000 1.000000 4.000000 1.000000 -60.708740 114.000000 142.000000 0.739460 0.098497 -0.665955
14.38000011 12.93999958 -1.25000000 71 149 145 97.000000 1.000000 4.000000 1.000000 -60.708740 114.000000 142.000000 0.772593 -0.135988 -0.620167
14.35999966 12.89000034 -1.21000004 71 149 145 97.000000 1.000000 4.000000 1.000000 -60.708740 114.000000 142.000000 0.770133 -0.168609 -0.615195
14.39000034 12.90999985 -1.22000003 71 149 145 97.000000 1.000000 4.000000 1.000000 -60.708740 114.000000 142.000000 0.687178 -0.261858 -0.677656
14.35999966 12.92000008 -1.21000004 71 149 145 97.000000 1.000000 4.000000 1.000000 -60.708740 114.000000 142.000000 0.858804 0.092268 -0.503926
14.35999966 12.89999962 -1.26999998 71 149 145 97.000000 1.000000 4.000000 1.000000 -60.708740 114.000000 142.000000 0.801571 -0.157318 -0.576832
14.35999966 12.92000008 -1.25999999 71 149 145 97.000000 1.000000 4.000000 1.000000 -60.708740 114.000000 142.000000 -0.459843 0.171890 0.871205
14.38000011 12.92000008 -1.24000001 71 149 145 97.000000 1.000000 4.000000 1.000000 -60.708740 114.000000 142.000000 -0.588998 0.335875 0.735030
14.36999989 12.92000008 -1.25000000 71 149 145 97.000000 1.000000 4.000000 1.000000 -60.708740 114.000000 142.000000 0.725821 -0.114291 -0.678323
14.35999966 12.92000008 -1.26999998 71 149 145 97.000000 1.000000 4.000000 1.000000 -60.708740 114.000000 142.000000 0.903758 -0.131122 -0.407466
14.36999989 12.92000008 -1.25999999 71 149 145 97.000000 1.000000 4.000000 1.000000 -60.708740 114.000000 142.000000 -0.523632 0.371243 0.766804
14.35999966 12.89000034 -1.25000000 71 149 145 97.000000 1.000000 4.000000 1.000000 -60.708740 114.000000 142.000000 -0.589620 0.058252 0.805577
14.35999966 12.89999962 -1.25000000 71 149 145 97.000000 1.000000 4.000000 1.000000 -60.708740 114.000000 142.000000 0.773499 -0.231894 -0.589851
14.39000034 12.90999985 -1.25000000 71 149 145 97.000000 1.000000 4.000000 1.000000 -60.708740 114.000000 142.000000 0.712287 0.251117 -0.655430
14.35999966 12.89000034 -1.25999999 71 149 145 97.000000 1.000000 4.000000 1.000000 -60.708740 114.000000 142.000000 0.611800 0.188600 -0.768200
14.35999966 12.94999981 -1.27999997 71 149 145 97.000000 1.000000 4.000000 1.000000 -60.708740 114.000000 142.000000 -0.572308 -0.134574 0.808921
14.36999989 12.97000027 -1.27999997 71 149 145 97.000000 1.000000 4.000000 1.000000 -60.708740 114.000000 142.000000 0.957903 -0.165613 -0.234507
14.35999966 12.93000031 -1.27999997 71 149 145 97.000000 1.000000 4.000000 1.000000 -60.708740 114.000000 142.000000 0.749900 0.076876 -0.657069
14.48999977 12.85999966 -1.11000001 71 149 145 97.000000 1.000000 4.000000 1.000000 -60.708740 114.000000 142.000000 0.290654 -0.198868 0.935934
14.48999977 12.86999989 -1.12000000 71 149 145 97.000000 1.000000 4.000000 1.000000 -60.708740 114.000000 142.000000 0.514026 -0.107989 0.850950
14.46000004 12.86999989 -1.17999995 71 149 145 97.000000 1.000000 4.000000 1.000000 -60.708740 114.000000 142.000000 0.123903 0.095582 0.987680
14.39000034 12.84000015 -1.19000006 71 149 145 97.000000 1.000000 4.000000 1.000000 -60.708740 114.000000 142.000000 -0.599234 0.132337 0.789561
14.42000008 12.88000011 -1.13999999 71 149 145 97.000000 1.000000 4.000000 1.000000 -60.708740 114.000000 142.000000 -0.242862 0.175773 0.954003
14.42000008 12.88000011 -1.13999999 71 149 145 97.000000 1.000000 4.000000 1.000000 -60.708740 114.000000 142.000000 -0.242862 0.175773 0.954003
14.51000023 12.85000038 -1.21000004 71 149 145 97.000000 1.000000 4.000000 1.000000 -60.708740 114.000000 142.000000 0.313738 0.125226 0.941215
14.50000000 12.85999966 -1.22000003 71 149 145 97.000000 1.000000 4.000000 1.000000 -60.708740 114.000000 142.000000 0.200638 0.307271 0.930231
14.52000046 12.85000038 -1.23000002 71 149 145 97.000000 1.000000 4.000000 1.000000 -60.708740 114.000000 142.000000 0.447499 0.033596 0.893653
14.51000023 12.88000011 -1.22000003 71 149 145 97.000000 1.000000 4.000000 1.000000 -60.708740 114.000000 142.000000 0.167527 -0.172642 0.970633
14.51000023 12.86999989 -1.22000003 71 149 145 97.000000 1.000000 4.000000 1.000000 -60.708740 114.000000 142.000000 0.186135 -0.079077 0.979337
14.48999977 12.85000038 -1.20000005 71 149 145 97.000000 1.000000 4.000000 1.000000 -60.708740 114.000000 142.000000 0.125938 -0.175815 0.976334
14.48999977 12.81999969 -1.21000004 71 149 145 97.000000 1.000000 4.000000 1.000000 -60.708740 114.000000 142.000000 0.309488 -0.011186 0.950837
14.50000000 12.82999992 -1.21000004 71 149 145 97.000000 1.000000 4.000000 1.000000 -60.708740 114.000000 142.000000 0.379754 0.237901 0.893974
14.50000000 12.81000042 -1.20000005 71 149 145 97.000000 1.000000 4.000000 1.000000 -60.708740 114.000000 142.000000 0.124651 0.034812 0.991590
14.47999954 12.85000038 -1.20000005 71 149 145 97.000000 1.000000 4.000000 1.000000 -60.708740 114.000000 142.000000 -0.063996 -0.330429 0.941659
14.47999954 12.85999966 -1.20000005 71 149 145 97.000000 1.000000 4.000000 1.000000 -60.708740 114.000000 142.000000 0.259460 -0.338617 0.904444
14.47999954 12.85000038 -1.20000005 71 149 145 97.000000 1.000000 4.000000 1.000000 -60.708740 114.000000 142.000000 -0.063996 -0.330429 0.941659
14.46000004 12.86999989 -1.21000004 71 149 145 97.000000 1.000000 4.000000 1.000000 -60.708740 114.000000 142.000000 0.296931 0.008625 0.954860
14.46000004 12.84000015 -1.22000003 71 149 145 97.000000 1.000000 4.000000 1.000000 -60.708740 114.000000 142.000000 0.073969 0.139719 0.987425
14.43999958 12.84000015 -1.20000005 71 149 145 97.000000 1.000000 4.000000 1.000000 -60.708740 114.000000 142.000000 -0.207847 -0.075022 0.975280
14.50000000 12.80000019 -1.21000004 71 149 145 97.000000 1.000000 4.000000 1.000000 -60.708740 114.000000 142.000000 -0.050563 -0.245416 0.968098
14.43999958 12.72000027 -1.22000003 71 149 145 97.000000 1.000000 4.000000 1.000000 -60.708740 114.000000 143.000000 -0.419871 0.055353 0.905894
14.43999958 12.72000027 -1.22000003 71 149 145 97.000000 1.000000 4.000000 1.000000 -60.708740 114.000000 143.000000 -0.419871 0.055353 0.905894
14.43000031 12.86999989 -1.20000005 71 149 145 97.000000 1.000000 4.000000 1.000000 -60.708740 114.000000 142.000000 -0.174502 -0.134329 0.975451
14.36999989 12.86999989 -1.23000002 71 149 145 97.000000 1.000000 4.000000 1.000000 -60.708740 114.000000 142.000000 -0.518824 0.184972 0.834630
14.35999966 12.88000011 -1.25999999 71 149 145 97.000000 1.000000 4.000000 1.000000 -60.708740 114.000000 142.000000 -0.723506 -0.004150 0.690305
14.35999966 12.85000038 -1.25999999 71 149 145 97.000000 1.000000 4.000000 1.000000 -60.708740 114.000000 142.000000 -0.631551 -0.009674 0.775274
14.35999966 12.88000011 -1.25999999 71 149 145 97.000000 1.000000 4.000000 1.000000 -60.708740 114.000000 142.000000 -0.723506 -0.004150 0.690305
14.35999966 12.82999992 -1.21000004 71 149 145 97.000000 1.000000 4.000000 1.000000 -60.708740 114.000000 142.000000 -0.292534 -0.159193 0.942911
14.56999969 12.64000034 -1.22000003 71 149 145 97.000000 1.000000 4.000000 1.000000 -60.708740 114.000000 143.000000 0.239921 -0.288189 0.927030
14.56000042 12.65999985 -1.23000002 71 149 145 97.000000 1.000000 4.000000 1.000000 -60.708740 114.000000 143.000000 0.387172 -0.461072 0.798442
14.55000019 12.64000034 -1.23000002 71 149 145 97.000000 1.000000 4.000000 1.000000 -60.708740 114.000000 143.000000 0.354576 -0.003786 0.935020
14.55000019 12.64999962 -1.23000002 71 149 145 97.000000 1.000000 4.000000 1.000000 -60.708740 114.000000 143.000000 0.278915 -0.043776 0.959318
14.52999973 12.64999962 -1.24000001 71 149 145 97.000000 1.000000 4.000000 1.000000 -60.708740 114.000000 143.000000 0.336015 0.112005 0.935173
14.57999992 12.56000042 -1.23000002 71 149 145 97.000000 1.000000 4.000000 1.000000 -60.708740 114.000000 143.000000 0.580623 0.055096 0.812307
14.52999973 12.60999966 -1.21000004 71 149 145 97.000000 1.000000 4.000000 1.000000 -60.708740 114.000000 143.000000 0.491184 -0.119555 0.862812
14.53999996 12.60999966 -1.25000000 71 149 145 97.000000 1.000000 4.000000 1.000000 -60.708740 114.000000 143.000000 -0.651480 0.453859 -0.607936
14.53999996 12.56999969 -1.23000002 71 149 145 97.000000 1.000000 4.000000 1.000000 -60.708740 114.000000 143.000000 0.482826 -0.195821 0.853541
14.55000019 12.56000042 -1.21000004 71 149 145 97.000000 1.000000 4.000000 1.000000 -60.708740 114.000000 143.000000 0.287198 -0.016024 0.957737
14.52999973 12.59000015 -1.22000003 71 149 145 97.000000 1.000000 4.000000 1.000000 -60.708740 114.000000 143.000000 0.232659 -0.277780 0.932045
14.52999973 12.57999992 -1.23000002 71 149 145 97.000000 1.000000 4.000000 1.000000 -60.708740 114.000000 143.000000 0.239904 0.025317 0.970466
14.52999973 12.56999969 -1.23000002 71 149 145 97.000000 1.000000 4.000000 1.000000 -60.708740 114.000000 143.000000 0.423357 -0.357256 0.832549
14.55000019 12.57999992 -1.24000001 71 149 145 97.000000 1.000000 4.000000 1.000000 -60.708740 114.000000 143.000000 0.332892 -0.039844 0.942123
14.61999989 12.51000023 -1.24000001 71 149 145 97.000000 1.000000 4.000000 1.000000 -60.708740 114.000000 143.000000 0.599913 -0.394984 0.695767
14.60999966 12.53999996 -1.26999998 71 149 145 97.000000 1.000000 4.000000 1.000000 -60.708740 114.000000 143.000000 0.686316 -0.092192 0.721437
14.61999989 12.47999954 -1.25999999 71 149 145 97.000000 1.000000 4.000000 1.000000 -60.708740 114.000000 143.000000 0.922269 -0.241649 0.301704
14.61999989 12.47999954 -1.26999998 71 149 145 97.000000 1.000000 4.000000 1.000000 -60.708740 114.000000 143.000000 0.800211 -0.288834 0.525583
14.60999966 12.47000027 -1.25000000 71 149 145 97.000000 1.000000 4.000000 1.000000 -60.708740 114.000000 143.000000 0.753395 -0.171987 0.634678
14.61999989 12.43000031 -1.23000002 71 149 145 97.000000 1.000000 4.000000 1.000000 -60.708740 114.000000 143.000000 0.912495 -0.024946 0.408325
14.56999969 12.55000019 -1.22000003 71 149 145 97.000000 1.000000 4.000000 1.000000 -60.708740 114.000000 143.000000 0.435747 0.151001 0.887313
14.57999992 12.51000023 -1.24000001 71 149 145 97.000000 1.000000 4.000000 1.000000 -60.708740 114.000000 143.000000 0.583356 0.082102 0.808056
14.57999992 12.50000000 -1.24000001 71 149 145 97.000000 1.000000 4.000000 1.000000 -60.708740 114.000000 143.000000 0.629284 0.152417 0.762083
14.55000019 12.52999973 -1.21000004 71 149 145 97.000000 1.000000 4.000000 1.000000 -60.708740 114.000000 143.000000 0.364654 0.098958 0.925870
14.55000019 12.52999973 -1.21000004 71 149 145 97.000000 1.000000 4.000000 1.000000 -60.708740 114.000000 143.000000 0.364654 0.098958 0.925870
14.56000042 12.51000023 -1.23000002 71 149 145 97.000000 1.000000 4.000000 1.000000 -60.708740 114.000000 143.000000 0.410824 0.011738 0.911639
14.56000042 12.55000019 -1.21000004 71 149 145 97.000000 1.000000 4.000000 1.000000 -60.708740 114.000000 143.000000 0.311307 0.125332 0.942008
14.55000019 12.53999996 -1.21000004 71 149 145 97.000000 1.000000 4.000000 1.000000 -60.708740 114.000000 143.000000 0.350441 0.185862 0.917958
14.52999973 12.52000046 -1.21000004 71 149 145 97.000000 1.000000 4.000000 1.000000 -60.708740 114.000000 143.000000 0.595329 0.064244 0.800910
14.55000019 12.47000027 -1.22000003 71 149 145 97.000000 1.000000 4.000000 1.000000 -60.708740 114.000000 143.000000 0.474696 0.273685 0.836517
14.56999969 12.46000004 -1.23000002 71 149 145 97.000000 1.000000 4.000000 1.000000 -60.708740 114.000000 143.000000 0.300017 -0.001225 0.953933
14.56999969 12.46000004 -1.23000002 71 149 145 97.000000 1.000000 4.000000 1.000000 -60.708740 114.000000 143.000000 0.300017 -0.001225 0.953933
14.56999969 12.43999958 -1.20000005 71 149 145 97.000000 1.000000 4.000000 1.000000 -60.708740 114.000000 143.000000 0.691598 -0.287230 0.662715
14.56999969 12.42000008 -1.22000003 71 149 145 97.000000 1.000000 4.000000 1.000000 -60.708740 114.000000 143.000000 0.283626 -0.364661 0.886893
14.59000015 12.42000008 -1.25000000 71 149 145 97.000000 1.000000 4.000000 1.000000 -60.708740 114.000000 143.000000 0.473868 -0.270120 0.838144
14.55000019 12.46000004 -1.22000003 71 149 145 97.000000 1.000000 4.000000 1.000000 -60.708740 114.000000 143.000000 0.342666 0.207894 0.916166
14.50000000 12.64000034 -1.19000006 71 149 145 97.000000 1.000000 4.000000 1.000000 -60.708740 114.000000 143.000000 0.444432 0.099541 0.890265
14.46000004 12.68999958 -1.16999996 71 149 145 97.000000 1.000000 4.000000 1.000000 -60.708740 114.000000 143.000000 -0.261029 0.015783 0.965202
14.47000027 12.68999958 -1.16999996 71 149 145 97.000000 1.000000 4.000000 1.000000 -60.708740 114.000000 143.000000 0.201943 0.145347 0.968552
14.46000004 12.67000008 -1.16999996 71 149 145 97.000000 1.000000 4.000000 1.000000 -60.708740 114.000000 143.000000 -0.063512 -0.180949 0.981440
14.47999954 12.67000008 -1.16999996 71 149 145 97.000000 1.000000 4.000000 1.000000 -60.708740 114.000000 143.000000 0.340128 -0.328035 0.881309
14.47999954 12.67000008 -1.15999997 71 149 145 97.000000 1.000000 4.000000 1.000000 -60.708740 114.000000 143.000000 0.053317 -0.463449 0.884518
14.46000004 12.65999985 -1.16999996 71 149 145 97.000000 1.000000 4.000000 1.000000 -60.708740 114.000000 143.000000 0.051470 -0.376126 0.925138
14.47000027 12.64999962 -1.17999995 71 149 145 97.000000 1.000000 4.000000 1.000000 -60.708740 114.000000 143.000000 0.454818 -0.296486 0.839784
14.43000031 12.60999966 -1.19000006 71 149 145 97.000000 1.000000 4.000000 1.000000 -60.708740 114.000000 143.000000 0.186836 0.068707 0.979985
14.38000011 12.56999969 -1.17999995 71 149 145 97.000000 1.000000 4.000000 1.000000 -60.708740 114.000000 143.000000 -0.300177 0.033911 0.953281
14.39000034 12.56999969 -1.16999996 71 149 145 97.000000 1.000000 4.000000 1.000000 -60.708740 114.000000 143.000000 -0.085820 -0.396408 0.914054
14.36999989 12.56000042 -1.17999995 71 149 145 97.000000 1.000000 4.000000 1.000000 -60.708740 114.000000 143.000000 -0.182004 -0.005723 0.983281
14.48999977 12.67000008 -1.21000004 71 149 145 97.000000 1.000000 4.000000 1.000000 -60.708740 114.000000 143.000000 0.137056 0.098919 0.985612
14.52000046 12.64999962 -1.21000004 71 149 145 97.000000 1.000000 4.000000 1.000000 -60.708740 114.000000 143.000000 0.513619 -0.017618 0.857838
14.51000023 12.64999962 -1.21000004 71 149 145 97.000000 1.000000 4.000000 1.000000 -60.708740 114.000000 143.000000 0.479147 0.277564 0.832692
14.48999977 12.64999962 -1.25000000 71 149 145 97.000000 1.000000 4.000000 1.000000 -60.708740 114.000000 143.000000 0.452744 -0.114960 0.884199
14.43999958 12.68000031 -1.21000004 71 149 145 97.000000 1.000000 4.000000 1.000000 -60.708740 114.000000 143.000000 0.228176 -0.125045 0.965557
14.44999981 12.68000031 -1.20000005 71 149 145 97.000000 1.000000 4.000000 1.000000 -60.708740 114.000000 143.000000 -0.173351 -0.173351 0.969484
14.46000004 12.69999981 -1.22000003 71 149 145 97.000000 1.000000 4.000000 1.000000 -60.708740 114.000000 143.000000 -0.012206 -0.134261 0.990871
14.46000004 12.65999985 -1.21000004 71 149 145 97.000000 1.000000 4.000000 1.000000 -60.708740 114.000000 143.000000 -0.099488 0.050303 0.993766
14.46000004 12.64999962 -1.21000004 71 149 145 97.000000 1.000000 4.000000 1.000000 -60.708740 114.000000 143.000000 -0.017991 -0.241085 0.970337
14.46000004 12.64000034 -1.23000002 71 149 145 97.000000 1.000000 4.000000 1.000000 -60.708740 114.000000 143.000000 0.210117 -0.442587 0.871762
14.46000004 12.64000034 -1.21000004 71 149 145 97.000000 1.000000 4.000000 1.000000 -60.708740 114.000000 143.000000 -0.185607 0.061071 0.980724
14.46000004 12.64999962 -1.21000004 71 149 145 97.000000 1.000000 4.000000 1.000000 -60.708740 114.000000 143.000000 -0.017991 -0.241085 0.970337
14.47999954 12.65999985 -1.21000004 71 149 145 97.000000 1.000000 4.000000 1.000000 -60.708740 114.000000 143.000000 -0.117118 -0.134022 0.984033
14.47999954 12.64000034 -1.21000004 71 149 145 97.000000 1.000000 4.000000 1.000000 -60.708740 114.000000 143.000000 0.145276 0.079134 0.986221
14.47000027 12.64999962 -1.22000003 71 149 145 97.000000 1.000000 4.000000 1.000000 -60.708740 114.000000 143.000000 0.147658 -0.381098 0.912667
14.47999954 12.64999962 -1.21000004 71 149 145 97.000000 1.000000 4.000000 1.000000 -60.708740 114.000000 143.000000 -0.120731 -0.175495 0.977049
14.47000027 12.67000008 -1.21000004 71 149 145 97.000000 1.000000 4.000000 1.000000 -60.708740 114.000000 143.000000 0.156539 -0.292660 0.943317
14.44999981 12.64000034 -1.22000003 71 149 145 97.000000 1.000000 4.000000 1.000000 -60.708740 114.000000 143.000000 -0.110000 -0.179214 0.977641
14.44999981 12.64999962 -1.22000003 71 149 145 97.000000 1.000000 4.000000 1.000000 -60.708740 114.000000 143.000000 -0.298284 -0.184520 0.936472
14.46000004 12.65999985 -1.21000004 71 149 145 97.000000 1.000000 4.000000 1.000000 -60.708740 114.000000 143.000000 -0.099488 0.050303 0.993766
14.47000027 12.67000008 -1.21000004 71 149 145 97.000000 1.000000 4.000000 1.000000 -60.708740 114.000000 143.000000 0.156539 -0.292660 0.943317
14.52000046 12.61999989 -1.21000004 71 149 145 97.000000 1.000000 4.000000 1.000000 -60.708740 114.000000 143.000000 0.211264 -0.151644 0.965594
14.48999977 12.61999989 -1.22000003 71 149 145 97.000000 1.000000 4.000000 1.000000 -60.708740 114.000000 143.000000 0.177681 0.139877 0.974096
14.50000000 12.56000042 -1.22000003 71 149 145 97.000000 1.000000 4.000000 1.000000 -60.708740 114.000000 143.000000 0.277047 0.213006 0.936949
14.51000023 12.56000042 -1.23000002 71 149 145 97.000000 1.000000 4.000000 1.000000 -60.708740 114.000000 143.000000 0.540394 -0.199413 0.817441
14.51000023 12.59000015 -1.20000005 71 149 145 97.000000 1.000000 4.000000 1.000000 -60.708740 114.000000 143.000000 -0.021016 0.003002 0.999775
14.47999954 12.63000011 -1.21000004 71 149 145 97.000000 1.000000 4.000000 1.000000 -60.708740 114.000000 143.000000 0.364786 -0.161971 0.916895
14.43999958 12.61999989 -1.22000003 71 149 145 97.000000 1.000000 4.000000 1.000000 -60.708740 114.000000 143.000000 0.022611 -0.222542 0.974661
14.44999981 12.59000015 -1.22000003 71 149 145 97.000000 1.000000 4.000000 1.000000 -60.708740 114.000000 143.000000 0.065880 0.044280 0.996845
14.46000004 12.59000015 -1.22000003 71 149 145 97.000000 1.000000 4.000000 1.000000 -60.708740 114.000000 143.000000 -0.068472 0.011588 0.997586
14.35999966 12.69999981 -1.26999998 71 149 145 97.000000 1.000000 4.000000 1.000000 -60.708740 114.000000 143.000000 -0.660607 -0.049938 0.749069
14.36999989 12.69999981 -1.25999999 71 149 145 97.000000 1.000000 4.000000 1.000000 -60.708740 114.000000 143.000000 0.750768 -0.088926 -0.654553
14.35999966 12.68999958 -1.26999998 71 149 145 97.000000 1.000000 4.000000 1.000000 -60.708740 114.000000 143.000000 -0.578745 -0.055186 0.813639
14.35999966 12.65999985 -1.29999995 71 149 145 97.000000 1.000000 4.000000 1.000000 -60.708740 114.000000 143.000000 0.845836 -0.099088 -0.524160
14.35999966 12.68000031 -1.28999996 71 149 145 97.000000 1.000000 4.000000 1.000000 -60.708740 114.000000 143.000000 0.722129 0.374983 -0.581306
14.43000031 12.60999966 -1.24000001 71 149 145 97.000000 1.000000 4.000000 1.000000 -60.708740 114.000000 143.000000 -0.394830 -0.145762 0.907118
14.42000008 12.61999989 -1.24000001 71 149 145 97.000000 1.000000 4.000000 1.000000 -60.708740 114.000000 143.000000 -0.428653 0.052736 0.901929
14.42000008 12.61999989 -1.24000001 71 149 145 97.000000 1.000000 4.000000 1.000000 -60.708740 114.000000 143.000000 -0.428653 0.052736 0.901929
14.42000008 12.60999966 -1.24000001 71 149 145 97.000000 1.000000 4.000000 1.000000 -60.708740 114.000000 143.000000 -0.464503 0.056179 0.883788
14.40999985 12.56999969 -1.21000004 71 149 145 97.000000 1.000000 4.000000 1.000000 -60.708740 114.000000 143.000000 -0.195765 0.211746 0.957517
14.42000008 12.59000015 -1.23000002 71 149 145 97.000000 1.000000 4.000000 1.000000 -60.708740 114.000000 143.000000 -0.432851 0.084358 0.897510
14.39999962 12.59000015 -1.25999999 71 149 145 97.000000 1.000000 4.000000 1.000000 -60.708740 114.000000 143.000000 -0.568936 0.207025 0.795897
14.39000034 12.60000038 -1.24000001 71 149 145 97.000000 1.000000 4.000000 1.000000 -60.708740 114.000000 143.000000 -0.350110 -0.081204 0.933182
14.39000034 12.59000015 -1.24000001 71 149 145 97.000000 1.000000 4.000000 1.000000 -60.708740 114.000000 143.000000 -0.111085 -0.193462 0.974799
14.39000034 12.56000042 -1.25999999 71 149 145 97.000000 1.000000 4.000000 1.000000 -60.708740 114.000000 143.000000 -0.001026 -0.052343 0.998629
14.39000034 12.56999969 -1.25999999 71 149 145 97.000000 1.000000 4.000000 1.000000 -60.708740 114.000000 143.000000 -0.611291 0.201711 0.765269
14.35999966 12.63000011 -1.28999996 71 149 145 97.000000 1.000000 4.000000 1.000000 -60.708740 114.000000 143.000000 0.731408 -0.052959 -0.679880
14.35999966 12.63000011 -1.28999996 71 149 145 97.000000 1.000000 4.000000 1.000000 -60.708740 114.000000 143.000000 0.731408 -0.052959 -0.679880
14.39000034 12.56999969 -1.29999995 71 149 145 97.000000 1.000000 4.000000 1.000000 -60.708740 114.000000 143.000000 -0.641100 0.279782 0.714642
14.35999966 12.56999969 -1.28999996 71 149 145 97.000000 1.000000 4.000000 1.000000 -60.708740 114.000000 143.000000 -0.287792 0.065233 0.955469
14.35999966 12.57999992 -1.30999994 71 149 145 97.000000 1.000000 4.000000 1.000000 -60.708740 114.000000 143.000000 -0.561301 -0.338075 0.755411
14.38000011 12.56000042 -1.27999997 71 149 145 97.000000 1.000000 4.000000 1.000000 -60.708740 114.000000 143.000000 0.751583 -0.023793 -0.659209
14.44999981 12.47999954 -1.17999995 71 149 145 97.000000 1.000000 4.000000 1.000000 -60.708740 114.000000 143.000000 0.205606 0.263562 0.942476
14.39999962 12.52000046 -1.15999997 71 149 145 97.000000 1.000000 4.000000 1.000000 -60.708740 114.000000 143.000000 -0.369534 -0.093399 0.924511
14.35999966 12.53999996 -1.17999995 71 149 145 97.000000 1.000000 4.000000 1.000000 -60.708740 114.000000 143.000000 -0.627550 -0.091730 0.773153
14.38000011 12.52000046 -1.16999996 71 149 145 97.000000 1.000000 4.000000 1.000000 -60.708740 114.000000 143.000000 -0.156563 0.203144 0.966551
14.36999989 12.52000046 -1.16999996 71 149 145 97.000000 1.000000 4.000000 1.000000 -60.708740 114.000000 143.000000 -0.223582 0.173309 0.959153
14.36999989 12.47999954 -1.17999995 71 149 145 97.000000 1.000000 4.000000 1.000000 -60.708740 114.000000 143.000000 -0.352010 -0.295089 0.888263
14.50000000 12.55000019 -1.21000004 71 149 145 97.000000 1.000000 4.000000 1.000000 -60.708740 114.000000 143.000000 0.223365 -0.335769 0.915078
14.52000046 12.55000019 -1.21000004 71 149 145 97.000000 1.000000 4.000000 1.000000 -60.708740 114.000000 143.000000 0.135970 -0.341986 0.929816
14.50000000 12.55000019 -1.22000003 71 149 145 97.000000 1.000000 4.000000 1.000000 -60.708740 114.000000 143.000000 0.421302 -0.289550 0.859456
14.43999958 12.51000023 -1.23000002 71 149 145 97.000000 1.000000 4.000000 1.000000 -60.708740 114.000000 143.000000 0.119143 -0.224193 0.967234
14.47000027 12.52999973 -1.23000002 71 149 145 97.000000 1.000000 4.000000 1.000000 -60.708740 114.000000 143.000000 0.125402 0.137577 0.982521
14.47999954 12.52999973 -1.23000002 71 149 145 97.000000 1.000000 4.000000 1.000000 -60.708740 114.000000 143.000000 -0.025267 0.104365 0.994218
14.47000027 12.47999954 -1.23000002 71 149 145 97.000000 1.000000 4.000000 1.000000 -60.708740 114.000000 143.000000 0.489933 -0.006675 0.871734
14.47000027 12.47000027 -1.23000002 71 149 145 97.000000 1.000000 4.000000 1.000000 -60.708740 114.000000 143.000000 0.200998 -0.162095 0.966087
14.47000027 12.47999954 -1.23000002 71 149 145 97.000000 1.000000 4.000000 1.000000 -60.708740 114.000000 143.000000 0.489933 -0.006675 0.871734
14.44999981 12.47000027 -1.24000001 71 149 145 97.000000 1.000000 4.000000 1.000000 -60.708740 114.000000 143.000000 -0.224824 0.017843 0.974236
14.43999958 12.48999977 -1.25000000 71 149 145 97.000000 1.000000 4.000000 1.000000 -60.708740 114.000000 143.000000 0.105469 0.064643 0.992319
14.50000000 12.42000008 -1.22000003 71 149 145 97.000000 1.000000 4.000000 1.000000 -60.708740 114.000000 143.000000 0.057371 0.013560 0.998261
14.48999977 12.39000034 -1.22000003 71 149 145 97.000000 1.000000 4.000000 1.000000 -60.708740 114.000000 143.000000 0.237033 0.217851 0.946761
14.43999958 12.43999958 -1.25000000 71 149 145 97.000000 1.000000 4.000000 1.000000 -60.708740 114.000000 143.000000 -0.138528 -0.160992 0.977185
14.44999981 12.43999958 -1.25000000 71 149 145 97.000000 1.000000 4.000000 1.000000 -60.708740 114.000000 143.000000 -0.172020 -0.043298 0.984141
14.44999981 12.43999958 -1.25000000 71 149 145 97.000000 1.000000 4.000000 1.000000 -60.708740 114.000000 143.000000 -0.172020 -0.043298 0.984141
14.44999981 12.46000004 -1.24000001 71 149 145 97.000000 1.000000 4.000000 1.000000 -60.708740 114.000000 143.000000 -0.267569 -0.157314 0.950610
14.47999954 12.39999962 -1.21000004 71 149 145 97.000000 1.000000 4.000000 1.000000 -60.708740 114.000000 143.000000 0.205460 -0.318817 0.925279
14.43999958 12.40999985 -1.23000002 71 149 145 97.000000 1.000000 4.000000 1.000000 -60.708740 114.000000 143.000000 0.316198 0.071567 0.945990
14.47999954 12.39999962 -1.24000001 71 149 145 97.000000 1.000000 4.000000 1.000000 -60.708740 114.000000 143.000000 0.425530 -0.116564 0.897406
14.40999985 12.52999973 -1.21000004 71 149 145 97.000000 1.000000 4.000000 1.000000 -60.708740 114.000000 143.000000 -0.406078 -0.340732 0.847940
14.42000008 12.51000023 -1.23000002 71 149 145 97.000000 1.000000 4.000000 1.000000 -60.708740 114.000000 143.000000 -0.085441 0.256324 0.962807
14.39999962 12.55000019 -1.25999999 71 149 145 97.000000 1.000000 4.000000 1.000000 -60.708740 114.000000 143.000000 -0.321037 -0.271196 0.907407
14.42000008 12.52999973 -1.24000001 71 149 145 97.000000 1.000000 4.000000 1.000000 -60.708740 114.000000 143.000000 -0.003720 -0.316226 0.948677
14.43000031 12.52999973 -1.24000001 71 149 145 97.000000 1.000000 4.000000 1.000000 -60.708740 114.000000 143.000000 -0.444511 -0.120714 0.887602
14.39999962 12.55000019 -1.25999999 71 149 145 97.000000 1.000000 4.000000 1.000000 -60.708740 114.000000 143.000000 -0.321037 -0.271196 0.907407
14.40999985 12.51000023 -1.26999998 71 149 145 97.000000 1.000000 4.000000 1.000000 -60.708740 114.000000 143.000000 -0.380774 -0.211541 0.900145
14.40999985 12.52000046 -1.26999998 71 149 145 97.000000 1.000000 4.000000 1.000000 -60.708740 114.000000 143.000000 0.081008 0.225577 0.970852
14.43000031 12.47999954 -1.23000002 71 149 145 97.000000 1.000000 4.000000 1.000000 -60.708740 114.000000 143.000000 0.389399 0.043560 0.920038
14.43000031 12.47000027 -1.24000001 71 149 145 97.000000 1.000000 4.000000 1.000000 -60.708740 114.000000 143.000000 -0.239905 0.199243 0.950131
14.39000034 12.52999973 -1.25000000 71 149 145 97.000000 1.000000 4.000000 1.000000 -60.708740 114.000000 143.000000 -0.052009 -0.087420 0.994813
14.35999966 12.55000019 -1.30999994 71 149 145 97.000000 1.000000 4.000000 1.000000 -60.708740 114.000000 143.000000 -0.653241 -0.189056 0.733167
14.35999966 12.53999996 -1.29999995 71 149 145 97.000000 1.000000 4.000000 1.000000 -60.708740 114.000000 143.000000 0.892935 -0.039057 -0.448488
14.36999989 12.55000019 -1.29999995 71 149 145 97.000000 1.000000 4.000000 1.000000 -60.708740 114.000000 143.000000 -0.676929 -0.155981 0.719331
14.35999966 12.53999996 -1.29999995 71 149 145 97.000000 1.000000 4.000000 1.000000 -60.708740 114.000000 143.000000 0.892935 -0.039057 -0.448488
14.39000034 12.47999954 -1.32000005 71 149 145 97.000000 1.000000 4.000000 1.000000 -60.708740 114.000000 143.000000 0.686910 0.162970 -0.708234
14.36999989 12.47999954 -1.29999995 71 149 145 97.000000 1.000000 4.000000 1.000000 -60.708740 114.000000 143.000000 -0.197772 0.084759 0.976577
14.38000011 12.47000027 -1.32000005 71 149 145 97.000000 1.000000 4.000000 1.000000 -60.708740 114.000000 143.000000 -0.171617 -0.208299 0.962891
14.38000011 12.47000027 -1.32000005 71 149 145 97.000000 1.000000 4.000000 1.000000 -60.708740 114.000000 143.000000 -0.171617 -0.208299 0.962891
14.42000008 12.46000004 -1.25000000 71 149 145 97.000000 1.000000 4.000000 1.000000 -60.708740 114.000000 143.000000 -0.275089 -0.117143 0.954256
14.43000031 12.40999985 -1.25999999 71 149 145 97.000000 1.000000 4.000000 1.000000 -60.708740 114.000000 143.000000 0.042477 -0.335951 0.940921
14.39000034 12.44999981 -1.26999998 71 149 145 97.000000 1.000000 4.000000 1.000000 -60.708740 114.000000 143.000000 -0.042182 0.218141 0.975005
14.39999962 12.43999958 -1.27999997 71 149 145 97.000000 1.000000 4.000000 1.000000 -60.708740 114.000000 143.000000 -0.179803 -0.134538 0.974459
14.40999985 12.43000031 -1.28999996 71 149 145 97.000000 1.000000 4.000000 1.000000 -60.708740 114.000000 143.000000 -0.290802 0.021037 0.956552
14.40999985 12.43999958 -1.27999997 71 149 145 97.000000 1.000000 4.000000 1.000000 -60.708740 114.000000 143.000000 0.006025 -0.261481 0.965190
14.40999985 12.43999958 -1.32000005 71 149 145 97.000000 1.000000 4.000000 1.000000 -60.708740 114.000000 143.000000 -0.108856 -0.099492 0.989066
14.40999985 12.43999958 -1.27999997 71 149 145 97.000000 1.000000 4.000000 1.000000 -60.708740 114.000000 143.000000 0.006025 -0.261481 0.965190
14.39999962 12.42000008 -1.28999996 71 149 145 97.000000 1.000000 4.000000 1.000000 -60.708740 114.000000 143.000000 -0.409715 -0.247630 0.877960
14.42000008 12.42000008 -1.28999996 71 149 145 97.000000 1.000000 4.000000 1.000000 -60.708740 114.000000 143.000000 0.234266 0.022826 0.971904
14.39999962 12.42000008 -1.28999996 71 149 145 97.000000 1.000000 4.000000 1.000000 -60.708740 114.000000 143.000000 -0.409715 -0.247630 0.877960
14.39999962 12.39000034 -1.29999995 71 149 145 97.000000 1.000000 4.000000 1.000000 -60.708740 114.000000 143.000000 -0.346693 -0.371347 0.861339
14.39999962 12.39000034 -1.29999995 71 149 145 97.000000 1.000000 4.000000 1.000000 -60.708740 114.000000 143.000000 -0.346693 -0.371347 0.861339
14.42000008 12.39999962 -1.30999994 71 149 145 97.000000 1.000000 4.000000 1.000000 -60.708740 114.000000 143.000000 0.363802 -0.084574 0.927629
14.39000034 12.43000031 -1.32000005 71 149 145 97.000000 1.000000 4.000000 1.000000 -60.708740 114.000000 143.000000 -0.325857 0.050231 0.944084
14.39000034 12.46000004 -1.32000005 71 149 145 97.000000 1.000000 4.000000 1.000000 -60.708740 114.000000 143.000000 0.701371 -0.127114 -0.701371
14.39000034 12.43000031 -1.28999996 71 149 145 97.000000 1.000000 4.000000 1.000000 -60.708740 114.000000 143.000000 -0.315780 -0.405122 0.857997
14.39000034 12.43000031 -1.28999996 71 149 145 97.000000 1.000000 4.000000 1.000000 -60.708740 114.000000 143.000000 -0.315780 -0.405122 0.857997
14.36999989 12.44999981 -1.27999997 71 149 145 97.000000 1.000000 4.000000 1.000000 -60.708740 114.000000 143.000000 -0.358516 0.355439 0.863209
14.39000034 12.40999985 -1.32000005 71 149 145 97.000000 1.000000 4.000000 1.000000 -60.708740 114.000000 143.000000 -0.113062 -0.018661 0.993413
14.39000034 12.42000008 -1.32000005 71 149 145 97.000000 1.000000 4.000000 1.000000 -60.708740 114.000000 143.000000 -0.255789 0.006004 0.966714
14.35000038 13.69999981 -1.13999999 71 149 145 97.000000 1.000000 4.000000 1.000000 -60.708740 114.000000 142.000000 0.894394 -0.228387 -0.384575
14.35000038 13.68999958 -1.17999995 71 149 145 97.000000 1.000000 4.000000 1.000000 -60.708740 114.000000 142.000000 0.729807 -0.378844 -0.569086
14.31999969 13.67000008 -1.14999998 71 149 145 97.000000 1.000000 4.000000 1.000000 -60.708740 114.000000 142.000000 0.856340 -0.319392 -0.405797
14.35000038 13.64999962 -1.13000000 71 149 145 97.000000 1.000000 4.000000 1.000000 -60.708740 114.000000 142.000000 0.864609 0.153611 -0.478388
14.31999969 13.65999985 -1.15999997 71 149 145 97.000000 1.000000 4.000000 1.000000 -60.708740 114.000000 142.000000 0.896771 0.036193 -0.441013
14.28999996 13.68999958 -1.15999997 71 149 145 97.000000 1.000000 4.000000 1.000000 -60.708740 114.000000 142.000000 0.875556 0.073775 -0.477450
14.28999996 13.69999981 -1.16999996 71 149 145 97.000000 1.000000 4.000000 1.000000 -60.708740 114.000000 142.000000 0.710585 0.046993 -0.702041
14.27999973 13.72000027 -1.19000006 71 149 145 97.000000 1.000000 4.000000 1.000000 -60.708740 114.000000 142.000000 0.980782 -0.053758 -0.187555
14.27999973 13.68999958 -1.19000006 71 149 145 97.000000 1.000000 4.000000 1.000000 -60.708740 114.000000 142.000000 0.724949 0.015365 -0.688631
14.27999973 13.68999958 -1.19000006 71 149 145 97.000000 1.000000 4.000000 1.000000 -60.708740 114.000000 142.000000 0.724949 0.015365 -0.688631
14.30000019 13.64999962 -1.15999997 71 149 145 97.000000 1.000000 4.000000 1.000000 -60.708740 114.000000 142.000000 0.936746 -0.233140 -0.261060
14.27999973 13.65999985 -1.17999995 71 149 145 97.000000 1.000000 4.000000 1.000000 -60.708740 114.000000 142.000000 0.743494 -0.004154 -0.668729
14.28999996 13.67000008 -1.16999996 71 149 145 97.000000 1.000000 4.000000 1.000000 -60.708740 114.000000 142.000000 0.921138 0.173507 -0.348424
14.30000019 13.67000008 -1.16999996 71 149 145 97.000000 1.000000 4.000000 1.000000 -60.708740 114.000000 142.000000 0.981869 -0.024518 -0.187968
14.27999973 13.64999962 -1.19000006 71 149 145 97.000000 1.000000 4.000000 1.000000 -60.708740 114.000000 142.000000 0.965092 0.216918 -0.146777
14.31000042 13.56999969 -1.11000001 71 149 145 97.000000 1.000000 4.000000 1.000000 -60.708740 114.000000 142.000000 -0.653648 0.196249 0.730911
14.34000015 13.61999989 -1.13999999 71 149 145 97.000000 1.000000 4.000000 1.000000 -60.708740 114.000000 142.000000 0.919564 0.071357 -0.386406
14.32999992 13.63000011 -1.15999997 71 149 145 97.000000 1.000000 4.000000 1.000000 -60.708740 114.000000 142.000000 0.816011 -0.103274 -0.568735
14.34000015 13.59000015 -1.13999999 71 149 145 97.000000 1.000000 4.000000 1.000000 -60.708740 114.000000 142.000000 0.708726 -0.347031 -0.614229
14.30000019 13.60999966 -1.13999999 71 149 145 97.000000 1.000000 4.000000 1.000000 -60.708740 114.000000 142.000000 0.936227 -0.267293 -0.228109
14.31000042 13.56999969 -1.12000000 71 149 145 97.000000 1.000000 4.000000 1.000000 -60.708740 114.000000 142.000000 0.892213 0.159993 -0.422324
14.30000019 13.59000015 -1.14999998 71 149 145 97.000000 1.000000 4.000000 1.000000 -60.708740 114.000000 142.000000 0.868614 -0.190888 -0.457243
14.30000019 13.59000015 -1.14999998 71 149 145 97.000000 1.000000 4.000000 1.000000 -60.708740 114.000000 142.000000 0.868614 -0.190888 -0.457243
14.30000019 13.56999969 -1.13999999 71 149 145 97.000000 1.000000 4.000000 1.000000 -60.708740 114.000000 142.000000 0.971343 -0.136217 -0.194778
14.27999973 13.57999992 -1.16999996 71 149 145 97.000000 1.000000 4.000000 1.000000 -60.708740 114.000000 142.000000 0.886141 -0.073269 -0.457586
14.27999973 13.57999992 -1.19000006 71 149 145 97.000000 1.000000 4.000000 1.000000 -60.708740 114.000000 142.000000 0.989315 0.068429 -0.128739
14.27999973 13.57999992 -1.19000006 71 149 145 97.000000 1.000000 4.000000 1.000000 -60.708740 114.000000 142.000000 0.989315 0.068429 -0.128739
14.28999996 13.56999969 -1.16999996 71 149 145 97.000000 1.000000 4.000000 1.000000 -60.708740 114.000000 142.000000 0.811247 -0.368169 -0.454235
14.27999973 13.59000015 -1.16999996 71 149 145 97.000000 1.000000 4.000000 1.000000 -60.708740 114.000000 142.000000 -0.642124 -0.070706 0.763333
14.28999996 13.57999992 -1.16999996 71 149 145 97.000000 1.000000 4.000000 1.000000 -60.708740 114.000000 142.000000 0.932726 0.182641 -0.310909
14.27000046 13.69999981 -1.19000006 71 149 145 97.000000 1.000000 4.000000 1.000000 -60.708740 114.000000 142.000000 0.966850 0.137754 -0.214999
14.27000046 13.60000038 -1.16999996 71 149 145 97.000000 1.000000 4.000000 1.000000 -60.708740 114.000000 142.000000 0.718944 -0.353766 -0.598305
14.27000046 13.61999989 -1.16999996 71 149 145 97.000000 1.000000 4.000000 1.000000 -60.708740 114.000000 142.000000 0.922949 -0.258998 -0.284755
14.35000038 13.72000027 -1.20000005 71 149 145 97.000000 1.000000 4.000000 1.000000 -60.708740 114.000000 142.000000 0.948578 0.284975 -0.137805
14.28999996 13.72000027 -1.21000004 71 149 145 97.000000 1.000000 4.000000 1.000000 -60.708740 114.000000 142.000000 0.950626 0.291385 -0.106797
14.28999996 13.65999985 -1.24000001 71 149 145 97.000000 1.000000 4.000000 1.000000 -60.708740 114.000000 142.000000 0.942536 0.288643 -0.168261
14.34000015 13.64000034 -1.22000003 71 149 145 97.000000 1.000000 4.000000 1.000000 -60.708740 114.000000 142.000000 0.789561 -0.132337 -0.599234
14.34000015 13.59000015 -1.23000002 71 149 145 97.000000 1.000000 4.000000 1.000000 -60.708740 114.000000 142.000000 0.884722 0.220810 -0.410499
14.27999973 13.60999966 -1.23000002 71 149 145 97.000000 1.000000 4.000000 1.000000 -60.708740 114.000000 142.000000 0.911127 -0.126972 -0.392078
14.30000019 13.61999989 -1.21000004 71 149 145 97.000000 1.000000 4.000000 1.000000 -60.708740 114.000000 142.000000 0.959535 0.203055 -0.195092
14.30000019 13.57999992 -1.20000005 71 149 145 97.000000 1.000000 4.000000 1.000000 -60.708740 114.000000 142.000000 0.953483 0.003691 -0.301424
14.28999996 13.57999992 -1.23000002 71 149 145 97.000000 1.000000 4.000000 1.000000 -60.708740 114.000000 142.000000 0.991695 -0.005491 0.128492
14.28999996 13.56000042 -1.23000002 71 149 145 97.000000 1.000000 4.000000 1.000000 -60.708740 114.000000 142.000000 0.882620 -0.394107 -0.256245
14.26000023 13.71000004 -1.20000005 71 149 145 97.000000 1.000000 4.000000 1.000000 -60.708740 114.000000 142.000000 0.784306 0.023682 -0.619922
14.26000023 13.71000004 -1.21000004 71 149 145 97.000000 1.000000 4.000000 1.000000 -60.708740 114.000000 142.000000 0.988822 -0.120531 -0.087765
14.27000046 13.68999958 -1.20000005 71 149 145 97.000000 1.000000 4.000000 1.000000 -60.708740 114.000000 142.000000 0.923249 -0.105008 -0.369573
14.27000046 13.72000027 -1.20000005 71 149 145 97.000000 1.000000 4.000000 1.000000 -60.708740 114.000000 142.000000 0.890439 0.156798 -0.427238
14.26000023 13.72000027 -1.22000003 71 149 145 97.000000 1.000000 4.000000 1.000000 -60.708740 114.000000 142.000000 0.988542 -0.104366 -0.109056
14.27000046 13.68000031 -1.20000005 71 149 145 97.000000 1.000000 4.000000 1.000000 -60.708740 114.000000 142.000000 0.792144 -0.006888 -0.610295
14.27000046 13.56000042 -1.22000003 71 149 145 97.000000 1.000000 4.000000 1.000000 -60.708740 114.000000 142.000000 0.895644 0.308483 -0.320405
14.27000046 13.60000038 -1.22000003 71 149 145 97.000000 1.000000 4.000000 1.000000 -60.708740 114.000000 142.000000 0.840607 -0.240392 -0.485378
14.30000019 13.55000019 -1.13000000 71 149 145 97.000000 1.000000 4.000000 1.000000 -60.708740 114.000000 142.000000 0.662461 0.384921 -0.642636
14.27000046 13.52999973 -1.19000006 71 149 145 97.000000 1.000000 4.000000 1.000000 -60.708740 114.000000 142.000000 0.818460 -0.012339 -0.574430
14.27000046 13.53999996 -1.19000006 71 149 145 97.000000 1.000000 4.000000 1.000000 -60.708740 114.000000 142.000000 0.989091 0.058861 -0.135033
14.25000000 13.52000046 -1.15999997 71 149 145 97.000000 1.000000 4.000000 1.000000 -60.708740 114.000000 142.000000 0.976333 -0.141262 -0.163764
14.26000023 13.52999973 -1.15999997 71 149 145 97.000000 1.000000 4.000000 1.000000 -60.708740 114.000000 142.000000 0.765451 -0.222027 -0.603977
14.26000023 13.51000023 -1.16999996 71 149 145 97.000000 1.000000 4.000000 1.000000 -60.708740 114.000000 142.000000 0.772128 0.340123 -0.536782
14.25000000 13.50000000 -1.16999996 71 149 145 97.000000 1.000000 4.000000 1.000000 -60.708740 114.000000 142.000000 0.771267 -0.239359 -0.589792
14.25000000 13.50000000 -1.16999996 71 149 145 97.000000 1.000000 4.000000 1.000000 -60.708740 114.000000 142.000000 0.771267 -0.239359 -0.589792
14.19999981 13.47000027 -1.11000001 71 149 145 97.000000 1.000000 4.000000 1.000000 -60.708740 114.000000 142.000000 -0.688097 0.123887 0.714964
14.19999981 13.46000004 -1.11000001 71 149 145 97.000000 1.000000 4.000000 1.000000 -60.708740 114.000000 142.000000 -0.614878 0.171558 0.769736
14.18999958 13.39999962 -1.16999996 71 149 145 97.000000 1.000000 4.000000 1.000000 -60.708740 114.000000 142.000000 0.824463 0.365549 -0.432012
14.34000015 13.55000019 -1.21000004 71 149 145 97.000000 1.000000 4.000000 1.000000 -60.708740 114.000000 142.000000 0.924151 0.181454 -0.336183
14.31999969 13.52999973 -1.25000000 71 149 145 97.000000 1.000000 4.000000 1.000000 -60.708740 114.000000 142.000000 0.996292 -0.080955 0.029144
14.31999969 13.51000023 -1.25000000 71 149 145 97.000000 1.000000 4.000000 1.000000 -60.708740 114.000000 142.000000 0.921671 -0.387180 -0.024769
14.30000019 13.52000046 -1.20000005 71 149 145 97.000000 1.000000 4.000000 1.000000 -60.708740 114.000000 142.000000 0.939646 -0.295789 -0.171970
14.27999973 13.55000019 -1.24000001 71 149 145 97.000000 1.000000 4.000000 1.000000 -60.708740 114.000000 142.000000 0.889958 0.345513 -0.297650
14.30000019 13.48999977 -1.25999999 71 149 145 97.000000 1.000000 4.000000 1.000000 -60.708740 114.000000 142.000000 0.995151 -0.080628 0.056329
14.31999969 13.47000027 -1.22000003 71 149 145 97.000000 1.000000 4.000000 1.000000 -60.708740 114.000000 142.000000 0.836786 0.012286 -0.547392
14.35000038 13.42000008 -1.25999999 71 149 145 97.000000 1.000000 4.000000 1.000000 -60.708740 114.000000 142.000000 0.776026 0.038027 -0.629553
14.32999992 13.43999958 -1.32000005 71 149 145 97.000000 1.000000 4.000000 1.000000 -60.708740 114.000000 142.000000 0.970152 -0.241636 -0.020437
14.34000015 13.44999981 -1.29999995 71 149 145 97.000000 1.000000 4.000000 1.000000 -60.708740 114.000000 142.000000 0.913762 -0.394361 0.097560
14.35000038 13.39999962 -1.28999996 71 149 145 97.000000 1.000000 4.000000 1.000000 -60.708740 114.000000 142.000000 0.932373 -0.045641 -0.358605
14.32999992 13.43000031 -1.32000005 71 149 145 97.000000 1.000000 4.000000 1.000000 -60.708740 114.000000 142.000000 0.990672 -0.113910 -0.074789
14.32999992 13.42000008 -1.29999995 71 149 145 97.000000 1.000000 4.000000 1.000000 -60.708740 114.000000 142.000000 0.981353 -0.005752 -0.192129
