//X Y Z R G B PointSourceId ScanDirectionFlag NumberOfReturns ReturnNumber GpsTime Intensity Classification Nx Ny Nz
17.39999962 13.28999996 -1.15999997 37 178 148 97.000000 1.000000 4.000000 1.000000 -60.708740 114.000000 148.000000 -0.128306 -0.362844 0.922975
17.38999939 13.27999973 -1.15999997 37 178 148 97.000000 1.000000 4.000000 1.000000 -60.708740 114.000000 148.000000 0.321433 -0.003723 0.946925
17.37999916 13.23999977 -1.13000000 37 178 148 97.000000 1.000000 4.000000 1.000000 -60.708740 114.000000 148.000000 0.198659 -0.422335 0.884402
17.39999962 13.26000023 -1.16999996 37 178 148 97.000000 1.000000 4.000000 1.000000 -60.708740 114.000000 148.000000 -0.178118 0.140221 0.973967
17.38999939 13.23999977 -1.15999997 37 178 148 97.000000 1.000000 4.000000 1.000000 -60.708740 114.000000 148.000000 -0.318605 -0.462998 0.827118
17.42000008 13.21000004 -1.15999997 37 178 148 97.000000 1.000000 4.000000 1.000000 -60.708740 114.000000 148.000000 0.318893 -0.117062 0.940534
17.44000053 13.22000027 -1.16999996 37 178 148 97.000000 1.000000 4.000000 1.000000 -60.708740 114.000000 148.000000 0.176998 0.038682 0.983451
17.40999985 13.18999958 -1.14999998 37 178 148 97.000000 1.000000 4.000000 1.000000 -60.708740 114.000000 148.000000 -0.167272 -0.103782 0.980433
17.39999962 13.18999958 -1.15999997 37 178 148 97.000000 1.000000 4.000000 1.000000 -60.708740 114.000000 148.000000 -0.055116 -0.102359 0.993219
17.37999916 13.19999981 -1.15999997 37 178 148 97.000000 1.000000 4.000000 1.000000 -60.708740 114.000000 148.000000 0.104811 0.029788 0.994046
17.38999939 13.18999958 -1.15999997 37 178 148 97.000000 1.000000 4.000000 1.000000 -60.708740 114.000000 148.000000 0.131275 -0.171283 0.976437
17.38999939 13.18000031 -1.15999997 37 178 148 97.000000 1.000000 4.000000 1.000000 -60.708740 114.000000 148.000000 0.254023 0.001193 0.967197
17.36000061 13.71000004 -1.10000002 37 178 148 97.000000 1.000000 4.000000 1.000000 -60.708740 114.000000 148.000000 -0.310578 -0.289971 0.905239
17.35000038 13.72000027 -1.09000003 37 178 148 97.000000 1.000000 4.000000 1.000000 -60.708740 114.000000 148.000000 -0.091954 -0.144499 0.985223
17.35000038 13.64999962 -1.10000002 37 178 148 97.000000 1.000000 4.000000 1.000000 -60.708740 114.000000 148.000000 -0.279174 -0.491285 0.825046
17.34000015 13.64999962 -1.10000002 37 178 148 97.000000 1.000000 4.000000 1.000000 -60.708740 114.000000 148.000000 -0.157025 -0.264393 0.951546
17.34000015 13.64999962 -1.10000002 37 178 148 97.000000 1.000000 4.000000 1.000000 -60.708740 114.000000 148.000000 -0.157025 -0.264393 0.951546
17.30999947 13.69999981 -1.09000003 37 178 148 97.000000 1.000000 4.000000 1.000000 -60.708740 114.000000 148.000000 -0.436669 -0.154203 0.886308
17.32999992 13.68000031 -1.10000002 37 178 148 97.000000 1.000000 4.000000 1.000000 -60.708740 114.000000 148.000000 -0.046265 -0.118484 0.991878
17.32999992 13.68000031 -1.10000002 37 178 148 97.000000 1.000000 4.000000 1.000000 -60.708740 114.000000 148.000000 -0.046265 -0.118484 0.991878
17.30999947 13.67000008 -1.10000002 37 178 148 97.000000 1.000000 4.000000 1.000000 -60.708740 114.000000 148.000000 0.498730 0.545749 -0.673370
17.36000061 13.60999966 -1.10000002 37 178 148 97.000000 1.000000 4.000000 1.000000 -60.708740 114.000000 148.000000 -0.012717 0.190761 0.981554
17.37000084 13.60999966 -1.08000004 37 178 148 97.000000 1.000000 4.000000 1.000000 -60.708740 114.000000 148.000000 0.143564 -0.474196 0.868635
17.37000084 13.59000015 -1.10000002 37 178 148 97.000000 1.000000 4.000000 1.000000 -60.708740 114.000000 148.000000 0.288687 -0.262835 0.920640
17.37000084 13.57999992 -1.11000001 37 178 148 97.000000 1.000000 4.000000 1.000000 -60.708740 114.000000 148.000000 -0.156816 -0.295904 0.942258
17.37000084 13.56999969 -1.11000001 37 178 148 97.000000 1.000000 4.000000 1.000000 -60.708740 114.000000 148.000000 -0.302001 0.052245 0.951875
17.37000084 13.60000038 -1.11000001 37 178 148 97.000000 1.000000 4.000000 1.000000 -60.708740 114.000000 148.000000 0.290816 0.018563 0.956599
17.37000084 13.59000015 -1.11000001 37 178 148 97.000000 1.000000 4.000000 1.000000 -60.708740 114.000000 148.000000 0.103410 -0.159373 0.981787
17.32999992 13.60999966 -1.09000003 37 178 148 97.000000 1.000000 4.000000 1.000000 -60.708740 114.000000 148.000000 -0.132977 -0.160318 0.978067
17.31999969 13.64000034 -1.10000002 37 178 148 97.000000 1.000000 4.000000 1.000000 -60.708740 114.000000 148.000000 -0.311219 -0.049949 0.949025
17.31999969 13.63000011 -1.09000003 37 178 148 97.000000 1.000000 4.000000 1.000000 -60.708740 114.000000 148.000000 -0.317185 0.140215 0.937941
17.31999969 13.64000034 -1.10000002 37 178 148 97.000000 1.000000 4.000000 1.000000 -60.708740 114.000000 148.000000 -0.311219 -0.049949 0.949025
17.31999969 13.61999989 -1.11000001 37 178 148 97.000000 1.000000 4.000000 1.000000 -60.708740 114.000000 148.000000 0.513277 0.546934 -0.661370
17.30999947 13.64000034 -1.11000001 37 178 148 97.000000 1.000000 4.000000 1.000000 -60.708740 114.000000 148.000000 -0.552890 -0.054867 0.831446
17.32999992 13.61999989 -1.10000002 37 178 148 97.000000 1.000000 4.000000 1.000000 -60.708740 114.000000 148.000000 -0.506186 -0.286786 0.813345
17.35000038 13.60000038 -1.12000000 37 178 148 97.000000 1.000000 4.000000 1.000000 -60.708740 114.000000 148.000000 0.601571 0.384017 -0.700459
17.36000061 13.57999992 -1.12000000 37 178 148 97.000000 1.000000 4.000000 1.000000 -60.708740 114.000000 148.000000 -0.240499 -0.068536 0.968227
17.29999924 13.56000042 -1.12000000 37 178 148 97.000000 1.000000 4.000000 1.000000 -60.708740 114.000000 148.000000 -0.506851 -0.037087 0.861235
17.29999924 13.56000042 -1.12000000 37 178 148 97.000000 1.000000 4.000000 1.000000 -60.708740 114.000000 148.000000 -0.506851 -0.037087 0.861235
17.29000092 13.71000004 -1.10000002 37 178 148 97.000000 1.000000 4.000000 1.000000 -60.708740 114.000000 148.000000 -0.528376 -0.075078 0.845685
17.29000092 13.69999981 -1.10000002 37 178 148 97.000000 1.000000 4.000000 1.000000 -60.708740 114.000000 148.000000 -0.534955 -0.001347 0.844879
17.29000092 13.67000008 -1.11000001 37 178 148 97.000000 1.000000 4.000000 1.000000 -60.708740 114.000000 148.000000 -0.421392 -0.389589 0.818932
17.22999954 13.67000008 -1.11000001 37 178 148 97.000000 1.000000 4.000000 1.000000 -60.708740 114.000000 148.000000 0.926724 0.357275 -0.116354
17.23999977 13.67000008 -1.11000001 37 178 148 97.000000 1.000000 4.000000 1.000000 -60.708740 114.000000 148.000000 0.958996 0.245997 -0.140758
17.25000000 13.71000004 -1.13000000 37 178 148 97.000000 1.000000 4.000000 1.000000 -60.708740 114.000000 148.000000 0.994040 0.106544 0.023066
17.26000023 13.64999962 -1.13999999 37 178 148 97.000000 1.000000 4.000000 1.000000 -60.708740 114.000000 148.000000 0.748628 0.505118 -0.429433
17.28000069 13.64999962 -1.13999999 37 178 148 97.000000 1.000000 4.000000 1.000000 -60.708740 114.000000 148.000000 0.810128 0.052312 -0.583914
17.27000046 13.67000008 -1.13000000 37 178 148 97.000000 1.000000 4.000000 1.000000 -60.708740 114.000000 148.000000 -0.641646 -0.179171 0.745780
17.29000092 13.65999985 -1.12000000 37 178 148 97.000000 1.000000 4.000000 1.000000 -60.708740 114.000000 148.000000 0.592901 0.394717 -0.701902
17.28000069 13.64999962 -1.13999999 37 178 148 97.000000 1.000000 4.000000 1.000000 -60.708740 114.000000 148.000000 0.810128 0.052312 -0.583914
17.26000023 13.68000031 -1.13999999 37 178 148 97.000000 1.000000 4.000000 1.000000 -60.708740 114.000000 148.000000 0.792599 0.337855 -0.507583
17.26000023 13.67000008 -1.13000000 37 178 148 97.000000 1.000000 4.000000 1.000000 -60.708740 114.000000 148.000000 0.665145 0.275947 -0.693856
17.28000069 13.64999962 -1.12000000 37 178 148 97.000000 1.000000 4.000000 1.000000 -60.708740 114.000000 148.000000 0.929645 0.194903 -0.312686
17.29000092 13.68000031 -1.12000000 37 178 148 97.000000 1.000000 4.000000 1.000000 -60.708740 114.000000 148.000000 0.777316 0.040911 -0.627778
17.21999931 13.64999962 -1.15999997 37 178 148 97.000000 1.000000 4.000000 1.000000 -60.708740 114.000000 148.000000 0.941220 -0.047771 -0.334398
17.21999931 13.63000011 -1.10000002 37 178 148 97.000000 1.000000 4.000000 1.000000 -60.708740 114.000000 148.000000 0.764161 -0.222556 -0.605415
17.28000069 13.63000011 -1.13000000 37 178 148 97.000000 1.000000 4.000000 1.000000 -60.708740 114.000000 148.000000 -0.579987 -0.058140 0.812549
17.26000023 13.60999966 -1.14999998 37 178 148 97.000000 1.000000 4.000000 1.000000 -60.708740 114.000000 148.000000 0.850665 0.365459 -0.377900
17.26000023 13.61999989 -1.13999999 37 178 148 97.000000 1.000000 4.000000 1.000000 -60.708740 114.000000 148.000000 0.779888 0.403726 -0.478310
17.28000069 13.64000034 -1.12000000 37 178 148 97.000000 1.000000 4.000000 1.000000 -60.708740 114.000000 148.000000 0.911871 0.074744 -0.403615
17.27000046 13.63000011 -1.13999999 37 178 148 97.000000 1.000000 4.000000 1.000000 -60.708740 114.000000 148.000000 0.780583 -0.217945 -0.585824
17.28000069 13.56999969 -1.14999998 37 178 148 97.000000 1.000000 4.000000 1.000000 -60.708740 114.000000 148.000000 0.713858 -0.136760 -0.686807
17.26000023 13.60000038 -1.14999998 37 178 148 97.000000 1.000000 4.000000 1.000000 -60.708740 114.000000 148.000000 0.889720 0.389345 -0.238344
17.29000092 13.56000042 -1.13000000 37 178 148 97.000000 1.000000 4.000000 1.000000 -60.708740 114.000000 148.000000 0.718794 0.476429 -0.506310
17.26000023 13.56000042 -1.13000000 37 178 148 97.000000 1.000000 4.000000 1.000000 -60.708740 114.000000 148.000000 0.904573 -0.216343 -0.367347
17.27000046 13.59000015 -1.14999998 37 178 148 97.000000 1.000000 4.000000 1.000000 -60.708740 114.000000 148.000000 0.741434 0.497042 -0.450805
17.29000092 13.56999969 -1.13999999 37 178 148 97.000000 1.000000 4.000000 1.000000 -60.708740 114.000000 148.000000 0.937208 0.058821 -0.343774
17.27000046 13.59000015 -1.14999998 37 178 148 97.000000 1.000000 4.000000 1.000000 -60.708740 114.000000 148.000000 0.741434 0.497042 -0.450805
17.28000069 13.56999969 -1.13000000 37 178 148 97.000000 1.000000 4.000000 1.000000 -60.708740 114.000000 148.000000 -0.602822 -0.289419 0.743534
17.29000092 13.57999992 -1.13999999 37 178 148 97.000000 1.000000 4.000000 1.000000 -60.708740 114.000000 148.000000 0.928441 0.195240 -0.316035
17.26000023 13.60000038 -1.13999999 37 178 148 97.000000 1.000000 4.000000 1.000000 -60.708740 114.000000 148.000000 0.959953 0.235709 -0.151433
17.26000023 13.60000038 -1.16999996 37 178 148 97.000000 1.000000 4.000000 1.000000 -60.708740 114.000000 148.000000 0.797273 0.388167 -0.462257
17.21999931 13.64000034 -1.14999998 37 178 148 97.000000 1.000000 4.000000 1.000000 -60.708740 114.000000 148.000000 0.858748 0.166447 -0.484611
17.21999931 13.63000011 -1.16999996 37 178 148 97.000000 1.000000 4.000000 1.000000 -60.708740 114.000000 148.000000 0.978268 0.178876 -0.104858
17.21999931 13.61999989 -1.15999997 37 178 148 97.000000 1.000000 4.000000 1.000000 -60.708740 114.000000 148.000000 0.972219 0.233189 0.020329
17.21999931 13.61999989 -1.15999997 37 178 148 97.000000 1.000000 4.000000 1.000000 -60.708740 114.000000 148.000000 0.972219 0.233189 0.020329
17.21999931 13.64000034 -1.16999996 37 178 148 97.000000 1.000000 4.000000 1.000000 -60.708740 114.000000 148.000000 0.883592 0.466829 -0.036534
17.21999931 13.63000011 -1.17999995 37 178 148 97.000000 1.000000 4.000000 1.000000 -60.708740 114.000000 148.000000 0.942640 0.179747 -0.281283
17.22999954 13.60000038 -1.19000006 37 178 148 97.000000 1.000000 4.000000 1.000000 -60.708740 114.000000 148.000000 0.948531 0.217002 -0.230650
17.22999954 13.57999992 -1.19000006 37 178 148 97.000000 1.000000 4.000000 1.000000 -60.708740 114.000000 148.000000 0.990213 0.091493 0.105391
17.20999908 13.60000038 -1.15999997 37 178 148 97.000000 1.000000 4.000000 1.000000 -60.708740 114.000000 148.000000 0.931545 -0.206542 -0.299275
17.22999954 13.60000038 -1.19000006 37 178 148 97.000000 1.000000 4.000000 1.000000 -60.708740 114.000000 148.000000 0.948531 0.217002 -0.230650
17.23999977 13.56000042 -1.20000005 37 178 148 97.000000 1.000000 4.000000 1.000000 -60.708740 114.000000 148.000000 0.895712 0.150000 -0.418570
17.22999954 13.56999969 -1.20000005 37 178 148 97.000000 1.000000 4.000000 1.000000 -60.708740 114.000000 148.000000 0.997599 -0.064807 0.024435
17.22999954 13.56000042 -1.21000004 37 178 148 97.000000 1.000000 4.000000 1.000000 -60.708740 114.000000 148.000000 0.890184 0.424104 0.166457
17.21999931 13.61999989 -1.22000003 37 178 148 97.000000 1.000000 4.000000 1.000000 -60.708740 114.000000 148.000000 0.935153 -0.298749 0.190365
17.37000084 13.52000046 -1.10000002 37 178 148 97.000000 1.000000 4.000000 1.000000 -60.708740 114.000000 148.000000 -0.336205 -0.366909 0.867378
17.34000015 13.52000046 -1.12000000 37 178 148 97.000000 1.000000 4.000000 1.000000 -60.708740 114.000000 148.000000 -0.198248 -0.039175 0.979369
17.35000038 13.52000046 -1.12000000 37 178 148 97.000000 1.000000 4.000000 1.000000 -60.708740 114.000000 148.000000 -0.291753 -0.237672 0.926494
17.36000061 13.47999954 -1.13000000 37 178 148 97.000000 1.000000 4.000000 1.000000 -60.708740 114.000000 148.000000 -0.140135 -0.409080 0.901674
17.34000015 13.48999977 -1.12000000 37 178 148 97.000000 1.000000 4.000000 1.000000 -60.708740 114.000000 148.000000 0.691912 0.047079 -0.720445
17.35000038 13.51000023 -1.13000000 37 178 148 97.000000 1.000000 4.000000 1.000000 -60.708740 114.000000 148.000000 -0.141810 -0.258439 0.955562
17.34000015 13.48999977 -1.13000000 37 178 148 97.000000 1.000000 4.000000 1.000000 -60.708740 114.000000 148.000000 -0.309937 -0.119413 0.943228
17.36000061 13.47999954 -1.13000000 37 178 148 97.000000 1.000000 4.000000 1.000000 -60.708740 114.000000 148.000000 -0.140135 -0.409080 0.901674
17.34000015 13.51000023 -1.12000000 37 178 148 97.000000 1.000000 4.000000 1.000000 -60.708740 114.000000 148.000000 -0.001253 -0.344659 0.938727
17.31999969 13.55000019 -1.13000000 37 178 148 97.000000 1.000000 4.000000 1.000000 -60.708740 114.000000 148.000000 -0.321589 -0.450224 0.832994
17.29999924 13.55000019 -1.13000000 37 178 148 97.000000 1.000000 4.000000 1.000000 -60.708740 114.000000 148.000000 0.850086 -0.135606 -0.508885
17.31999969 13.55000019 -1.13000000 37 178 148 97.000000 1.000000 4.000000 1.000000 -60.708740 114.000000 148.000000 -0.321589 -0.450224 0.832994
17.29999924 13.55000019 -1.13000000 37 178 148 97.000000 1.000000 4.000000 1.000000 -60.708740 114.000000 148.000000 0.850086 -0.135606 -0.508885
17.32999992 13.48999977 -1.13000000 37 178 148 97.000000 1.000000 4.000000 1.000000 -60.708740 114.000000 148.000000 -0.371113 0.134824 0.918748
17.32999992 13.48999977 -1.13000000 37 178 148 97.000000 1.000000 4.000000 1.000000 -60.708740 114.000000 148.000000 -0.371113 0.134824 0.918748
17.35000038 13.46000004 -1.13999999 37 178 148 97.000000 1.000000 4.000000 1.000000 -60.708740 114.000000 148.000000 -0.352362 -0.006315 0.935843
17.34000015 13.47000027 -1.13999999 37 178 148 97.000000 1.000000 4.000000 1.000000 -60.708740 114.000000 148.000000 -0.218051 -0.422752 0.879622
17.34000015 13.46000004 -1.13999999 37 178 148 97.000000 1.000000 4.000000 1.000000 -60.708740 114.000000 148.000000 -0.370284 -0.084829 0.925037
17.35000038 13.47000027 -1.13000000 37 178 148 97.000000 1.000000 4.000000 1.000000 -60.708740 114.000000 148.000000 -0.115030 -0.171926 0.978371
17.36000061 13.44999981 -1.13999999 37 178 148 97.000000 1.000000 4.000000 1.000000 -60.708740 114.000000 148.000000 0.153233 -0.097731 0.983345
17.37000084 13.43999958 -1.13999999 37 178 148 97.000000 1.000000 4.000000 1.000000 -60.708740 114.000000 148.000000 -0.236805 -0.369180 0.898682
17.35000038 13.46000004 -1.13999999 37 178 148 97.000000 1.000000 4.000000 1.000000 -60.708740 114.000000 148.000000 -0.352362 -0.006315 0.935843
17.37000084 13.46000004 -1.13999999 37 178 148 97.000000 1.000000 4.000000 1.000000 -60.708740 114.000000 148.000000 -0.134593 -0.151880 0.979192
17.35000038 13.42000008 -1.13000000 37 178 148 97.000000 1.000000 4.000000 1.000000 -60.708740 114.000000 148.000000 -0.128304 -0.090636 0.987585
17.34000015 13.40999985 -1.13999999 37 178 148 97.000000 1.000000 4.000000 1.000000 -60.708740 114.000000 148.000000 0.623841 0.402105 -0.670174
17.36000061 13.43000031 -1.13999999 37 178 148 97.000000 1.000000 4.000000 1.000000 -60.708740 114.000000 148.000000 -0.010253 -0.169745 0.985435
17.37000084 13.43000031 -1.13000000 37 178 148 97.000000 1.000000 4.000000 1.000000 -60.708740 114.000000 148.000000 -0.168069 -0.226298 0.959449
17.35000038 13.40999985 -1.13000000 37 178 148 97.000000 1.000000 4.000000 1.000000 -60.708740 114.000000 148.000000 -0.083530 -0.223163 0.971196
17.37000084 13.42000008 -1.13999999 37 178 148 97.000000 1.000000 4.000000 1.000000 -60.708740 114.000000 148.000000 -0.410149 -0.234158 0.881447
17.32999992 13.44999981 -1.12000000 37 178 148 97.000000 1.000000 4.000000 1.000000 -60.708740 114.000000 148.000000 -0.265829 -0.105035 0.958281
17.32999992 13.47000027 -1.13000000 37 178 148 97.000000 1.000000 4.000000 1.000000 -60.708740 114.000000 148.000000 -0.269366 -0.427637 0.862884
17.31999969 13.43999958 -1.13999999 37 178 148 97.000000 1.000000 4.000000 1.000000 -60.708740 114.000000 148.000000 -0.624688 0.040894 0.779803
17.31999969 13.44999981 -1.14999998 37 178 148 97.000000 1.000000 4.000000 1.000000 -60.708740 114.000000 148.000000 -0.534243 0.004058 0.845321
17.29999924 13.47000027 -1.16999996 37 178 148 97.000000 1.000000 4.000000 1.000000 -60.708740 114.000000 148.000000 0.685547 0.217064 -0.694916
17.31999969 13.43000031 -1.14999998 37 178 148 97.000000 1.000000 4.000000 1.000000 -60.708740 114.000000 148.000000 -0.301004 -0.121739 0.945820
17.32999992 13.40999985 -1.14999998 37 178 148 97.000000 1.000000 4.000000 1.000000 -60.708740 114.000000 148.000000 -0.433611 -0.163873 0.886074
17.30999947 13.43000031 -1.14999998 37 178 148 97.000000 1.000000 4.000000 1.000000 -60.708740 114.000000 148.000000 -0.347500 -0.231182 0.908735
17.32999992 13.42000008 -1.13999999 37 178 148 97.000000 1.000000 4.000000 1.000000 -60.708740 114.000000 148.000000 0.686701 0.479521 -0.546353
17.31999969 13.43000031 -1.14999998 37 178 148 97.000000 1.000000 4.000000 1.000000 -60.708740 114.000000 148.000000 -0.301004 -0.121739 0.945820
17.29999924 13.42000008 -1.15999997 37 178 148 97.000000 1.000000 4.000000 1.000000 -60.708740 114.000000 148.000000 -0.613212 -0.267785 0.743143
17.29999924 13.42000008 -1.15999997 37 178 148 97.000000 1.000000 4.000000 1.000000 -60.708740 114.000000 148.000000 -0.613212 -0.267785 0.743143
17.29999924 13.43000031 -1.15999997 37 178 148 97.000000 1.000000 4.000000 1.000000 -60.708740 114.000000 148.000000 -0.654300 -0.001377 0.756234
17.29999924 13.43000031 -1.19000006 37 178 148 97.000000 1.000000 4.000000 1.000000 -60.708740 114.000000 148.000000 0.809056 0.528459 -0.257214
17.29999924 13.43000031 -1.16999996 37 178 148 97.000000 1.000000 4.000000 1.000000 -60.708740 114.000000 148.000000 0.867368 -0.168777 -0.468173
17.29999924 13.43000031 -1.15999997 37 178 148 97.000000 1.000000 4.000000 1.000000 -60.708740 114.000000 148.000000 -0.654300 -0.001377 0.756234
17.30999947 13.40999985 -1.16999996 37 178 148 97.000000 1.000000 4.000000 1.000000 -60.708740 114.000000 148.000000 -0.454090 -0.431304 0.779602
17.30999947 13.42000008 -1.15999997 37 178 148 97.000000 1.000000 4.000000 1.000000 -60.708740 114.000000 148.000000 -0.543011 -0.318758 0.776874
17.29000092 13.55000019 -1.14999998 37 178 148 97.000000 1.000000 4.000000 1.000000 -60.708740 114.000000 148.000000 0.738510 0.089206 -0.668315
17.26000023 13.55000019 -1.16999996 37 178 148 97.000000 1.000000 4.000000 1.000000 -60.708740 114.000000 148.000000 0.958071 0.168292 -0.231898
17.26000023 13.53999996 -1.17999995 37 178 148 97.000000 1.000000 4.000000 1.000000 -60.708740 114.000000 148.000000 0.880189 0.183068 -0.437898
17.26000023 13.52999973 -1.15999997 37 178 148 97.000000 1.000000 4.000000 1.000000 -60.708740 114.000000 148.000000 0.971560 0.008324 -0.236647
17.26000023 13.52000046 -1.17999995 37 178 148 97.000000 1.000000 4.000000 1.000000 -60.708740 114.000000 148.000000 0.956606 -0.064963 -0.284052
17.27000046 13.47999954 -1.13999999 37 178 148 97.000000 1.000000 4.000000 1.000000 -60.708740 114.000000 148.000000 0.704488 0.524619 -0.477986
17.26000023 13.50000000 -1.19000006 37 178 148 97.000000 1.000000 4.000000 1.000000 -60.708740 114.000000 148.000000 0.976777 0.082320 -0.197813
17.26000023 13.51000023 -1.15999997 37 178 148 97.000000 1.000000 4.000000 1.000000 -60.708740 114.000000 148.000000 0.980556 -0.143586 -0.133768
17.23999977 13.50000000 -1.19000006 37 178 148 97.000000 1.000000 4.000000 1.000000 -60.708740 114.000000 148.000000 0.895712 0.150000 -0.418570
17.23999977 13.51000023 -1.19000006 37 178 148 97.000000 1.000000 4.000000 1.000000 -60.708740 114.000000 148.000000 0.872338 0.194017 -0.448758
17.27000046 13.43999958 -1.16999996 37 178 148 97.000000 1.000000 4.000000 1.000000 -60.708740 114.000000 148.000000 0.988640 0.149589 -0.014622
17.26000023 13.47000027 -1.15999997 37 178 148 97.000000 1.000000 4.000000 1.000000 -60.708740 114.000000 148.000000 -0.625141 -0.168834 0.762033
17.29000092 13.43999958 -1.19000006 37 178 148 97.000000 1.000000 4.000000 1.000000 -60.708740 114.000000 148.000000 0.741276 0.089187 -0.665248
17.27000046 13.43999958 -1.19000006 37 178 148 97.000000 1.000000 4.000000 1.000000 -60.708740 114.000000 148.000000 0.990420 0.089196 -0.105413
17.29000092 13.43000031 -1.16999996 37 178 148 97.000000 1.000000 4.000000 1.000000 -60.708740 114.000000 148.000000 0.827174 0.491959 -0.271586
17.29000092 13.39999962 -1.16999996 37 178 148 97.000000 1.000000 4.000000 1.000000 -60.708740 114.000000 148.000000 -0.578554 -0.193869 0.792269
17.29000092 13.43000031 -1.16999996 37 178 148 97.000000 1.000000 4.000000 1.000000 -60.708740 114.000000 148.000000 0.827174 0.491959 -0.271586
17.27000046 13.42000008 -1.16999996 37 178 148 97.000000 1.000000 4.000000 1.000000 -60.708740 114.000000 148.000000 0.985051 0.010249 -0.171957
17.29000092 13.39999962 -1.17999995 37 178 148 97.000000 1.000000 4.000000 1.000000 -60.708740 114.000000 148.000000 0.898379 0.322228 -0.298470
17.28000069 13.39999962 -1.17999995 37 178 148 97.000000 1.000000 4.000000 1.000000 -60.708740 114.000000 148.000000 0.911101 0.220917 -0.347980
17.28000069 13.39999962 -1.17999995 37 178 148 97.000000 1.000000 4.000000 1.000000 -60.708740 114.000000 148.000000 0.911101 0.220917 -0.347980
17.27000046 13.40999985 -1.17999995 37 178 148 97.000000 1.000000 4.000000 1.000000 -60.708740 114.000000 148.000000 0.901969 0.072541 -0.425664
17.25000000 13.55000019 -1.20000005 37 178 148 97.000000 1.000000 4.000000 1.000000 -60.708740 114.000000 148.000000 0.923249 -0.105008 -0.369573
17.21999931 13.52000046 -1.22000003 37 178 148 97.000000 1.000000 4.000000 1.000000 -60.708740 114.000000 148.000000 0.942627 0.096782 -0.319512
17.21999931 13.52000046 -1.24000001 37 178 148 97.000000 1.000000 4.000000 1.000000 -60.708740 114.000000 148.000000 0.956971 -0.287217 0.041389
17.21999931 13.52000046 -1.24000001 37 178 148 97.000000 1.000000 4.000000 1.000000 -60.708740 114.000000 148.000000 0.956971 -0.287217 0.041389
17.29000092 13.47000027 -1.20000005 37 178 148 97.000000 1.000000 4.000000 1.000000 -60.708740 114.000000 148.000000 0.827286 0.265414 -0.495130
17.17000008 13.68999958 -1.07000005 37 178 148 97.000000 1.000000 4.000000 1.000000 -60.708740 114.000000 148.000000 0.899305 -0.064139 -0.432594
17.14999962 13.68000031 -1.10000002 37 178 148 97.000000 1.000000 4.000000 1.000000 -60.708740 114.000000 148.000000 0.963636 -0.106500 -0.245079
17.18000031 13.65999985 -1.12000000 37 178 148 97.000000 1.000000 4.000000 1.000000 -60.708740 114.000000 148.000000 0.868099 0.419657 -0.265126
17.17000008 13.64999962 -1.15999997 37 178 148 97.000000 1.000000 4.000000 1.000000 -60.708740 114.000000 148.000000 0.936328 -0.160867 -0.312109
17.20000076 13.64999962 -1.16999996 37 178 148 97.000000 1.000000 4.000000 1.000000 -60.708740 114.000000 148.000000 0.872413 0.143232 -0.467312
17.20000076 13.64999962 -1.16999996 37 178 148 97.000000 1.000000 4.000000 1.000000 -60.708740 114.000000 148.000000 0.872413 0.143232 -0.467312
17.15999985 13.69999981 -1.13999999 37 178 148 97.000000 1.000000 4.000000 1.000000 -60.708740 114.000000 148.000000 0.965107 -0.074433 -0.251054
17.15999985 13.68999958 -1.16999996 37 178 148 97.000000 1.000000 4.000000 1.000000 -60.708740 114.000000 148.000000 0.974016 0.201305 -0.103778
17.15999985 13.68000031 -1.13999999 37 178 148 97.000000 1.000000 4.000000 1.000000 -60.708740 114.000000 148.000000 0.902878 0.429880 -0.003920
17.15999985 13.68000031 -1.13999999 37 178 148 97.000000 1.000000 4.000000 1.000000 -60.708740 114.000000 148.000000 0.902878 0.429880 -0.003920
17.15999985 13.68000031 -1.15999997 37 178 148 97.000000 1.000000 4.000000 1.000000 -60.708740 114.000000 148.000000 0.879022 0.384478 -0.281951
17.14999962 13.67000008 -1.16999996 37 178 148 97.000000 1.000000 4.000000 1.000000 -60.708740 114.000000 148.000000 0.899009 0.248662 -0.360486
17.15999985 13.63000011 -1.13999999 37 178 148 97.000000 1.000000 4.000000 1.000000 -60.708740 114.000000 148.000000 0.987790 -0.100313 0.119196
17.15999985 13.64000034 -1.15999997 37 178 148 97.000000 1.000000 4.000000 1.000000 -60.708740 114.000000 148.000000 0.993295 0.089272 -0.073452
17.17000008 13.57999992 -1.16999996 37 178 148 97.000000 1.000000 4.000000 1.000000 -60.708740 114.000000 148.000000 0.970932 -0.157345 -0.180371
17.35000038 13.34000015 -1.11000001 37 178 148 97.000000 1.000000 4.000000 1.000000 -60.708740 114.000000 148.000000 0.129542 -0.078192 0.988486
17.36000061 13.38000011 -1.14999998 37 178 148 97.000000 1.000000 4.000000 1.000000 -60.708740 114.000000 148.000000 -0.349202 -0.195268 0.916476
17.34000015 13.38000011 -1.14999998 37 178 148 97.000000 1.000000 4.000000 1.000000 -60.708740 114.000000 148.000000 -0.417511 -0.552830 0.721155
17.36000061 13.39000034 -1.13999999 37 178 148 97.000000 1.000000 4.000000 1.000000 -60.708740 114.000000 148.000000 -0.297918 -0.512293 0.805482
17.35000038 13.39000034 -1.13999999 37 178 148 97.000000 1.000000 4.000000 1.000000 -60.708740 114.000000 148.000000 -0.089052 -0.496145 0.863661
17.37000084 13.35000038 -1.14999998 37 178 148 97.000000 1.000000 4.000000 1.000000 -60.708740 114.000000 148.000000 -0.281989 -0.106238 0.953517
17.34000015 13.36999989 -1.16999996 37 178 148 97.000000 1.000000 4.000000 1.000000 -60.708740 114.000000 148.000000 -0.644843 -0.209768 0.734966
17.34000015 13.35999966 -1.15999997 37 178 148 97.000000 1.000000 4.000000 1.000000 -60.708740 114.000000 148.000000 -0.470097 0.042241 0.881603
17.34000015 13.35000038 -1.17999995 37 178 148 97.000000 1.000000 4.000000 1.000000 -60.708740 114.000000 148.000000 0.600758 0.573681 -0.556759
17.36000061 13.36999989 -1.15999997 37 178 148 97.000000 1.000000 4.000000 1.000000 -60.708740 114.000000 148.000000 -0.309725 -0.358072 0.880826
17.35000038 13.35000038 -1.15999997 37 178 148 97.000000 1.000000 4.000000 1.000000 -60.708740 114.000000 148.000000 -0.548585 -0.105664 0.829391
17.34000015 13.38000011 -1.15999997 37 178 148 97.000000 1.000000 4.000000 1.000000 -60.708740 114.000000 148.000000 0.724358 0.275415 -0.632022
17.34000015 13.36999989 -1.15999997 37 178 148 97.000000 1.000000 4.000000 1.000000 -60.708740 114.000000 148.000000 -0.560990 -0.319877 0.763525
17.37000084 13.34000015 -1.13999999 37 178 148 97.000000 1.000000 4.000000 1.000000 -60.708740 114.000000 148.000000 -0.285136 -0.057027 0.956789
17.34000015 13.31000042 -1.13000000 37 178 148 97.000000 1.000000 4.000000 1.000000 -60.708740 114.000000 148.000000 -0.224304 0.017802 0.974357
17.36000061 13.32999992 -1.15999997 37 178 148 97.000000 1.000000 4.000000 1.000000 -60.708740 114.000000 148.000000 -0.538570 -0.124061 0.833397
17.35000038 13.34000015 -1.15999997 37 178 148 97.000000 1.000000 4.000000 1.000000 -60.708740 114.000000 148.000000 0.729298 0.247300 -0.637939
17.34000015 13.31000042 -1.16999996 37 178 148 97.000000 1.000000 4.000000 1.000000 -60.708740 114.000000 148.000000 -0.404015 0.171095 0.898609
17.36000061 13.31000042 -1.15999997 37 178 148 97.000000 1.000000 4.000000 1.000000 -60.708740 114.000000 148.000000 -0.284607 -0.028585 0.958218
17.32999992 13.38000011 -1.16999996 37 178 148 97.000000 1.000000 4.000000 1.000000 -60.708740 114.000000 148.000000 -0.578669 0.103490 0.808970
17.31999969 13.36999989 -1.16999996 37 178 148 97.000000 1.000000 4.000000 1.000000 -60.708740 114.000000 148.000000 -0.510383 -0.057018 0.858055
17.32999992 13.36999989 -1.15999997 37 178 148 97.000000 1.000000 4.000000 1.000000 -60.708740 114.000000 148.000000 -0.317414 -0.170489 0.932836
17.32999992 13.39000034 -1.17999995 37 178 148 97.000000 1.000000 4.000000 1.000000 -60.708740 114.000000 148.000000 -0.526566 0.165577 0.833854
17.32999992 13.35999966 -1.16999996 37 178 148 97.000000 1.000000 4.000000 1.000000 -60.708740 114.000000 148.000000 0.684625 -0.004149 -0.728884
17.29999924 13.35000038 -1.16999996 37 178 148 97.000000 1.000000 4.000000 1.000000 -60.708740 114.000000 148.000000 -0.521346 -0.521346 0.675571
17.30999947 13.31000042 -1.14999998 37 178 148 97.000000 1.000000 4.000000 1.000000 -60.708740 114.000000 148.000000 -0.570383 -0.284397 0.770573
17.31999969 13.31999969 -1.17999995 37 178 148 97.000000 1.000000 4.000000 1.000000 -60.708740 114.000000 148.000000 -0.590788 -0.017987 0.806626
17.29999924 13.31000042 -1.15999997 37 178 148 97.000000 1.000000 4.000000 1.000000 -60.708740 114.000000 148.000000 -0.502263 0.025862 0.864328
17.32999992 13.34000015 -1.15999997 37 178 148 97.000000 1.000000 4.000000 1.000000 -60.708740 114.000000 148.000000 -0.660307 0.029566 0.750413
17.30999947 13.34000015 -1.17999995 37 178 148 97.000000 1.000000 4.000000 1.000000 -60.708740 114.000000 148.000000 0.767346 -0.061675 -0.638260
17.32999992 13.32999992 -1.15999997 37 178 148 97.000000 1.000000 4.000000 1.000000 -60.708740 114.000000 148.000000 0.829527 0.087394 -0.551586
17.30999947 13.32999992 -1.19000006 37 178 148 97.000000 1.000000 4.000000 1.000000 -60.708740 114.000000 148.000000 -0.612635 0.107248 0.783056
17.35000038 13.30000019 -1.14999998 37 178 148 97.000000 1.000000 4.000000 1.000000 -60.708740 114.000000 148.000000 -0.564570 0.118780 0.816794
17.36000061 13.30000019 -1.15999997 37 178 148 97.000000 1.000000 4.000000 1.000000 -60.708740 114.000000 148.000000 -0.005839 -0.211359 0.977391
17.35000038 13.28999996 -1.15999997 37 178 148 97.000000 1.000000 4.000000 1.000000 -60.708740 114.000000 148.000000 -0.383829 -0.261362 0.885644
17.34000015 13.27000046 -1.15999997 37 178 148 97.000000 1.000000 4.000000 1.000000 -60.708740 114.000000 148.000000 -0.329039 0.037129 0.943586
17.37000084 13.22999954 -1.13000000 37 178 148 97.000000 1.000000 4.000000 1.000000 -60.708740 114.000000 148.000000 -0.186457 -0.357257 0.915205
17.36000061 13.23999977 -1.14999998 37 178 148 97.000000 1.000000 4.000000 1.000000 -60.708740 114.000000 148.000000 -0.113208 0.065181 0.991431
17.36000061 13.26000023 -1.14999998 37 178 148 97.000000 1.000000 4.000000 1.000000 -60.708740 114.000000 148.000000 0.041584 -0.115762 0.992406
17.35000038 13.23999977 -1.16999996 37 178 148 97.000000 1.000000 4.000000 1.000000 -60.708740 114.000000 148.000000 -0.163217 0.052840 0.985174
17.37000084 13.25000000 -1.15999997 37 178 148 97.000000 1.000000 4.000000 1.000000 -60.708740 114.000000 148.000000 -0.061010 -0.078759 0.995025
17.37000084 13.22999954 -1.16999996 37 178 148 97.000000 1.000000 4.000000 1.000000 -60.708740 114.000000 148.000000 0.070131 0.003140 0.997533
17.37000084 13.23999977 -1.15999997 37 178 148 97.000000 1.000000 4.000000 1.000000 -60.708740 114.000000 148.000000 0.023556 -0.135726 0.990466
17.36000061 13.23999977 -1.15999997 37 178 148 97.000000 1.000000 4.000000 1.000000 -60.708740 114.000000 148.000000 -0.117738 -0.062870 0.991053
17.36000061 13.25000000 -1.15999997 37 178 148 97.000000 1.000000 4.000000 1.000000 -60.708740 114.000000 148.000000 -0.144773 -0.196021 0.969854
17.37000084 13.23999977 -1.15999997 37 178 148 97.000000 1.000000 4.000000 1.000000 -60.708740 114.000000 148.000000 0.023556 -0.135726 0.990466
17.37000084 13.26000023 -1.15999997 37 178 148 97.000000 1.000000 4.000000 1.000000 -60.708740 114.000000 148.000000 -0.015587 0.050916 0.998581
17.30999947 13.27999973 -1.16999996 37 178 148 97.000000 1.000000 4.000000 1.000000 -60.708740 114.000000 148.000000 -0.510408 -0.207495 0.834524
17.32999992 13.27000046 -1.15999997 37 178 148 97.000000 1.000000 4.000000 1.000000 -60.708740 114.000000 148.000000 0.582974 0.528901 -0.616770
17.32999992 13.28999996 -1.16999996 37 178 148 97.000000 1.000000 4.000000 1.000000 -60.708740 114.000000 148.000000 -0.508658 0.028638 0.860492
17.32999992 13.22999954 -1.15999997 37 178 148 97.000000 1.000000 4.000000 1.000000 -60.708740 114.000000 148.000000 -0.637806 -0.162103 0.752945
17.32999992 13.22999954 -1.15999997 37 178 148 97.000000 1.000000 4.000000 1.000000 -60.708740 114.000000 148.000000 -0.637806 -0.162103 0.752945
17.30999947 13.26000023 -1.16999996 37 178 148 97.000000 1.000000 4.000000 1.000000 -60.708740 114.000000 148.000000 -0.407376 -0.237263 0.881902
17.32999992 13.23999977 -1.16999996 37 178 148 97.000000 1.000000 4.000000 1.000000 -60.708740 114.000000 148.000000 -0.254358 -0.207611 0.944563
17.32999992 13.22999954 -1.16999996 37 178 148 97.000000 1.000000 4.000000 1.000000 -60.708740 114.000000 148.000000 0.791071 0.261602 -0.552966
17.26000023 13.38000011 -1.19000006 37 178 148 97.000000 1.000000 4.000000 1.000000 -60.708740 114.000000 148.000000 0.994389 -0.038714 -0.098443
17.27000046 13.31999969 -1.17999995 37 178 148 97.000000 1.000000 4.000000 1.000000 -60.708740 114.000000 148.000000 -0.582607 -0.382387 0.717181
17.29000092 13.31000042 -1.16999996 37 178 148 97.000000 1.000000 4.000000 1.000000 -60.708740 114.000000 148.000000 0.820165 0.052052 -0.569754
17.29000092 13.27999973 -1.17999995 37 178 148 97.000000 1.000000 4.000000 1.000000 -60.708740 114.000000 148.000000 -0.640541 0.032379 0.767241
17.28000069 13.26000023 -1.17999995 37 178 148 97.000000 1.000000 4.000000 1.000000 -60.708740 114.000000 148.000000 -0.667006 0.104542 0.737682
17.29000092 13.27999973 -1.19000006 37 178 148 97.000000 1.000000 4.000000 1.000000 -60.708740 114.000000 148.000000 -0.711742 0.226819 0.664814
17.27000046 13.25000000 -1.19000006 37 178 148 97.000000 1.000000 4.000000 1.000000 -60.708740 114.000000 148.000000 0.734954 0.159114 -0.659186
17.28000069 13.26000023 -1.17999995 37 178 148 97.000000 1.000000 4.000000 1.000000 -60.708740 114.000000 148.000000 -0.667006 0.104542 0.737682
17.28000069 13.28999996 -1.19000006 37 178 148 97.000000 1.000000 4.000000 1.000000 -60.708740 114.000000 148.000000 -0.637238 -0.015271 0.770516
17.29000092 13.27999973 -1.17999995 37 178 148 97.000000 1.000000 4.000000 1.000000 -60.708740 114.000000 148.000000 -0.640541 0.032379 0.767241
17.27000046 13.30000019 -1.19000006 37 178 148 97.000000 1.000000 4.000000 1.000000 -60.708740 114.000000 148.000000 0.814997 0.157018 -0.557787
17.32999992 13.36999989 -1.20000005 37 178 148 97.000000 1.000000 4.000000 1.000000 -60.708740 114.000000 148.000000 0.848384 0.396950 -0.350250
17.29999924 13.28999996 -1.20000005 37 178 148 97.000000 1.000000 4.000000 1.000000 -60.708740 114.000000 148.000000 0.785788 -0.227832 -0.575005
17.28000069 13.38000011 -1.20000005 37 178 148 97.000000 1.000000 4.000000 1.000000 -60.708740 114.000000 148.000000 0.747540 0.175802 -0.640530
17.26000023 13.35000038 -1.20000005 37 178 148 97.000000 1.000000 4.000000 1.000000 -60.708740 114.000000 148.000000 0.966280 0.180771 -0.183372
17.26000023 13.35999966 -1.20000005 37 178 148 97.000000 1.000000 4.000000 1.000000 -60.708740 114.000000 148.000000 0.900577 0.030686 -0.433611
17.28000069 13.35000038 -1.21000004 37 178 148 97.000000 1.000000 4.000000 1.000000 -60.708740 114.000000 148.000000 0.832078 0.304419 -0.463653
17.26000023 13.36999989 -1.20000005 37 178 148 97.000000 1.000000 4.000000 1.000000 -60.708740 114.000000 148.000000 0.956305 0.130226 -0.261767
17.27000046 13.35999966 -1.20000005 37 178 148 97.000000 1.000000 4.000000 1.000000 -60.708740 114.000000 148.000000 0.757650 0.499100 -0.420553
17.26000023 13.38000011 -1.21000004 37 178 148 97.000000 1.000000 4.000000 1.000000 -60.708740 114.000000 148.000000 0.946320 -0.047509 -0.319720
17.29000092 13.35000038 -1.20000005 37 178 148 97.000000 1.000000 4.000000 1.000000 -60.708740 114.000000 148.000000 0.741733 0.425962 -0.518062
17.27000046 13.31000042 -1.21000004 37 178 148 97.000000 1.000000 4.000000 1.000000 -60.708740 114.000000 148.000000 0.742401 0.038181 -0.668868
17.28000069 13.31000042 -1.20000005 37 178 148 97.000000 1.000000 4.000000 1.000000 -60.708740 114.000000 148.000000 0.745103 0.023855 -0.666523
17.27000046 13.31000042 -1.21000004 37 178 148 97.000000 1.000000 4.000000 1.000000 -60.708740 114.000000 148.000000 0.742401 0.038181 -0.668868
17.23999977 13.39000034 -1.21000004 37 178 148 97.000000 1.000000 4.000000 1.000000 -60.708740 114.000000 148.000000 0.864565 0.116136 -0.488917
17.27000046 13.26000023 -1.20000005 37 178 148 97.000000 1.000000 4.000000 1.000000 -60.708740 114.000000 148.000000 0.975849 -0.110920 -0.188191
17.27000046 13.23999977 -1.20000005 37 178 148 97.000000 1.000000 4.000000 1.000000 -60.708740 114.000000 148.000000 -0.834070 0.191550 0.517335
17.27000046 13.27000046 -1.21000004 37 178 148 97.000000 1.000000 4.000000 1.000000 -60.708740 114.000000 148.000000 0.965885 -0.043175 -0.255349
17.27000046 13.26000023 -1.20000005 37 178 148 97.000000 1.000000 4.000000 1.000000 -60.708740 114.000000 148.000000 0.975849 -0.110920 -0.188191
17.27000046 13.26000023 -1.25000000 37 178 148 97.000000 1.000000 4.000000 1.000000 -60.708740 114.000000 148.000000 0.995462 0.090497 -0.029439
17.27000046 13.30000019 -1.20000005 37 178 148 97.000000 1.000000 4.000000 1.000000 -60.708740 114.000000 148.000000 0.846837 -0.083972 -0.525181
17.34000015 13.18999958 -1.14999998 37 178 148 97.000000 1.000000 4.000000 1.000000 -60.708740 114.000000 148.000000 -0.094327 -0.272643 0.957480
17.37000084 13.19999981 -1.14999998 37 178 148 97.000000 1.000000 4.000000 1.000000 -60.708740 114.000000 148.000000 -0.117235 -0.169066 0.978607
17.34000015 13.21000004 -1.15999997 37 178 148 97.000000 1.000000 4.000000 1.000000 -60.708740 114.000000 148.000000 -0.585898 0.034958 0.809630
17.36000061 13.21000004 -1.15999997 37 178 148 97.000000 1.000000 4.000000 1.000000 -60.708740 114.000000 148.000000 -0.011563 0.068328 0.997596
17.35000038 13.18999958 -1.16999996 37 178 148 97.000000 1.000000 4.000000 1.000000 -60.708740 114.000000 148.000000 -0.125468 0.039562 0.991309
17.37000084 13.18000031 -1.15999997 37 178 148 97.000000 1.000000 4.000000 1.000000 -60.708740 114.000000 148.000000 -0.094766 0.081065 0.992193
17.35000038 13.18000031 -1.15999997 37 178 148 97.000000 1.000000 4.000000 1.000000 -60.708740 114.000000 148.000000 -0.154816 -0.033257 0.987383
17.32999992 13.22000027 -1.17999995 37 178 148 97.000000 1.000000 4.000000 1.000000 -60.708740 114.000000 148.000000 0.780467 0.286541 -0.555667
17.32999992 13.18000031 -1.14999998 37 178 148 97.000000 1.000000 4.000000 1.000000 -60.708740 114.000000 148.000000 0.749569 0.344834 -0.565010
17.44000053 13.72999954 -1.01999998 37 178 148 97.000000 1.000000 4.000000 1.000000 -60.708740 114.000000 148.000000 0.169014 -0.370696 0.913246
17.51000023 13.72999954 -1.00000000 37 178 148 97.000000 1.000000 4.000000 1.000000 -60.708740 114.000000 148.000000 0.444895 -0.183537 0.876575
17.48999977 13.75000000 -1.13000000 37 178 148 97.000000 1.000000 4.000000 1.000000 -60.708740 114.000000 148.000000 0.934855 0.095229 0.342020
17.37999916 13.84000015 -1.09000003 37 178 148 97.000000 1.000000 4.000000 1.000000 -60.708740 114.000000 148.000000 0.171260 -0.019540 0.985032
17.38999939 13.81999969 -1.10000002 37 178 148 97.000000 1.000000 4.000000 1.000000 -60.708740 114.000000 148.000000 0.679987 -0.095462 0.726984
17.38999939 13.78999996 -1.10000002 37 178 148 97.000000 1.000000 4.000000 1.000000 -60.708740 114.000000 148.000000 0.783957 -0.113255 0.610398
17.38999939 13.80000019 -1.11000001 37 178 148 97.000000 1.000000 4.000000 1.000000 -60.708740 114.000000 148.000000 0.725979 -0.282414 0.627054
17.43000031 13.72999954 -1.09000003 37 178 148 97.000000 1.000000 4.000000 1.000000 -60.708740 114.000000 148.000000 0.552920 -0.206771 0.807171
17.39999962 13.73999977 -1.12000000 37 178 148 97.000000 1.000000 4.000000 1.000000 -60.708740 114.000000 148.000000 0.257714 -0.051045 0.964872
17.43000031 13.72999954 -1.12000000 37 178 148 97.000000 1.000000 4.000000 1.000000 -60.708740 114.000000 148.000000 0.692550 -0.258319 0.673532
17.20000076 14.10000038 -1.01999998 37 178 148 97.000000 1.000000 4.000000 1.000000 -60.708740 114.000000 148.000000 0.861002 0.276805 -0.426678
17.20999908 14.09000015 -1.02999997 37 178 148 97.000000 1.000000 4.000000 1.000000 -60.708740 114.000000 148.000000 0.926284 0.280304 -0.251847
17.23999977 14.06999969 -1.07000005 37 178 148 97.000000 1.000000 4.000000 1.000000 -60.708740 114.000000 148.000000 0.835716 -0.029008 -0.548395
17.18000031 14.14999962 -1.13000000 37 178 148 97.000000 1.000000 4.000000 1.000000 -60.708740 114.000000 148.000000 0.986010 0.132342 -0.101343
17.18000031 14.14999962 -1.13000000 37 178 148 97.000000 1.000000 4.000000 1.000000 -60.708740 114.000000 148.000000 0.986010 0.132342 -0.101343
17.19000053 14.10000038 -1.09000003 37 178 148 97.000000 1.000000 4.000000 1.000000 -60.708740 114.000000 148.000000 0.948178 -0.203278 0.244207
17.18000031 14.10000038 -1.11000001 37 178 148 97.000000 1.000000 4.000000 1.000000 -60.708740 114.000000 148.000000 0.956974 -0.265753 -0.116513
17.18000031 14.09000015 -1.10000002 37 178 148 97.000000 1.000000 4.000000 1.000000 -60.708740 114.000000 148.000000 0.955702 -0.175101 -0.236586
17.18000031 14.09000015 -1.10000002 37 178 148 97.000000 1.000000 4.000000 1.000000 -60.708740 114.000000 148.000000 0.955702 -0.175101 -0.236586
17.18000031 14.11999989 -1.13000000 37 178 148 97.000000 1.000000 4.000000 1.000000 -60.708740 114.000000 148.000000 0.986590 -0.062028 -0.150973
17.18000031 14.10999966 -1.12000000 37 178 148 97.000000 1.000000 4.000000 1.000000 -60.708740 114.000000 148.000000 0.971692 0.224618 0.073218
17.18000031 14.09000015 -1.12000000 37 178 148 97.000000 1.000000 4.000000 1.000000 -60.708740 114.000000 148.000000 0.875942 0.103302 0.471226
17.31999969 13.89999962 -1.09000003 37 178 148 97.000000 1.000000 4.000000 1.000000 -60.708740 114.000000 148.000000 -0.497566 -0.132007 0.857323
17.32999992 13.89999962 -1.07000005 37 178 148 97.000000 1.000000 4.000000 1.000000 -60.708740 114.000000 148.000000 -0.410842 0.146425 0.899872
17.32999992 13.89999962 -1.08000004 37 178 148 97.000000 1.000000 4.000000 1.000000 -60.708740 114.000000 148.000000 -0.145493 0.021429 0.989127
17.32999992 13.89999962 -1.08000004 37 178 148 97.000000 1.000000 4.000000 1.000000 -60.708740 114.000000 148.000000 -0.145493 0.021429 0.989127
17.25000000 14.05000019 -1.05999994 37 178 148 97.000000 1.000000 4.000000 1.000000 -60.708740 114.000000 148.000000 0.896129 0.394880 -0.202540
17.25000000 14.05000019 -1.05999994 37 178 148 97.000000 1.000000 4.000000 1.000000 -60.708740 114.000000 148.000000 0.896129 0.394880 -0.202540
17.25000000 13.97999954 -1.09000003 37 178 148 97.000000 1.000000 4.000000 1.000000 -60.708740 114.000000 148.000000 0.836462 -0.158972 -0.524460
17.22999954 14.03999996 -1.08000004 37 178 148 97.000000 1.000000 4.000000 1.000000 -60.708740 114.000000 148.000000 0.929731 -0.261796 -0.258966
17.26000023 13.96000004 -1.09000003 37 178 148 97.000000 1.000000 4.000000 1.000000 -60.708740 114.000000 148.000000 0.991585 0.118990 -0.050996
17.26000023 13.96000004 -1.09000003 37 178 148 97.000000 1.000000 4.000000 1.000000 -60.708740 114.000000 148.000000 0.991585 0.118990 -0.050996
17.34000015 13.86999989 -1.05999994 37 178 148 97.000000 1.000000 4.000000 1.000000 -60.708740 114.000000 148.000000 -0.216882 0.080556 0.972869
17.36000061 13.88000011 -1.09000003 37 178 148 97.000000 1.000000 4.000000 1.000000 -60.708740 114.000000 148.000000 0.236811 0.076431 0.968545
17.37000084 13.86999989 -1.08000004 37 178 148 97.000000 1.000000 4.000000 1.000000 -60.708740 114.000000 148.000000 0.294576 0.068177 0.953193
17.35000038 13.89000034 -1.08000004 37 178 148 97.000000 1.000000 4.000000 1.000000 -60.708740 114.000000 148.000000 0.171728 -0.096217 0.980434
17.34000015 13.81999969 -1.10000002 37 178 148 97.000000 1.000000 4.000000 1.000000 -60.708740 114.000000 148.000000 -0.381990 0.114459 0.917051
17.35000038 13.82999992 -1.09000003 37 178 148 97.000000 1.000000 4.000000 1.000000 -60.708740 114.000000 148.000000 -0.243745 -0.084616 0.966141
17.34000015 13.82999992 -1.08000004 37 178 148 97.000000 1.000000 4.000000 1.000000 -60.708740 114.000000 148.000000 -0.175475 -0.191073 0.965764
17.37000084 13.84000015 -1.08000004 37 178 148 97.000000 1.000000 4.000000 1.000000 -60.708740 114.000000 148.000000 0.032569 0.124660 0.991665
17.32999992 13.85999966 -1.09000003 37 178 148 97.000000 1.000000 4.000000 1.000000 -60.708740 114.000000 148.000000 -0.186683 -0.289013 0.938947
17.30999947 13.88000011 -1.09000003 37 178 148 97.000000 1.000000 4.000000 1.000000 -60.708740 114.000000 148.000000 -0.468707 -0.112547 0.876155
17.30999947 13.86999989 -1.09000003 37 178 148 97.000000 1.000000 4.000000 1.000000 -60.708740 114.000000 148.000000 -0.512336 0.045572 0.857575
17.32999992 13.89000034 -1.08000004 37 178 148 97.000000 1.000000 4.000000 1.000000 -60.708740 114.000000 148.000000 -0.199228 0.111518 0.973587
17.30999947 13.82999992 -1.10000002 37 178 148 97.000000 1.000000 4.000000 1.000000 -60.708740 114.000000 148.000000 0.826122 0.072517 -0.558805
17.35000038 13.77000046 -1.08000004 37 178 148 97.000000 1.000000 4.000000 1.000000 -60.708740 114.000000 148.000000 -0.213425 -0.227019 0.950217
17.37000084 13.80000019 -1.07000005 37 178 148 97.000000 1.000000 4.000000 1.000000 -60.708740 114.000000 148.000000 0.458857 -0.251533 0.852163
17.37000084 13.77000046 -1.08000004 37 178 148 97.000000 1.000000 4.000000 1.000000 -60.708740 114.000000 148.000000 0.198756 -0.261809 0.944432
17.35000038 13.72999954 -1.09000003 37 178 148 97.000000 1.000000 4.000000 1.000000 -60.708740 114.000000 148.000000 -0.097110 -0.147463 0.984289
17.35000038 13.72999954 -1.09000003 37 178 148 97.000000 1.000000 4.000000 1.000000 -60.708740 114.000000 148.000000 -0.097110 -0.147463 0.984289
17.34000015 13.72999954 -1.09000003 37 178 148 97.000000 1.000000 4.000000 1.000000 -60.708740 114.000000 148.000000 -0.088606 0.009608 0.996020
17.35000038 13.73999977 -1.09000003 37 178 148 97.000000 1.000000 4.000000 1.000000 -60.708740 114.000000 148.000000 -0.155835 -0.040402 0.986956
17.31999969 13.77999973 -1.10000002 37 178 148 97.000000 1.000000 4.000000 1.000000 -60.708740 114.000000 148.000000 -0.427740 0.006540 0.903878
17.30999947 13.80000019 -1.09000003 37 178 148 97.000000 1.000000 4.000000 1.000000 -60.708740 114.000000 148.000000 0.544736 0.487748 -0.682177
17.32999992 13.78999996 -1.09000003 37 178 148 97.000000 1.000000 4.000000 1.000000 -60.708740 114.000000 148.000000 -0.558346 -0.237958 0.794749
17.29999924 13.75000000 -1.09000003 37 178 148 97.000000 1.000000 4.000000 1.000000 -60.708740 114.000000 148.000000 -0.321966 -0.143857 0.935758
17.27000046 13.85999966 -1.11000001 37 178 148 97.000000 1.000000 4.000000 1.000000 -60.708740 114.000000 148.000000 0.863059 0.237303 -0.445889
17.27000046 13.88000011 -1.10000002 37 178 148 97.000000 1.000000 4.000000 1.000000 -60.708740 114.000000 148.000000 0.988942 0.080373 -0.124637
17.22999954 13.89000034 -1.09000003 37 178 148 97.000000 1.000000 4.000000 1.000000 -60.708740 114.000000 148.000000 0.823898 -0.072571 -0.562072
