//X Y Z R G B PointSourceId ScanDirectionFlag NumberOfReturns ReturnNumber GpsTime Intensity Classification Nx Ny Nz
-6.86999989 -6.26999998 -0.02000000 110 189 106 0.000000 0.000000 0.000000 0.000000 -60.708740 0.000000 192.000000 0.894754 -0.168577 0.413518
-6.86999989 -6.34000015 0.14000000 110 189 106 0.000000 0.000000 0.000000 0.000000 -60.708740 0.000000 192.000000 0.867487 -0.112902 0.484478
-6.92000008 -6.25000000 0.13000000 110 189 106 0.000000 0.000000 0.000000 0.000000 -60.708740 0.000000 192.000000 0.722009 -0.272546 0.635942
-7.11000013 -6.13999987 0.15000001 110 189 106 0.000000 0.000000 0.000000 0.000000 -60.708740 0.000000 192.000000 0.534037 0.500555 0.681358
-7.13000011 -6.23999977 0.28999999 110 189 106 0.000000 0.000000 0.000000 0.000000 -60.708740 0.000000 192.000000 0.866127 -0.028554 0.499009
-7.13000011 -6.23999977 0.28000000 110 189 106 0.000000 0.000000 0.000000 0.000000 -60.708740 0.000000 192.000000 0.907813 -0.283050 0.309448
-7.13000011 -6.21999979 0.30000001 110 189 106 0.000000 0.000000 0.000000 0.000000 -60.708740 0.000000 192.000000 0.817508 -0.290286 0.497409
-7.09999990 -6.19999981 0.22000000 110 189 106 0.000000 0.000000 0.000000 0.000000 -60.708740 0.000000 192.000000 0.681246 -0.098582 0.725387
-7.11000013 -6.19000006 0.20999999 110 189 106 0.000000 0.000000 0.000000 0.000000 -60.708740 0.000000 192.000000 0.707716 0.202868 0.676744
-7.09999990 -6.17999983 0.20999999 110 189 106 0.000000 0.000000 0.000000 0.000000 -60.708740 0.000000 192.000000 0.548395 0.029008 0.835716
-7.13000011 -6.19000006 0.18000001 110 189 106 0.000000 0.000000 0.000000 0.000000 -60.708740 0.000000 192.000000 0.657029 -0.004150 0.753854
-7.09999990 -6.23000002 0.22000000 110 189 106 0.000000 0.000000 0.000000 0.000000 -60.708740 0.000000 192.000000 0.776977 -0.518523 0.356989
-7.11999989 -6.21999979 0.16000000 110 189 106 0.000000 0.000000 0.000000 0.000000 -60.708740 0.000000 192.000000 0.681407 -0.258903 0.684583
-7.13000011 -6.21999979 0.17000000 110 189 106 0.000000 0.000000 0.000000 0.000000 -60.708740 0.000000 192.000000 0.690352 0.146530 0.708479
-7.03000021 -6.15999985 0.04000000 110 189 106 0.000000 0.000000 0.000000 0.000000 -60.708740 0.000000 192.000000 0.716700 -0.021038 0.697064
-7.03999996 -6.13000011 0.05000000 110 189 106 0.000000 0.000000 0.000000 0.000000 -60.708740 0.000000 192.000000 0.762926 0.316413 0.563762
-7.03000021 -6.15000010 0.04000000 110 189 106 0.000000 0.000000 0.000000 0.000000 -60.708740 0.000000 192.000000 0.594076 -0.061260 0.802073
-7.03999996 -6.21000004 0.09000000 110 189 106 0.000000 0.000000 0.000000 0.000000 -60.708740 0.000000 192.000000 0.901813 -0.395532 0.174034
-7.07999992 -6.15999985 0.12000000 110 189 106 0.000000 0.000000 0.000000 0.000000 -60.708740 0.000000 192.000000 0.575483 0.081802 0.813713
-7.07000017 -6.13000011 0.07000000 110 189 106 0.000000 0.000000 0.000000 0.000000 -60.708740 0.000000 192.000000 0.625223 0.369226 0.687581
-7.07000017 -6.15999985 0.10000000 110 189 106 0.000000 0.000000 0.000000 0.000000 -60.708740 0.000000 192.000000 0.453006 -0.078964 0.888003
-7.07000017 -6.15000010 0.10000000 110 189 106 0.000000 0.000000 0.000000 0.000000 -60.708740 0.000000 192.000000 0.748597 0.179112 0.638374
-7.07999992 -6.15999985 0.09000000 110 189 106 0.000000 0.000000 0.000000 0.000000 -60.708740 0.000000 192.000000 0.734097 0.286282 0.615746
-7.09000015 -6.15999985 0.13000000 110 189 106 0.000000 0.000000 0.000000 0.000000 -60.708740 0.000000 192.000000 0.904505 0.035967 0.424944
-7.09000015 -6.15999985 0.13000000 110 189 106 0.000000 0.000000 0.000000 0.000000 -60.708740 0.000000 192.000000 0.904505 0.035967 0.424944
-7.11999989 -6.15000010 0.12000000 110 189 106 0.000000 0.000000 0.000000 0.000000 -60.708740 0.000000 192.000000 0.791786 0.264974 0.550330
-7.09999990 -6.13000011 0.07000000 110 189 106 0.000000 0.000000 0.000000 0.000000 -60.708740 0.000000 192.000000 0.386959 0.157335 0.908575
-7.05000019 -6.13000011 0.05000000 110 189 106 0.000000 0.000000 0.000000 0.000000 -60.708740 0.000000 192.000000 0.821639 0.272840 0.500467
-7.09000015 -6.13000011 0.06000000 110 189 106 0.000000 0.000000 0.000000 0.000000 -60.708740 0.000000 192.000000 0.520721 0.215313 0.826129
-7.07999992 -6.17000008 0.11000000 110 189 106 0.000000 0.000000 0.000000 0.000000 -60.708740 0.000000 192.000000 0.933087 -0.182168 0.310102
-7.07999992 -6.17999983 0.12000000 110 189 106 0.000000 0.000000 0.000000 0.000000 -60.708740 0.000000 192.000000 0.627352 0.265235 0.732175
-7.05999994 -6.19000006 0.09000000 110 189 106 0.000000 0.000000 0.000000 0.000000 -60.708740 0.000000 192.000000 0.958576 -0.056833 0.279111
-7.07999992 -6.17000008 0.10000000 110 189 106 0.000000 0.000000 0.000000 0.000000 -60.708740 0.000000 192.000000 0.844878 -0.325192 0.424773
-7.07000017 -6.17999983 0.10000000 110 189 106 0.000000 0.000000 0.000000 0.000000 -60.708740 0.000000 192.000000 0.521909 0.092943 0.847923
-7.09000015 -6.17000008 0.13000000 110 189 106 0.000000 0.000000 0.000000 0.000000 -60.708740 0.000000 192.000000 0.811193 0.109621 0.574412
-7.09999990 -6.19000006 0.14000000 110 189 106 0.000000 0.000000 0.000000 0.000000 -60.708740 0.000000 192.000000 0.778516 0.038011 0.626473
-7.09000015 -6.17999983 0.13000000 110 189 106 0.000000 0.000000 0.000000 0.000000 -60.708740 0.000000 192.000000 0.794612 -0.088290 0.600663
-7.09000015 -6.19000006 0.13000000 110 189 106 0.000000 0.000000 0.000000 0.000000 -60.708740 0.000000 192.000000 0.497305 -0.170717 0.850614
-7.09999990 -6.17999983 0.14000000 110 189 106 0.000000 0.000000 0.000000 0.000000 -60.708740 0.000000 192.000000 0.618985 -0.132746 0.774104
-7.09999990 -6.19000006 0.14000000 110 189 106 0.000000 0.000000 0.000000 0.000000 -60.708740 0.000000 192.000000 0.778516 0.038011 0.626473
-7.09999990 -6.17999983 0.10000000 110 189 106 0.000000 0.000000 0.000000 0.000000 -60.708740 0.000000 192.000000 0.927734 0.204751 0.312069
-7.09000015 -6.19000006 0.08000000 110 189 106 0.000000 0.000000 0.000000 0.000000 -60.708740 0.000000 192.000000 0.749180 -0.309618 0.585548
-7.09999990 -6.17000008 0.08000000 110 189 106 0.000000 0.000000 0.000000 0.000000 -60.708740 0.000000 192.000000 0.506181 -0.080369 0.858674
-7.13000011 -6.17000008 0.10000000 110 189 106 0.000000 0.000000 0.000000 0.000000 -60.708740 0.000000 192.000000 0.623026 -0.261576 0.737168
-7.11000013 -6.23000002 0.14000000 110 189 106 0.000000 0.000000 0.000000 0.000000 -60.708740 0.000000 192.000000 0.669013 -0.330437 0.665757
-7.07000017 -6.17000008 0.00000000 110 189 106 0.000000 0.000000 0.000000 0.000000 -60.708740 0.000000 192.000000 -0.673674 0.512395 -0.532555
-7.13000011 -6.19999981 0.06000000 110 189 106 0.000000 0.000000 0.000000 0.000000 -60.708740 0.000000 192.000000 0.767845 0.009685 0.640563
-7.11000013 -6.19999981 0.03000000 110 189 106 0.000000 0.000000 0.000000 0.000000 -60.708740 0.000000 192.000000 0.799309 -0.264351 0.539651
-7.11999989 -6.19000006 0.06000000 110 189 106 0.000000 0.000000 0.000000 0.000000 -60.708740 0.000000 192.000000 -0.636270 0.565386 -0.524881
-7.13000011 -6.17000008 0.04000000 110 189 106 0.000000 0.000000 0.000000 0.000000 -60.708740 0.000000 192.000000 0.683930 -0.185968 0.705447
-7.13000011 -6.17999983 -0.01000000 110 189 106 0.000000 0.000000 0.000000 0.000000 -60.708740 0.000000 192.000000 0.858088 -0.476052 0.192510
-7.11999989 -6.26000023 0.28999999 110 189 106 0.000000 0.000000 0.000000 0.000000 -60.708740 0.000000 192.000000 0.910685 0.009120 0.413000
-7.11000013 -6.26999998 0.27000001 110 189 106 0.000000 0.000000 0.000000 0.000000 -60.708740 0.000000 192.000000 0.680943 -0.269507 0.680943
-7.07999992 -6.26999998 0.25000000 110 189 106 0.000000 0.000000 0.000000 0.000000 -60.708740 0.000000 192.000000 0.537559 -0.332163 0.775047
-7.07999992 -6.26000023 0.16000000 110 189 106 0.000000 0.000000 0.000000 0.000000 -60.708740 0.000000 192.000000 0.630745 -0.058641 0.773771
-7.15999985 -6.21999979 0.36000001 110 189 106 0.000000 0.000000 0.000000 0.000000 -60.708740 0.000000 192.000000 0.923718 -0.084955 0.373533
-7.17999983 -6.21999979 0.38000000 110 189 106 0.000000 0.000000 0.000000 0.000000 -60.708740 0.000000 192.000000 0.627704 0.308204 0.714841
-7.23999977 -6.23999977 0.41000000 110 189 106 0.000000 0.000000 0.000000 0.000000 -60.708740 0.000000 192.000000 0.749070 -0.317348 0.581536
-7.21999979 -6.23999977 0.31999999 110 189 106 0.000000 0.000000 0.000000 0.000000 -60.708740 0.000000 192.000000 0.893934 -0.128919 0.429258
-7.19000006 -6.26999998 0.49000001 110 189 106 0.000000 0.000000 0.000000 0.000000 -60.708740 0.000000 192.000000 0.658458 -0.326790 0.677968
-7.19000006 -6.30000019 0.51999998 110 189 106 0.000000 0.000000 0.000000 0.000000 -60.708740 0.000000 192.000000 0.891760 0.200609 0.405611
-7.19999981 -6.34000015 0.49000001 110 189 106 0.000000 0.000000 0.000000 0.000000 -60.708740 0.000000 192.000000 -0.606223 0.569072 -0.555563
-7.25000000 -6.28999996 0.49000001 110 189 106 0.000000 0.000000 0.000000 0.000000 -60.708740 0.000000 192.000000 0.969576 -0.121038 0.212772
-7.23999977 -6.26999998 0.50000000 110 189 106 0.000000 0.000000 0.000000 0.000000 -60.708740 0.000000 192.000000 0.837880 0.197770 0.508767
-7.23000002 -6.30999994 0.50000000 110 189 106 0.000000 0.000000 0.000000 0.000000 -60.708740 0.000000 192.000000 0.556728 0.075464 0.827260
-7.26999998 -6.32000017 0.49000001 110 189 106 0.000000 0.000000 0.000000 0.000000 -60.708740 0.000000 192.000000 0.870403 0.051038 0.489688
-7.23999977 -6.34000015 0.49000001 110 189 106 0.000000 0.000000 0.000000 0.000000 -60.708740 0.000000 192.000000 0.768922 -0.553816 0.319448
-7.23000002 -6.34999990 0.51999998 110 189 106 0.000000 0.000000 0.000000 0.000000 -60.708740 0.000000 192.000000 0.822539 -0.057846 0.565760
-7.23999977 -6.34000015 0.49000001 110 189 106 0.000000 0.000000 0.000000 0.000000 -60.708740 0.000000 192.000000 0.768922 -0.553816 0.319448
-7.17000008 -6.28999996 0.44999999 110 189 106 0.000000 0.000000 0.000000 0.000000 -60.708740 0.000000 192.000000 0.915229 -0.103221 0.389488
-7.17000008 -6.25000000 0.44999999 110 189 106 0.000000 0.000000 0.000000 0.000000 -60.708740 0.000000 192.000000 0.552840 -0.166301 0.816525
-7.15999985 -6.26000023 0.44000000 110 189 106 0.000000 0.000000 0.000000 0.000000 -60.708740 0.000000 192.000000 0.645222 -0.155639 0.747974
-7.15999985 -6.26000023 0.44000000 110 189 106 0.000000 0.000000 0.000000 0.000000 -60.708740 0.000000 192.000000 0.645222 -0.155639 0.747974
-7.17000008 -6.28000021 0.40000001 110 189 106 0.000000 0.000000 0.000000 0.000000 -60.708740 0.000000 192.000000 0.700285 -0.297822 0.648770
-7.15999985 -6.26999998 0.41000000 110 189 106 0.000000 0.000000 0.000000 0.000000 -60.708740 0.000000 192.000000 -0.769967 0.452825 -0.449556
-7.15999985 -6.28000021 0.40000001 110 189 106 0.000000 0.000000 0.000000 0.000000 -60.708740 0.000000 192.000000 0.731168 -0.286388 0.619173
-7.17000008 -6.28999996 0.41000000 110 189 106 0.000000 0.000000 0.000000 0.000000 -60.708740 0.000000 192.000000 0.768170 -0.481126 0.422412
-7.15999985 -6.28000021 0.44000000 110 189 106 0.000000 0.000000 0.000000 0.000000 -60.708740 0.000000 192.000000 0.964634 -0.165776 0.204936
-7.17000008 -6.28000021 0.40000001 110 189 106 0.000000 0.000000 0.000000 0.000000 -60.708740 0.000000 192.000000 0.700285 -0.297822 0.648770
-7.15999985 -6.30999994 0.44000000 110 189 106 0.000000 0.000000 0.000000 0.000000 -60.708740 0.000000 192.000000 0.920261 -0.286592 0.266429
-7.15999985 -6.30999994 0.44000000 110 189 106 0.000000 0.000000 0.000000 0.000000 -60.708740 0.000000 192.000000 0.920261 -0.286592 0.266429
-7.17999983 -6.28999996 0.41000000 110 189 106 0.000000 0.000000 0.000000 0.000000 -60.708740 0.000000 192.000000 0.863649 -0.417303 0.282788
-7.17999983 -6.28000021 0.41999999 110 189 106 0.000000 0.000000 0.000000 0.000000 -60.708740 0.000000 192.000000 0.860057 -0.009422 0.510112
-7.17999983 -6.28000021 0.41999999 110 189 106 0.000000 0.000000 0.000000 0.000000 -60.708740 0.000000 192.000000 0.860057 -0.009422 0.510112
-7.19999981 -6.28999996 0.40000001 110 189 106 0.000000 0.000000 0.000000 0.000000 -60.708740 0.000000 192.000000 0.750976 -0.481479 0.451900
-7.19000006 -6.32000017 0.47999999 110 189 106 0.000000 0.000000 0.000000 0.000000 -60.708740 0.000000 192.000000 0.592585 -0.017957 0.805308
-7.19000006 -6.32000017 0.47999999 110 189 106 0.000000 0.000000 0.000000 0.000000 -60.708740 0.000000 192.000000 0.592585 -0.017957 0.805308
-7.15999985 -6.25000000 0.38000000 110 189 106 0.000000 0.000000 0.000000 0.000000 -60.708740 0.000000 192.000000 0.967267 -0.105775 0.230666
-7.15999985 -6.28000021 0.36000001 110 189 106 0.000000 0.000000 0.000000 0.000000 -60.708740 0.000000 192.000000 0.881244 -0.417588 0.221426
-7.15000010 -6.28000021 0.31999999 110 189 106 0.000000 0.000000 0.000000 0.000000 -60.708740 0.000000 192.000000 0.869185 0.152872 0.470263
-7.15999985 -6.30000019 0.34999999 110 189 106 0.000000 0.000000 0.000000 0.000000 -60.708740 0.000000 192.000000 0.672455 -0.095228 0.733987
-7.15000010 -6.30000019 0.34999999 110 189 106 0.000000 0.000000 0.000000 0.000000 -60.708740 0.000000 192.000000 0.753992 -0.277787 0.595257
-7.21000004 -6.32999992 0.38999999 110 189 106 0.000000 0.000000 0.000000 0.000000 -60.708740 0.000000 192.000000 0.905522 -0.185711 0.381500
-7.21000004 -6.30999994 0.38999999 110 189 106 0.000000 0.000000 0.000000 0.000000 -60.708740 0.000000 192.000000 0.902188 -0.116095 0.415426
-7.13999987 -6.34999990 0.40000001 110 189 106 0.000000 0.000000 0.000000 0.000000 -60.708740 0.000000 192.000000 0.647006 -0.499119 0.576423
-7.21999979 -6.26000023 0.47999999 110 189 106 0.000000 0.000000 0.000000 0.000000 -60.708740 0.000000 192.000000 0.830586 -0.078357 0.551350
-7.23999977 -6.26000023 0.46000001 110 189 106 0.000000 0.000000 0.000000 0.000000 -60.708740 0.000000 192.000000 0.883104 -0.108798 0.456388
-7.23999977 -6.26000023 0.46000001 110 189 106 0.000000 0.000000 0.000000 0.000000 -60.708740 0.000000 192.000000 0.883104 -0.108798 0.456388
-7.23999977 -6.26999998 0.46000001 110 189 106 0.000000 0.000000 0.000000 0.000000 -60.708740 0.000000 192.000000 0.812893 -0.219742 0.539368
-7.23999977 -6.26999998 0.46000001 110 189 106 0.000000 0.000000 0.000000 0.000000 -60.708740 0.000000 192.000000 0.812893 -0.219742 0.539368
-7.23000002 -6.26999998 0.46000001 110 189 106 0.000000 0.000000 0.000000 0.000000 -60.708740 0.000000 192.000000 0.512940 0.077718 0.854899
-7.23999977 -6.30999994 0.47000000 110 189 106 0.000000 0.000000 0.000000 0.000000 -60.708740 0.000000 192.000000 -0.743191 0.539757 -0.395384
-7.25000000 -6.32999992 0.44000000 110 189 106 0.000000 0.000000 0.000000 0.000000 -60.708740 0.000000 192.000000 0.742916 -0.449703 0.495826
-7.25000000 -6.32999992 0.44000000 110 189 106 0.000000 0.000000 0.000000 0.000000 -60.708740 0.000000 192.000000 0.742916 -0.449703 0.495826
-7.26000023 -6.28999996 0.46000001 110 189 106 0.000000 0.000000 0.000000 0.000000 -60.708740 0.000000 192.000000 0.859368 -0.381084 0.340970
-7.26000023 -6.28999996 0.46000001 110 189 106 0.000000 0.000000 0.000000 0.000000 -60.708740 0.000000 192.000000 0.859368 -0.381084 0.340970
-7.26000023 -6.32000017 0.44999999 110 189 106 0.000000 0.000000 0.000000 0.000000 -60.708740 0.000000 192.000000 0.915135 -0.091650 0.392592
-7.23000002 -6.26000023 0.38999999 110 189 106 0.000000 0.000000 0.000000 0.000000 -60.708740 0.000000 192.000000 0.753854 0.004150 0.657029
-7.25000000 -6.26000023 0.38999999 110 189 106 0.000000 0.000000 0.000000 0.000000 -60.708740 0.000000 192.000000 0.761404 -0.175474 0.624077
-7.23000002 -6.26000023 0.38000000 110 189 106 0.000000 0.000000 0.000000 0.000000 -60.708740 0.000000 192.000000 0.765640 0.316208 0.560185
-7.25000000 -6.26999998 0.38999999 110 189 106 0.000000 0.000000 0.000000 0.000000 -60.708740 0.000000 192.000000 0.695945 0.004151 0.718083
-7.44000006 -6.21999979 0.31999999 110 189 106 0.000000 0.000000 0.000000 0.000000 -60.708740 0.000000 192.000000 0.191699 0.981453 -0.001148
-7.15000010 -6.19999981 0.30000001 110 189 106 0.000000 0.000000 0.000000 0.000000 -60.708740 0.000000 192.000000 0.549323 0.395184 0.736257
-7.15999985 -6.19000006 0.27000001 110 189 106 0.000000 0.000000 0.000000 0.000000 -60.708740 0.000000 192.000000 0.622627 0.212718 0.753052
-7.13999987 -6.23999977 0.25000000 110 189 106 0.000000 0.000000 0.000000 0.000000 -60.708740 0.000000 192.000000 0.837958 -0.424461 0.343015
-7.19999981 -6.19999981 0.28000000 110 189 106 0.000000 0.000000 0.000000 0.000000 -60.708740 0.000000 192.000000 0.932631 0.084057 0.350904
-7.17999983 -6.19000006 0.30000001 110 189 106 0.000000 0.000000 0.000000 0.000000 -60.708740 0.000000 192.000000 0.909365 0.169350 0.379969
-7.19000006 -6.19000006 0.25000000 110 189 106 0.000000 0.000000 0.000000 0.000000 -60.708740 0.000000 192.000000 0.857575 -0.208762 0.470089
-7.21000004 -6.23000002 0.31000000 110 189 106 0.000000 0.000000 0.000000 0.000000 -60.708740 0.000000 192.000000 0.944327 -0.147678 0.294002
-7.21000004 -6.23000002 0.31000000 110 189 106 0.000000 0.000000 0.000000 0.000000 -60.708740 0.000000 192.000000 0.944327 -0.147678 0.294002
-7.19999981 -6.23000002 0.25000000 110 189 106 0.000000 0.000000 0.000000 0.000000 -60.708740 0.000000 192.000000 0.918054 0.006456 0.396403
-7.19999981 -6.21000004 0.23999999 110 189 106 0.000000 0.000000 0.000000 0.000000 -60.708740 0.000000 192.000000 0.897366 0.274401 0.345597
-7.19999981 -6.23999977 0.25000000 110 189 106 0.000000 0.000000 0.000000 0.000000 -60.708740 0.000000 192.000000 0.727309 -0.089267 0.680480
-7.19000006 -6.21999979 0.23999999 110 189 106 0.000000 0.000000 0.000000 0.000000 -60.708740 0.000000 192.000000 0.891520 0.253660 0.375299
-7.19999981 -6.23000002 0.25000000 110 189 106 0.000000 0.000000 0.000000 0.000000 -60.708740 0.000000 192.000000 0.918054 0.006456 0.396403
-7.19999981 -6.21999979 0.25000000 110 189 106 0.000000 0.000000 0.000000 0.000000 -60.708740 0.000000 192.000000 0.878120 -0.231084 0.418933
-7.13999987 -6.19000006 0.23000000 110 189 106 0.000000 0.000000 0.000000 0.000000 -60.708740 0.000000 192.000000 0.531527 -0.014953 0.846909
-7.17000008 -6.19999981 0.17000000 110 189 106 0.000000 0.000000 0.000000 0.000000 -60.708740 0.000000 192.000000 0.941596 0.011345 0.336554
-7.15999985 -6.17999983 0.16000000 110 189 106 0.000000 0.000000 0.000000 0.000000 -60.708740 0.000000 192.000000 0.856608 -0.186219 0.481191
-7.15000010 -6.17000008 0.15000001 110 189 106 0.000000 0.000000 0.000000 0.000000 -60.708740 0.000000 192.000000 0.625173 -0.188934 0.757273
-7.15999985 -6.17999983 0.16000000 110 189 106 0.000000 0.000000 0.000000 0.000000 -60.708740 0.000000 192.000000 0.856608 -0.186219 0.481191
-7.15999985 -6.19999981 0.16000000 110 189 106 0.000000 0.000000 0.000000 0.000000 -60.708740 0.000000 192.000000 0.936983 0.006305 0.349319
-7.13999987 -6.23000002 0.19000000 110 189 106 0.000000 0.000000 0.000000 0.000000 -60.708740 0.000000 192.000000 0.612149 -0.271890 0.742529
-7.15000010 -6.21999979 0.19000000 110 189 106 0.000000 0.000000 0.000000 0.000000 -60.708740 0.000000 192.000000 0.697174 -0.297869 0.652091
-7.13999987 -6.23999977 0.18000001 110 189 106 0.000000 0.000000 0.000000 0.000000 -60.708740 0.000000 192.000000 0.873778 -0.045266 0.484213
-7.13999987 -6.23000002 0.18000001 110 189 106 0.000000 0.000000 0.000000 0.000000 -60.708740 0.000000 192.000000 0.831679 -0.037488 0.553990
-7.17999983 -6.17999983 0.17000000 110 189 106 0.000000 0.000000 0.000000 0.000000 -60.708740 0.000000 192.000000 0.839317 -0.233908 0.490748
-7.19000006 -6.19000006 0.18000001 110 189 106 0.000000 0.000000 0.000000 0.000000 -60.708740 0.000000 192.000000 0.846718 -0.114343 0.519610
-7.17999983 -6.21999979 0.22000000 110 189 106 0.000000 0.000000 0.000000 0.000000 -60.708740 0.000000 192.000000 0.648210 0.199568 0.734844
-7.17999983 -6.23999977 0.22000000 110 189 106 0.000000 0.000000 0.000000 0.000000 -60.708740 0.000000 192.000000 0.957538 0.028565 0.286889
-7.17999983 -6.21999979 0.20999999 110 189 106 0.000000 0.000000 0.000000 0.000000 -60.708740 0.000000 192.000000 0.839162 -0.063466 0.540166
-7.17999983 -6.21000004 0.20999999 110 189 106 0.000000 0.000000 0.000000 0.000000 -60.708740 0.000000 192.000000 0.703928 -0.237792 0.669283
-7.19000006 -6.21999979 0.22000000 110 189 106 0.000000 0.000000 0.000000 0.000000 -60.708740 0.000000 192.000000 0.907492 0.227962 0.352833
-7.21999979 -6.23000002 0.31000000 110 189 106 0.000000 0.000000 0.000000 0.000000 -60.708740 0.000000 192.000000 0.769682 0.079722 0.633430
-7.15000010 -6.13000011 0.09000000 110 189 106 0.000000 0.000000 0.000000 0.000000 -60.708740 0.000000 192.000000 0.687685 0.390843 0.611826
-7.13999987 -6.17999983 0.09000000 110 189 106 0.000000 0.000000 0.000000 0.000000 -60.708740 0.000000 192.000000 0.879526 -0.183541 0.439029
-7.15999985 -6.21999979 0.11000000 110 189 106 0.000000 0.000000 0.000000 0.000000 -60.708740 0.000000 192.000000 0.862199 -0.211426 0.460339
-7.19000006 -6.21000004 0.10000000 110 189 106 0.000000 0.000000 0.000000 0.000000 -60.708740 0.000000 192.000000 0.925992 -0.288750 0.243233
-7.15000010 -6.19000006 0.06000000 110 189 106 0.000000 0.000000 0.000000 0.000000 -60.708740 0.000000 192.000000 0.929353 -0.104467 0.354104
-7.15000010 -6.23999977 0.03000000 110 189 106 0.000000 0.000000 0.000000 0.000000 -60.708740 0.000000 192.000000 -0.398678 0.824359 -0.401855
-7.13999987 -6.23999977 0.00000000 110 189 106 0.000000 0.000000 0.000000 0.000000 -60.708740 0.000000 192.000000 -0.288879 0.956678 0.036266
-7.13999987 -6.23999977 0.02000000 110 189 106 0.000000 0.000000 0.000000 0.000000 -60.708740 0.000000 192.000000 -0.412747 0.909645 -0.046751
-7.19999981 -6.19999981 -0.02000000 110 189 106 0.000000 0.000000 0.000000 0.000000 -60.708740 0.000000 192.000000 0.314150 0.928362 0.198633
-7.19999981 -6.19999981 -0.02000000 110 189 106 0.000000 0.000000 0.000000 0.000000 -60.708740 0.000000 192.000000 0.314150 0.928362 0.198633
-7.28999996 -6.19999981 0.10000000 110 189 106 0.000000 0.000000 0.000000 0.000000 -60.708740 0.000000 192.000000 0.198532 0.828983 0.522850
-7.28999996 -6.21000004 0.08000000 110 189 106 0.000000 0.000000 0.000000 0.000000 -60.708740 0.000000 192.000000 0.251859 0.689048 0.679544
-7.28000021 -6.21000004 0.08000000 110 189 106 0.000000 0.000000 0.000000 0.000000 -60.708740 0.000000 192.000000 0.386540 0.874641 0.292558
-7.28000021 -6.21999979 0.07000000 110 189 106 0.000000 0.000000 0.000000 0.000000 -60.708740 0.000000 192.000000 0.364162 0.830793 0.420914
-7.21999979 -6.17999983 0.01000000 110 189 106 0.000000 0.000000 0.000000 0.000000 -60.708740 0.000000 192.000000 0.110014 0.903788 0.413598
-7.25000000 -6.21999979 0.04000000 110 189 106 0.000000 0.000000 0.000000 0.000000 -60.708740 0.000000 192.000000 -0.071748 0.965457 0.250490
-7.25000000 -6.21999979 0.04000000 110 189 106 0.000000 0.000000 0.000000 0.000000 -60.708740 0.000000 192.000000 -0.071748 0.965457 0.250490
-7.23000002 -6.21000004 0.01000000 110 189 106 0.000000 0.000000 0.000000 0.000000 -60.708740 0.000000 192.000000 -0.078819 0.812555 0.577530
-7.26999998 -6.21000004 0.06000000 110 189 106 0.000000 0.000000 0.000000 0.000000 -60.708740 0.000000 192.000000 -0.168578 0.869278 0.464690
-7.15000010 -6.25000000 0.31000000 110 189 106 0.000000 0.000000 0.000000 0.000000 -60.708740 0.000000 192.000000 0.711806 -0.308288 0.631103
-7.15000010 -6.25000000 0.25999999 110 189 106 0.000000 0.000000 0.000000 0.000000 -60.708740 0.000000 192.000000 -0.639029 0.461241 -0.615547
-7.15000010 -6.25000000 0.25999999 110 189 106 0.000000 0.000000 0.000000 0.000000 -60.708740 0.000000 192.000000 -0.639029 0.461241 -0.615547
-7.15000010 -6.26000023 0.25999999 110 189 106 0.000000 0.000000 0.000000 0.000000 -60.708740 0.000000 192.000000 0.942945 -0.179283 0.280557
-7.15999985 -6.26000023 0.25000000 110 189 106 0.000000 0.000000 0.000000 0.000000 -60.708740 0.000000 192.000000 0.575385 -0.426150 0.698089
-7.13999987 -6.32000017 0.28999999 110 189 106 0.000000 0.000000 0.000000 0.000000 -60.708740 0.000000 192.000000 0.942397 -0.252502 0.219387
-7.19000006 -6.25000000 0.28999999 110 189 106 0.000000 0.000000 0.000000 0.000000 -60.708740 0.000000 192.000000 0.864930 0.039751 0.500316
-7.19999981 -6.26000023 0.28000000 110 189 106 0.000000 0.000000 0.000000 0.000000 -60.708740 0.000000 192.000000 0.541507 -0.384454 0.747640
-7.21000004 -6.25000000 0.25000000 110 189 106 0.000000 0.000000 0.000000 0.000000 -60.708740 0.000000 192.000000 0.875103 0.012061 0.483786
-7.21000004 -6.30000019 0.25999999 110 189 106 0.000000 0.000000 0.000000 0.000000 -60.708740 0.000000 192.000000 0.913839 -0.375955 0.153480
-7.15000010 -6.26999998 0.22000000 110 189 106 0.000000 0.000000 0.000000 0.000000 -60.708740 0.000000 192.000000 0.691490 -0.015366 0.722223
-7.19000006 -6.26999998 0.16000000 110 189 106 0.000000 0.000000 0.000000 0.000000 -60.708740 0.000000 192.000000 -0.596169 0.762908 -0.250108
-7.21999979 -6.28000021 0.31000000 110 189 106 0.000000 0.000000 0.000000 0.000000 -60.708740 0.000000 192.000000 0.968135 -0.163719 0.189502
-7.28999996 -6.28000021 0.20999999 110 189 106 0.000000 0.000000 0.000000 0.000000 -60.708740 0.000000 192.000000 -0.624329 0.774168 -0.104300
-7.21000004 -6.26999998 0.04000000 110 189 106 0.000000 0.000000 0.000000 0.000000 -60.708740 0.000000 192.000000 -0.154958 0.983805 0.090092
-7.19000006 -6.28000021 0.01000000 110 189 106 0.000000 0.000000 0.000000 0.000000 -60.708740 0.000000 192.000000 -0.131626 0.980431 0.146388
-7.19000006 -6.28999996 0.01000000 110 189 106 0.000000 0.000000 0.000000 0.000000 -60.708740 0.000000 192.000000 -0.354175 0.930551 0.092920
-7.21000004 -6.32000017 0.03000000 110 189 106 0.000000 0.000000 0.000000 0.000000 -60.708740 0.000000 192.000000 -0.244342 0.965972 0.084823
-7.17999983 -6.32000017 -0.02000000 110 189 106 0.000000 0.000000 0.000000 0.000000 -60.708740 0.000000 192.000000 -0.198532 0.828983 0.522850
-7.28000021 -6.28999996 0.13000000 110 189 106 0.000000 0.000000 0.000000 0.000000 -60.708740 0.000000 192.000000 -0.131223 0.991338 0.005514
-7.26999998 -6.28999996 0.12000000 110 189 106 0.000000 0.000000 0.000000 0.000000 -60.708740 0.000000 192.000000 -0.277536 0.957945 0.072901
-7.28000021 -6.28999996 0.10000000 110 189 106 0.000000 0.000000 0.000000 0.000000 -60.708740 0.000000 192.000000 -0.057972 0.970718 0.233120
-7.28999996 -6.28000021 0.09000000 110 189 106 0.000000 0.000000 0.000000 0.000000 -60.708740 0.000000 192.000000 -0.269133 0.782218 0.561875
-7.28000021 -6.28999996 0.09000000 110 189 106 0.000000 0.000000 0.000000 0.000000 -60.708740 0.000000 192.000000 0.054975 0.997090 -0.052819
-7.28999996 -6.28999996 0.10000000 110 189 106 0.000000 0.000000 0.000000 0.000000 -60.708740 0.000000 192.000000 -0.011475 0.998287 0.057373
-7.28999996 -6.30999994 0.11000000 110 189 106 0.000000 0.000000 0.000000 0.000000 -60.708740 0.000000 192.000000 -0.465237 0.807370 0.362917
-7.26000023 -6.32000017 0.08000000 110 189 106 0.000000 0.000000 0.000000 0.000000 -60.708740 0.000000 192.000000 -0.345002 0.932182 0.109589
-7.28000021 -6.32000017 0.10000000 110 189 106 0.000000 0.000000 0.000000 0.000000 -60.708740 0.000000 192.000000 -0.140719 0.972353 -0.186357
-7.28999996 -6.32000017 0.08000000 110 189 106 0.000000 0.000000 0.000000 0.000000 -60.708740 0.000000 192.000000 -0.048985 0.835545 0.547233
-7.23999977 -6.28999996 -0.01000000 110 189 106 0.000000 0.000000 0.000000 0.000000 -60.708740 0.000000 192.000000 0.243710 0.948972 0.200142
-7.25000000 -6.28999996 0.00000000 110 189 106 0.000000 0.000000 0.000000 0.000000 -60.708740 0.000000 192.000000 0.127759 0.972739 0.193536
-7.23000002 -6.30999994 -0.01000000 110 189 106 0.000000 0.000000 0.000000 0.000000 -60.708740 0.000000 192.000000 0.102024 -0.843493 -0.527363
-7.23000002 -6.32000017 0.00000000 110 189 106 0.000000 0.000000 0.000000 0.000000 -60.708740 0.000000 192.000000 0.044388 0.977725 0.205142
-7.25000000 -6.30000019 0.02000000 110 189 106 0.000000 0.000000 0.000000 0.000000 -60.708740 0.000000 192.000000 0.156339 0.976803 0.146333
-7.25000000 -6.30000019 0.02000000 110 189 106 0.000000 0.000000 0.000000 0.000000 -60.708740 0.000000 192.000000 0.156339 0.976803 0.146333
-7.28999996 -6.28999996 0.04000000 110 189 106 0.000000 0.000000 0.000000 0.000000 -60.708740 0.000000 192.000000 0.339728 0.923328 0.179027
-7.28999996 -6.28999996 0.03000000 110 189 106 0.000000 0.000000 0.000000 0.000000 -60.708740 0.000000 192.000000 0.327405 0.943393 0.053058
-7.26999998 -6.28000021 0.06000000 110 189 106 0.000000 0.000000 0.000000 0.000000 -60.708740 0.000000 192.000000 -0.173336 0.920231 0.350900
-7.28000021 -6.28999996 0.03000000 110 189 106 0.000000 0.000000 0.000000 0.000000 -60.708740 0.000000 192.000000 0.219536 0.975587 -0.005870
-7.28999996 -6.26000023 -0.02000000 110 189 106 0.000000 0.000000 0.000000 0.000000 -60.708740 0.000000 192.000000 0.395841 0.660840 0.637652
-7.28999996 -6.26000023 -0.02000000 110 189 106 0.000000 0.000000 0.000000 0.000000 -60.708740 0.000000 192.000000 0.395841 0.660840 0.637652
-7.26000023 -6.32000017 0.04000000 110 189 106 0.000000 0.000000 0.000000 0.000000 -60.708740 0.000000 192.000000 -0.261898 0.940892 0.214784
-7.28999996 -6.32999992 0.00000000 110 189 106 0.000000 0.000000 0.000000 0.000000 -60.708740 0.000000 192.000000 0.322833 0.702446 0.634310
-7.34000015 -6.21999979 0.19000000 110 189 106 0.000000 0.000000 0.000000 0.000000 -60.708740 0.000000 192.000000 0.777835 -0.135860 0.613609
-7.34000015 -6.23000002 0.15000001 110 189 106 0.000000 0.000000 0.000000 0.000000 -60.708740 0.000000 192.000000 0.595397 0.776939 0.204619
-7.32999992 -6.21999979 0.17000000 110 189 106 0.000000 0.000000 0.000000 0.000000 -60.708740 0.000000 192.000000 0.824643 -0.326388 0.461989
-7.38000011 -6.17999983 0.18000001 110 189 106 0.000000 0.000000 0.000000 0.000000 -60.708740 0.000000 192.000000 -0.319395 0.914829 -0.247134
-7.36999989 -6.23999977 0.22000000 110 189 106 0.000000 0.000000 0.000000 0.000000 -60.708740 0.000000 192.000000 0.742151 -0.511771 0.432784
-7.36000013 -6.23999977 0.23000000 110 189 106 0.000000 0.000000 0.000000 0.000000 -60.708740 0.000000 192.000000 0.574206 -0.338054 0.745659
-7.36000013 -6.23999977 0.15000001 110 189 106 0.000000 0.000000 0.000000 0.000000 -60.708740 0.000000 192.000000 0.437109 0.556774 0.706355
-7.42999983 -6.21999979 0.25999999 110 189 106 0.000000 0.000000 0.000000 0.000000 -60.708740 0.000000 192.000000 -0.280580 0.957048 -0.073028
-7.42999983 -6.21999979 0.27000001 110 189 106 0.000000 0.000000 0.000000 0.000000 -60.708740 0.000000 192.000000 -0.477663 0.810916 0.338014
-7.40000010 -6.19999981 0.20000000 110 189 106 0.000000 0.000000 0.000000 0.000000 -60.708740 0.000000 192.000000 0.827479 -0.553097 0.096756
-7.40000010 -6.19999981 0.19000000 110 189 106 0.000000 0.000000 0.000000 0.000000 -60.708740 0.000000 192.000000 0.862120 -0.455886 0.221172
-7.40000010 -6.19000006 0.19000000 110 189 106 0.000000 0.000000 0.000000 0.000000 -60.708740 0.000000 192.000000 0.711165 -0.664068 0.230775
-7.40999985 -6.19999981 0.20999999 110 189 106 0.000000 0.000000 0.000000 0.000000 -60.708740 0.000000 192.000000 -0.450472 0.764983 -0.460300
-7.38999987 -6.19999981 0.17000000 110 189 106 0.000000 0.000000 0.000000 0.000000 -60.708740 0.000000 192.000000 -0.558309 0.738409 -0.378210
-7.38999987 -6.19999981 0.18000001 110 189 106 0.000000 0.000000 0.000000 0.000000 -60.708740 0.000000 192.000000 0.715258 -0.332490 0.614700
-7.40999985 -6.23000002 0.19000000 110 189 106 0.000000 0.000000 0.000000 0.000000 -60.708740 0.000000 192.000000 0.553915 -0.169627 0.815110
-7.40000010 -6.21000004 0.19000000 110 189 106 0.000000 0.000000 0.000000 0.000000 -60.708740 0.000000 192.000000 -0.696788 0.536376 -0.476222
-7.42000008 -6.23999977 0.22000000 110 189 106 0.000000 0.000000 0.000000 0.000000 -60.708740 0.000000 192.000000 0.562165 -0.124762 0.817561
-7.38999987 -6.23000002 0.17000000 110 189 106 0.000000 0.000000 0.000000 0.000000 -60.708740 0.000000 192.000000 0.517218 0.437900 0.735342
-7.44000006 -6.19999981 0.23000000 110 189 106 0.000000 0.000000 0.000000 0.000000 -60.708740 0.000000 192.000000 -0.641100 0.714642 -0.279782
-7.46000004 -6.21999979 0.20999999 110 189 106 0.000000 0.000000 0.000000 0.000000 -60.708740 0.000000 192.000000 -0.617693 0.657651 -0.431219
-7.44999981 -6.23999977 0.20999999 110 189 106 0.000000 0.000000 0.000000 0.000000 -60.708740 0.000000 192.000000 0.731926 -0.107941 0.672780
-7.44000006 -6.23999977 0.17000000 110 189 106 0.000000 0.000000 0.000000 0.000000 -60.708740 0.000000 192.000000 0.510309 0.191178 0.838472
-7.32999992 -6.19000006 0.09000000 110 189 106 0.000000 0.000000 0.000000 0.000000 -60.708740 0.000000 192.000000 0.815962 -0.410376 0.407183
-7.32999992 -6.19000006 0.09000000 110 189 106 0.000000 0.000000 0.000000 0.000000 -60.708740 0.000000 192.000000 0.815962 -0.410376 0.407183
-7.34000015 -6.23000002 0.14000000 110 189 106 0.000000 0.000000 0.000000 0.000000 -60.708740 0.000000 192.000000 0.304502 0.835429 0.457534
-7.30000019 -6.23000002 0.12000000 110 189 106 0.000000 0.000000 0.000000 0.000000 -60.708740 0.000000 192.000000 -0.157967 0.957097 -0.242925
-7.34999990 -6.19999981 0.08000000 110 189 106 0.000000 0.000000 0.000000 0.000000 -60.708740 0.000000 192.000000 0.806883 0.073092 0.586172
-7.36999989 -6.21000004 0.11000000 110 189 106 0.000000 0.000000 0.000000 0.000000 -60.708740 0.000000 192.000000 0.823966 -0.084546 0.560297
-7.38000011 -6.21999979 0.12000000 110 189 106 0.000000 0.000000 0.000000 0.000000 -60.708740 0.000000 192.000000 0.695487 -0.202915 0.689291
-7.36999989 -6.21000004 0.11000000 110 189 106 0.000000 0.000000 0.000000 0.000000 -60.708740 0.000000 192.000000 0.823966 -0.084546 0.560297
-7.38000011 -6.21000004 0.11000000 110 189 106 0.000000 0.000000 0.000000 0.000000 -60.708740 0.000000 192.000000 0.823245 0.228424 0.519702
-7.32000017 -6.23000002 0.04000000 110 189 106 0.000000 0.000000 0.000000 0.000000 -60.708740 0.000000 192.000000 0.558883 0.160323 0.813601
-7.36000013 -6.23999977 0.04000000 110 189 106 0.000000 0.000000 0.000000 0.000000 -60.708740 0.000000 192.000000 0.800658 0.534294 0.271064
-7.38999987 -6.19999981 0.12000000 110 189 106 0.000000 0.000000 0.000000 0.000000 -60.708740 0.000000 192.000000 0.943615 -0.156138 0.291910
-7.38999987 -6.19999981 0.12000000 110 189 106 0.000000 0.000000 0.000000 0.000000 -60.708740 0.000000 192.000000 0.943615 -0.156138 0.291910
-7.40000010 -6.21000004 0.13000000 110 189 106 0.000000 0.000000 0.000000 0.000000 -60.708740 0.000000 192.000000 0.641129 -0.212675 0.737376
-7.40000010 -6.23000002 0.14000000 110 189 106 0.000000 0.000000 0.000000 0.000000 -60.708740 0.000000 192.000000 0.780192 -0.158453 0.605139
-7.40000010 -6.23000002 0.14000000 110 189 106 0.000000 0.000000 0.000000 0.000000 -60.708740 0.000000 192.000000 0.780192 -0.158453 0.605139
-7.34999990 -6.26999998 0.25000000 110 189 106 0.000000 0.000000 0.000000 0.000000 -60.708740 0.000000 192.000000 -0.584888 0.722509 -0.368627
-7.36999989 -6.32000017 0.23999999 110 189 106 0.000000 0.000000 0.000000 0.000000 -60.708740 0.000000 192.000000 -0.113716 0.924797 0.363069
-7.38000011 -6.32999992 0.25000000 110 189 106 0.000000 0.000000 0.000000 0.000000 -60.708740 0.000000 192.000000 -0.051714 0.977760 0.203249
-7.30999994 -6.28999996 0.15000001 110 189 106 0.000000 0.000000 0.000000 0.000000 -60.708740 0.000000 192.000000 -0.176986 0.949782 -0.258049
-7.32999992 -6.28999996 0.18000001 110 189 106 0.000000 0.000000 0.000000 0.000000 -60.708740 0.000000 192.000000 -0.645374 0.757102 -0.101437
-7.32000017 -6.30000019 0.20999999 110 189 106 0.000000 0.000000 0.000000 0.000000 -60.708740 0.000000 192.000000 -0.587592 0.781913 -0.208202
-7.30000019 -6.30999994 0.16000000 110 189 106 0.000000 0.000000 0.000000 0.000000 -60.708740 0.000000 192.000000 -0.224556 0.878893 0.420858
-7.32999992 -6.30000019 0.16000000 110 189 106 0.000000 0.000000 0.000000 0.000000 -60.708740 0.000000 192.000000 -0.536493 0.834707 0.124256
-7.36999989 -6.28999996 0.22000000 110 189 106 0.000000 0.000000 0.000000 0.000000 -60.708740 0.000000 192.000000 -0.213226 0.917300 -0.336296
-7.38000011 -6.28999996 0.20999999 110 189 106 0.000000 0.000000 0.000000 0.000000 -60.708740 0.000000 192.000000 -0.344393 0.938440 -0.026886
-7.38000011 -6.28000021 0.23000000 110 189 106 0.000000 0.000000 0.000000 0.000000 -60.708740 0.000000 192.000000 -0.201700 0.936165 -0.287944
-7.38000011 -6.28999996 0.20999999 110 189 106 0.000000 0.000000 0.000000 0.000000 -60.708740 0.000000 192.000000 -0.344393 0.938440 -0.026886
-7.36999989 -6.30999994 0.20000000 110 189 106 0.000000 0.000000 0.000000 0.000000 -60.708740 0.000000 192.000000 -0.398356 0.791875 0.462868
-7.38000011 -6.32000017 0.20999999 110 189 106 0.000000 0.000000 0.000000 0.000000 -60.708740 0.000000 192.000000 -0.224990 0.972497 -0.060243
-7.36999989 -6.32000017 0.20999999 110 189 106 0.000000 0.000000 0.000000 0.000000 -60.708740 0.000000 192.000000 -0.272698 0.958925 0.078097
-7.38000011 -6.30999994 0.20000000 110 189 106 0.000000 0.000000 0.000000 0.000000 -60.708740 0.000000 192.000000 -0.238261 0.892368 0.383289
-7.36000013 -6.30999994 0.20999999 110 189 106 0.000000 0.000000 0.000000 0.000000 -60.708740 0.000000 192.000000 0.102600 0.994675 -0.009720
-7.36999989 -6.30999994 0.16000000 110 189 106 0.000000 0.000000 0.000000 0.000000 -60.708740 0.000000 192.000000 -0.173836 0.900785 0.397954
-7.40000010 -6.28000021 0.28999999 110 189 106 0.000000 0.000000 0.000000 0.000000 -60.708740 0.000000 192.000000 0.720685 -0.613797 0.322284
-7.42000008 -6.25000000 0.28999999 110 189 106 0.000000 0.000000 0.000000 0.000000 -60.708740 0.000000 192.000000 0.725734 0.393312 0.564460
-7.42000008 -6.26999998 0.25000000 110 189 106 0.000000 0.000000 0.000000 0.000000 -60.708740 0.000000 192.000000 0.473857 0.719930 0.507110
-7.46000004 -6.32999992 0.31000000 110 189 106 0.000000 0.000000 0.000000 0.000000 -60.708740 0.000000 192.000000 -0.206581 0.968749 0.137293
-7.46000004 -6.32999992 0.31000000 110 189 106 0.000000 0.000000 0.000000 0.000000 -60.708740 0.000000 192.000000 -0.206581 0.968749 0.137293
-7.44999981 -6.32999992 0.31000000 110 189 106 0.000000 0.000000 0.000000 0.000000 -60.708740 0.000000 192.000000 -0.332868 0.821915 0.462229
-7.44999981 -6.32000017 0.25999999 110 189 106 0.000000 0.000000 0.000000 0.000000 -60.708740 0.000000 192.000000 -0.028972 0.996834 0.074038
-7.42999983 -6.32000017 0.23999999 110 189 106 0.000000 0.000000 0.000000 0.000000 -60.708740 0.000000 192.000000 0.284401 0.952810 0.106159
-7.46000004 -6.32000017 0.25000000 110 189 106 0.000000 0.000000 0.000000 0.000000 -60.708740 0.000000 192.000000 0.073600 0.951638 0.298275
-7.42999983 -6.32999992 0.25000000 110 189 106 0.000000 0.000000 0.000000 0.000000 -60.708740 0.000000 192.000000 0.138997 0.989060 0.049396
-7.44000006 -6.32000017 0.23999999 110 189 106 0.000000 0.000000 0.000000 0.000000 -60.708740 0.000000 192.000000 0.500184 0.752735 0.428026
-7.46000004 -6.32000017 0.25000000 110 189 106 0.000000 0.000000 0.000000 0.000000 -60.708740 0.000000 192.000000 0.073600 0.951638 0.298275
-7.44000006 -6.30000019 0.23999999 110 189 106 0.000000 0.000000 0.000000 0.000000 -60.708740 0.000000 192.000000 0.277461 0.921515 0.271710
-7.42999983 -6.32999992 0.23999999 110 189 106 0.000000 0.000000 0.000000 0.000000 -60.708740 0.000000 192.000000 0.436294 0.893631 0.105216
-7.42999983 -6.32999992 0.23999999 110 189 106 0.000000 0.000000 0.000000 0.000000 -60.708740 0.000000 192.000000 0.436294 0.893631 0.105216
-7.44999981 -6.30999994 0.27000001 110 189 106 0.000000 0.000000 0.000000 0.000000 -60.708740 0.000000 192.000000 -0.088841 0.773357 0.627715
-7.40999985 -6.28999996 0.17000000 110 189 106 0.000000 0.000000 0.000000 0.000000 -60.708740 0.000000 192.000000 0.265815 0.657374 0.705125
-7.42000008 -6.26999998 0.16000000 110 189 106 0.000000 0.000000 0.000000 0.000000 -60.708740 0.000000 192.000000 0.657778 0.220301 0.720275
-7.42000008 -6.28000021 0.16000000 110 189 106 0.000000 0.000000 0.000000 0.000000 -60.708740 0.000000 192.000000 0.583867 0.389793 0.712153
-7.40999985 -6.30000019 0.19000000 110 189 106 0.000000 0.000000 0.000000 0.000000 -60.708740 0.000000 192.000000 0.284400 0.941130 0.182730
-7.40000010 -6.32999992 0.20999999 110 189 106 0.000000 0.000000 0.000000 0.000000 -60.708740 0.000000 192.000000 -0.249833 0.894373 0.371054
-7.42000008 -6.32000017 0.19000000 110 189 106 0.000000 0.000000 0.000000 0.000000 -60.708740 0.000000 192.000000 -0.115989 0.929278 0.350697
-7.42000008 -6.30999994 0.20999999 110 189 106 0.000000 0.000000 0.000000 0.000000 -60.708740 0.000000 192.000000 0.299089 0.759718 0.577386
-7.40000010 -6.30999994 0.19000000 110 189 106 0.000000 0.000000 0.000000 0.000000 -60.708740 0.000000 192.000000 0.194499 0.868566 0.455811
-7.38999987 -6.30000019 0.15000001 110 189 106 0.000000 0.000000 0.000000 0.000000 -60.708740 0.000000 192.000000 0.403686 0.908641 0.106817
-7.44999981 -6.28999996 0.22000000 110 189 106 0.000000 0.000000 0.000000 0.000000 -60.708740 0.000000 192.000000 0.260550 0.525781 0.809733
-7.44000006 -6.28999996 0.20999999 110 189 106 0.000000 0.000000 0.000000 0.000000 -60.708740 0.000000 192.000000 0.464868 0.636047 0.615908
-7.42999983 -6.28999996 0.19000000 110 189 106 0.000000 0.000000 0.000000 0.000000 -60.708740 0.000000 192.000000 0.412208 0.876878 0.247325
-7.44999981 -6.28000021 0.20999999 110 189 106 0.000000 0.000000 0.000000 0.000000 -60.708740 0.000000 192.000000 0.410731 0.303049 0.859920
-7.42999983 -6.26999998 0.16000000 110 189 106 0.000000 0.000000 0.000000 0.000000 -60.708740 0.000000 192.000000 0.393448 0.444837 0.804561
-7.42999983 -6.26999998 0.16000000 110 189 106 0.000000 0.000000 0.000000 0.000000 -60.708740 0.000000 192.000000 0.393448 0.444837 0.804561
-7.46000004 -6.26999998 0.18000001 110 189 106 0.000000 0.000000 0.000000 0.000000 -60.708740 0.000000 192.000000 0.524450 0.608767 0.595277
-7.42999983 -6.25000000 0.15000001 110 189 106 0.000000 0.000000 0.000000 0.000000 -60.708740 0.000000 192.000000 0.874904 -0.073955 0.478616
-7.44000006 -6.30999994 0.23000000 110 189 106 0.000000 0.000000 0.000000 0.000000 -60.708740 0.000000 192.000000 0.550039 0.690474 0.469790
-7.42999983 -6.30000019 0.20999999 110 189 106 0.000000 0.000000 0.000000 0.000000 -60.708740 0.000000 192.000000 0.440823 0.703654 0.557267
-7.42999983 -6.30999994 0.19000000 110 189 106 0.000000 0.000000 0.000000 0.000000 -60.708740 0.000000 192.000000 0.567510 0.795130 0.213778
-7.44999981 -6.32000017 0.19000000 110 189 106 0.000000 0.000000 0.000000 0.000000 -60.708740 0.000000 192.000000 0.381443 0.731782 0.564798
-7.42999983 -6.30999994 0.18000001 110 189 106 0.000000 0.000000 0.000000 0.000000 -60.708740 0.000000 192.000000 0.547400 0.806451 0.223586
-7.44000006 -6.30999994 0.18000001 110 189 106 0.000000 0.000000 0.000000 0.000000 -60.708740 0.000000 192.000000 0.656231 0.691702 0.301511
-7.34000015 -6.28999996 0.13000000 110 189 106 0.000000 0.000000 0.000000 0.000000 -60.708740 0.000000 192.000000 -0.165728 0.869704 0.464918
-7.32000017 -6.30000019 0.11000000 110 189 106 0.000000 0.000000 0.000000 0.000000 -60.708740 0.000000 192.000000 0.067671 0.995098 0.072109
-7.30999994 -6.30000019 0.10000000 110 189 106 0.000000 0.000000 0.000000 0.000000 -60.708740 0.000000 192.000000 -0.074116 0.987038 0.142350
-7.32000017 -6.30000019 0.07000000 110 189 106 0.000000 0.000000 0.000000 0.000000 -60.708740 0.000000 192.000000 0.052825 0.997206 0.052825
-7.30999994 -6.30000019 0.09000000 110 189 106 0.000000 0.000000 0.000000 0.000000 -60.708740 0.000000 192.000000 -0.188322 0.969797 0.155014
-7.32999992 -6.30000019 0.09000000 110 189 106 0.000000 0.000000 0.000000 0.000000 -60.708740 0.000000 192.000000 -0.119738 0.953958 0.275003
-7.34000015 -6.30999994 0.10000000 110 189 106 0.000000 0.000000 0.000000 0.000000 -60.708740 0.000000 192.000000 -0.170934 0.973693 0.150676
-7.36000013 -6.28999996 0.11000000 110 189 106 0.000000 0.000000 0.000000 0.000000 -60.708740 0.000000 192.000000 -0.012522 0.688732 0.724908
-7.36999989 -6.28999996 0.11000000 110 189 106 0.000000 0.000000 0.000000 0.000000 -60.708740 0.000000 192.000000 0.070753 0.648328 0.758067
-7.38000011 -6.28999996 0.10000000 110 189 106 0.000000 0.000000 0.000000 0.000000 -60.708740 0.000000 192.000000 0.134963 0.919694 0.368712
-7.34999990 -6.28000021 0.07000000 110 189 106 0.000000 0.000000 0.000000 0.000000 -60.708740 0.000000 192.000000 0.585575 0.471480 0.659401
-7.38000011 -6.28999996 0.08000000 110 189 106 0.000000 0.000000 0.000000 0.000000 -60.708740 0.000000 192.000000 0.443742 0.778580 0.443742
-7.36000013 -6.30000019 0.13000000 110 189 106 0.000000 0.000000 0.000000 0.000000 -60.708740 0.000000 192.000000 0.272964 0.909394 0.313836
-7.38000011 -6.32000017 0.14000000 110 189 106 0.000000 0.000000 0.000000 0.000000 -60.708740 0.000000 192.000000 0.227434 0.688576 0.688576
-7.38000011 -6.32000017 0.14000000 110 189 106 0.000000 0.000000 0.000000 0.000000 -60.708740 0.000000 192.000000 0.227434 0.688576 0.688576
-7.38000011 -6.30000019 0.13000000 110 189 106 0.000000 0.000000 0.000000 0.000000 -60.708740 0.000000 192.000000 -0.029219 0.813950 0.580200
-7.36999989 -6.30000019 0.13000000 110 189 106 0.000000 0.000000 0.000000 0.000000 -60.708740 0.000000 192.000000 -0.079042 0.928408 0.363057
-7.36999989 -6.30000019 0.08000000 110 189 106 0.000000 0.000000 0.000000 0.000000 -60.708740 0.000000 192.000000 0.550615 0.797066 0.248011
-7.36999989 -6.30000019 0.10000000 110 189 106 0.000000 0.000000 0.000000 0.000000 -60.708740 0.000000 192.000000 0.611348 0.747204 0.260652
-7.34999990 -6.30000019 0.10000000 110 189 106 0.000000 0.000000 0.000000 0.000000 -60.708740 0.000000 192.000000 0.423598 0.579748 0.696030
-7.32999992 -6.26999998 0.05000000 110 189 106 0.000000 0.000000 0.000000 0.000000 -60.708740 0.000000 192.000000 0.656822 0.505635 0.559391
-7.32999992 -6.26999998 0.03000000 110 189 106 0.000000 0.000000 0.000000 0.000000 -60.708740 0.000000 192.000000 0.549958 0.590570 0.590570
-7.32999992 -6.26999998 0.04000000 110 189 106 0.000000 0.000000 0.000000 0.000000 -60.708740 0.000000 192.000000 0.659022 0.575177 0.484624
-7.34000015 -6.28000021 0.05000000 110 189 106 0.000000 0.000000 0.000000 0.000000 -60.708740 0.000000 192.000000 0.599913 0.394984 0.695767
-7.30999994 -6.26999998 0.03000000 110 189 106 0.000000 0.000000 0.000000 0.000000 -60.708740 0.000000 192.000000 0.478154 0.639216 0.602306
-7.30000019 -6.28999996 0.05000000 110 189 106 0.000000 0.000000 0.000000 0.000000 -60.708740 0.000000 192.000000 0.157624 -0.794123 -0.586961
-7.32999992 -6.26000023 0.03000000 110 189 106 0.000000 0.000000 0.000000 0.000000 -60.708740 0.000000 192.000000 0.307580 0.713393 0.629654
-7.32000017 -6.28999996 0.05000000 110 189 106 0.000000 0.000000 0.000000 0.000000 -60.708740 0.000000 192.000000 0.397265 0.892748 0.212559
-7.34000015 -6.26000023 0.03000000 110 189 106 0.000000 0.000000 0.000000 0.000000 -60.708740 0.000000 192.000000 0.365092 0.428311 0.826594
-7.30000019 -6.26999998 -0.01000000 110 189 106 0.000000 0.000000 0.000000 0.000000 -60.708740 0.000000 192.000000 0.467351 0.604709 0.644911
-7.30000019 -6.26999998 -0.01000000 110 189 106 0.000000 0.000000 0.000000 0.000000 -60.708740 0.000000 192.000000 0.467351 0.604709 0.644911
-7.30999994 -6.26000023 -0.02000000 110 189 106 0.000000 0.000000 0.000000 0.000000 -60.708740 0.000000 192.000000 0.399101 0.680625 0.614384
-7.30999994 -6.26000023 -0.01000000 110 189 106 0.000000 0.000000 0.000000 0.000000 -60.708740 0.000000 192.000000 0.734097 0.615746 0.286282
-7.30000019 -6.28000021 0.02000000 110 189 106 0.000000 0.000000 0.000000 0.000000 -60.708740 0.000000 192.000000 0.457179 0.878303 0.139894
-7.34000015 -6.25000000 0.02000000 110 189 106 0.000000 0.000000 0.000000 0.000000 -60.708740 0.000000 192.000000 0.645793 0.558114 0.521019
