//X Y Z R G B PointSourceId ScanDirectionFlag NumberOfReturns ReturnNumber GpsTime Intensity Classification Nx Ny Nz
10.22999954 1.21000004 -0.01000000 73 200 119 97.000000 1.000000 4.000000 1.000000 -60.708740 114.000000 1.000000 0.488374 0.555504 -0.672983
10.23999977 1.17999995 -0.01000000 73 200 119 97.000000 1.000000 4.000000 1.000000 -60.708740 114.000000 1.000000 0.866407 0.314360 -0.387966
10.21000004 1.20000005 0.02000000 73 200 119 97.000000 1.000000 4.000000 1.000000 -60.708740 114.000000 1.000000 0.535256 0.732889 -0.419970
10.22999954 1.21000004 -0.01000000 73 200 119 97.000000 1.000000 4.000000 1.000000 -60.708740 114.000000 1.000000 0.488374 0.555504 -0.672983
10.22999954 1.14999998 0.00000000 73 200 119 97.000000 1.000000 4.000000 1.000000 -60.708740 114.000000 1.000000 0.737918 0.585469 -0.335712
10.21000004 1.15999997 0.02000000 73 200 119 97.000000 1.000000 4.000000 1.000000 -60.708740 114.000000 1.000000 -0.349112 -0.358340 0.865860
10.21000004 1.16999996 0.02000000 73 200 119 97.000000 1.000000 4.000000 1.000000 -60.708740 114.000000 1.000000 0.472606 0.686364 -0.552765
10.18999958 1.17999995 0.06000000 73 200 119 97.000000 1.000000 4.000000 1.000000 -60.708740 114.000000 1.000000 -0.418814 -0.396519 0.816926
10.19999981 1.21000004 0.04000000 73 200 119 97.000000 1.000000 4.000000 1.000000 -60.708740 114.000000 1.000000 0.269175 0.715147 -0.645066
10.22999954 1.13000000 0.05000000 73 200 119 97.000000 1.000000 4.000000 1.000000 -60.708740 114.000000 1.000000 0.691581 0.666026 -0.279507
9.89999962 0.98000002 0.52999997 73 200 119 97.000000 1.000000 4.000000 1.000000 -60.708740 114.000000 31.000000 -0.531820 0.339015 0.776039
9.85000038 0.99000001 0.50999999 73 200 119 97.000000 1.000000 4.000000 1.000000 -60.708740 114.000000 31.000000 -0.579734 -0.252946 0.774549
9.86999989 0.98000002 0.47999999 73 200 119 97.000000 1.000000 4.000000 1.000000 -60.708740 114.000000 31.000000 -0.447408 0.392885 0.803410
9.85000038 0.99000001 0.47000000 73 200 119 97.000000 1.000000 4.000000 1.000000 -60.708740 114.000000 31.000000 -0.616312 -0.181988 0.766185
9.71000004 1.21000004 0.51999998 73 200 119 97.000000 1.000000 4.000000 1.000000 -60.708740 114.000000 31.000000 -0.070166 0.591395 0.803324
9.69999981 1.16999996 0.56000000 73 200 119 97.000000 1.000000 4.000000 1.000000 -60.708740 114.000000 31.000000 -0.066787 -0.020142 0.997564
9.65999985 1.17999995 0.56000000 73 200 119 97.000000 1.000000 4.000000 1.000000 -60.708740 114.000000 31.000000 -0.309106 0.433370 0.846548
9.68999958 1.14999998 0.55000001 73 200 119 97.000000 1.000000 4.000000 1.000000 -60.708740 114.000000 31.000000 -0.519578 0.382761 0.763893
9.67000008 1.29999995 0.46000001 73 200 119 97.000000 1.000000 4.000000 1.000000 -60.708740 114.000000 31.000000 -0.475681 0.360365 0.802412
9.67000008 1.28999996 0.46000001 73 200 119 97.000000 1.000000 4.000000 1.000000 -60.708740 114.000000 31.000000 -0.545437 0.233317 0.805022
9.68999958 1.23000002 0.46000001 73 200 119 97.000000 1.000000 4.000000 1.000000 -60.708740 114.000000 31.000000 -0.552116 0.351347 0.756124
9.68999958 1.24000001 0.38000000 73 200 119 97.000000 1.000000 4.000000 1.000000 -60.708740 114.000000 31.000000 -0.269980 0.566800 0.778363
9.68999958 1.24000001 0.37000000 73 200 119 97.000000 1.000000 4.000000 1.000000 -60.708740 114.000000 31.000000 0.609974 -0.336706 -0.717329
9.65999985 1.20000005 0.46000001 73 200 119 97.000000 1.000000 4.000000 1.000000 -60.708740 114.000000 31.000000 -0.387120 0.198634 0.900379
9.65999985 1.22000003 0.46000001 73 200 119 97.000000 1.000000 4.000000 1.000000 -60.708740 114.000000 31.000000 -0.389297 0.091519 0.916555
9.67000008 1.13999999 0.47000000 73 200 119 97.000000 1.000000 4.000000 1.000000 -60.708740 114.000000 31.000000 0.654902 -0.359458 -0.664750
9.65999985 1.14999998 0.44000000 73 200 119 97.000000 1.000000 4.000000 1.000000 -60.708740 114.000000 31.000000 -0.668528 0.012509 0.743581
9.71000004 1.13999999 0.37000000 73 200 119 97.000000 1.000000 4.000000 1.000000 -60.708740 114.000000 31.000000 -0.624074 0.132560 0.770039
9.71000004 1.15999997 0.31999999 73 200 119 97.000000 1.000000 4.000000 1.000000 -60.708740 114.000000 31.000000 -0.100720 0.283846 0.953565
9.65999985 1.17999995 0.38000000 73 200 119 97.000000 1.000000 4.000000 1.000000 -60.708740 114.000000 31.000000 -0.122821 0.239178 0.963176
9.65999985 1.21000004 0.33000001 73 200 119 97.000000 1.000000 4.000000 1.000000 -60.708740 114.000000 31.000000 -0.110465 0.062635 0.991904
9.68000031 1.16999996 0.36000001 73 200 119 97.000000 1.000000 4.000000 1.000000 -60.708740 114.000000 31.000000 -0.296513 0.028775 0.954595
9.68000031 1.15999997 0.34000000 73 200 119 97.000000 1.000000 4.000000 1.000000 -60.708740 114.000000 31.000000 -0.100280 0.394253 0.913514
9.68000031 1.13999999 0.33000001 73 200 119 97.000000 1.000000 4.000000 1.000000 -60.708740 114.000000 31.000000 -0.220538 0.010614 0.975321
9.73999977 1.09000003 0.56000000 73 200 119 97.000000 1.000000 4.000000 1.000000 -60.708740 114.000000 31.000000 -0.094231 0.018413 0.995380
9.76000023 1.02999997 0.54000002 73 200 119 97.000000 1.000000 4.000000 1.000000 -60.708740 114.000000 31.000000 -0.619110 -0.107352 0.777932
9.75000000 1.01999998 0.56000000 73 200 119 97.000000 1.000000 4.000000 1.000000 -60.708740 114.000000 31.000000 -0.598202 0.082163 0.797122
9.77000046 0.97000003 0.54000002 73 200 119 97.000000 1.000000 4.000000 1.000000 -60.708740 114.000000 31.000000 -0.212802 -0.012933 0.977010
9.75000000 1.00000000 0.52999997 73 200 119 97.000000 1.000000 4.000000 1.000000 -60.708740 114.000000 31.000000 -0.581344 0.150940 0.799535
9.73999977 1.00999999 0.56000000 73 200 119 97.000000 1.000000 4.000000 1.000000 -60.708740 114.000000 31.000000 -0.643012 -0.123256 0.755873
9.73999977 0.99000001 0.55000001 73 200 119 97.000000 1.000000 4.000000 1.000000 -60.708740 114.000000 31.000000 -0.607094 -0.168049 0.776657
9.75000000 0.97000003 0.51999998 73 200 119 97.000000 1.000000 4.000000 1.000000 -60.708740 114.000000 31.000000 0.679544 0.251859 -0.689048
9.65999985 1.13000000 0.56999999 73 200 119 97.000000 1.000000 4.000000 1.000000 -60.708740 114.000000 31.000000 -0.356222 0.275737 0.892791
9.68000031 1.05999994 0.57999998 73 200 119 97.000000 1.000000 4.000000 1.000000 -60.708740 114.000000 31.000000 -0.104316 -0.076804 0.991574
9.71000004 1.10000002 0.55000001 73 200 119 97.000000 1.000000 4.000000 1.000000 -60.708740 114.000000 31.000000 -0.481699 0.253931 0.838741
9.72999954 1.10000002 0.56000000 73 200 119 97.000000 1.000000 4.000000 1.000000 -60.708740 114.000000 31.000000 -0.478388 0.153611 0.864609
9.69999981 1.09000003 0.54000002 73 200 119 97.000000 1.000000 4.000000 1.000000 -60.708740 114.000000 31.000000 -0.422738 0.451893 0.785548
9.72999954 1.09000003 0.49000001 73 200 119 97.000000 1.000000 4.000000 1.000000 -60.708740 114.000000 31.000000 -0.096640 0.047765 0.994173
9.68999958 1.12000000 0.54000002 73 200 119 97.000000 1.000000 4.000000 1.000000 -60.708740 114.000000 31.000000 -0.414528 0.257761 0.872769
9.68999958 1.12000000 0.52999997 73 200 119 97.000000 1.000000 4.000000 1.000000 -60.708740 114.000000 31.000000 -0.444501 0.415406 0.793635
9.68999958 1.12000000 0.54000002 73 200 119 97.000000 1.000000 4.000000 1.000000 -60.708740 114.000000 31.000000 -0.414528 0.257761 0.872769
9.68000031 1.11000001 0.52999997 73 200 119 97.000000 1.000000 4.000000 1.000000 -60.708740 114.000000 31.000000 -0.591198 0.131871 0.795673
9.68000031 1.05999994 0.50000000 73 200 119 97.000000 1.000000 4.000000 1.000000 -60.708740 114.000000 31.000000 -0.657173 -0.055838 0.751669
9.72999954 1.00999999 0.57999998 73 200 119 97.000000 1.000000 4.000000 1.000000 -60.708740 114.000000 31.000000 -0.309231 0.330145 0.891841
9.68000031 1.04999995 0.57999998 73 200 119 97.000000 1.000000 4.000000 1.000000 -60.708740 114.000000 31.000000 -0.267511 0.323060 0.907783
9.68000031 1.04999995 0.57999998 73 200 119 97.000000 1.000000 4.000000 1.000000 -60.708740 114.000000 31.000000 -0.267511 0.323060 0.907783
9.65999985 1.00000000 0.64999998 73 200 119 97.000000 1.000000 4.000000 1.000000 -60.708740 114.000000 31.000000 -0.453190 0.197620 0.869233
9.65999985 1.00999999 0.64999998 73 200 119 97.000000 1.000000 4.000000 1.000000 -60.708740 114.000000 31.000000 0.574597 -0.150738 -0.804435
9.65999985 1.00000000 0.64999998 73 200 119 97.000000 1.000000 4.000000 1.000000 -60.708740 114.000000 31.000000 -0.453190 0.197620 0.869233
9.69999981 1.04999995 0.54000002 73 200 119 97.000000 1.000000 4.000000 1.000000 -60.708740 114.000000 31.000000 -0.594075 0.368228 0.715181
9.72000027 1.00999999 0.56000000 73 200 119 97.000000 1.000000 4.000000 1.000000 -60.708740 114.000000 31.000000 0.675691 0.287289 -0.678901
9.72999954 0.99000001 0.54000002 73 200 119 97.000000 1.000000 4.000000 1.000000 -60.708740 114.000000 31.000000 -0.562521 -0.006810 0.826755
9.68000031 1.01999998 0.56000000 73 200 119 97.000000 1.000000 4.000000 1.000000 -60.708740 114.000000 31.000000 -0.444660 0.316723 0.837833
9.76000023 1.10000002 0.44999999 73 200 119 97.000000 1.000000 4.000000 1.000000 -60.708740 114.000000 31.000000 -0.284032 0.275381 0.918418
9.75000000 1.10000002 0.44999999 73 200 119 97.000000 1.000000 4.000000 1.000000 -60.708740 114.000000 31.000000 -0.476650 0.266863 0.837609
9.81999969 0.98000002 0.44999999 73 200 119 97.000000 1.000000 4.000000 1.000000 -60.708740 114.000000 31.000000 0.779815 -0.161393 -0.604847
9.81999969 0.98000002 0.44999999 73 200 119 97.000000 1.000000 4.000000 1.000000 -60.708740 114.000000 31.000000 0.779815 -0.161393 -0.604847
9.81000042 0.99000001 0.47999999 73 200 119 97.000000 1.000000 4.000000 1.000000 -60.708740 114.000000 31.000000 0.718060 -0.020996 -0.695664
9.81000042 0.97000003 0.44000000 73 200 119 97.000000 1.000000 4.000000 1.000000 -60.708740 114.000000 31.000000 -0.445654 -0.067191 0.892680
9.81000042 0.97000003 0.44000000 73 200 119 97.000000 1.000000 4.000000 1.000000 -60.708740 114.000000 31.000000 -0.445654 -0.067191 0.892680
9.75000000 1.01999998 0.43000001 73 200 119 97.000000 1.000000 4.000000 1.000000 -60.708740 114.000000 31.000000 -0.209119 -0.010514 0.977834
9.75000000 1.01999998 0.43000001 73 200 119 97.000000 1.000000 4.000000 1.000000 -60.708740 114.000000 31.000000 -0.209119 -0.010514 0.977834
9.76000023 1.01999998 0.41000000 73 200 119 97.000000 1.000000 4.000000 1.000000 -60.708740 114.000000 31.000000 0.720500 0.108001 -0.684993
9.77000046 1.00000000 0.47000000 73 200 119 97.000000 1.000000 4.000000 1.000000 -60.708740 114.000000 31.000000 -0.465721 -0.047801 0.883640
9.77999973 1.00999999 0.44000000 73 200 119 97.000000 1.000000 4.000000 1.000000 -60.708740 114.000000 31.000000 -0.354822 0.254706 0.899570
9.77000046 1.00000000 0.44000000 73 200 119 97.000000 1.000000 4.000000 1.000000 -60.708740 114.000000 31.000000 -0.564822 0.040444 0.824221
9.76000023 0.99000001 0.43000001 73 200 119 97.000000 1.000000 4.000000 1.000000 -60.708740 114.000000 31.000000 0.713757 0.120698 -0.689915
9.77000046 0.99000001 0.44000000 73 200 119 97.000000 1.000000 4.000000 1.000000 -60.708740 114.000000 31.000000 -0.487096 0.163346 0.857937
9.77000046 0.98000002 0.44000000 73 200 119 97.000000 1.000000 4.000000 1.000000 -60.708740 114.000000 31.000000 0.722682 -0.202723 -0.660783
9.77000046 0.99000001 0.40000001 73 200 119 97.000000 1.000000 4.000000 1.000000 -60.708740 114.000000 31.000000 -0.547051 0.202668 0.812195
9.81999969 0.99000001 0.37000000 73 200 119 97.000000 1.000000 4.000000 1.000000 -60.708740 114.000000 31.000000 0.801963 0.070047 -0.593253
9.80000019 0.97000003 0.38999999 73 200 119 97.000000 1.000000 4.000000 1.000000 -60.708740 114.000000 31.000000 -0.334225 0.077942 0.939265
9.80000019 0.99000001 0.38999999 73 200 119 97.000000 1.000000 4.000000 1.000000 -60.708740 114.000000 31.000000 -0.329021 -0.029218 0.943871
9.76000023 0.99000001 0.38999999 73 200 119 97.000000 1.000000 4.000000 1.000000 -60.708740 114.000000 31.000000 0.815149 0.263404 -0.515897
9.76000023 0.99000001 0.38999999 73 200 119 97.000000 1.000000 4.000000 1.000000 -60.708740 114.000000 31.000000 0.815149 0.263404 -0.515897
9.77000046 0.98000002 0.31999999 73 200 119 97.000000 1.000000 4.000000 1.000000 -60.708740 114.000000 31.000000 -0.604783 -0.079387 0.792424
9.69999981 1.12000000 0.41000000 73 200 119 97.000000 1.000000 4.000000 1.000000 -60.708740 114.000000 31.000000 -0.550533 -0.015027 0.834678
9.69999981 1.09000003 0.46000001 73 200 119 97.000000 1.000000 4.000000 1.000000 -60.708740 114.000000 31.000000 -0.479063 0.137495 0.866945
9.71000004 1.08000004 0.44000000 73 200 119 97.000000 1.000000 4.000000 1.000000 -60.708740 114.000000 31.000000 -0.167657 0.282155 0.944606
9.71000004 1.08000004 0.44000000 73 200 119 97.000000 1.000000 4.000000 1.000000 -60.708740 114.000000 31.000000 -0.167657 0.282155 0.944606
9.68999958 1.11000001 0.41000000 73 200 119 97.000000 1.000000 4.000000 1.000000 -60.708740 114.000000 31.000000 -0.554658 0.254674 0.792146
9.68999958 1.11000001 0.41000000 73 200 119 97.000000 1.000000 4.000000 1.000000 -60.708740 114.000000 31.000000 -0.554658 0.254674 0.792146
9.65999985 1.11000001 0.43000001 73 200 119 97.000000 1.000000 4.000000 1.000000 -60.708740 114.000000 31.000000 0.737038 0.012539 -0.675735
9.67000008 1.07000005 0.43000001 73 200 119 97.000000 1.000000 4.000000 1.000000 -60.708740 114.000000 31.000000 -0.460108 0.099901 0.882225
9.67000008 1.09000003 0.44000000 73 200 119 97.000000 1.000000 4.000000 1.000000 -60.708740 114.000000 31.000000 -0.196673 0.061536 0.978536
9.68999958 1.05999994 0.44000000 73 200 119 97.000000 1.000000 4.000000 1.000000 -60.708740 114.000000 31.000000 0.688631 0.015365 -0.724949
9.71000004 1.13000000 0.38000000 73 200 119 97.000000 1.000000 4.000000 1.000000 -60.708740 114.000000 31.000000 -0.540408 0.166164 0.824833
9.72000027 1.10000002 0.37000000 73 200 119 97.000000 1.000000 4.000000 1.000000 -60.708740 114.000000 31.000000 -0.385204 -0.102812 0.917086
9.68000031 1.13000000 0.38999999 73 200 119 97.000000 1.000000 4.000000 1.000000 -60.708740 114.000000 31.000000 -0.511375 0.210923 0.833071
9.68999958 1.13000000 0.33000001 73 200 119 97.000000 1.000000 4.000000 1.000000 -60.708740 114.000000 31.000000 -0.081180 0.180534 0.980213
9.68000031 1.13000000 0.33000001 73 200 119 97.000000 1.000000 4.000000 1.000000 -60.708740 114.000000 31.000000 -0.302627 0.356829 0.883793
9.68000031 1.13000000 0.33000001 73 200 119 97.000000 1.000000 4.000000 1.000000 -60.708740 114.000000 31.000000 -0.302627 0.356829 0.883793
9.68000031 1.07000005 0.36000001 73 200 119 97.000000 1.000000 4.000000 1.000000 -60.708740 114.000000 31.000000 0.775619 0.164800 -0.609307
9.68000031 1.09000003 0.38000000 73 200 119 97.000000 1.000000 4.000000 1.000000 -60.708740 114.000000 31.000000 0.806585 0.049440 -0.589047
9.68999958 1.09000003 0.31999999 73 200 119 97.000000 1.000000 4.000000 1.000000 -60.708740 114.000000 31.000000 -0.148291 -0.265856 0.952539
9.72999954 1.04999995 0.46000001 73 200 119 97.000000 1.000000 4.000000 1.000000 -60.708740 114.000000 31.000000 -0.209694 0.027248 0.977387
9.72000027 1.03999996 0.46000001 73 200 119 97.000000 1.000000 4.000000 1.000000 -60.708740 114.000000 31.000000 -0.403506 -0.038366 0.914172
9.72000027 1.00000000 0.44999999 73 200 119 97.000000 1.000000 4.000000 1.000000 -60.708740 114.000000 31.000000 0.729986 -0.052856 -0.681415
9.72000027 1.00000000 0.44999999 73 200 119 97.000000 1.000000 4.000000 1.000000 -60.708740 114.000000 31.000000 0.729986 -0.052856 -0.681415
9.67000008 1.04999995 0.43000001 73 200 119 97.000000 1.000000 4.000000 1.000000 -60.708740 114.000000 31.000000 -0.419218 0.258795 0.870219
9.68999958 1.00999999 0.41999999 73 200 119 97.000000 1.000000 4.000000 1.000000 -60.708740 114.000000 31.000000 0.775996 -0.079478 -0.625710
9.68999958 1.00999999 0.41999999 73 200 119 97.000000 1.000000 4.000000 1.000000 -60.708740 114.000000 31.000000 0.775996 -0.079478 -0.625710
9.67000008 1.02999997 0.38999999 73 200 119 97.000000 1.000000 4.000000 1.000000 -60.708740 114.000000 31.000000 -0.444432 -0.099541 0.890265
9.68999958 1.23000002 0.28999999 73 200 119 97.000000 1.000000 4.000000 1.000000 -60.708740 114.000000 31.000000 -0.257916 0.618681 0.742101
9.68000031 1.24000001 0.28999999 73 200 119 97.000000 1.000000 4.000000 1.000000 -60.708740 114.000000 31.000000 -0.155846 0.661209 0.733836
9.71000004 1.17999995 0.28999999 73 200 119 97.000000 1.000000 4.000000 1.000000 -60.708740 114.000000 31.000000 -0.674606 0.149409 0.722900
9.67000008 1.22000003 0.28999999 73 200 119 97.000000 1.000000 4.000000 1.000000 -60.708740 114.000000 31.000000 -0.405636 0.617561 0.673853
9.67000008 1.22000003 0.28999999 73 200 119 97.000000 1.000000 4.000000 1.000000 -60.708740 114.000000 31.000000 -0.405636 0.617561 0.673853
9.68999958 1.19000006 0.28999999 73 200 119 97.000000 1.000000 4.000000 1.000000 -60.708740 114.000000 31.000000 -0.368279 0.577789 0.728375
9.68000031 1.22000003 0.28999999 73 200 119 97.000000 1.000000 4.000000 1.000000 -60.708740 114.000000 31.000000 -0.347083 0.400002 0.848252
9.65999985 1.22000003 0.28999999 73 200 119 97.000000 1.000000 4.000000 1.000000 -60.708740 114.000000 31.000000 -0.250400 0.480829 0.840299
9.65999985 1.21000004 0.28999999 73 200 119 97.000000 1.000000 4.000000 1.000000 -60.708740 114.000000 31.000000 -0.626773 -0.052586 0.777426
9.65999985 1.21000004 0.28999999 73 200 119 97.000000 1.000000 4.000000 1.000000 -60.708740 114.000000 31.000000 -0.626773 -0.052586 0.777426
9.68999958 1.16999996 0.27000001 73 200 119 97.000000 1.000000 4.000000 1.000000 -60.708740 114.000000 31.000000 -0.027126 0.001005 0.999632
9.69999981 1.14999998 0.22000000 73 200 119 97.000000 1.000000 4.000000 1.000000 -60.708740 114.000000 31.000000 -0.222210 0.094157 0.970442
9.65999985 1.22000003 0.22000000 73 200 119 97.000000 1.000000 4.000000 1.000000 -60.708740 114.000000 31.000000 -0.226103 0.625291 0.746919
9.65999985 1.17999995 0.23000000 73 200 119 97.000000 1.000000 4.000000 1.000000 -60.708740 114.000000 31.000000 -0.088023 0.162783 0.982728
9.67000008 1.16999996 0.23000000 73 200 119 97.000000 1.000000 4.000000 1.000000 -60.708740 114.000000 31.000000 -0.252473 0.395890 0.882909
9.67000008 1.16999996 0.19000000 73 200 119 97.000000 1.000000 4.000000 1.000000 -60.708740 114.000000 31.000000 0.728569 -0.233455 -0.643961
9.68000031 1.13999999 0.20999999 73 200 119 97.000000 1.000000 4.000000 1.000000 -60.708740 114.000000 31.000000 -0.614524 -0.142043 0.776005
9.67000008 1.16999996 0.19000000 73 200 119 97.000000 1.000000 4.000000 1.000000 -60.708740 114.000000 31.000000 0.728569 -0.233455 -0.643961
9.71000004 1.13999999 0.05000000 73 200 119 97.000000 1.000000 4.000000 1.000000 -60.708740 114.000000 31.000000 0.376802 0.777862 0.502942
9.73999977 1.07000005 0.31000000 73 200 119 97.000000 1.000000 4.000000 1.000000 -60.708740 114.000000 31.000000 -0.506653 0.304623 0.806541
9.75000000 1.08000004 0.18000001 73 200 119 97.000000 1.000000 4.000000 1.000000 -60.708740 114.000000 31.000000 0.811564 0.085048 -0.578041
9.75000000 1.08000004 0.18000001 73 200 119 97.000000 1.000000 4.000000 1.000000 -60.708740 114.000000 31.000000 0.811564 0.085048 -0.578041
9.78999996 0.97000003 0.15000001 73 200 119 97.000000 1.000000 4.000000 1.000000 -60.708740 114.000000 31.000000 0.279047 0.947681 0.155026
9.76000023 0.97000003 0.22000000 73 200 119 97.000000 1.000000 4.000000 1.000000 -60.708740 114.000000 31.000000 0.722525 0.663984 -0.192571
9.69999981 1.11000001 0.23999999 73 200 119 97.000000 1.000000 4.000000 1.000000 -60.708740 114.000000 31.000000 -0.463515 0.050590 0.884644
9.68999958 1.10000002 0.23999999 73 200 119 97.000000 1.000000 4.000000 1.000000 -60.708740 114.000000 31.000000 -0.408744 -0.080655 0.909078
9.69999981 1.11000001 0.15000001 73 200 119 97.000000 1.000000 4.000000 1.000000 -60.708740 114.000000 31.000000 -0.466523 -0.109186 0.877744
9.72000027 1.05999994 0.23000000 73 200 119 97.000000 1.000000 4.000000 1.000000 -60.708740 114.000000 31.000000 -0.390247 -0.170108 0.904859
9.72000027 1.01999998 0.31000000 73 200 119 97.000000 1.000000 4.000000 1.000000 -60.708740 114.000000 31.000000 0.790022 0.067388 -0.609364
9.69999981 0.97000003 0.25999999 73 200 119 97.000000 1.000000 4.000000 1.000000 -60.708740 114.000000 31.000000 0.877846 0.212406 -0.429268
9.72999954 1.00999999 0.15000001 73 200 119 97.000000 1.000000 4.000000 1.000000 -60.708740 114.000000 31.000000 0.557639 0.816383 0.150191
9.67000008 1.00000000 0.17000000 73 200 119 97.000000 1.000000 4.000000 1.000000 -60.708740 114.000000 31.000000 0.305414 0.910396 -0.279110
9.76000023 1.08000004 0.10000000 73 200 119 97.000000 1.000000 4.000000 1.000000 -60.708740 114.000000 31.000000 0.432317 0.896606 -0.095916
9.77000046 1.08000004 0.10000000 73 200 119 97.000000 1.000000 4.000000 1.000000 -60.708740 114.000000 31.000000 0.561853 0.826904 -0.023468
9.75000000 1.05999994 -0.02000000 73 200 119 97.000000 1.000000 4.000000 1.000000 -60.708740 114.000000 31.000000 0.134296 0.822007 0.553416
9.75000000 1.05999994 0.00000000 73 200 119 97.000000 1.000000 4.000000 1.000000 -60.708740 114.000000 31.000000 -0.006898 0.633223 0.773939
9.81999969 0.98000002 0.12000000 73 200 119 97.000000 1.000000 4.000000 1.000000 -60.708740 114.000000 31.000000 0.621062 0.772976 0.129574
9.75000000 1.01999998 0.09000000 73 200 119 97.000000 1.000000 4.000000 1.000000 -60.708740 114.000000 31.000000 0.488538 0.870511 -0.059510
9.75000000 1.01999998 0.09000000 73 200 119 97.000000 1.000000 4.000000 1.000000 -60.708740 114.000000 31.000000 0.488538 0.870511 -0.059510
9.76000023 1.00000000 0.12000000 73 200 119 97.000000 1.000000 4.000000 1.000000 -60.708740 114.000000 31.000000 0.205943 0.911620 0.355719
9.76000023 0.98000002 0.07000000 73 200 119 97.000000 1.000000 4.000000 1.000000 -60.708740 114.000000 31.000000 0.552155 0.606188 0.572417
9.73999977 1.00000000 0.08000000 73 200 119 97.000000 1.000000 4.000000 1.000000 -60.708740 114.000000 31.000000 0.626635 0.685845 0.370060
9.76000023 0.97000003 0.08000000 73 200 119 97.000000 1.000000 4.000000 1.000000 -60.708740 114.000000 31.000000 0.248986 0.919666 0.303677
9.80000019 0.98000002 0.05000000 73 200 119 97.000000 1.000000 4.000000 1.000000 -60.708740 114.000000 31.000000 0.482432 0.731108 0.482432
9.75000000 1.00000000 0.00000000 73 200 119 97.000000 1.000000 4.000000 1.000000 -60.708740 114.000000 31.000000 0.381354 0.815363 0.435605
9.68999958 1.11000001 0.14000000 73 200 119 97.000000 1.000000 4.000000 1.000000 -60.708740 114.000000 31.000000 -0.537196 -0.156248 0.828859
9.72000027 1.05999994 -0.01000000 73 200 119 97.000000 1.000000 4.000000 1.000000 -60.708740 114.000000 31.000000 0.450660 0.758748 0.470326
9.68999958 1.08000004 0.05000000 73 200 119 97.000000 1.000000 4.000000 1.000000 -60.708740 114.000000 31.000000 0.473342 0.880226 -0.033907
9.68000031 1.08000004 -0.02000000 73 200 119 97.000000 1.000000 4.000000 1.000000 -60.708740 114.000000 31.000000 0.113135 0.603877 0.789007
9.67000008 1.05999994 -0.02000000 73 200 119 97.000000 1.000000 4.000000 1.000000 -60.708740 114.000000 31.000000 0.164950 0.842584 0.512683
9.65999985 1.07000005 0.01000000 73 200 119 97.000000 1.000000 4.000000 1.000000 -60.708740 114.000000 31.000000 -0.015638 0.968374 0.249011
9.72999954 1.00000000 0.12000000 73 200 119 97.000000 1.000000 4.000000 1.000000 -60.708740 114.000000 31.000000 0.611291 0.765269 0.201711
9.71000004 1.00000000 0.11000000 73 200 119 97.000000 1.000000 4.000000 1.000000 -60.708740 114.000000 31.000000 0.248992 0.967759 0.038023
9.72999954 0.99000001 0.12000000 73 200 119 97.000000 1.000000 4.000000 1.000000 -60.708740 114.000000 31.000000 0.568377 0.728898 0.381648
9.72999954 1.00000000 0.10000000 73 200 119 97.000000 1.000000 4.000000 1.000000 -60.708740 114.000000 31.000000 0.618603 0.730495 0.289321
9.67000008 1.02999997 0.13000000 73 200 119 97.000000 1.000000 4.000000 1.000000 -60.708740 114.000000 31.000000 0.658481 0.750295 0.058819
9.67000008 1.01999998 0.08000000 73 200 119 97.000000 1.000000 4.000000 1.000000 -60.708740 114.000000 31.000000 0.444199 0.884085 -0.145191
9.65999985 0.97000003 0.10000000 73 200 119 97.000000 1.000000 4.000000 1.000000 -60.708740 114.000000 31.000000 0.602859 0.783266 0.151842
9.72999954 1.02999997 0.03000000 73 200 119 97.000000 1.000000 4.000000 1.000000 -60.708740 114.000000 31.000000 0.100236 0.939542 0.327436
9.72000027 1.02999997 0.03000000 73 200 119 97.000000 1.000000 4.000000 1.000000 -60.708740 114.000000 31.000000 0.115199 0.986914 0.112824
9.72999954 1.03999996 0.01000000 73 200 119 97.000000 1.000000 4.000000 1.000000 -60.708740 114.000000 31.000000 0.307402 0.622851 0.719417
9.71000004 1.02999997 -0.01000000 73 200 119 97.000000 1.000000 4.000000 1.000000 -60.708740 114.000000 31.000000 0.431408 0.540500 0.722320
9.68999958 1.01999998 0.04000000 73 200 119 97.000000 1.000000 4.000000 1.000000 -60.708740 114.000000 31.000000 0.523660 0.849368 0.065984
9.68999958 1.01999998 0.06000000 73 200 119 97.000000 1.000000 4.000000 1.000000 -60.708740 114.000000 31.000000 0.363475 0.930338 0.048551
9.68999958 1.03999996 0.00000000 73 200 119 97.000000 1.000000 4.000000 1.000000 -60.708740 114.000000 31.000000 0.065676 0.951660 0.300050
9.78999996 0.79000002 0.66000003 73 200 119 97.000000 1.000000 4.000000 1.000000 -60.708740 114.000000 31.000000 -0.624176 -0.006889 0.781253
9.73999977 0.77999997 0.66000003 73 200 119 97.000000 1.000000 4.000000 1.000000 -60.708740 114.000000 31.000000 -0.696874 0.029564 0.716584
10.02000046 0.72000003 0.33000001 73 200 119 97.000000 1.000000 4.000000 1.000000 -60.708740 114.000000 31.000000 0.538355 0.841614 0.043124
10.01000023 0.73000002 0.33000001 73 200 119 97.000000 1.000000 4.000000 1.000000 -60.708740 114.000000 31.000000 0.517240 0.848620 0.110940
10.03999996 0.69999999 0.34999999 73 200 119 97.000000 1.000000 4.000000 1.000000 -60.708740 114.000000 31.000000 0.729632 0.673163 0.120367
10.05000019 0.64999998 0.37000000 73 200 119 97.000000 1.000000 4.000000 1.000000 -60.708740 114.000000 31.000000 0.821678 0.553194 -0.137192
10.01000023 0.68000001 0.38000000 73 200 119 97.000000 1.000000 4.000000 1.000000 -60.708740 114.000000 31.000000 0.817659 0.458842 -0.347704
10.02999973 0.70999998 0.34000000 73 200 119 97.000000 1.000000 4.000000 1.000000 -60.708740 114.000000 31.000000 0.869057 0.492878 -0.042560
10.01000023 0.70999998 0.34999999 73 200 119 97.000000 1.000000 4.000000 1.000000 -60.708740 114.000000 31.000000 0.718256 0.672312 0.179181
10.02999973 0.63999999 0.34000000 73 200 119 97.000000 1.000000 4.000000 1.000000 -60.708740 114.000000 31.000000 0.500949 0.784445 0.365645
10.01000023 0.66000003 0.33000001 73 200 119 97.000000 1.000000 4.000000 1.000000 -60.708740 114.000000 31.000000 0.315201 0.901208 -0.297443
10.00000000 0.63999999 0.34000000 73 200 119 97.000000 1.000000 4.000000 1.000000 -60.708740 114.000000 31.000000 0.382146 0.914072 -0.135781
10.01000023 0.63999999 0.34999999 73 200 119 97.000000 1.000000 4.000000 1.000000 -60.708740 114.000000 31.000000 0.653824 0.719677 -0.233621
10.09000015 0.63999999 0.28999999 73 200 119 97.000000 1.000000 4.000000 1.000000 -60.708740 114.000000 31.000000 0.592732 0.784723 0.181324
10.00000000 0.72000003 0.23999999 73 200 119 97.000000 1.000000 4.000000 1.000000 -60.708740 114.000000 31.000000 0.507705 0.829814 0.231612
10.00000000 0.69999999 0.31000000 73 200 119 97.000000 1.000000 4.000000 1.000000 -60.708740 114.000000 31.000000 0.836380 0.548067 0.009520
10.01000023 0.66000003 0.27000001 73 200 119 97.000000 1.000000 4.000000 1.000000 -60.708740 114.000000 31.000000 0.559127 0.692650 0.455647
10.01000023 0.63999999 0.19000000 73 200 119 97.000000 1.000000 4.000000 1.000000 -60.708740 114.000000 31.000000 0.066276 0.944762 0.320985
10.15999985 0.56000000 0.34000000 73 200 119 97.000000 1.000000 4.000000 1.000000 -60.708740 114.000000 31.000000 0.773712 0.633537 0.001374
10.15999985 0.51999998 0.34000000 73 200 119 97.000000 1.000000 4.000000 1.000000 -60.708740 114.000000 31.000000 0.431728 0.885261 0.172982
10.15999985 0.58999997 0.36000001 73 200 119 97.000000 1.000000 4.000000 1.000000 -60.708740 114.000000 31.000000 0.542144 0.733295 0.410316
10.18000031 0.44999999 0.31999999 73 200 119 97.000000 1.000000 4.000000 1.000000 -60.708740 114.000000 31.000000 0.488005 0.843747 0.223479
10.11999989 0.55000001 0.36000001 73 200 119 97.000000 1.000000 4.000000 1.000000 -60.708740 114.000000 31.000000 0.389615 0.852186 -0.349256
10.11999989 0.55000001 0.34999999 73 200 119 97.000000 1.000000 4.000000 1.000000 -60.708740 114.000000 31.000000 0.531812 0.845622 0.045822
10.07999992 0.60000002 0.37000000 73 200 119 97.000000 1.000000 4.000000 1.000000 -60.708740 114.000000 31.000000 0.546241 0.760200 -0.351734
10.09000015 0.63000000 0.33000001 73 200 119 97.000000 1.000000 4.000000 1.000000 -60.708740 114.000000 31.000000 0.562810 0.738994 0.370313
10.10999966 0.56000000 0.36000001 73 200 119 97.000000 1.000000 4.000000 1.000000 -60.708740 114.000000 31.000000 0.604591 0.796525 -0.004113
10.07999992 0.56999999 0.36000001 73 200 119 97.000000 1.000000 4.000000 1.000000 -60.708740 114.000000 31.000000 0.731789 0.661805 -0.162789
10.10999966 0.56000000 0.36000001 73 200 119 97.000000 1.000000 4.000000 1.000000 -60.708740 114.000000 31.000000 0.604591 0.796525 -0.004113
10.07999992 0.56000000 0.38000000 73 200 119 97.000000 1.000000 4.000000 1.000000 -60.708740 114.000000 31.000000 0.516222 0.848802 -0.114234
10.07999992 0.55000001 0.34000000 73 200 119 97.000000 1.000000 4.000000 1.000000 -60.708740 114.000000 31.000000 0.593369 0.802121 0.067201
10.11999989 0.51999998 0.33000001 73 200 119 97.000000 1.000000 4.000000 1.000000 -60.708740 114.000000 31.000000 0.735447 0.617393 0.279183
10.09000015 0.54000002 0.38000000 73 200 119 97.000000 1.000000 4.000000 1.000000 -60.708740 114.000000 31.000000 0.728202 0.664083 0.169456
10.10000038 0.51999998 0.36000001 73 200 119 97.000000 1.000000 4.000000 1.000000 -60.708740 114.000000 31.000000 0.546420 0.823352 -0.153355
10.10000038 0.52999997 0.36000001 73 200 119 97.000000 1.000000 4.000000 1.000000 -60.708740 114.000000 31.000000 0.614225 0.788925 0.018025
10.10000038 0.51999998 0.38000000 73 200 119 97.000000 1.000000 4.000000 1.000000 -60.708740 114.000000 31.000000 0.591778 0.756778 0.277644
10.10000038 0.52999997 0.38999999 73 200 119 97.000000 1.000000 4.000000 1.000000 -60.708740 114.000000 31.000000 0.615952 0.774811 0.142373
10.10999966 0.52999997 0.33000001 73 200 119 97.000000 1.000000 4.000000 1.000000 -60.708740 114.000000 31.000000 0.117979 0.992145 -0.041573
10.10999966 0.52999997 0.33000001 73 200 119 97.000000 1.000000 4.000000 1.000000 -60.708740 114.000000 31.000000 0.117979 0.992145 -0.041573
10.10999966 0.52999997 0.33000001 73 200 119 97.000000 1.000000 4.000000 1.000000 -60.708740 114.000000 31.000000 0.117979 0.992145 -0.041573
10.09000015 0.52999997 0.34000000 73 200 119 97.000000 1.000000 4.000000 1.000000 -60.708740 114.000000 31.000000 0.197679 0.967721 0.156334
10.07999992 0.47999999 0.37000000 73 200 119 97.000000 1.000000 4.000000 1.000000 -60.708740 114.000000 31.000000 0.367278 0.881164 -0.297752
10.10000038 0.47000000 0.31999999 73 200 119 97.000000 1.000000 4.000000 1.000000 -60.708740 114.000000 31.000000 0.407942 0.833209 0.373290
10.01000023 0.56999999 0.40000001 73 200 119 97.000000 1.000000 4.000000 1.000000 -60.708740 114.000000 31.000000 0.403506 0.914172 0.038366
10.03999996 0.63000000 0.36000001 73 200 119 97.000000 1.000000 4.000000 1.000000 -60.708740 114.000000 31.000000 0.786666 0.531359 -0.314347
10.06000042 0.57999998 0.34000000 73 200 119 97.000000 1.000000 4.000000 1.000000 -60.708740 114.000000 31.000000 0.786958 0.608170 -0.104048
10.06999969 0.57999998 0.34000000 73 200 119 97.000000 1.000000 4.000000 1.000000 -60.708740 114.000000 31.000000 0.272816 0.961647 0.028393
10.06999969 0.56999999 0.34999999 73 200 119 97.000000 1.000000 4.000000 1.000000 -60.708740 114.000000 31.000000 0.686330 0.704755 -0.179643
10.06999969 0.56999999 0.34999999 73 200 119 97.000000 1.000000 4.000000 1.000000 -60.708740 114.000000 31.000000 0.686330 0.704755 -0.179643
10.02000046 0.61000001 0.38000000 73 200 119 97.000000 1.000000 4.000000 1.000000 -60.708740 114.000000 31.000000 0.360635 0.919129 0.158567
10.00000000 0.63000000 0.31999999 73 200 119 97.000000 1.000000 4.000000 1.000000 -60.708740 114.000000 31.000000 0.388420 0.883319 -0.262446
10.02000046 0.56999999 0.38999999 73 200 119 97.000000 1.000000 4.000000 1.000000 -60.708740 114.000000 31.000000 0.370516 0.900661 -0.226996
10.02999973 0.57999998 0.34999999 73 200 119 97.000000 1.000000 4.000000 1.000000 -60.708740 114.000000 31.000000 0.799496 0.571935 0.183565
10.01000023 0.58999997 0.34999999 73 200 119 97.000000 1.000000 4.000000 1.000000 -60.708740 114.000000 31.000000 0.337498 0.896525 -0.286947
10.02999973 0.56999999 0.33000001 73 200 119 97.000000 1.000000 4.000000 1.000000 -60.708740 114.000000 31.000000 0.560463 0.771236 0.301788
10.02000046 0.54000002 0.40000001 73 200 119 97.000000 1.000000 4.000000 1.000000 -60.708740 114.000000 31.000000 0.730751 0.667469 0.143137
10.06000042 0.50999999 0.38000000 73 200 119 97.000000 1.000000 4.000000 1.000000 -60.708740 114.000000 31.000000 0.361982 0.930622 0.053968
10.05000019 0.50999999 0.38000000 73 200 119 97.000000 1.000000 4.000000 1.000000 -60.708740 114.000000 31.000000 0.559474 0.717909 -0.414242
10.03999996 0.51999998 0.38999999 73 200 119 97.000000 1.000000 4.000000 1.000000 -60.708740 114.000000 31.000000 0.755045 0.655660 0.004141
10.06000042 0.50000000 0.37000000 73 200 119 97.000000 1.000000 4.000000 1.000000 -60.708740 114.000000 31.000000 0.502994 0.852010 0.145179
10.05000019 0.49000001 0.37000000 73 200 119 97.000000 1.000000 4.000000 1.000000 -60.708740 114.000000 31.000000 0.439682 0.877893 -0.189695
10.05000019 0.49000001 0.34999999 73 200 119 97.000000 1.000000 4.000000 1.000000 -60.708740 114.000000 31.000000 0.619573 0.750666 0.229413
10.02999973 0.54000002 0.37000000 73 200 119 97.000000 1.000000 4.000000 1.000000 -60.708740 114.000000 31.000000 0.659767 0.744993 0.098451
10.15999985 0.47000000 0.28999999 73 200 119 97.000000 1.000000 4.000000 1.000000 -60.708740 114.000000 31.000000 0.195947 0.979733 -0.041564
10.17000008 0.47000000 0.31000000 73 200 119 97.000000 1.000000 4.000000 1.000000 -60.708740 114.000000 31.000000 0.395438 0.909648 -0.127155
10.18000031 0.46000001 0.30000001 73 200 119 97.000000 1.000000 4.000000 1.000000 -60.708740 114.000000 31.000000 0.485027 0.869655 0.091915
10.18000031 0.46000001 0.31000000 73 200 119 97.000000 1.000000 4.000000 1.000000 -60.708740 114.000000 31.000000 0.543591 0.787653 0.290021
10.11999989 0.56000000 0.28999999 73 200 119 97.000000 1.000000 4.000000 1.000000 -60.708740 114.000000 31.000000 0.119478 0.979228 0.163821
10.13000011 0.56000000 0.28000000 73 200 119 97.000000 1.000000 4.000000 1.000000 -60.708740 114.000000 31.000000 0.537411 0.837093 -0.102295
10.10000038 0.57999998 0.31000000 73 200 119 97.000000 1.000000 4.000000 1.000000 -60.708740 114.000000 31.000000 0.594618 0.730716 0.335384
10.09000015 0.57999998 0.28000000 73 200 119 97.000000 1.000000 4.000000 1.000000 -60.708740 114.000000 31.000000 0.492813 0.853914 -0.167231
10.14999962 0.50999999 0.28999999 73 200 119 97.000000 1.000000 4.000000 1.000000 -60.708740 114.000000 31.000000 0.111174 0.893616 0.434846
10.13000011 0.51999998 0.28000000 73 200 119 97.000000 1.000000 4.000000 1.000000 -60.708740 114.000000 31.000000 0.674756 0.618388 0.402864
10.13000011 0.51999998 0.28999999 73 200 119 97.000000 1.000000 4.000000 1.000000 -60.708740 114.000000 31.000000 0.586050 0.792000 0.171120
10.13000011 0.52999997 0.25000000 73 200 119 97.000000 1.000000 4.000000 1.000000 -60.708740 114.000000 31.000000 0.239862 0.844864 0.478196
10.07999992 0.54000002 0.28999999 73 200 119 97.000000 1.000000 4.000000 1.000000 -60.708740 114.000000 31.000000 0.648710 0.758027 -0.067604
10.10999966 0.49000001 0.28999999 73 200 119 97.000000 1.000000 4.000000 1.000000 -60.708740 114.000000 31.000000 0.299952 0.785589 0.541183
10.10000038 0.50000000 0.28999999 73 200 119 97.000000 1.000000 4.000000 1.000000 -60.708740 114.000000 31.000000 0.551924 0.827162 -0.105749
10.10000038 0.49000001 0.28000000 73 200 119 97.000000 1.000000 4.000000 1.000000 -60.708740 114.000000 31.000000 0.488835 0.785685 0.379129
10.03999996 0.56000000 0.27000001 73 200 119 97.000000 1.000000 4.000000 1.000000 -60.708740 114.000000 31.000000 0.447929 0.891748 0.064381
10.01000023 0.63000000 0.31000000 73 200 119 97.000000 1.000000 4.000000 1.000000 -60.708740 114.000000 31.000000 0.505609 0.828338 0.241278
10.00000000 0.57999998 0.23999999 73 200 119 97.000000 1.000000 4.000000 1.000000 -60.708740 114.000000 31.000000 0.737328 0.670430 0.082895
10.01000023 0.60000002 0.19000000 73 200 119 97.000000 1.000000 4.000000 1.000000 -60.708740 114.000000 31.000000 0.414852 0.709050 0.570215
10.02000046 0.63000000 0.20000000 73 200 119 97.000000 1.000000 4.000000 1.000000 -60.708740 114.000000 31.000000 0.439368 0.613110 0.656546
10.01000023 0.56999999 0.23000000 73 200 119 97.000000 1.000000 4.000000 1.000000 -60.708740 114.000000 31.000000 0.644217 0.620791 0.446769
10.00000000 0.57999998 0.17000000 73 200 119 97.000000 1.000000 4.000000 1.000000 -60.708740 114.000000 31.000000 0.556581 0.819370 0.137300
10.00000000 0.57999998 0.17000000 73 200 119 97.000000 1.000000 4.000000 1.000000 -60.708740 114.000000 31.000000 0.556581 0.819370 0.137300
10.00000000 0.56000000 0.18000001 73 200 119 97.000000 1.000000 4.000000 1.000000 -60.708740 114.000000 31.000000 0.383568 0.778465 0.496858
10.06000042 0.47000000 0.25999999 73 200 119 97.000000 1.000000 4.000000 1.000000 -60.708740 114.000000 31.000000 0.078281 0.981518 0.174626
10.06000042 0.49000001 0.25999999 73 200 119 97.000000 1.000000 4.000000 1.000000 -60.708740 114.000000 31.000000 0.215070 0.921526 0.323318
10.02999973 0.49000001 0.25999999 73 200 119 97.000000 1.000000 4.000000 1.000000 -60.708740 114.000000 31.000000 0.496300 0.851857 -0.167409
10.06999969 0.54000002 0.22000000 73 200 119 97.000000 1.000000 4.000000 1.000000 -60.708740 114.000000 31.000000 0.403860 0.914813 -0.003871
10.03999996 0.51999998 0.22000000 73 200 119 97.000000 1.000000 4.000000 1.000000 -60.708740 114.000000 31.000000 0.476799 0.758618 0.444029
10.03999996 0.47000000 0.19000000 73 200 119 97.000000 1.000000 4.000000 1.000000 -60.708740 114.000000 31.000000 0.299888 0.745711 0.594965
10.06000042 0.47000000 0.18000001 73 200 119 97.000000 1.000000 4.000000 1.000000 -60.708740 114.000000 31.000000 0.095272 0.725533 0.681561
10.02999973 0.52999997 0.22000000 73 200 119 97.000000 1.000000 4.000000 1.000000 -60.708740 114.000000 31.000000 0.143556 0.821377 0.552025
10.02000046 0.52999997 0.22000000 73 200 119 97.000000 1.000000 4.000000 1.000000 -60.708740 114.000000 31.000000 0.050231 0.891936 0.449362
10.02000046 0.52999997 0.22000000 73 200 119 97.000000 1.000000 4.000000 1.000000 -60.708740 114.000000 31.000000 0.050231 0.891936 0.449362
10.02000046 0.52999997 0.22000000 73 200 119 97.000000 1.000000 4.000000 1.000000 -60.708740 114.000000 31.000000 0.050231 0.891936 0.449362
10.02000046 0.54000002 0.19000000 73 200 119 97.000000 1.000000 4.000000 1.000000 -60.708740 114.000000 31.000000 0.112124 0.987873 0.107403
10.02999973 0.50999999 0.20000000 73 200 119 97.000000 1.000000 4.000000 1.000000 -60.708740 114.000000 31.000000 0.388961 0.920672 0.032741
10.00000000 0.54000002 0.18000001 73 200 119 97.000000 1.000000 4.000000 1.000000 -60.708740 114.000000 31.000000 0.362039 0.686399 0.630701
10.02999973 0.47000000 0.20999999 73 200 119 97.000000 1.000000 4.000000 1.000000 -60.708740 114.000000 31.000000 0.435050 0.885998 0.160434
10.00000000 0.49000001 0.22000000 73 200 119 97.000000 1.000000 4.000000 1.000000 -60.708740 114.000000 31.000000 0.053385 0.885638 0.461298
10.02000046 0.52999997 0.09000000 73 200 119 97.000000 1.000000 4.000000 1.000000 -60.708740 114.000000 31.000000 0.580875 0.700029 0.415384
10.01000023 0.51999998 0.11000000 73 200 119 97.000000 1.000000 4.000000 1.000000 -60.708740 114.000000 31.000000 0.246928 0.881457 0.402567
10.00000000 0.47999999 0.12000000 73 200 119 97.000000 1.000000 4.000000 1.000000 -60.708740 114.000000 31.000000 0.049024 0.990748 0.126551
10.13000011 0.46000001 0.27000001 73 200 119 97.000000 1.000000 4.000000 1.000000 -60.708740 114.000000 31.000000 0.144683 0.930106 0.337594
10.11999989 0.46000001 0.31000000 73 200 119 97.000000 1.000000 4.000000 1.000000 -60.708740 114.000000 31.000000 0.766583 0.621431 0.161784
9.93000031 0.85000002 0.51999998 73 200 119 97.000000 1.000000 4.000000 1.000000 -60.708740 114.000000 31.000000 0.746347 0.023805 -0.665131
9.82999992 0.94999999 0.57999998 73 200 119 97.000000 1.000000 4.000000 1.000000 -60.708740 114.000000 31.000000 -0.501505 0.039846 0.864237
9.88000011 0.94999999 0.54000002 73 200 119 97.000000 1.000000 4.000000 1.000000 -60.708740 114.000000 31.000000 -0.160807 0.189109 0.968700
9.82999992 0.94999999 0.55000001 73 200 119 97.000000 1.000000 4.000000 1.000000 -60.708740 114.000000 31.000000 -0.341301 0.217453 0.914455
9.90999985 0.94999999 0.47999999 73 200 119 97.000000 1.000000 4.000000 1.000000 -60.708740 114.000000 31.000000 -0.536564 0.202162 0.819286
9.92000008 0.91000003 0.47000000 73 200 119 97.000000 1.000000 4.000000 1.000000 -60.708740 114.000000 31.000000 0.607023 0.479229 -0.633927
9.94999981 0.88000000 0.43000001 73 200 119 97.000000 1.000000 4.000000 1.000000 -60.708740 114.000000 31.000000 0.771244 0.409265 -0.487530
9.93000031 0.85000002 0.41999999 73 200 119 97.000000 1.000000 4.000000 1.000000 -60.708740 114.000000 31.000000 0.642749 0.373156 -0.669051
9.93000031 0.86000001 0.43000001 73 200 119 97.000000 1.000000 4.000000 1.000000 -60.708740 114.000000 31.000000 0.554918 0.625759 -0.548171
9.92000008 0.81000000 0.44999999 73 200 119 97.000000 1.000000 4.000000 1.000000 -60.708740 114.000000 31.000000 -0.660102 -0.058708 0.748879
9.93000031 0.82999998 0.40000001 73 200 119 97.000000 1.000000 4.000000 1.000000 -60.708740 114.000000 31.000000 0.685886 0.673095 -0.276593
9.92000008 0.83999997 0.40000001 73 200 119 97.000000 1.000000 4.000000 1.000000 -60.708740 114.000000 31.000000 0.847120 0.418120 -0.327968
9.90999985 0.83999997 0.43000001 73 200 119 97.000000 1.000000 4.000000 1.000000 -60.708740 114.000000 31.000000 0.854568 0.150979 -0.496910
9.94999981 0.85000002 0.37000000 73 200 119 97.000000 1.000000 4.000000 1.000000 -60.708740 114.000000 31.000000 0.642093 0.403175 -0.652048
9.94999981 0.85000002 0.37000000 73 200 119 97.000000 1.000000 4.000000 1.000000 -60.708740 114.000000 31.000000 0.642093 0.403175 -0.652048
9.96000004 0.86000001 0.36000001 73 200 119 97.000000 1.000000 4.000000 1.000000 -60.708740 114.000000 31.000000 0.696442 0.315096 -0.644734
9.92000008 0.82999998 0.38999999 73 200 119 97.000000 1.000000 4.000000 1.000000 -60.708740 114.000000 31.000000 0.715133 0.580326 -0.389624
9.90999985 0.83999997 0.38000000 73 200 119 97.000000 1.000000 4.000000 1.000000 -60.708740 114.000000 31.000000 0.546730 0.651029 -0.526543
9.90999985 0.83999997 0.38000000 73 200 119 97.000000 1.000000 4.000000 1.000000 -60.708740 114.000000 31.000000 0.546730 0.651029 -0.526543
9.88000011 0.94000000 0.44999999 73 200 119 97.000000 1.000000 4.000000 1.000000 -60.708740 114.000000 31.000000 0.609356 -0.142233 -0.780035
9.88000011 0.93000001 0.44999999 73 200 119 97.000000 1.000000 4.000000 1.000000 -60.708740 114.000000 31.000000 -0.703752 0.038232 0.709416
9.86999989 0.95999998 0.44000000 73 200 119 97.000000 1.000000 4.000000 1.000000 -60.708740 114.000000 31.000000 -0.609410 -0.018046 0.792650
9.88000011 0.91000003 0.46000001 73 200 119 97.000000 1.000000 4.000000 1.000000 -60.708740 114.000000 31.000000 0.739521 0.139504 -0.658519
9.88000011 0.88999999 0.40000001 73 200 119 97.000000 1.000000 4.000000 1.000000 -60.708740 114.000000 31.000000 0.530675 0.707012 -0.467460
9.88000011 0.91000003 0.41000000 73 200 119 97.000000 1.000000 4.000000 1.000000 -60.708740 114.000000 31.000000 -0.335175 -0.039810 0.941315
9.85000038 0.94999999 0.47999999 73 200 119 97.000000 1.000000 4.000000 1.000000 -60.708740 114.000000 31.000000 -0.694969 -0.146230 0.704014
9.85000038 0.94000000 0.43000001 73 200 119 97.000000 1.000000 4.000000 1.000000 -60.708740 114.000000 31.000000 0.664532 0.516485 -0.540038
9.85000038 0.92000002 0.41000000 73 200 119 97.000000 1.000000 4.000000 1.000000 -60.708740 114.000000 31.000000 0.715318 0.417957 -0.560029
9.86999989 0.89999998 0.38999999 73 200 119 97.000000 1.000000 4.000000 1.000000 -60.708740 114.000000 31.000000 0.739797 0.035363 -0.671900
9.86999989 0.89999998 0.38999999 73 200 119 97.000000 1.000000 4.000000 1.000000 -60.708740 114.000000 31.000000 0.739797 0.035363 -0.671900
9.82999992 0.93000001 0.31999999 73 200 119 97.000000 1.000000 4.000000 1.000000 -60.708740 114.000000 31.000000 0.818540 0.491753 -0.296937
9.82999992 0.95999998 0.34999999 73 200 119 97.000000 1.000000 4.000000 1.000000 -60.708740 114.000000 31.000000 0.813378 0.115778 -0.570098
9.82999992 0.92000002 0.31999999 73 200 119 97.000000 1.000000 4.000000 1.000000 -60.708740 114.000000 31.000000 0.699754 0.570108 -0.430490
9.86999989 0.87000000 0.44999999 73 200 119 97.000000 1.000000 4.000000 1.000000 -60.708740 114.000000 31.000000 0.828343 0.285474 -0.482030
9.89000034 0.82999998 0.44000000 73 200 119 97.000000 1.000000 4.000000 1.000000 -60.708740 114.000000 31.000000 0.764441 0.580085 -0.281302
9.82999992 0.86000001 0.40000001 73 200 119 97.000000 1.000000 4.000000 1.000000 -60.708740 114.000000 31.000000 0.864413 0.330105 -0.379236
9.85999966 0.86000001 0.44000000 73 200 119 97.000000 1.000000 4.000000 1.000000 -60.708740 114.000000 31.000000 0.728148 0.182420 -0.660699
9.85999966 0.86000001 0.44000000 73 200 119 97.000000 1.000000 4.000000 1.000000 -60.708740 114.000000 31.000000 0.728148 0.182420 -0.660699
9.88000011 0.86000001 0.31999999 73 200 119 97.000000 1.000000 4.000000 1.000000 -60.708740 114.000000 31.000000 0.751094 0.366586 -0.549065
9.89000034 0.82999998 0.38999999 73 200 119 97.000000 1.000000 4.000000 1.000000 -60.708740 114.000000 31.000000 0.424730 0.806186 -0.411908
9.89000034 0.81000000 0.33000001 73 200 119 97.000000 1.000000 4.000000 1.000000 -60.708740 114.000000 31.000000 0.866703 0.460760 -0.191119
9.84000015 0.85000002 0.36000001 73 200 119 97.000000 1.000000 4.000000 1.000000 -60.708740 114.000000 31.000000 0.755217 0.550578 -0.355683
9.85000038 0.85000002 0.33000001 73 200 119 97.000000 1.000000 4.000000 1.000000 -60.708740 114.000000 31.000000 0.653474 0.666577 -0.358674
9.82999992 0.86000001 0.33000001 73 200 119 97.000000 1.000000 4.000000 1.000000 -60.708740 114.000000 31.000000 0.710516 0.605980 -0.357708
9.85000038 0.85000002 0.33000001 73 200 119 97.000000 1.000000 4.000000 1.000000 -60.708740 114.000000 31.000000 0.653474 0.666577 -0.358674
9.85999966 0.81000000 0.38000000 73 200 119 97.000000 1.000000 4.000000 1.000000 -60.708740 114.000000 31.000000 0.847091 0.305077 -0.435160
9.85999966 0.81000000 0.37000000 73 200 119 97.000000 1.000000 4.000000 1.000000 -60.708740 114.000000 31.000000 0.798201 0.411195 -0.440220
9.84000015 0.83999997 0.34999999 73 200 119 97.000000 1.000000 4.000000 1.000000 -60.708740 114.000000 31.000000 0.731105 0.660895 -0.169421
9.85000038 0.81000000 0.34999999 73 200 119 97.000000 1.000000 4.000000 1.000000 -60.708740 114.000000 31.000000 0.838420 0.385390 -0.385390
9.97000027 0.75999999 0.49000001 73 200 119 97.000000 1.000000 4.000000 1.000000 -60.708740 114.000000 31.000000 0.611464 0.344050 -0.712559
9.98999977 0.76999998 0.47999999 73 200 119 97.000000 1.000000 4.000000 1.000000 -60.708740 114.000000 31.000000 0.631201 0.651187 -0.421356
9.97999954 0.77999997 0.47999999 73 200 119 97.000000 1.000000 4.000000 1.000000 -60.708740 114.000000 31.000000 0.704235 0.639774 -0.307801
