//X Y Z R G B PointSourceId ScanDirectionFlag NumberOfReturns ReturnNumber GpsTime Intensity Classification Nx Ny Nz
-7.38999987 10.06000042 -0.89999998 193 195 61 97.000000 1.000000 4.000000 1.000000 -60.708740 114.000000 230.000000 0.775022 0.629972 0.049772
-7.44000006 10.10999966 -0.86000001 193 195 61 97.000000 1.000000 4.000000 1.000000 -60.708740 114.000000 230.000000 0.856795 0.430697 -0.283555
-7.46000004 10.10999966 -0.93000001 193 195 61 97.000000 1.000000 4.000000 1.000000 -60.708740 114.000000 230.000000 0.888534 0.346124 0.301173
-7.44999981 10.10999966 -0.97000003 193 195 61 97.000000 1.000000 4.000000 1.000000 -60.708740 114.000000 230.000000 0.841581 0.533998 -0.081168
-7.46000004 10.10999966 -0.99000001 193 195 61 97.000000 1.000000 4.000000 1.000000 -60.708740 114.000000 230.000000 0.782876 0.581344 -0.221686
-7.46000004 10.10000038 -0.99000001 193 195 61 97.000000 1.000000 4.000000 1.000000 -60.708740 114.000000 230.000000 0.841267 0.536889 -0.063412
-7.44000006 10.10000038 -1.01999998 193 195 61 97.000000 1.000000 4.000000 1.000000 -60.708740 114.000000 230.000000 0.765945 0.639009 0.070680
-7.42999983 10.35999966 -1.10000002 193 195 61 97.000000 1.000000 4.000000 1.000000 -60.708740 114.000000 230.000000 0.998102 0.045609 -0.041367
-7.44000006 10.09000015 -1.03999996 193 195 61 97.000000 1.000000 4.000000 1.000000 -60.708740 114.000000 230.000000 0.742091 0.667451 -0.061721
-7.44000006 10.09000015 -1.04999995 193 195 61 97.000000 1.000000 4.000000 1.000000 -60.708740 114.000000 230.000000 0.737734 0.644937 -0.199513
-7.44999981 10.10000038 -1.04999995 193 195 61 97.000000 1.000000 4.000000 1.000000 -60.708740 114.000000 230.000000 0.852523 0.500362 0.151136
-7.44000006 10.07999992 -1.05999994 193 195 61 97.000000 1.000000 4.000000 1.000000 -60.708740 114.000000 230.000000 0.739217 0.622082 -0.258014
-7.44999981 10.10000038 -1.04999995 193 195 61 97.000000 1.000000 4.000000 1.000000 -60.708740 114.000000 230.000000 0.852523 0.500362 0.151136
-7.42999983 10.09000015 -1.03999996 193 195 61 97.000000 1.000000 4.000000 1.000000 -60.708740 114.000000 230.000000 0.822008 0.547508 -0.156644
-7.44000006 10.09000015 -1.04999995 193 195 61 97.000000 1.000000 4.000000 1.000000 -60.708740 114.000000 230.000000 0.737734 0.644937 -0.199513
-7.44999981 10.10000038 -1.03999996 193 195 61 97.000000 1.000000 4.000000 1.000000 -60.708740 114.000000 230.000000 0.804336 0.590037 -0.070004
-7.44000006 10.09000015 -1.05999994 193 195 61 97.000000 1.000000 4.000000 1.000000 -60.708740 114.000000 230.000000 0.754183 0.631801 -0.178985
-7.44000006 10.09000015 -1.02999997 193 195 61 97.000000 1.000000 4.000000 1.000000 -60.708740 114.000000 230.000000 0.810263 0.559790 -0.173520
-7.44999981 10.10000038 -1.08000004 193 195 61 97.000000 1.000000 4.000000 1.000000 -60.708740 114.000000 230.000000 0.786144 0.613681 0.073297
-7.44000006 10.07999992 -1.11000001 193 195 61 97.000000 1.000000 4.000000 1.000000 -60.708740 114.000000 230.000000 0.784823 0.617960 0.046665
-7.46000004 10.10999966 -1.08000004 193 195 61 97.000000 1.000000 4.000000 1.000000 -60.708740 114.000000 230.000000 0.883131 0.303435 0.357781
-7.44999981 10.09000015 -1.10000002 193 195 61 97.000000 1.000000 4.000000 1.000000 -60.708740 114.000000 230.000000 0.799927 0.582442 -0.144493
-7.46000004 10.10999966 -1.09000003 193 195 61 97.000000 1.000000 4.000000 1.000000 -60.708740 114.000000 230.000000 0.770039 0.624074 -0.132560
-7.44999981 10.06999969 -1.11000001 193 195 61 97.000000 1.000000 4.000000 1.000000 -60.708740 114.000000 230.000000 0.830330 0.450482 0.328051
-7.44000006 10.06000042 -1.11000001 193 195 61 97.000000 1.000000 4.000000 1.000000 -60.708740 114.000000 230.000000 0.759330 0.545617 0.354570
-7.44999981 10.07999992 -1.13000000 193 195 61 97.000000 1.000000 4.000000 1.000000 -60.708740 114.000000 230.000000 0.807376 0.496481 -0.318826
-7.46000004 10.09000015 -1.12000000 193 195 61 97.000000 1.000000 4.000000 1.000000 -60.708740 114.000000 230.000000 0.697351 0.711910 -0.082983
-7.44000006 10.06000042 -1.12000000 193 195 61 97.000000 1.000000 4.000000 1.000000 -60.708740 114.000000 230.000000 0.743951 0.572146 0.345232
-7.21000004 9.86999989 -0.80000001 193 195 61 97.000000 1.000000 4.000000 1.000000 -60.708740 114.000000 230.000000 0.439027 0.785713 0.435787
-7.21000004 9.88000011 -0.79000002 193 195 61 97.000000 1.000000 4.000000 1.000000 -60.708740 114.000000 230.000000 0.272824 0.890031 0.365256
-7.25000000 9.89000034 -0.76999998 193 195 61 97.000000 1.000000 4.000000 1.000000 -60.708740 114.000000 230.000000 0.270214 0.959195 0.083241
-7.23999977 9.86999989 -0.75999999 193 195 61 97.000000 1.000000 4.000000 1.000000 -60.708740 114.000000 230.000000 0.280633 0.919613 0.274876
-7.28999996 9.90999985 -0.75000000 193 195 61 97.000000 1.000000 4.000000 1.000000 -60.708740 114.000000 230.000000 0.459765 0.881334 -0.108929
-7.28999996 9.92000008 -0.74000001 193 195 61 97.000000 1.000000 4.000000 1.000000 -60.708740 114.000000 230.000000 0.504186 0.710520 0.490874
-7.28999996 9.92000008 -0.74000001 193 195 61 97.000000 1.000000 4.000000 1.000000 -60.708740 114.000000 230.000000 0.504186 0.710520 0.490874
-7.23000002 9.86999989 -0.80000001 193 195 61 97.000000 1.000000 4.000000 1.000000 -60.708740 114.000000 230.000000 0.266833 0.926067 0.266833
-7.23000002 9.86999989 -0.80000001 193 195 61 97.000000 1.000000 4.000000 1.000000 -60.708740 114.000000 230.000000 0.266833 0.926067 0.266833
-7.21999979 9.88000011 -0.77999997 193 195 61 97.000000 1.000000 4.000000 1.000000 -60.708740 114.000000 230.000000 0.463071 0.778284 0.424075
-7.28000021 9.90999985 -0.77999997 193 195 61 97.000000 1.000000 4.000000 1.000000 -60.708740 114.000000 230.000000 0.465234 0.866960 0.178709
-7.26999998 9.90999985 -0.77999997 193 195 61 97.000000 1.000000 4.000000 1.000000 -60.708740 114.000000 230.000000 0.509574 0.818123 0.266474
-7.28999996 9.92000008 -0.85000002 193 195 61 97.000000 1.000000 4.000000 1.000000 -60.708740 114.000000 230.000000 0.702062 0.541972 0.461927
-7.28000021 9.90999985 -0.81999999 193 195 61 97.000000 1.000000 4.000000 1.000000 -60.708740 114.000000 230.000000 0.280360 0.946724 0.158465
-7.21999979 9.86999989 -0.88999999 193 195 61 97.000000 1.000000 4.000000 1.000000 -60.708740 114.000000 230.000000 0.618578 0.658594 0.428503
-7.26000023 9.89999962 -0.86000001 193 195 61 97.000000 1.000000 4.000000 1.000000 -60.708740 114.000000 230.000000 0.313167 0.944787 -0.096461
-7.26000023 9.88000011 -0.91000003 193 195 61 97.000000 1.000000 4.000000 1.000000 -60.708740 114.000000 230.000000 0.265966 0.963976 0.003610
-7.23999977 9.89000034 -0.98000002 193 195 61 97.000000 1.000000 4.000000 1.000000 -60.708740 114.000000 230.000000 0.316336 0.943714 -0.096621
-7.23999977 9.86999989 -0.95999998 193 195 61 97.000000 1.000000 4.000000 1.000000 -60.708740 114.000000 230.000000 0.257116 0.965722 -0.035676
-7.23999977 9.86999989 -0.97000003 193 195 61 97.000000 1.000000 4.000000 1.000000 -60.708740 114.000000 230.000000 0.227109 0.921290 0.315667
-7.23999977 9.89000034 -0.99000001 193 195 61 97.000000 1.000000 4.000000 1.000000 -60.708740 114.000000 230.000000 0.307617 0.946616 -0.096378
-7.25000000 9.86999989 -0.99000001 193 195 61 97.000000 1.000000 4.000000 1.000000 -60.708740 114.000000 230.000000 0.310827 0.950099 -0.026427
-7.28999996 9.93000031 -0.95999998 193 195 61 97.000000 1.000000 4.000000 1.000000 -60.708740 114.000000 230.000000 0.442587 0.871762 0.210117
-7.28999996 9.89000034 -0.98000002 193 195 61 97.000000 1.000000 4.000000 1.000000 -60.708740 114.000000 230.000000 0.395264 0.915987 -0.068800
-7.26000023 9.89000034 -1.00000000 193 195 61 97.000000 1.000000 4.000000 1.000000 -60.708740 114.000000 230.000000 0.688542 0.588994 0.423080
-7.13999987 9.81000042 -0.69999999 193 195 61 97.000000 1.000000 4.000000 1.000000 -60.708740 114.000000 230.000000 0.217585 0.901005 0.375297
-7.15999985 9.81999969 -0.70999998 193 195 61 97.000000 1.000000 4.000000 1.000000 -60.708740 114.000000 230.000000 0.536274 0.689973 0.486155
-7.15000010 9.81000042 -0.70999998 193 195 61 97.000000 1.000000 4.000000 1.000000 -60.708740 114.000000 230.000000 0.057397 0.919688 0.388431
-7.15999985 9.81000042 -0.69999999 193 195 61 97.000000 1.000000 4.000000 1.000000 -60.708740 114.000000 230.000000 0.106098 0.974853 0.195969
-7.19999981 9.84000015 -0.73000002 193 195 61 97.000000 1.000000 4.000000 1.000000 -60.708740 114.000000 230.000000 0.278557 0.847982 0.450923
-7.19999981 9.84000015 -0.73000002 193 195 61 97.000000 1.000000 4.000000 1.000000 -60.708740 114.000000 230.000000 0.278557 0.847982 0.450923
-7.15000010 9.81000042 -0.77999997 193 195 61 97.000000 1.000000 4.000000 1.000000 -60.708740 114.000000 230.000000 0.433070 0.769720 0.469022
-7.17999983 9.84000015 -0.77999997 193 195 61 97.000000 1.000000 4.000000 1.000000 -60.708740 114.000000 230.000000 0.070899 0.989105 0.129014
-7.19999981 9.84000015 -0.88000000 193 195 61 97.000000 1.000000 4.000000 1.000000 -60.708740 114.000000 230.000000 0.425290 0.807248 0.409241
-7.21000004 9.85000038 -0.89999998 193 195 61 97.000000 1.000000 4.000000 1.000000 -60.708740 114.000000 230.000000 0.348714 0.807297 0.476098
-7.19000006 9.82999992 -0.86000001 193 195 61 97.000000 1.000000 4.000000 1.000000 -60.708740 114.000000 230.000000 0.128492 0.991695 0.005491
-7.19000006 9.84000015 -0.88999999 193 195 61 97.000000 1.000000 4.000000 1.000000 -60.708740 114.000000 230.000000 0.367373 0.834079 0.411521
-7.17000008 9.81999969 -0.99000001 193 195 61 97.000000 1.000000 4.000000 1.000000 -60.708740 114.000000 230.000000 0.084574 0.927629 0.363802
-7.17999983 9.85000038 -0.95999998 193 195 61 97.000000 1.000000 4.000000 1.000000 -60.708740 114.000000 230.000000 0.111763 0.992317 0.053059
-7.17999983 9.85000038 -0.95999998 193 195 61 97.000000 1.000000 4.000000 1.000000 -60.708740 114.000000 230.000000 0.111763 0.992317 0.053059
-7.21000004 9.85999966 -1.00999999 193 195 61 97.000000 1.000000 4.000000 1.000000 -60.708740 114.000000 230.000000 0.313073 0.897675 0.310106
-7.21000004 9.85999966 -1.00999999 193 195 61 97.000000 1.000000 4.000000 1.000000 -60.708740 114.000000 230.000000 0.313073 0.897675 0.310106
-7.32999992 9.97000027 -0.70999998 193 195 61 97.000000 1.000000 4.000000 1.000000 -60.708740 114.000000 230.000000 0.535634 0.786763 0.306758
-7.34000015 9.97999954 -0.72000003 193 195 61 97.000000 1.000000 4.000000 1.000000 -60.708740 114.000000 230.000000 0.667948 0.742324 0.052921
-7.32999992 9.97000027 -0.70999998 193 195 61 97.000000 1.000000 4.000000 1.000000 -60.708740 114.000000 230.000000 0.535634 0.786763 0.306758
-7.32999992 9.97000027 -0.70999998 193 195 61 97.000000 1.000000 4.000000 1.000000 -60.708740 114.000000 230.000000 0.535634 0.786763 0.306758
-7.34000015 9.97999954 -0.76999998 193 195 61 97.000000 1.000000 4.000000 1.000000 -60.708740 114.000000 230.000000 0.583578 0.798501 0.147760
-7.34000015 9.94999981 -0.74000001 193 195 61 97.000000 1.000000 4.000000 1.000000 -60.708740 114.000000 230.000000 0.674957 0.551019 0.490725
-7.34000015 9.98999977 -0.74000001 193 195 61 97.000000 1.000000 4.000000 1.000000 -60.708740 114.000000 230.000000 0.725356 0.546909 0.418030
-7.36999989 10.00000000 -0.69999999 193 195 61 97.000000 1.000000 4.000000 1.000000 -60.708740 114.000000 230.000000 0.709315 0.688142 -0.152752
-7.38000011 10.02999973 -0.73000002 193 195 61 97.000000 1.000000 4.000000 1.000000 -60.708740 114.000000 230.000000 0.773215 0.421606 0.473696
-7.36000013 10.00000000 -0.69999999 193 195 61 97.000000 1.000000 4.000000 1.000000 -60.708740 114.000000 230.000000 0.616741 0.782173 -0.088520
-7.36000013 10.00000000 -0.72000003 193 195 61 97.000000 1.000000 4.000000 1.000000 -60.708740 114.000000 230.000000 0.730751 0.667469 0.143137
-7.36000013 9.97999954 -0.70999998 193 195 61 97.000000 1.000000 4.000000 1.000000 -60.708740 114.000000 230.000000 0.692076 0.710013 0.130045
-7.34999990 9.97999954 -0.70999998 193 195 61 97.000000 1.000000 4.000000 1.000000 -60.708740 114.000000 230.000000 0.758570 0.517133 0.396414
-7.34000015 9.97999954 -0.81000000 193 195 61 97.000000 1.000000 4.000000 1.000000 -60.708740 114.000000 230.000000 0.746697 0.492853 0.446699
-7.34000015 9.97999954 -0.81000000 193 195 61 97.000000 1.000000 4.000000 1.000000 -60.708740 114.000000 230.000000 0.746697 0.492853 0.446699
-7.32999992 9.94999981 -0.85000002 193 195 61 97.000000 1.000000 4.000000 1.000000 -60.708740 114.000000 230.000000 0.555196 0.777910 0.294301
-7.36999989 10.02999973 -0.81000000 193 195 61 97.000000 1.000000 4.000000 1.000000 -60.708740 114.000000 230.000000 0.838443 0.293999 0.458888
-7.36000013 10.01000023 -0.77999997 193 195 61 97.000000 1.000000 4.000000 1.000000 -60.708740 114.000000 230.000000 0.679964 0.733021 -0.018151
-7.38000011 10.02000046 -0.80000001 193 195 61 97.000000 1.000000 4.000000 1.000000 -60.708740 114.000000 230.000000 0.738510 0.668315 -0.089206
-7.36999989 10.00000000 -0.82999998 193 195 61 97.000000 1.000000 4.000000 1.000000 -60.708740 114.000000 230.000000 0.596689 0.802443 -0.006858
-7.38000011 10.01000023 -0.82999998 193 195 61 97.000000 1.000000 4.000000 1.000000 -60.708740 114.000000 230.000000 0.645040 0.635040 0.425027
-7.36000013 10.02000046 -0.83999997 193 195 61 97.000000 1.000000 4.000000 1.000000 -60.708740 114.000000 230.000000 0.651117 0.758946 0.006912
-7.36999989 10.02000046 -0.83999997 193 195 61 97.000000 1.000000 4.000000 1.000000 -60.708740 114.000000 230.000000 0.550476 0.817465 0.169493
-7.34999990 9.98999977 -0.81000000 193 195 61 97.000000 1.000000 4.000000 1.000000 -60.708740 114.000000 230.000000 0.526725 0.850035 -0.001347
-7.36000013 9.98999977 -0.80000001 193 195 61 97.000000 1.000000 4.000000 1.000000 -60.708740 114.000000 230.000000 0.721597 0.476088 0.502630
-7.34999990 9.98999977 -0.81999999 193 195 61 97.000000 1.000000 4.000000 1.000000 -60.708740 114.000000 230.000000 0.514633 0.855873 -0.051325
-7.32999992 9.93000031 -0.72000003 193 195 61 97.000000 1.000000 4.000000 1.000000 -60.708740 114.000000 230.000000 0.430428 0.868407 0.246174
-7.30999994 9.93000031 -0.74000001 193 195 61 97.000000 1.000000 4.000000 1.000000 -60.708740 114.000000 230.000000 0.606225 0.663006 0.439221
-7.30000019 9.93000031 -0.74000001 193 195 61 97.000000 1.000000 4.000000 1.000000 -60.708740 114.000000 230.000000 0.397020 0.871619 0.287497
-7.30000019 9.92000008 -0.74000001 193 195 61 97.000000 1.000000 4.000000 1.000000 -60.708740 114.000000 230.000000 0.677938 0.608321 0.412730
-7.30000019 9.92000008 -0.74000001 193 195 61 97.000000 1.000000 4.000000 1.000000 -60.708740 114.000000 230.000000 0.677938 0.608321 0.412730
-7.30000019 9.90999985 -0.79000002 193 195 61 97.000000 1.000000 4.000000 1.000000 -60.708740 114.000000 230.000000 0.498092 0.808015 0.314667
-7.38999987 10.02000046 -0.81999999 193 195 61 97.000000 1.000000 4.000000 1.000000 -60.708740 114.000000 230.000000 0.744881 0.622564 -0.239930
-7.38999987 10.02000046 -0.81999999 193 195 61 97.000000 1.000000 4.000000 1.000000 -60.708740 114.000000 230.000000 0.744881 0.622564 -0.239930
-7.38999987 10.00000000 -0.81999999 193 195 61 97.000000 1.000000 4.000000 1.000000 -60.708740 114.000000 230.000000 0.559390 0.828877 0.006805
-7.34000015 9.97999954 -0.89999998 193 195 61 97.000000 1.000000 4.000000 1.000000 -60.708740 114.000000 230.000000 0.505467 0.760654 0.407318
-7.30999994 9.97000027 -0.88999999 193 195 61 97.000000 1.000000 4.000000 1.000000 -60.708740 114.000000 230.000000 0.595397 0.776939 -0.204619
-7.34000015 9.97000027 -0.94000000 193 195 61 97.000000 1.000000 4.000000 1.000000 -60.708740 114.000000 230.000000 0.675691 0.678901 0.287289
-7.30999994 9.97000027 -0.93000001 193 195 61 97.000000 1.000000 4.000000 1.000000 -60.708740 114.000000 230.000000 0.528659 0.831178 -0.172226
-7.34000015 9.97999954 -0.94000000 193 195 61 97.000000 1.000000 4.000000 1.000000 -60.708740 114.000000 230.000000 0.742440 0.583923 0.328356
-7.32999992 9.94999981 -0.92000002 193 195 61 97.000000 1.000000 4.000000 1.000000 -60.708740 114.000000 230.000000 0.646052 0.639409 0.416861
-7.30000019 9.96000004 -0.92000002 193 195 61 97.000000 1.000000 4.000000 1.000000 -60.708740 114.000000 230.000000 0.643368 0.666404 0.376806
-7.36999989 10.00000000 -0.87000000 193 195 61 97.000000 1.000000 4.000000 1.000000 -60.708740 114.000000 230.000000 0.695215 0.695215 -0.182628
-7.36999989 10.00000000 -0.87000000 193 195 61 97.000000 1.000000 4.000000 1.000000 -60.708740 114.000000 230.000000 0.695215 0.695215 -0.182628
-7.38000011 10.02999973 -0.91000003 193 195 61 97.000000 1.000000 4.000000 1.000000 -60.708740 114.000000 230.000000 0.677409 0.696270 -0.237329
-7.36000013 9.97999954 -0.91000003 193 195 61 97.000000 1.000000 4.000000 1.000000 -60.708740 114.000000 230.000000 0.540932 0.829821 -0.137075
-7.34999990 9.97999954 -0.94000000 193 195 61 97.000000 1.000000 4.000000 1.000000 -60.708740 114.000000 230.000000 0.508301 0.779394 0.366299
-7.34000015 9.96000004 -0.95999998 193 195 61 97.000000 1.000000 4.000000 1.000000 -60.708740 114.000000 230.000000 0.638678 0.703354 0.312063
-7.34000015 9.97000027 -0.98000002 193 195 61 97.000000 1.000000 4.000000 1.000000 -60.708740 114.000000 230.000000 0.588424 0.719549 0.368790
-7.34000015 9.96000004 -0.95999998 193 195 61 97.000000 1.000000 4.000000 1.000000 -60.708740 114.000000 230.000000 0.638678 0.703354 0.312063
-7.34000015 9.96000004 -0.97000003 193 195 61 97.000000 1.000000 4.000000 1.000000 -60.708740 114.000000 230.000000 0.659438 0.694736 0.287200
-7.32999992 9.94999981 -0.94999999 193 195 61 97.000000 1.000000 4.000000 1.000000 -60.708740 114.000000 230.000000 0.600100 0.757606 -0.256736
-7.34000015 9.97000027 -1.00999999 193 195 61 97.000000 1.000000 4.000000 1.000000 -60.708740 114.000000 230.000000 0.531081 0.798986 0.282088
-7.32999992 9.97000027 -1.01999998 193 195 61 97.000000 1.000000 4.000000 1.000000 -60.708740 114.000000 230.000000 0.497247 0.805445 0.322496
-7.38000011 10.01000023 -0.98000002 193 195 61 97.000000 1.000000 4.000000 1.000000 -60.708740 114.000000 230.000000 0.713576 0.595467 0.369091
-7.36000013 10.00000000 -0.98000002 193 195 61 97.000000 1.000000 4.000000 1.000000 -60.708740 114.000000 230.000000 0.589274 0.669402 0.452389
-7.34999990 10.01000023 -0.98000002 193 195 61 97.000000 1.000000 4.000000 1.000000 -60.708740 114.000000 230.000000 0.570924 0.790629 0.221252
-7.36999989 10.01000023 -1.01999998 193 195 61 97.000000 1.000000 4.000000 1.000000 -60.708740 114.000000 230.000000 0.687197 0.693430 0.216599
-7.36000013 9.98999977 -0.94999999 193 195 61 97.000000 1.000000 4.000000 1.000000 -60.708740 114.000000 230.000000 0.712264 0.549556 0.436656
-7.34999990 9.94999981 -0.94999999 193 195 61 97.000000 1.000000 4.000000 1.000000 -60.708740 114.000000 230.000000 0.774851 0.442073 0.451860
-7.34999990 9.97999954 -1.01999998 193 195 61 97.000000 1.000000 4.000000 1.000000 -60.708740 114.000000 230.000000 0.660089 0.701445 -0.268808
-7.30999994 9.92000008 -0.88000000 193 195 61 97.000000 1.000000 4.000000 1.000000 -60.708740 114.000000 230.000000 0.480050 0.870357 0.109685
-7.30000019 9.92000008 -0.87000000 193 195 61 97.000000 1.000000 4.000000 1.000000 -60.708740 114.000000 230.000000 0.620512 0.699100 0.355280
-7.30000019 9.93999958 -0.94000000 193 195 61 97.000000 1.000000 4.000000 1.000000 -60.708740 114.000000 230.000000 0.467216 0.879713 0.088392
-7.30999994 9.92000008 -0.91000003 193 195 61 97.000000 1.000000 4.000000 1.000000 -60.708740 114.000000 230.000000 0.435100 0.898665 -0.055574
-7.30000019 9.89999962 -0.86000001 193 195 61 97.000000 1.000000 4.000000 1.000000 -60.708740 114.000000 230.000000 0.564691 0.645602 0.514122
-7.30000019 9.90999985 -0.94999999 193 195 61 97.000000 1.000000 4.000000 1.000000 -60.708740 114.000000 230.000000 0.490705 0.868170 0.074095
-7.32000017 9.93999958 -1.00999999 193 195 61 97.000000 1.000000 4.000000 1.000000 -60.708740 114.000000 230.000000 0.611849 0.747816 0.257704
-7.30000019 9.93000031 -1.00000000 193 195 61 97.000000 1.000000 4.000000 1.000000 -60.708740 114.000000 230.000000 0.438172 0.874859 0.206461
-7.32000017 9.93999958 -1.00999999 193 195 61 97.000000 1.000000 4.000000 1.000000 -60.708740 114.000000 230.000000 0.611849 0.747816 0.257704
-7.32000017 9.90999985 -1.01999998 193 195 61 97.000000 1.000000 4.000000 1.000000 -60.708740 114.000000 230.000000 0.454467 0.875324 0.165128
-7.38999987 10.02000046 -0.98000002 193 195 61 97.000000 1.000000 4.000000 1.000000 -60.708740 114.000000 230.000000 0.577530 0.812555 -0.078819
-7.38999987 10.02999973 -0.97000003 193 195 61 97.000000 1.000000 4.000000 1.000000 -60.708740 114.000000 230.000000 0.662050 0.734438 -0.149301
-7.38999987 10.01000023 -1.00999999 193 195 61 97.000000 1.000000 4.000000 1.000000 -60.708740 114.000000 230.000000 0.705858 0.696904 0.126845
-7.38999987 10.02000046 -0.99000001 193 195 61 97.000000 1.000000 4.000000 1.000000 -60.708740 114.000000 230.000000 0.580470 0.811518 -0.067032
-7.25000000 9.90999985 -1.02999997 193 195 61 97.000000 1.000000 4.000000 1.000000 -60.708740 114.000000 230.000000 0.381302 0.923773 0.035379
-7.23999977 9.89000034 -1.05999994 193 195 61 97.000000 1.000000 4.000000 1.000000 -60.708740 114.000000 230.000000 0.407820 0.836111 0.366881
-7.25000000 9.89999962 -1.05999994 193 195 61 97.000000 1.000000 4.000000 1.000000 -60.708740 114.000000 230.000000 0.428901 0.865379 0.259159
-7.23000002 9.88000011 -1.04999995 193 195 61 97.000000 1.000000 4.000000 1.000000 -60.708740 114.000000 230.000000 0.256042 0.905657 0.337976
-7.23999977 9.89000034 -1.11000001 193 195 61 97.000000 1.000000 4.000000 1.000000 -60.708740 114.000000 230.000000 0.370195 0.845045 0.385816
-7.28999996 9.90999985 -1.03999996 193 195 61 97.000000 1.000000 4.000000 1.000000 -60.708740 114.000000 230.000000 0.491467 0.736373 0.464990
-7.26000023 9.89000034 -1.04999995 193 195 61 97.000000 1.000000 4.000000 1.000000 -60.708740 114.000000 230.000000 0.569727 0.660480 0.489058
-7.26000023 9.88000011 -1.03999996 193 195 61 97.000000 1.000000 4.000000 1.000000 -60.708740 114.000000 230.000000 0.368849 0.924164 0.099358
-7.26999998 9.89000034 -1.10000002 193 195 61 97.000000 1.000000 4.000000 1.000000 -60.708740 114.000000 230.000000 0.437577 0.816280 0.377112
-7.26999998 9.89000034 -1.11000001 193 195 61 97.000000 1.000000 4.000000 1.000000 -60.708740 114.000000 230.000000 0.245522 0.956874 0.155276
-7.28000021 9.86999989 -1.09000003 193 195 61 97.000000 1.000000 4.000000 1.000000 -60.708740 114.000000 230.000000 0.673869 0.570197 0.469869
-7.26999998 9.89000034 -1.10000002 193 195 61 97.000000 1.000000 4.000000 1.000000 -60.708740 114.000000 230.000000 0.437577 0.816280 0.377112
-7.28999996 9.89000034 -1.10000002 193 195 61 97.000000 1.000000 4.000000 1.000000 -60.708740 114.000000 230.000000 0.422187 0.889349 0.175548
-7.25000000 9.88000011 -1.14999998 193 195 61 97.000000 1.000000 4.000000 1.000000 -60.708740 114.000000 230.000000 0.349270 0.823392 0.447255
-7.25000000 9.88000011 -1.14999998 193 195 61 97.000000 1.000000 4.000000 1.000000 -60.708740 114.000000 230.000000 0.349270 0.823392 0.447255
-7.28999996 9.92000008 -1.20000005 193 195 61 97.000000 1.000000 4.000000 1.000000 -60.708740 114.000000 230.000000 0.438084 0.891663 -0.114099
-7.28999996 9.86999989 -1.26999998 193 195 61 97.000000 1.000000 4.000000 1.000000 -60.708740 114.000000 230.000000 0.307443 0.950395 0.047201
-7.15999985 9.82999992 -1.09000003 193 195 61 97.000000 1.000000 4.000000 1.000000 -60.708740 114.000000 230.000000 0.069002 0.979345 0.190058
-7.17000008 9.81999969 -1.08000004 193 195 61 97.000000 1.000000 4.000000 1.000000 -60.708740 114.000000 230.000000 0.257634 0.831526 0.492128
-7.17999983 9.85000038 -1.04999995 193 195 61 97.000000 1.000000 4.000000 1.000000 -60.708740 114.000000 230.000000 0.307027 0.840038 0.447293
-7.19000006 9.85000038 -1.10000002 193 195 61 97.000000 1.000000 4.000000 1.000000 -60.708740 114.000000 230.000000 0.091764 0.957711 0.272708
-7.17000008 9.82999992 -1.19000006 193 195 61 97.000000 1.000000 4.000000 1.000000 -60.708740 114.000000 230.000000 0.420338 0.780627 0.462534
-7.17000008 9.82999992 -1.19000006 193 195 61 97.000000 1.000000 4.000000 1.000000 -60.708740 114.000000 230.000000 0.420338 0.780627 0.462534
-7.15999985 9.81999969 -1.12000000 193 195 61 97.000000 1.000000 4.000000 1.000000 -60.708740 114.000000 230.000000 0.414110 0.761111 0.499223
-7.15999985 9.81999969 -1.19000006 193 195 61 97.000000 1.000000 4.000000 1.000000 -60.708740 114.000000 230.000000 0.411984 0.790040 0.453990
-7.15999985 9.81999969 -1.19000006 193 195 61 97.000000 1.000000 4.000000 1.000000 -60.708740 114.000000 230.000000 0.411984 0.790040 0.453990
-7.25000000 9.85999966 -1.11000001 193 195 61 97.000000 1.000000 4.000000 1.000000 -60.708740 114.000000 230.000000 0.183640 0.982879 -0.015015
-7.23999977 9.85999966 -1.12000000 193 195 61 97.000000 1.000000 4.000000 1.000000 -60.708740 114.000000 230.000000 0.177014 0.982485 0.058213
-7.34000015 9.94999981 -1.07000005 193 195 61 97.000000 1.000000 4.000000 1.000000 -60.708740 114.000000 230.000000 0.615180 0.733422 -0.289214
-7.34000015 9.96000004 -1.11000001 193 195 61 97.000000 1.000000 4.000000 1.000000 -60.708740 114.000000 230.000000 0.589620 0.805577 0.058252
-7.38000011 10.01000023 -1.05999994 193 195 61 97.000000 1.000000 4.000000 1.000000 -60.708740 114.000000 230.000000 0.701855 0.692720 0.165948
-7.38000011 10.01000023 -1.04999995 193 195 61 97.000000 1.000000 4.000000 1.000000 -60.708740 114.000000 230.000000 0.637595 0.627555 0.446819
-7.38000011 10.01000023 -1.05999994 193 195 61 97.000000 1.000000 4.000000 1.000000 -60.708740 114.000000 230.000000 0.701855 0.692720 0.165948
-7.36000013 9.97999954 -1.04999995 193 195 61 97.000000 1.000000 4.000000 1.000000 -60.708740 114.000000 230.000000 0.577904 0.787490 0.214210
-7.36999989 9.97999954 -1.05999994 193 195 61 97.000000 1.000000 4.000000 1.000000 -60.708740 114.000000 230.000000 0.548751 0.822382 -0.150200
-7.38000011 9.98999977 -1.03999996 193 195 61 97.000000 1.000000 4.000000 1.000000 -60.708740 114.000000 230.000000 0.648656 0.706315 0.283487
-7.38000011 9.98999977 -1.03999996 193 195 61 97.000000 1.000000 4.000000 1.000000 -60.708740 114.000000 230.000000 0.648656 0.706315 0.283487
-7.36000013 9.97999954 -1.04999995 193 195 61 97.000000 1.000000 4.000000 1.000000 -60.708740 114.000000 230.000000 0.577904 0.787490 0.214210
-7.34999990 9.97999954 -1.08000004 193 195 61 97.000000 1.000000 4.000000 1.000000 -60.708740 114.000000 230.000000 0.703083 0.608028 0.368750
-7.34999990 9.97999954 -1.08000004 193 195 61 97.000000 1.000000 4.000000 1.000000 -60.708740 114.000000 230.000000 0.703083 0.608028 0.368750
-7.34000015 9.97999954 -1.13999999 193 195 61 97.000000 1.000000 4.000000 1.000000 -60.708740 114.000000 230.000000 0.571165 0.810257 0.131353
-7.34000015 9.97000027 -1.13999999 193 195 61 97.000000 1.000000 4.000000 1.000000 -60.708740 114.000000 230.000000 0.620803 0.711573 0.329042
-7.36999989 9.97999954 -1.13000000 193 195 61 97.000000 1.000000 4.000000 1.000000 -60.708740 114.000000 230.000000 0.471188 0.881271 0.036663
-7.36999989 9.96000004 -1.14999998 193 195 61 97.000000 1.000000 4.000000 1.000000 -60.708740 114.000000 230.000000 0.764901 0.443872 0.466802
-7.36000013 9.94999981 -1.14999998 193 195 61 97.000000 1.000000 4.000000 1.000000 -60.708740 114.000000 230.000000 0.460856 0.873736 0.155557
-7.36000013 9.96000004 -1.15999997 193 195 61 97.000000 1.000000 4.000000 1.000000 -60.708740 114.000000 230.000000 0.727287 0.563114 0.392374
-7.30000019 9.92000008 -1.03999996 193 195 61 97.000000 1.000000 4.000000 1.000000 -60.708740 114.000000 230.000000 0.798118 0.443399 0.407927
-7.30999994 9.93000031 -1.07000005 193 195 61 97.000000 1.000000 4.000000 1.000000 -60.708740 114.000000 230.000000 0.505032 0.860374 -0.068550
-7.30999994 9.93000031 -1.09000003 193 195 61 97.000000 1.000000 4.000000 1.000000 -60.708740 114.000000 230.000000 0.726893 0.555471 0.403829
-7.30000019 9.93000031 -1.10000002 193 195 61 97.000000 1.000000 4.000000 1.000000 -60.708740 114.000000 230.000000 0.544957 0.788213 0.285905
-7.30000019 9.89999962 -1.02999997 193 195 61 97.000000 1.000000 4.000000 1.000000 -60.708740 114.000000 230.000000 0.477325 0.806184 0.349612
-7.32999992 9.92000008 -1.19000006 193 195 61 97.000000 1.000000 4.000000 1.000000 -60.708740 114.000000 230.000000 0.473197 0.865818 -0.162616
-7.38999987 10.02000046 -1.05999994 193 195 61 97.000000 1.000000 4.000000 1.000000 -60.708740 114.000000 230.000000 0.700848 0.672499 0.237816
-7.38999987 10.01000023 -1.04999995 193 195 61 97.000000 1.000000 4.000000 1.000000 -60.708740 114.000000 230.000000 0.569269 0.738908 0.360483
-7.38999987 10.02000046 -1.04999995 193 195 61 97.000000 1.000000 4.000000 1.000000 -60.708740 114.000000 230.000000 0.723384 0.555309 0.410302
-7.38999987 10.01000023 -1.03999996 193 195 61 97.000000 1.000000 4.000000 1.000000 -60.708740 114.000000 230.000000 0.695389 0.692306 0.192735
-7.44999981 10.02999973 -1.15999997 193 195 61 97.000000 1.000000 4.000000 1.000000 -60.708740 114.000000 230.000000 0.588363 0.793010 0.158000
-7.40000010 9.92000008 -1.17999995 193 195 61 97.000000 1.000000 4.000000 1.000000 -60.708740 114.000000 230.000000 0.720002 0.503835 0.477230
-7.38000011 9.97999954 -1.22000003 193 195 61 97.000000 1.000000 4.000000 1.000000 -60.708740 114.000000 230.000000 0.464599 0.884236 -0.047686
-7.38999987 9.97999954 -1.22000003 193 195 61 97.000000 1.000000 4.000000 1.000000 -60.708740 114.000000 230.000000 0.529746 0.846759 -0.048664
-7.46999979 10.30000019 -1.01999998 193 195 61 97.000000 1.000000 4.000000 1.000000 -60.708740 114.000000 230.000000 0.905527 -0.036008 0.422757
-7.46999979 10.30000019 -1.00999999 193 195 61 97.000000 1.000000 4.000000 1.000000 -60.708740 114.000000 230.000000 0.967254 0.127169 -0.219655
-7.48000002 10.25000000 -0.88999999 193 195 61 97.000000 1.000000 4.000000 1.000000 -60.708740 114.000000 230.000000 0.958658 0.229388 0.168395
-7.46999979 10.22999954 -0.91000003 193 195 61 97.000000 1.000000 4.000000 1.000000 -60.708740 114.000000 230.000000 0.907609 0.234551 -0.348184
-7.46999979 10.27000046 -0.97000003 193 195 61 97.000000 1.000000 4.000000 1.000000 -60.708740 114.000000 230.000000 0.882653 0.425854 -0.198928
-7.48999977 10.27000046 -1.00000000 193 195 61 97.000000 1.000000 4.000000 1.000000 -60.708740 114.000000 230.000000 0.920245 0.300049 -0.251237
-7.48999977 10.27000046 -1.00000000 193 195 61 97.000000 1.000000 4.000000 1.000000 -60.708740 114.000000 230.000000 0.920245 0.300049 -0.251237
-7.48999977 10.27999973 -1.00000000 193 195 61 97.000000 1.000000 4.000000 1.000000 -60.708740 114.000000 230.000000 0.920305 0.391097 0.009035
-7.48999977 10.22999954 -1.00000000 193 195 61 97.000000 1.000000 4.000000 1.000000 -60.708740 114.000000 230.000000 0.951799 0.263719 -0.156625
-7.48999977 10.22999954 -0.99000001 193 195 61 97.000000 1.000000 4.000000 1.000000 -60.708740 114.000000 230.000000 0.932481 0.043038 0.358646
-7.48999977 10.21000004 -0.99000001 193 195 61 97.000000 1.000000 4.000000 1.000000 -60.708740 114.000000 230.000000 0.906550 0.335380 0.256295
-7.48999977 10.22000027 -1.00999999 193 195 61 97.000000 1.000000 4.000000 1.000000 -60.708740 114.000000 230.000000 0.893260 0.440378 0.090298
-7.48999977 10.17000008 -0.98000002 193 195 61 97.000000 1.000000 4.000000 1.000000 -60.708740 114.000000 230.000000 0.885520 0.305196 -0.350299
-7.50000000 10.18999958 -0.95999998 193 195 61 97.000000 1.000000 4.000000 1.000000 -60.708740 114.000000 230.000000 0.890306 0.453908 -0.036367
-7.48000002 10.18999958 -0.95999998 193 195 61 97.000000 1.000000 4.000000 1.000000 -60.708740 114.000000 230.000000 0.852026 0.443668 -0.277868
-7.48999977 10.18999958 -0.99000001 193 195 61 97.000000 1.000000 4.000000 1.000000 -60.708740 114.000000 230.000000 0.923773 0.381302 -0.035379
-7.50000000 10.17000008 -1.01999998 193 195 61 97.000000 1.000000 4.000000 1.000000 -60.708740 114.000000 230.000000 0.853089 0.416481 -0.314296
-7.48000002 10.18000031 -0.99000001 193 195 61 97.000000 1.000000 4.000000 1.000000 -60.708740 114.000000 230.000000 0.846511 0.532286 -0.009481
-7.48000002 10.14999962 -0.98000002 193 195 61 97.000000 1.000000 4.000000 1.000000 -60.708740 114.000000 230.000000 0.914947 0.400872 0.046613
-7.48000002 10.14999962 -0.99000001 193 195 61 97.000000 1.000000 4.000000 1.000000 -60.708740 114.000000 230.000000 0.885638 0.461298 0.053385
-7.48999977 10.35000038 -1.05999994 193 195 61 97.000000 1.000000 4.000000 1.000000 -60.708740 114.000000 230.000000 0.919923 0.336973 0.200478
-7.51000023 10.32999992 -1.10000002 193 195 61 97.000000 1.000000 4.000000 1.000000 -60.708740 114.000000 230.000000 0.938347 0.037328 0.343674
-7.48000002 10.22000027 -1.05999994 193 195 61 97.000000 1.000000 4.000000 1.000000 -60.708740 114.000000 230.000000 0.892055 0.449422 -0.047522
-7.50000000 10.23999977 -1.09000003 193 195 61 97.000000 1.000000 4.000000 1.000000 -60.708740 114.000000 230.000000 0.905004 0.281066 -0.319327
-7.51999998 10.21000004 -1.04999995 193 195 61 97.000000 1.000000 4.000000 1.000000 -60.708740 114.000000 230.000000 0.917290 0.307689 -0.252796
-7.55000019 10.26000023 -1.12000000 193 195 61 97.000000 1.000000 4.000000 1.000000 -60.708740 114.000000 230.000000 0.941893 0.298516 0.154029
-7.51000023 10.23999977 -1.13000000 193 195 61 97.000000 1.000000 4.000000 1.000000 -60.708740 114.000000 230.000000 0.920694 0.179613 -0.346498
-7.53999996 10.22999954 -1.13000000 193 195 61 97.000000 1.000000 4.000000 1.000000 -60.708740 114.000000 230.000000 0.861790 0.425557 -0.276078
-7.53000021 10.22999954 -1.12000000 193 195 61 97.000000 1.000000 4.000000 1.000000 -60.708740 114.000000 230.000000 0.926115 0.364751 -0.096273
-7.53999996 10.22999954 -1.14999998 193 195 61 97.000000 1.000000 4.000000 1.000000 -60.708740 114.000000 230.000000 0.842055 0.536617 0.054642
-7.55000019 10.21000004 -1.16999996 193 195 61 97.000000 1.000000 4.000000 1.000000 -60.708740 114.000000 230.000000 0.870022 0.431254 -0.238918
-7.48999977 10.17000008 -1.02999997 193 195 61 97.000000 1.000000 4.000000 1.000000 -60.708740 114.000000 230.000000 0.842393 0.466627 -0.269504
-7.50000000 10.17000008 -1.02999997 193 195 61 97.000000 1.000000 4.000000 1.000000 -60.708740 114.000000 230.000000 0.890692 0.451484 -0.053196
-7.48999977 10.15999985 -1.09000003 193 195 61 97.000000 1.000000 4.000000 1.000000 -60.708740 114.000000 230.000000 0.885644 0.383829 -0.261362
-7.48999977 10.18000031 -1.07000005 193 195 61 97.000000 1.000000 4.000000 1.000000 -60.708740 114.000000 230.000000 0.868013 0.288321 0.404259
-7.48999977 10.14999962 -1.05999994 193 195 61 97.000000 1.000000 4.000000 1.000000 -60.708740 114.000000 230.000000 0.768364 0.589236 0.249836
-7.48000002 10.14000034 -1.05999994 193 195 61 97.000000 1.000000 4.000000 1.000000 -60.708740 114.000000 230.000000 0.832807 0.547110 -0.084281
-7.48000002 10.14000034 -1.04999995 193 195 61 97.000000 1.000000 4.000000 1.000000 -60.708740 114.000000 230.000000 0.759291 0.646910 -0.070598
-7.48999977 10.14999962 -1.05999994 193 195 61 97.000000 1.000000 4.000000 1.000000 -60.708740 114.000000 230.000000 0.768364 0.589236 0.249836
-7.48000002 10.14000034 -1.04999995 193 195 61 97.000000 1.000000 4.000000 1.000000 -60.708740 114.000000 230.000000 0.759291 0.646910 -0.070598
-7.48999977 10.14000034 -1.11000001 193 195 61 97.000000 1.000000 4.000000 1.000000 -60.708740 114.000000 230.000000 0.858976 0.390163 0.331562
-7.46999979 10.11999989 -1.10000002 193 195 61 97.000000 1.000000 4.000000 1.000000 -60.708740 114.000000 230.000000 0.885994 0.452153 0.102826
-7.48000002 10.13000011 -1.08000004 193 195 61 97.000000 1.000000 4.000000 1.000000 -60.708740 114.000000 230.000000 0.826206 0.447067 0.342804
-7.48000002 10.14999962 -1.08000004 193 195 61 97.000000 1.000000 4.000000 1.000000 -60.708740 114.000000 230.000000 0.895990 0.408318 -0.174581
-7.48000002 10.14000034 -1.09000003 193 195 61 97.000000 1.000000 4.000000 1.000000 -60.708740 114.000000 230.000000 0.819719 0.572567 0.015104
-7.48000002 10.14000034 -1.08000004 193 195 61 97.000000 1.000000 4.000000 1.000000 -60.708740 114.000000 230.000000 0.838366 0.539458 0.078285
-7.48000002 10.14000034 -1.09000003 193 195 61 97.000000 1.000000 4.000000 1.000000 -60.708740 114.000000 230.000000 0.819719 0.572567 0.015104
-7.46999979 10.11999989 -1.08000004 193 195 61 97.000000 1.000000 4.000000 1.000000 -60.708740 114.000000 230.000000 0.781306 0.620153 -0.070505
-7.46999979 10.11999989 -1.08000004 193 195 61 97.000000 1.000000 4.000000 1.000000 -60.708740 114.000000 230.000000 0.781306 0.620153 -0.070505
-7.48000002 10.13000011 -1.08000004 193 195 61 97.000000 1.000000 4.000000 1.000000 -60.708740 114.000000 230.000000 0.826206 0.447067 0.342804
-7.50000000 10.13000011 -1.10000002 193 195 61 97.000000 1.000000 4.000000 1.000000 -60.708740 114.000000 230.000000 0.867921 0.475394 -0.143927
-7.51000023 10.19999981 -1.05999994 193 195 61 97.000000 1.000000 4.000000 1.000000 -60.708740 114.000000 230.000000 0.887991 0.458187 0.039196
-7.51000023 10.18999958 -1.04999995 193 195 61 97.000000 1.000000 4.000000 1.000000 -60.708740 114.000000 230.000000 0.933381 0.350184 -0.078558
-7.51000023 10.18999958 -1.05999994 193 195 61 97.000000 1.000000 4.000000 1.000000 -60.708740 114.000000 230.000000 0.853979 0.508355 -0.110888
-7.51000023 10.14999962 -1.08000004 193 195 61 97.000000 1.000000 4.000000 1.000000 -60.708740 114.000000 230.000000 0.780086 0.622638 0.061548
-7.48000002 10.17000008 -1.12000000 193 195 61 97.000000 1.000000 4.000000 1.000000 -60.708740 114.000000 230.000000 0.797081 0.603682 0.015196
-7.50000000 10.13000011 -1.14999998 193 195 61 97.000000 1.000000 4.000000 1.000000 -60.708740 114.000000 230.000000 0.835462 0.516330 -0.188167
-7.50000000 10.11999989 -1.14999998 193 195 61 97.000000 1.000000 4.000000 1.000000 -60.708740 114.000000 230.000000 0.807163 0.557870 -0.193050
-7.48999977 10.14000034 -1.12000000 193 195 61 97.000000 1.000000 4.000000 1.000000 -60.708740 114.000000 230.000000 0.800486 0.589754 -0.106829
-7.51000023 10.17000008 -1.12000000 193 195 61 97.000000 1.000000 4.000000 1.000000 -60.708740 114.000000 230.000000 0.860032 0.501804 -0.092400
-7.53000021 10.15999985 -1.19000006 193 195 61 97.000000 1.000000 4.000000 1.000000 -60.708740 114.000000 230.000000 0.898220 0.428980 0.095792
-7.53999996 10.18999958 -1.17999995 193 195 61 97.000000 1.000000 4.000000 1.000000 -60.708740 114.000000 230.000000 0.782789 0.601798 0.158368
-7.51999998 10.14999962 -1.12000000 193 195 61 97.000000 1.000000 4.000000 1.000000 -60.708740 114.000000 230.000000 0.823704 0.547652 -0.146931
-7.51000023 10.14000034 -1.14999998 193 195 61 97.000000 1.000000 4.000000 1.000000 -60.708740 114.000000 230.000000 0.833080 0.507158 -0.220835
-7.51999998 10.14999962 -1.12000000 193 195 61 97.000000 1.000000 4.000000 1.000000 -60.708740 114.000000 230.000000 0.823704 0.547652 -0.146931
-7.51000023 10.14999962 -1.15999997 193 195 61 97.000000 1.000000 4.000000 1.000000 -60.708740 114.000000 230.000000 0.787625 0.585748 -0.191171
-7.53000021 10.14999962 -1.17999995 193 195 61 97.000000 1.000000 4.000000 1.000000 -60.708740 114.000000 230.000000 0.894791 0.442629 0.058563
-7.51999998 10.14000034 -1.19000006 193 195 61 97.000000 1.000000 4.000000 1.000000 -60.708740 114.000000 230.000000 0.855274 0.374085 0.358563
-7.46999979 10.09000015 -1.11000001 193 195 61 97.000000 1.000000 4.000000 1.000000 -60.708740 114.000000 230.000000 0.905885 0.203716 0.371312
-7.48999977 10.10000038 -1.15999997 193 195 61 97.000000 1.000000 4.000000 1.000000 -60.708740 114.000000 230.000000 0.863649 0.417303 0.282788
-7.48999977 10.10999966 -1.16999996 193 195 61 97.000000 1.000000 4.000000 1.000000 -60.708740 114.000000 230.000000 0.767741 0.577784 0.277020
-7.48000002 10.10000038 -1.17999995 193 195 61 97.000000 1.000000 4.000000 1.000000 -60.708740 114.000000 230.000000 0.780730 0.624305 -0.026536
-7.48999977 10.09000015 -1.16999996 193 195 61 97.000000 1.000000 4.000000 1.000000 -60.708740 114.000000 230.000000 0.728999 0.620050 0.289997
-7.48000002 10.10000038 -1.17999995 193 195 61 97.000000 1.000000 4.000000 1.000000 -60.708740 114.000000 230.000000 0.780730 0.624305 -0.026536
-7.55999994 10.17000008 -1.17999995 193 195 61 97.000000 1.000000 4.000000 1.000000 -60.708740 114.000000 230.000000 0.920608 0.331533 0.206319
-7.55000019 10.18000031 -1.21000004 193 195 61 97.000000 1.000000 4.000000 1.000000 -60.708740 114.000000 230.000000 0.871868 0.374094 0.316071
-7.55000019 10.17000008 -1.20000005 193 195 61 97.000000 1.000000 4.000000 1.000000 -60.708740 114.000000 230.000000 0.846138 0.532753 -0.014988
-7.53999996 10.14000034 -1.21000004 193 195 61 97.000000 1.000000 4.000000 1.000000 -60.708740 114.000000 230.000000 0.843833 0.485014 -0.229583
-7.53999996 10.14000034 -1.21000004 193 195 61 97.000000 1.000000 4.000000 1.000000 -60.708740 114.000000 230.000000 0.843833 0.485014 -0.229583
-7.51999998 10.14999962 -1.20000005 193 195 61 97.000000 1.000000 4.000000 1.000000 -60.708740 114.000000 230.000000 0.834731 0.538583 0.114685
-7.51999998 10.14999962 -1.20000005 193 195 61 97.000000 1.000000 4.000000 1.000000 -60.708740 114.000000 230.000000 0.834731 0.538583 0.114685
-7.57000017 10.19999981 -1.21000004 193 195 61 97.000000 1.000000 4.000000 1.000000 -60.708740 114.000000 230.000000 0.849133 0.525654 0.051589
-6.69000006 10.89000034 -1.42999995 193 195 61 0.000000 0.000000 0.000000 0.000000 -60.708740 0.000000 230.000000 0.397641 0.917533 -0.003861
-6.69999981 10.92000008 -1.48000002 193 195 61 0.000000 0.000000 0.000000 0.000000 -60.708740 0.000000 230.000000 0.033741 0.995910 0.083809
-6.71000004 10.92000008 -1.49000001 193 195 61 0.000000 0.000000 0.000000 0.000000 -60.708740 0.000000 230.000000 0.282658 0.922584 0.262571
-6.69999981 10.92000008 -1.49000001 193 195 61 0.000000 0.000000 0.000000 0.000000 -60.708740 0.000000 230.000000 0.226829 0.954292 0.194616
-6.71000004 10.92000008 -1.50000000 193 195 61 0.000000 0.000000 0.000000 0.000000 -60.708740 0.000000 230.000000 0.349264 0.863160 0.364650
-6.69999981 10.92000008 -1.49000001 193 195 61 0.000000 0.000000 0.000000 0.000000 -60.708740 0.000000 230.000000 0.226829 0.954292 0.194616
-6.71000004 10.90999985 -1.45000005 193 195 61 0.000000 0.000000 0.000000 0.000000 -60.708740 0.000000 230.000000 0.085267 0.992505 0.087541
-6.71000004 10.90999985 -1.47000003 193 195 61 0.000000 0.000000 0.000000 0.000000 -60.708740 0.000000 230.000000 0.448164 0.787928 0.422278
-6.71000004 10.90999985 -1.47000003 193 195 61 0.000000 0.000000 0.000000 0.000000 -60.708740 0.000000 230.000000 0.448164 0.787928 0.422278
-6.71000004 10.90999985 -1.47000003 193 195 61 0.000000 0.000000 0.000000 0.000000 -60.708740 0.000000 230.000000 0.448164 0.787928 0.422278
-6.78999996 10.90999985 -1.41999996 193 195 61 0.000000 0.000000 0.000000 0.000000 -60.708740 0.000000 230.000000 0.472133 0.881404 -0.014712
-6.78999996 10.90999985 -1.41999996 193 195 61 0.000000 0.000000 0.000000 0.000000 -60.708740 0.000000 230.000000 0.472133 0.881404 -0.014712
-6.78000021 10.92000008 -1.38999999 193 195 61 0.000000 0.000000 0.000000 0.000000 -60.708740 0.000000 230.000000 0.091810 0.911247 0.401497
-6.78999996 10.92000008 -1.38999999 193 195 61 0.000000 0.000000 0.000000 0.000000 -60.708740 0.000000 230.000000 -0.142123 0.974736 0.172308
-6.71999979 10.92000008 -1.47000003 193 195 61 0.000000 0.000000 0.000000 0.000000 -60.708740 0.000000 230.000000 0.450485 0.806385 0.383153
-6.69000006 10.85000038 -1.37000000 193 195 61 0.000000 0.000000 0.000000 0.000000 -60.708740 0.000000 230.000000 0.720275 0.657778 0.220301
-6.69000006 10.85000038 -1.37000000 193 195 61 0.000000 0.000000 0.000000 0.000000 -60.708740 0.000000 230.000000 0.720275 0.657778 0.220301
-6.69999981 10.85000038 -1.37000000 193 195 61 0.000000 0.000000 0.000000 0.000000 -60.708740 0.000000 230.000000 0.506899 0.827370 -0.241894
-6.69999981 10.84000015 -1.39999998 193 195 61 0.000000 0.000000 0.000000 0.000000 -60.708740 0.000000 230.000000 0.701729 0.636904 0.319263
-6.71000004 10.85999966 -1.37000000 193 195 61 0.000000 0.000000 0.000000 0.000000 -60.708740 0.000000 230.000000 0.137042 0.990489 -0.012256
-6.71000004 10.86999989 -1.40999997 193 195 61 0.000000 0.000000 0.000000 0.000000 -60.708740 0.000000 230.000000 0.561247 0.737966 0.374710
-6.71000004 10.82999992 -1.37000000 193 195 61 0.000000 0.000000 0.000000 0.000000 -60.708740 0.000000 230.000000 0.312770 0.932748 0.179321
-6.67999983 10.82999992 -1.40999997 193 195 61 0.000000 0.000000 0.000000 0.000000 -60.708740 0.000000 230.000000 0.728364 0.678536 0.095259
-6.69000006 10.82999992 -1.42999995 193 195 61 0.000000 0.000000 0.000000 0.000000 -60.708740 0.000000 230.000000 0.423215 0.891206 -0.163219
-6.75000000 10.85000038 -1.37000000 193 195 61 0.000000 0.000000 0.000000 0.000000 -60.708740 0.000000 230.000000 0.215168 0.951339 -0.220581
-6.75000000 10.86999989 -1.37000000 193 195 61 0.000000 0.000000 0.000000 0.000000 -60.708740 0.000000 230.000000 0.272278 0.936914 0.219218
-6.73999977 10.85000038 -1.37000000 193 195 61 0.000000 0.000000 0.000000 0.000000 -60.708740 0.000000 230.000000 0.110184 0.993839 -0.012000
-6.73000002 10.84000015 -1.37000000 193 195 61 0.000000 0.000000 0.000000 0.000000 -60.708740 0.000000 230.000000 0.623799 0.701978 0.343660
-6.76000023 10.86999989 -1.38000000 193 195 61 0.000000 0.000000 0.000000 0.000000 -60.708740 0.000000 230.000000 0.291085 0.939473 0.180721
-6.50000000 10.51000023 -1.40999997 193 195 61 97.000000 1.000000 4.000000 1.000000 -60.708740 114.000000 230.000000 0.930336 0.138795 -0.339428
-6.48000002 10.48999977 -1.39999998 193 195 61 97.000000 1.000000 4.000000 1.000000 -60.708740 114.000000 230.000000 0.990237 0.060955 0.125361
-6.48000002 10.48999977 -1.39999998 193 195 61 97.000000 1.000000 4.000000 1.000000 -60.708740 114.000000 230.000000 0.990237 0.060955 0.125361
-6.50000000 10.47999954 -1.37000000 193 195 61 97.000000 1.000000 4.000000 1.000000 -60.708740 114.000000 230.000000 0.951526 0.112177 0.286382
-6.48000002 10.47000027 -1.40999997 193 195 61 97.000000 1.000000 4.000000 1.000000 -60.708740 114.000000 230.000000 0.973287 -0.137956 0.183520
-6.48000002 10.47999954 -1.40999997 193 195 61 97.000000 1.000000 4.000000 1.000000 -60.708740 114.000000 230.000000 0.983589 -0.092474 0.154924
-6.48000002 10.47000027 -1.41999996 193 195 61 97.000000 1.000000 4.000000 1.000000 -60.708740 114.000000 230.000000 0.986647 -0.115168 0.115168
-6.48000002 10.46000004 -1.42999995 193 195 61 97.000000 1.000000 4.000000 1.000000 -60.708740 114.000000 230.000000 0.969381 -0.183605 0.163061
-6.51999998 10.52000046 -1.38999999 193 195 61 97.000000 1.000000 4.000000 1.000000 -60.708740 114.000000 230.000000 0.891611 0.272395 0.361705
-6.51000023 10.48999977 -1.39999998 193 195 61 97.000000 1.000000 4.000000 1.000000 -60.708740 114.000000 230.000000 0.997993 0.060069 0.020023
-6.50000000 10.43999958 -1.37000000 193 195 61 97.000000 1.000000 4.000000 1.000000 -60.708740 114.000000 230.000000 0.999780 -0.000999 -0.020974
-6.48999977 10.44999981 -1.38999999 193 195 61 97.000000 1.000000 4.000000 1.000000 -60.708740 114.000000 230.000000 0.955385 -0.155466 0.251137
-6.48000002 10.42000008 -1.38999999 193 195 61 97.000000 1.000000 4.000000 1.000000 -60.708740 114.000000 230.000000 0.951836 0.001231 0.306607
-6.50000000 10.43999958 -1.37000000 193 195 61 97.000000 1.000000 4.000000 1.000000 -60.708740 114.000000 230.000000 0.999780 -0.000999 -0.020974
-6.48000002 10.43000031 -1.44000006 193 195 61 97.000000 1.000000 4.000000 1.000000 -60.708740 114.000000 230.000000 0.985430 0.050265 0.162485
-6.48999977 10.39999962 -1.38999999 193 195 61 97.000000 1.000000 4.000000 1.000000 -60.708740 114.000000 230.000000 0.934795 0.167076 0.313439
-6.48000002 10.39999962 -1.37000000 193 195 61 97.000000 1.000000 4.000000 1.000000 -60.708740 114.000000 230.000000 0.980662 -0.153420 -0.121509
