//X Y Z R G B PointSourceId ScanDirectionFlag NumberOfReturns ReturnNumber GpsTime Intensity Classification Nx Ny Nz
-16.10000038 9.21000004 -1.19000006 95 169 123 0.000000 0.000000 0.000000 0.000000 -60.708740 0.000000 97.000000 0.868346 0.071313 0.490804
-16.06999969 9.32999992 -1.23000002 95 169 123 0.000000 0.000000 0.000000 0.000000 -60.708740 0.000000 97.000000 0.995927 -0.090153 0.001061
-16.04000092 9.34000015 -1.24000001 95 169 123 0.000000 0.000000 0.000000 0.000000 -60.708740 0.000000 97.000000 0.914231 -0.376116 0.150728
-16.03000069 9.31000042 -1.26999998 95 169 123 0.000000 0.000000 0.000000 0.000000 -60.708740 0.000000 97.000000 0.994765 -0.100887 0.016272
-16.06999969 9.34000015 -1.23000002 95 169 123 0.000000 0.000000 0.000000 0.000000 -60.708740 0.000000 97.000000 0.908923 -0.410174 0.074949
-16.10000038 9.35999966 -1.33000004 95 169 123 0.000000 0.000000 0.000000 0.000000 -60.708740 0.000000 97.000000 0.931919 -0.229808 -0.280563
-16.03000069 9.27000046 -1.23000002 95 169 123 0.000000 0.000000 0.000000 0.000000 -60.708740 0.000000 97.000000 0.916606 -0.323762 -0.234547
-16.03000069 9.26000023 -1.21000004 95 169 123 0.000000 0.000000 0.000000 0.000000 -60.708740 0.000000 97.000000 0.801664 -0.595964 -0.046494
-16.10000038 9.23999977 -1.24000001 95 169 123 0.000000 0.000000 0.000000 0.000000 -60.708740 0.000000 97.000000 0.875286 -0.366859 0.315103
-16.06999969 9.26000023 -1.28999996 95 169 123 0.000000 0.000000 0.000000 0.000000 -60.708740 0.000000 97.000000 0.861743 -0.107182 0.495895
-16.06999969 9.21000004 -1.28999996 95 169 123 0.000000 0.000000 0.000000 0.000000 -60.708740 0.000000 97.000000 0.875286 -0.315103 0.366859
-16.04999924 9.21000004 -1.35000002 95 169 123 0.000000 0.000000 0.000000 0.000000 -60.708740 0.000000 97.000000 0.975892 0.216201 -0.029862
-16.04999924 9.25000000 -1.33000004 95 169 123 0.000000 0.000000 0.000000 0.000000 -60.708740 0.000000 97.000000 0.842745 -0.240129 0.481787
-16.15999985 9.22000027 -1.26999998 95 169 123 0.000000 0.000000 0.000000 0.000000 -60.708740 0.000000 97.000000 0.969497 -0.118169 -0.214738
-16.19000053 9.22000027 -1.35000002 95 169 123 0.000000 0.000000 0.000000 0.000000 -60.708740 0.000000 97.000000 0.955152 -0.251777 0.155862
-16.18000031 9.21000004 -1.30999994 95 169 123 0.000000 0.000000 0.000000 0.000000 -60.708740 0.000000 97.000000 0.996392 -0.070782 -0.046825
-16.18000031 9.23999977 -1.30999994 95 169 123 0.000000 0.000000 0.000000 0.000000 -60.708740 0.000000 97.000000 0.962170 -0.240218 0.128549
-16.14999962 9.02999973 -1.09000003 95 169 123 0.000000 0.000000 0.000000 0.000000 -60.708740 0.000000 97.000000 0.868403 0.494867 -0.031355
-16.17000008 9.14999962 -1.36000001 95 169 123 0.000000 0.000000 0.000000 0.000000 -60.708740 0.000000 97.000000 0.983767 0.104759 -0.145699
-16.17000008 9.15999985 -1.33000004 95 169 123 0.000000 0.000000 0.000000 0.000000 -60.708740 0.000000 97.000000 0.933672 0.341851 -0.106744
-16.17000008 9.14999962 -1.36000001 95 169 123 0.000000 0.000000 0.000000 0.000000 -60.708740 0.000000 97.000000 0.983767 0.104759 -0.145699
-16.25000000 9.39999962 -0.74000001 95 169 123 0.000000 0.000000 0.000000 0.000000 -60.708740 0.000000 97.000000 0.820768 -0.427054 0.379427
-16.26000023 9.36999989 -0.75000000 95 169 123 0.000000 0.000000 0.000000 0.000000 -60.708740 0.000000 97.000000 0.936227 -0.341291 0.083663
-16.25000000 9.36999989 -0.85000002 95 169 123 0.000000 0.000000 0.000000 0.000000 -60.708740 0.000000 97.000000 0.747418 -0.629323 -0.212882
-16.22999954 9.35999966 -0.74000001 95 169 123 0.000000 0.000000 0.000000 0.000000 -60.708740 0.000000 97.000000 0.978998 -0.194351 0.061565
-16.21999931 9.31999969 -0.77999997 95 169 123 0.000000 0.000000 0.000000 0.000000 -60.708740 0.000000 97.000000 0.892782 -0.321521 -0.315539
-16.20999908 9.22000027 -0.82999998 95 169 123 0.000000 0.000000 0.000000 0.000000 -60.708740 0.000000 97.000000 0.946306 -0.289411 -0.144032
-16.35000038 9.28999996 -0.75999999 95 169 123 0.000000 0.000000 0.000000 0.000000 -60.708740 0.000000 97.000000 0.859635 -0.404444 -0.312175
-16.36000061 9.22999954 -0.76999998 95 169 123 0.000000 0.000000 0.000000 0.000000 -60.708740 0.000000 97.000000 0.887260 -0.375552 -0.267824
-16.20000076 9.27999973 -0.91000003 95 169 123 0.000000 0.000000 0.000000 0.000000 -60.708740 0.000000 97.000000 0.815263 -0.508561 -0.276970
-16.20999908 9.35999966 -0.91000003 95 169 123 0.000000 0.000000 0.000000 0.000000 -60.708740 0.000000 97.000000 0.981499 -0.150342 0.118562
-16.22999954 9.28999996 -0.95999998 95 169 123 0.000000 0.000000 0.000000 0.000000 -60.708740 0.000000 97.000000 0.979078 -0.071581 0.190477
-16.20999908 9.18999958 -0.82999998 95 169 123 0.000000 0.000000 0.000000 0.000000 -60.708740 0.000000 97.000000 0.938434 -0.232866 -0.255176
-16.27000046 9.02999973 -0.75999999 95 169 123 0.000000 0.000000 0.000000 0.000000 -60.708740 0.000000 97.000000 0.996159 0.027040 -0.083284
-16.20000076 9.02999973 -0.81999999 95 169 123 0.000000 0.000000 0.000000 0.000000 -60.708740 0.000000 97.000000 0.785685 0.379129 0.488835
-16.20000076 9.05000019 -0.89999998 95 169 123 0.000000 0.000000 0.000000 0.000000 -60.708740 0.000000 97.000000 0.949137 0.034215 0.313000
-16.47999954 9.22000027 -0.69999999 95 169 123 0.000000 0.000000 0.000000 0.000000 -60.708740 0.000000 97.000000 0.893205 -0.421432 -0.156778
-16.20000076 9.21000004 -1.20000005 95 169 123 0.000000 0.000000 0.000000 0.000000 -60.708740 0.000000 97.000000 0.895676 -0.087214 0.436071
-16.17000008 9.02000046 -0.34999999 95 169 123 0.000000 0.000000 0.000000 0.000000 -60.708740 0.000000 97.000000 0.896019 -0.406755 0.178046
-16.27000046 9.02000046 -0.04000000 95 169 123 0.000000 0.000000 0.000000 0.000000 -60.708740 0.000000 97.000000 0.897025 -0.417851 -0.144037
-16.27000046 9.02000046 -0.06000000 95 169 123 0.000000 0.000000 0.000000 0.000000 -60.708740 0.000000 97.000000 0.983996 0.001135 0.178186
-16.29999924 8.97999954 -0.05000000 95 169 123 0.000000 0.000000 0.000000 0.000000 -60.708740 0.000000 97.000000 0.997792 -0.045888 0.048022
-16.29000092 9.02000046 -0.03000000 95 169 123 0.000000 0.000000 0.000000 0.000000 -60.708740 0.000000 97.000000 0.993150 0.114041 0.025465
-16.27000046 8.94999981 -0.34999999 95 169 123 0.000000 0.000000 0.000000 0.000000 -60.708740 0.000000 97.000000 0.991551 0.129333 0.009949
-16.29999924 9.01000023 -0.23000000 95 169 123 0.000000 0.000000 0.000000 0.000000 -60.708740 0.000000 97.000000 0.932490 0.260984 0.249699
-16.29000092 8.98999977 -0.25000000 95 169 123 0.000000 0.000000 0.000000 0.000000 -60.708740 0.000000 97.000000 0.993127 -0.039012 0.110347
-16.28000069 9.01000023 -0.20000000 95 169 123 0.000000 0.000000 0.000000 0.000000 -60.708740 0.000000 97.000000 0.976642 -0.044447 0.210224
-16.29000092 9.01000023 -0.25000000 95 169 123 0.000000 0.000000 0.000000 0.000000 -60.708740 0.000000 97.000000 0.968687 -0.199398 -0.147940
-16.29999924 8.98999977 -0.33000001 95 169 123 0.000000 0.000000 0.000000 0.000000 -60.708740 0.000000 97.000000 0.970252 -0.104722 0.218275
-16.27000046 9.00000000 -0.46000001 95 169 123 0.000000 0.000000 0.000000 0.000000 -60.708740 0.000000 97.000000 0.937483 0.008856 0.347919
-16.25000000 9.02000046 -0.50000000 95 169 123 0.000000 0.000000 0.000000 0.000000 -60.708740 0.000000 97.000000 0.946828 0.321446 -0.013758
-16.30999947 9.00000000 -0.36000001 95 169 123 0.000000 0.000000 0.000000 0.000000 -60.708740 0.000000 97.000000 0.993520 0.095423 -0.061744
-16.30999947 9.02000046 -0.41999999 95 169 123 0.000000 0.000000 0.000000 0.000000 -60.708740 0.000000 97.000000 0.921923 -0.235841 0.307308
-16.29000092 9.02000046 -0.47000000 95 169 123 0.000000 0.000000 0.000000 0.000000 -60.708740 0.000000 97.000000 0.852050 -0.189510 0.487952
-16.21999931 9.01000023 -0.56000000 95 169 123 0.000000 0.000000 0.000000 0.000000 -60.708740 0.000000 97.000000 0.835862 0.413996 0.360475
-16.21999931 9.00000000 -0.56000000 95 169 123 0.000000 0.000000 0.000000 0.000000 -60.708740 0.000000 97.000000 0.999999 0.000978 -0.000978
-16.21999931 9.02000046 -0.52999997 95 169 123 0.000000 0.000000 0.000000 0.000000 -60.708740 0.000000 97.000000 0.961903 -0.156162 0.224400
-16.21999931 9.00000000 -0.56000000 95 169 123 0.000000 0.000000 0.000000 0.000000 -60.708740 0.000000 97.000000 0.999999 0.000978 -0.000978
-16.20000076 8.98999977 -0.54000002 95 169 123 0.000000 0.000000 0.000000 0.000000 -60.708740 0.000000 97.000000 0.930764 -0.156280 0.330539
-16.27000046 9.01000023 -0.56000000 95 169 123 0.000000 0.000000 0.000000 0.000000 -60.708740 0.000000 97.000000 0.980356 0.162781 0.111376
-16.22999954 8.98999977 -0.67000002 95 169 123 0.000000 0.000000 0.000000 0.000000 -60.708740 0.000000 97.000000 0.991534 0.114977 -0.060334
-16.20999908 8.93999958 -0.56000000 95 169 123 0.000000 0.000000 0.000000 0.000000 -60.708740 0.000000 97.000000 0.830294 0.251091 0.497560
-16.29000092 9.00000000 -0.56000000 95 169 123 0.000000 0.000000 0.000000 0.000000 -60.708740 0.000000 97.000000 0.947186 0.320681 -0.001238
-16.30999947 8.98999977 -0.54000002 95 169 123 0.000000 0.000000 0.000000 0.000000 -60.708740 0.000000 97.000000 0.935303 0.120816 0.332582
-16.29999924 9.01000023 -0.56000000 95 169 123 0.000000 0.000000 0.000000 0.000000 -60.708740 0.000000 97.000000 0.910714 0.379346 0.163389
-16.28000069 9.02000046 -0.68000001 95 169 123 0.000000 0.000000 0.000000 0.000000 -60.708740 0.000000 97.000000 0.987103 -0.124425 -0.100725
-16.18000031 9.02000046 -0.75000000 95 169 123 0.000000 0.000000 0.000000 0.000000 -60.708740 0.000000 97.000000 0.924175 0.343585 0.166884
-16.19000053 9.00000000 -0.72000003 95 169 123 0.000000 0.000000 0.000000 0.000000 -60.708740 0.000000 97.000000 0.945367 0.031809 0.324453
-16.17000008 8.98999977 -0.70999998 95 169 123 0.000000 0.000000 0.000000 0.000000 -60.708740 0.000000 97.000000 0.987620 -0.109736 0.112095
-16.15999985 9.01000023 -0.72000003 95 169 123 0.000000 0.000000 0.000000 0.000000 -60.708740 0.000000 97.000000 0.941659 -0.063996 0.330429
-16.18000031 9.00000000 -0.81999999 95 169 123 0.000000 0.000000 0.000000 0.000000 -60.708740 0.000000 97.000000 0.945258 0.314210 -0.088084
-16.17000008 8.98999977 -0.80000001 95 169 123 0.000000 0.000000 0.000000 0.000000 -60.708740 0.000000 97.000000 0.990661 -0.107254 0.084189
-16.14999962 9.00000000 -0.91000003 95 169 123 0.000000 0.000000 0.000000 0.000000 -60.708740 0.000000 97.000000 0.981592 0.043810 0.185899
-16.14999962 9.01000023 -0.94999999 95 169 123 0.000000 0.000000 0.000000 0.000000 -60.708740 0.000000 97.000000 0.983904 0.099956 -0.148128
-16.18000031 8.96000004 -0.95999998 95 169 123 0.000000 0.000000 0.000000 0.000000 -60.708740 0.000000 97.000000 0.946601 0.066223 0.315534
-16.17000008 8.86999989 -1.12000000 95 169 123 0.000000 0.000000 0.000000 0.000000 -60.708740 0.000000 97.000000 0.899786 0.177078 0.398785
-16.11000061 9.00000000 -1.21000004 95 169 123 0.000000 0.000000 0.000000 0.000000 -60.708740 0.000000 97.000000 0.668063 0.601424 0.438156
-16.15999985 8.98999977 -1.21000004 95 169 123 0.000000 0.000000 0.000000 0.000000 -60.708740 0.000000 97.000000 0.798541 0.167558 0.578150
-16.19000053 8.97999954 -1.26999998 95 169 123 0.000000 0.000000 0.000000 0.000000 -60.708740 0.000000 97.000000 0.794751 0.602865 0.070167
-16.17000008 8.96000004 -1.24000001 95 169 123 0.000000 0.000000 0.000000 0.000000 -60.708740 0.000000 97.000000 0.678214 0.734380 0.026679
-16.18000031 9.02000046 -1.35000002 95 169 123 0.000000 0.000000 0.000000 0.000000 -60.708740 0.000000 97.000000 0.869293 0.494251 0.006697
-16.12000084 8.86999989 -1.20000005 95 169 123 0.000000 0.000000 0.000000 0.000000 -60.708740 0.000000 97.000000 0.843579 0.256608 0.471728
-16.17000008 8.89999962 -1.25999999 95 169 123 0.000000 0.000000 0.000000 0.000000 -60.708740 0.000000 97.000000 0.662495 0.669006 0.336945
-16.17000008 8.90999985 -1.28999996 95 169 123 0.000000 0.000000 0.000000 0.000000 -60.708740 0.000000 97.000000 0.640370 0.586586 0.495825
-16.20000076 8.97000027 -0.75999999 95 169 123 0.000000 0.000000 0.000000 0.000000 -60.708740 0.000000 97.000000 0.794516 0.292218 0.532310
-16.20000076 8.97999954 -0.81000000 95 169 123 0.000000 0.000000 0.000000 0.000000 -60.708740 0.000000 97.000000 0.833951 0.264574 0.484279
-16.23999977 8.98999977 -0.83999997 95 169 123 0.000000 0.000000 0.000000 0.000000 -60.708740 0.000000 97.000000 0.855542 0.063010 0.513885
-16.25000000 8.97999954 -1.08000004 95 169 123 0.000000 0.000000 0.000000 0.000000 -60.708740 0.000000 97.000000 0.761043 0.306019 0.571984
-16.20000076 8.88000011 -1.19000006 95 169 123 0.000000 0.000000 0.000000 0.000000 -60.708740 0.000000 97.000000 0.541966 0.695384 0.471927
-16.29000092 8.94999981 -1.14999998 95 169 123 0.000000 0.000000 0.000000 0.000000 -60.708740 0.000000 97.000000 0.740731 0.384265 0.551052
-16.22999954 9.01000023 -1.25999999 95 169 123 0.000000 0.000000 0.000000 0.000000 -60.708740 0.000000 97.000000 0.767053 0.618199 0.171638
-16.54000092 9.22000027 -0.36000001 95 169 123 0.000000 0.000000 0.000000 0.000000 -60.708740 0.000000 97.000000 0.973394 -0.181008 -0.140503
-16.10000038 9.42000008 -1.37000000 95 169 123 0.000000 0.000000 0.000000 0.000000 -60.708740 0.000000 97.000000 0.946065 -0.256026 0.198523
-15.94999981 9.27999973 -1.37000000 95 169 123 0.000000 0.000000 0.000000 0.000000 -60.708740 0.000000 97.000000 0.804954 -0.349079 0.479784
-15.97999954 9.21000004 -1.38999999 95 169 123 0.000000 0.000000 0.000000 0.000000 -60.708740 0.000000 97.000000 0.900265 0.155513 0.406617
-16.01000023 9.22000027 -1.40999997 95 169 123 0.000000 0.000000 0.000000 0.000000 -60.708740 0.000000 97.000000 0.964888 -0.111778 0.237689
-15.97999954 9.22999954 -1.42999995 95 169 123 0.000000 0.000000 0.000000 0.000000 -60.708740 0.000000 97.000000 0.966898 -0.084462 0.240779
-16.01000023 9.25000000 -1.44000006 95 169 123 0.000000 0.000000 0.000000 0.000000 -60.708740 0.000000 97.000000 0.953427 0.293856 0.068010
-15.98999977 9.23999977 -1.40999997 95 169 123 0.000000 0.000000 0.000000 0.000000 -60.708740 0.000000 97.000000 0.917755 0.158815 0.364010
-15.90999985 9.15999985 -1.50000000 95 169 123 0.000000 0.000000 0.000000 0.000000 -60.708740 0.000000 97.000000 0.864700 0.169405 0.472860
-16.01000023 9.18999958 -1.38000000 95 169 123 0.000000 0.000000 0.000000 0.000000 -60.708740 0.000000 97.000000 0.837277 0.224189 0.498706
-16.00000000 9.15999985 -1.49000001 95 169 123 0.000000 0.000000 0.000000 0.000000 -60.708740 0.000000 97.000000 0.792882 0.552046 0.258038
-15.93999958 9.18999958 -1.57000005 95 169 123 0.000000 0.000000 0.000000 0.000000 -60.708740 0.000000 97.000000 0.917827 0.267398 0.293415
-15.93999958 9.15999985 -1.59000003 95 169 123 0.000000 0.000000 0.000000 0.000000 -60.708740 0.000000 97.000000 0.942627 0.241522 0.230481
-15.96000004 9.11999989 -1.60000002 95 169 123 0.000000 0.000000 0.000000 0.000000 -60.708740 0.000000 97.000000 0.987290 0.158732 -0.007880
-15.97000027 9.18999958 -1.54999995 95 169 123 0.000000 0.000000 0.000000 0.000000 -60.708740 0.000000 97.000000 0.998391 -0.024095 -0.051334
-16.10000038 9.35000038 -1.40999997 95 169 123 0.000000 0.000000 0.000000 0.000000 -60.708740 0.000000 97.000000 0.815340 -0.578850 -0.012374
-16.04000092 9.35000038 -1.39999998 95 169 123 0.000000 0.000000 0.000000 0.000000 -60.708740 0.000000 97.000000 0.871705 -0.377077 -0.312959
-16.07999992 9.19999981 -1.40999997 95 169 123 0.000000 0.000000 0.000000 0.000000 -60.708740 0.000000 97.000000 0.988629 -0.092647 -0.118448
-16.04000092 9.23999977 -1.37000000 95 169 123 0.000000 0.000000 0.000000 0.000000 -60.708740 0.000000 97.000000 0.922881 0.344149 0.172777
-16.07999992 9.26000023 -1.40999997 95 169 123 0.000000 0.000000 0.000000 0.000000 -60.708740 0.000000 97.000000 0.997557 -0.052503 0.046074
-16.11000061 9.25000000 -1.40999997 95 169 123 0.000000 0.000000 0.000000 0.000000 -60.708740 0.000000 97.000000 0.983105 0.043563 0.177783
-16.09000015 9.19999981 -1.51999998 95 169 123 0.000000 0.000000 0.000000 0.000000 -60.708740 0.000000 97.000000 0.974555 -0.214525 0.064970
-16.13999939 9.34000015 -1.39999998 95 169 123 0.000000 0.000000 0.000000 0.000000 -60.708740 0.000000 97.000000 0.803762 -0.542578 0.244082
-16.12000084 9.21000004 -1.60000002 95 169 123 0.000000 0.000000 0.000000 0.000000 -60.708740 0.000000 97.000000 0.858021 0.303465 0.414377
-16.07999992 9.18000031 -1.42999995 95 169 123 0.000000 0.000000 0.000000 0.000000 -60.708740 0.000000 97.000000 0.983589 0.092474 -0.154924
-16.10000038 9.07999992 -1.50999999 95 169 123 0.000000 0.000000 0.000000 0.000000 -60.708740 0.000000 97.000000 0.962319 0.053810 0.266546
-16.11000061 9.07999992 -1.52999997 95 169 123 0.000000 0.000000 0.000000 0.000000 -60.708740 0.000000 97.000000 0.995733 0.049402 0.077946
-16.15999985 9.14000034 -1.41999996 95 169 123 0.000000 0.000000 0.000000 0.000000 -60.708740 0.000000 97.000000 0.928365 0.335436 -0.160063
-16.14999962 9.18000031 -1.38000000 95 169 123 0.000000 0.000000 0.000000 0.000000 -60.708740 0.000000 97.000000 0.862199 0.460339 0.211426
-16.14999962 9.15999985 -1.41999996 95 169 123 0.000000 0.000000 0.000000 0.000000 -60.708740 0.000000 97.000000 0.950880 -0.057746 0.304127
-16.14999962 9.17000008 -1.39999998 95 169 123 0.000000 0.000000 0.000000 0.000000 -60.708740 0.000000 97.000000 0.993376 -0.084567 -0.077801
-16.15999985 9.14999962 -1.37000000 95 169 123 0.000000 0.000000 0.000000 0.000000 -60.708740 0.000000 97.000000 0.928878 0.056816 0.366002
-16.12999916 9.14000034 -1.47000003 95 169 123 0.000000 0.000000 0.000000 0.000000 -60.708740 0.000000 97.000000 0.982424 0.046107 0.180880
-16.12000084 9.03999996 -1.52999997 95 169 123 0.000000 0.000000 0.000000 0.000000 -60.708740 0.000000 97.000000 0.842234 0.535711 -0.060461
-16.12000084 9.02999973 -1.46000004 95 169 123 0.000000 0.000000 0.000000 0.000000 -60.708740 0.000000 97.000000 0.685442 0.423215 0.592501
-16.10000038 9.10000038 -1.54999995 95 169 123 0.000000 0.000000 0.000000 0.000000 -60.708740 0.000000 97.000000 0.948843 0.251124 0.191398
-16.10000038 9.03999996 -1.55999994 95 169 123 0.000000 0.000000 0.000000 0.000000 -60.708740 0.000000 97.000000 0.871321 0.399926 0.284358
-16.12999916 9.17000008 -1.57000005 95 169 123 0.000000 0.000000 0.000000 0.000000 -60.708740 0.000000 97.000000 0.897106 0.286184 0.336600
-16.12000084 9.10000038 -1.57000005 95 169 123 0.000000 0.000000 0.000000 0.000000 -60.708740 0.000000 97.000000 0.757448 0.502238 0.417169
-16.19000053 8.94999981 -1.39999998 95 169 123 0.000000 0.000000 0.000000 0.000000 -60.708740 0.000000 97.000000 0.911611 0.397014 0.106516
-16.19000053 8.96000004 -1.41999996 95 169 123 0.000000 0.000000 0.000000 0.000000 -60.708740 0.000000 97.000000 0.749040 0.661251 0.041063
-16.17000008 8.96000004 -1.41999996 95 169 123 0.000000 0.000000 0.000000 0.000000 -60.708740 0.000000 97.000000 0.797291 0.370572 0.476449
-16.19000053 8.94999981 -1.46000004 95 169 123 0.000000 0.000000 0.000000 0.000000 -60.708740 0.000000 97.000000 0.815393 0.528695 0.235832
-16.12999916 8.90999985 -1.37000000 95 169 123 0.000000 0.000000 0.000000 0.000000 -60.708740 0.000000 97.000000 0.646916 0.676396 0.352119
-16.12000084 8.85999966 -1.47000003 95 169 123 0.000000 0.000000 0.000000 0.000000 -60.708740 0.000000 97.000000 0.760752 0.640091 0.107418
-16.12999916 8.85999966 -1.50000000 95 169 123 0.000000 0.000000 0.000000 0.000000 -60.708740 0.000000 97.000000 0.714097 0.630276 0.304660
-16.15999985 8.90999985 -1.50000000 95 169 123 0.000000 0.000000 0.000000 0.000000 -60.708740 0.000000 97.000000 0.857503 0.513957 0.023176
-16.10000038 8.88000011 -1.57000005 95 169 123 0.000000 0.000000 0.000000 0.000000 -60.708740 0.000000 97.000000 0.358907 0.864150 0.352746
-16.17000008 8.84000015 -1.44000006 95 169 123 0.000000 0.000000 0.000000 0.000000 -60.708740 0.000000 97.000000 0.430104 0.743206 0.512499
-16.13999939 8.84000015 -1.46000004 95 169 123 0.000000 0.000000 0.000000 0.000000 -60.708740 0.000000 97.000000 0.421964 0.816859 0.393303
-16.07999992 8.78999996 -1.58000004 95 169 123 0.000000 0.000000 0.000000 0.000000 -60.708740 0.000000 97.000000 0.655945 0.609211 0.445642
-16.09000015 8.81999969 -1.57000005 95 169 123 0.000000 0.000000 0.000000 0.000000 -60.708740 0.000000 97.000000 0.538419 0.639689 0.548546
-16.06999969 8.77999973 -1.58000004 95 169 123 0.000000 0.000000 0.000000 0.000000 -60.708740 0.000000 97.000000 0.359281 0.869918 0.337877
-16.09000015 8.80000019 -1.59000003 95 169 123 0.000000 0.000000 0.000000 0.000000 -60.708740 0.000000 97.000000 0.645738 0.595421 0.478014
-16.20999908 8.86999989 -1.59000003 95 169 123 0.000000 0.000000 0.000000 0.000000 -60.708740 0.000000 97.000000 0.661172 0.453614 0.597566
-16.21999931 8.85000038 -1.50999999 95 169 123 0.000000 0.000000 0.000000 0.000000 -60.708740 0.000000 97.000000 0.800910 0.595329 -0.064244
-16.21999931 8.82999992 -1.49000001 95 169 123 0.000000 0.000000 0.000000 0.000000 -60.708740 0.000000 97.000000 0.756799 0.650127 -0.067752
-16.20999908 8.84000015 -1.47000003 95 169 123 0.000000 0.000000 0.000000 0.000000 -60.708740 0.000000 97.000000 0.636526 0.771254 0.001375
-16.20000076 8.81999969 -1.61000001 95 169 123 0.000000 0.000000 0.000000 0.000000 -60.708740 0.000000 97.000000 0.699365 0.690143 0.185985
-16.20000076 8.82999992 -1.61000001 95 169 123 0.000000 0.000000 0.000000 0.000000 -60.708740 0.000000 97.000000 0.879816 0.463285 -0.106258
-16.20000076 8.81999969 -1.62000000 95 169 123 0.000000 0.000000 0.000000 0.000000 -60.708740 0.000000 97.000000 0.611221 0.690301 0.387161
-15.89000034 9.36999989 -0.01000000 95 169 123 0.000000 0.000000 0.000000 0.000000 -60.708740 0.000000 97.000000 -0.206217 0.962786 0.174694
-15.90999985 9.40999985 0.04000000 95 169 123 0.000000 0.000000 0.000000 0.000000 -60.708740 0.000000 97.000000 -0.366295 0.921958 0.125784
-15.96000004 9.38000011 0.05000000 95 169 123 0.000000 0.000000 0.000000 0.000000 -60.708740 0.000000 97.000000 0.214077 0.976799 0.005849
-16.17000008 9.46000004 0.02000000 95 169 123 0.000000 0.000000 0.000000 0.000000 -60.708740 0.000000 97.000000 -0.599103 0.798330 -0.061191
-15.92000008 9.35999966 0.02000000 95 169 123 0.000000 0.000000 0.000000 0.000000 -60.708740 0.000000 97.000000 0.017458 0.999201 -0.035942
-16.01000023 9.35000038 0.05000000 95 169 123 0.000000 0.000000 0.000000 0.000000 -60.708740 0.000000 97.000000 -0.139780 0.951833 0.272903
-16.07999992 9.27999973 0.08000000 95 169 123 0.000000 0.000000 0.000000 0.000000 -60.708740 0.000000 97.000000 -0.302944 0.941434 -0.148076
-16.06999969 9.28999996 0.02000000 95 169 123 0.000000 0.000000 0.000000 0.000000 -60.708740 0.000000 97.000000 -0.420858 0.878893 0.224556
-16.03000069 9.35999966 0.00000000 95 169 123 0.000000 0.000000 0.000000 0.000000 -60.708740 0.000000 97.000000 -0.124573 0.828041 0.546654
-16.05999947 9.35999966 0.02000000 95 169 123 0.000000 0.000000 0.000000 0.000000 -60.708740 0.000000 97.000000 -0.276176 0.891228 0.359776
-16.07999992 9.23999977 0.02000000 95 169 123 0.000000 0.000000 0.000000 0.000000 -60.708740 0.000000 97.000000 -0.483171 0.819974 0.306900
-16.19000053 9.10000038 0.05000000 95 169 123 0.000000 0.000000 0.000000 0.000000 -60.708740 0.000000 97.000000 0.639474 -0.681996 0.354900
-16.23999977 9.03999996 0.05000000 95 169 123 0.000000 0.000000 0.000000 0.000000 -60.708740 0.000000 97.000000 0.727634 -0.685896 0.009739
-16.26000023 9.06000042 0.01000000 95 169 123 0.000000 0.000000 0.000000 0.000000 -60.708740 0.000000 97.000000 0.980469 -0.174170 0.091348
-16.27000046 9.02999973 -0.01000000 95 169 123 0.000000 0.000000 0.000000 0.000000 -60.708740 0.000000 97.000000 0.874245 -0.343290 0.343290
-16.32999992 9.05000019 0.04000000 95 169 123 0.000000 0.000000 0.000000 0.000000 -60.708740 0.000000 97.000000 0.994858 -0.093647 0.038560
-16.30999947 9.10999966 0.03000000 95 169 123 0.000000 0.000000 0.000000 0.000000 -60.708740 0.000000 97.000000 0.773692 -0.629616 0.070598
-16.32999992 9.05000019 0.02000000 95 169 123 0.000000 0.000000 0.000000 0.000000 -60.708740 0.000000 97.000000 0.866956 -0.159356 0.472221
-16.30999947 9.10999966 0.03000000 95 169 123 0.000000 0.000000 0.000000 0.000000 -60.708740 0.000000 97.000000 0.773692 -0.629616 0.070598
-16.32999992 9.03999996 0.02000000 95 169 123 0.000000 0.000000 0.000000 0.000000 -60.708740 0.000000 97.000000 0.933132 -0.290464 0.211884
-16.22999954 9.02000046 0.04000000 95 169 123 0.000000 0.000000 0.000000 0.000000 -60.708740 0.000000 97.000000 0.823673 -0.548623 0.143440
-15.84000015 9.38000011 -0.23999999 95 169 123 0.000000 0.000000 0.000000 0.000000 -60.708740 0.000000 97.000000 -0.027440 0.921215 0.388086
-15.82999992 9.40999985 -0.27000001 95 169 123 0.000000 0.000000 0.000000 0.000000 -60.708740 0.000000 97.000000 0.111721 0.837183 0.535391
-15.67000008 9.47000027 -0.63999999 95 169 123 0.000000 0.000000 0.000000 0.000000 -60.708740 0.000000 97.000000 0.512673 0.798373 0.315857
-15.85000038 9.57999992 -0.63000000 95 169 123 0.000000 0.000000 0.000000 0.000000 -60.708740 0.000000 97.000000 -0.107394 0.983437 -0.146007
-15.81999969 9.64000034 -0.63999999 95 169 123 0.000000 0.000000 0.000000 0.000000 -60.708740 0.000000 97.000000 -0.077129 0.964748 0.251618
-15.78999996 9.64000034 -0.68000001 95 169 123 0.000000 0.000000 0.000000 0.000000 -60.708740 0.000000 97.000000 -0.096378 0.946616 0.307617
-15.76000023 9.39000034 -0.40000001 95 169 123 0.000000 0.000000 0.000000 0.000000 -60.708740 0.000000 97.000000 0.164376 0.966842 0.195439
-15.72999954 9.39999962 -0.51999998 95 169 123 0.000000 0.000000 0.000000 0.000000 -60.708740 0.000000 97.000000 -0.096351 0.990210 0.100994
-15.73999977 9.39999962 -0.47999999 95 169 123 0.000000 0.000000 0.000000 0.000000 -60.708740 0.000000 97.000000 0.004975 0.999876 0.014924
-15.72000027 9.39999962 -0.51999998 95 169 123 0.000000 0.000000 0.000000 0.000000 -60.708740 0.000000 97.000000 0.247201 0.800683 0.545708
-15.77999973 9.42000008 -0.51999998 95 169 123 0.000000 0.000000 0.000000 0.000000 -60.708740 0.000000 97.000000 0.272593 0.959780 -0.067197
-15.71000004 9.40999985 -0.52999997 95 169 123 0.000000 0.000000 0.000000 0.000000 -60.708740 0.000000 97.000000 0.153215 0.945049 0.288803
-15.77000046 9.42000008 -0.61000001 95 169 123 0.000000 0.000000 0.000000 0.000000 -60.708740 0.000000 97.000000 0.542164 0.803149 0.247003
-15.77000046 9.43000031 -0.57999998 95 169 123 0.000000 0.000000 0.000000 0.000000 -60.708740 0.000000 97.000000 0.185024 0.828847 0.527995
-15.71000004 9.40999985 -0.60000002 95 169 123 0.000000 0.000000 0.000000 0.000000 -60.708740 0.000000 97.000000 0.078777 0.969081 0.233830
-15.71000004 9.39999962 -0.58999997 95 169 123 0.000000 0.000000 0.000000 0.000000 -60.708740 0.000000 97.000000 -0.009122 0.908265 0.418297
-15.68999958 9.35999966 -0.56000000 95 169 123 0.000000 0.000000 0.000000 0.000000 -60.708740 0.000000 97.000000 0.614703 0.774014 0.151797
-15.64999962 9.38000011 -0.80000001 95 169 123 0.000000 0.000000 0.000000 0.000000 -60.708740 0.000000 97.000000 0.783965 0.609750 0.116635
-15.77999973 9.64000034 -0.69999999 95 169 123 0.000000 0.000000 0.000000 0.000000 -60.708740 0.000000 97.000000 -0.154734 0.974952 -0.159766
-15.85000038 9.14999962 -1.51999998 95 169 123 0.000000 0.000000 0.000000 0.000000 -60.708740 0.000000 97.000000 0.665582 0.598857 0.445389
-15.93999958 9.42000008 -0.16000000 95 169 123 0.000000 0.000000 0.000000 0.000000 -60.708740 0.000000 97.000000 0.037643 0.996992 0.067757
-15.92000008 9.38000011 -0.16000000 95 169 123 0.000000 0.000000 0.000000 0.000000 -60.708740 0.000000 97.000000 0.070975 0.922679 0.378981
-16.02000046 9.36999989 -0.08000000 95 169 123 0.000000 0.000000 0.000000 0.000000 -60.708740 0.000000 97.000000 -0.440150 0.890207 0.117468
-15.96000004 9.36999989 -0.16000000 95 169 123 0.000000 0.000000 0.000000 0.000000 -60.708740 0.000000 97.000000 -0.241675 0.943224 0.227865
-16.01000023 9.39000034 -0.13000000 95 169 123 0.000000 0.000000 0.000000 0.000000 -60.708740 0.000000 97.000000 -0.428099 0.896903 0.110885
-15.85999966 9.43000031 -0.27000001 95 169 123 0.000000 0.000000 0.000000 0.000000 -60.708740 0.000000 97.000000 0.192618 0.946697 0.258190
-16.10000038 9.61999989 -0.34999999 95 169 123 0.000000 0.000000 0.000000 0.000000 -60.708740 0.000000 97.000000 -0.453258 0.888606 0.070262
-16.04999924 9.39000034 -0.14000000 95 169 123 0.000000 0.000000 0.000000 0.000000 -60.708740 0.000000 97.000000 0.014186 0.924692 0.380452
-16.06999969 9.38000011 -0.13000000 95 169 123 0.000000 0.000000 0.000000 0.000000 -60.708740 0.000000 97.000000 -0.581227 0.811444 0.061107
-16.17000008 9.39999962 -0.06000000 95 169 123 0.000000 0.000000 0.000000 0.000000 -60.708740 0.000000 97.000000 -0.566916 0.809239 -0.154070
-16.07999992 9.43000031 -0.28000000 95 169 123 0.000000 0.000000 0.000000 0.000000 -60.708740 0.000000 97.000000 -0.176475 0.885292 0.430249
-16.07999992 9.43000031 -0.31999999 95 169 123 0.000000 0.000000 0.000000 0.000000 -60.708740 0.000000 97.000000 -0.390561 0.859852 0.328812
-16.11000061 9.36999989 -0.33000001 95 169 123 0.000000 0.000000 0.000000 0.000000 -60.708740 0.000000 97.000000 -0.435070 0.871635 0.225758
-16.19000053 9.51000023 -0.27000001 95 169 123 0.000000 0.000000 0.000000 0.000000 -60.708740 0.000000 97.000000 -0.272953 0.962008 0.006066
-15.93000031 9.56000042 -0.49000001 95 169 123 0.000000 0.000000 0.000000 0.000000 -60.708740 0.000000 97.000000 0.086102 0.981078 0.173417
-15.93999958 9.56000042 -0.49000001 95 169 123 0.000000 0.000000 0.000000 0.000000 -60.708740 0.000000 97.000000 -0.213402 0.928512 0.303851
-16.01000023 9.55000019 -0.51999998 95 169 123 0.000000 0.000000 0.000000 0.000000 -60.708740 0.000000 97.000000 -0.474543 0.861865 -0.178878
-15.89999962 9.60000038 -0.56000000 95 169 123 0.000000 0.000000 0.000000 0.000000 -60.708740 0.000000 97.000000 0.141209 0.915760 0.376091
-15.92000008 9.60000038 -0.56999999 95 169 123 0.000000 0.000000 0.000000 0.000000 -60.708740 0.000000 97.000000 -0.117239 0.991406 -0.058050
-15.96000004 9.63000011 -0.58999997 95 169 123 0.000000 0.000000 0.000000 0.000000 -60.708740 0.000000 97.000000 -0.524507 0.831096 0.184855
-15.97999954 9.53999996 -0.54000002 95 169 123 0.000000 0.000000 0.000000 0.000000 -60.708740 0.000000 97.000000 -0.080796 0.995003 0.058660
-16.02000046 9.60000038 -0.69000000 95 169 123 0.000000 0.000000 0.000000 0.000000 -60.708740 0.000000 97.000000 -0.285228 0.936383 -0.204529
-15.94999981 9.57999992 -0.68000001 95 169 123 0.000000 0.000000 0.000000 0.000000 -60.708740 0.000000 97.000000 -0.443637 0.894099 0.061427
-15.97999954 9.46000004 -0.63000000 95 169 123 0.000000 0.000000 0.000000 0.000000 -60.708740 0.000000 97.000000 -0.138345 0.957877 0.251657
-16.11000061 9.61999989 -0.41000000 95 169 123 0.000000 0.000000 0.000000 0.000000 -60.708740 0.000000 97.000000 -0.494010 0.864871 -0.089177
-16.14999962 9.59000015 -0.41000000 95 169 123 0.000000 0.000000 0.000000 0.000000 -60.708740 0.000000 97.000000 -0.444036 0.868637 0.219776
-16.14999962 9.59000015 -0.36000001 95 169 123 0.000000 0.000000 0.000000 0.000000 -60.708740 0.000000 97.000000 -0.528553 0.825391 -0.198397
-16.11000061 9.59000015 -0.63000000 95 169 123 0.000000 0.000000 0.000000 0.000000 -60.708740 0.000000 97.000000 -0.415383 0.853929 -0.313468
-16.09000015 9.60000038 -0.62000000 95 169 123 0.000000 0.000000 0.000000 0.000000 -60.708740 0.000000 97.000000 -0.585116 0.768063 -0.260227
-16.05999947 9.48999977 -0.43000001 95 169 123 0.000000 0.000000 0.000000 0.000000 -60.708740 0.000000 97.000000 -0.221707 0.858171 0.463020
-16.09000015 9.50000000 -0.49000001 95 169 123 0.000000 0.000000 0.000000 0.000000 -60.708740 0.000000 97.000000 -0.414733 0.905248 -0.092316
-16.06999969 9.47000027 -0.50000000 95 169 123 0.000000 0.000000 0.000000 0.000000 -60.708740 0.000000 97.000000 -0.486841 0.716138 0.500133
-16.06999969 9.52000046 -0.51999998 95 169 123 0.000000 0.000000 0.000000 0.000000 -60.708740 0.000000 97.000000 -0.441457 0.875532 -0.196367
-16.10000038 9.43999958 -0.37000000 95 169 123 0.000000 0.000000 0.000000 0.000000 -60.708740 0.000000 97.000000 0.739701 -0.671290 0.047033
-16.05999947 9.39999962 -0.43000001 95 169 123 0.000000 0.000000 0.000000 0.000000 -60.708740 0.000000 97.000000 -0.163821 0.979228 -0.119478
-16.06999969 9.42000008 -0.40000001 95 169 123 0.000000 0.000000 0.000000 0.000000 -60.708740 0.000000 97.000000 -0.169497 0.888049 0.427364
-16.07999992 9.43000031 -0.51999998 95 169 123 0.000000 0.000000 0.000000 0.000000 -60.708740 0.000000 97.000000 0.796473 -0.557376 -0.234440
-16.10000038 9.43999958 -0.50999999 95 169 123 0.000000 0.000000 0.000000 0.000000 -60.708740 0.000000 97.000000 -0.171478 0.968270 0.181792
-16.09000015 9.42000008 -0.50999999 95 169 123 0.000000 0.000000 0.000000 0.000000 -60.708740 0.000000 97.000000 -0.604821 0.775451 0.181294
-16.12000084 9.43999958 -0.36000001 95 169 123 0.000000 0.000000 0.000000 0.000000 -60.708740 0.000000 97.000000 -0.563483 0.736611 0.374022
-16.12999916 9.43999958 -0.47000000 95 169 123 0.000000 0.000000 0.000000 0.000000 -60.708740 0.000000 97.000000 -0.668561 0.720816 -0.182894
-16.10000038 9.44999981 -0.54000002 95 169 123 0.000000 0.000000 0.000000 0.000000 -60.708740 0.000000 97.000000 -0.429563 0.802816 0.413475
-16.10000038 9.44999981 -0.55000001 95 169 123 0.000000 0.000000 0.000000 0.000000 -60.708740 0.000000 97.000000 0.487610 -0.815840 0.310871
-16.03000069 9.44999981 -0.63999999 95 169 123 0.000000 0.000000 0.000000 0.000000 -60.708740 0.000000 97.000000 -0.575130 0.763123 -0.294734
-16.07999992 9.42000008 -0.58999997 95 169 123 0.000000 0.000000 0.000000 0.000000 -60.708740 0.000000 97.000000 -0.697122 0.703145 -0.140027
-16.04000092 9.42000008 -0.56999999 95 169 123 0.000000 0.000000 0.000000 0.000000 -60.708740 0.000000 97.000000 -0.176237 0.982908 0.053226
-16.12999916 9.46000004 -0.56999999 95 169 123 0.000000 0.000000 0.000000 0.000000 -60.708740 0.000000 97.000000 0.861614 -0.506591 -0.031406
-16.12999916 9.40999985 -0.62000000 95 169 123 0.000000 0.000000 0.000000 0.000000 -60.708740 0.000000 97.000000 -0.556948 0.760355 0.334169
-16.05999947 9.31999969 -0.06000000 95 169 123 0.000000 0.000000 0.000000 0.000000 -60.708740 0.000000 97.000000 -0.539109 0.842102 0.015013
-16.18000031 9.03999996 -0.57999998 95 169 123 0.000000 0.000000 0.000000 0.000000 -60.708740 0.000000 97.000000 0.961613 0.269552 0.051403
-16.20999908 9.43999958 -0.04000000 95 169 123 0.000000 0.000000 0.000000 0.000000 -60.708740 0.000000 97.000000 -0.402670 0.913700 0.054849
-16.23999977 9.47000027 -0.10000000 95 169 123 0.000000 0.000000 0.000000 0.000000 -60.708740 0.000000 97.000000 -0.573160 0.699421 0.426963
-16.21999931 9.51000023 -0.25000000 95 169 123 0.000000 0.000000 0.000000 0.000000 -60.708740 0.000000 97.000000 0.731502 -0.640651 0.233391
-16.23999977 9.52000046 -0.25000000 95 169 123 0.000000 0.000000 0.000000 0.000000 -60.708740 0.000000 97.000000 -0.701495 0.712608 -0.009724
-16.25000000 9.52000046 -0.23999999 95 169 123 0.000000 0.000000 0.000000 0.000000 -60.708740 0.000000 97.000000 0.842893 -0.537872 0.014979
-16.25000000 9.48999977 -0.25000000 95 169 123 0.000000 0.000000 0.000000 0.000000 -60.708740 0.000000 97.000000 -0.424191 0.859102 0.286367
-16.26000023 9.51000023 -0.31000000 95 169 123 0.000000 0.000000 0.000000 0.000000 -60.708740 0.000000 97.000000 0.822215 -0.497697 -0.276152
-16.29999924 9.50000000 -0.33000001 95 169 123 0.000000 0.000000 0.000000 0.000000 -60.708740 0.000000 97.000000 0.750192 -0.658038 0.064796
-16.38999939 9.47999954 -0.17000000 95 169 123 0.000000 0.000000 0.000000 0.000000 -60.708740 0.000000 97.000000 -0.522958 0.780414 -0.342738
-16.37000084 9.51000023 -0.28000000 95 169 123 0.000000 0.000000 0.000000 0.000000 -60.708740 0.000000 97.000000 0.820837 -0.471075 -0.322978
-16.26000023 9.56999969 -0.38999999 95 169 123 0.000000 0.000000 0.000000 0.000000 -60.708740 0.000000 97.000000 -0.362340 0.917835 0.162137
-16.23999977 9.52999973 -0.37000000 95 169 123 0.000000 0.000000 0.000000 0.000000 -60.708740 0.000000 97.000000 -0.546557 0.830708 0.105832
-16.25000000 9.56999969 -0.40000001 95 169 123 0.000000 0.000000 0.000000 0.000000 -60.708740 0.000000 97.000000 -0.622989 0.781872 -0.023693
-16.23999977 9.56999969 -0.36000001 95 169 123 0.000000 0.000000 0.000000 0.000000 -60.708740 0.000000 97.000000 -0.634754 0.711888 0.300504
-16.26000023 9.52999973 -0.36000001 95 169 123 0.000000 0.000000 0.000000 0.000000 -60.708740 0.000000 97.000000 -0.659204 0.675481 0.330416
-16.20000076 9.53999996 -0.37000000 95 169 123 0.000000 0.000000 0.000000 0.000000 -60.708740 0.000000 97.000000 -0.639942 0.768209 -0.018125
-16.30999947 9.55000019 -0.36000001 95 169 123 0.000000 0.000000 0.000000 0.000000 -60.708740 0.000000 97.000000 0.790143 -0.547265 -0.275998
-16.22999954 9.55000019 -0.58999997 95 169 123 0.000000 0.000000 0.000000 0.000000 -60.708740 0.000000 97.000000 0.674742 -0.591441 -0.441498
-16.28000069 9.56999969 -0.52999997 95 169 123 0.000000 0.000000 0.000000 0.000000 -60.708740 0.000000 97.000000 -0.384175 0.919034 0.088238
-16.23999977 9.47000027 -0.47000000 95 169 123 0.000000 0.000000 0.000000 0.000000 -60.708740 0.000000 97.000000 -0.578676 0.701375 0.416182
-16.29000092 9.44999981 -0.47999999 95 169 123 0.000000 0.000000 0.000000 0.000000 -60.708740 0.000000 97.000000 0.830521 -0.552261 -0.072404
-16.28000069 9.42000008 -0.41999999 95 169 123 0.000000 0.000000 0.000000 0.000000 -60.708740 0.000000 97.000000 -0.460937 0.860315 0.217706
-16.26000023 9.47000027 -0.68000001 95 169 123 0.000000 0.000000 0.000000 0.000000 -60.708740 0.000000 97.000000 0.852010 -0.502994 0.145179
-16.28000069 9.46000004 -0.55000001 95 169 123 0.000000 0.000000 0.000000 0.000000 -60.708740 0.000000 97.000000 0.849983 -0.517443 -0.098902
-16.27000046 9.02999973 -0.04000000 95 169 123 0.000000 0.000000 0.000000 0.000000 -60.708740 0.000000 97.000000 0.995536 -0.075903 0.056102
-16.22999954 9.03999996 -0.04000000 95 169 123 0.000000 0.000000 0.000000 0.000000 -60.708740 0.000000 97.000000 0.951152 -0.174041 -0.254990
-16.22999954 9.02999973 -0.05000000 95 169 123 0.000000 0.000000 0.000000 0.000000 -60.708740 0.000000 97.000000 0.984802 0.084753 0.151600
-16.27000046 9.07999992 -0.18000001 95 169 123 0.000000 0.000000 0.000000 0.000000 -60.708740 0.000000 97.000000 0.812411 -0.579889 -0.060966
-16.32999992 9.07999992 -0.04000000 95 169 123 0.000000 0.000000 0.000000 0.000000 -60.708740 0.000000 97.000000 0.995838 -0.073562 -0.053799
-16.28000069 9.10000038 -0.08000000 95 169 123 0.000000 0.000000 0.000000 0.000000 -60.708740 0.000000 97.000000 0.919193 -0.391679 0.040882
-16.29000092 9.07999992 -0.17000000 95 169 123 0.000000 0.000000 0.000000 0.000000 -60.708740 0.000000 97.000000 0.995404 -0.074020 0.060763
-16.27000046 9.03999996 -0.20999999 95 169 123 0.000000 0.000000 0.000000 0.000000 -60.708740 0.000000 97.000000 0.973856 -0.109042 0.199283
-16.27000046 9.10999966 -0.23999999 95 169 123 0.000000 0.000000 0.000000 0.000000 -60.708740 0.000000 97.000000 0.908959 -0.175513 0.378138
-16.25000000 9.06999969 -0.34000000 95 169 123 0.000000 0.000000 0.000000 0.000000 -60.708740 0.000000 97.000000 0.874622 0.009347 0.484714
-16.23999977 9.06000042 -0.30000001 95 169 123 0.000000 0.000000 0.000000 0.000000 -60.708740 0.000000 97.000000 0.966380 -0.156956 -0.203653
-16.25000000 9.03999996 -0.31000000 95 169 123 0.000000 0.000000 0.000000 0.000000 -60.708740 0.000000 97.000000 0.908513 -0.185147 0.374600
-16.32999992 9.02999973 -0.34000000 95 169 123 0.000000 0.000000 0.000000 0.000000 -60.708740 0.000000 97.000000 0.980307 0.197447 -0.003464
-16.50000000 9.31999969 -0.12000000 95 169 123 0.000000 0.000000 0.000000 0.000000 -60.708740 0.000000 97.000000 0.749242 -0.655403 0.095305
-16.52000046 9.27999973 -0.20000000 95 169 123 0.000000 0.000000 0.000000 0.000000 -60.708740 0.000000 97.000000 0.873667 -0.390491 -0.290210
-16.45999908 9.28999996 -0.23000000 95 169 123 0.000000 0.000000 0.000000 0.000000 -60.708740 0.000000 97.000000 -0.615717 0.785075 0.067456
-16.48999977 9.27000046 -0.20999999 95 169 123 0.000000 0.000000 0.000000 0.000000 -60.708740 0.000000 97.000000 0.962511 -0.235744 0.134152
-16.50000000 9.27000046 -0.34000000 95 169 123 0.000000 0.000000 0.000000 0.000000 -60.708740 0.000000 97.000000 0.877528 -0.310696 0.365258
-16.53000069 9.19999981 -0.34000000 95 169 123 0.000000 0.000000 0.000000 0.000000 -60.708740 0.000000 97.000000 0.751672 -0.658594 0.035257
-16.23999977 9.05000019 -0.36000001 95 169 123 0.000000 0.000000 0.000000 0.000000 -60.708740 0.000000 97.000000 0.945712 0.245693 0.212751
-16.25000000 9.06999969 -0.43000001 95 169 123 0.000000 0.000000 0.000000 0.000000 -60.708740 0.000000 97.000000 0.964715 0.141526 0.222027
-16.25000000 9.03999996 -0.46000001 95 169 123 0.000000 0.000000 0.000000 0.000000 -60.708740 0.000000 97.000000 0.956288 -0.272666 -0.105674
-16.27000046 9.07999992 -0.44000000 95 169 123 0.000000 0.000000 0.000000 0.000000 -60.708740 0.000000 97.000000 0.828539 -0.361401 0.427684
-16.26000023 9.03999996 -0.60000002 95 169 123 0.000000 0.000000 0.000000 0.000000 -60.708740 0.000000 97.000000 0.889870 -0.360435 0.279674
-16.21999931 9.02999973 -0.57999998 95 169 123 0.000000 0.000000 0.000000 0.000000 -60.708740 0.000000 97.000000 0.887167 -0.003966 0.461432
-16.20000076 9.03999996 -0.69000000 95 169 123 0.000000 0.000000 0.000000 0.000000 -60.708740 0.000000 97.000000 0.943142 -0.285263 0.170612
-16.20000076 9.02999973 -0.67000002 95 169 123 0.000000 0.000000 0.000000 0.000000 -60.708740 0.000000 97.000000 0.935932 -0.314726 0.158050
-16.29000092 9.06999969 -0.64999998 95 169 123 0.000000 0.000000 0.000000 0.000000 -60.708740 0.000000 97.000000 0.982810 0.087815 0.162398
-16.28000069 9.03999996 -0.62000000 95 169 123 0.000000 0.000000 0.000000 0.000000 -60.708740 0.000000 97.000000 -0.871526 0.309842 -0.380053
-16.52000046 9.21000004 -0.38000000 95 169 123 0.000000 0.000000 0.000000 0.000000 -60.708740 0.000000 97.000000 0.960052 -0.279042 0.020897
-16.48999977 9.27000046 -0.52999997 95 169 123 0.000000 0.000000 0.000000 0.000000 -60.708740 0.000000 97.000000 0.956564 -0.212718 -0.199340
-16.48999977 9.26000023 -0.52999997 95 169 123 0.000000 0.000000 0.000000 0.000000 -60.708740 0.000000 97.000000 0.855729 -0.495884 0.147741
-16.51000023 9.22000027 -0.68000001 95 169 123 0.000000 0.000000 0.000000 0.000000 -60.708740 0.000000 97.000000 0.799137 -0.601072 0.009628
-15.92000008 9.65999985 -0.72000003 95 169 123 0.000000 0.000000 0.000000 0.000000 -60.708740 0.000000 97.000000 -0.253549 0.894093 0.369203
-15.92000008 9.55000019 -0.74000001 95 169 123 0.000000 0.000000 0.000000 0.000000 -60.708740 0.000000 97.000000 -0.097100 0.940410 0.325885
-15.94999981 9.57999992 -0.69999999 95 169 123 0.000000 0.000000 0.000000 0.000000 -60.708740 0.000000 97.000000 -0.037733 0.970093 0.239784
-15.96000004 9.60999966 -0.79000002 95 169 123 0.000000 0.000000 0.000000 0.000000 -60.708740 0.000000 97.000000 0.025319 0.999593 0.013166
-16.02000046 9.42000008 -0.70999998 95 169 123 0.000000 0.000000 0.000000 0.000000 -60.708740 0.000000 97.000000 -0.678263 0.723181 -0.130262
-16.02000046 9.50000000 -0.99000001 95 169 123 0.000000 0.000000 0.000000 0.000000 -60.708740 0.000000 97.000000 -0.281851 0.881725 0.378313
-16.02000046 9.51000023 -1.00000000 95 169 123 0.000000 0.000000 0.000000 0.000000 -60.708740 0.000000 97.000000 0.626750 -0.745535 -0.226630
-16.02000046 9.51000023 -1.00999999 95 169 123 0.000000 0.000000 0.000000 0.000000 -60.708740 0.000000 97.000000 -0.477476 0.803245 0.356111
-16.05999947 9.55000019 -0.72000003 95 169 123 0.000000 0.000000 0.000000 0.000000 -60.708740 0.000000 97.000000 -0.345980 0.918342 -0.192211
-16.04999924 9.53999996 -0.69999999 95 169 123 0.000000 0.000000 0.000000 0.000000 -60.708740 0.000000 97.000000 -0.297119 0.945136 0.135788
-16.06999969 9.53999996 -0.69999999 95 169 123 0.000000 0.000000 0.000000 0.000000 -60.708740 0.000000 97.000000 -0.569401 0.817343 -0.087933
-16.09000015 9.47999954 -0.81000000 95 169 123 0.000000 0.000000 0.000000 0.000000 -60.708740 0.000000 97.000000 -0.443254 0.854300 -0.271474
-16.05999947 9.39999962 -0.74000001 95 169 123 0.000000 0.000000 0.000000 0.000000 -60.708740 0.000000 97.000000 0.790677 -0.597829 0.132027
-16.07999992 9.36999989 -0.70999998 95 169 123 0.000000 0.000000 0.000000 0.000000 -60.708740 0.000000 97.000000 0.834162 -0.518533 0.187874
-16.13999939 9.44999981 -0.70999998 95 169 123 0.000000 0.000000 0.000000 0.000000 -60.708740 0.000000 97.000000 -0.570566 0.820101 -0.043458
-16.11000061 9.47000027 -0.86000001 95 169 123 0.000000 0.000000 0.000000 0.000000 -60.708740 0.000000 97.000000 -0.355603 0.902909 0.241459
-16.04999924 9.46000004 -0.92000002 95 169 123 0.000000 0.000000 0.000000 0.000000 -60.708740 0.000000 97.000000 0.756260 -0.612805 0.229217
-16.04999924 9.47000027 -0.94999999 95 169 123 0.000000 0.000000 0.000000 0.000000 -60.708740 0.000000 97.000000 -0.643953 0.760243 -0.085764
-16.04000092 9.39000034 -0.92000002 95 169 123 0.000000 0.000000 0.000000 0.000000 -60.708740 0.000000 97.000000 -0.464940 0.824283 0.323094
-16.06999969 9.36999989 -0.88000000 95 169 123 0.000000 0.000000 0.000000 0.000000 -60.708740 0.000000 97.000000 0.756210 -0.527550 -0.387088
-16.02000046 9.52000046 -1.08000004 95 169 123 0.000000 0.000000 0.000000 0.000000 -60.708740 0.000000 97.000000 0.761264 -0.641449 -0.094975
-15.98999977 9.36999989 -1.10000002 95 169 123 0.000000 0.000000 0.000000 0.000000 -60.708740 0.000000 97.000000 0.873719 -0.440568 -0.206192
-16.03000069 9.44999981 -1.05999994 95 169 123 0.000000 0.000000 0.000000 0.000000 -60.708740 0.000000 97.000000 0.691378 -0.691378 -0.209744
-16.04000092 9.52000046 -1.13000000 95 169 123 0.000000 0.000000 0.000000 0.000000 -60.708740 0.000000 97.000000 -0.676693 0.735780 -0.026730
-16.03000069 9.44999981 -1.25000000 95 169 123 0.000000 0.000000 0.000000 0.000000 -60.708740 0.000000 97.000000 0.916446 -0.398052 -0.040995
-16.09000015 9.44999981 -1.24000001 95 169 123 0.000000 0.000000 0.000000 0.000000 -60.708740 0.000000 97.000000 0.722208 -0.691356 0.021035
-16.09000015 9.38000011 -1.34000003 95 169 123 0.000000 0.000000 0.000000 0.000000 -60.708740 0.000000 97.000000 0.950390 -0.298545 0.087347
-16.03000069 9.43000031 -1.28999996 95 169 123 0.000000 0.000000 0.000000 0.000000 -60.708740 0.000000 97.000000 0.751329 -0.655785 -0.073830
-16.09000015 9.39000034 -1.32000005 95 169 123 0.000000 0.000000 0.000000 0.000000 -60.708740 0.000000 97.000000 0.977270 -0.211839 0.008193
-16.02000046 9.35999966 -0.97000003 95 169 123 0.000000 0.000000 0.000000 0.000000 -60.708740 0.000000 97.000000 0.805445 -0.497247 0.322496
-16.03000069 9.35999966 -0.86000001 95 169 123 0.000000 0.000000 0.000000 0.000000 -60.708740 0.000000 97.000000 0.778085 -0.605177 0.168358
-16.04999924 9.31000042 -0.88999999 95 169 123 0.000000 0.000000 0.000000 0.000000 -60.708740 0.000000 97.000000 0.862019 -0.506351 -0.023078
-16.06999969 9.34000015 -0.89999998 95 169 123 0.000000 0.000000 0.000000 0.000000 -60.708740 0.000000 97.000000 -0.581118 0.793537 0.180556
-16.04999924 9.34000015 -1.01999998 95 169 123 0.000000 0.000000 0.000000 0.000000 -60.708740 0.000000 97.000000 -0.595680 0.791765 -0.135179
-16.04000092 9.31999969 -0.99000001 95 169 123 0.000000 0.000000 0.000000 0.000000 -60.708740 0.000000 97.000000 0.958321 -0.234610 0.163034
-16.04999924 9.28999996 -0.95999998 95 169 123 0.000000 0.000000 0.000000 0.000000 -60.708740 0.000000 97.000000 0.937822 -0.215992 -0.271731
-16.17000008 9.03999996 -0.81999999 95 169 123 0.000000 0.000000 0.000000 0.000000 -60.708740 0.000000 97.000000 0.932765 0.287544 0.217411
-16.01000023 9.32999992 -1.15999997 95 169 123 0.000000 0.000000 0.000000 0.000000 -60.708740 0.000000 97.000000 0.833929 -0.533891 0.139724
-16.02000046 9.22999954 -1.35000002 95 169 123 0.000000 0.000000 0.000000 0.000000 -60.708740 0.000000 97.000000 0.904861 -0.420454 -0.066674
