//X Y Z R G B PointSourceId ScanDirectionFlag NumberOfReturns ReturnNumber GpsTime Intensity Classification Nx Ny Nz
3.33999991 -16.09000015 -0.20000000 226 19 133 0.000000 0.000000 0.000000 0.000000 -60.708740 0.000000 7.000000 0.804468 -0.356653 -0.475004
3.32999992 -16.07999992 -0.20999999 226 19 133 0.000000 0.000000 0.000000 0.000000 -60.708740 0.000000 7.000000 -0.478721 0.218974 0.850221
3.33999991 -16.09000015 -0.23999999 226 19 133 0.000000 0.000000 0.000000 0.000000 -60.708740 0.000000 7.000000 0.695422 -0.029622 -0.717991
3.31999993 -16.06999969 -0.25999999 226 19 133 0.000000 0.000000 0.000000 0.000000 -60.708740 0.000000 7.000000 -0.368286 0.190592 0.909967
3.35999990 -16.12999916 -0.20000000 226 19 133 0.000000 0.000000 0.000000 0.000000 -60.708740 0.000000 7.000000 0.725368 -0.120647 -0.677706
3.32999992 -16.13999939 -0.19000000 226 19 133 0.000000 0.000000 0.000000 0.000000 -60.708740 0.000000 7.000000 0.746972 -0.554940 -0.366163
3.35999990 -16.12999916 -0.20999999 226 19 133 0.000000 0.000000 0.000000 0.000000 -60.708740 0.000000 7.000000 -0.454057 0.017310 0.890804
3.33999991 -16.12000084 -0.19000000 226 19 133 0.000000 0.000000 0.000000 0.000000 -60.708740 0.000000 7.000000 0.789776 -0.091631 -0.606513
3.33999991 -16.11000061 -0.23000000 226 19 133 0.000000 0.000000 0.000000 0.000000 -60.708740 0.000000 7.000000 -0.715519 -0.067938 0.695282
3.34999990 -16.14999962 -0.25000000 226 19 133 0.000000 0.000000 0.000000 0.000000 -60.708740 0.000000 7.000000 0.514724 -0.455141 -0.726571
3.30999994 -16.06999969 -0.22000000 226 19 133 0.000000 0.000000 0.000000 0.000000 -60.708740 0.000000 7.000000 -0.531562 -0.142830 0.834890
3.28999996 -16.09000015 -0.23999999 226 19 133 0.000000 0.000000 0.000000 0.000000 -60.708740 0.000000 7.000000 -0.199336 0.168068 0.965411
3.30999994 -16.13999939 -0.22000000 226 19 133 0.000000 0.000000 0.000000 0.000000 -60.708740 0.000000 7.000000 -0.436447 0.078478 0.896301
3.28999996 -16.12999916 -0.23000000 226 19 133 0.000000 0.000000 0.000000 0.000000 -60.708740 0.000000 7.000000 0.725710 0.058919 -0.685473
3.58999991 -16.22999954 -0.10000000 226 19 133 0.000000 0.000000 0.000000 0.000000 -60.708740 0.000000 7.000000 -0.492684 0.512725 0.703118
3.58999991 -16.22999954 -0.10000000 226 19 133 0.000000 0.000000 0.000000 0.000000 -60.708740 0.000000 7.000000 -0.492684 0.512725 0.703118
3.60999990 -16.20999908 -0.07000000 226 19 133 0.000000 0.000000 0.000000 0.000000 -60.708740 0.000000 7.000000 -0.526444 0.434027 0.731080
3.52999997 -16.21999931 -0.10000000 226 19 133 0.000000 0.000000 0.000000 0.000000 -60.708740 0.000000 7.000000 -0.489765 0.424244 0.761674
3.52999997 -16.21999931 -0.10000000 226 19 133 0.000000 0.000000 0.000000 0.000000 -60.708740 0.000000 7.000000 -0.489765 0.424244 0.761674
3.55999994 -16.22999954 -0.10000000 226 19 133 0.000000 0.000000 0.000000 0.000000 -60.708740 0.000000 7.000000 -0.416163 0.785367 0.458265
3.56999993 -16.18000031 -0.11000000 226 19 133 0.000000 0.000000 0.000000 0.000000 -60.708740 0.000000 7.000000 0.774788 -0.187966 -0.603632
3.53999996 -16.20000076 -0.12000000 226 19 133 0.000000 0.000000 0.000000 0.000000 -60.708740 0.000000 7.000000 -0.541840 0.372617 0.753370
3.55999994 -16.22999954 -0.12000000 226 19 133 0.000000 0.000000 0.000000 0.000000 -60.708740 0.000000 7.000000 -0.612056 0.612056 0.500773
3.52999997 -16.21999931 -0.11000000 226 19 133 0.000000 0.000000 0.000000 0.000000 -60.708740 0.000000 7.000000 0.456165 -0.663361 -0.593182
3.60999990 -16.25000000 -0.07000000 226 19 133 0.000000 0.000000 0.000000 0.000000 -60.708740 0.000000 7.000000 -0.662787 0.727076 0.179090
3.57999992 -16.25000000 -0.09000000 226 19 133 0.000000 0.000000 0.000000 0.000000 -60.708740 0.000000 7.000000 0.791427 -0.534491 -0.296587
3.57999992 -16.23999977 -0.09000000 226 19 133 0.000000 0.000000 0.000000 0.000000 -60.708740 0.000000 7.000000 0.797800 -0.470333 -0.377229
3.57999992 -16.25000000 -0.10000000 226 19 133 0.000000 0.000000 0.000000 0.000000 -60.708740 0.000000 7.000000 0.887294 -0.380269 -0.260969
3.58999991 -16.23999977 -0.10000000 226 19 133 0.000000 0.000000 0.000000 0.000000 -60.708740 0.000000 7.000000 0.803149 -0.542164 -0.247003
3.57999992 -16.23999977 -0.09000000 226 19 133 0.000000 0.000000 0.000000 0.000000 -60.708740 0.000000 7.000000 0.797800 -0.470333 -0.377229
3.59999990 -16.23999977 -0.09000000 226 19 133 0.000000 0.000000 0.000000 0.000000 -60.708740 0.000000 7.000000 -0.415835 0.591446 0.690849
3.54999995 -16.25000000 -0.10000000 226 19 133 0.000000 0.000000 0.000000 0.000000 -60.708740 0.000000 7.000000 -0.654979 0.752866 0.064778
3.48000002 -16.19000053 -0.14000000 226 19 133 0.000000 0.000000 0.000000 0.000000 -60.708740 0.000000 7.000000 0.657119 -0.576449 -0.485696
3.48000002 -16.19000053 -0.15000001 226 19 133 0.000000 0.000000 0.000000 0.000000 -60.708740 0.000000 7.000000 0.864615 -0.430028 -0.259840
3.45000005 -16.22999954 -0.14000000 226 19 133 0.000000 0.000000 0.000000 0.000000 -60.708740 0.000000 7.000000 0.352979 -0.580707 -0.733611
3.45000005 -16.22999954 -0.13000000 226 19 133 0.000000 0.000000 0.000000 0.000000 -60.708740 0.000000 7.000000 0.564925 -0.487814 -0.665505
3.44000006 -16.17000008 -0.12000000 226 19 133 0.000000 0.000000 0.000000 0.000000 -60.708740 0.000000 7.000000 0.736494 -0.481617 -0.474997
3.44000006 -16.17000008 -0.14000000 226 19 133 0.000000 0.000000 0.000000 0.000000 -60.708740 0.000000 7.000000 0.783221 -0.452420 -0.426475
3.41000009 -16.17000008 -0.16000000 226 19 133 0.000000 0.000000 0.000000 0.000000 -60.708740 0.000000 7.000000 0.766646 -0.259747 -0.587185
3.36999989 -16.20999908 -0.14000000 226 19 133 0.000000 0.000000 0.000000 0.000000 -60.708740 0.000000 7.000000 -0.354682 0.536071 0.766047
3.36999989 -16.21999931 -0.11000000 226 19 133 0.000000 0.000000 0.000000 0.000000 -60.708740 0.000000 7.000000 0.733795 -0.475393 -0.485332
3.38000011 -16.25000000 -0.16000000 226 19 133 0.000000 0.000000 0.000000 0.000000 -60.708740 0.000000 7.000000 0.790221 -0.418542 -0.447630
3.38000011 -16.25000000 -0.15000001 226 19 133 0.000000 0.000000 0.000000 0.000000 -60.708740 0.000000 7.000000 -0.589236 0.768364 0.249836
3.38000011 -16.29000092 -0.14000000 226 19 133 0.000000 0.000000 0.000000 0.000000 -60.708740 0.000000 7.000000 0.663717 -0.600188 -0.446379
3.39000010 -16.28000069 -0.14000000 226 19 133 0.000000 0.000000 0.000000 0.000000 -60.708740 0.000000 7.000000 0.857910 -0.357076 -0.369442
3.36999989 -16.29999924 -0.14000000 226 19 133 0.000000 0.000000 0.000000 0.000000 -60.708740 0.000000 7.000000 -0.618456 0.517346 0.591494
3.39000010 -16.29000092 -0.13000000 226 19 133 0.000000 0.000000 0.000000 0.000000 -60.708740 0.000000 7.000000 0.601571 -0.384017 -0.700459
3.38000011 -16.30999947 -0.13000000 226 19 133 0.000000 0.000000 0.000000 0.000000 -60.708740 0.000000 7.000000 0.573778 -0.415038 -0.706061
3.36999989 -16.30999947 -0.15000001 226 19 133 0.000000 0.000000 0.000000 0.000000 -60.708740 0.000000 7.000000 -0.749197 0.546800 0.373783
3.32999992 -16.20000076 -0.14000000 226 19 133 0.000000 0.000000 0.000000 0.000000 -60.708740 0.000000 7.000000 0.814480 -0.242644 -0.527016
3.33999991 -16.22999954 -0.17000000 226 19 133 0.000000 0.000000 0.000000 0.000000 -60.708740 0.000000 7.000000 0.444455 -0.574296 -0.687491
3.27999997 -16.17000008 -0.14000000 226 19 133 0.000000 0.000000 0.000000 0.000000 -60.708740 0.000000 7.000000 0.495623 -0.646830 -0.579627
3.27999997 -16.18000031 -0.14000000 226 19 133 0.000000 0.000000 0.000000 0.000000 -60.708740 0.000000 7.000000 0.883793 -0.356829 -0.302627
3.27999997 -16.18000031 -0.14000000 226 19 133 0.000000 0.000000 0.000000 0.000000 -60.708740 0.000000 7.000000 0.883793 -0.356829 -0.302627
3.27999997 -16.17000008 -0.15000001 226 19 133 0.000000 0.000000 0.000000 0.000000 -60.708740 0.000000 7.000000 0.695694 -0.647270 -0.311529
3.34999990 -16.27000046 -0.16000000 226 19 133 0.000000 0.000000 0.000000 0.000000 -60.708740 0.000000 7.000000 -0.535873 0.508995 0.673620
3.31999993 -16.28000069 -0.13000000 226 19 133 0.000000 0.000000 0.000000 0.000000 -60.708740 0.000000 7.000000 0.750799 -0.400753 -0.525069
3.31999993 -16.30999947 -0.15000001 226 19 133 0.000000 0.000000 0.000000 0.000000 -60.708740 0.000000 7.000000 0.761733 -0.573296 -0.301819
3.34999990 -16.28000069 -0.17000000 226 19 133 0.000000 0.000000 0.000000 0.000000 -60.708740 0.000000 7.000000 0.706599 -0.393653 -0.588009
3.31999993 -16.30999947 -0.15000001 226 19 133 0.000000 0.000000 0.000000 0.000000 -60.708740 0.000000 7.000000 0.761733 -0.573296 -0.301819
3.27999997 -16.27000046 -0.13000000 226 19 133 0.000000 0.000000 0.000000 0.000000 -60.708740 0.000000 7.000000 -0.632022 0.724358 0.275415
3.27999997 -16.27000046 -0.13000000 226 19 133 0.000000 0.000000 0.000000 0.000000 -60.708740 0.000000 7.000000 -0.632022 0.724358 0.275415
3.30999994 -16.26000023 -0.14000000 226 19 133 0.000000 0.000000 0.000000 0.000000 -60.708740 0.000000 7.000000 -0.469991 0.715782 0.516492
3.28999996 -16.25000000 -0.17000000 226 19 133 0.000000 0.000000 0.000000 0.000000 -60.708740 0.000000 7.000000 -0.659949 0.176088 0.730384
3.29999995 -16.29999924 -0.14000000 226 19 133 0.000000 0.000000 0.000000 0.000000 -60.708740 0.000000 7.000000 -0.648734 0.234047 0.724132
3.27999997 -16.29999924 -0.11000000 226 19 133 0.000000 0.000000 0.000000 0.000000 -60.708740 0.000000 7.000000 0.610363 -0.427421 -0.666909
3.30999994 -16.30999947 -0.16000000 226 19 133 0.000000 0.000000 0.000000 0.000000 -60.708740 0.000000 7.000000 -0.598459 0.500682 0.625431
3.27999997 -16.29999924 -0.18000001 226 19 133 0.000000 0.000000 0.000000 0.000000 -60.708740 0.000000 7.000000 0.502775 -0.553221 -0.664201
3.30999994 -16.30999947 -0.16000000 226 19 133 0.000000 0.000000 0.000000 0.000000 -60.708740 0.000000 7.000000 -0.598459 0.500682 0.625431
3.36999989 -16.15999985 -0.20000000 226 19 133 0.000000 0.000000 0.000000 0.000000 -60.708740 0.000000 7.000000 -0.477756 0.561572 0.675563
3.32999992 -16.20000076 -0.19000000 226 19 133 0.000000 0.000000 0.000000 0.000000 -60.708740 0.000000 7.000000 -0.412231 0.377483 0.829200
3.35999990 -16.20999908 -0.20999999 226 19 133 0.000000 0.000000 0.000000 0.000000 -60.708740 0.000000 7.000000 0.817774 -0.205586 -0.537569
3.33999991 -16.23999977 -0.20999999 226 19 133 0.000000 0.000000 0.000000 0.000000 -60.708740 0.000000 7.000000 0.559607 -0.385653 -0.733561
3.29999995 -16.25000000 -0.19000000 226 19 133 0.000000 0.000000 0.000000 0.000000 -60.708740 0.000000 7.000000 -0.289605 0.628811 0.721613
3.27999997 -16.23999977 -0.23000000 226 19 133 0.000000 0.000000 0.000000 0.000000 -60.708740 0.000000 7.000000 -0.305168 0.663619 0.682995
3.31999993 -16.35000038 -0.13000000 226 19 133 0.000000 0.000000 0.000000 0.000000 -60.708740 0.000000 7.000000 -0.368097 0.864027 0.343455
3.33999991 -16.31999969 -0.17000000 226 19 133 0.000000 0.000000 0.000000 0.000000 -60.708740 0.000000 7.000000 -0.721653 0.529212 0.446264
3.29999995 -16.32999992 -0.11000000 226 19 133 0.000000 0.000000 0.000000 0.000000 -60.708740 0.000000 7.000000 0.473753 -0.744469 -0.470451
3.28999996 -16.31999969 -0.13000000 226 19 133 0.000000 0.000000 0.000000 0.000000 -60.708740 0.000000 7.000000 -0.616239 0.420239 0.666070
3.27999997 -16.35000038 -0.12000000 226 19 133 0.000000 0.000000 0.000000 0.000000 -60.708740 0.000000 7.000000 -0.609443 0.756712 0.236570
3.27999997 -16.32999992 -0.13000000 226 19 133 0.000000 0.000000 0.000000 0.000000 -60.708740 0.000000 7.000000 -0.405858 0.734487 0.543882
3.30999994 -16.35000038 -0.18000001 226 19 133 0.000000 0.000000 0.000000 0.000000 -60.708740 0.000000 7.000000 0.859030 -0.211384 -0.466245
3.28999996 -16.32999992 -0.16000000 226 19 133 0.000000 0.000000 0.000000 0.000000 -60.708740 0.000000 7.000000 0.493577 -0.694354 -0.523693
3.29999995 -16.31999969 -0.16000000 226 19 133 0.000000 0.000000 0.000000 0.000000 -60.708740 0.000000 7.000000 -0.646023 0.757356 0.095219
3.29999995 -16.37999916 -0.14000000 226 19 133 0.000000 0.000000 0.000000 0.000000 -60.708740 0.000000 7.000000 0.668391 -0.381230 -0.638684
3.29999995 -16.40999985 -0.17000000 226 19 133 0.000000 0.000000 0.000000 0.000000 -60.708740 0.000000 7.000000 -0.482854 0.861505 0.157038
3.31999993 -16.31999969 -0.19000000 226 19 133 0.000000 0.000000 0.000000 0.000000 -60.708740 0.000000 7.000000 0.696373 -0.654558 -0.294310
3.31999993 -16.31999969 -0.20000000 226 19 133 0.000000 0.000000 0.000000 0.000000 -60.708740 0.000000 7.000000 0.709609 -0.584480 -0.393495
3.29999995 -16.38999939 -0.20000000 226 19 133 0.000000 0.000000 0.000000 0.000000 -60.708740 0.000000 7.000000 0.693084 -0.329499 -0.641143
3.26999998 -15.82999992 -0.27000001 226 19 133 0.000000 0.000000 0.000000 0.000000 -60.708740 0.000000 7.000000 -0.099073 -0.305145 0.947138
3.26999998 -15.82999992 -0.25999999 226 19 133 0.000000 0.000000 0.000000 0.000000 -60.708740 0.000000 7.000000 -0.235492 -0.171630 0.956602
3.26999998 -15.85000038 -0.27000001 226 19 133 0.000000 0.000000 0.000000 0.000000 -60.708740 0.000000 7.000000 -0.370147 0.153407 0.916219
3.25999999 -15.81999969 -0.27000001 226 19 133 0.000000 0.000000 0.000000 0.000000 -60.708740 0.000000 7.000000 -0.356441 0.209247 0.910585
3.25999999 -15.81999969 -0.27000001 226 19 133 0.000000 0.000000 0.000000 0.000000 -60.708740 0.000000 7.000000 -0.356441 0.209247 0.910585
3.24000001 -15.85999966 -0.23999999 226 19 133 0.000000 0.000000 0.000000 0.000000 -60.708740 0.000000 7.000000 -0.178944 -0.053328 0.982413
3.25000000 -15.85999966 -0.27000001 226 19 133 0.000000 0.000000 0.000000 0.000000 -60.708740 0.000000 7.000000 -0.292607 0.205805 0.933823
3.26999998 -15.85999966 -0.23999999 226 19 133 0.000000 0.000000 0.000000 0.000000 -60.708740 0.000000 7.000000 -0.159944 -0.476897 0.864284
3.25999999 -15.85999966 -0.27000001 226 19 133 0.000000 0.000000 0.000000 0.000000 -60.708740 0.000000 7.000000 -0.026823 0.076177 0.996733
3.25000000 -15.89000034 -0.25999999 226 19 133 0.000000 0.000000 0.000000 0.000000 -60.708740 0.000000 7.000000 -0.086282 0.068353 0.993923
3.22000003 -15.84000015 -0.25000000 226 19 133 0.000000 0.000000 0.000000 0.000000 -60.708740 0.000000 7.000000 -0.006161 -0.304368 0.952535
3.23000002 -15.85999966 -0.25999999 226 19 133 0.000000 0.000000 0.000000 0.000000 -60.708740 0.000000 7.000000 -0.216918 0.146777 0.965092
3.23000002 -15.89000034 -0.25999999 226 19 133 0.000000 0.000000 0.000000 0.000000 -60.708740 0.000000 7.000000 0.008576 -0.290371 0.956876
3.20000005 -15.86999989 -0.27000001 226 19 133 0.000000 0.000000 0.000000 0.000000 -60.708740 0.000000 7.000000 -0.550759 -0.090595 0.829733
3.23000002 -15.88000011 -0.25000000 226 19 133 0.000000 0.000000 0.000000 0.000000 -60.708740 0.000000 7.000000 0.083577 -0.220792 0.971733
3.24000001 -15.84000015 -0.28999999 226 19 133 0.000000 0.000000 0.000000 0.000000 -60.708740 0.000000 7.000000 -0.269041 -0.386277 0.882274
3.25000000 -15.85000038 -0.28999999 226 19 133 0.000000 0.000000 0.000000 0.000000 -60.708740 0.000000 7.000000 0.100462 -0.009722 0.994893
3.26999998 -15.86999989 -0.28000000 226 19 133 0.000000 0.000000 0.000000 0.000000 -60.708740 0.000000 7.000000 0.473204 -0.020108 -0.880723
3.23000002 -15.82999992 -0.28000000 226 19 133 0.000000 0.000000 0.000000 0.000000 -60.708740 0.000000 7.000000 -0.262323 -0.426085 0.865817
3.20000005 -15.84000015 -0.28000000 226 19 133 0.000000 0.000000 0.000000 0.000000 -60.708740 0.000000 7.000000 -0.009930 -0.126880 0.991868
3.23000002 -15.82999992 -0.28000000 226 19 133 0.000000 0.000000 0.000000 0.000000 -60.708740 0.000000 7.000000 -0.262323 -0.426085 0.865817
3.21000004 -15.85000038 -0.28999999 226 19 133 0.000000 0.000000 0.000000 0.000000 -60.708740 0.000000 7.000000 -0.262834 -0.391998 0.881621
3.20000005 -15.85000038 -0.28999999 226 19 133 0.000000 0.000000 0.000000 0.000000 -60.708740 0.000000 7.000000 -0.066432 -0.051185 0.996477
3.22000003 -15.85000038 -0.28000000 226 19 133 0.000000 0.000000 0.000000 0.000000 -60.708740 0.000000 7.000000 -0.538341 -0.087106 0.838213
3.23000002 -15.82999992 -0.28000000 226 19 133 0.000000 0.000000 0.000000 0.000000 -60.708740 0.000000 7.000000 -0.262323 -0.426085 0.865817
3.21000004 -15.84000015 -0.28000000 226 19 133 0.000000 0.000000 0.000000 0.000000 -60.708740 0.000000 7.000000 -0.149882 -0.368403 0.917505
3.21000004 -15.84000015 -0.28000000 226 19 133 0.000000 0.000000 0.000000 0.000000 -60.708740 0.000000 7.000000 -0.149882 -0.368403 0.917505
3.23000002 -15.81999969 -0.28000000 226 19 133 0.000000 0.000000 0.000000 0.000000 -60.708740 0.000000 7.000000 0.047955 -0.101487 0.993680
3.21000004 -15.85999966 -0.28999999 226 19 133 0.000000 0.000000 0.000000 0.000000 -60.708740 0.000000 7.000000 -0.284535 -0.008548 0.958627
3.21000004 -15.86999989 -0.28999999 226 19 133 0.000000 0.000000 0.000000 0.000000 -60.708740 0.000000 7.000000 -0.155847 0.003364 0.987776
3.22000003 -15.88000011 -0.30000001 226 19 133 0.000000 0.000000 0.000000 0.000000 -60.708740 0.000000 7.000000 -0.513436 -0.349265 0.783835
3.20000005 -15.89000034 -0.28000000 226 19 133 0.000000 0.000000 0.000000 0.000000 -60.708740 0.000000 7.000000 -0.529277 -0.246789 0.811764
3.21000004 -15.88000011 -0.31000000 226 19 133 0.000000 0.000000 0.000000 0.000000 -60.708740 0.000000 7.000000 -0.244490 -0.269928 0.931323
3.25000000 -15.89999962 -0.25999999 226 19 133 0.000000 0.000000 0.000000 0.000000 -60.708740 0.000000 7.000000 -0.087240 0.195368 0.976842
3.25999999 -15.89999962 -0.25999999 226 19 133 0.000000 0.000000 0.000000 0.000000 -60.708740 0.000000 7.000000 -0.327387 0.171356 0.929223
3.26999998 -15.90999985 -0.27000001 226 19 133 0.000000 0.000000 0.000000 0.000000 -60.708740 0.000000 7.000000 -0.349902 -0.415803 0.839450
3.25000000 -15.97000027 -0.25000000 226 19 133 0.000000 0.000000 0.000000 0.000000 -60.708740 0.000000 7.000000 -0.465719 -0.351276 0.812226
3.23000002 -15.93999958 -0.27000001 226 19 133 0.000000 0.000000 0.000000 0.000000 -60.708740 0.000000 7.000000 -0.382365 0.179010 0.906506
3.22000003 -15.89999962 -0.25999999 226 19 133 0.000000 0.000000 0.000000 0.000000 -60.708740 0.000000 7.000000 -0.090594 -0.165486 0.982042
3.23000002 -15.96000004 -0.27000001 226 19 133 0.000000 0.000000 0.000000 0.000000 -60.708740 0.000000 7.000000 0.679662 0.080046 -0.729145
3.22000003 -15.97999954 -0.27000001 226 19 133 0.000000 0.000000 0.000000 0.000000 -60.708740 0.000000 7.000000 -0.249573 -0.182121 0.951076
3.21000004 -15.90999985 -0.30000001 226 19 133 0.000000 0.000000 0.000000 0.000000 -60.708740 0.000000 7.000000 -0.203144 0.156563 0.966551
3.21000004 -15.90999985 -0.30000001 226 19 133 0.000000 0.000000 0.000000 0.000000 -60.708740 0.000000 7.000000 -0.203144 0.156563 0.966551
3.20000005 -15.89999962 -0.28000000 226 19 133 0.000000 0.000000 0.000000 0.000000 -60.708740 0.000000 7.000000 -0.377262 -0.182176 0.908012
3.21000004 -15.90999985 -0.30000001 226 19 133 0.000000 0.000000 0.000000 0.000000 -60.708740 0.000000 7.000000 -0.203144 0.156563 0.966551
3.21000004 -15.93999958 -0.28000000 226 19 133 0.000000 0.000000 0.000000 0.000000 -60.708740 0.000000 7.000000 -0.084357 -0.235445 0.968220
3.21000004 -15.96000004 -0.28000000 226 19 133 0.000000 0.000000 0.000000 0.000000 -60.708740 0.000000 7.000000 -0.018449 0.096585 0.995154
3.19000006 -15.82999992 -0.27000001 226 19 133 0.000000 0.000000 0.000000 0.000000 -60.708740 0.000000 7.000000 -0.394880 -0.202540 0.896129
3.18000007 -15.85000038 -0.25000000 226 19 133 0.000000 0.000000 0.000000 0.000000 -60.708740 0.000000 7.000000 -0.075390 0.013804 0.997059
3.18000007 -15.81999969 -0.27000001 226 19 133 0.000000 0.000000 0.000000 0.000000 -60.708740 0.000000 7.000000 -0.197946 -0.278231 0.939896
3.18000007 -15.85000038 -0.28999999 226 19 133 0.000000 0.000000 0.000000 0.000000 -60.708740 0.000000 7.000000 0.083168 -0.167542 0.982351
3.17000008 -15.84000015 -0.30000001 226 19 133 0.000000 0.000000 0.000000 0.000000 -60.708740 0.000000 7.000000 -0.180582 -0.362587 0.914287
3.18000007 -15.81999969 -0.28000000 226 19 133 0.000000 0.000000 0.000000 0.000000 -60.708740 0.000000 7.000000 -0.232545 -0.478768 0.846584
3.18000007 -15.85000038 -0.28999999 226 19 133 0.000000 0.000000 0.000000 0.000000 -60.708740 0.000000 7.000000 0.083168 -0.167542 0.982351
3.16000009 -15.84000015 -0.30000001 226 19 133 0.000000 0.000000 0.000000 0.000000 -60.708740 0.000000 7.000000 0.197261 -0.248957 0.948213
3.19000006 -15.82999992 -0.28000000 226 19 133 0.000000 0.000000 0.000000 0.000000 -60.708740 0.000000 7.000000 -0.164716 -0.605973 0.778245
3.19000006 -15.85999966 -0.28999999 226 19 133 0.000000 0.000000 0.000000 0.000000 -60.708740 0.000000 7.000000 -0.392462 -0.339720 0.854730
3.19000006 -15.85999966 -0.28999999 226 19 133 0.000000 0.000000 0.000000 0.000000 -60.708740 0.000000 7.000000 -0.392462 -0.339720 0.854730
3.16000009 -15.88000011 -0.28000000 226 19 133 0.000000 0.000000 0.000000 0.000000 -60.708740 0.000000 7.000000 -0.283830 -0.559732 0.778550
3.19000006 -15.89000034 -0.28000000 226 19 133 0.000000 0.000000 0.000000 0.000000 -60.708740 0.000000 7.000000 -0.384076 -0.435074 0.814369
3.19000006 -15.85999966 -0.28999999 226 19 133 0.000000 0.000000 0.000000 0.000000 -60.708740 0.000000 7.000000 -0.392462 -0.339720 0.854730
3.10999990 -15.85000038 -0.28000000 226 19 133 0.000000 0.000000 0.000000 0.000000 -60.708740 0.000000 7.000000 -0.066561 -0.192422 0.979052
3.11999989 -15.84000015 -0.31999999 226 19 133 0.000000 0.000000 0.000000 0.000000 -60.708740 0.000000 7.000000 -0.281281 -0.325461 0.902749
3.11999989 -15.86999989 -0.28999999 226 19 133 0.000000 0.000000 0.000000 0.000000 -60.708740 0.000000 7.000000 -0.034738 -0.565538 0.823990
3.13000011 -15.89000034 -0.28000000 226 19 133 0.000000 0.000000 0.000000 0.000000 -60.708740 0.000000 7.000000 -0.194221 0.155634 0.968533
3.10999990 -15.88000011 -0.28999999 226 19 133 0.000000 0.000000 0.000000 0.000000 -60.708740 0.000000 7.000000 -0.189279 -0.348672 0.917933
3.11999989 -15.85999966 -0.28000000 226 19 133 0.000000 0.000000 0.000000 0.000000 -60.708740 0.000000 7.000000 -0.433234 -0.075644 0.898101
3.14000010 -15.88000011 -0.28000000 226 19 133 0.000000 0.000000 0.000000 0.000000 -60.708740 0.000000 7.000000 0.159755 -0.299028 0.940777
3.10999990 -15.86999989 -0.28000000 226 19 133 0.000000 0.000000 0.000000 0.000000 -60.708740 0.000000 7.000000 -0.249416 -0.216344 0.943921
3.14000010 -15.85999966 -0.31000000 226 19 133 0.000000 0.000000 0.000000 0.000000 -60.708740 0.000000 7.000000 -0.241342 -0.131760 0.961454
3.16000009 -15.93999958 -0.27000001 226 19 133 0.000000 0.000000 0.000000 0.000000 -60.708740 0.000000 7.000000 -0.335805 -0.075062 0.938936
3.10999990 -15.89999962 -0.27000001 226 19 133 0.000000 0.000000 0.000000 0.000000 -60.708740 0.000000 7.000000 -0.026296 -0.053645 0.998214
3.14000010 -15.97999954 -0.27000001 226 19 133 0.000000 0.000000 0.000000 0.000000 -60.708740 0.000000 7.000000 -0.570327 0.207531 0.794769
3.18000007 -15.93999958 -0.30000001 226 19 133 0.000000 0.000000 0.000000 0.000000 -60.708740 0.000000 7.000000 -0.366289 -0.079161 0.927128
3.17000008 -15.93000031 -0.28000000 226 19 133 0.000000 0.000000 0.000000 0.000000 -60.708740 0.000000 7.000000 -0.385504 0.248568 0.888595
3.18000007 -15.89999962 -0.28000000 226 19 133 0.000000 0.000000 0.000000 0.000000 -60.708740 0.000000 7.000000 -0.023670 -0.029844 0.999274
3.17000008 -15.93000031 -0.28000000 226 19 133 0.000000 0.000000 0.000000 0.000000 -60.708740 0.000000 7.000000 -0.385504 0.248568 0.888595
3.17000008 -15.93000031 -0.28000000 226 19 133 0.000000 0.000000 0.000000 0.000000 -60.708740 0.000000 7.000000 -0.385504 0.248568 0.888595
3.19000006 -15.89999962 -0.31999999 226 19 133 0.000000 0.000000 0.000000 0.000000 -60.708740 0.000000 7.000000 -0.653294 -0.020984 0.756814
3.17000008 -15.97000027 -0.30000001 226 19 133 0.000000 0.000000 0.000000 0.000000 -60.708740 0.000000 7.000000 -0.480963 0.119164 0.868605
3.17000008 -15.97000027 -0.31000000 226 19 133 0.000000 0.000000 0.000000 0.000000 -60.708740 0.000000 7.000000 -0.354497 0.330154 0.874832
3.14000010 -15.93000031 -0.31000000 226 19 133 0.000000 0.000000 0.000000 0.000000 -60.708740 0.000000 7.000000 -0.522856 -0.089755 0.847682
3.11999989 -15.89999962 -0.31000000 226 19 133 0.000000 0.000000 0.000000 0.000000 -60.708740 0.000000 7.000000 -0.176253 -0.432622 0.884179
3.11999989 -15.97999954 -0.28000000 226 19 133 0.000000 0.000000 0.000000 0.000000 -60.708740 0.000000 7.000000 -0.179321 -0.312770 0.932748
3.14000010 -15.94999981 -0.28000000 226 19 133 0.000000 0.000000 0.000000 0.000000 -60.708740 0.000000 7.000000 -0.133564 0.232116 0.963474
3.10999990 -15.97999954 -0.28000000 226 19 133 0.000000 0.000000 0.000000 0.000000 -60.708740 0.000000 7.000000 0.574227 0.368094 -0.731280
3.15000010 -15.97000027 -0.28000000 226 19 133 0.000000 0.000000 0.000000 0.000000 -60.708740 0.000000 7.000000 -0.339353 -0.417545 0.842909
3.14000010 -15.97000027 -0.28000000 226 19 133 0.000000 0.000000 0.000000 0.000000 -60.708740 0.000000 7.000000 -0.077337 -0.075095 0.994173
3.14000010 -15.97000027 -0.28000000 226 19 133 0.000000 0.000000 0.000000 0.000000 -60.708740 0.000000 7.000000 -0.077337 -0.075095 0.994173
3.10999990 -15.97999954 -0.28000000 226 19 133 0.000000 0.000000 0.000000 0.000000 -60.708740 0.000000 7.000000 0.574227 0.368094 -0.731280
3.13000011 -15.94999981 -0.31000000 226 19 133 0.000000 0.000000 0.000000 0.000000 -60.708740 0.000000 7.000000 -0.193969 -0.218048 0.956468
3.15000010 -15.96000004 -0.28000000 226 19 133 0.000000 0.000000 0.000000 0.000000 -60.708740 0.000000 7.000000 -0.011586 0.070569 0.997440
3.10999990 -15.97000027 -0.33000001 226 19 133 0.000000 0.000000 0.000000 0.000000 -60.708740 0.000000 7.000000 -0.023347 -0.271561 0.962138
3.24000001 -16.04999924 -0.15000001 226 19 133 0.000000 0.000000 0.000000 0.000000 -60.708740 0.000000 7.000000 0.682976 0.169598 -0.710479
3.21000004 -16.01000023 -0.17000000 226 19 133 0.000000 0.000000 0.000000 0.000000 -60.708740 0.000000 7.000000 -0.583439 -0.177305 0.792567
3.20000005 -16.05999947 -0.18000001 226 19 133 0.000000 0.000000 0.000000 0.000000 -60.708740 0.000000 7.000000 -0.221620 0.124261 0.967184
3.21000004 -16.04000092 -0.16000000 226 19 133 0.000000 0.000000 0.000000 0.000000 -60.708740 0.000000 7.000000 -0.156336 0.260560 0.952716
3.21000004 -16.05999947 -0.18000001 226 19 133 0.000000 0.000000 0.000000 0.000000 -60.708740 0.000000 7.000000 -0.421969 0.134973 0.896507
3.25000000 -16.14999962 -0.10000000 226 19 133 0.000000 0.000000 0.000000 0.000000 -60.708740 0.000000 7.000000 -0.338718 0.485018 0.806243
3.26999998 -16.09000015 -0.18000001 226 19 133 0.000000 0.000000 0.000000 0.000000 -60.708740 0.000000 7.000000 -0.401872 0.496238 0.769576
3.26999998 -16.09000015 -0.18000001 226 19 133 0.000000 0.000000 0.000000 0.000000 -60.708740 0.000000 7.000000 -0.401872 0.496238 0.769576
3.26999998 -16.10000038 -0.18000001 226 19 133 0.000000 0.000000 0.000000 0.000000 -60.708740 0.000000 7.000000 0.858004 -0.141301 -0.493826
3.26999998 -16.10000038 -0.18000001 226 19 133 0.000000 0.000000 0.000000 0.000000 -60.708740 0.000000 7.000000 0.858004 -0.141301 -0.493826
3.24000001 -16.10000038 -0.16000000 226 19 133 0.000000 0.000000 0.000000 0.000000 -60.708740 0.000000 7.000000 0.300296 -0.605409 -0.737090
3.24000001 -16.10000038 -0.16000000 226 19 133 0.000000 0.000000 0.000000 0.000000 -60.708740 0.000000 7.000000 0.300296 -0.605409 -0.737090
3.26999998 -16.10000038 -0.17000000 226 19 133 0.000000 0.000000 0.000000 0.000000 -60.708740 0.000000 7.000000 -0.628407 0.467535 0.621704
3.24000001 -16.14999962 -0.18000001 226 19 133 0.000000 0.000000 0.000000 0.000000 -60.708740 0.000000 7.000000 -0.467448 0.273064 0.840790
3.26999998 -16.11000061 -0.17000000 226 19 133 0.000000 0.000000 0.000000 0.000000 -60.708740 0.000000 7.000000 0.761780 -0.018104 -0.647583
3.22000003 -16.10000038 -0.17000000 226 19 133 0.000000 0.000000 0.000000 0.000000 -60.708740 0.000000 7.000000 0.745908 -0.130048 -0.653230
3.23000002 -16.10000038 -0.16000000 226 19 133 0.000000 0.000000 0.000000 0.000000 -60.708740 0.000000 7.000000 -0.402205 0.434253 0.806012
3.22000003 -16.12999916 -0.14000000 226 19 133 0.000000 0.000000 0.000000 0.000000 -60.708740 0.000000 7.000000 0.680931 -0.486857 -0.547087
3.23000002 -16.13999939 -0.12000000 226 19 133 0.000000 0.000000 0.000000 0.000000 -60.708740 0.000000 7.000000 0.776591 -0.287450 -0.560606
3.23000002 -16.13999939 -0.13000000 226 19 133 0.000000 0.000000 0.000000 0.000000 -60.708740 0.000000 7.000000 0.851084 -0.304290 -0.427859
3.22000003 -16.11000061 -0.16000000 226 19 133 0.000000 0.000000 0.000000 0.000000 -60.708740 0.000000 7.000000 -0.596125 0.218321 0.772639
3.23000002 -16.11000061 -0.16000000 226 19 133 0.000000 0.000000 0.000000 0.000000 -60.708740 0.000000 7.000000 -0.536029 0.081044 0.840300
3.21000004 -16.11000061 -0.18000001 226 19 133 0.000000 0.000000 0.000000 0.000000 -60.708740 0.000000 7.000000 -0.701679 0.525009 0.481675
3.18000007 -16.04000092 -0.17000000 226 19 133 0.000000 0.000000 0.000000 0.000000 -60.708740 0.000000 7.000000 -0.488399 0.350687 0.799053
3.11999989 -16.04000092 -0.18000001 226 19 133 0.000000 0.000000 0.000000 0.000000 -60.708740 0.000000 7.000000 -0.397185 -0.180539 0.899805
3.18000007 -16.04999924 -0.16000000 226 19 133 0.000000 0.000000 0.000000 0.000000 -60.708740 0.000000 7.000000 -0.257308 0.348468 0.901312
3.25999999 -16.02000046 -0.19000000 226 19 133 0.000000 0.000000 0.000000 0.000000 -60.708740 0.000000 7.000000 -0.307068 0.415082 0.856397
3.24000001 -16.00000000 -0.23999999 226 19 133 0.000000 0.000000 0.000000 0.000000 -60.708740 0.000000 7.000000 -0.461758 0.290736 0.838005
3.25000000 -16.04000092 -0.20999999 226 19 133 0.000000 0.000000 0.000000 0.000000 -60.708740 0.000000 7.000000 0.737508 -0.371207 -0.564169
3.25999999 -16.04000092 -0.20000000 226 19 133 0.000000 0.000000 0.000000 0.000000 -60.708740 0.000000 7.000000 0.826585 -0.152851 -0.541658
3.25000000 -16.04000092 -0.20999999 226 19 133 0.000000 0.000000 0.000000 0.000000 -60.708740 0.000000 7.000000 0.737508 -0.371207 -0.564169
3.25999999 -16.05999947 -0.19000000 226 19 133 0.000000 0.000000 0.000000 0.000000 -60.708740 0.000000 7.000000 0.781190 -0.055494 -0.621822
3.26999998 -16.04000092 -0.25000000 226 19 133 0.000000 0.000000 0.000000 0.000000 -60.708740 0.000000 7.000000 -0.486643 0.264178 0.832700
3.21000004 -16.02000046 -0.20999999 226 19 133 0.000000 0.000000 0.000000 0.000000 -60.708740 0.000000 7.000000 -0.419798 0.175763 0.890436
3.23000002 -15.98999977 -0.27000001 226 19 133 0.000000 0.000000 0.000000 0.000000 -60.708740 0.000000 7.000000 -0.506296 0.086510 0.858009
3.20000005 -15.98999977 -0.25999999 226 19 133 0.000000 0.000000 0.000000 0.000000 -60.708740 0.000000 7.000000 -0.391276 0.407117 0.825323
3.23000002 -15.98999977 -0.27000001 226 19 133 0.000000 0.000000 0.000000 0.000000 -60.708740 0.000000 7.000000 -0.506296 0.086510 0.858009
3.20000005 -16.04999924 -0.22000000 226 19 133 0.000000 0.000000 0.000000 0.000000 -60.708740 0.000000 7.000000 0.594082 -0.402122 -0.696681
3.21000004 -16.04999924 -0.20999999 226 19 133 0.000000 0.000000 0.000000 0.000000 -60.708740 0.000000 7.000000 -0.314274 -0.110999 0.942821
3.20000005 -16.04999924 -0.22000000 226 19 133 0.000000 0.000000 0.000000 0.000000 -60.708740 0.000000 7.000000 0.594082 -0.402122 -0.696681
3.21000004 -16.03000069 -0.20999999 226 19 133 0.000000 0.000000 0.000000 0.000000 -60.708740 0.000000 7.000000 -0.490909 0.128882 0.861625
3.20000005 -16.04000092 -0.20999999 226 19 133 0.000000 0.000000 0.000000 0.000000 -60.708740 0.000000 7.000000 0.786715 -0.106946 -0.607982
3.22000003 -16.04000092 -0.20000000 226 19 133 0.000000 0.000000 0.000000 0.000000 -60.708740 0.000000 7.000000 -0.642696 -0.098088 0.759816
3.22000003 -16.05999947 -0.20999999 226 19 133 0.000000 0.000000 0.000000 0.000000 -60.708740 0.000000 7.000000 -0.440033 -0.030762 0.897454
3.21000004 -16.03000069 -0.20000000 226 19 133 0.000000 0.000000 0.000000 0.000000 -60.708740 0.000000 7.000000 -0.140007 0.122963 0.982486
3.22000003 -16.04999924 -0.20999999 226 19 133 0.000000 0.000000 0.000000 0.000000 -60.708740 0.000000 7.000000 -0.557144 -0.186727 0.809150
3.22000003 -16.04000092 -0.20000000 226 19 133 0.000000 0.000000 0.000000 0.000000 -60.708740 0.000000 7.000000 -0.642696 -0.098088 0.759816
3.22000003 -16.03000069 -0.23000000 226 19 133 0.000000 0.000000 0.000000 0.000000 -60.708740 0.000000 7.000000 -0.364952 -0.233042 0.901388
3.23000002 -16.00000000 -0.28000000 226 19 133 0.000000 0.000000 0.000000 0.000000 -60.708740 0.000000 7.000000 -0.069327 -0.026664 0.997238
3.25999999 -16.07999992 -0.20999999 226 19 133 0.000000 0.000000 0.000000 0.000000 -60.708740 0.000000 7.000000 0.706796 -0.029626 -0.706796
3.25999999 -16.07999992 -0.20000000 226 19 133 0.000000 0.000000 0.000000 0.000000 -60.708740 0.000000 7.000000 -0.519682 -0.095919 0.848958
3.25999999 -16.07999992 -0.20000000 226 19 133 0.000000 0.000000 0.000000 0.000000 -60.708740 0.000000 7.000000 -0.519682 -0.095919 0.848958
3.25999999 -16.10000038 -0.27000001 226 19 133 0.000000 0.000000 0.000000 0.000000 -60.708740 0.000000 7.000000 -0.560779 -0.169888 0.810349
3.24000001 -16.09000015 -0.25999999 226 19 133 0.000000 0.000000 0.000000 0.000000 -60.708740 0.000000 7.000000 -0.265881 0.336391 0.903409
3.25999999 -16.07999992 -0.25999999 226 19 133 0.000000 0.000000 0.000000 0.000000 -60.708740 0.000000 7.000000 -0.485909 -0.104022 0.867797
3.24000001 -16.09000015 -0.25999999 226 19 133 0.000000 0.000000 0.000000 0.000000 -60.708740 0.000000 7.000000 -0.265881 0.336391 0.903409
3.21000004 -16.07999992 -0.19000000 226 19 133 0.000000 0.000000 0.000000 0.000000 -60.708740 0.000000 7.000000 -0.307564 -0.073971 0.948648
3.21000004 -16.10000038 -0.20000000 226 19 133 0.000000 0.000000 0.000000 0.000000 -60.708740 0.000000 7.000000 0.794197 -0.351372 -0.495771
3.23000002 -16.07999992 -0.19000000 226 19 133 0.000000 0.000000 0.000000 0.000000 -60.708740 0.000000 7.000000 -0.592705 0.360848 0.720063
3.21000004 -16.07999992 -0.19000000 226 19 133 0.000000 0.000000 0.000000 0.000000 -60.708740 0.000000 7.000000 -0.307564 -0.073971 0.948648
3.22000003 -16.14999962 -0.19000000 226 19 133 0.000000 0.000000 0.000000 0.000000 -60.708740 0.000000 7.000000 -0.378852 0.585499 0.716703
3.20000005 -16.14999962 -0.20000000 226 19 133 0.000000 0.000000 0.000000 0.000000 -60.708740 0.000000 7.000000 -0.268921 0.361037 0.892936
3.20000005 -16.14999962 -0.20000000 226 19 133 0.000000 0.000000 0.000000 0.000000 -60.708740 0.000000 7.000000 -0.268921 0.361037 0.892936
3.20000005 -16.11000061 -0.19000000 226 19 133 0.000000 0.000000 0.000000 0.000000 -60.708740 0.000000 7.000000 -0.453614 0.597566 0.661172
3.21000004 -16.14999962 -0.23999999 226 19 133 0.000000 0.000000 0.000000 0.000000 -60.708740 0.000000 7.000000 -0.613808 0.070437 0.786307
3.22000003 -16.11000061 -0.28000000 226 19 133 0.000000 0.000000 0.000000 0.000000 -60.708740 0.000000 7.000000 -0.426300 -0.138298 0.893947
3.16000009 -16.05999947 -0.27000001 226 19 133 0.000000 0.000000 0.000000 0.000000 -60.708740 0.000000 7.000000 -0.233569 -0.032675 0.971791
3.18000007 -16.03000069 -0.25000000 226 19 133 0.000000 0.000000 0.000000 0.000000 -60.708740 0.000000 7.000000 0.681244 -0.251317 -0.687566
3.18000007 -16.03000069 -0.27000001 226 19 133 0.000000 0.000000 0.000000 0.000000 -60.708740 0.000000 7.000000 -0.429722 0.138482 0.892279
3.11999989 -16.04000092 -0.25000000 226 19 133 0.000000 0.000000 0.000000 0.000000 -60.708740 0.000000 7.000000 -0.049692 -0.087237 0.994947
3.15000010 -16.04000092 -0.23000000 226 19 133 0.000000 0.000000 0.000000 0.000000 -60.708740 0.000000 7.000000 -0.615571 0.018064 0.787875
3.16000009 -16.09000015 -0.20999999 226 19 133 0.000000 0.000000 0.000000 0.000000 -60.708740 0.000000 7.000000 -0.293716 0.090073 0.951640
3.19000006 -16.07999992 -0.20999999 226 19 133 0.000000 0.000000 0.000000 0.000000 -60.708740 0.000000 7.000000 -0.496637 0.421240 0.758887
3.17000008 -16.07999992 -0.20999999 226 19 133 0.000000 0.000000 0.000000 0.000000 -60.708740 0.000000 7.000000 -0.211174 0.064695 0.975305
3.17000008 -16.06999969 -0.27000001 226 19 133 0.000000 0.000000 0.000000 0.000000 -60.708740 0.000000 7.000000 -0.352134 0.124686 0.927607
3.18000007 -16.09000015 -0.25000000 226 19 133 0.000000 0.000000 0.000000 0.000000 -60.708740 0.000000 7.000000 -0.427044 0.144252 0.892650
3.16000009 -16.11000061 -0.20000000 226 19 133 0.000000 0.000000 0.000000 0.000000 -60.708740 0.000000 7.000000 -0.238009 0.508265 0.827658
3.17000008 -16.13999939 -0.19000000 226 19 133 0.000000 0.000000 0.000000 0.000000 -60.708740 0.000000 7.000000 0.682402 -0.196519 -0.704065
3.19000006 -16.11000061 -0.22000000 226 19 133 0.000000 0.000000 0.000000 0.000000 -60.708740 0.000000 7.000000 0.751782 -0.398002 -0.525756
3.16000009 -16.13999939 -0.20000000 226 19 133 0.000000 0.000000 0.000000 0.000000 -60.708740 0.000000 7.000000 -0.587191 0.144930 0.796368
3.18000007 -16.11000061 -0.25000000 226 19 133 0.000000 0.000000 0.000000 0.000000 -60.708740 0.000000 7.000000 0.650808 -0.460083 -0.603964
3.18000007 -16.12000084 -0.25999999 226 19 133 0.000000 0.000000 0.000000 0.000000 -60.708740 0.000000 7.000000 -0.501046 0.290575 0.815181
3.10999990 -16.10000038 -0.19000000 226 19 133 0.000000 0.000000 0.000000 0.000000 -60.708740 0.000000 7.000000 -0.317348 0.362901 0.876124
3.13000011 -16.09000015 -0.22000000 226 19 133 0.000000 0.000000 0.000000 0.000000 -60.708740 0.000000 7.000000 -0.417862 0.321551 0.849704
3.06999993 -15.86999989 -0.27000001 226 19 133 0.000000 0.000000 0.000000 0.000000 -60.708740 0.000000 7.000000 0.110417 -0.119915 0.986625
3.08999991 -15.81999969 -0.30000001 226 19 133 0.000000 0.000000 0.000000 0.000000 -60.708740 0.000000 7.000000 -0.072378 -0.338204 0.938285
3.06999993 -15.85000038 -0.34000000 226 19 133 0.000000 0.000000 0.000000 0.000000 -60.708740 0.000000 7.000000 0.169884 -0.083135 0.981951
3.07999992 -15.82999992 -0.33000001 226 19 133 0.000000 0.000000 0.000000 0.000000 -60.708740 0.000000 7.000000 0.118238 -0.067729 0.990673
3.09999990 -15.88000011 -0.28999999 226 19 133 0.000000 0.000000 0.000000 0.000000 -60.708740 0.000000 7.000000 -0.312274 -0.031607 0.949466
3.09999990 -15.89000034 -0.30000001 226 19 133 0.000000 0.000000 0.000000 0.000000 -60.708740 0.000000 7.000000 -0.276765 0.140388 0.950627
3.08999991 -15.85999966 -0.28999999 226 19 133 0.000000 0.000000 0.000000 0.000000 -60.708740 0.000000 7.000000 -0.245854 -0.432884 0.867276
3.09999990 -15.86999989 -0.28999999 226 19 133 0.000000 0.000000 0.000000 0.000000 -60.708740 0.000000 7.000000 -0.420430 -0.089600 0.902890
3.06999993 -15.88000011 -0.30000001 226 19 133 0.000000 0.000000 0.000000 0.000000 -60.708740 0.000000 7.000000 -0.113058 -0.482286 0.868688
3.06999993 -15.88000011 -0.30000001 226 19 133 0.000000 0.000000 0.000000 0.000000 -60.708740 0.000000 7.000000 -0.113058 -0.482286 0.868688
3.04999995 -15.84000015 -0.28999999 226 19 133 0.000000 0.000000 0.000000 0.000000 -60.708740 0.000000 7.000000 0.281816 -0.441974 0.851609
3.02999997 -15.85000038 -0.31000000 226 19 133 0.000000 0.000000 0.000000 0.000000 -60.708740 0.000000 7.000000 -0.259341 -0.507811 0.821505
3.02999997 -15.84000015 -0.31000000 226 19 133 0.000000 0.000000 0.000000 0.000000 -60.708740 0.000000 7.000000 -0.262277 -0.357112 0.896483
3.04999995 -15.85999966 -0.31999999 226 19 133 0.000000 0.000000 0.000000 0.000000 -60.708740 0.000000 7.000000 0.173507 -0.348424 0.921138
3.03999996 -15.85999966 -0.31999999 226 19 133 0.000000 0.000000 0.000000 0.000000 -60.708740 0.000000 7.000000 0.051977 -0.563316 0.824605
3.03999996 -15.86999989 -0.31999999 226 19 133 0.000000 0.000000 0.000000 0.000000 -60.708740 0.000000 7.000000 -0.271561 -0.023347 0.962138
3.03999996 -15.86999989 -0.34000000 226 19 133 0.000000 0.000000 0.000000 0.000000 -60.708740 0.000000 7.000000 -0.136049 -0.623434 0.769948
3.07999992 -15.89999962 -0.25999999 226 19 133 0.000000 0.000000 0.000000 0.000000 -60.708740 0.000000 7.000000 0.164295 -0.169389 0.971758
3.06999993 -15.97999954 -0.25999999 226 19 133 0.000000 0.000000 0.000000 0.000000 -60.708740 0.000000 7.000000 -0.435206 -0.173209 0.883512
3.07999992 -15.97999954 -0.25999999 226 19 133 0.000000 0.000000 0.000000 0.000000 -60.708740 0.000000 7.000000 -0.612984 -0.171879 0.771173
3.06999993 -15.97999954 -0.25999999 226 19 133 0.000000 0.000000 0.000000 0.000000 -60.708740 0.000000 7.000000 -0.435206 -0.173209 0.883512
3.06999993 -15.93999958 -0.28999999 226 19 133 0.000000 0.000000 0.000000 0.000000 -60.708740 0.000000 7.000000 -0.376443 0.014133 0.926332
3.07999992 -15.90999985 -0.30000001 226 19 133 0.000000 0.000000 0.000000 0.000000 -60.708740 0.000000 7.000000 -0.379452 0.105480 0.919179
3.09999990 -15.92000008 -0.31999999 226 19 133 0.000000 0.000000 0.000000 0.000000 -60.708740 0.000000 7.000000 0.063729 0.044286 0.996984
3.09999990 -15.93000031 -0.31999999 226 19 133 0.000000 0.000000 0.000000 0.000000 -60.708740 0.000000 7.000000 -0.311253 0.204216 0.928126
3.03999996 -15.90999985 -0.28000000 226 19 133 0.000000 0.000000 0.000000 0.000000 -60.708740 0.000000 7.000000 -0.250168 -0.030508 0.967722
3.05999994 -15.93999958 -0.31000000 226 19 133 0.000000 0.000000 0.000000 0.000000 -60.708740 0.000000 7.000000 -0.346869 -0.281366 0.894715
3.04999995 -15.89999962 -0.31000000 226 19 133 0.000000 0.000000 0.000000 0.000000 -60.708740 0.000000 7.000000 0.009339 -0.476305 0.879230
3.05999994 -15.90999985 -0.31999999 226 19 133 0.000000 0.000000 0.000000 0.000000 -60.708740 0.000000 7.000000 -0.400007 -0.567911 0.719355
3.05999994 -15.94999981 -0.31000000 226 19 133 0.000000 0.000000 0.000000 0.000000 -60.708740 0.000000 7.000000 -0.302913 -0.226118 0.925805
3.02999997 -15.97000027 -0.33000001 226 19 133 0.000000 0.000000 0.000000 0.000000 -60.708740 0.000000 7.000000 -0.262777 -0.168447 0.950039
3.02999997 -15.96000004 -0.31999999 226 19 133 0.000000 0.000000 0.000000 0.000000 -60.708740 0.000000 7.000000 -0.249704 0.084925 0.964591
3.00999999 -15.85000038 -0.31000000 226 19 133 0.000000 0.000000 0.000000 0.000000 -60.708740 0.000000 7.000000 0.328980 -0.365704 0.870651
3.01999998 -15.84000015 -0.31000000 226 19 133 0.000000 0.000000 0.000000 0.000000 -60.708740 0.000000 7.000000 -0.117549 -0.203499 0.971993
3.00000000 -15.85000038 -0.30000001 226 19 133 0.000000 0.000000 0.000000 0.000000 -60.708740 0.000000 7.000000 0.226913 -0.449318 0.864074
3.01999998 -15.84000015 -0.28999999 226 19 133 0.000000 0.000000 0.000000 0.000000 -60.708740 0.000000 7.000000 -0.235198 -0.386080 0.891978
3.00999999 -15.85999966 -0.31000000 226 19 133 0.000000 0.000000 0.000000 0.000000 -60.708740 0.000000 7.000000 0.033574 -0.167872 0.985237
2.99000001 -15.86999989 -0.31000000 226 19 133 0.000000 0.000000 0.000000 0.000000 -60.708740 0.000000 7.000000 0.170108 -0.390247 0.904859
3.00999999 -15.86999989 -0.31000000 226 19 133 0.000000 0.000000 0.000000 0.000000 -60.708740 0.000000 7.000000 -0.199650 -0.031897 0.979348
3.00999999 -15.88000011 -0.31000000 226 19 133 0.000000 0.000000 0.000000 0.000000 -60.708740 0.000000 7.000000 0.157202 -0.050072 0.986296
2.96000004 -15.85000038 -0.34000000 226 19 133 0.000000 0.000000 0.000000 0.000000 -60.708740 0.000000 7.000000 -0.352038 -0.473101 0.807617
2.96000004 -15.88000011 -0.31000000 226 19 133 0.000000 0.000000 0.000000 0.000000 -60.708740 0.000000 7.000000 -0.114961 -0.391976 0.912764
2.95000005 -15.86999989 -0.34999999 226 19 133 0.000000 0.000000 0.000000 0.000000 -60.708740 0.000000 7.000000 -0.053628 -0.474401 0.878674
2.98000002 -15.85999966 -0.34999999 226 19 133 0.000000 0.000000 0.000000 0.000000 -60.708740 0.000000 7.000000 -0.269528 -0.503223 0.821049
3.00000000 -15.93000031 -0.28999999 226 19 133 0.000000 0.000000 0.000000 0.000000 -60.708740 0.000000 7.000000 -0.230159 -0.103000 0.967687
3.00000000 -15.93999958 -0.28999999 226 19 133 0.000000 0.000000 0.000000 0.000000 -60.708740 0.000000 7.000000 -0.144486 -0.193075 0.970487
3.00000000 -15.89999962 -0.31000000 226 19 133 0.000000 0.000000 0.000000 0.000000 -60.708740 0.000000 7.000000 0.010901 -0.002973 0.999936
2.99000001 -15.92000008 -0.31999999 226 19 133 0.000000 0.000000 0.000000 0.000000 -60.708740 0.000000 7.000000 -0.498850 -0.203458 0.842469
3.00000000 -15.92000008 -0.31999999 226 19 133 0.000000 0.000000 0.000000 0.000000 -60.708740 0.000000 7.000000 0.123387 -0.282595 0.951271
3.00000000 -15.93000031 -0.34999999 226 19 133 0.000000 0.000000 0.000000 0.000000 -60.708740 0.000000 7.000000 -0.386331 -0.195336 0.901439
3.00000000 -15.94999981 -0.30000001 226 19 133 0.000000 0.000000 0.000000 0.000000 -60.708740 0.000000 7.000000 -0.297528 -0.465764 0.833391
2.99000001 -15.97000027 -0.30000001 226 19 133 0.000000 0.000000 0.000000 0.000000 -60.708740 0.000000 7.000000 -0.477127 -0.389789 0.787664
3.00999999 -15.94999981 -0.33000001 226 19 133 0.000000 0.000000 0.000000 0.000000 -60.708740 0.000000 7.000000 -0.088902 0.068646 0.993672
3.01999998 -15.96000004 -0.33000001 226 19 133 0.000000 0.000000 0.000000 0.000000 -60.708740 0.000000 7.000000 -0.150906 -0.023827 0.988261
2.99000001 -15.94999981 -0.34999999 226 19 133 0.000000 0.000000 0.000000 0.000000 -60.708740 0.000000 7.000000 0.011396 -0.345683 0.938282
3.00999999 -15.94999981 -0.34999999 226 19 133 0.000000 0.000000 0.000000 0.000000 -60.708740 0.000000 7.000000 -0.528176 -0.356963 0.770459
2.97000003 -15.90999985 -0.31000000 226 19 133 0.000000 0.000000 0.000000 0.000000 -60.708740 0.000000 7.000000 -0.340661 -0.154340 0.927432
2.96000004 -15.93999958 -0.34999999 226 19 133 0.000000 0.000000 0.000000 0.000000 -60.708740 0.000000 7.000000 -0.057099 -0.508322 0.859272
2.96000004 -15.89999962 -0.33000001 226 19 133 0.000000 0.000000 0.000000 0.000000 -60.708740 0.000000 7.000000 0.244190 -0.322216 0.914630
2.97000003 -15.97000027 -0.28999999 226 19 133 0.000000 0.000000 0.000000 0.000000 -60.708740 0.000000 7.000000 -0.322216 -0.244190 0.914630
2.95000005 -15.96000004 -0.33000001 226 19 133 0.000000 0.000000 0.000000 0.000000 -60.708740 0.000000 7.000000 -0.388240 -0.320720 0.863949
2.96000004 -15.94999981 -0.34999999 226 19 133 0.000000 0.000000 0.000000 0.000000 -60.708740 0.000000 7.000000 -0.055053 -0.303431 0.951262
3.02999997 -16.05999947 -0.18000001 226 19 133 0.000000 0.000000 0.000000 0.000000 -60.708740 0.000000 7.000000 -0.230829 -0.177458 0.956675
3.06999993 -16.11000061 -0.18000001 226 19 133 0.000000 0.000000 0.000000 0.000000 -60.708740 0.000000 7.000000 0.643503 -0.358593 -0.676251
3.06999993 -16.12999916 -0.16000000 226 19 133 0.000000 0.000000 0.000000 0.000000 -60.708740 0.000000 7.000000 0.793183 -0.131950 -0.594517
3.04999995 -16.13999939 -0.18000001 226 19 133 0.000000 0.000000 0.000000 0.000000 -60.708740 0.000000 7.000000 -0.313091 0.443934 0.839581
3.03999996 -16.13999939 -0.18000001 226 19 133 0.000000 0.000000 0.000000 0.000000 -60.708740 0.000000 7.000000 -0.325660 0.393570 0.859679
3.07999992 -16.01000023 -0.19000000 226 19 133 0.000000 0.000000 0.000000 0.000000 -60.708740 0.000000 7.000000 -0.337174 -0.349380 0.874212
3.07999992 -16.01000023 -0.19000000 226 19 133 0.000000 0.000000 0.000000 0.000000 -60.708740 0.000000 7.000000 -0.337174 -0.349380 0.874212
3.08999991 -16.03000069 -0.19000000 226 19 133 0.000000 0.000000 0.000000 0.000000 -60.708740 0.000000 7.000000 0.690228 0.006944 -0.723559
3.08999991 -16.04999924 -0.20000000 226 19 133 0.000000 0.000000 0.000000 0.000000 -60.708740 0.000000 7.000000 -0.550642 -0.362222 0.752057
3.07999992 -16.05999947 -0.22000000 226 19 133 0.000000 0.000000 0.000000 0.000000 -60.708740 0.000000 7.000000 -0.426959 -0.372994 0.823761
3.07999992 -16.04000092 -0.20999999 226 19 133 0.000000 0.000000 0.000000 0.000000 -60.708740 0.000000 7.000000 -0.396015 -0.106248 0.912076
3.07999992 -16.04000092 -0.20000000 226 19 133 0.000000 0.000000 0.000000 0.000000 -60.708740 0.000000 7.000000 -0.351475 -0.118982 0.928606
