//X Y Z R G B PointSourceId ScanDirectionFlag NumberOfReturns ReturnNumber GpsTime Intensity Classification Nx Ny Nz
0.00000000 3.10999990 0.40000001 142 154 107 97.000000 1.000000 4.000000 1.000000 -60.708740 114.000000 231.000000 0.807569 0.137805 0.573448
-0.07000000 3.09999990 0.47999999 142 154 107 97.000000 1.000000 4.000000 1.000000 -60.708740 114.000000 231.000000 0.702413 0.185978 0.687043
0.00000000 2.99000001 0.44999999 142 154 107 97.000000 1.000000 4.000000 1.000000 -60.708740 114.000000 231.000000 0.691238 -0.061795 0.719980
-0.02000000 3.01999998 0.47999999 142 154 107 97.000000 1.000000 4.000000 1.000000 -60.708740 114.000000 231.000000 0.490449 0.206743 0.846591
-0.07000000 3.29999995 0.20000000 142 154 107 97.000000 1.000000 4.000000 1.000000 -60.708740 114.000000 231.000000 0.994199 0.077165 0.074928
-0.06000000 3.28999996 0.17000000 142 154 107 97.000000 1.000000 4.000000 1.000000 -60.708740 114.000000 231.000000 0.921338 0.368812 0.122937
-0.06000000 3.28999996 0.17000000 142 154 107 97.000000 1.000000 4.000000 1.000000 -60.708740 114.000000 231.000000 0.921338 0.368812 0.122937
-0.07000000 3.30999994 0.08000000 142 154 107 97.000000 1.000000 4.000000 1.000000 -60.708740 114.000000 231.000000 0.962861 -0.115026 -0.244269
-0.07000000 3.26999998 0.12000000 142 154 107 97.000000 1.000000 4.000000 1.000000 -60.708740 114.000000 231.000000 0.983767 0.104759 -0.145699
-0.03000000 3.18000007 0.02000000 142 154 107 97.000000 1.000000 4.000000 1.000000 -60.708740 114.000000 231.000000 0.837083 0.284204 -0.467462
-0.05000000 3.20000005 -0.01000000 142 154 107 97.000000 1.000000 4.000000 1.000000 -60.708740 114.000000 231.000000 0.909116 0.145177 -0.390426
-0.06000000 3.17000008 -0.02000000 142 154 107 97.000000 1.000000 4.000000 1.000000 -60.708740 114.000000 231.000000 -0.701932 0.079930 0.707745
-0.08000000 3.15000010 0.16000000 142 154 107 97.000000 1.000000 4.000000 1.000000 -60.708740 114.000000 231.000000 0.854397 0.432587 -0.287878
-0.03000000 3.07999992 0.05000000 142 154 107 97.000000 1.000000 4.000000 1.000000 -60.708740 114.000000 231.000000 0.700851 0.186380 -0.688528
-0.04000000 3.15000010 0.00000000 142 154 107 97.000000 1.000000 4.000000 1.000000 -60.708740 114.000000 231.000000 0.838192 -0.181433 -0.514311
-0.13000000 3.51999998 0.34000000 142 154 107 97.000000 1.000000 4.000000 1.000000 -60.708740 114.000000 231.000000 0.694827 0.551530 0.461552
-0.23000000 3.64000010 0.33000001 142 154 107 97.000000 1.000000 4.000000 1.000000 -60.708740 114.000000 231.000000 0.912557 0.006490 0.408898
-0.20000000 3.34999990 0.44999999 142 154 107 97.000000 1.000000 4.000000 1.000000 -60.708740 114.000000 231.000000 0.362366 0.190493 0.912361
-0.22000000 3.34999990 0.36000001 142 154 107 97.000000 1.000000 4.000000 1.000000 -60.708740 114.000000 231.000000 0.760281 0.385838 0.522591
-0.20000000 3.31999993 0.36000001 142 154 107 97.000000 1.000000 4.000000 1.000000 -60.708740 114.000000 231.000000 0.627131 0.380229 0.679803
-0.19000000 3.33999991 0.34000000 142 154 107 97.000000 1.000000 4.000000 1.000000 -60.708740 114.000000 231.000000 0.567569 0.259415 0.781390
-0.17000000 3.32999992 0.34000000 142 154 107 97.000000 1.000000 4.000000 1.000000 -60.708740 114.000000 231.000000 0.735652 -0.012516 0.677244
-0.31999999 3.32999992 0.51999998 142 154 107 97.000000 1.000000 4.000000 1.000000 -60.708740 114.000000 231.000000 -0.054774 0.215445 0.974979
-0.38000000 3.32999992 0.52999997 142 154 107 97.000000 1.000000 4.000000 1.000000 -60.708740 114.000000 231.000000 0.395143 -0.011660 0.918546
-0.33000001 3.33999991 0.47000000 142 154 107 97.000000 1.000000 4.000000 1.000000 -60.708740 114.000000 231.000000 -0.020413 0.236547 0.971406
-0.31999999 3.31999993 0.44999999 142 154 107 97.000000 1.000000 4.000000 1.000000 -60.708740 114.000000 231.000000 0.262887 0.339256 0.903214
-0.30000001 3.34999990 0.46000001 142 154 107 97.000000 1.000000 4.000000 1.000000 -60.708740 114.000000 231.000000 0.639860 0.254364 0.725175
-0.27000001 3.34999990 0.38999999 142 154 107 97.000000 1.000000 4.000000 1.000000 -60.708740 114.000000 231.000000 0.265587 0.202286 0.942626
-0.25000000 3.32999992 0.37000000 142 154 107 97.000000 1.000000 4.000000 1.000000 -60.708740 114.000000 231.000000 0.745692 0.488898 0.452683
-0.41000000 3.41000009 0.43000001 142 154 107 97.000000 1.000000 4.000000 1.000000 -60.708740 114.000000 231.000000 0.129085 0.049121 0.990416
-0.40000001 3.44000006 0.43000001 142 154 107 97.000000 1.000000 4.000000 1.000000 -60.708740 114.000000 231.000000 0.302590 0.518047 0.800042
-0.34999999 3.40000010 0.41000000 142 154 107 97.000000 1.000000 4.000000 1.000000 -60.708740 114.000000 231.000000 0.338461 0.145055 0.929733
-0.37000000 3.35999990 0.46000001 142 154 107 97.000000 1.000000 4.000000 1.000000 -60.708740 114.000000 231.000000 0.112936 0.182435 0.976710
-0.38999999 3.31999993 0.36000001 142 154 107 97.000000 1.000000 4.000000 1.000000 -60.708740 114.000000 231.000000 -0.049538 0.295955 0.953916
-0.38000000 3.31999993 0.31999999 142 154 107 97.000000 1.000000 4.000000 1.000000 -60.708740 114.000000 231.000000 0.298130 0.187198 0.935989
-0.15000001 3.63000011 0.27000001 142 154 107 97.000000 1.000000 4.000000 1.000000 -60.708740 114.000000 231.000000 0.901220 0.083930 0.425156
-0.15000001 3.63000011 0.27000001 142 154 107 97.000000 1.000000 4.000000 1.000000 -60.708740 114.000000 231.000000 0.901220 0.083930 0.425156
-0.14000000 3.64000010 0.20000000 142 154 107 97.000000 1.000000 4.000000 1.000000 -60.708740 114.000000 231.000000 0.955469 0.287792 -0.065233
-0.16000000 3.58999991 0.20999999 142 154 107 97.000000 1.000000 4.000000 1.000000 -60.708740 114.000000 231.000000 0.924025 0.379863 -0.043375
-0.16000000 3.52999997 0.16000000 142 154 107 97.000000 1.000000 4.000000 1.000000 -60.708740 114.000000 231.000000 0.872030 0.079784 0.482906
-0.16000000 3.55999994 0.15000001 142 154 107 97.000000 1.000000 4.000000 1.000000 -60.708740 114.000000 231.000000 0.934272 0.098132 0.342791
-0.17000000 3.61999989 0.25999999 142 154 107 97.000000 1.000000 4.000000 1.000000 -60.708740 114.000000 231.000000 0.596329 0.609843 0.521999
-0.20000000 3.60999990 0.27000001 142 154 107 97.000000 1.000000 4.000000 1.000000 -60.708740 114.000000 231.000000 0.947263 0.203668 0.247409
-0.23000000 3.61999989 0.25999999 142 154 107 97.000000 1.000000 4.000000 1.000000 -60.708740 114.000000 231.000000 0.877621 0.227973 0.421675
-0.19000000 3.64000010 0.15000001 142 154 107 97.000000 1.000000 4.000000 1.000000 -60.708740 114.000000 231.000000 0.957472 0.274484 -0.088917
-0.19000000 3.58999991 0.17000000 142 154 107 97.000000 1.000000 4.000000 1.000000 -60.708740 114.000000 231.000000 0.969018 0.128947 0.210656
-0.20999999 3.59999990 0.19000000 142 154 107 97.000000 1.000000 4.000000 1.000000 -60.708740 114.000000 231.000000 0.741943 0.576345 0.342560
-0.19000000 3.54999995 0.23000000 142 154 107 97.000000 1.000000 4.000000 1.000000 -60.708740 114.000000 231.000000 0.971758 0.235469 -0.015539
-0.18000001 3.53999996 0.20000000 142 154 107 97.000000 1.000000 4.000000 1.000000 -60.708740 114.000000 231.000000 0.872559 0.484138 0.065199
-0.19000000 3.49000001 0.19000000 142 154 107 97.000000 1.000000 4.000000 1.000000 -60.708740 114.000000 231.000000 0.897076 0.438359 0.055643
-0.20000000 3.50000000 0.16000000 142 154 107 97.000000 1.000000 4.000000 1.000000 -60.708740 114.000000 231.000000 0.874053 0.450982 0.180686
-0.14000000 3.63000011 0.12000000 142 154 107 97.000000 1.000000 4.000000 1.000000 -60.708740 114.000000 231.000000 0.875729 0.482654 -0.012033
-0.16000000 3.51999998 0.07000000 142 154 107 97.000000 1.000000 4.000000 1.000000 -60.708740 114.000000 231.000000 0.998267 -0.058843 -0.001032
-0.15000001 3.50999999 0.02000000 142 154 107 97.000000 1.000000 4.000000 1.000000 -60.708740 114.000000 231.000000 0.995083 0.093050 0.033936
-0.16000000 3.50999999 -0.02000000 142 154 107 97.000000 1.000000 4.000000 1.000000 -60.708740 114.000000 231.000000 0.862513 0.273256 -0.425913
-0.15000001 3.50000000 -0.01000000 142 154 107 97.000000 1.000000 4.000000 1.000000 -60.708740 114.000000 231.000000 0.973016 0.222088 -0.062577
-0.15000001 3.51999998 0.01000000 142 154 107 97.000000 1.000000 4.000000 1.000000 -60.708740 114.000000 231.000000 0.947409 0.304383 0.098826
-0.19000000 3.58999991 0.14000000 142 154 107 97.000000 1.000000 4.000000 1.000000 -60.708740 114.000000 231.000000 0.726084 0.657965 0.199712
-0.18000001 3.58999991 0.08000000 142 154 107 97.000000 1.000000 4.000000 1.000000 -60.708740 114.000000 231.000000 0.961772 0.069694 -0.264836
-0.18000001 3.61999989 0.11000000 142 154 107 97.000000 1.000000 4.000000 1.000000 -60.708740 114.000000 231.000000 0.993956 0.081987 0.073002
-0.19000000 3.58999991 0.12000000 142 154 107 97.000000 1.000000 4.000000 1.000000 -60.708740 114.000000 231.000000 0.905492 0.376927 -0.194962
-0.20000000 3.59999990 0.13000000 142 154 107 97.000000 1.000000 4.000000 1.000000 -60.708740 114.000000 231.000000 0.968405 0.243647 -0.053182
-0.17000000 3.64000010 0.09000000 142 154 107 97.000000 1.000000 4.000000 1.000000 -60.708740 114.000000 231.000000 0.999964 0.006910 -0.004936
-0.18000001 3.64000010 0.05000000 142 154 107 97.000000 1.000000 4.000000 1.000000 -60.708740 114.000000 231.000000 0.963797 0.266168 0.015800
-0.18000001 3.65000010 0.04000000 142 154 107 97.000000 1.000000 4.000000 1.000000 -60.708740 114.000000 231.000000 0.898778 0.398010 -0.183808
-0.18000001 3.59999990 0.06000000 142 154 107 97.000000 1.000000 4.000000 1.000000 -60.708740 114.000000 231.000000 0.949306 -0.016260 -0.313934
-0.19000000 3.60999990 0.06000000 142 154 107 97.000000 1.000000 4.000000 1.000000 -60.708740 114.000000 231.000000 0.970179 0.152512 -0.188397
-0.19000000 3.59999990 0.03000000 142 154 107 97.000000 1.000000 4.000000 1.000000 -60.708740 114.000000 231.000000 0.837365 0.093360 -0.538614
-0.18000001 3.57999992 0.04000000 142 154 107 97.000000 1.000000 4.000000 1.000000 -60.708740 114.000000 231.000000 0.970319 0.241687 0.008334
-0.19000000 3.65000010 -0.01000000 142 154 107 97.000000 1.000000 4.000000 1.000000 -60.708740 114.000000 231.000000 0.844489 0.463007 -0.269190
-0.18000001 3.54999995 0.14000000 142 154 107 97.000000 1.000000 4.000000 1.000000 -60.708740 114.000000 231.000000 0.953742 0.292172 -0.070791
-0.17000000 3.51999998 0.08000000 142 154 107 97.000000 1.000000 4.000000 1.000000 -60.708740 114.000000 231.000000 0.948579 0.123728 0.291359
-0.18000001 3.53999996 0.00000000 142 154 107 97.000000 1.000000 4.000000 1.000000 -60.708740 114.000000 231.000000 0.872629 -0.137024 -0.468768
-0.20000000 3.56999993 -0.01000000 142 154 107 97.000000 1.000000 4.000000 1.000000 -60.708740 114.000000 231.000000 0.993114 -0.007648 -0.116901
-0.17000000 3.49000001 0.02000000 142 154 107 97.000000 1.000000 4.000000 1.000000 -60.708740 114.000000 231.000000 0.807273 0.578717 -0.115743
-0.23999999 3.52999997 0.06000000 142 154 107 97.000000 1.000000 4.000000 1.000000 -60.708740 114.000000 231.000000 0.993879 -0.034272 0.105026
-0.09000000 3.48000002 0.31000000 142 154 107 97.000000 1.000000 4.000000 1.000000 -60.708740 114.000000 231.000000 0.851431 0.496051 0.170286
-0.09000000 3.46000004 0.19000000 142 154 107 97.000000 1.000000 4.000000 1.000000 -60.708740 114.000000 231.000000 0.961976 0.240819 -0.128871
-0.09000000 3.42000008 0.17000000 142 154 107 97.000000 1.000000 4.000000 1.000000 -60.708740 114.000000 231.000000 0.870584 0.491481 -0.023017
-0.09000000 3.43000007 0.16000000 142 154 107 97.000000 1.000000 4.000000 1.000000 -60.708740 114.000000 231.000000 0.840361 0.384838 0.381697
-0.10000000 3.32999992 0.25999999 142 154 107 97.000000 1.000000 4.000000 1.000000 -60.708740 114.000000 231.000000 0.997300 0.072819 -0.009498
-0.18000001 3.47000003 0.17000000 142 154 107 97.000000 1.000000 4.000000 1.000000 -60.708740 114.000000 231.000000 0.983108 0.175850 0.050749
-0.19000000 3.45000005 0.15000001 142 154 107 97.000000 1.000000 4.000000 1.000000 -60.708740 114.000000 231.000000 0.930502 0.304553 -0.203503
-0.16000000 3.44000006 0.09000000 142 154 107 97.000000 1.000000 4.000000 1.000000 -60.708740 114.000000 231.000000 0.798139 0.602395 -0.009649
-0.09000000 3.41000009 0.12000000 142 154 107 97.000000 1.000000 4.000000 1.000000 -60.708740 114.000000 231.000000 0.884304 0.445735 -0.139023
-0.09000000 3.41000009 0.02000000 142 154 107 97.000000 1.000000 4.000000 1.000000 -60.708740 114.000000 231.000000 0.793120 0.210985 -0.571354
-0.09000000 3.43000007 -0.02000000 142 154 107 97.000000 1.000000 4.000000 1.000000 -60.708740 114.000000 231.000000 0.884957 -0.192254 -0.424134
-0.16000000 3.48000002 0.02000000 142 154 107 97.000000 1.000000 4.000000 1.000000 -60.708740 114.000000 231.000000 0.845003 0.501019 -0.186948
-0.11000000 3.39000010 0.10000000 142 154 107 97.000000 1.000000 4.000000 1.000000 -60.708740 114.000000 231.000000 0.890909 0.254333 -0.376294
-0.10000000 3.39000010 0.06000000 142 154 107 97.000000 1.000000 4.000000 1.000000 -60.708740 114.000000 231.000000 0.805227 0.537337 -0.250757
-0.09000000 3.35999990 0.05000000 142 154 107 97.000000 1.000000 4.000000 1.000000 -60.708740 114.000000 231.000000 0.990801 -0.014456 0.134553
-0.10000000 3.36999989 0.03000000 142 154 107 97.000000 1.000000 4.000000 1.000000 -60.708740 114.000000 231.000000 0.900329 0.011829 -0.435049
-0.23000000 3.48000002 0.14000000 142 154 107 97.000000 1.000000 4.000000 1.000000 -60.708740 114.000000 231.000000 0.988629 0.092647 -0.118448
-0.20000000 3.45000005 0.11000000 142 154 107 97.000000 1.000000 4.000000 1.000000 -60.708740 114.000000 231.000000 0.984402 -0.145082 0.099519
-0.20000000 3.46000004 0.09000000 142 154 107 97.000000 1.000000 4.000000 1.000000 -60.708740 114.000000 231.000000 0.918868 0.186046 -0.347949
-0.23000000 3.35999990 -0.01000000 142 154 107 97.000000 1.000000 4.000000 1.000000 -60.708740 114.000000 231.000000 0.859368 0.340970 -0.381084
-0.19000000 3.31999993 -0.02000000 142 154 107 97.000000 1.000000 4.000000 1.000000 -60.708740 114.000000 231.000000 0.661954 -0.123466 -0.739306
-0.23000000 3.35999990 0.00000000 142 154 107 97.000000 1.000000 4.000000 1.000000 -60.708740 114.000000 231.000000 0.974306 0.088122 -0.207273
-0.28000000 3.55999994 0.28000000 142 154 107 97.000000 1.000000 4.000000 1.000000 -60.708740 114.000000 231.000000 0.774887 0.404501 0.485726
-0.28999999 3.52999997 0.28000000 142 154 107 97.000000 1.000000 4.000000 1.000000 -60.708740 114.000000 231.000000 0.629596 0.609449 0.481851
-0.41000000 3.65000010 0.23000000 142 154 107 97.000000 1.000000 4.000000 1.000000 -60.708740 114.000000 231.000000 0.772024 0.426001 0.471702
-0.25000000 3.51999998 0.07000000 142 154 107 97.000000 1.000000 4.000000 1.000000 -60.708740 114.000000 231.000000 0.970610 0.206810 -0.123071
-0.27000001 3.49000001 0.00000000 142 154 107 97.000000 1.000000 4.000000 1.000000 -60.708740 114.000000 231.000000 0.854844 -0.192452 -0.481875
-0.31999999 3.41000009 0.20000000 142 154 107 97.000000 1.000000 4.000000 1.000000 -60.708740 114.000000 231.000000 0.606663 0.401687 0.686009
-0.31999999 3.43000007 0.23000000 142 154 107 97.000000 1.000000 4.000000 1.000000 -60.708740 114.000000 231.000000 0.768669 0.052766 0.637467
-0.28999999 3.40000010 0.23999999 142 154 107 97.000000 1.000000 4.000000 1.000000 -60.708740 114.000000 231.000000 0.661674 0.139537 0.736694
-0.30000001 3.36999989 0.23999999 142 154 107 97.000000 1.000000 4.000000 1.000000 -60.708740 114.000000 231.000000 0.523873 0.281601 0.803901
-0.31999999 3.32999992 0.30000001 142 154 107 97.000000 1.000000 4.000000 1.000000 -60.708740 114.000000 231.000000 0.443306 0.505930 0.739942
-0.31999999 3.31999993 0.28000000 142 154 107 97.000000 1.000000 4.000000 1.000000 -60.708740 114.000000 231.000000 0.365489 0.122749 0.922687
-0.33000001 3.31999993 0.20999999 142 154 107 97.000000 1.000000 4.000000 1.000000 -60.708740 114.000000 231.000000 0.721439 0.469350 0.509153
-0.28000000 3.40000010 0.22000000 142 154 107 97.000000 1.000000 4.000000 1.000000 -60.708740 114.000000 231.000000 0.538247 0.544997 0.642860
-0.34999999 3.36999989 0.28999999 142 154 107 97.000000 1.000000 4.000000 1.000000 -60.708740 114.000000 231.000000 0.614669 0.387258 0.687177
-0.37000000 3.35999990 0.28000000 142 154 107 97.000000 1.000000 4.000000 1.000000 -60.708740 114.000000 231.000000 0.409205 0.165118 0.897378
-0.34000000 3.36999989 0.16000000 142 154 107 97.000000 1.000000 4.000000 1.000000 -60.708740 114.000000 231.000000 0.795095 0.303120 0.525302
-0.36000001 3.35999990 0.18000001 142 154 107 97.000000 1.000000 4.000000 1.000000 -60.708740 114.000000 231.000000 0.716369 0.629439 0.301036
-0.40000001 3.34999990 0.16000000 142 154 107 97.000000 1.000000 4.000000 1.000000 -60.708740 114.000000 231.000000 0.570359 0.496330 0.654483
-0.27000001 3.48000002 0.06000000 142 154 107 97.000000 1.000000 4.000000 1.000000 -60.708740 114.000000 231.000000 0.790757 0.285683 -0.541377
-0.27000001 3.31999993 0.11000000 142 154 107 97.000000 1.000000 4.000000 1.000000 -60.708740 114.000000 231.000000 0.984110 -0.116840 0.133704
-0.31999999 3.31999993 0.13000000 142 154 107 97.000000 1.000000 4.000000 1.000000 -60.708740 114.000000 231.000000 0.969101 -0.047902 0.241968
-0.31999999 3.34999990 0.13000000 142 154 107 97.000000 1.000000 4.000000 1.000000 -60.708740 114.000000 231.000000 0.995285 -0.047290 -0.084682
-0.31999999 3.33999991 0.13000000 142 154 107 97.000000 1.000000 4.000000 1.000000 -60.708740 114.000000 231.000000 0.893112 0.371760 0.253271
-0.30000001 3.31999993 0.07000000 142 154 107 97.000000 1.000000 4.000000 1.000000 -60.708740 114.000000 231.000000 0.965270 -0.146410 -0.216376
-0.28000000 3.38000011 -0.02000000 142 154 107 97.000000 1.000000 4.000000 1.000000 -60.708740 114.000000 231.000000 0.870533 0.143399 -0.470754
-0.28000000 3.38000011 -0.02000000 142 154 107 97.000000 1.000000 4.000000 1.000000 -60.708740 114.000000 231.000000 0.870533 0.143399 -0.470754
-0.28000000 3.33999991 -0.02000000 142 154 107 97.000000 1.000000 4.000000 1.000000 -60.708740 114.000000 231.000000 0.929620 0.174217 -0.324740
-0.28000000 3.32999992 -0.01000000 142 154 107 97.000000 1.000000 4.000000 1.000000 -60.708740 114.000000 231.000000 0.942112 0.185672 -0.279195
-0.30000001 3.36999989 0.02000000 142 154 107 97.000000 1.000000 4.000000 1.000000 -60.708740 114.000000 231.000000 0.816095 -0.199085 -0.542544
-0.30000001 3.33999991 0.05000000 142 154 107 97.000000 1.000000 4.000000 1.000000 -60.708740 114.000000 231.000000 0.884653 0.136211 -0.445911
-0.40000001 3.44000006 -0.01000000 142 154 107 97.000000 1.000000 4.000000 1.000000 -60.708740 114.000000 231.000000 -0.434518 -0.167122 0.885022
-0.36000001 3.40000010 0.13000000 142 154 107 97.000000 1.000000 4.000000 1.000000 -60.708740 114.000000 231.000000 0.844984 0.460201 0.272427
-0.38000000 3.40000010 0.10000000 142 154 107 97.000000 1.000000 4.000000 1.000000 -60.708740 114.000000 231.000000 0.978780 0.196238 -0.058992
-0.40000001 3.34999990 0.07000000 142 154 107 97.000000 1.000000 4.000000 1.000000 -60.708740 114.000000 231.000000 -0.528363 -0.205559 0.823759
-0.40000001 3.34999990 0.06000000 142 154 107 97.000000 1.000000 4.000000 1.000000 -60.708740 114.000000 231.000000 -0.657648 -0.088950 0.748056
-0.19000000 3.20000005 0.50000000 142 154 107 97.000000 1.000000 4.000000 1.000000 -60.708740 114.000000 231.000000 0.361662 0.310212 0.879187
-0.18000001 3.18000007 0.50000000 142 154 107 97.000000 1.000000 4.000000 1.000000 -60.708740 114.000000 231.000000 0.588994 0.423080 0.688542
-0.20999999 3.24000001 0.40000001 142 154 107 97.000000 1.000000 4.000000 1.000000 -60.708740 114.000000 231.000000 0.723718 0.226650 0.651815
-0.22000000 3.26999998 0.38999999 142 154 107 97.000000 1.000000 4.000000 1.000000 -60.708740 114.000000 231.000000 0.662697 0.562034 0.494925
-0.22000000 3.29999995 0.38999999 142 154 107 97.000000 1.000000 4.000000 1.000000 -60.708740 114.000000 231.000000 0.701953 0.361612 0.613595
-0.22000000 3.29999995 0.38999999 142 154 107 97.000000 1.000000 4.000000 1.000000 -60.708740 114.000000 231.000000 0.701953 0.361612 0.613595
-0.20000000 3.19000006 0.33000001 142 154 107 97.000000 1.000000 4.000000 1.000000 -60.708740 114.000000 231.000000 0.443988 0.180233 0.877719
-0.17000000 3.19000006 0.38999999 142 154 107 97.000000 1.000000 4.000000 1.000000 -60.708740 114.000000 231.000000 0.417886 0.052404 0.906987
-0.14000000 3.00999999 0.50000000 142 154 107 97.000000 1.000000 4.000000 1.000000 -60.708740 114.000000 231.000000 0.480743 0.209477 0.851473
-0.20000000 3.09999990 0.55000001 142 154 107 97.000000 1.000000 4.000000 1.000000 -60.708740 114.000000 231.000000 0.085942 -0.005305 0.996286
-0.20999999 3.11999989 0.54000002 142 154 107 97.000000 1.000000 4.000000 1.000000 -60.708740 114.000000 231.000000 0.528916 0.051636 0.847102
-0.23999999 3.10999990 0.50999999 142 154 107 97.000000 1.000000 4.000000 1.000000 -60.708740 114.000000 231.000000 0.589274 0.452389 0.669402
-0.23999999 3.05999994 0.52999997 142 154 107 97.000000 1.000000 4.000000 1.000000 -60.708740 114.000000 231.000000 0.349270 0.098443 0.931836
-0.23999999 3.04999995 0.52999997 142 154 107 97.000000 1.000000 4.000000 1.000000 -60.708740 114.000000 231.000000 0.215821 0.044611 0.975413
-0.23000000 3.05999994 0.51999998 142 154 107 97.000000 1.000000 4.000000 1.000000 -60.708740 114.000000 231.000000 0.309691 0.226916 0.923364
-0.10000000 3.14000010 0.46000001 142 154 107 97.000000 1.000000 4.000000 1.000000 -60.708740 114.000000 231.000000 0.559697 0.166559 0.811786
-0.13000000 3.06999993 0.38000000 142 154 107 97.000000 1.000000 4.000000 1.000000 -60.708740 114.000000 231.000000 0.794503 -0.037967 0.606072
-0.16000000 3.11999989 0.36000001 142 154 107 97.000000 1.000000 4.000000 1.000000 -60.708740 114.000000 231.000000 0.579674 0.109510 0.807456
-0.14000000 3.09999990 0.36000001 142 154 107 97.000000 1.000000 4.000000 1.000000 -60.708740 114.000000 231.000000 0.543070 0.127351 0.829974
-0.16000000 3.09999990 0.34000000 142 154 107 97.000000 1.000000 4.000000 1.000000 -60.708740 114.000000 231.000000 0.706641 0.577559 0.408759
-0.13000000 3.04999995 0.47999999 142 154 107 97.000000 1.000000 4.000000 1.000000 -60.708740 114.000000 231.000000 0.724429 0.495662 0.479085
-0.12000000 3.03999996 0.47000000 142 154 107 97.000000 1.000000 4.000000 1.000000 -60.708740 114.000000 231.000000 0.640922 0.026647 0.767143
-0.09000000 3.05999994 0.33000001 142 154 107 97.000000 1.000000 4.000000 1.000000 -60.708740 114.000000 231.000000 0.951873 0.184974 0.244382
-0.13000000 3.04999995 0.38999999 142 154 107 97.000000 1.000000 4.000000 1.000000 -60.708740 114.000000 231.000000 0.684433 0.283711 0.671610
-0.20000000 3.07999992 0.40000001 142 154 107 97.000000 1.000000 4.000000 1.000000 -60.708740 114.000000 231.000000 0.737772 0.289667 0.609742
-0.20999999 3.07999992 0.47000000 142 154 107 97.000000 1.000000 4.000000 1.000000 -60.708740 114.000000 231.000000 0.526831 0.411946 0.743472
-0.23999999 3.09999990 0.46000001 142 154 107 97.000000 1.000000 4.000000 1.000000 -60.708740 114.000000 231.000000 0.467948 0.028320 0.883302
-0.23000000 3.06999993 0.41999999 142 154 107 97.000000 1.000000 4.000000 1.000000 -60.708740 114.000000 231.000000 0.670601 0.355796 0.650926
-0.20000000 3.09999990 0.34000000 142 154 107 97.000000 1.000000 4.000000 1.000000 -60.708740 114.000000 231.000000 0.451699 0.368702 0.812420
-0.20999999 3.10999990 0.38999999 142 154 107 97.000000 1.000000 4.000000 1.000000 -60.708740 114.000000 231.000000 0.718343 0.439633 0.539172
-0.23999999 3.11999989 0.37000000 142 154 107 97.000000 1.000000 4.000000 1.000000 -60.708740 114.000000 231.000000 0.566150 0.327432 0.756480
-0.22000000 3.05999994 0.44000000 142 154 107 97.000000 1.000000 4.000000 1.000000 -60.708740 114.000000 231.000000 0.082854 0.258760 0.962382
-0.19000000 3.04999995 0.34999999 142 154 107 97.000000 1.000000 4.000000 1.000000 -60.708740 114.000000 231.000000 0.691433 0.136487 0.709431
-0.31999999 3.26999998 0.57999998 142 154 107 97.000000 1.000000 4.000000 1.000000 -60.708740 114.000000 231.000000 0.306361 0.385619 0.870311
-0.28000000 3.30999994 0.56000000 142 154 107 97.000000 1.000000 4.000000 1.000000 -60.708740 114.000000 231.000000 0.106317 -0.020825 0.994114
-0.30000001 3.25999999 0.55000001 142 154 107 97.000000 1.000000 4.000000 1.000000 -60.708740 114.000000 231.000000 0.566871 0.200162 0.799120
-0.25999999 3.19000006 0.50999999 142 154 107 97.000000 1.000000 4.000000 1.000000 -60.708740 114.000000 231.000000 -0.034280 0.102839 0.994107
-0.37000000 3.24000001 0.54000002 142 154 107 97.000000 1.000000 4.000000 1.000000 -60.708740 114.000000 231.000000 0.141996 0.383811 0.912429
-0.40000001 3.29999995 0.55000001 142 154 107 97.000000 1.000000 4.000000 1.000000 -60.708740 114.000000 231.000000 -0.021087 0.291492 0.956341
-0.38000000 3.28999996 0.52999997 142 154 107 97.000000 1.000000 4.000000 1.000000 -60.708740 114.000000 231.000000 0.120019 0.319600 0.939921
-0.25000000 3.26999998 0.43000001 142 154 107 97.000000 1.000000 4.000000 1.000000 -60.708740 114.000000 231.000000 0.796821 0.264563 0.543216
-0.30000001 3.25000000 0.47999999 142 154 107 97.000000 1.000000 4.000000 1.000000 -60.708740 114.000000 231.000000 0.401085 -0.019597 0.915831
-0.31999999 3.26999998 0.43000001 142 154 107 97.000000 1.000000 4.000000 1.000000 -60.708740 114.000000 231.000000 0.396246 0.032911 0.917554
-0.31000000 3.26999998 0.40000001 142 154 107 97.000000 1.000000 4.000000 1.000000 -60.708740 114.000000 231.000000 0.431354 0.092928 0.897384
-0.27000001 3.20000005 0.43000001 142 154 107 97.000000 1.000000 4.000000 1.000000 -60.708740 114.000000 231.000000 0.720105 0.058931 0.691358
-0.27000001 3.16000009 0.43000001 142 154 107 97.000000 1.000000 4.000000 1.000000 -60.708740 114.000000 231.000000 0.656222 0.279413 0.700928
-0.31000000 3.21000004 0.41000000 142 154 107 97.000000 1.000000 4.000000 1.000000 -60.708740 114.000000 231.000000 0.510598 0.359190 0.781199
-0.28000000 3.19000006 0.36000001 142 154 107 97.000000 1.000000 4.000000 1.000000 -60.708740 114.000000 231.000000 0.787639 0.119697 0.604398
-0.33000001 3.23000002 0.37000000 142 154 107 97.000000 1.000000 4.000000 1.000000 -60.708740 114.000000 231.000000 0.526389 0.014962 0.850112
-0.34999999 3.27999997 0.46000001 142 154 107 97.000000 1.000000 4.000000 1.000000 -60.708740 114.000000 231.000000 -0.093393 0.064137 0.993561
-0.34999999 3.25999999 0.44000000 142 154 107 97.000000 1.000000 4.000000 1.000000 -60.708740 114.000000 231.000000 0.486487 0.289389 0.824369
-0.36000001 3.30999994 0.36000001 142 154 107 97.000000 1.000000 4.000000 1.000000 -60.708740 114.000000 231.000000 0.498574 0.300402 0.813131
-0.36000001 3.30999994 0.36000001 142 154 107 97.000000 1.000000 4.000000 1.000000 -60.708740 114.000000 231.000000 0.498574 0.300402 0.813131
-0.34000000 3.18000007 0.43000001 142 154 107 97.000000 1.000000 4.000000 1.000000 -60.708740 114.000000 231.000000 0.572921 0.245091 0.782107
-0.34000000 3.21000004 0.34999999 142 154 107 97.000000 1.000000 4.000000 1.000000 -60.708740 114.000000 231.000000 0.025573 -0.023527 0.999396
-0.38000000 3.17000008 0.33000001 142 154 107 97.000000 1.000000 4.000000 1.000000 -60.708740 114.000000 231.000000 -0.167227 0.281430 0.944898
-0.36000001 3.17000008 0.34000000 142 154 107 97.000000 1.000000 4.000000 1.000000 -60.708740 114.000000 231.000000 0.329165 0.094618 0.939520
-0.25999999 3.10999990 0.52999997 142 154 107 97.000000 1.000000 4.000000 1.000000 -60.708740 114.000000 231.000000 0.430872 0.533225 0.728025
-0.27000001 3.10999990 0.51999998 142 154 107 97.000000 1.000000 4.000000 1.000000 -60.708740 114.000000 231.000000 0.346275 0.480317 0.805847
-0.27000001 3.15000010 0.49000001 142 154 107 97.000000 1.000000 4.000000 1.000000 -60.708740 114.000000 231.000000 0.432484 0.384608 0.815496
-0.25000000 3.14000010 0.51999998 142 154 107 97.000000 1.000000 4.000000 1.000000 -60.708740 114.000000 231.000000 0.533520 -0.034465 0.845085
-0.25999999 3.07999992 0.52999997 142 154 107 97.000000 1.000000 4.000000 1.000000 -60.708740 114.000000 231.000000 0.380296 -0.094052 0.920070
-0.31000000 3.11999989 0.52999997 142 154 107 97.000000 1.000000 4.000000 1.000000 -60.708740 114.000000 231.000000 0.003152 0.076696 0.997050
-0.31000000 3.07999992 0.49000001 142 154 107 97.000000 1.000000 4.000000 1.000000 -60.708740 114.000000 231.000000 0.168798 -0.133788 0.976528
-0.31000000 3.06999993 0.49000001 142 154 107 97.000000 1.000000 4.000000 1.000000 -60.708740 114.000000 231.000000 0.082317 0.047195 0.995488
-0.28999999 3.02999997 0.50999999 142 154 107 97.000000 1.000000 4.000000 1.000000 -60.708740 114.000000 231.000000 0.329543 -0.111641 0.937517
-0.25999999 2.99000001 0.50000000 142 154 107 97.000000 1.000000 4.000000 1.000000 -60.708740 114.000000 231.000000 0.263583 -0.053716 0.963140
-0.27000001 3.00999999 0.50000000 142 154 107 97.000000 1.000000 4.000000 1.000000 -60.708740 114.000000 231.000000 0.355251 0.289297 0.888878
-0.30000001 3.05999994 0.50999999 142 154 107 97.000000 1.000000 4.000000 1.000000 -60.708740 114.000000 231.000000 0.431779 0.084149 0.898045
-0.31999999 3.05999994 0.51999998 142 154 107 97.000000 1.000000 4.000000 1.000000 -60.708740 114.000000 231.000000 0.364061 -0.043061 0.930379
-0.31999999 3.04999995 0.50000000 142 154 107 97.000000 1.000000 4.000000 1.000000 -60.708740 114.000000 231.000000 -0.112475 0.060214 0.991828
-0.31000000 2.99000001 0.50999999 142 154 107 97.000000 1.000000 4.000000 1.000000 -60.708740 114.000000 231.000000 -0.099653 0.265310 0.958999
-0.31000000 2.99000001 0.50999999 142 154 107 97.000000 1.000000 4.000000 1.000000 -60.708740 114.000000 231.000000 -0.099653 0.265310 0.958999
-0.30000001 3.00999999 0.50999999 142 154 107 97.000000 1.000000 4.000000 1.000000 -60.708740 114.000000 231.000000 0.528598 0.120864 0.840224
-0.41000000 3.06999993 0.51999998 142 154 107 97.000000 1.000000 4.000000 1.000000 -60.708740 114.000000 231.000000 0.088793 0.480610 0.872427
-0.34000000 3.08999991 0.51999998 142 154 107 97.000000 1.000000 4.000000 1.000000 -60.708740 114.000000 231.000000 0.413525 0.363210 0.834911
-0.34999999 3.09999990 0.51999998 142 154 107 97.000000 1.000000 4.000000 1.000000 -60.708740 114.000000 231.000000 0.072320 0.155311 0.985215
-0.34000000 3.04999995 0.57999998 142 154 107 97.000000 1.000000 4.000000 1.000000 -60.708740 114.000000 231.000000 -0.193061 -0.127445 0.972875
-0.41000000 3.03999996 0.63000000 142 154 107 97.000000 1.000000 4.000000 1.000000 -60.708740 114.000000 231.000000 0.006035 0.264338 0.964411
-0.38999999 3.04999995 0.51999998 142 154 107 97.000000 1.000000 4.000000 1.000000 -60.708740 114.000000 231.000000 -0.031084 0.160024 0.986624
-0.38999999 3.04999995 0.51999998 142 154 107 97.000000 1.000000 4.000000 1.000000 -60.708740 114.000000 231.000000 -0.031084 0.160024 0.986624
-0.25000000 3.06999993 0.47999999 142 154 107 97.000000 1.000000 4.000000 1.000000 -60.708740 114.000000 231.000000 0.513920 0.305189 0.801715
-0.25999999 3.07999992 0.41000000 142 154 107 97.000000 1.000000 4.000000 1.000000 -60.708740 114.000000 231.000000 0.648154 0.006910 0.761478
-0.28999999 3.10999990 0.37000000 142 154 107 97.000000 1.000000 4.000000 1.000000 -60.708740 114.000000 231.000000 0.492992 0.516388 0.700216
-0.27000001 3.08999991 0.31999999 142 154 107 97.000000 1.000000 4.000000 1.000000 -60.708740 114.000000 231.000000 0.430891 -0.101796 0.896644
-0.31000000 3.13000011 0.37000000 142 154 107 97.000000 1.000000 4.000000 1.000000 -60.708740 114.000000 231.000000 0.519181 0.324288 0.790752
-0.28999999 2.99000001 0.47999999 142 154 107 97.000000 1.000000 4.000000 1.000000 -60.708740 114.000000 231.000000 -0.153744 0.124225 0.980271
-0.27000001 3.01999998 0.44999999 142 154 107 97.000000 1.000000 4.000000 1.000000 -60.708740 114.000000 231.000000 0.000978 0.000978 0.999999
-0.28999999 2.99000001 0.46000001 142 154 107 97.000000 1.000000 4.000000 1.000000 -60.708740 114.000000 231.000000 0.406739 -0.035772 0.912844
-0.28999999 3.00999999 0.44999999 142 154 107 97.000000 1.000000 4.000000 1.000000 -60.708740 114.000000 231.000000 -0.131896 0.149154 0.979978
-0.31999999 3.03999996 0.47000000 142 154 107 97.000000 1.000000 4.000000 1.000000 -60.708740 114.000000 231.000000 0.395327 0.218973 0.892058
-0.33000001 3.00999999 0.47000000 142 154 107 97.000000 1.000000 4.000000 1.000000 -60.708740 114.000000 231.000000 -0.164435 -0.043150 0.985444
-0.27000001 3.02999997 0.31999999 142 154 107 97.000000 1.000000 4.000000 1.000000 -60.708740 114.000000 231.000000 0.439194 0.320408 0.839314
-0.31000000 3.02999997 0.34000000 142 154 107 97.000000 1.000000 4.000000 1.000000 -60.708740 114.000000 231.000000 0.079630 0.042542 0.995916
-0.41000000 3.06999993 0.33000001 142 154 107 97.000000 1.000000 4.000000 1.000000 -60.708740 114.000000 231.000000 0.129641 -0.053922 0.990094
-0.34999999 3.02999997 0.41000000 142 154 107 97.000000 1.000000 4.000000 1.000000 -60.708740 114.000000 231.000000 -0.285203 0.008568 0.958429
-0.37000000 3.02999997 0.43000001 142 154 107 97.000000 1.000000 4.000000 1.000000 -60.708740 114.000000 231.000000 0.046552 0.123761 0.991220
-0.37000000 3.03999996 0.43000001 142 154 107 97.000000 1.000000 4.000000 1.000000 -60.708740 114.000000 231.000000 -0.331805 -0.080638 0.939895
-0.36000001 3.00000000 0.47999999 142 154 107 97.000000 1.000000 4.000000 1.000000 -60.708740 114.000000 231.000000 -0.302060 0.190701 0.934020
-0.34999999 2.99000001 0.41999999 142 154 107 97.000000 1.000000 4.000000 1.000000 -60.708740 114.000000 231.000000 -0.124882 0.355433 0.926322
-0.34999999 3.00000000 0.44000000 142 154 107 97.000000 1.000000 4.000000 1.000000 -60.708740 114.000000 231.000000 0.166667 -0.216536 0.961943
-0.40000001 2.99000001 0.41999999 142 154 107 97.000000 1.000000 4.000000 1.000000 -60.708740 114.000000 231.000000 -0.139535 0.012279 0.990141
-0.36000001 3.04999995 0.38999999 142 154 107 97.000000 1.000000 4.000000 1.000000 -60.708740 114.000000 231.000000 -0.011124 0.302828 0.952980
-0.37000000 3.04999995 0.34999999 142 154 107 97.000000 1.000000 4.000000 1.000000 -60.708740 114.000000 231.000000 0.006810 0.554373 0.832241
-0.36000001 3.01999998 0.38000000 142 154 107 97.000000 1.000000 4.000000 1.000000 -60.708740 114.000000 231.000000 0.040053 0.526218 0.849406
-0.38000000 3.03999996 0.34999999 142 154 107 97.000000 1.000000 4.000000 1.000000 -60.708740 114.000000 231.000000 -0.034360 0.515404 0.856258
-0.15000001 3.25999999 0.25000000 142 154 107 97.000000 1.000000 4.000000 1.000000 -60.708740 114.000000 231.000000 0.954901 0.254374 0.153157
-0.15000001 3.27999997 0.17000000 142 154 107 97.000000 1.000000 4.000000 1.000000 -60.708740 114.000000 231.000000 0.991608 -0.129052 -0.007721
-0.09000000 3.25000000 0.23000000 142 154 107 97.000000 1.000000 4.000000 1.000000 -60.708740 114.000000 231.000000 0.831455 0.389695 0.396006
-0.12000000 3.17000008 0.27000001 142 154 107 97.000000 1.000000 4.000000 1.000000 -60.708740 114.000000 231.000000 0.701670 0.139733 0.698665
-0.16000000 3.17000008 0.25000000 142 154 107 97.000000 1.000000 4.000000 1.000000 -60.708740 114.000000 231.000000 0.665757 0.669013 0.330437
-0.11000000 3.20000005 0.16000000 142 154 107 97.000000 1.000000 4.000000 1.000000 -60.708740 114.000000 231.000000 0.996050 -0.085252 0.024820
-0.11000000 3.21000004 0.17000000 142 154 107 97.000000 1.000000 4.000000 1.000000 -60.708740 114.000000 231.000000 0.952354 0.047046 0.301346
-0.15000001 3.17000008 0.15000001 142 154 107 97.000000 1.000000 4.000000 1.000000 -60.708740 114.000000 231.000000 0.969072 0.203543 -0.139536
-0.19000000 3.26999998 0.28999999 142 154 107 97.000000 1.000000 4.000000 1.000000 -60.708740 114.000000 231.000000 0.935294 0.324546 0.141047
-0.19000000 3.25999999 0.30000001 142 154 107 97.000000 1.000000 4.000000 1.000000 -60.708740 114.000000 231.000000 0.712592 0.587518 0.383450
-0.23000000 3.28999996 0.28000000 142 154 107 97.000000 1.000000 4.000000 1.000000 -60.708740 114.000000 231.000000 0.610625 0.549731 0.570029
-0.19000000 3.27999997 0.16000000 142 154 107 97.000000 1.000000 4.000000 1.000000 -60.708740 114.000000 231.000000 0.796904 0.595119 -0.103817
-0.17000000 3.25000000 0.19000000 142 154 107 97.000000 1.000000 4.000000 1.000000 -60.708740 114.000000 231.000000 0.769965 0.523576 0.364720
-0.18000001 3.26999998 0.18000001 142 154 107 97.000000 1.000000 4.000000 1.000000 -60.708740 114.000000 231.000000 0.915817 0.217093 0.337860
-0.17000000 3.25000000 0.18000001 142 154 107 97.000000 1.000000 4.000000 1.000000 -60.708740 114.000000 231.000000 0.927432 0.340661 0.154340
-0.23000000 3.25000000 0.18000001 142 154 107 97.000000 1.000000 4.000000 1.000000 -60.708740 114.000000 231.000000 0.735561 0.561909 0.378429
-0.23000000 3.24000001 0.18000001 142 154 107 97.000000 1.000000 4.000000 1.000000 -60.708740 114.000000 231.000000 0.997995 0.054089 0.032878
-0.17000000 3.20000005 0.17000000 142 154 107 97.000000 1.000000 4.000000 1.000000 -60.708740 114.000000 231.000000 0.987405 -0.023972 -0.156387
-0.23000000 3.20000005 0.19000000 142 154 107 97.000000 1.000000 4.000000 1.000000 -60.708740 114.000000 231.000000 0.982155 0.132987 0.132987
-0.20999999 3.20000005 0.17000000 142 154 107 97.000000 1.000000 4.000000 1.000000 -60.708740 114.000000 231.000000 0.803835 0.471434 0.362765
-0.20999999 3.17000008 0.19000000 142 154 107 97.000000 1.000000 4.000000 1.000000 -60.708740 114.000000 231.000000 0.912869 0.184288 0.364291
-0.09000000 3.26999998 0.12000000 142 154 107 97.000000 1.000000 4.000000 1.000000 -60.708740 114.000000 231.000000 0.886716 0.413213 -0.207342
-0.16000000 3.24000001 0.08000000 142 154 107 97.000000 1.000000 4.000000 1.000000 -60.708740 114.000000 231.000000 0.843089 0.500443 -0.196871
-0.11000000 3.24000001 0.09000000 142 154 107 97.000000 1.000000 4.000000 1.000000 -60.708740 114.000000 231.000000 0.966893 0.015692 -0.254700
-0.14000000 3.25999999 0.11000000 142 154 107 97.000000 1.000000 4.000000 1.000000 -60.708740 114.000000 231.000000 0.996866 -0.075860 -0.022437
-0.09000000 3.30999994 -0.02000000 142 154 107 97.000000 1.000000 4.000000 1.000000 -60.708740 114.000000 231.000000 0.767751 0.097980 -0.633212
-0.16000000 3.27999997 0.05000000 142 154 107 97.000000 1.000000 4.000000 1.000000 -60.708740 114.000000 231.000000 0.836133 0.264286 -0.480661
-0.14000000 3.29999995 -0.02000000 142 154 107 97.000000 1.000000 4.000000 1.000000 -60.708740 114.000000 231.000000 0.832138 0.501122 -0.237535
-0.16000000 3.28999996 0.00000000 142 154 107 97.000000 1.000000 4.000000 1.000000 -60.708740 114.000000 231.000000 0.630626 0.402210 -0.663730
-0.11000000 3.21000004 0.12000000 142 154 107 97.000000 1.000000 4.000000 1.000000 -60.708740 114.000000 231.000000 0.866555 0.496162 0.053901
-0.11000000 3.19000006 0.12000000 142 154 107 97.000000 1.000000 4.000000 1.000000 -60.708740 114.000000 231.000000 0.927914 0.183898 -0.324279
-0.11000000 3.19000006 0.12000000 142 154 107 97.000000 1.000000 4.000000 1.000000 -60.708740 114.000000 231.000000 0.927914 0.183898 -0.324279
-0.16000000 3.23000002 0.07000000 142 154 107 97.000000 1.000000 4.000000 1.000000 -60.708740 114.000000 231.000000 0.938386 0.314611 0.143005
-0.15000001 3.16000009 0.13000000 142 154 107 97.000000 1.000000 4.000000 1.000000 -60.708740 114.000000 231.000000 0.995541 -0.049502 0.080303
-0.15000001 3.17000008 0.14000000 142 154 107 97.000000 1.000000 4.000000 1.000000 -60.708740 114.000000 231.000000 0.915688 0.357446 0.183707
-0.13000000 3.19000006 0.13000000 142 154 107 97.000000 1.000000 4.000000 1.000000 -60.708740 114.000000 231.000000 0.957433 -0.083534 -0.276306
-0.09000000 3.20000005 0.06000000 142 154 107 97.000000 1.000000 4.000000 1.000000 -60.708740 114.000000 231.000000 0.808532 0.193378 -0.555771
-0.11000000 3.17000008 0.03000000 142 154 107 97.000000 1.000000 4.000000 1.000000 -60.708740 114.000000 231.000000 0.822183 0.513672 -0.245267
-0.14000000 3.21000004 0.04000000 142 154 107 97.000000 1.000000 4.000000 1.000000 -60.708740 114.000000 231.000000 0.995210 -0.051914 -0.082842
-0.18000001 3.30999994 0.10000000 142 154 107 97.000000 1.000000 4.000000 1.000000 -60.708740 114.000000 231.000000 0.999976 -0.000985 -0.006896
-0.23999999 3.29999995 0.08000000 142 154 107 97.000000 1.000000 4.000000 1.000000 -60.708740 114.000000 231.000000 0.899850 0.300938 -0.315763
-0.20000000 3.27999997 0.02000000 142 154 107 97.000000 1.000000 4.000000 1.000000 -60.708740 114.000000 231.000000 0.969610 0.035281 -0.242098
-0.18000001 3.25999999 0.06000000 142 154 107 97.000000 1.000000 4.000000 1.000000 -60.708740 114.000000 231.000000 0.904944 0.396357 -0.154849
-0.20000000 3.26999998 0.02000000 142 154 107 97.000000 1.000000 4.000000 1.000000 -60.708740 114.000000 231.000000 0.956375 -0.038857 -0.289545
-0.23000000 3.29999995 0.03000000 142 154 107 97.000000 1.000000 4.000000 1.000000 -60.708740 114.000000 231.000000 0.938116 0.312705 -0.148842
-0.18000001 3.21000004 0.09000000 142 154 107 97.000000 1.000000 4.000000 1.000000 -60.708740 114.000000 231.000000 0.931654 0.356493 0.070238
-0.19000000 3.16000009 0.14000000 142 154 107 97.000000 1.000000 4.000000 1.000000 -60.708740 114.000000 231.000000 0.999999 -0.000978 0.000978
-0.23999999 3.22000003 0.11000000 142 154 107 97.000000 1.000000 4.000000 1.000000 -60.708740 114.000000 231.000000 0.922099 0.073822 -0.379846
-0.20999999 3.23000002 0.13000000 142 154 107 97.000000 1.000000 4.000000 1.000000 -60.708740 114.000000 231.000000 0.993522 0.073302 0.086835
-0.22000000 3.17000008 0.13000000 142 154 107 97.000000 1.000000 4.000000 1.000000 -60.708740 114.000000 231.000000 0.993295 0.073452 -0.089272
-0.20999999 3.18000007 0.09000000 142 154 107 97.000000 1.000000 4.000000 1.000000 -60.708740 114.000000 231.000000 0.839064 -0.124036 -0.529705
-0.16000000 3.13000011 0.27000001 142 154 107 97.000000 1.000000 4.000000 1.000000 -60.708740 114.000000 231.000000 0.792630 0.588080 0.160932
-0.15000001 3.15000010 0.25999999 142 154 107 97.000000 1.000000 4.000000 1.000000 -60.708740 114.000000 231.000000 0.740147 0.641255 0.202420
-0.16000000 3.13000011 0.27000001 142 154 107 97.000000 1.000000 4.000000 1.000000 -60.708740 114.000000 231.000000 0.792630 0.588080 0.160932
-0.13000000 3.15000010 0.22000000 142 154 107 97.000000 1.000000 4.000000 1.000000 -60.708740 114.000000 231.000000 0.869701 0.140368 0.473198
-0.13000000 3.14000010 0.20000000 142 154 107 97.000000 1.000000 4.000000 1.000000 -60.708740 114.000000 231.000000 0.944309 -0.031859 0.327513
-0.16000000 3.14000010 0.19000000 142 154 107 97.000000 1.000000 4.000000 1.000000 -60.708740 114.000000 231.000000 0.936317 0.172880 0.305652
-0.19000000 3.13000011 0.31000000 142 154 107 97.000000 1.000000 4.000000 1.000000 -60.708740 114.000000 231.000000 0.592293 0.645985 0.481552
-0.19000000 3.14000010 0.25000000 142 154 107 97.000000 1.000000 4.000000 1.000000 -60.708740 114.000000 231.000000 0.987803 0.137097 0.073822
-0.22000000 3.07999992 0.28000000 142 154 107 97.000000 1.000000 4.000000 1.000000 -60.708740 114.000000 231.000000 0.659557 0.495087 0.565574
-0.18000001 3.15000010 0.15000001 142 154 107 97.000000 1.000000 4.000000 1.000000 -60.708740 114.000000 231.000000 0.908468 0.357881 -0.215888
-0.19000000 3.06999993 0.23000000 142 154 107 97.000000 1.000000 4.000000 1.000000 -60.708740 114.000000 231.000000 0.895532 0.359693 0.261999
-0.09000000 3.15000010 0.12000000 142 154 107 97.000000 1.000000 4.000000 1.000000 -60.708740 114.000000 231.000000 0.903217 0.373795 -0.210896
-0.10000000 3.07999992 0.02000000 142 154 107 97.000000 1.000000 4.000000 1.000000 -60.708740 114.000000 231.000000 0.705556 -0.130326 -0.696568
-0.09000000 3.09999990 0.02000000 142 154 107 97.000000 1.000000 4.000000 1.000000 -60.708740 114.000000 231.000000 -0.609322 -0.174743 0.773429
-0.14000000 3.11999989 0.05000000 142 154 107 97.000000 1.000000 4.000000 1.000000 -60.708740 114.000000 231.000000 0.784888 0.052515 -0.617408
-0.14000000 3.08999991 0.06000000 142 154 107 97.000000 1.000000 4.000000 1.000000 -60.708740 114.000000 231.000000 0.751859 0.123573 -0.647641
-0.14000000 3.07999992 0.01000000 142 154 107 97.000000 1.000000 4.000000 1.000000 -60.708740 114.000000 231.000000 0.764524 -0.228890 -0.602588
-0.11000000 3.03999996 0.00000000 142 154 107 97.000000 1.000000 4.000000 1.000000 -60.708740 114.000000 231.000000 -0.663228 -0.032387 0.747716
-0.15000001 3.05999994 0.01000000 142 154 107 97.000000 1.000000 4.000000 1.000000 -60.708740 114.000000 231.000000 0.788033 0.154605 -0.595903
-0.16000000 3.04999995 -0.01000000 142 154 107 97.000000 1.000000 4.000000 1.000000 -60.708740 114.000000 231.000000 0.858289 0.156986 -0.488565
-0.14000000 3.01999998 0.03000000 142 154 107 97.000000 1.000000 4.000000 1.000000 -60.708740 114.000000 231.000000 0.775083 0.407853 -0.482599
-0.28999999 3.29999995 0.25999999 142 154 107 97.000000 1.000000 4.000000 1.000000 -60.708740 114.000000 231.000000 0.530611 0.638417 0.557562
-0.28000000 3.24000001 0.30000001 142 154 107 97.000000 1.000000 4.000000 1.000000 -60.708740 114.000000 231.000000 0.612658 0.142304 0.777431
-0.28999999 3.25999999 0.23999999 142 154 107 97.000000 1.000000 4.000000 1.000000 -60.708740 114.000000 231.000000 0.881213 0.375080 0.287712
-0.28999999 3.26999998 0.23999999 142 154 107 97.000000 1.000000 4.000000 1.000000 -60.708740 114.000000 231.000000 0.495378 0.132198 0.858559
-0.31000000 3.29999995 0.28999999 142 154 107 97.000000 1.000000 4.000000 1.000000 -60.708740 114.000000 231.000000 0.333871 0.327828 0.883776
-0.33000001 3.30999994 0.23999999 142 154 107 97.000000 1.000000 4.000000 1.000000 -60.708740 114.000000 231.000000 0.518248 0.626286 0.582396
-0.30000001 3.25000000 0.30000001 142 154 107 97.000000 1.000000 4.000000 1.000000 -60.708740 114.000000 231.000000 0.409160 0.074763 0.909395
-0.31000000 3.25999999 0.28999999 142 154 107 97.000000 1.000000 4.000000 1.000000 -60.708740 114.000000 231.000000 0.372455 0.528594 0.762801
-0.28000000 3.24000001 0.20999999 142 154 107 97.000000 1.000000 4.000000 1.000000 -60.708740 114.000000 231.000000 0.647355 0.647355 0.402321
-0.30000001 3.29999995 0.20999999 142 154 107 97.000000 1.000000 4.000000 1.000000 -60.708740 114.000000 231.000000 0.751758 -0.044054 0.657966
-0.31999999 3.30999994 0.16000000 142 154 107 97.000000 1.000000 4.000000 1.000000 -60.708740 114.000000 231.000000 0.698741 0.647102 0.304993
-0.31999999 3.24000001 0.22000000 142 154 107 97.000000 1.000000 4.000000 1.000000 -60.708740 114.000000 231.000000 0.668186 0.216499 0.711797
-0.33000001 3.25999999 0.19000000 142 154 107 97.000000 1.000000 4.000000 1.000000 -60.708740 114.000000 231.000000 0.653056 0.410445 0.636438
-0.25999999 3.23000002 0.28000000 142 154 107 97.000000 1.000000 4.000000 1.000000 -60.708740 114.000000 231.000000 0.623185 0.073401 0.778622
-0.30000001 3.23000002 0.27000001 142 154 107 97.000000 1.000000 4.000000 1.000000 -60.708740 114.000000 231.000000 0.904490 0.118828 0.409607
-0.31999999 3.23000002 0.25000000 142 154 107 97.000000 1.000000 4.000000 1.000000 -60.708740 114.000000 231.000000 0.518078 0.060047 0.853223
-0.31000000 3.23000002 0.23999999 142 154 107 97.000000 1.000000 4.000000 1.000000 -60.708740 114.000000 231.000000 0.625664 0.064428 0.777427
-0.30000001 3.19000006 0.28999999 142 154 107 97.000000 1.000000 4.000000 1.000000 -60.708740 114.000000 231.000000 0.756814 -0.020984 0.653294
-0.31999999 3.19000006 0.23999999 142 154 107 97.000000 1.000000 4.000000 1.000000 -60.708740 114.000000 231.000000 0.712079 0.080091 0.697517
-0.27000001 3.22000003 0.23000000 142 154 107 97.000000 1.000000 4.000000 1.000000 -60.708740 114.000000 231.000000 0.781739 0.198123 0.591296
-0.31999999 3.21000004 0.20999999 142 154 107 97.000000 1.000000 4.000000 1.000000 -60.708740 114.000000 231.000000 0.846244 -0.037273 0.531491
-0.30000001 3.20000005 0.19000000 142 154 107 97.000000 1.000000 4.000000 1.000000 -60.708740 114.000000 231.000000 0.720022 0.282581 0.633811
