//X Y Z R G B PointSourceId ScanDirectionFlag NumberOfReturns ReturnNumber GpsTime Intensity Classification Nx Ny Nz
9.22000027 -8.97999954 -0.25000000 35 184 146 0.000000 0.000000 0.000000 0.000000 -60.708740 0.000000 240.000000 -0.232123 0.819350 -0.524199
9.21000004 -8.97000027 -0.31000000 35 184 146 0.000000 0.000000 0.000000 0.000000 -60.708740 0.000000 240.000000 -0.270158 0.775716 -0.570333
9.22000027 -8.97000027 -0.31000000 35 184 146 0.000000 0.000000 0.000000 0.000000 -60.708740 0.000000 240.000000 0.366881 0.836111 -0.407820
9.19999981 -8.94999981 -0.34000000 35 184 146 0.000000 0.000000 0.000000 0.000000 -60.708740 0.000000 240.000000 -0.099416 0.891948 -0.441073
9.22000027 -8.98999977 -0.28999999 35 184 146 0.000000 0.000000 0.000000 0.000000 -60.708740 0.000000 240.000000 -0.316413 0.762926 -0.563762
9.21000004 -9.00000000 -0.34999999 35 184 146 0.000000 0.000000 0.000000 0.000000 -60.708740 0.000000 240.000000 -0.064837 0.930217 -0.361237
9.18000031 -8.97000027 -0.30000001 35 184 146 0.000000 0.000000 0.000000 0.000000 -60.708740 0.000000 240.000000 0.023061 0.993805 -0.108715
9.25000000 -8.89999962 -0.57999998 35 184 146 0.000000 0.000000 0.000000 0.000000 -60.708740 0.000000 240.000000 0.533447 0.709601 -0.460327
9.22000027 -8.92000008 -0.55000001 35 184 146 0.000000 0.000000 0.000000 0.000000 -60.708740 0.000000 240.000000 -0.236459 -0.606024 0.759488
9.28999996 -8.96000004 -0.43000001 35 184 146 0.000000 0.000000 0.000000 0.000000 -60.708740 0.000000 240.000000 0.116914 0.756239 -0.643765
9.25000000 -9.01000023 -0.38999999 35 184 146 0.000000 0.000000 0.000000 0.000000 -60.708740 0.000000 240.000000 0.384184 0.779716 -0.494414
9.25000000 -9.01000023 -0.40000001 35 184 146 0.000000 0.000000 0.000000 0.000000 -60.708740 0.000000 240.000000 -0.097454 0.912770 -0.396678
9.28999996 -9.02999973 -0.38999999 35 184 146 0.000000 0.000000 0.000000 0.000000 -60.708740 0.000000 240.000000 0.581442 0.638744 -0.503916
9.26000023 -9.02000046 -0.41000000 35 184 146 0.000000 0.000000 0.000000 0.000000 -60.708740 0.000000 240.000000 0.319298 0.869284 -0.377352
9.25000000 -9.02000046 -0.41999999 35 184 146 0.000000 0.000000 0.000000 0.000000 -60.708740 0.000000 240.000000 0.352746 0.864150 -0.358907
9.22999954 -9.00000000 -0.38999999 35 184 146 0.000000 0.000000 0.000000 0.000000 -60.708740 0.000000 240.000000 -0.075275 0.839391 -0.538290
9.22999954 -9.00000000 -0.38999999 35 184 146 0.000000 0.000000 0.000000 0.000000 -60.708740 0.000000 240.000000 -0.075275 0.839391 -0.538290
9.22000027 -8.97999954 -0.43000001 35 184 146 0.000000 0.000000 0.000000 0.000000 -60.708740 0.000000 240.000000 0.243365 0.843361 -0.479078
9.21000004 -8.97999954 -0.46000001 35 184 146 0.000000 0.000000 0.000000 0.000000 -60.708740 0.000000 240.000000 0.004031 0.855822 -0.517255
9.27999973 -8.97000027 -0.60000002 35 184 146 0.000000 0.000000 0.000000 0.000000 -60.708740 0.000000 240.000000 -0.525866 -0.339320 0.779953
9.25000000 -9.06999969 -0.58999997 35 184 146 0.000000 0.000000 0.000000 0.000000 -60.708740 0.000000 240.000000 -0.449751 -0.357576 0.818452
9.18000031 -8.94999981 -0.63999999 35 184 146 0.000000 0.000000 0.000000 0.000000 -60.708740 0.000000 240.000000 -0.204384 -0.588563 0.782190
9.21000004 -9.02999973 -0.61000001 35 184 146 0.000000 0.000000 0.000000 0.000000 -60.708740 0.000000 240.000000 -0.043389 0.818789 -0.572453
9.14999962 -9.02999973 -0.51999998 35 184 146 0.000000 0.000000 0.000000 0.000000 -60.708740 0.000000 240.000000 0.258814 0.867256 -0.425303
9.35000038 -9.00000000 -0.72000003 35 184 146 0.000000 0.000000 0.000000 0.000000 -60.708740 0.000000 240.000000 0.174255 0.795510 -0.580344
9.35999966 -9.06000042 -0.76999998 35 184 146 0.000000 0.000000 0.000000 0.000000 -60.708740 0.000000 240.000000 0.538343 0.705013 -0.461675
9.30000019 -9.02999973 -0.80000001 35 184 146 0.000000 0.000000 0.000000 0.000000 -60.708740 0.000000 240.000000 0.299174 0.822336 -0.484003
9.65999985 -9.10999966 -0.25000000 35 184 146 0.000000 0.000000 0.000000 0.000000 -60.708740 0.000000 240.000000 0.755546 -0.298704 -0.583032
9.75000000 -9.30000019 -0.03000000 35 184 146 0.000000 0.000000 0.000000 0.000000 -60.708740 0.000000 240.000000 0.949562 -0.281797 -0.137560
9.75000000 -9.31999969 -0.08000000 35 184 146 0.000000 0.000000 0.000000 0.000000 -60.708740 0.000000 240.000000 0.842116 -0.443629 -0.306649
9.73999977 -9.27999973 -0.04000000 35 184 146 0.000000 0.000000 0.000000 0.000000 -60.708740 0.000000 240.000000 0.847852 -0.145472 -0.509887
9.72999954 -9.34000015 -0.13000000 35 184 146 0.000000 0.000000 0.000000 0.000000 -60.708740 0.000000 240.000000 0.721245 -0.332259 -0.607791
9.67000008 -9.32999992 -0.23000000 35 184 146 0.000000 0.000000 0.000000 0.000000 -60.708740 0.000000 240.000000 -0.701011 0.697996 0.146233
9.68999958 -9.39000034 -0.23000000 35 184 146 0.000000 0.000000 0.000000 0.000000 -60.708740 0.000000 240.000000 0.791071 -0.552966 -0.261602
9.60000038 -9.13000011 -0.15000001 35 184 146 0.000000 0.000000 0.000000 0.000000 -60.708740 0.000000 240.000000 0.910140 0.022327 -0.413700
9.55000019 -9.15999985 -0.08000000 35 184 146 0.000000 0.000000 0.000000 0.000000 -60.708740 0.000000 240.000000 0.951081 -0.026384 -0.307813
9.53999996 -9.18000031 -0.09000000 35 184 146 0.000000 0.000000 0.000000 0.000000 -60.708740 0.000000 240.000000 0.851939 -0.342948 -0.395710
9.53999996 -9.18999958 -0.05000000 35 184 146 0.000000 0.000000 0.000000 0.000000 -60.708740 0.000000 240.000000 0.553515 -0.661190 -0.506408
9.48999977 -9.22999954 -0.07000000 35 184 146 0.000000 0.000000 0.000000 0.000000 -60.708740 0.000000 240.000000 -0.586977 0.600510 0.542996
9.52999973 -9.19999981 -0.11000000 35 184 146 0.000000 0.000000 0.000000 0.000000 -60.708740 0.000000 240.000000 0.915074 -0.147593 -0.375307
9.50000000 -9.21000004 -0.13000000 35 184 146 0.000000 0.000000 0.000000 0.000000 -60.708740 0.000000 240.000000 0.805461 -0.332034 -0.490902
9.51000023 -9.22000027 -0.17000000 35 184 146 0.000000 0.000000 0.000000 0.000000 -60.708740 0.000000 240.000000 0.831527 -0.291737 -0.472707
9.52000046 -9.23999977 -0.11000000 35 184 146 0.000000 0.000000 0.000000 0.000000 -60.708740 0.000000 240.000000 0.834588 -0.327259 -0.443130
9.48999977 -9.23999977 -0.15000001 35 184 146 0.000000 0.000000 0.000000 0.000000 -60.708740 0.000000 240.000000 0.683970 -0.463227 -0.563565
9.52000046 -9.25000000 -0.15000001 35 184 146 0.000000 0.000000 0.000000 0.000000 -60.708740 0.000000 240.000000 0.881621 -0.391998 -0.262834
9.57999992 -9.18999958 -0.22000000 35 184 146 0.000000 0.000000 0.000000 0.000000 -60.708740 0.000000 240.000000 0.825373 -0.397637 -0.400805
9.52999973 -9.14999962 -0.20000000 35 184 146 0.000000 0.000000 0.000000 0.000000 -60.708740 0.000000 240.000000 0.908371 -0.103695 -0.405103
9.55000019 -9.15999985 -0.23999999 35 184 146 0.000000 0.000000 0.000000 0.000000 -60.708740 0.000000 240.000000 -0.499725 0.012123 0.866099
9.56000042 -9.13000011 -0.31000000 35 184 146 0.000000 0.000000 0.000000 0.000000 -60.708740 0.000000 240.000000 -0.557870 -0.193050 0.807163
9.48999977 -9.23999977 -0.25000000 35 184 146 0.000000 0.000000 0.000000 0.000000 -60.708740 0.000000 240.000000 0.894881 -0.284397 -0.343956
9.64999962 -9.35999966 -0.34999999 35 184 146 0.000000 0.000000 0.000000 0.000000 -60.708740 0.000000 240.000000 0.734925 -0.610036 -0.296212
9.64000034 -9.36999989 -0.34000000 35 184 146 0.000000 0.000000 0.000000 0.000000 -60.708740 0.000000 240.000000 0.750317 -0.324331 -0.576050
9.43999958 -9.15999985 -0.08000000 35 184 146 0.000000 0.000000 0.000000 0.000000 -60.708740 0.000000 240.000000 0.803658 -0.441130 -0.399423
9.47999954 -9.25000000 -0.11000000 35 184 146 0.000000 0.000000 0.000000 0.000000 -60.708740 0.000000 240.000000 0.730458 -0.452188 -0.511817
9.42000008 -9.18000031 -0.19000000 35 184 146 0.000000 0.000000 0.000000 0.000000 -60.708740 0.000000 240.000000 0.670975 -0.473531 -0.570580
9.47999954 -9.18000031 -0.28999999 35 184 146 0.000000 0.000000 0.000000 0.000000 -60.708740 0.000000 240.000000 0.769348 0.088715 -0.632640
9.47999954 -9.25000000 -0.20999999 35 184 146 0.000000 0.000000 0.000000 0.000000 -60.708740 0.000000 240.000000 -0.663372 0.370369 0.650203
9.47999954 -9.22999954 -0.20999999 35 184 146 0.000000 0.000000 0.000000 0.000000 -60.708740 0.000000 240.000000 0.784779 -0.497940 -0.369023
9.44999981 -9.26000023 -0.20000000 35 184 146 0.000000 0.000000 0.000000 0.000000 -60.708740 0.000000 240.000000 0.598970 -0.531480 -0.598970
9.43000031 -9.22000027 -0.25000000 35 184 146 0.000000 0.000000 0.000000 0.000000 -60.708740 0.000000 240.000000 -0.541454 0.162585 0.824860
9.43999958 -9.22999954 -0.23999999 35 184 146 0.000000 0.000000 0.000000 0.000000 -60.708740 0.000000 240.000000 0.955880 -0.086663 -0.280685
9.47000027 -9.23999977 -0.28000000 35 184 146 0.000000 0.000000 0.000000 0.000000 -60.708740 0.000000 240.000000 0.669213 -0.219951 -0.709771
9.43000031 -9.31000042 -0.14000000 35 184 146 0.000000 0.000000 0.000000 0.000000 -60.708740 0.000000 240.000000 0.506047 -0.758252 -0.411061
9.52999973 -9.21000004 -0.37000000 35 184 146 0.000000 0.000000 0.000000 0.000000 -60.708740 0.000000 240.000000 0.795837 0.368175 -0.480718
9.77000046 -8.31000042 0.49000001 35 184 146 0.000000 0.000000 0.000000 0.000000 -60.708740 0.000000 240.000000 -0.437301 0.876085 -0.203086
9.73999977 -8.34000015 0.43000001 35 184 146 0.000000 0.000000 0.000000 0.000000 -60.708740 0.000000 240.000000 -0.102637 0.828323 -0.550770
9.72999954 -8.34000015 0.46000001 35 184 146 0.000000 0.000000 0.000000 0.000000 -60.708740 0.000000 240.000000 -0.060370 0.840965 -0.537712
9.72999954 -8.39000034 0.31999999 35 184 146 0.000000 0.000000 0.000000 0.000000 -60.708740 0.000000 240.000000 -0.106491 0.988844 -0.104150
9.73999977 -8.39000034 0.28999999 35 184 146 0.000000 0.000000 0.000000 0.000000 -60.708740 0.000000 240.000000 0.202294 0.878577 -0.432644
9.69999981 -8.42000008 0.28999999 35 184 146 0.000000 0.000000 0.000000 0.000000 -60.708740 0.000000 240.000000 0.041184 -0.674572 0.737059
10.18000031 -8.71000004 0.69000000 35 184 146 0.000000 0.000000 0.000000 0.000000 -60.708740 0.000000 242.000000 0.569961 -0.210471 -0.794258
10.14000034 -8.64000034 0.67000002 35 184 146 0.000000 0.000000 0.000000 0.000000 -60.708740 0.000000 242.000000 0.737622 0.409060 -0.537199
10.02000046 -8.76000023 0.67000002 35 184 146 0.000000 0.000000 0.000000 0.000000 -60.708740 0.000000 240.000000 0.930392 -0.156683 -0.331392
10.11999989 -8.68000031 0.69000000 35 184 146 0.000000 0.000000 0.000000 0.000000 -60.708740 0.000000 242.000000 -0.657709 -0.104468 0.745992
10.28999996 -8.69999981 0.61000001 35 184 146 0.000000 0.000000 0.000000 0.000000 -60.708740 0.000000 242.000000 0.925608 0.127907 -0.356215
10.21000004 -8.64999962 0.60000002 35 184 146 0.000000 0.000000 0.000000 0.000000 -60.708740 0.000000 242.000000 -0.407457 -0.439667 0.800420
10.17000008 -8.72000027 0.63999999 35 184 146 0.000000 0.000000 0.000000 0.000000 -60.708740 0.000000 242.000000 0.863278 0.233522 -0.447458
10.18000031 -8.73999977 0.60000002 35 184 146 0.000000 0.000000 0.000000 0.000000 -60.708740 0.000000 242.000000 0.694908 -0.293691 -0.656391
10.18000031 -8.71000004 0.58999997 35 184 146 0.000000 0.000000 0.000000 0.000000 -60.708740 0.000000 242.000000 -0.568199 -0.063763 0.820417
10.19999981 -8.72000027 0.60000002 35 184 146 0.000000 0.000000 0.000000 0.000000 -60.708740 0.000000 242.000000 0.565550 0.330307 -0.755678
10.18999958 -8.69999981 0.56000000 35 184 146 0.000000 0.000000 0.000000 0.000000 -60.708740 0.000000 242.000000 0.640165 0.398655 -0.656706
10.18999958 -8.69999981 0.56000000 35 184 146 0.000000 0.000000 0.000000 0.000000 -60.708740 0.000000 242.000000 0.640165 0.398655 -0.656706
10.23999977 -8.75000000 0.34999999 35 184 146 0.000000 0.000000 0.000000 0.000000 -60.708740 0.000000 242.000000 0.910869 -0.074661 -0.405886
10.11999989 -8.72000027 0.62000000 35 184 146 0.000000 0.000000 0.000000 0.000000 -60.708740 0.000000 242.000000 0.589978 0.398276 -0.702355
10.05000019 -8.81000042 0.63999999 35 184 146 0.000000 0.000000 0.000000 0.000000 -60.708740 0.000000 240.000000 0.911754 -0.299055 -0.281550
10.00000000 -8.81000042 0.54000002 35 184 146 0.000000 0.000000 0.000000 0.000000 -60.708740 0.000000 240.000000 0.842065 0.123619 -0.525018
10.00000000 -8.84000015 0.51999998 35 184 146 0.000000 0.000000 0.000000 0.000000 -60.708740 0.000000 240.000000 0.800619 -0.426889 -0.420446
9.98999977 -8.76000023 0.58999997 35 184 146 0.000000 0.000000 0.000000 0.000000 -60.708740 0.000000 240.000000 0.794398 0.456013 -0.401227
9.68999958 -8.44999981 0.36000001 35 184 146 0.000000 0.000000 0.000000 0.000000 -60.708740 0.000000 240.000000 -0.100236 0.939542 -0.327436
9.69999981 -8.47000027 0.25000000 35 184 146 0.000000 0.000000 0.000000 0.000000 -60.708740 0.000000 240.000000 -0.209558 0.972499 -0.101642
9.72000027 -8.44999981 0.18000001 35 184 146 0.000000 0.000000 0.000000 0.000000 -60.708740 0.000000 240.000000 -0.108260 0.892796 -0.437259
9.71000004 -8.51000023 0.20000000 35 184 146 0.000000 0.000000 0.000000 0.000000 -60.708740 0.000000 240.000000 -0.263457 0.761975 -0.591595
9.68000031 -8.48999977 0.22000000 35 184 146 0.000000 0.000000 0.000000 0.000000 -60.708740 0.000000 240.000000 -0.139015 0.980484 -0.139015
9.68000031 -8.47999954 0.18000001 35 184 146 0.000000 0.000000 0.000000 0.000000 -60.708740 0.000000 240.000000 0.105961 0.937558 -0.331297
9.65999985 -8.56000042 0.11000000 35 184 146 0.000000 0.000000 0.000000 0.000000 -60.708740 0.000000 240.000000 0.084040 0.899641 -0.428466
9.67000008 -8.56999969 0.10000000 35 184 146 0.000000 0.000000 0.000000 0.000000 -60.708740 0.000000 240.000000 -0.272565 0.823925 -0.496847
9.69999981 -8.52999973 0.13000000 35 184 146 0.000000 0.000000 0.000000 0.000000 -60.708740 0.000000 240.000000 0.093405 0.987252 -0.128875
9.67000008 -8.56999969 0.05000000 35 184 146 0.000000 0.000000 0.000000 0.000000 -60.708740 0.000000 240.000000 -0.143264 0.710289 -0.689177
9.68999958 -8.53999996 0.06000000 35 184 146 0.000000 0.000000 0.000000 0.000000 -60.708740 0.000000 240.000000 -0.067317 0.794908 -0.602984
9.98999977 -8.78999996 0.62000000 35 184 146 0.000000 0.000000 0.000000 0.000000 -60.708740 0.000000 240.000000 0.731784 -0.360188 -0.578582
9.97000027 -8.85000038 0.52999997 35 184 146 0.000000 0.000000 0.000000 0.000000 -60.708740 0.000000 240.000000 0.937372 -0.189690 -0.292150
9.93000031 -8.82999992 0.56000000 35 184 146 0.000000 0.000000 0.000000 0.000000 -60.708740 0.000000 240.000000 0.939572 -0.203413 -0.275368
9.94999981 -8.81000042 0.51999998 35 184 146 0.000000 0.000000 0.000000 0.000000 -60.708740 0.000000 240.000000 0.861722 -0.089144 -0.499488
9.93999958 -8.85000038 0.41999999 35 184 146 0.000000 0.000000 0.000000 0.000000 -60.708740 0.000000 240.000000 -0.611800 -0.188600 0.768200
9.93000031 -8.86999989 0.40000001 35 184 146 0.000000 0.000000 0.000000 0.000000 -60.708740 0.000000 240.000000 0.957499 0.132658 -0.256121
9.89999962 -8.93000031 0.40000001 35 184 146 0.000000 0.000000 0.000000 0.000000 -60.708740 0.000000 240.000000 0.953961 -0.230081 -0.192407
9.89000034 -8.88000011 0.40000001 35 184 146 0.000000 0.000000 0.000000 0.000000 -60.708740 0.000000 240.000000 0.849522 -0.063188 -0.523755
9.84000015 -8.92000008 0.34000000 35 184 146 0.000000 0.000000 0.000000 0.000000 -60.708740 0.000000 240.000000 0.909478 0.178469 -0.375499
9.88000011 -8.85999966 0.38999999 35 184 146 0.000000 0.000000 0.000000 0.000000 -60.708740 0.000000 240.000000 0.926332 0.014133 -0.376443
9.89999962 -8.93000031 0.34000000 35 184 146 0.000000 0.000000 0.000000 0.000000 -60.708740 0.000000 240.000000 0.711284 -0.471413 -0.521387
9.72999954 -8.85000038 0.52999997 35 184 146 0.000000 0.000000 0.000000 0.000000 -60.708740 0.000000 240.000000 -0.523104 0.777413 -0.349273
9.69999981 -8.88000011 0.46000001 35 184 146 0.000000 0.000000 0.000000 0.000000 -60.708740 0.000000 240.000000 0.411512 0.864328 -0.289129
9.67000008 -8.96000004 0.33000001 35 184 146 0.000000 0.000000 0.000000 0.000000 -60.708740 0.000000 240.000000 0.925754 0.046090 -0.375306
9.88000011 -8.84000015 0.28000000 35 184 146 0.000000 0.000000 0.000000 0.000000 -60.708740 0.000000 240.000000 0.822220 0.046224 -0.567290
9.82999992 -8.90999985 0.23000000 35 184 146 0.000000 0.000000 0.000000 0.000000 -60.708740 0.000000 240.000000 0.813341 0.193074 -0.548815
9.85999966 -8.96000004 0.23999999 35 184 146 0.000000 0.000000 0.000000 0.000000 -60.708740 0.000000 240.000000 0.808296 -0.452966 -0.376138
9.85999966 -8.97999954 0.18000001 35 184 146 0.000000 0.000000 0.000000 0.000000 -60.708740 0.000000 240.000000 0.978748 0.064121 -0.194782
9.68000031 -8.90999985 0.31000000 35 184 146 0.000000 0.000000 0.000000 0.000000 -60.708740 0.000000 240.000000 0.878379 0.250751 -0.406907
9.75000000 -8.92000008 0.06000000 35 184 146 0.000000 0.000000 0.000000 0.000000 -60.708740 0.000000 240.000000 0.915781 0.022209 -0.401063
9.81000042 -8.93999958 0.25999999 35 184 146 0.000000 0.000000 0.000000 0.000000 -60.708740 0.000000 240.000000 0.901306 -0.041640 -0.431176
9.65999985 -8.93999958 0.23999999 35 184 146 0.000000 0.000000 0.000000 0.000000 -60.708740 0.000000 240.000000 0.803048 -0.015204 -0.595721
9.68999958 -8.96000004 0.22000000 35 184 146 0.000000 0.000000 0.000000 0.000000 -60.708740 0.000000 240.000000 0.753395 0.171987 -0.634678
9.68000031 -8.97000027 0.19000000 35 184 146 0.000000 0.000000 0.000000 0.000000 -60.708740 0.000000 240.000000 0.786820 0.433157 -0.439646
9.81000042 -8.96000004 0.07000000 35 184 146 0.000000 0.000000 0.000000 0.000000 -60.708740 0.000000 240.000000 -0.618448 -0.318105 0.718562
9.77999973 -8.98999977 0.08000000 35 184 146 0.000000 0.000000 0.000000 0.000000 -60.708740 0.000000 240.000000 0.921634 -0.128504 -0.366166
9.75000000 -8.98999977 0.04000000 35 184 146 0.000000 0.000000 0.000000 0.000000 -60.708740 0.000000 240.000000 0.854192 0.135332 -0.502038
9.77999973 -8.97999954 0.00000000 35 184 146 0.000000 0.000000 0.000000 0.000000 -60.708740 0.000000 240.000000 -0.523403 -0.155686 0.837741
9.78999996 -9.03999996 0.03000000 35 184 146 0.000000 0.000000 0.000000 0.000000 -60.708740 0.000000 240.000000 0.863474 0.156862 -0.479382
9.73999977 -9.02999973 0.00000000 35 184 146 0.000000 0.000000 0.000000 0.000000 -60.708740 0.000000 240.000000 0.778362 -0.204994 -0.593405
9.77000046 -9.03999996 0.00000000 35 184 146 0.000000 0.000000 0.000000 0.000000 -60.708740 0.000000 240.000000 -0.688142 -0.152752 0.709315
9.72999954 -9.06000042 0.01000000 35 184 146 0.000000 0.000000 0.000000 0.000000 -60.708740 0.000000 240.000000 0.697176 0.015369 -0.716736
9.64000034 -8.36999989 0.31999999 35 184 146 0.000000 0.000000 0.000000 0.000000 -60.708740 0.000000 240.000000 -0.524360 0.784134 -0.331934
9.53999996 -8.38000011 0.44000000 35 184 146 0.000000 0.000000 0.000000 0.000000 -60.708740 0.000000 240.000000 -0.159775 0.893879 -0.418871
9.51000023 -8.39000034 0.40000001 35 184 146 0.000000 0.000000 0.000000 0.000000 -60.708740 0.000000 240.000000 -0.476477 0.764655 -0.433905
9.63000011 -8.52999973 0.34999999 35 184 146 0.000000 0.000000 0.000000 0.000000 -60.708740 0.000000 240.000000 0.029416 0.785832 -0.617740
9.59000015 -8.47000027 0.28999999 35 184 146 0.000000 0.000000 0.000000 0.000000 -60.708740 0.000000 240.000000 -0.005650 0.986470 -0.163847
9.61999989 -8.47000027 0.28000000 35 184 146 0.000000 0.000000 0.000000 0.000000 -60.708740 0.000000 240.000000 -0.014044 0.933319 -0.358773
9.60999966 -8.44999981 0.16000000 35 184 146 0.000000 0.000000 0.000000 0.000000 -60.708740 0.000000 240.000000 -0.286694 0.887100 -0.361745
9.64000034 -8.46000004 0.19000000 35 184 146 0.000000 0.000000 0.000000 0.000000 -60.708740 0.000000 240.000000 -0.076289 0.787362 -0.611753
9.56999969 -8.47000027 0.27000001 35 184 146 0.000000 0.000000 0.000000 0.000000 -60.708740 0.000000 240.000000 -0.059596 0.957337 -0.282763
9.57999992 -8.51000023 0.04000000 35 184 146 0.000000 0.000000 0.000000 0.000000 -60.708740 0.000000 240.000000 -0.101667 -0.673357 0.732294
9.64000034 -8.53999996 0.14000000 35 184 146 0.000000 0.000000 0.000000 0.000000 -60.708740 0.000000 240.000000 0.152891 0.734179 -0.661518
9.60999966 -8.59000015 0.07000000 35 184 146 0.000000 0.000000 0.000000 0.000000 -60.708740 0.000000 240.000000 0.040945 -0.633936 0.772301
9.61999989 -8.56000042 0.03000000 35 184 146 0.000000 0.000000 0.000000 0.000000 -60.708740 0.000000 240.000000 0.038300 -0.690812 0.722019
9.64000034 -8.57999992 0.02000000 35 184 146 0.000000 0.000000 0.000000 0.000000 -60.708740 0.000000 240.000000 -0.246789 -0.529277 0.811764
9.50000000 -8.56000042 0.12000000 35 184 146 0.000000 0.000000 0.000000 0.000000 -60.708740 0.000000 240.000000 -0.056670 0.997609 0.039562
9.64999962 -8.60000038 0.00000000 35 184 146 0.000000 0.000000 0.000000 0.000000 -60.708740 0.000000 240.000000 -0.161784 0.766583 -0.621431
9.64000034 -8.94999981 0.25000000 35 184 146 0.000000 0.000000 0.000000 0.000000 -60.708740 0.000000 240.000000 0.769047 0.311776 -0.557999
9.64999962 -8.93999958 0.23000000 35 184 146 0.000000 0.000000 0.000000 0.000000 -60.708740 0.000000 240.000000 0.683435 0.434006 -0.586989
9.60000038 -8.98999977 0.15000001 35 184 146 0.000000 0.000000 0.000000 0.000000 -60.708740 0.000000 240.000000 0.865015 0.137649 -0.482496
9.64000034 -9.01000023 0.20000000 35 184 146 0.000000 0.000000 0.000000 0.000000 -60.708740 0.000000 240.000000 0.674467 0.136696 -0.725540
9.60000038 -9.06000042 0.17000000 35 184 146 0.000000 0.000000 0.000000 0.000000 -60.708740 0.000000 240.000000 0.883676 -0.139377 -0.446867
9.60999966 -8.97000027 0.13000000 35 184 146 0.000000 0.000000 0.000000 0.000000 -60.708740 0.000000 240.000000 0.855128 0.051447 -0.515858
9.64000034 -9.02999973 0.06000000 35 184 146 0.000000 0.000000 0.000000 0.000000 -60.708740 0.000000 240.000000 0.777847 -0.286742 -0.559226
9.59000015 -9.06000042 0.04000000 35 184 146 0.000000 0.000000 0.000000 0.000000 -60.708740 0.000000 240.000000 0.799764 0.237600 -0.551293
9.47000027 -9.06000042 0.01000000 35 184 146 0.000000 0.000000 0.000000 0.000000 -60.708740 0.000000 240.000000 0.761568 0.198469 -0.616947
9.35999966 -9.06000042 0.00000000 35 184 146 0.000000 0.000000 0.000000 0.000000 -60.708740 0.000000 240.000000 -0.342985 0.937666 0.056077
9.31000042 -8.89999962 0.04000000 35 184 146 0.000000 0.000000 0.000000 0.000000 -60.708740 0.000000 240.000000 -0.502025 0.864674 0.017591
9.30000019 -8.93000031 -0.02000000 35 184 146 0.000000 0.000000 0.000000 0.000000 -60.708740 0.000000 240.000000 -0.560008 0.828486 0.001356
9.27000046 -8.93999958 0.02000000 35 184 146 0.000000 0.000000 0.000000 0.000000 -60.708740 0.000000 240.000000 -0.369126 0.915037 -0.162642
9.84000015 -9.39000034 0.69000000 35 184 146 0.000000 0.000000 0.000000 0.000000 -60.708740 0.000000 240.000000 -0.540500 0.819078 -0.192279
9.80000019 -9.31000042 0.67000002 35 184 146 0.000000 0.000000 0.000000 0.000000 -60.708740 0.000000 240.000000 -0.144817 0.852811 -0.501739
9.81999969 -9.36999989 0.76999998 35 184 146 0.000000 0.000000 0.000000 0.000000 -60.708740 0.000000 240.000000 0.193378 0.808532 -0.555771
9.92000008 -9.22999954 0.49000001 35 184 146 0.000000 0.000000 0.000000 0.000000 -60.708740 0.000000 240.000000 -0.339928 0.928212 0.151233
9.80000019 -9.23999977 0.56999999 35 184 146 0.000000 0.000000 0.000000 0.000000 -60.708740 0.000000 240.000000 -0.014630 0.889764 -0.456187
9.75000000 -9.19999981 0.41000000 35 184 146 0.000000 0.000000 0.000000 0.000000 -60.708740 0.000000 240.000000 -0.575774 0.817184 0.026361
9.75000000 -9.26000023 0.41000000 35 184 146 0.000000 0.000000 0.000000 0.000000 -60.708740 0.000000 240.000000 -0.444061 0.892272 0.081619
9.68000031 -9.18000031 0.31999999 35 184 146 0.000000 0.000000 0.000000 0.000000 -60.708740 0.000000 240.000000 -0.611417 0.784431 -0.104102
9.67000008 -9.25000000 0.40000001 35 184 146 0.000000 0.000000 0.000000 0.000000 -60.708740 0.000000 240.000000 -0.286482 0.956215 -0.059843
9.68000031 -9.31000042 0.60000002 35 184 146 0.000000 0.000000 0.000000 0.000000 -60.708740 0.000000 240.000000 -0.291838 0.951418 -0.098152
9.72999954 -9.32999992 0.55000001 35 184 146 0.000000 0.000000 0.000000 0.000000 -60.708740 0.000000 240.000000 -0.400462 0.916268 -0.009072
9.65999985 -9.27000046 0.36000001 35 184 146 0.000000 0.000000 0.000000 0.000000 -60.708740 0.000000 240.000000 -0.556195 0.830860 -0.017853
9.68000031 -9.15999985 0.22000000 35 184 146 0.000000 0.000000 0.000000 0.000000 -60.708740 0.000000 240.000000 0.684636 -0.714730 -0.142946
9.67000008 -9.18999958 0.28999999 35 184 146 0.000000 0.000000 0.000000 0.000000 -60.708740 0.000000 240.000000 -0.507291 0.857732 0.083371
9.78999996 -9.26000023 0.03000000 35 184 146 0.000000 0.000000 0.000000 0.000000 -60.708740 0.000000 240.000000 0.814228 -0.380823 -0.438185
9.80000019 -9.31999969 0.11000000 35 184 146 0.000000 0.000000 0.000000 0.000000 -60.708740 0.000000 240.000000 0.927177 -0.373211 -0.032510
9.77000046 -9.27000046 0.05000000 35 184 146 0.000000 0.000000 0.000000 0.000000 -60.708740 0.000000 240.000000 0.913064 -0.375135 -0.159963
9.64000034 -9.15999985 0.31999999 35 184 146 0.000000 0.000000 0.000000 0.000000 -60.708740 0.000000 240.000000 -0.074656 0.996490 -0.037869
9.61999989 -9.17000008 0.28000000 35 184 146 0.000000 0.000000 0.000000 0.000000 -60.708740 0.000000 240.000000 0.686504 -0.701931 0.189753
9.61999989 -9.14999962 0.18000001 35 184 146 0.000000 0.000000 0.000000 0.000000 -60.708740 0.000000 240.000000 -0.627025 0.773184 0.095004
9.60000038 -9.18000031 0.17000000 35 184 146 0.000000 0.000000 0.000000 0.000000 -60.708740 0.000000 240.000000 0.764283 -0.639561 -0.082664
9.61999989 -9.19999981 0.25999999 35 184 146 0.000000 0.000000 0.000000 0.000000 -60.708740 0.000000 240.000000 -0.493826 0.858004 0.141301
9.64000034 -9.26000023 0.28999999 35 184 146 0.000000 0.000000 0.000000 0.000000 -60.708740 0.000000 240.000000 -0.426050 0.874523 0.231711
9.60000038 -9.18999958 0.31000000 35 184 146 0.000000 0.000000 0.000000 0.000000 -60.708740 0.000000 240.000000 -0.561390 0.746893 -0.356361
9.60000038 -9.26000023 0.11000000 35 184 146 0.000000 0.000000 0.000000 0.000000 -60.708740 0.000000 240.000000 -0.348468 0.901312 0.257308
9.59000015 -9.26000023 0.04000000 35 184 146 0.000000 0.000000 0.000000 0.000000 -60.708740 0.000000 240.000000 -0.547045 0.763282 0.343719
9.51000023 -9.13000011 0.12000000 35 184 146 0.000000 0.000000 0.000000 0.000000 -60.708740 0.000000 240.000000 -0.528643 0.842660 0.102272
9.55000019 -9.18000031 0.03000000 35 184 146 0.000000 0.000000 0.000000 0.000000 -60.708740 0.000000 240.000000 0.754668 -0.574449 -0.316993
9.52000046 -9.23999977 -0.02000000 35 184 146 0.000000 0.000000 0.000000 0.000000 -60.708740 0.000000 240.000000 0.748471 -0.570649 -0.337863
9.53999996 -9.18999958 0.05000000 35 184 146 0.000000 0.000000 0.000000 0.000000 -60.708740 0.000000 240.000000 0.524195 -0.713903 -0.464287
9.61999989 -9.31999969 0.25000000 35 184 146 0.000000 0.000000 0.000000 0.000000 -60.708740 0.000000 240.000000 -0.349330 0.912859 0.211323
9.60000038 -9.27999973 0.08000000 35 184 146 0.000000 0.000000 0.000000 0.000000 -60.708740 0.000000 240.000000 -0.274681 0.960763 -0.038530
9.56999969 -9.27000046 0.12000000 35 184 146 0.000000 0.000000 0.000000 0.000000 -60.708740 0.000000 240.000000 -0.184058 0.975383 0.121453
9.78999996 -9.02999973 -0.06000000 35 184 146 0.000000 0.000000 0.000000 0.000000 -60.708740 0.000000 240.000000 -0.553915 -0.279325 0.784319
9.81000042 -9.02999973 -0.03000000 35 184 146 0.000000 0.000000 0.000000 0.000000 -60.708740 0.000000 240.000000 0.754889 -0.139572 -0.640830
9.67000008 -9.07999992 -0.16000000 35 184 146 0.000000 0.000000 0.000000 0.000000 -60.708740 0.000000 240.000000 0.823973 0.063819 -0.563024
9.65999985 -9.06999969 -0.17000000 35 184 146 0.000000 0.000000 0.000000 0.000000 -60.708740 0.000000 240.000000 0.865995 0.144090 -0.478844
9.69999981 -9.09000015 -0.20999999 35 184 146 0.000000 0.000000 0.000000 0.000000 -60.708740 0.000000 240.000000 0.692865 0.210195 -0.689751
9.65999985 -9.03999996 -0.23999999 35 184 146 0.000000 0.000000 0.000000 0.000000 -60.708740 0.000000 240.000000 0.662495 0.336945 -0.669006
9.69999981 -9.09000015 -0.28000000 35 184 146 0.000000 0.000000 0.000000 0.000000 -60.708740 0.000000 240.000000 0.711024 -0.189709 -0.677093
9.64000034 -8.64999962 -0.14000000 35 184 146 0.000000 0.000000 0.000000 0.000000 -60.708740 0.000000 240.000000 0.597058 0.459918 -0.657265
9.60999966 -8.60999966 -0.12000000 35 184 146 0.000000 0.000000 0.000000 0.000000 -60.708740 0.000000 240.000000 0.507158 0.833080 -0.220835
9.59000015 -8.65999985 -0.12000000 35 184 146 0.000000 0.000000 0.000000 0.000000 -60.708740 0.000000 240.000000 0.607527 0.654389 -0.450206
9.57999992 -8.75000000 -0.14000000 35 184 146 0.000000 0.000000 0.000000 0.000000 -60.708740 0.000000 240.000000 -0.058658 -0.650966 0.756837
9.56999969 -8.60000038 -0.06000000 35 184 146 0.000000 0.000000 0.000000 0.000000 -60.708740 0.000000 240.000000 0.464727 0.645920 -0.605654
9.48999977 -8.71000004 -0.25999999 35 184 146 0.000000 0.000000 0.000000 0.000000 -60.708740 0.000000 240.000000 -0.009155 0.906345 -0.422438
9.55000019 -8.75000000 -0.27000001 35 184 146 0.000000 0.000000 0.000000 0.000000 -60.708740 0.000000 240.000000 0.484911 0.736469 -0.471671
9.55000019 -8.69999981 -0.23999999 35 184 146 0.000000 0.000000 0.000000 0.000000 -60.708740 0.000000 240.000000 0.310072 0.816891 -0.486357
9.50000000 -8.75000000 -0.28000000 35 184 146 0.000000 0.000000 0.000000 0.000000 -60.708740 0.000000 240.000000 0.432826 0.748806 -0.501947
9.52000046 -8.76000023 -0.30000001 35 184 146 0.000000 0.000000 0.000000 0.000000 -60.708740 0.000000 240.000000 0.343844 0.872600 -0.346901
9.36999989 -8.64999962 -0.05000000 35 184 146 0.000000 0.000000 0.000000 0.000000 -60.708740 0.000000 240.000000 0.079429 0.879295 -0.469608
9.36999989 -8.71000004 -0.08000000 35 184 146 0.000000 0.000000 0.000000 0.000000 -60.708740 0.000000 240.000000 -0.212844 0.928900 -0.303055
9.39000034 -8.68999958 -0.06000000 35 184 146 0.000000 0.000000 0.000000 0.000000 -60.708740 0.000000 240.000000 0.292885 0.841462 -0.454049
9.36999989 -8.68999958 -0.10000000 35 184 146 0.000000 0.000000 0.000000 0.000000 -60.708740 0.000000 240.000000 0.032444 -0.701070 0.712354
9.38000011 -8.68999958 -0.05000000 35 184 146 0.000000 0.000000 0.000000 0.000000 -60.708740 0.000000 240.000000 0.278214 0.850014 -0.447295
9.38000011 -8.68999958 -0.18000001 35 184 146 0.000000 0.000000 0.000000 0.000000 -60.708740 0.000000 240.000000 -0.226143 0.810732 -0.539975
9.43999958 -8.75000000 -0.23000000 35 184 146 0.000000 0.000000 0.000000 0.000000 -60.708740 0.000000 240.000000 0.294187 0.900302 -0.320797
9.47999954 -8.67000008 -0.22000000 35 184 146 0.000000 0.000000 0.000000 0.000000 -60.708740 0.000000 240.000000 0.011552 0.925465 -0.378658
9.61999989 -9.09000015 -0.03000000 35 184 146 0.000000 0.000000 0.000000 0.000000 -60.708740 0.000000 240.000000 0.826406 -0.087671 -0.556207
9.61999989 -9.07999992 -0.05000000 35 184 146 0.000000 0.000000 0.000000 0.000000 -60.708740 0.000000 240.000000 0.721755 -0.209542 -0.659668
9.61999989 -9.09000015 -0.04000000 35 184 146 0.000000 0.000000 0.000000 0.000000 -60.708740 0.000000 240.000000 0.812818 -0.375270 -0.445533
9.56999969 -9.09000015 -0.07000000 35 184 146 0.000000 0.000000 0.000000 0.000000 -60.708740 0.000000 240.000000 0.663510 -0.162461 -0.730316
9.56999969 -9.09000015 -0.17000000 35 184 146 0.000000 0.000000 0.000000 0.000000 -60.708740 0.000000 240.000000 0.813336 0.328188 -0.480392
9.52999973 -9.05000019 -0.20999999 35 184 146 0.000000 0.000000 0.000000 0.000000 -60.708740 0.000000 240.000000 0.860773 0.006714 -0.508944
9.46000004 -8.81000042 -0.25000000 35 184 146 0.000000 0.000000 0.000000 0.000000 -60.708740 0.000000 240.000000 0.201299 0.775999 -0.597750
9.31999969 -8.77000046 -0.25000000 35 184 146 0.000000 0.000000 0.000000 0.000000 -60.708740 0.000000 240.000000 0.146434 0.871352 -0.468297
9.52999973 -8.88000011 -0.36000001 35 184 146 0.000000 0.000000 0.000000 0.000000 -60.708740 0.000000 240.000000 0.336948 0.665757 -0.665757
9.47999954 -8.82999992 -0.41000000 35 184 146 0.000000 0.000000 0.000000 0.000000 -60.708740 0.000000 240.000000 0.640372 0.725754 -0.251405
9.46000004 -8.85000038 -0.44000000 35 184 146 0.000000 0.000000 0.000000 0.000000 -60.708740 0.000000 240.000000 0.671381 0.564228 -0.480515
9.35999966 -9.02000046 -0.40000001 35 184 146 0.000000 0.000000 0.000000 0.000000 -60.708740 0.000000 240.000000 0.289421 0.727551 -0.622016
9.46000004 -8.98999977 -0.52999997 35 184 146 0.000000 0.000000 0.000000 0.000000 -60.708740 0.000000 240.000000 0.776848 0.245403 -0.579901
9.38000011 -8.97000027 -0.63999999 35 184 146 0.000000 0.000000 0.000000 0.000000 -60.708740 0.000000 240.000000 0.785517 0.342158 -0.515646
9.38000011 -9.02999973 -0.57999998 35 184 146 0.000000 0.000000 0.000000 0.000000 -60.708740 0.000000 240.000000 0.747511 0.250219 -0.615319
9.19999981 -8.68999958 -0.18000001 35 184 146 0.000000 0.000000 0.000000 0.000000 -60.708740 0.000000 240.000000 0.066161 0.843201 -0.533511
9.21000004 -8.68000031 -0.17000000 35 184 146 0.000000 0.000000 0.000000 0.000000 -60.708740 0.000000 240.000000 -0.287506 0.903801 -0.316994
9.31000042 -8.76000023 -0.25000000 35 184 146 0.000000 0.000000 0.000000 0.000000 -60.708740 0.000000 240.000000 0.032286 0.784689 -0.619048
9.30000019 -8.75000000 -0.33000001 35 184 146 0.000000 0.000000 0.000000 0.000000 -60.708740 0.000000 240.000000 0.423730 0.870079 -0.251825
9.22000027 -8.68000031 -0.22000000 35 184 146 0.000000 0.000000 0.000000 0.000000 -60.708740 0.000000 240.000000 -0.325461 0.902749 -0.281281
9.22999954 -8.93000031 -0.09000000 35 184 146 0.000000 0.000000 0.000000 0.000000 -60.708740 0.000000 240.000000 -0.602356 0.797029 -0.043731
9.26000023 -8.90999985 -0.06000000 35 184 146 0.000000 0.000000 0.000000 0.000000 -60.708740 0.000000 240.000000 -0.601485 0.727942 -0.329114
9.28999996 -8.93999958 -0.04000000 35 184 146 0.000000 0.000000 0.000000 0.000000 -60.708740 0.000000 240.000000 -0.503410 0.863573 -0.028649
9.27999973 -9.05000019 -0.06000000 35 184 146 0.000000 0.000000 0.000000 0.000000 -60.708740 0.000000 240.000000 -0.551228 0.834327 -0.006805
9.25000000 -9.02000046 -0.10000000 35 184 146 0.000000 0.000000 0.000000 0.000000 -60.708740 0.000000 240.000000 -0.457255 0.758814 -0.463810
9.19999981 -8.94999981 -0.06000000 35 184 146 0.000000 0.000000 0.000000 0.000000 -60.708740 0.000000 240.000000 -0.677495 0.732388 0.067894
9.19999981 -8.97000027 -0.14000000 35 184 146 0.000000 0.000000 0.000000 0.000000 -60.708740 0.000000 240.000000 -0.527412 0.713753 -0.460861
9.22999954 -9.02000046 -0.13000000 35 184 146 0.000000 0.000000 0.000000 0.000000 -60.708740 0.000000 240.000000 -0.122727 0.954106 -0.273167
9.26000023 -8.97000027 -0.23999999 35 184 146 0.000000 0.000000 0.000000 0.000000 -60.708740 0.000000 240.000000 -0.150791 0.891819 -0.426522
9.30000019 -8.98999977 -0.20000000 35 184 146 0.000000 0.000000 0.000000 0.000000 -60.708740 0.000000 240.000000 -0.067126 0.961290 -0.267236
9.30000019 -8.94999981 -0.30000001 35 184 146 0.000000 0.000000 0.000000 0.000000 -60.708740 0.000000 240.000000 -0.102630 0.942333 -0.318554
9.31000042 -8.94999981 -0.30000001 35 184 146 0.000000 0.000000 0.000000 0.000000 -60.708740 0.000000 240.000000 -0.078061 0.905229 -0.417693
9.30000019 -9.00000000 -0.28999999 35 184 146 0.000000 0.000000 0.000000 0.000000 -60.708740 0.000000 240.000000 -0.173601 -0.572127 0.801582
9.23999977 -9.02999973 -0.34000000 35 184 146 0.000000 0.000000 0.000000 0.000000 -60.708740 0.000000 240.000000 0.031406 0.861614 -0.506591
9.22000027 -8.97999954 -0.25999999 35 184 146 0.000000 0.000000 0.000000 0.000000 -60.708740 0.000000 240.000000 0.169759 -0.812738 0.557349
9.22000027 -8.98999977 -0.28000000 35 184 146 0.000000 0.000000 0.000000 0.000000 -60.708740 0.000000 240.000000 -0.252789 0.777208 -0.576233
9.18999958 -9.01000023 -0.28000000 35 184 146 0.000000 0.000000 0.000000 0.000000 -60.708740 0.000000 240.000000 -0.292168 0.914295 -0.280539
9.19999981 -9.00000000 -0.34999999 35 184 146 0.000000 0.000000 0.000000 0.000000 -60.708740 0.000000 240.000000 0.204275 0.886172 -0.415898
9.19999981 -8.97999954 -0.49000001 35 184 146 0.000000 0.000000 0.000000 0.000000 -60.708740 0.000000 240.000000 0.339215 0.913715 -0.223737
9.18999958 -9.02000046 -0.41000000 35 184 146 0.000000 0.000000 0.000000 0.000000 -60.708740 0.000000 240.000000 0.048621 0.848786 -0.526497
9.15999985 -9.02999973 -0.41999999 35 184 146 0.000000 0.000000 0.000000 0.000000 -60.708740 0.000000 240.000000 0.027609 0.973532 -0.226877
9.22000027 -9.02000046 -0.49000001 35 184 146 0.000000 0.000000 0.000000 0.000000 -60.708740 0.000000 240.000000 -0.375128 -0.568426 0.732237
9.31999969 -9.01000023 -0.75999999 35 184 146 0.000000 0.000000 0.000000 0.000000 -60.708740 0.000000 240.000000 0.458549 0.824127 -0.332487
9.35999966 -9.05000019 -0.74000001 35 184 146 0.000000 0.000000 0.000000 0.000000 -60.708740 0.000000 240.000000 0.641442 0.683879 -0.347652
9.72999954 -9.27999973 -0.05000000 35 184 146 0.000000 0.000000 0.000000 0.000000 -60.708740 0.000000 240.000000 -0.734276 0.516469 0.440566
9.72999954 -9.35000038 -0.12000000 35 184 146 0.000000 0.000000 0.000000 0.000000 -60.708740 0.000000 240.000000 0.769432 -0.519974 -0.370947
9.65999985 -9.27000046 -0.16000000 35 184 146 0.000000 0.000000 0.000000 0.000000 -60.708740 0.000000 240.000000 0.799824 -0.125666 -0.586932
9.72000027 -9.35999966 -0.10000000 35 184 146 0.000000 0.000000 0.000000 0.000000 -60.708740 0.000000 240.000000 -0.731295 0.523297 0.437456
9.59000015 -9.11999989 -0.04000000 35 184 146 0.000000 0.000000 0.000000 0.000000 -60.708740 0.000000 240.000000 0.781906 0.132552 -0.609142
9.60000038 -9.10999966 -0.15000001 35 184 146 0.000000 0.000000 0.000000 0.000000 -60.708740 0.000000 240.000000 0.851642 0.012186 -0.523983
9.52999973 -9.19999981 -0.06000000 35 184 146 0.000000 0.000000 0.000000 0.000000 -60.708740 0.000000 240.000000 0.712559 -0.611464 -0.344050
9.51000023 -9.19999981 -0.12000000 35 184 146 0.000000 0.000000 0.000000 0.000000 -60.708740 0.000000 240.000000 0.709094 -0.380048 -0.593928
9.51000023 -9.22999954 -0.17000000 35 184 146 0.000000 0.000000 0.000000 0.000000 -60.708740 0.000000 240.000000 0.782802 -0.015240 -0.622085
9.57999992 -9.22000027 -0.27000001 35 184 146 0.000000 0.000000 0.000000 0.000000 -60.708740 0.000000 240.000000 -0.570098 0.115778 0.813378
9.56999969 -9.14999962 -0.20000000 35 184 146 0.000000 0.000000 0.000000 0.000000 -60.708740 0.000000 240.000000 0.910561 0.080544 -0.405452
9.52000046 -9.27999973 -0.06000000 35 184 146 0.000000 0.000000 0.000000 0.000000 -60.708740 0.000000 240.000000 0.773666 -0.457684 -0.438139
9.64000034 -9.36999989 -0.33000001 35 184 146 0.000000 0.000000 0.000000 0.000000 -60.708740 0.000000 240.000000 0.791332 -0.190591 -0.580920
9.46000004 -9.22000027 -0.19000000 35 184 146 0.000000 0.000000 0.000000 0.000000 -60.708740 0.000000 240.000000 -0.559768 0.330699 0.759801
9.46000004 -9.18999958 -0.20999999 35 184 146 0.000000 0.000000 0.000000 0.000000 -60.708740 0.000000 240.000000 0.935100 -0.117733 -0.334254
9.46000004 -9.22999954 -0.20000000 35 184 146 0.000000 0.000000 0.000000 0.000000 -60.708740 0.000000 240.000000 0.831459 -0.503775 -0.234279
9.76000023 -8.28999996 0.50000000 35 184 146 0.000000 0.000000 0.000000 0.000000 -60.708740 0.000000 240.000000 -0.522217 0.782522 -0.339040
9.72000027 -8.32999992 0.47999999 35 184 146 0.000000 0.000000 0.000000 0.000000 -60.708740 0.000000 240.000000 -0.350710 0.936483 0.001257
9.72000027 -8.38000011 0.34999999 35 184 146 0.000000 0.000000 0.000000 0.000000 -60.708740 0.000000 240.000000 -0.174748 0.977844 -0.115259
9.67000008 -8.35000038 0.38000000 35 184 146 0.000000 0.000000 0.000000 0.000000 -60.708740 0.000000 240.000000 -0.289081 0.826616 -0.482844
10.21000004 -8.71000004 0.68000001 35 184 146 0.000000 0.000000 0.000000 0.000000 -60.708740 0.000000 242.000000 0.919789 0.182824 -0.347224
10.00000000 -8.75000000 0.68000001 35 184 146 0.000000 0.000000 0.000000 0.000000 -60.708740 0.000000 240.000000 0.907789 0.017079 -0.419080
10.02999973 -8.75000000 0.67000002 35 184 146 0.000000 0.000000 0.000000 0.000000 -60.708740 0.000000 240.000000 -0.671481 0.067870 0.737907
10.18000031 -8.73999977 0.67000002 35 184 146 0.000000 0.000000 0.000000 0.000000 -60.708740 0.000000 242.000000 0.742742 0.314175 -0.591294
10.01000023 -8.81999969 0.66000003 35 184 146 0.000000 0.000000 0.000000 0.000000 -60.708740 0.000000 240.000000 -0.647695 0.172211 0.742182
9.98999977 -8.75000000 0.68000001 35 184 146 0.000000 0.000000 0.000000 0.000000 -60.708740 0.000000 240.000000 -0.658324 0.098236 0.746297
9.94999981 -8.75000000 0.66000003 35 184 146 0.000000 0.000000 0.000000 0.000000 -60.708740 0.000000 240.000000 0.800499 0.174021 -0.573514
10.18999958 -8.67000008 0.56000000 35 184 146 0.000000 0.000000 0.000000 0.000000 -60.708740 0.000000 242.000000 0.920864 0.239167 -0.307909
10.22999954 -8.67000008 0.52999997 35 184 146 0.000000 0.000000 0.000000 0.000000 -60.708740 0.000000 242.000000 -0.567761 -0.109465 0.815883
10.18000031 -8.72999954 0.56000000 35 184 146 0.000000 0.000000 0.000000 0.000000 -60.708740 0.000000 242.000000 0.661751 0.216431 -0.717805
10.22000027 -8.75000000 0.55000001 35 184 146 0.000000 0.000000 0.000000 0.000000 -60.708740 0.000000 242.000000 0.874569 -0.257403 -0.410942
10.14000034 -8.73999977 0.63000000 35 184 146 0.000000 0.000000 0.000000 0.000000 -60.708740 0.000000 242.000000 0.903226 0.235688 -0.358655
10.22999954 -8.73999977 0.30000001 35 184 146 0.000000 0.000000 0.000000 0.000000 -60.708740 0.000000 242.000000 0.865582 -0.088959 -0.492803
10.22000027 -8.77000046 0.37000000 35 184 146 0.000000 0.000000 0.000000 0.000000 -60.708740 0.000000 242.000000 0.858346 0.160480 -0.487328
10.23999977 -8.77999973 0.31000000 35 184 146 0.000000 0.000000 0.000000 0.000000 -60.708740 0.000000 242.000000 0.874319 0.209302 -0.437902
9.68000031 -8.48999977 0.22000000 35 184 146 0.000000 0.000000 0.000000 0.000000 -60.708740 0.000000 240.000000 -0.139015 0.980484 -0.139015
9.67000008 -8.43999958 0.17000000 35 184 146 0.000000 0.000000 0.000000 0.000000 -60.708740 0.000000 240.000000 -0.182338 -0.654272 0.733949
9.68999958 -8.51000023 0.14000000 35 184 146 0.000000 0.000000 0.000000 0.000000 -60.708740 0.000000 240.000000 -0.150676 0.973693 -0.170934
9.98999977 -8.78999996 0.62000000 35 184 146 0.000000 0.000000 0.000000 0.000000 -60.708740 0.000000 240.000000 0.731784 -0.360188 -0.578582
9.93000031 -8.77999973 0.55000001 35 184 146 0.000000 0.000000 0.000000 0.000000 -60.708740 0.000000 240.000000 0.787519 0.224342 -0.574007
9.96000004 -8.84000015 0.52999997 35 184 146 0.000000 0.000000 0.000000 0.000000 -60.708740 0.000000 240.000000 -0.690925 -0.318764 0.648855
9.93999958 -8.84000015 0.47000000 35 184 146 0.000000 0.000000 0.000000 0.000000 -60.708740 0.000000 240.000000 0.780894 -0.094875 -0.617417
9.93999958 -8.85000038 0.47000000 35 184 146 0.000000 0.000000 0.000000 0.000000 -60.708740 0.000000 240.000000 0.827708 0.305110 -0.470964
9.94999981 -8.86999989 0.46000001 35 184 146 0.000000 0.000000 0.000000 0.000000 -60.708740 0.000000 240.000000 0.712579 0.015339 -0.701424
9.93000031 -8.89000034 0.31999999 35 184 146 0.000000 0.000000 0.000000 0.000000 -60.708740 0.000000 240.000000 0.730107 -0.046966 -0.681717
9.88000011 -8.85000038 0.46000001 35 184 146 0.000000 0.000000 0.000000 0.000000 -60.708740 0.000000 240.000000 0.751502 -0.018125 -0.659482
9.88000011 -8.85000038 0.38999999 35 184 146 0.000000 0.000000 0.000000 0.000000 -60.708740 0.000000 240.000000 0.927253 -0.084785 -0.364710
9.75000000 -8.81000042 0.56999999 35 184 146 0.000000 0.000000 0.000000 0.000000 -60.708740 0.000000 240.000000 0.725571 -0.678090 0.117219
9.88000011 -8.93000031 0.19000000 35 184 146 0.000000 0.000000 0.000000 0.000000 -60.708740 0.000000 240.000000 -0.634479 -0.070498 0.769719
9.86999989 -8.94999981 0.20999999 35 184 146 0.000000 0.000000 0.000000 0.000000 -60.708740 0.000000 240.000000 0.707432 -0.055963 -0.704562
9.84000015 -8.97000027 0.02000000 35 184 146 0.000000 0.000000 0.000000 0.000000 -60.708740 0.000000 240.000000 0.761787 -0.295452 -0.576531
9.81000042 -8.92000008 0.19000000 35 184 146 0.000000 0.000000 0.000000 0.000000 -60.708740 0.000000 240.000000 0.792321 0.217772 -0.569915
9.81000042 -8.98999977 -0.02000000 35 184 146 0.000000 0.000000 0.000000 0.000000 -60.708740 0.000000 240.000000 0.782268 -0.122738 -0.610731
9.81000042 -8.98999977 -0.02000000 35 184 146 0.000000 0.000000 0.000000 0.000000 -60.708740 0.000000 240.000000 0.782268 -0.122738 -0.610731
9.65999985 -9.05000019 0.06000000 35 184 146 0.000000 0.000000 0.000000 0.000000 -60.708740 0.000000 240.000000 0.780245 0.331644 -0.530310
9.63000011 -8.39999962 0.23999999 35 184 146 0.000000 0.000000 0.000000 0.000000 -60.708740 0.000000 240.000000 0.014988 0.846138 -0.532753
9.63000011 -8.52999973 0.31999999 35 184 146 0.000000 0.000000 0.000000 0.000000 -60.708740 0.000000 240.000000 -0.359825 0.933019 -0.001263
9.60000038 -8.44999981 0.33000001 35 184 146 0.000000 0.000000 0.000000 0.000000 -60.708740 0.000000 240.000000 0.245890 -0.821180 0.514977
9.64999962 -8.55000019 0.13000000 35 184 146 0.000000 0.000000 0.000000 0.000000 -60.708740 0.000000 240.000000 0.064719 0.760803 -0.645748
9.64999962 -8.53999996 0.04000000 35 184 146 0.000000 0.000000 0.000000 0.000000 -60.708740 0.000000 240.000000 0.135606 -0.850086 0.508885
9.51000023 -8.53999996 0.12000000 35 184 146 0.000000 0.000000 0.000000 0.000000 -60.708740 0.000000 240.000000 -0.363654 0.929631 -0.059507
9.46000004 -8.56000042 0.08000000 35 184 146 0.000000 0.000000 0.000000 0.000000 -60.708740 0.000000 240.000000 -0.325857 0.944084 -0.050231
9.52999973 -9.02000046 0.15000001 35 184 146 0.000000 0.000000 0.000000 0.000000 -60.708740 0.000000 240.000000 0.822433 0.205228 -0.530553
9.64999962 -9.02000046 0.15000001 35 184 146 0.000000 0.000000 0.000000 0.000000 -60.708740 0.000000 240.000000 0.862546 0.253155 -0.438095
9.59000015 -9.00000000 0.08000000 35 184 146 0.000000 0.000000 0.000000 0.000000 -60.708740 0.000000 240.000000 -0.698823 -0.165951 0.695778
9.64999962 -9.06000042 0.08000000 35 184 146 0.000000 0.000000 0.000000 0.000000 -60.708740 0.000000 240.000000 0.803324 -0.070166 -0.591395
9.60999966 -9.02999973 0.04000000 35 184 146 0.000000 0.000000 0.000000 0.000000 -60.708740 0.000000 240.000000 0.890796 0.093401 -0.444701
9.88000011 -9.25000000 0.74000001 35 184 146 0.000000 0.000000 0.000000 0.000000 -60.708740 0.000000 240.000000 -0.529919 0.758191 -0.379911
9.82999992 -9.30000019 0.77999997 35 184 146 0.000000 0.000000 0.000000 0.000000 -60.708740 0.000000 240.000000 0.190654 0.870507 -0.453728
9.85000038 -9.35999966 0.72000003 35 184 146 0.000000 0.000000 0.000000 0.000000 -60.708740 0.000000 240.000000 0.099108 0.924559 -0.367923
9.71000004 -9.31999969 0.67000002 35 184 146 0.000000 0.000000 0.000000 0.000000 -60.708740 0.000000 240.000000 -0.108524 0.955796 -0.273271
9.97000027 -9.23999977 0.49000001 35 184 146 0.000000 0.000000 0.000000 0.000000 -60.708740 0.000000 240.000000 -0.401855 0.824359 0.398678
9.93000031 -9.28999996 0.47000000 35 184 146 0.000000 0.000000 0.000000 0.000000 -60.708740 0.000000 240.000000 -0.235698 0.944172 -0.230185
9.71000004 -9.23999977 0.43000001 35 184 146 0.000000 0.000000 0.000000 0.000000 -60.708740 0.000000 240.000000 -0.245058 0.969472 0.008368
9.65999985 -9.19999981 0.34000000 35 184 146 0.000000 0.000000 0.000000 0.000000 -60.708740 0.000000 240.000000 0.005043 0.999559 -0.029250
9.65999985 -9.34000015 0.56000000 35 184 146 0.000000 0.000000 0.000000 0.000000 -60.708740 0.000000 240.000000 -0.131578 0.980075 -0.148794
9.72999954 -9.27000046 0.50999999 35 184 146 0.000000 0.000000 0.000000 0.000000 -60.708740 0.000000 240.000000 -0.400735 0.915778 0.027592
