//X Y Z R G B PointSourceId ScanDirectionFlag NumberOfReturns ReturnNumber GpsTime Intensity Classification Nx Ny Nz
14.63000011 9.27000046 0.40000001 118 242 75 0.000000 0.000000 0.000000 0.000000 -60.708740 0.000000 248.000000 0.528804 -0.751459 -0.394557
14.64000034 9.22999954 0.44999999 118 242 75 0.000000 0.000000 0.000000 0.000000 -60.708740 0.000000 248.000000 0.750756 -0.641995 -0.155589
14.63000011 9.22000027 0.41000000 118 242 75 0.000000 0.000000 0.000000 0.000000 -60.708740 0.000000 248.000000 0.847256 -0.501802 -0.174216
14.64999962 9.23999977 0.38000000 118 242 75 0.000000 0.000000 0.000000 0.000000 -60.708740 0.000000 248.000000 -0.562573 0.759232 0.327227
14.64000034 9.22000027 0.36000001 118 242 75 0.000000 0.000000 0.000000 0.000000 -60.708740 0.000000 248.000000 -0.694934 0.669491 0.262389
14.63000011 9.19999981 0.38000000 118 242 75 0.000000 0.000000 0.000000 0.000000 -60.708740 0.000000 248.000000 0.712567 -0.701368 -0.018199
14.63000011 9.21000004 0.38000000 118 242 75 0.000000 0.000000 0.000000 0.000000 -60.708740 0.000000 248.000000 0.801752 -0.559540 0.210019
14.60000038 9.27999973 0.41000000 118 242 75 0.000000 0.000000 0.000000 0.000000 -60.708740 0.000000 248.000000 0.792031 -0.459733 -0.401661
14.57999992 9.31999969 0.37000000 118 242 75 0.000000 0.000000 0.000000 0.000000 -60.708740 0.000000 248.000000 -0.577789 0.728375 0.368279
14.59000015 9.35999966 0.36000001 118 242 75 0.000000 0.000000 0.000000 0.000000 -60.708740 0.000000 248.000000 0.811815 -0.571060 0.121846
14.57999992 9.31999969 0.37000000 118 242 75 0.000000 0.000000 0.000000 0.000000 -60.708740 0.000000 248.000000 -0.577789 0.728375 0.368279
14.57999992 9.31999969 0.34999999 118 242 75 0.000000 0.000000 0.000000 0.000000 -60.708740 0.000000 248.000000 0.765161 -0.577450 -0.284748
14.56000042 9.35999966 0.36000001 118 242 75 0.000000 0.000000 0.000000 0.000000 -60.708740 0.000000 248.000000 0.725861 -0.682047 -0.089090
14.55000019 9.27999973 0.38999999 118 242 75 0.000000 0.000000 0.000000 0.000000 -60.708740 0.000000 248.000000 -0.729937 0.484970 0.481659
14.56000042 9.28999996 0.38000000 118 242 75 0.000000 0.000000 0.000000 0.000000 -60.708740 0.000000 248.000000 0.509058 -0.727936 -0.459313
14.59000015 9.19999981 0.47999999 118 242 75 0.000000 0.000000 0.000000 0.000000 -60.708740 0.000000 248.000000 -0.519885 0.664577 0.536709
14.57999992 9.21000004 0.44999999 118 242 75 0.000000 0.000000 0.000000 0.000000 -60.708740 0.000000 248.000000 0.723212 -0.685225 0.086201
14.60000038 9.22999954 0.47000000 118 242 75 0.000000 0.000000 0.000000 0.000000 -60.708740 0.000000 248.000000 -0.704746 0.514815 0.488158
14.60000038 9.22000027 0.46000001 118 242 75 0.000000 0.000000 0.000000 0.000000 -60.708740 0.000000 248.000000 -0.648218 0.611368 0.453920
14.60000038 9.22999954 0.44999999 118 242 75 0.000000 0.000000 0.000000 0.000000 -60.708740 0.000000 248.000000 0.731839 -0.602596 -0.318261
14.57999992 9.21000004 0.44999999 118 242 75 0.000000 0.000000 0.000000 0.000000 -60.708740 0.000000 248.000000 0.723212 -0.685225 0.086201
14.56999969 9.19999981 0.40000001 118 242 75 0.000000 0.000000 0.000000 0.000000 -60.708740 0.000000 248.000000 0.721216 -0.515628 -0.462573
14.59000015 9.19999981 0.43000001 118 242 75 0.000000 0.000000 0.000000 0.000000 -60.708740 0.000000 248.000000 -0.766968 0.426820 0.479150
14.57999992 9.22000027 0.41999999 118 242 75 0.000000 0.000000 0.000000 0.000000 -60.708740 0.000000 248.000000 0.861513 -0.299457 -0.410025
14.60000038 9.19999981 0.44000000 118 242 75 0.000000 0.000000 0.000000 0.000000 -60.708740 0.000000 248.000000 -0.671795 0.694030 0.258871
14.56999969 9.22000027 0.38000000 118 242 75 0.000000 0.000000 0.000000 0.000000 -60.708740 0.000000 248.000000 0.835441 -0.443583 0.324458
14.67000008 9.17000008 0.62000000 118 242 75 0.000000 0.000000 0.000000 0.000000 -60.708740 0.000000 248.000000 -0.049323 0.915805 0.398582
14.68000031 9.17000008 0.60000002 118 242 75 0.000000 0.000000 0.000000 0.000000 -60.708740 0.000000 248.000000 -0.075415 0.989682 0.121825
14.68999958 9.17000008 0.61000001 118 242 75 0.000000 0.000000 0.000000 0.000000 -60.708740 0.000000 248.000000 0.044470 0.977133 0.207926
14.64999962 9.17000008 0.55000001 118 242 75 0.000000 0.000000 0.000000 0.000000 -60.708740 0.000000 248.000000 -0.196322 0.852727 0.484061
14.64000034 9.17000008 0.54000002 118 242 75 0.000000 0.000000 0.000000 0.000000 -60.708740 0.000000 248.000000 0.771899 -0.495640 -0.398137
14.64000034 9.17000008 0.54000002 118 242 75 0.000000 0.000000 0.000000 0.000000 -60.708740 0.000000 248.000000 0.771899 -0.495640 -0.398137
14.57999992 9.13000011 0.50000000 118 242 75 0.000000 0.000000 0.000000 0.000000 -60.708740 0.000000 248.000000 -0.624523 0.751597 -0.212307
14.52999973 9.11999989 0.49000001 118 242 75 0.000000 0.000000 0.000000 0.000000 -60.708740 0.000000 248.000000 0.967201 -0.234511 -0.097607
14.61999989 9.17000008 0.44999999 118 242 75 0.000000 0.000000 0.000000 0.000000 -60.708740 0.000000 248.000000 0.891119 -0.440632 0.108398
14.60999966 9.15999985 0.41000000 118 242 75 0.000000 0.000000 0.000000 0.000000 -60.708740 0.000000 248.000000 0.843336 -0.525096 0.114277
14.60999966 9.15999985 0.40000001 118 242 75 0.000000 0.000000 0.000000 0.000000 -60.708740 0.000000 248.000000 0.939092 -0.340664 -0.045335
14.64000034 9.18999958 0.44000000 118 242 75 0.000000 0.000000 0.000000 0.000000 -60.708740 0.000000 248.000000 0.773799 -0.605913 -0.184674
14.60999966 9.18999958 0.41000000 118 242 75 0.000000 0.000000 0.000000 0.000000 -60.708740 0.000000 248.000000 0.896914 -0.439664 -0.047348
14.60999966 9.18999958 0.38999999 118 242 75 0.000000 0.000000 0.000000 0.000000 -60.708740 0.000000 248.000000 -0.554502 0.831055 -0.043299
14.60999966 9.18999958 0.38999999 118 242 75 0.000000 0.000000 0.000000 0.000000 -60.708740 0.000000 248.000000 -0.554502 0.831055 -0.043299
14.57999992 9.15999985 0.47999999 118 242 75 0.000000 0.000000 0.000000 0.000000 -60.708740 0.000000 248.000000 -0.552321 0.833302 -0.023415
14.60000038 9.18999958 0.46000001 118 242 75 0.000000 0.000000 0.000000 0.000000 -60.708740 0.000000 248.000000 0.903141 -0.310869 -0.296136
14.59000015 9.15999985 0.47000000 118 242 75 0.000000 0.000000 0.000000 0.000000 -60.708740 0.000000 248.000000 -0.538760 0.835006 0.111818
14.60000038 9.18000031 0.47000000 118 242 75 0.000000 0.000000 0.000000 0.000000 -60.708740 0.000000 248.000000 0.920631 -0.352792 -0.167260
14.56999969 9.15999985 0.44999999 118 242 75 0.000000 0.000000 0.000000 0.000000 -60.708740 0.000000 248.000000 0.753914 -0.623876 0.205894
14.60000038 9.18999958 0.44999999 118 242 75 0.000000 0.000000 0.000000 0.000000 -60.708740 0.000000 248.000000 0.789298 -0.395456 -0.469705
14.57999992 9.17000008 0.44000000 118 242 75 0.000000 0.000000 0.000000 0.000000 -60.708740 0.000000 248.000000 -0.746767 0.659084 0.089144
14.56999969 9.17000008 0.41999999 118 242 75 0.000000 0.000000 0.000000 0.000000 -60.708740 0.000000 248.000000 -0.686436 0.610349 0.395321
14.57999992 9.17000008 0.40000001 118 242 75 0.000000 0.000000 0.000000 0.000000 -60.708740 0.000000 248.000000 0.905649 -0.401415 0.136622
14.56999969 9.17000008 0.41999999 118 242 75 0.000000 0.000000 0.000000 0.000000 -60.708740 0.000000 248.000000 -0.686436 0.610349 0.395321
14.60000038 9.18000031 0.41000000 118 242 75 0.000000 0.000000 0.000000 0.000000 -60.708740 0.000000 248.000000 -0.619511 0.781248 -0.076536
14.56999969 9.18999958 0.40000001 118 242 75 0.000000 0.000000 0.000000 0.000000 -60.708740 0.000000 248.000000 0.779716 -0.584399 -0.224769
14.60000038 9.18000031 0.40000001 118 242 75 0.000000 0.000000 0.000000 0.000000 -60.708740 0.000000 248.000000 -0.690514 0.711484 0.130314
14.59000015 9.18000031 0.44000000 118 242 75 0.000000 0.000000 0.000000 0.000000 -60.708740 0.000000 248.000000 0.775051 -0.569844 -0.273083
14.56999969 9.14999962 0.41000000 118 242 75 0.000000 0.000000 0.000000 0.000000 -60.708740 0.000000 248.000000 0.852256 -0.416074 0.317083
14.56000042 9.18000031 0.40000001 118 242 75 0.000000 0.000000 0.000000 0.000000 -60.708740 0.000000 248.000000 0.945191 -0.325971 -0.018879
14.53999996 9.18000031 0.43000001 118 242 75 0.000000 0.000000 0.000000 0.000000 -60.708740 0.000000 248.000000 0.808671 -0.487745 0.328870
14.56000042 9.18000031 0.40000001 118 242 75 0.000000 0.000000 0.000000 0.000000 -60.708740 0.000000 248.000000 0.945191 -0.325971 -0.018879
14.56000042 9.14999962 0.44000000 118 242 75 0.000000 0.000000 0.000000 0.000000 -60.708740 0.000000 248.000000 0.805639 -0.549930 -0.220280
14.56000042 9.14999962 0.43000001 118 242 75 0.000000 0.000000 0.000000 0.000000 -60.708740 0.000000 248.000000 -0.636526 0.771254 0.001375
14.53999996 9.17000008 0.38999999 118 242 75 0.000000 0.000000 0.000000 0.000000 -60.708740 0.000000 248.000000 0.838387 -0.379083 0.391667
14.52000046 9.34000015 0.41000000 118 242 75 0.000000 0.000000 0.000000 0.000000 -60.708740 0.000000 248.000000 0.801463 -0.598004 -0.006874
14.48999977 9.31999969 0.31999999 118 242 75 0.000000 0.000000 0.000000 0.000000 -60.708740 0.000000 248.000000 0.799333 -0.559071 0.220240
14.52000046 9.31999969 0.34999999 118 242 75 0.000000 0.000000 0.000000 0.000000 -60.708740 0.000000 248.000000 0.848528 -0.500795 0.170894
14.48999977 9.31999969 0.34000000 118 242 75 0.000000 0.000000 0.000000 0.000000 -60.708740 0.000000 248.000000 -0.654002 0.717039 0.241114
14.50000000 9.27000046 0.34000000 118 242 75 0.000000 0.000000 0.000000 0.000000 -60.708740 0.000000 248.000000 0.873222 -0.267869 -0.407100
14.47999954 9.25000000 0.34000000 118 242 75 0.000000 0.000000 0.000000 0.000000 -60.708740 0.000000 248.000000 0.966600 -0.254753 -0.028035
14.40999985 9.26000023 0.36000001 118 242 75 0.000000 0.000000 0.000000 0.000000 -60.708740 0.000000 248.000000 0.814766 -0.422530 -0.397019
14.65999985 9.34000015 0.05000000 118 242 75 0.000000 0.000000 0.000000 0.000000 -60.708740 0.000000 248.000000 0.790866 -0.605122 -0.091421
14.65999985 9.35999966 0.05000000 118 242 75 0.000000 0.000000 0.000000 0.000000 -60.708740 0.000000 248.000000 0.732693 -0.565502 -0.378640
14.67000008 9.35000038 0.06000000 118 242 75 0.000000 0.000000 0.000000 0.000000 -60.708740 0.000000 248.000000 0.865817 -0.426085 -0.262323
14.64999962 9.35000038 0.03000000 118 242 75 0.000000 0.000000 0.000000 0.000000 -60.708740 0.000000 248.000000 0.929582 -0.247606 0.273073
14.47999954 9.32999992 0.31000000 118 242 75 0.000000 0.000000 0.000000 0.000000 -60.708740 0.000000 248.000000 0.900780 -0.409961 -0.143274
14.44999981 9.27000046 0.31000000 118 242 75 0.000000 0.000000 0.000000 0.000000 -60.708740 0.000000 248.000000 0.694122 -0.678382 0.240818
15.01000023 8.89000034 0.75999999 118 242 75 0.000000 0.000000 0.000000 0.000000 -60.708740 0.000000 248.000000 0.984332 -0.136144 -0.112048
14.88000011 8.86999989 0.66000003 118 242 75 0.000000 0.000000 0.000000 0.000000 -60.708740 0.000000 248.000000 0.949663 -0.226886 -0.216018
14.93999958 8.89999962 0.70999998 118 242 75 0.000000 0.000000 0.000000 0.000000 -60.708740 0.000000 248.000000 0.955094 0.296239 -0.006146
15.00000000 8.77999973 0.75999999 118 242 75 0.000000 0.000000 0.000000 0.000000 -60.708740 0.000000 248.000000 0.988252 0.037877 0.148066
14.98999977 8.81000042 0.75000000 118 242 75 0.000000 0.000000 0.000000 0.000000 -60.708740 0.000000 248.000000 0.983248 -0.141501 0.114894
15.00000000 8.84000015 0.72000003 118 242 75 0.000000 0.000000 0.000000 0.000000 -60.708740 0.000000 248.000000 0.960732 -0.046225 -0.273602
15.00000000 8.82999992 0.72000003 118 242 75 0.000000 0.000000 0.000000 0.000000 -60.708740 0.000000 248.000000 0.962552 -0.252494 0.098690
15.00000000 8.84000015 0.73000002 118 242 75 0.000000 0.000000 0.000000 0.000000 -60.708740 0.000000 248.000000 0.992774 -0.116732 -0.027793
15.02000046 8.84000015 0.67000002 118 242 75 0.000000 0.000000 0.000000 0.000000 -60.708740 0.000000 248.000000 0.951344 -0.279963 -0.128703
15.00000000 8.84000015 0.69000000 118 242 75 0.000000 0.000000 0.000000 0.000000 -60.708740 0.000000 248.000000 0.967569 -0.228188 -0.108357
15.00000000 8.77999973 0.69000000 118 242 75 0.000000 0.000000 0.000000 0.000000 -60.708740 0.000000 248.000000 -0.679033 0.728683 0.089077
15.01000023 8.77999973 0.69000000 118 242 75 0.000000 0.000000 0.000000 0.000000 -60.708740 0.000000 248.000000 0.820113 -0.534062 -0.205409
14.97000027 8.81999969 0.69000000 118 242 75 0.000000 0.000000 0.000000 0.000000 -60.708740 0.000000 248.000000 0.836742 -0.297612 0.459663
14.94999981 8.77999973 0.72000003 118 242 75 0.000000 0.000000 0.000000 0.000000 -60.708740 0.000000 248.000000 0.977374 -0.071991 -0.198891
14.94999981 8.78999996 0.70999998 118 242 75 0.000000 0.000000 0.000000 0.000000 -60.708740 0.000000 248.000000 0.892257 -0.399977 -0.209512
15.00000000 8.76000023 0.75000000 118 242 75 0.000000 0.000000 0.000000 0.000000 -60.708740 0.000000 248.000000 0.784650 -0.532156 0.318015
15.00000000 8.77000046 0.75000000 118 242 75 0.000000 0.000000 0.000000 0.000000 -60.708740 0.000000 248.000000 0.985550 -0.168265 -0.019459
15.00000000 8.77000046 0.75999999 118 242 75 0.000000 0.000000 0.000000 0.000000 -60.708740 0.000000 248.000000 0.979528 -0.179316 0.091488
15.00000000 8.77000046 0.74000001 118 242 75 0.000000 0.000000 0.000000 0.000000 -60.708740 0.000000 248.000000 0.996965 -0.075705 -0.018127
15.00000000 8.77000046 0.75000000 118 242 75 0.000000 0.000000 0.000000 0.000000 -60.708740 0.000000 248.000000 0.985550 -0.168265 -0.019459
14.97999954 8.73999977 0.75000000 118 242 75 0.000000 0.000000 0.000000 0.000000 -60.708740 0.000000 248.000000 0.984185 -0.104547 -0.143001
14.97999954 8.75000000 0.75999999 118 242 75 0.000000 0.000000 0.000000 0.000000 -60.708740 0.000000 248.000000 0.993065 0.009854 0.117153
14.97999954 8.77000046 0.75999999 118 242 75 0.000000 0.000000 0.000000 0.000000 -60.708740 0.000000 248.000000 0.994040 -0.001079 -0.109010
14.97999954 8.71000004 0.75999999 118 242 75 0.000000 0.000000 0.000000 0.000000 -60.708740 0.000000 248.000000 0.969271 -0.219769 0.110520
14.97999954 8.71000004 0.75999999 118 242 75 0.000000 0.000000 0.000000 0.000000 -60.708740 0.000000 248.000000 0.969271 -0.219769 0.110520
15.02000046 8.76000023 0.73000002 118 242 75 0.000000 0.000000 0.000000 0.000000 -60.708740 0.000000 248.000000 0.966776 -0.055847 0.249451
14.98999977 8.73999977 0.70999998 118 242 75 0.000000 0.000000 0.000000 0.000000 -60.708740 0.000000 248.000000 0.950930 -0.294304 0.095485
14.98999977 8.76000023 0.73000002 118 242 75 0.000000 0.000000 0.000000 0.000000 -60.708740 0.000000 248.000000 -0.685679 0.725760 -0.055828
15.00000000 8.73999977 0.67000002 118 242 75 0.000000 0.000000 0.000000 0.000000 -60.708740 0.000000 248.000000 0.928969 -0.366594 -0.051244
14.98999977 8.76000023 0.67000002 118 242 75 0.000000 0.000000 0.000000 0.000000 -60.708740 0.000000 248.000000 0.720907 -0.685525 0.101723
15.01000023 8.69999981 0.72000003 118 242 75 0.000000 0.000000 0.000000 0.000000 -60.708740 0.000000 248.000000 0.951115 -0.308835 0.001230
15.02000046 8.71000004 0.70999998 118 242 75 0.000000 0.000000 0.000000 0.000000 -60.708740 0.000000 248.000000 -0.648436 0.747732 -0.142927
15.02000046 8.71000004 0.70999998 118 242 75 0.000000 0.000000 0.000000 0.000000 -60.708740 0.000000 248.000000 -0.648436 0.747732 -0.142927
14.98999977 8.71000004 0.68000001 118 242 75 0.000000 0.000000 0.000000 0.000000 -60.708740 0.000000 248.000000 0.942926 -0.260165 -0.207857
14.93999958 8.81999969 0.66000003 118 242 75 0.000000 0.000000 0.000000 0.000000 -60.708740 0.000000 248.000000 0.946889 -0.169815 0.273063
14.93999958 8.82999992 0.66000003 118 242 75 0.000000 0.000000 0.000000 0.000000 -60.708740 0.000000 248.000000 0.887197 -0.422405 0.185624
14.89000034 8.84000015 0.66000003 118 242 75 0.000000 0.000000 0.000000 0.000000 -60.708740 0.000000 248.000000 0.986238 -0.147640 0.074411
14.88000011 8.85000038 0.67000002 118 242 75 0.000000 0.000000 0.000000 0.000000 -60.708740 0.000000 248.000000 0.970490 -0.088909 0.224152
14.88000011 8.85000038 0.67000002 118 242 75 0.000000 0.000000 0.000000 0.000000 -60.708740 0.000000 248.000000 0.970490 -0.088909 0.224152
14.88000011 8.78999996 0.67000002 118 242 75 0.000000 0.000000 0.000000 0.000000 -60.708740 0.000000 248.000000 0.862850 -0.462081 -0.204871
14.88000011 8.78999996 0.66000003 118 242 75 0.000000 0.000000 0.000000 0.000000 -60.708740 0.000000 248.000000 0.960533 -0.227945 -0.159430
14.88000011 8.78999996 0.67000002 118 242 75 0.000000 0.000000 0.000000 0.000000 -60.708740 0.000000 248.000000 0.862850 -0.462081 -0.204871
14.88000011 8.78999996 0.66000003 118 242 75 0.000000 0.000000 0.000000 0.000000 -60.708740 0.000000 248.000000 0.960533 -0.227945 -0.159430
14.88000011 8.81000042 0.66000003 118 242 75 0.000000 0.000000 0.000000 0.000000 -60.708740 0.000000 248.000000 0.987708 -0.139097 0.071302
14.93000031 8.75000000 0.66000003 118 242 75 0.000000 0.000000 0.000000 0.000000 -60.708740 0.000000 248.000000 0.963404 -0.210459 -0.166014
14.93000031 8.75000000 0.66000003 118 242 75 0.000000 0.000000 0.000000 0.000000 -60.708740 0.000000 248.000000 0.963404 -0.210459 -0.166014
15.02000046 8.63000011 0.75000000 118 242 75 0.000000 0.000000 0.000000 0.000000 -60.708740 0.000000 248.000000 0.964208 -0.264517 0.018285
15.02000046 8.63000011 0.75999999 118 242 75 0.000000 0.000000 0.000000 0.000000 -60.708740 0.000000 248.000000 0.977601 -0.210073 0.012909
15.00000000 8.65999985 0.66000003 118 242 75 0.000000 0.000000 0.000000 0.000000 -60.708740 0.000000 248.000000 0.884429 -0.466672 0.001322
15.02000046 8.68000031 0.69000000 118 242 75 0.000000 0.000000 0.000000 0.000000 -60.708740 0.000000 248.000000 -0.551089 0.834192 0.020614
15.02000046 8.68999958 0.69000000 118 242 75 0.000000 0.000000 0.000000 0.000000 -60.708740 0.000000 248.000000 0.770716 -0.636921 0.018118
14.98999977 8.97999954 0.56999999 118 242 75 0.000000 0.000000 0.000000 0.000000 -60.708740 0.000000 248.000000 0.909272 -0.398068 0.121516
14.97999954 9.01000023 0.62000000 118 242 75 0.000000 0.000000 0.000000 0.000000 -60.708740 0.000000 248.000000 0.799341 0.322597 0.506938
14.96000004 9.00000000 0.56999999 118 242 75 0.000000 0.000000 0.000000 0.000000 -60.708740 0.000000 248.000000 0.884331 0.009309 0.466767
14.94999981 9.00000000 0.57999998 118 242 75 0.000000 0.000000 0.000000 0.000000 -60.708740 0.000000 248.000000 0.890269 0.306731 0.336656
14.94999981 9.00000000 0.57999998 118 242 75 0.000000 0.000000 0.000000 0.000000 -60.708740 0.000000 248.000000 0.890269 0.306731 0.336656
15.01000023 9.02000046 0.51999998 118 242 75 0.000000 0.000000 0.000000 0.000000 -60.708740 0.000000 248.000000 0.900215 0.236435 0.365666
15.02000046 9.00000000 0.50999999 118 242 75 0.000000 0.000000 0.000000 0.000000 -60.708740 0.000000 248.000000 0.970023 -0.118233 0.212312
15.02000046 9.00000000 0.50999999 118 242 75 0.000000 0.000000 0.000000 0.000000 -60.708740 0.000000 248.000000 0.970023 -0.118233 0.212312
15.02000046 9.00000000 0.50999999 118 242 75 0.000000 0.000000 0.000000 0.000000 -60.708740 0.000000 248.000000 0.970023 -0.118233 0.212312
15.02000046 8.96000004 0.52999997 118 242 75 0.000000 0.000000 0.000000 0.000000 -60.708740 0.000000 248.000000 0.918050 0.024812 0.395688
15.01000023 8.97000027 0.50000000 118 242 75 0.000000 0.000000 0.000000 0.000000 -60.708740 0.000000 248.000000 0.951882 -0.256431 -0.167821
14.94999981 8.94999981 0.55000001 118 242 75 0.000000 0.000000 0.000000 0.000000 -60.708740 0.000000 248.000000 0.933652 -0.345250 -0.095380
14.97000027 8.93000031 0.58999997 118 242 75 0.000000 0.000000 0.000000 0.000000 -60.708740 0.000000 248.000000 0.934871 -0.353001 0.037498
14.97000027 8.86999989 0.56999999 118 242 75 0.000000 0.000000 0.000000 0.000000 -60.708740 0.000000 248.000000 0.918738 -0.382009 -0.099952
15.01000023 8.92000008 0.50999999 118 242 75 0.000000 0.000000 0.000000 0.000000 -60.708740 0.000000 248.000000 0.920617 -0.341863 -0.188663
15.02000046 8.92000008 0.51999998 118 242 75 0.000000 0.000000 0.000000 0.000000 -60.708740 0.000000 248.000000 0.967003 -0.230603 0.108294
14.98999977 8.85999966 0.52999997 118 242 75 0.000000 0.000000 0.000000 0.000000 -60.708740 0.000000 248.000000 0.959364 -0.277876 0.049037
14.98999977 8.86999989 0.51999998 118 242 75 0.000000 0.000000 0.000000 0.000000 -60.708740 0.000000 248.000000 0.996477 -0.066432 0.051185
14.97000027 8.90999985 0.52999997 118 242 75 0.000000 0.000000 0.000000 0.000000 -60.708740 0.000000 248.000000 0.875095 -0.480958 0.053746
14.97000027 8.90999985 0.55000001 118 242 75 0.000000 0.000000 0.000000 0.000000 -60.708740 0.000000 248.000000 0.892345 -0.448216 0.053132
14.97000027 8.89999962 0.56000000 118 242 75 0.000000 0.000000 0.000000 0.000000 -60.708740 0.000000 248.000000 0.907519 -0.337580 -0.249897
14.88000011 9.00000000 0.61000001 118 242 75 0.000000 0.000000 0.000000 0.000000 -60.708740 0.000000 248.000000 0.982539 0.073002 0.171137
14.88000011 9.00000000 0.61000001 118 242 75 0.000000 0.000000 0.000000 0.000000 -60.708740 0.000000 248.000000 0.982539 0.073002 0.171137
14.89999962 9.01000023 0.58999997 118 242 75 0.000000 0.000000 0.000000 0.000000 -60.708740 0.000000 248.000000 0.993231 0.116148 0.001085
14.88000011 8.97999954 0.57999998 118 242 75 0.000000 0.000000 0.000000 0.000000 -60.708740 0.000000 248.000000 0.943586 0.037129 0.329039
14.93999958 8.97999954 0.54000002 118 242 75 0.000000 0.000000 0.000000 0.000000 -60.708740 0.000000 248.000000 0.933053 -0.308228 -0.185495
14.92000008 8.96000004 0.55000001 118 242 75 0.000000 0.000000 0.000000 0.000000 -60.708740 0.000000 248.000000 0.983163 0.060630 -0.172380
14.92000008 8.94999981 0.51999998 118 242 75 0.000000 0.000000 0.000000 0.000000 -60.708740 0.000000 248.000000 0.922411 -0.386156 0.006415
14.88000011 9.00000000 0.54000002 118 242 75 0.000000 0.000000 0.000000 0.000000 -60.708740 0.000000 248.000000 0.988489 0.149013 0.026163
14.88000011 9.00000000 0.52999997 118 242 75 0.000000 0.000000 0.000000 0.000000 -60.708740 0.000000 248.000000 0.951678 -0.039179 0.304588
14.89999962 8.97999954 0.56000000 118 242 75 0.000000 0.000000 0.000000 0.000000 -60.708740 0.000000 248.000000 0.946358 0.093451 0.309310
14.93000031 8.92000008 0.64999998 118 242 75 0.000000 0.000000 0.000000 0.000000 -60.708740 0.000000 248.000000 0.939241 -0.330793 -0.091666
14.93000031 8.92000008 0.56999999 118 242 75 0.000000 0.000000 0.000000 0.000000 -60.708740 0.000000 248.000000 0.893023 -0.447191 0.050292
14.92000008 8.90999985 0.56999999 118 242 75 0.000000 0.000000 0.000000 0.000000 -60.708740 0.000000 248.000000 0.938818 -0.318358 0.131407
14.93000031 8.88000011 0.60000002 118 242 75 0.000000 0.000000 0.000000 0.000000 -60.708740 0.000000 248.000000 0.979808 -0.197380 0.031912
14.93999958 8.88000011 0.56999999 118 242 75 0.000000 0.000000 0.000000 0.000000 -60.708740 0.000000 248.000000 0.797107 -0.570673 -0.197364
14.88000011 8.93000031 0.62000000 118 242 75 0.000000 0.000000 0.000000 0.000000 -60.708740 0.000000 248.000000 0.906477 -0.373255 -0.197436
14.88000011 8.92000008 0.63000000 118 242 75 0.000000 0.000000 0.000000 0.000000 -60.708740 0.000000 248.000000 0.949515 0.207834 0.235002
14.89000034 8.90999985 0.63999999 118 242 75 0.000000 0.000000 0.000000 0.000000 -60.708740 0.000000 248.000000 0.971486 0.135881 0.194297
14.89000034 8.90999985 0.64999998 118 242 75 0.000000 0.000000 0.000000 0.000000 -60.708740 0.000000 248.000000 0.982708 0.171166 0.070621
14.89000034 8.93999958 0.56999999 118 242 75 0.000000 0.000000 0.000000 0.000000 -60.708740 0.000000 248.000000 0.986475 0.040572 -0.158810
14.89000034 8.93000031 0.56999999 118 242 75 0.000000 0.000000 0.000000 0.000000 -60.708740 0.000000 248.000000 0.867055 -0.298193 0.399120
14.88000011 8.93999958 0.58999997 118 242 75 0.000000 0.000000 0.000000 0.000000 -60.708740 0.000000 248.000000 0.991139 -0.023466 0.130737
14.88000011 8.93999958 0.57999998 118 242 75 0.000000 0.000000 0.000000 0.000000 -60.708740 0.000000 248.000000 0.860767 -0.169791 0.479845
14.89000034 8.93999958 0.56999999 118 242 75 0.000000 0.000000 0.000000 0.000000 -60.708740 0.000000 248.000000 0.986475 0.040572 -0.158810
14.88000011 8.89000034 0.64999998 118 242 75 0.000000 0.000000 0.000000 0.000000 -60.708740 0.000000 248.000000 0.975811 -0.166602 0.141549
14.88000011 8.88000011 0.61000001 118 242 75 0.000000 0.000000 0.000000 0.000000 -60.708740 0.000000 248.000000 -0.747407 0.648154 0.145872
14.89000034 8.88000011 0.64999998 118 242 75 0.000000 0.000000 0.000000 0.000000 -60.708740 0.000000 248.000000 0.940106 -0.125437 0.316965
14.88000011 8.89000034 0.63000000 118 242 75 0.000000 0.000000 0.000000 0.000000 -60.708740 0.000000 248.000000 0.961359 -0.090887 0.259861
14.88000011 8.89999962 0.63999999 118 242 75 0.000000 0.000000 0.000000 0.000000 -60.708740 0.000000 248.000000 0.971749 0.140999 0.189269
14.93999958 8.92000008 0.55000001 118 242 75 0.000000 0.000000 0.000000 0.000000 -60.708740 0.000000 248.000000 0.809726 -0.558484 -0.180107
15.00000000 9.01000023 0.47000000 118 242 75 0.000000 0.000000 0.000000 0.000000 -60.708740 0.000000 248.000000 0.833071 -0.210923 0.511375
15.02000046 9.02000046 0.47999999 118 242 75 0.000000 0.000000 0.000000 0.000000 -60.708740 0.000000 248.000000 0.927541 0.326955 0.181018
15.02000046 9.02000046 0.47999999 118 242 75 0.000000 0.000000 0.000000 0.000000 -60.708740 0.000000 248.000000 0.927541 0.326955 0.181018
15.01000023 8.97999954 0.47999999 118 242 75 0.000000 0.000000 0.000000 0.000000 -60.708740 0.000000 248.000000 0.923789 -0.276421 -0.264963
15.00000000 8.85000038 0.64999998 118 242 75 0.000000 0.000000 0.000000 0.000000 -60.708740 0.000000 248.000000 0.971348 -0.117777 -0.206427
14.98999977 8.77999973 0.61000001 118 242 75 0.000000 0.000000 0.000000 0.000000 -60.708740 0.000000 248.000000 0.702669 -0.680953 0.206302
15.02000046 8.78999996 0.60000002 118 242 75 0.000000 0.000000 0.000000 0.000000 -60.708740 0.000000 248.000000 0.956751 -0.282299 -0.070255
14.94999981 8.82999992 0.64999998 118 242 75 0.000000 0.000000 0.000000 0.000000 -60.708740 0.000000 248.000000 0.788007 -0.578283 0.211266
14.94999981 8.82999992 0.64999998 118 242 75 0.000000 0.000000 0.000000 0.000000 -60.708740 0.000000 248.000000 0.788007 -0.578283 0.211266
14.94999981 8.82999992 0.62000000 118 242 75 0.000000 0.000000 0.000000 0.000000 -60.708740 0.000000 248.000000 0.905843 -0.423596 -0.003910
14.97000027 8.81000042 0.63999999 118 242 75 0.000000 0.000000 0.000000 0.000000 -60.708740 0.000000 248.000000 0.713232 -0.689308 -0.127096
14.97999954 8.77999973 0.64999998 118 242 75 0.000000 0.000000 0.000000 0.000000 -60.708740 0.000000 248.000000 -0.659949 0.730384 0.176088
14.97999954 8.81000042 0.64999998 118 242 75 0.000000 0.000000 0.000000 0.000000 -60.708740 0.000000 248.000000 0.758898 -0.636157 -0.139206
14.94999981 8.80000019 0.58999997 118 242 75 0.000000 0.000000 0.000000 0.000000 -60.708740 0.000000 248.000000 -0.586244 0.768561 0.256187
15.02000046 8.77999973 0.54000002 118 242 75 0.000000 0.000000 0.000000 0.000000 -60.708740 0.000000 248.000000 0.901674 -0.409080 0.140135
14.97000027 8.85000038 0.51999998 118 242 75 0.000000 0.000000 0.000000 0.000000 -60.708740 0.000000 248.000000 -0.574430 0.818460 -0.012339
15.01000023 8.76000023 0.63999999 118 242 75 0.000000 0.000000 0.000000 0.000000 -60.708740 0.000000 248.000000 0.769352 -0.583701 0.259597
15.01000023 8.77000046 0.61000001 118 242 75 0.000000 0.000000 0.000000 0.000000 -60.708740 0.000000 248.000000 0.816586 -0.542870 -0.196163
15.00000000 8.71000004 0.62000000 118 242 75 0.000000 0.000000 0.000000 0.000000 -60.708740 0.000000 248.000000 -0.556590 0.823986 -0.106086
15.00000000 8.69999981 0.63000000 118 242 75 0.000000 0.000000 0.000000 0.000000 -60.708740 0.000000 248.000000 0.889837 -0.435635 -0.135689
15.02000046 8.72999954 0.63000000 118 242 75 0.000000 0.000000 0.000000 0.000000 -60.708740 0.000000 248.000000 0.857114 -0.484070 0.176160
14.98999977 8.69999981 0.60000002 118 242 75 0.000000 0.000000 0.000000 0.000000 -60.708740 0.000000 248.000000 0.721447 -0.532378 -0.442819
14.96000004 8.73999977 0.61000001 118 242 75 0.000000 0.000000 0.000000 0.000000 -60.708740 0.000000 248.000000 -0.531046 0.824559 0.195171
14.94999981 8.76000023 0.64999998 118 242 75 0.000000 0.000000 0.000000 0.000000 -60.708740 0.000000 248.000000 -0.668211 0.742299 0.049867
14.93000031 8.80000019 0.62000000 118 242 75 0.000000 0.000000 0.000000 0.000000 -60.708740 0.000000 248.000000 -0.599434 0.795875 0.085221
14.93000031 8.80000019 0.63000000 118 242 75 0.000000 0.000000 0.000000 0.000000 -60.708740 0.000000 248.000000 0.867795 -0.468404 -0.165924
14.93000031 8.81000042 0.63999999 118 242 75 0.000000 0.000000 0.000000 0.000000 -60.708740 0.000000 248.000000 0.986287 -0.155606 -0.054989
14.88000011 8.84000015 0.63999999 118 242 75 0.000000 0.000000 0.000000 0.000000 -60.708740 0.000000 248.000000 0.973038 -0.188534 0.132860
14.93000031 8.77000046 0.61000001 118 242 75 0.000000 0.000000 0.000000 0.000000 -60.708740 0.000000 248.000000 0.734418 -0.637331 -0.233323
14.93999958 8.73999977 0.63000000 118 242 75 0.000000 0.000000 0.000000 0.000000 -60.708740 0.000000 248.000000 0.870967 -0.490513 0.028534
14.93999958 8.73999977 0.62000000 118 242 75 0.000000 0.000000 0.000000 0.000000 -60.708740 0.000000 248.000000 0.884434 -0.332981 -0.326954
14.93999958 8.72000027 0.61000001 118 242 75 0.000000 0.000000 0.000000 0.000000 -60.708740 0.000000 248.000000 -0.470633 0.830252 0.298641
14.93000031 8.69999981 0.57999998 118 242 75 0.000000 0.000000 0.000000 0.000000 -60.708740 0.000000 248.000000 0.761701 -0.583600 -0.281464
14.88000011 8.71000004 0.49000001 118 242 75 0.000000 0.000000 0.000000 0.000000 -60.708740 0.000000 248.000000 -0.232478 0.889931 0.392399
14.90999985 8.69999981 0.56000000 118 242 75 0.000000 0.000000 0.000000 0.000000 -60.708740 0.000000 248.000000 -0.683467 0.726816 -0.067913
14.89000034 8.72000027 0.49000001 118 242 75 0.000000 0.000000 0.000000 0.000000 -60.708740 0.000000 248.000000 -0.569212 0.782471 0.252461
15.02000046 8.81999969 0.36000001 118 242 75 0.000000 0.000000 0.000000 0.000000 -60.708740 0.000000 248.000000 0.775730 -0.624368 0.091690
15.01000023 8.81999969 0.38000000 118 242 75 0.000000 0.000000 0.000000 0.000000 -60.708740 0.000000 248.000000 -0.573846 0.762464 0.298912
15.02000046 8.85000038 0.31999999 118 242 75 0.000000 0.000000 0.000000 0.000000 -60.708740 0.000000 248.000000 -0.495177 0.864796 0.083235
15.02000046 8.81000042 0.36000001 118 242 75 0.000000 0.000000 0.000000 0.000000 -60.708740 0.000000 248.000000 0.752844 -0.657865 0.020951
15.00000000 8.81000042 0.34000000 118 242 75 0.000000 0.000000 0.000000 0.000000 -60.708740 0.000000 248.000000 0.730594 -0.508600 -0.455586
14.97000027 8.80000019 0.38000000 118 242 75 0.000000 0.000000 0.000000 0.000000 -60.708740 0.000000 248.000000 -0.650739 0.741752 -0.162306
14.97000027 8.72000027 0.41999999 118 242 75 0.000000 0.000000 0.000000 0.000000 -60.708740 0.000000 248.000000 0.785794 -0.618487 0.001371
15.01000023 8.69999981 0.41000000 118 242 75 0.000000 0.000000 0.000000 0.000000 -60.708740 0.000000 248.000000 -0.466810 0.884130 0.020063
14.94999981 8.69999981 0.41000000 118 242 75 0.000000 0.000000 0.000000 0.000000 -60.708740 0.000000 248.000000 -0.184636 0.891196 0.414341
14.96000004 8.72000027 0.40000001 118 242 75 0.000000 0.000000 0.000000 0.000000 -60.708740 0.000000 248.000000 -0.360132 0.889123 0.282427
15.02000046 8.72999954 0.37000000 118 242 75 0.000000 0.000000 0.000000 0.000000 -60.708740 0.000000 248.000000 -0.631129 0.717849 0.293885
14.98999977 8.71000004 0.38000000 118 242 75 0.000000 0.000000 0.000000 0.000000 -60.708740 0.000000 248.000000 -0.699819 0.711363 -0.064932
14.97999954 8.75000000 0.36000001 118 242 75 0.000000 0.000000 0.000000 0.000000 -60.708740 0.000000 248.000000 -0.392780 0.721467 0.570271
14.94999981 8.76000023 0.37000000 118 242 75 0.000000 0.000000 0.000000 0.000000 -60.708740 0.000000 248.000000 0.719831 -0.687578 -0.095293
14.97000027 8.75000000 0.33000001 118 242 75 0.000000 0.000000 0.000000 0.000000 -60.708740 0.000000 248.000000 -0.538760 0.835006 0.111818
14.97999954 8.76000023 0.33000001 118 242 75 0.000000 0.000000 0.000000 0.000000 -60.708740 0.000000 248.000000 -0.597476 0.563625 0.570395
14.97999954 8.75000000 0.31999999 118 242 75 0.000000 0.000000 0.000000 0.000000 -60.708740 0.000000 248.000000 -0.339581 0.940474 0.013886
14.97999954 8.76000023 0.31999999 118 242 75 0.000000 0.000000 0.000000 0.000000 -60.708740 0.000000 248.000000 0.781769 -0.550251 -0.293362
14.97000027 8.72000027 0.38000000 118 242 75 0.000000 0.000000 0.000000 0.000000 -60.708740 0.000000 248.000000 0.820215 -0.543298 -0.179093
14.97000027 8.72999954 0.38000000 118 242 75 0.000000 0.000000 0.000000 0.000000 -60.708740 0.000000 248.000000 0.823366 -0.567510 -0.001361
14.94999981 8.72000027 0.34000000 118 242 75 0.000000 0.000000 0.000000 0.000000 -60.708740 0.000000 248.000000 -0.325310 0.888982 0.322312
14.96000004 8.72000027 0.31999999 118 242 75 0.000000 0.000000 0.000000 0.000000 -60.708740 0.000000 248.000000 -0.309882 0.822682 0.476621
14.96000004 8.72000027 0.34000000 118 242 75 0.000000 0.000000 0.000000 0.000000 -60.708740 0.000000 248.000000 -0.443437 0.876561 0.187098
14.93999958 8.71000004 0.36000001 118 242 75 0.000000 0.000000 0.000000 0.000000 -60.708740 0.000000 248.000000 -0.426678 0.861002 0.276805
14.84000015 8.98999977 0.51999998 118 242 75 0.000000 0.000000 0.000000 0.000000 -60.708740 0.000000 248.000000 0.885687 0.226985 0.405013
15.02000046 9.01000023 0.23999999 118 242 75 0.000000 0.000000 0.000000 0.000000 -60.708740 0.000000 248.000000 0.850738 -0.447676 -0.275375
15.01000023 8.98999977 0.23000000 118 242 75 0.000000 0.000000 0.000000 0.000000 -60.708740 0.000000 248.000000 0.594085 -0.724296 -0.349941
14.94999981 8.97000027 0.23000000 118 242 75 0.000000 0.000000 0.000000 0.000000 -60.708740 0.000000 248.000000 -0.379559 0.925095 0.011580
14.92000008 9.00000000 0.22000000 118 242 75 0.000000 0.000000 0.000000 0.000000 -60.708740 0.000000 248.000000 0.861883 -0.493532 -0.116548
15.01000023 8.85000038 0.30000001 118 242 75 0.000000 0.000000 0.000000 0.000000 -60.708740 0.000000 248.000000 0.787829 -0.586681 0.187433
15.02000046 8.84000015 0.28000000 118 242 75 0.000000 0.000000 0.000000 0.000000 -60.708740 0.000000 248.000000 0.912713 -0.356775 -0.199163
15.02000046 8.84000015 0.28000000 118 242 75 0.000000 0.000000 0.000000 0.000000 -60.708740 0.000000 248.000000 0.912713 -0.356775 -0.199163
15.00000000 8.84000015 0.23999999 118 242 75 0.000000 0.000000 0.000000 0.000000 -60.708740 0.000000 248.000000 0.688385 -0.685235 -0.237863
15.02000046 8.77999973 0.28999999 118 242 75 0.000000 0.000000 0.000000 0.000000 -60.708740 0.000000 248.000000 -0.577176 0.811518 -0.091133
14.98999977 8.77999973 0.31000000 118 242 75 0.000000 0.000000 0.000000 0.000000 -60.708740 0.000000 248.000000 -0.473230 0.778959 0.411433
14.98999977 8.77999973 0.25999999 118 242 75 0.000000 0.000000 0.000000 0.000000 -60.708740 0.000000 248.000000 -0.495389 0.708890 0.502061
14.97999954 8.77999973 0.30000001 118 242 75 0.000000 0.000000 0.000000 0.000000 -60.708740 0.000000 248.000000 0.628760 -0.530990 -0.568076
14.97000027 8.77999973 0.31000000 118 242 75 0.000000 0.000000 0.000000 0.000000 -60.708740 0.000000 248.000000 0.840397 -0.444366 -0.310277
14.97999954 8.78999996 0.28999999 118 242 75 0.000000 0.000000 0.000000 0.000000 -60.708740 0.000000 248.000000 0.734789 -0.616841 -0.282121
15.01000023 8.75000000 0.28999999 118 242 75 0.000000 0.000000 0.000000 0.000000 -60.708740 0.000000 248.000000 0.750210 -0.618649 -0.233364
15.01000023 8.76000023 0.28999999 118 242 75 0.000000 0.000000 0.000000 0.000000 -60.708740 0.000000 248.000000 0.781687 -0.571775 -0.249075
14.98999977 8.75000000 0.27000001 118 242 75 0.000000 0.000000 0.000000 0.000000 -60.708740 0.000000 248.000000 0.721485 -0.689929 -0.058809
14.98999977 8.72000027 0.30000001 118 242 75 0.000000 0.000000 0.000000 0.000000 -60.708740 0.000000 248.000000 0.641648 -0.533864 -0.550706
14.98999977 8.64999962 0.64999998 118 242 75 0.000000 0.000000 0.000000 0.000000 -60.708740 0.000000 248.000000 0.930409 -0.261987 -0.256323
15.01000023 8.67000008 0.56999999 118 242 75 0.000000 0.000000 0.000000 0.000000 -60.708740 0.000000 248.000000 -0.678209 0.728229 0.098568
15.00000000 8.67000008 0.57999998 118 242 75 0.000000 0.000000 0.000000 0.000000 -60.708740 0.000000 248.000000 0.870935 -0.473616 -0.131000
14.97000027 8.68999958 0.62000000 118 242 75 0.000000 0.000000 0.000000 0.000000 -60.708740 0.000000 248.000000 0.854730 -0.490322 -0.170354
14.97000027 8.68999958 0.58999997 118 242 75 0.000000 0.000000 0.000000 0.000000 -60.708740 0.000000 248.000000 0.767177 -0.606641 0.208388
15.00000000 8.63000011 0.56000000 118 242 75 0.000000 0.000000 0.000000 0.000000 -60.708740 0.000000 248.000000 0.766502 -0.642205 -0.006905
15.00000000 8.63000011 0.56000000 118 242 75 0.000000 0.000000 0.000000 0.000000 -60.708740 0.000000 248.000000 0.766502 -0.642205 -0.006905
15.00000000 8.63000011 0.56000000 118 242 75 0.000000 0.000000 0.000000 0.000000 -60.708740 0.000000 248.000000 0.766502 -0.642205 -0.006905
15.02000046 8.59000015 0.54000002 118 242 75 0.000000 0.000000 0.000000 0.000000 -60.708740 0.000000 248.000000 -0.553269 0.818718 -0.153603
14.93999958 8.68999958 0.63999999 118 242 75 0.000000 0.000000 0.000000 0.000000 -60.708740 0.000000 248.000000 0.829301 -0.459329 -0.318238
14.93999958 8.68999958 0.63000000 118 242 75 0.000000 0.000000 0.000000 0.000000 -60.708740 0.000000 248.000000 -0.630426 0.766894 0.120152
14.93999958 8.63000011 0.58999997 118 242 75 0.000000 0.000000 0.000000 0.000000 -60.708740 0.000000 248.000000 0.689576 -0.710608 -0.139718
14.93999958 8.63000011 0.56000000 118 242 75 0.000000 0.000000 0.000000 0.000000 -60.708740 0.000000 248.000000 -0.409632 0.909842 0.066244
14.89000034 8.64999962 0.52999997 118 242 75 0.000000 0.000000 0.000000 0.000000 -60.708740 0.000000 248.000000 -0.567426 0.725318 0.389797
14.89000034 8.64999962 0.54000002 118 242 75 0.000000 0.000000 0.000000 0.000000 -60.708740 0.000000 248.000000 0.743967 -0.657839 -0.117312
14.86999989 8.64999962 0.51999998 118 242 75 0.000000 0.000000 0.000000 0.000000 -60.708740 0.000000 248.000000 0.481387 -0.704590 -0.521363
14.92000008 8.60000038 0.56999999 118 242 75 0.000000 0.000000 0.000000 0.000000 -60.708740 0.000000 248.000000 -0.339720 0.915955 0.213580
14.92000008 8.60000038 0.56999999 118 242 75 0.000000 0.000000 0.000000 0.000000 -60.708740 0.000000 248.000000 -0.339720 0.915955 0.213580
15.02000046 8.65999985 0.38999999 118 242 75 0.000000 0.000000 0.000000 0.000000 -60.708740 0.000000 248.000000 -0.271730 0.884250 0.379822
15.00000000 8.64999962 0.34999999 118 242 75 0.000000 0.000000 0.000000 0.000000 -60.708740 0.000000 248.000000 -0.614940 0.696932 0.368964
15.00000000 8.64999962 0.34999999 118 242 75 0.000000 0.000000 0.000000 0.000000 -60.708740 0.000000 248.000000 -0.614940 0.696932 0.368964
15.02000046 8.65999985 0.34000000 118 242 75 0.000000 0.000000 0.000000 0.000000 -60.708740 0.000000 248.000000 -0.543914 0.837544 -0.051735
14.90999985 8.64999962 0.44999999 118 242 75 0.000000 0.000000 0.000000 0.000000 -60.708740 0.000000 248.000000 -0.311220 0.866203 0.390941
14.92000008 8.65999985 0.44999999 118 242 75 0.000000 0.000000 0.000000 0.000000 -60.708740 0.000000 248.000000 -0.229052 0.914766 0.332773
14.93999958 8.65999985 0.43000001 118 242 75 0.000000 0.000000 0.000000 0.000000 -60.708740 0.000000 248.000000 0.809217 -0.518087 -0.277043
14.86999989 8.60999966 0.46000001 118 242 75 0.000000 0.000000 0.000000 0.000000 -60.708740 0.000000 248.000000 -0.472584 0.763656 0.439879
14.85999966 8.61999989 0.44999999 118 242 75 0.000000 0.000000 0.000000 0.000000 -60.708740 0.000000 248.000000 -0.551178 0.831726 0.066595
14.85999966 8.63000011 0.43000001 118 242 75 0.000000 0.000000 0.000000 0.000000 -60.708740 0.000000 248.000000 -0.301106 0.953295 0.023739
14.93999958 8.68000031 0.38000000 118 242 75 0.000000 0.000000 0.000000 0.000000 -60.708740 0.000000 248.000000 0.796673 -0.554410 -0.240710
14.96000004 8.44999981 0.36000001 118 242 75 0.000000 0.000000 0.000000 0.000000 -60.708740 0.000000 248.000000 0.008755 0.944309 0.328945
14.94999981 8.46000004 0.34999999 118 242 75 0.000000 0.000000 0.000000 0.000000 -60.708740 0.000000 248.000000 -0.570700 0.820641 0.029160
15.01000023 8.40999985 0.33000001 118 242 75 0.000000 0.000000 0.000000 0.000000 -60.708740 0.000000 248.000000 -0.222048 0.974873 -0.017811
14.93000031 8.43999958 0.36000001 118 242 75 0.000000 0.000000 0.000000 0.000000 -60.708740 0.000000 248.000000 -0.143530 0.988632 0.044781
14.93999958 8.44999981 0.36000001 118 242 75 0.000000 0.000000 0.000000 0.000000 -60.708740 0.000000 248.000000 -0.220778 0.975002 -0.025061
14.93000031 8.43000031 0.38000000 118 242 75 0.000000 0.000000 0.000000 0.000000 -60.708740 0.000000 248.000000 -0.415336 0.908962 -0.035828
14.93000031 8.40999985 0.31999999 118 242 75 0.000000 0.000000 0.000000 0.000000 -60.708740 0.000000 248.000000 -0.545082 0.824307 0.152980
14.81999969 8.67000008 0.50000000 118 242 75 0.000000 0.000000 0.000000 0.000000 -60.708740 0.000000 248.000000 -0.294036 0.711793 0.637882
14.84000015 8.65999985 0.49000001 118 242 75 0.000000 0.000000 0.000000 0.000000 -60.708740 0.000000 248.000000 -0.589200 0.701428 0.401052
14.84000015 8.65999985 0.49000001 118 242 75 0.000000 0.000000 0.000000 0.000000 -60.708740 0.000000 248.000000 -0.589200 0.701428 0.401052
14.84000015 8.61999989 0.50999999 118 242 75 0.000000 0.000000 0.000000 0.000000 -60.708740 0.000000 248.000000 0.518489 -0.669506 -0.531913
14.85000038 8.64000034 0.50000000 118 242 75 0.000000 0.000000 0.000000 0.000000 -60.708740 0.000000 248.000000 -0.279183 0.735447 0.617393
14.73999977 8.67000008 0.50000000 118 242 75 0.000000 0.000000 0.000000 0.000000 -60.708740 0.000000 248.000000 -0.095278 0.652286 0.751961
14.82999992 8.68000031 0.43000001 118 242 75 0.000000 0.000000 0.000000 0.000000 -60.708740 0.000000 248.000000 -0.607222 0.770172 0.195233
14.77000046 8.65999985 0.46000001 118 242 75 0.000000 0.000000 0.000000 0.000000 -60.708740 0.000000 248.000000 0.254333 0.890909 0.376294
14.71000004 8.64999962 0.44999999 118 242 75 0.000000 0.000000 0.000000 0.000000 -60.708740 0.000000 248.000000 -0.373194 0.864642 0.336335
14.73999977 8.60000038 0.44999999 118 242 75 0.000000 0.000000 0.000000 0.000000 -60.708740 0.000000 248.000000 0.228889 0.872173 0.432347
15.02000046 8.44999981 0.25999999 118 242 75 0.000000 0.000000 0.000000 0.000000 -60.708740 0.000000 248.000000 -0.245446 0.968216 0.048102
14.98999977 8.47999954 0.27000001 118 242 75 0.000000 0.000000 0.000000 0.000000 -60.708740 0.000000 248.000000 0.563728 -0.724793 -0.396089
15.02000046 8.42000008 0.30000001 118 242 75 0.000000 0.000000 0.000000 0.000000 -60.708740 0.000000 248.000000 -0.129574 0.772976 0.621062
14.93000031 8.39999962 0.25000000 118 242 75 0.000000 0.000000 0.000000 0.000000 -60.708740 0.000000 248.000000 -0.168692 0.972834 0.158545
14.93999958 8.42000008 0.25000000 118 242 75 0.000000 0.000000 0.000000 0.000000 -60.708740 0.000000 248.000000 -0.512389 0.801104 0.309337
14.68999958 8.63000011 0.41000000 118 242 75 0.000000 0.000000 0.000000 0.000000 -60.708740 0.000000 248.000000 0.304927 0.865747 0.396865
15.53999996 9.84000015 -0.28000000 118 242 75 0.000000 0.000000 0.000000 0.000000 -60.708740 0.000000 248.000000 0.647070 0.689235 0.325968
15.53999996 9.84000015 -0.28000000 118 242 75 0.000000 0.000000 0.000000 0.000000 -60.708740 0.000000 248.000000 0.647070 0.689235 0.325968
15.52999973 9.81000042 -0.28999999 118 242 75 0.000000 0.000000 0.000000 0.000000 -60.708740 0.000000 248.000000 0.716204 0.143241 0.683033
15.52999973 9.77999973 -0.28999999 118 242 75 0.000000 0.000000 0.000000 0.000000 -60.708740 0.000000 248.000000 0.943914 0.182207 0.275365
15.43000031 9.86999989 -0.25000000 118 242 75 0.000000 0.000000 0.000000 0.000000 -60.708740 0.000000 248.000000 0.759195 0.531599 0.375533
15.43000031 9.86999989 -0.23999999 118 242 75 0.000000 0.000000 0.000000 0.000000 -60.708740 0.000000 248.000000 0.812735 0.407166 0.416746
15.43000031 9.88000011 -0.25999999 118 242 75 0.000000 0.000000 0.000000 0.000000 -60.708740 0.000000 248.000000 0.616993 0.770864 0.158397
15.39000034 9.92000008 -0.20000000 118 242 75 0.000000 0.000000 0.000000 0.000000 -60.708740 0.000000 248.000000 0.766738 0.635796 0.088750
15.39000034 9.89000034 -0.27000001 118 242 75 0.000000 0.000000 0.000000 0.000000 -60.708740 0.000000 248.000000 0.579627 0.656911 0.482183
15.51000023 9.84000015 -0.23999999 118 242 75 0.000000 0.000000 0.000000 0.000000 -60.708740 0.000000 248.000000 0.543591 0.787653 0.290021
15.52000046 9.81000042 -0.27000001 118 242 75 0.000000 0.000000 0.000000 0.000000 -60.708740 0.000000 248.000000 0.666092 0.189213 0.721471
15.52000046 9.81000042 -0.27000001 118 242 75 0.000000 0.000000 0.000000 0.000000 -60.708740 0.000000 248.000000 0.666092 0.189213 0.721471
15.44999981 9.85000038 -0.23000000 118 242 75 0.000000 0.000000 0.000000 0.000000 -60.708740 0.000000 248.000000 0.426363 0.802850 0.416710
15.46000004 9.82999992 -0.25000000 118 242 75 0.000000 0.000000 0.000000 0.000000 -60.708740 0.000000 248.000000 0.662730 0.315972 0.678934
15.47999954 9.81000042 -0.27000001 118 242 75 0.000000 0.000000 0.000000 0.000000 -60.708740 0.000000 248.000000 0.865817 0.262323 0.426085
15.46000004 9.78999996 -0.25000000 118 242 75 0.000000 0.000000 0.000000 0.000000 -60.708740 0.000000 248.000000 0.947710 0.222910 0.228380
15.44999981 9.80000019 -0.28999999 118 242 75 0.000000 0.000000 0.000000 0.000000 -60.708740 0.000000 248.000000 0.597448 0.503202 0.624375
15.50000000 9.77999973 -0.25000000 118 242 75 0.000000 0.000000 0.000000 0.000000 -60.708740 0.000000 248.000000 0.866204 0.172064 0.469132
15.47000027 9.77000046 -0.25000000 118 242 75 0.000000 0.000000 0.000000 0.000000 -60.708740 0.000000 248.000000 0.807866 0.459124 0.369539
15.48999977 9.76000023 -0.28999999 118 242 75 0.000000 0.000000 0.000000 0.000000 -60.708740 0.000000 248.000000 0.947810 0.112677 0.298262
15.47999954 9.69999981 -0.30000001 118 242 75 0.000000 0.000000 0.000000 0.000000 -60.708740 0.000000 248.000000 0.712287 0.251117 0.655430
15.43999958 9.81999969 -0.19000000 118 242 75 0.000000 0.000000 0.000000 0.000000 -60.708740 0.000000 248.000000 0.822719 0.143791 0.549962
15.40999985 9.75000000 -0.20999999 118 242 75 0.000000 0.000000 0.000000 0.000000 -60.708740 0.000000 248.000000 0.551122 0.728797 0.406349
15.42000008 9.77999973 -0.23999999 118 242 75 0.000000 0.000000 0.000000 0.000000 -60.708740 0.000000 248.000000 0.827550 0.466380 0.312490
15.42000008 9.77999973 -0.23000000 118 242 75 0.000000 0.000000 0.000000 0.000000 -60.708740 0.000000 248.000000 0.813892 0.574766 0.084991
15.39000034 9.75000000 -0.20000000 118 242 75 0.000000 0.000000 0.000000 0.000000 -60.708740 0.000000 248.000000 0.533898 0.761088 0.368373
15.39999962 9.76000023 -0.20999999 118 242 75 0.000000 0.000000 0.000000 0.000000 -60.708740 0.000000 248.000000 0.917162 0.334427 0.216732
15.39000034 9.75000000 -0.23000000 118 242 75 0.000000 0.000000 0.000000 0.000000 -60.708740 0.000000 248.000000 0.680589 0.308771 0.664423
15.22000027 9.89000034 -0.08000000 118 242 75 0.000000 0.000000 0.000000 0.000000 -60.708740 0.000000 248.000000 0.383460 0.487010 0.784717
15.25000000 9.88000011 -0.11000000 118 242 75 0.000000 0.000000 0.000000 0.000000 -60.708740 0.000000 248.000000 0.466414 0.848720 0.249264
15.19999981 9.90999985 -0.11000000 118 242 75 0.000000 0.000000 0.000000 0.000000 -60.708740 0.000000 248.000000 0.446881 0.852299 0.271814
15.19999981 9.89000034 -0.14000000 118 242 75 0.000000 0.000000 0.000000 0.000000 -60.708740 0.000000 248.000000 0.201060 0.790425 0.578622
15.22000027 9.88000011 -0.14000000 118 242 75 0.000000 0.000000 0.000000 0.000000 -60.708740 0.000000 248.000000 0.412234 0.862780 0.292701
