//X Y Z R G B PointSourceId ScanDirectionFlag NumberOfReturns ReturnNumber GpsTime Intensity Classification Nx Ny Nz
1.09000003 19.29999924 -1.09000003 187 17 153 97.000000 1.000000 4.000000 1.000000 -60.708740 114.000000 123.000000 0.961662 -0.193915 -0.193915
1.04999995 19.36000061 -1.34000003 187 17 153 97.000000 1.000000 4.000000 1.000000 -60.708740 114.000000 123.000000 0.988423 0.047287 0.144169
1.07000005 19.32999992 -1.20000005 187 17 153 97.000000 1.000000 4.000000 1.000000 -60.708740 114.000000 123.000000 0.918341 -0.269592 0.289775
0.89999998 19.62999916 -0.12000000 187 17 153 97.000000 1.000000 4.000000 1.000000 -60.708740 114.000000 105.000000 0.916067 0.351895 -0.192331
0.88000000 19.63999939 -0.15000001 187 17 153 97.000000 1.000000 4.000000 1.000000 -60.708740 114.000000 105.000000 0.898831 0.438294 -0.001308
0.88999999 19.62000084 -0.12000000 187 17 153 97.000000 1.000000 4.000000 1.000000 -60.708740 114.000000 105.000000 0.944762 0.320985 0.066276
0.76999998 19.73999977 -0.04000000 187 17 153 97.000000 1.000000 4.000000 1.000000 -60.708740 114.000000 105.000000 0.297171 0.940814 0.162965
0.75999999 19.62999916 -0.05000000 187 17 153 97.000000 1.000000 4.000000 1.000000 -60.708740 114.000000 105.000000 0.921542 0.167425 0.350327
0.75999999 19.63999939 -0.10000000 187 17 153 97.000000 1.000000 4.000000 1.000000 -60.708740 114.000000 105.000000 0.866779 0.295041 0.402051
0.88000000 19.67000008 -0.31999999 187 17 153 97.000000 1.000000 4.000000 1.000000 -60.708740 114.000000 105.000000 0.676192 0.735731 -0.038275
0.76999998 19.73999977 -0.23999999 187 17 153 97.000000 1.000000 4.000000 1.000000 -60.708740 114.000000 105.000000 0.565538 0.823990 0.034738
0.76999998 19.73999977 -0.23999999 187 17 153 97.000000 1.000000 4.000000 1.000000 -60.708740 114.000000 105.000000 0.565538 0.823990 0.034738
0.75999999 19.70000076 -0.28999999 187 17 153 97.000000 1.000000 4.000000 1.000000 -60.708740 114.000000 105.000000 0.589963 0.760784 -0.270466
0.79000002 19.71999931 -0.34999999 187 17 153 97.000000 1.000000 4.000000 1.000000 -60.708740 114.000000 105.000000 0.449398 0.867443 0.213502
0.82999998 19.60000038 -0.04000000 187 17 153 97.000000 1.000000 4.000000 1.000000 -60.708740 114.000000 105.000000 0.851447 -0.404786 0.333445
0.87000000 19.60000038 -0.31999999 187 17 153 97.000000 1.000000 4.000000 1.000000 -60.708740 114.000000 105.000000 0.919289 0.038249 0.391720
0.87000000 19.59000015 -0.31000000 187 17 153 97.000000 1.000000 4.000000 1.000000 -60.708740 114.000000 105.000000 0.969574 0.201087 0.139608
0.82999998 19.56999969 -0.31999999 187 17 153 97.000000 1.000000 4.000000 1.000000 -60.708740 114.000000 105.000000 0.967611 -0.169235 0.187321
0.75999999 19.59000015 -0.28999999 187 17 153 97.000000 1.000000 4.000000 1.000000 -60.708740 114.000000 105.000000 0.995790 0.075755 -0.051601
0.79000002 19.56999969 -0.31999999 187 17 153 97.000000 1.000000 4.000000 1.000000 -60.708740 114.000000 105.000000 0.975352 -0.179044 0.128962
0.73000002 19.72999954 -0.04000000 187 17 153 97.000000 1.000000 4.000000 1.000000 -60.708740 114.000000 105.000000 -0.265564 0.934392 -0.237462
0.75000000 19.75000000 -0.03000000 187 17 153 97.000000 1.000000 4.000000 1.000000 -60.708740 114.000000 105.000000 0.001251 0.939829 -0.341642
0.75000000 19.75000000 -0.03000000 187 17 153 97.000000 1.000000 4.000000 1.000000 -60.708740 114.000000 105.000000 0.001251 0.939829 -0.341642
0.73000002 19.76000023 -0.07000000 187 17 153 97.000000 1.000000 4.000000 1.000000 -60.708740 114.000000 105.000000 0.050812 0.998617 0.013481
0.69000000 19.70000076 -0.08000000 187 17 153 97.000000 1.000000 4.000000 1.000000 -60.708740 114.000000 105.000000 -0.442477 0.896771 -0.003939
0.73000002 19.69000053 -0.16000000 187 17 153 97.000000 1.000000 4.000000 1.000000 -60.708740 114.000000 105.000000 0.164603 0.903167 -0.396478
0.74000001 19.64999962 -0.08000000 187 17 153 97.000000 1.000000 4.000000 1.000000 -60.708740 114.000000 105.000000 0.712082 0.687995 0.140008
0.72000003 19.68000031 -0.04000000 187 17 153 97.000000 1.000000 4.000000 1.000000 -60.708740 114.000000 105.000000 0.265940 0.962629 -0.051190
0.73000002 19.67000008 -0.04000000 187 17 153 97.000000 1.000000 4.000000 1.000000 -60.708740 114.000000 105.000000 0.390423 0.910987 -0.132940
0.73000002 19.68000031 -0.18000001 187 17 153 97.000000 1.000000 4.000000 1.000000 -60.708740 114.000000 105.000000 0.286184 0.897106 -0.336600
0.73000002 19.68000031 -0.16000000 187 17 153 97.000000 1.000000 4.000000 1.000000 -60.708740 114.000000 105.000000 0.156281 0.976443 0.148779
0.74000001 19.68000031 -0.18000001 187 17 153 97.000000 1.000000 4.000000 1.000000 -60.708740 114.000000 105.000000 -0.053940 0.962133 -0.267190
0.73000002 19.68000031 -0.16000000 187 17 153 97.000000 1.000000 4.000000 1.000000 -60.708740 114.000000 105.000000 0.156281 0.976443 0.148779
0.74000001 19.68000031 -0.31999999 187 17 153 97.000000 1.000000 4.000000 1.000000 -60.708740 114.000000 105.000000 0.355809 0.930475 0.087274
0.85000002 19.70999908 -0.41000000 187 17 153 97.000000 1.000000 4.000000 1.000000 -60.708740 114.000000 105.000000 0.753849 0.545441 -0.366341
0.82999998 19.71999931 -0.41999999 187 17 153 97.000000 1.000000 4.000000 1.000000 -60.708740 114.000000 105.000000 0.767198 0.614064 -0.185291
0.80000001 19.71999931 -0.41999999 187 17 153 97.000000 1.000000 4.000000 1.000000 -60.708740 114.000000 105.000000 0.572459 0.774318 -0.269671
0.75999999 19.70999908 -0.41000000 187 17 153 97.000000 1.000000 4.000000 1.000000 -60.708740 114.000000 105.000000 0.491060 0.853049 -0.176544
0.83999997 19.70000076 -0.46000001 187 17 153 97.000000 1.000000 4.000000 1.000000 -60.708740 114.000000 105.000000 0.671588 0.615208 -0.412902
0.81999999 19.71999931 -0.44999999 187 17 153 97.000000 1.000000 4.000000 1.000000 -60.708740 114.000000 105.000000 0.520185 0.758264 -0.392993
0.81999999 19.69000053 -0.50000000 187 17 153 97.000000 1.000000 4.000000 1.000000 -60.708740 114.000000 105.000000 0.513244 0.715885 -0.473381
0.79000002 19.69000053 -0.50999999 187 17 153 97.000000 1.000000 4.000000 1.000000 -60.708740 114.000000 105.000000 0.340216 0.818100 -0.463643
0.75999999 19.68000031 -0.46000001 187 17 153 97.000000 1.000000 4.000000 1.000000 -60.708740 114.000000 105.000000 0.396280 0.841115 -0.368086
0.76999998 19.69000053 -0.55000001 187 17 153 97.000000 1.000000 4.000000 1.000000 -60.708740 114.000000 105.000000 -0.028582 0.864264 -0.502226
0.82999998 19.62999916 -0.60000002 187 17 153 97.000000 1.000000 4.000000 1.000000 -60.708740 114.000000 105.000000 0.621704 0.628407 -0.467535
0.83999997 19.64999962 -0.57999998 187 17 153 97.000000 1.000000 4.000000 1.000000 -60.708740 114.000000 105.000000 0.639720 0.596065 -0.485247
0.76999998 19.65999985 -0.60000002 187 17 153 97.000000 1.000000 4.000000 1.000000 -60.708740 114.000000 105.000000 0.101928 0.895011 -0.434241
0.83999997 19.61000061 -0.62000000 187 17 153 97.000000 1.000000 4.000000 1.000000 -60.708740 114.000000 105.000000 0.791706 0.513409 -0.331077
0.82999998 19.62000084 -0.61000001 187 17 153 97.000000 1.000000 4.000000 1.000000 -60.708740 114.000000 105.000000 0.448306 0.861894 -0.236983
0.77999997 19.65999985 -0.63000000 187 17 153 97.000000 1.000000 4.000000 1.000000 -60.708740 114.000000 105.000000 0.215843 0.975515 -0.042204
0.77999997 19.65999985 -0.63000000 187 17 153 97.000000 1.000000 4.000000 1.000000 -60.708740 114.000000 105.000000 0.215843 0.975515 -0.042204
0.76999998 19.68000031 -0.66000003 187 17 153 97.000000 1.000000 4.000000 1.000000 -60.708740 114.000000 105.000000 0.304208 0.888646 -0.343170
0.79000002 19.63999939 -0.67000002 187 17 153 97.000000 1.000000 4.000000 1.000000 -60.708740 114.000000 105.000000 0.033869 0.881959 -0.470107
0.85000002 19.57999992 -0.37000000 187 17 153 97.000000 1.000000 4.000000 1.000000 -60.708740 114.000000 105.000000 0.939486 -0.111556 -0.323914
0.87000000 19.54000092 -0.38999999 187 17 153 97.000000 1.000000 4.000000 1.000000 -60.708740 114.000000 105.000000 0.917359 -0.374460 -0.135028
0.79000002 19.54000092 -0.40000001 187 17 153 97.000000 1.000000 4.000000 1.000000 -60.708740 114.000000 105.000000 0.539630 -0.776619 0.325059
0.75999999 19.52000046 -0.47999999 187 17 153 97.000000 1.000000 4.000000 1.000000 -60.708740 114.000000 105.000000 -0.155368 0.936335 -0.314861
0.85000002 19.54999924 -0.67000002 187 17 153 97.000000 1.000000 4.000000 1.000000 -60.708740 114.000000 105.000000 0.977876 0.201363 -0.056671
0.83999997 19.52000046 -0.55000001 187 17 153 97.000000 1.000000 4.000000 1.000000 -60.708740 114.000000 105.000000 0.885442 -0.277169 0.373054
0.83999997 19.54999924 -0.66000003 187 17 153 97.000000 1.000000 4.000000 1.000000 -60.708740 114.000000 105.000000 0.911128 0.411772 -0.016994
0.83999997 19.59000015 -0.67000002 187 17 153 97.000000 1.000000 4.000000 1.000000 -60.708740 114.000000 105.000000 0.853879 0.453671 -0.255094
0.83999997 19.59000015 -0.64999998 187 17 153 97.000000 1.000000 4.000000 1.000000 -60.708740 114.000000 105.000000 0.944432 0.261809 -0.198756
0.80000001 19.51000023 -0.56000000 187 17 153 97.000000 1.000000 4.000000 1.000000 -60.708740 114.000000 105.000000 -0.478389 0.830558 -0.285163
0.81000000 19.51000023 -0.57999998 187 17 153 97.000000 1.000000 4.000000 1.000000 -60.708740 114.000000 105.000000 0.685668 -0.521376 0.507964
0.81999999 19.51000023 -0.66000003 187 17 153 97.000000 1.000000 4.000000 1.000000 -60.708740 114.000000 105.000000 0.867536 -0.485763 0.106839
0.81999999 19.48999977 -0.68000001 187 17 153 97.000000 1.000000 4.000000 1.000000 -60.708740 114.000000 105.000000 -0.625668 0.779636 0.026594
0.80000001 19.47999954 -0.66000003 187 17 153 97.000000 1.000000 4.000000 1.000000 -60.708740 114.000000 105.000000 -0.557691 0.792014 -0.248383
0.80000001 19.45000076 -0.64999998 187 17 153 97.000000 1.000000 4.000000 1.000000 -60.708740 114.000000 105.000000 -0.465338 0.860352 0.207981
0.75000000 19.64999962 -0.36000001 187 17 153 97.000000 1.000000 4.000000 1.000000 -60.708740 114.000000 105.000000 0.027851 0.903171 -0.428376
0.75000000 19.68000031 -0.36000001 187 17 153 97.000000 1.000000 4.000000 1.000000 -60.708740 114.000000 105.000000 -0.168613 0.984935 -0.038374
0.72000003 19.65999985 -0.50000000 187 17 153 97.000000 1.000000 4.000000 1.000000 -60.708740 114.000000 105.000000 -0.426589 0.904368 0.011813
0.69000000 19.61000061 -0.50000000 187 17 153 97.000000 1.000000 4.000000 1.000000 -60.708740 114.000000 105.000000 0.828470 -0.536944 0.159150
0.74000001 19.64999962 -0.57999998 187 17 153 97.000000 1.000000 4.000000 1.000000 -60.708740 114.000000 105.000000 -0.357581 0.933324 0.032273
0.74000001 19.63999939 -0.58999997 187 17 153 97.000000 1.000000 4.000000 1.000000 -60.708740 114.000000 105.000000 0.182211 0.983012 -0.022051
0.73000002 19.64999962 -0.56999999 187 17 153 97.000000 1.000000 4.000000 1.000000 -60.708740 114.000000 105.000000 -0.466949 0.874990 0.127872
0.69999999 19.62000084 -0.64999998 187 17 153 97.000000 1.000000 4.000000 1.000000 -60.708740 114.000000 105.000000 0.774661 -0.626968 0.082534
0.73000002 19.63999939 -0.64999998 187 17 153 97.000000 1.000000 4.000000 1.000000 -60.708740 114.000000 105.000000 -0.404749 0.778613 -0.479521
0.74000001 19.62999916 -0.69000000 187 17 153 97.000000 1.000000 4.000000 1.000000 -60.708740 114.000000 105.000000 -0.208421 0.829119 -0.518770
0.73000002 19.63999939 -0.64999998 187 17 153 97.000000 1.000000 4.000000 1.000000 -60.708740 114.000000 105.000000 -0.404749 0.778613 -0.479521
0.68000001 19.61000061 -0.68000001 187 17 153 97.000000 1.000000 4.000000 1.000000 -60.708740 114.000000 105.000000 -0.647303 0.761944 -0.020971
0.72000003 19.53000069 -0.55000001 187 17 153 97.000000 1.000000 4.000000 1.000000 -60.708740 114.000000 105.000000 0.844633 0.354403 -0.401240
0.69000000 19.57999992 -0.67000002 187 17 153 97.000000 1.000000 4.000000 1.000000 -60.708740 114.000000 105.000000 -0.662897 0.748699 0.004152
0.76999998 19.61000061 -0.76999998 187 17 153 97.000000 1.000000 4.000000 1.000000 -60.708740 114.000000 105.000000 -0.237484 0.916833 -0.320964
0.81000000 19.61000061 -0.69999999 187 17 153 97.000000 1.000000 4.000000 1.000000 -60.708740 114.000000 105.000000 0.792882 0.552046 -0.258038
0.85000002 19.54000092 -0.73000002 187 17 153 97.000000 1.000000 4.000000 1.000000 -60.708740 114.000000 105.000000 0.896903 0.428099 0.110885
0.81000000 19.59000015 -0.73000002 187 17 153 97.000000 1.000000 4.000000 1.000000 -60.708740 114.000000 105.000000 0.717276 0.664375 -0.210048
0.82999998 19.57999992 -0.69999999 187 17 153 97.000000 1.000000 4.000000 1.000000 -60.708740 114.000000 105.000000 0.798367 0.424183 -0.427409
0.82999998 19.55999947 -0.75000000 187 17 153 97.000000 1.000000 4.000000 1.000000 -60.708740 114.000000 105.000000 0.848813 0.479632 -0.222416
0.81000000 19.59000015 -0.76999998 187 17 153 97.000000 1.000000 4.000000 1.000000 -60.708740 114.000000 105.000000 0.266523 0.948390 -0.171820
0.83999997 19.54999924 -0.70999998 187 17 153 97.000000 1.000000 4.000000 1.000000 -60.708740 114.000000 105.000000 0.993598 0.112339 0.011997
0.80000001 19.59000015 -0.75999999 187 17 153 97.000000 1.000000 4.000000 1.000000 -60.708740 114.000000 105.000000 0.454252 0.881278 -0.130400
0.81000000 19.59000015 -0.75999999 187 17 153 97.000000 1.000000 4.000000 1.000000 -60.708740 114.000000 105.000000 0.352482 0.934275 -0.053724
0.79000002 19.59000015 -0.77999997 187 17 153 97.000000 1.000000 4.000000 1.000000 -60.708740 114.000000 105.000000 0.402509 0.787236 -0.467169
0.81000000 19.59000015 -0.81000000 187 17 153 97.000000 1.000000 4.000000 1.000000 -60.708740 114.000000 105.000000 0.418545 0.847981 -0.325189
0.82999998 19.52000046 -0.81999999 187 17 153 97.000000 1.000000 4.000000 1.000000 -60.708740 114.000000 105.000000 0.966935 0.129695 -0.219583
0.81999999 19.57999992 -0.82999998 187 17 153 97.000000 1.000000 4.000000 1.000000 -60.708740 114.000000 105.000000 0.291636 0.907150 -0.303360
0.77999997 19.57999992 -0.83999997 187 17 153 97.000000 1.000000 4.000000 1.000000 -60.708740 114.000000 105.000000 0.444588 0.895734 -0.001311
0.81999999 19.53000069 -0.79000002 187 17 153 97.000000 1.000000 4.000000 1.000000 -60.708740 114.000000 105.000000 0.989761 -0.063372 -0.127897
0.75999999 19.60000038 -0.79000002 187 17 153 97.000000 1.000000 4.000000 1.000000 -60.708740 114.000000 105.000000 -0.008247 0.974318 0.225024
0.76999998 19.59000015 -0.82999998 187 17 153 97.000000 1.000000 4.000000 1.000000 -60.708740 114.000000 105.000000 0.203878 0.958095 -0.201213
0.80000001 19.45000076 -0.76999998 187 17 153 97.000000 1.000000 4.000000 1.000000 -60.708740 114.000000 105.000000 0.748959 -0.613358 0.250704
0.80000001 19.46999931 -0.70999998 187 17 153 97.000000 1.000000 4.000000 1.000000 -60.708740 114.000000 105.000000 0.825786 -0.539076 0.165755
0.80000001 19.45000076 -0.76999998 187 17 153 97.000000 1.000000 4.000000 1.000000 -60.708740 114.000000 105.000000 0.748959 -0.613358 0.250704
0.82999998 19.46999931 -0.70999998 187 17 153 97.000000 1.000000 4.000000 1.000000 -60.708740 114.000000 105.000000 0.918878 -0.394539 0.001285
0.82999998 19.50000000 -0.82999998 187 17 153 97.000000 1.000000 4.000000 1.000000 -60.708740 114.000000 105.000000 0.933659 -0.333937 0.129486
0.81000000 19.47999954 -0.81999999 187 17 153 97.000000 1.000000 4.000000 1.000000 -60.708740 114.000000 105.000000 0.912362 -0.250936 0.323461
0.82999998 19.50000000 -0.81999999 187 17 153 97.000000 1.000000 4.000000 1.000000 -60.708740 114.000000 105.000000 0.972856 -0.085731 0.214948
0.82999998 19.51000023 -0.82999998 187 17 153 97.000000 1.000000 4.000000 1.000000 -60.708740 114.000000 105.000000 0.965842 0.252988 0.056081
0.77999997 19.57999992 -0.94000000 187 17 153 97.000000 1.000000 4.000000 1.000000 -60.708740 114.000000 105.000000 0.022580 0.896577 -0.442311
0.81000000 19.53000069 -0.91000003 187 17 153 97.000000 1.000000 4.000000 1.000000 -60.708740 114.000000 105.000000 0.685896 0.727634 0.009739
0.76999998 19.56999969 -0.91000003 187 17 153 97.000000 1.000000 4.000000 1.000000 -60.708740 114.000000 105.000000 0.081231 0.991940 -0.097249
0.76999998 19.56999969 -0.92000002 187 17 153 97.000000 1.000000 4.000000 1.000000 -60.708740 114.000000 105.000000 0.055065 0.998439 0.009351
0.79000002 19.56999969 -0.91000003 187 17 153 97.000000 1.000000 4.000000 1.000000 -60.708740 114.000000 105.000000 0.076217 0.995239 0.060753
0.81999999 19.52000046 -0.97000003 187 17 153 97.000000 1.000000 4.000000 1.000000 -60.708740 114.000000 105.000000 0.927038 0.324956 -0.187096
0.81999999 19.54000092 -0.94999999 187 17 153 97.000000 1.000000 4.000000 1.000000 -60.708740 114.000000 105.000000 0.688236 0.697515 -0.199511
0.75999999 19.55999947 -1.00000000 187 17 153 97.000000 1.000000 4.000000 1.000000 -60.708740 114.000000 105.000000 0.019205 0.999668 -0.017183
0.80000001 19.54999924 -1.00999999 187 17 153 97.000000 1.000000 4.000000 1.000000 -60.708740 114.000000 105.000000 0.295360 0.906652 -0.301238
0.81999999 19.52000046 -0.94999999 187 17 153 97.000000 1.000000 4.000000 1.000000 -60.708740 114.000000 105.000000 0.937837 0.276488 -0.209798
0.75999999 19.57999992 -0.97000003 187 17 153 97.000000 1.000000 4.000000 1.000000 -60.708740 114.000000 105.000000 -0.411721 0.898949 -0.149587
0.77999997 19.55999947 -1.00000000 187 17 153 97.000000 1.000000 4.000000 1.000000 -60.708740 114.000000 105.000000 0.249601 0.947938 -0.197771
0.81999999 19.48999977 -0.88000000 187 17 153 97.000000 1.000000 4.000000 1.000000 -60.708740 114.000000 105.000000 0.963008 0.003625 0.269449
0.82999998 19.48999977 -0.92000002 187 17 153 97.000000 1.000000 4.000000 1.000000 -60.708740 114.000000 105.000000 0.977049 -0.195410 0.084800
0.81000000 19.47999954 -0.86000001 187 17 153 97.000000 1.000000 4.000000 1.000000 -60.708740 114.000000 105.000000 0.741988 -0.590693 0.317075
0.83999997 19.51000023 -0.94000000 187 17 153 97.000000 1.000000 4.000000 1.000000 -60.708740 114.000000 105.000000 0.980491 0.001149 -0.196558
0.81999999 19.50000000 -0.89999998 187 17 153 97.000000 1.000000 4.000000 1.000000 -60.708740 114.000000 105.000000 0.926156 0.344001 0.154591
0.82999998 19.50000000 -0.98000002 187 17 153 97.000000 1.000000 4.000000 1.000000 -60.708740 114.000000 105.000000 0.856681 0.515632 -0.014887
0.83999997 19.48999977 -0.97000003 187 17 153 97.000000 1.000000 4.000000 1.000000 -60.708740 114.000000 105.000000 0.973163 0.060132 0.222122
0.69000000 19.61000061 -0.70999998 187 17 153 97.000000 1.000000 4.000000 1.000000 -60.708740 114.000000 105.000000 -0.626455 0.779249 0.018057
0.69999999 19.62000084 -0.70999998 187 17 153 97.000000 1.000000 4.000000 1.000000 -60.708740 114.000000 105.000000 -0.693505 0.702610 0.159339
0.72000003 19.61000061 -0.79000002 187 17 153 97.000000 1.000000 4.000000 1.000000 -60.708740 114.000000 105.000000 0.481274 -0.714418 0.507919
0.69000000 19.61000061 -0.70999998 187 17 153 97.000000 1.000000 4.000000 1.000000 -60.708740 114.000000 105.000000 -0.626455 0.779249 0.018057
0.73000002 19.60000038 -0.74000001 187 17 153 97.000000 1.000000 4.000000 1.000000 -60.708740 114.000000 105.000000 -0.391435 0.916961 -0.077204
0.75000000 19.60000038 -0.76999998 187 17 153 97.000000 1.000000 4.000000 1.000000 -60.708740 114.000000 105.000000 0.110738 0.898522 -0.424730
0.70999998 19.60000038 -0.72000003 187 17 153 97.000000 1.000000 4.000000 1.000000 -60.708740 114.000000 105.000000 -0.580920 0.791332 -0.190591
0.68000001 19.56999969 -0.70999998 187 17 153 97.000000 1.000000 4.000000 1.000000 -60.708740 114.000000 105.000000 0.827502 -0.545299 -0.133753
0.69000000 19.59000015 -0.73000002 187 17 153 97.000000 1.000000 4.000000 1.000000 -60.708740 114.000000 105.000000 0.851727 -0.517272 0.083614
0.69999999 19.55999947 -0.76999998 187 17 153 97.000000 1.000000 4.000000 1.000000 -60.708740 114.000000 105.000000 0.929244 -0.165787 0.330181
0.69000000 19.54000092 -0.76999998 187 17 153 97.000000 1.000000 4.000000 1.000000 -60.708740 114.000000 105.000000 0.758051 -0.568136 0.320281
0.69999999 19.59000015 -0.79000002 187 17 153 97.000000 1.000000 4.000000 1.000000 -60.708740 114.000000 105.000000 -0.494720 0.826601 -0.268296
0.75000000 19.60000038 -0.81000000 187 17 153 97.000000 1.000000 4.000000 1.000000 -60.708740 114.000000 105.000000 -0.298493 0.931915 -0.206002
0.74000001 19.59000015 -0.85000002 187 17 153 97.000000 1.000000 4.000000 1.000000 -60.708740 114.000000 105.000000 -0.437031 0.798268 -0.414454
0.69999999 19.57999992 -0.81000000 187 17 153 97.000000 1.000000 4.000000 1.000000 -60.708740 114.000000 105.000000 0.644929 -0.674468 0.359388
0.69999999 19.59000015 -0.79000002 187 17 153 97.000000 1.000000 4.000000 1.000000 -60.708740 114.000000 105.000000 -0.494720 0.826601 -0.268296
0.72000003 19.60000038 -0.85000002 187 17 153 97.000000 1.000000 4.000000 1.000000 -60.708740 114.000000 105.000000 -0.363339 0.747860 -0.555599
0.69000000 19.56999969 -0.80000001 187 17 153 97.000000 1.000000 4.000000 1.000000 -60.708740 114.000000 105.000000 -0.600616 0.799441 0.012427
0.69999999 19.56999969 -0.80000001 187 17 153 97.000000 1.000000 4.000000 1.000000 -60.708740 114.000000 105.000000 0.906974 -0.396360 0.142464
0.74000001 19.60000038 -0.79000002 187 17 153 97.000000 1.000000 4.000000 1.000000 -60.708740 114.000000 105.000000 -0.040338 0.987713 0.150981
0.69999999 19.45999908 -0.73000002 187 17 153 97.000000 1.000000 4.000000 1.000000 -60.708740 114.000000 105.000000 0.920151 0.385523 -0.068508
0.69000000 19.51000023 -0.79000002 187 17 153 97.000000 1.000000 4.000000 1.000000 -60.708740 114.000000 105.000000 0.946335 -0.204058 -0.250621
0.68000001 19.51000023 -0.81999999 187 17 153 97.000000 1.000000 4.000000 1.000000 -60.708740 114.000000 105.000000 0.992792 -0.114767 -0.034542
0.68000001 19.47999954 -0.85000002 187 17 153 97.000000 1.000000 4.000000 1.000000 -60.708740 114.000000 105.000000 0.977307 -0.115489 0.177579
0.67000002 19.53000069 -0.76999998 187 17 153 97.000000 1.000000 4.000000 1.000000 -60.708740 114.000000 105.000000 0.955291 -0.183555 0.231789
0.66000003 19.54999924 -0.73000002 187 17 153 97.000000 1.000000 4.000000 1.000000 -60.708740 114.000000 105.000000 0.837749 -0.413373 0.356790
0.67000002 19.47999954 -0.81999999 187 17 153 97.000000 1.000000 4.000000 1.000000 -60.708740 114.000000 105.000000 0.971794 0.093803 -0.216371
0.67000002 19.50000000 -0.82999998 187 17 153 97.000000 1.000000 4.000000 1.000000 -60.708740 114.000000 105.000000 0.953401 -0.144938 -0.264612
0.67000002 19.47999954 -0.80000001 187 17 153 97.000000 1.000000 4.000000 1.000000 -60.708740 114.000000 105.000000 0.984458 0.133425 0.114192
0.70999998 19.54999924 -0.92000002 187 17 153 97.000000 1.000000 4.000000 1.000000 -60.708740 114.000000 105.000000 0.688055 -0.568104 0.451484
0.73000002 19.57999992 -0.88999999 187 17 153 97.000000 1.000000 4.000000 1.000000 -60.708740 114.000000 105.000000 -0.204918 0.967884 0.145634
0.69000000 19.56999969 -0.86000001 187 17 153 97.000000 1.000000 4.000000 1.000000 -60.708740 114.000000 105.000000 -0.657881 0.751661 -0.046890
0.68000001 19.54000092 -0.97000003 187 17 153 97.000000 1.000000 4.000000 1.000000 -60.708740 114.000000 105.000000 0.829545 -0.554448 0.066647
0.68000001 19.51000023 -0.86000001 187 17 153 97.000000 1.000000 4.000000 1.000000 -60.708740 114.000000 105.000000 0.998469 0.007243 -0.054838
0.69000000 19.46999931 -0.86000001 187 17 153 97.000000 1.000000 4.000000 1.000000 -60.708740 114.000000 105.000000 0.926507 0.213592 -0.309779
0.68000001 19.46999931 -0.91000003 187 17 153 97.000000 1.000000 4.000000 1.000000 -60.708740 114.000000 105.000000 0.997596 0.011563 0.068328
0.69000000 19.44000053 -0.89999998 187 17 153 97.000000 1.000000 4.000000 1.000000 -60.708740 114.000000 105.000000 0.946832 0.244564 -0.209041
0.68000001 19.50000000 -0.87000000 187 17 153 97.000000 1.000000 4.000000 1.000000 -60.708740 114.000000 105.000000 0.992360 0.060109 0.107742
0.68000001 19.45999908 -1.01999998 187 17 153 97.000000 1.000000 4.000000 1.000000 -60.708740 114.000000 105.000000 0.985245 0.170501 0.014876
0.68000001 19.47999954 -1.01999998 187 17 153 97.000000 1.000000 4.000000 1.000000 -60.708740 114.000000 105.000000 0.954558 -0.236966 0.180737
0.68000001 19.50000000 -1.00999999 187 17 153 97.000000 1.000000 4.000000 1.000000 -60.708740 114.000000 105.000000 0.990728 -0.032686 0.131872
0.69000000 19.44000053 -1.00000000 187 17 153 97.000000 1.000000 4.000000 1.000000 -60.708740 114.000000 105.000000 0.949310 0.211109 -0.232901
0.68000001 19.50000000 -0.95999998 187 17 153 97.000000 1.000000 4.000000 1.000000 -60.708740 114.000000 105.000000 0.852662 -0.506949 0.126374
0.66000003 19.47999954 -0.95999998 187 17 153 97.000000 1.000000 4.000000 1.000000 -60.708740 114.000000 105.000000 0.962533 -0.246770 0.112403
0.79000002 19.54000092 -1.05999994 187 17 153 97.000000 1.000000 4.000000 1.000000 -60.708740 114.000000 105.000000 0.019896 0.979568 0.200127
0.81000000 19.53000069 -1.08000004 187 17 153 97.000000 1.000000 4.000000 1.000000 -60.708740 114.000000 105.000000 0.333854 0.908257 -0.252213
0.76999998 19.56999969 -1.04999995 187 17 153 97.000000 1.000000 4.000000 1.000000 -60.708740 114.000000 105.000000 -0.281045 0.913033 -0.295607
0.81000000 19.53000069 -1.05999994 187 17 153 97.000000 1.000000 4.000000 1.000000 -60.708740 114.000000 105.000000 0.667179 0.719567 -0.192604
0.82999998 19.44000053 -1.05999994 187 17 153 97.000000 1.000000 4.000000 1.000000 -60.708740 114.000000 105.000000 0.768157 -0.634058 0.088914
0.81000000 19.50000000 -1.11000001 187 17 153 97.000000 1.000000 4.000000 1.000000 -60.708740 114.000000 105.000000 0.458081 0.883942 -0.093858
0.82999998 19.51000023 -1.04999995 187 17 153 97.000000 1.000000 4.000000 1.000000 -60.708740 114.000000 105.000000 0.861652 0.500633 -0.083204
0.82999998 19.48999977 -1.03999996 187 17 153 97.000000 1.000000 4.000000 1.000000 -60.708740 114.000000 105.000000 0.955077 0.296234 0.008604
0.82999998 19.50000000 -1.09000003 187 17 153 97.000000 1.000000 4.000000 1.000000 -60.708740 114.000000 105.000000 0.782227 0.490714 -0.383825
0.81000000 19.51000023 -1.10000002 187 17 153 97.000000 1.000000 4.000000 1.000000 -60.708740 114.000000 105.000000 0.536020 0.742560 -0.401605
0.81000000 19.50000000 -1.15999997 187 17 153 97.000000 1.000000 4.000000 1.000000 -60.708740 114.000000 105.000000 0.554726 0.811683 -0.182893
0.81999999 19.48999977 -1.14999998 187 17 153 97.000000 1.000000 4.000000 1.000000 -60.708740 114.000000 105.000000 0.827633 0.561268 -0.001359
0.75999999 19.51000023 -1.21000004 187 17 153 97.000000 1.000000 4.000000 1.000000 -60.708740 114.000000 105.000000 -0.148155 0.967518 -0.204841
0.81999999 19.47999954 -1.20000005 187 17 153 97.000000 1.000000 4.000000 1.000000 -60.708740 114.000000 105.000000 0.663205 0.666464 -0.340565
0.68000001 19.54000092 -1.05999994 187 17 153 97.000000 1.000000 4.000000 1.000000 -60.708740 114.000000 105.000000 -0.679345 0.691955 -0.244312
0.73000002 19.53000069 -1.10000002 187 17 153 97.000000 1.000000 4.000000 1.000000 -60.708740 114.000000 105.000000 0.790005 -0.612911 0.015219
0.74000001 19.54000092 -1.09000003 187 17 153 97.000000 1.000000 4.000000 1.000000 -60.708740 114.000000 105.000000 -0.292780 0.953147 0.076097
0.69999999 19.52000046 -1.09000003 187 17 153 97.000000 1.000000 4.000000 1.000000 -60.708740 114.000000 105.000000 0.699474 -0.708273 0.095316
0.73000002 19.54000092 -1.11000001 187 17 153 97.000000 1.000000 4.000000 1.000000 -60.708740 114.000000 105.000000 -0.349583 0.922394 -0.164262
0.69999999 19.54999924 -1.15999997 187 17 153 97.000000 1.000000 4.000000 1.000000 -60.708740 114.000000 105.000000 -0.548503 0.822012 -0.153105
0.72000003 19.52000046 -1.17999995 187 17 153 97.000000 1.000000 4.000000 1.000000 -60.708740 114.000000 105.000000 -0.728202 0.664083 0.169456
0.74000001 19.52000046 -1.15999997 187 17 153 97.000000 1.000000 4.000000 1.000000 -60.708740 114.000000 105.000000 -0.407730 0.909551 0.080455
0.69999999 19.45000076 -1.03999996 187 17 153 97.000000 1.000000 4.000000 1.000000 -60.708740 114.000000 105.000000 0.959740 0.252013 0.124048
0.68000001 19.50000000 -1.03999996 187 17 153 97.000000 1.000000 4.000000 1.000000 -60.708740 114.000000 105.000000 0.932572 -0.359280 -0.035020
0.68000001 19.51000023 -1.04999995 187 17 153 97.000000 1.000000 4.000000 1.000000 -60.708740 114.000000 105.000000 0.954686 -0.289104 0.070670
0.68000001 19.51000023 -1.02999997 187 17 153 97.000000 1.000000 4.000000 1.000000 -60.708740 114.000000 105.000000 0.954144 -0.291508 -0.068061
0.73000002 19.51000023 -1.16999996 187 17 153 97.000000 1.000000 4.000000 1.000000 -60.708740 114.000000 105.000000 -0.520370 0.853625 -0.023219
0.67000002 19.50000000 -1.13000000 187 17 153 97.000000 1.000000 4.000000 1.000000 -60.708740 114.000000 105.000000 0.743676 -0.666891 0.046924
0.79000002 19.43000031 -0.81999999 187 17 153 97.000000 1.000000 4.000000 1.000000 -60.708740 114.000000 105.000000 -0.440859 0.858836 -0.260854
0.76999998 19.43000031 -0.77999997 187 17 153 97.000000 1.000000 4.000000 1.000000 -60.708740 114.000000 105.000000 -0.363568 0.899351 -0.242869
0.79000002 19.38999939 -1.00000000 187 17 153 97.000000 1.000000 4.000000 1.000000 -60.708740 114.000000 105.000000 -0.422087 0.883882 -0.201484
0.76999998 19.37999916 -0.97000003 187 17 153 97.000000 1.000000 4.000000 1.000000 -60.708740 114.000000 105.000000 -0.020199 0.876634 -0.480734
0.75000000 19.42000008 -0.77999997 187 17 153 97.000000 1.000000 4.000000 1.000000 -60.708740 114.000000 105.000000 -0.127967 0.990893 -0.041901
0.70999998 19.43000031 -0.92000002 187 17 153 97.000000 1.000000 4.000000 1.000000 -60.708740 114.000000 105.000000 0.841199 0.479591 0.249755
0.69999999 19.40999985 -1.01999998 187 17 153 97.000000 1.000000 4.000000 1.000000 -60.708740 114.000000 105.000000 0.877719 0.443988 -0.180233
0.69000000 19.43000031 -1.00999999 187 17 153 97.000000 1.000000 4.000000 1.000000 -60.708740 114.000000 105.000000 0.915565 0.366509 -0.165566
0.68000001 19.43000031 -1.03999996 187 17 153 97.000000 1.000000 4.000000 1.000000 -60.708740 114.000000 105.000000 0.987116 0.150340 0.054775
0.70999998 19.39999962 -1.05999994 187 17 153 97.000000 1.000000 4.000000 1.000000 -60.708740 114.000000 105.000000 0.809821 0.515340 0.280383
0.68000001 19.43000031 -1.03999996 187 17 153 97.000000 1.000000 4.000000 1.000000 -60.708740 114.000000 105.000000 0.987116 0.150340 0.054775
1.14999998 19.32999992 -1.39999998 187 17 153 97.000000 1.000000 4.000000 1.000000 -60.708740 114.000000 123.000000 0.905706 -0.286244 0.312667
1.13000000 19.29999924 -1.37000000 187 17 153 97.000000 1.000000 4.000000 1.000000 -60.708740 114.000000 123.000000 0.868793 -0.262306 0.419993
1.09000003 19.34000015 -1.38999999 187 17 153 97.000000 1.000000 4.000000 1.000000 -60.708740 114.000000 123.000000 0.918734 -0.378788 0.111570
0.77999997 19.78000069 0.07000000 187 17 153 97.000000 1.000000 4.000000 1.000000 -60.708740 114.000000 105.000000 0.713280 0.666457 -0.216950
0.77999997 19.79999924 0.13000000 187 17 153 97.000000 1.000000 4.000000 1.000000 -60.708740 114.000000 105.000000 0.404906 0.899951 0.161676
0.72000003 19.79000092 0.17000000 187 17 153 97.000000 1.000000 4.000000 1.000000 -60.708740 114.000000 105.000000 0.138345 0.957877 0.251657
0.73000002 19.77000046 0.18000001 187 17 153 97.000000 1.000000 4.000000 1.000000 -60.708740 114.000000 105.000000 0.203055 0.959535 0.195092
0.85000002 19.76000023 0.23999999 187 17 153 97.000000 1.000000 4.000000 1.000000 -60.708740 114.000000 105.000000 0.992715 0.109300 0.050706
0.77999997 19.73999977 0.07000000 187 17 153 97.000000 1.000000 4.000000 1.000000 -60.708740 114.000000 105.000000 0.764418 0.598716 0.239174
0.81999999 19.63999939 0.11000000 187 17 153 97.000000 1.000000 4.000000 1.000000 -60.708740 114.000000 105.000000 0.973709 -0.077946 -0.214043
0.81000000 19.62999916 0.05000000 187 17 153 97.000000 1.000000 4.000000 1.000000 -60.708740 114.000000 105.000000 0.957334 -0.219694 0.187739
0.73000002 19.70000076 0.27000001 187 17 153 97.000000 1.000000 4.000000 1.000000 -60.708740 114.000000 105.000000 0.794557 0.492786 -0.354742
0.72000003 19.75000000 0.09000000 187 17 153 97.000000 1.000000 4.000000 1.000000 -60.708740 114.000000 105.000000 0.149036 0.982665 -0.110262
1.10000002 19.35000038 -1.11000001 187 17 153 97.000000 1.000000 4.000000 1.000000 -60.708740 114.000000 123.000000 0.966469 0.076664 0.245073
1.10000002 19.35000038 -1.10000002 187 17 153 97.000000 1.000000 4.000000 1.000000 -60.708740 114.000000 123.000000 0.989264 -0.115356 0.089721
1.10000002 19.29999924 -1.13000000 187 17 153 97.000000 1.000000 4.000000 1.000000 -60.708740 114.000000 123.000000 0.830580 -0.553248 -0.063673
1.13999999 19.30999947 -1.30999994 187 17 153 97.000000 1.000000 4.000000 1.000000 -60.708740 114.000000 123.000000 0.739797 -0.671900 -0.035363
1.14999998 19.34000015 -1.32000005 187 17 153 97.000000 1.000000 4.000000 1.000000 -60.708740 114.000000 123.000000 0.847294 -0.219781 0.483518
0.80000001 19.77000046 -0.17000000 187 17 153 97.000000 1.000000 4.000000 1.000000 -60.708740 114.000000 105.000000 0.403459 0.818080 -0.409837
0.88000000 19.65999985 -0.13000000 187 17 153 97.000000 1.000000 4.000000 1.000000 -60.708740 114.000000 105.000000 0.887638 0.459309 0.033674
0.82999998 19.75000000 -0.09000000 187 17 153 97.000000 1.000000 4.000000 1.000000 -60.708740 114.000000 105.000000 0.659194 0.700693 0.272935
0.81999999 19.75000000 -0.06000000 187 17 153 97.000000 1.000000 4.000000 1.000000 -60.708740 114.000000 105.000000 0.639481 0.701001 0.315693
0.82999998 19.61000061 -0.03000000 187 17 153 97.000000 1.000000 4.000000 1.000000 -60.708740 114.000000 105.000000 0.926493 -0.193196 0.322933
0.75999999 19.62999916 -0.16000000 187 17 153 97.000000 1.000000 4.000000 1.000000 -60.708740 114.000000 105.000000 0.903686 0.226287 -0.363518
0.89999998 19.69000053 -0.19000000 187 17 153 97.000000 1.000000 4.000000 1.000000 -60.708740 114.000000 105.000000 0.690909 0.719757 0.067793
0.79000002 19.56999969 -0.31999999 187 17 153 97.000000 1.000000 4.000000 1.000000 -60.708740 114.000000 105.000000 0.975352 -0.179044 0.128962
0.73000002 19.67000008 -0.04000000 187 17 153 97.000000 1.000000 4.000000 1.000000 -60.708740 114.000000 105.000000 0.390423 0.910987 -0.132940
0.74000001 19.60000038 -0.20999999 187 17 153 97.000000 1.000000 4.000000 1.000000 -60.708740 114.000000 105.000000 0.727287 -0.563114 0.392374
0.76999998 19.72999954 -0.37000000 187 17 153 97.000000 1.000000 4.000000 1.000000 -60.708740 114.000000 105.000000 0.419950 0.904192 0.077971
0.80000001 19.70999908 -0.43000001 187 17 153 97.000000 1.000000 4.000000 1.000000 -60.708740 114.000000 105.000000 0.516295 0.855928 -0.028759
0.82999998 19.70000076 -0.46000001 187 17 153 97.000000 1.000000 4.000000 1.000000 -60.708740 114.000000 105.000000 0.552596 0.670170 -0.495489
0.82999998 19.67000008 -0.57999998 187 17 153 97.000000 1.000000 4.000000 1.000000 -60.708740 114.000000 105.000000 0.698371 0.599311 -0.391286
0.75999999 19.65999985 -0.63000000 187 17 153 97.000000 1.000000 4.000000 1.000000 -60.708740 114.000000 105.000000 -0.149666 0.981956 0.115596
0.87000000 19.60000038 -0.37000000 187 17 153 97.000000 1.000000 4.000000 1.000000 -60.708740 114.000000 105.000000 0.854278 0.376751 0.358146
0.88000000 19.56999969 -0.49000001 187 17 153 97.000000 1.000000 4.000000 1.000000 -60.708740 114.000000 105.000000 0.923819 0.270701 -0.270701
0.79000002 19.51000023 -0.50000000 187 17 153 97.000000 1.000000 4.000000 1.000000 -60.708740 114.000000 105.000000 0.780176 -0.625522 -0.006904
0.83999997 19.52000046 -0.55000001 187 17 153 97.000000 1.000000 4.000000 1.000000 -60.708740 114.000000 105.000000 0.885442 -0.277169 0.373054
0.81000000 19.52000046 -0.52999997 187 17 153 97.000000 1.000000 4.000000 1.000000 -60.708740 114.000000 105.000000 -0.580681 0.772667 -0.256507
0.75999999 19.52000046 -0.52999997 187 17 153 97.000000 1.000000 4.000000 1.000000 -60.708740 114.000000 105.000000 -0.197596 0.931922 -0.304101
0.83999997 19.52000046 -0.63000000 187 17 153 97.000000 1.000000 4.000000 1.000000 -60.708740 114.000000 105.000000 0.975267 -0.164852 0.147234
0.83999997 19.47999954 -0.64999998 187 17 153 97.000000 1.000000 4.000000 1.000000 -60.708740 114.000000 105.000000 0.856234 -0.471004 -0.212177
0.77999997 19.46999931 -0.63999999 187 17 153 97.000000 1.000000 4.000000 1.000000 -60.708740 114.000000 105.000000 -0.358934 0.913780 -0.190192
0.80000001 19.46999931 -0.66000003 187 17 153 97.000000 1.000000 4.000000 1.000000 -60.708740 114.000000 105.000000 -0.685473 0.725710 0.058919
0.73000002 19.68000031 -0.50999999 187 17 153 97.000000 1.000000 4.000000 1.000000 -60.708740 114.000000 105.000000 -0.168395 0.958658 0.229388
0.73000002 19.64999962 -0.61000001 187 17 153 97.000000 1.000000 4.000000 1.000000 -60.708740 114.000000 105.000000 -0.361391 0.927164 -0.098807
0.75000000 19.65999985 -0.56999999 187 17 153 97.000000 1.000000 4.000000 1.000000 -60.708740 114.000000 105.000000 0.108535 0.889425 -0.444008
0.69999999 19.54000092 -0.64999998 187 17 153 97.000000 1.000000 4.000000 1.000000 -60.708740 114.000000 105.000000 0.946852 0.107266 0.303258
0.69000000 19.55999947 -0.60000002 187 17 153 97.000000 1.000000 4.000000 1.000000 -60.708740 114.000000 105.000000 0.948115 -0.087861 0.305547
0.69999999 19.54999924 -0.64999998 187 17 153 97.000000 1.000000 4.000000 1.000000 -60.708740 114.000000 105.000000 0.935042 0.146916 0.322665
0.80000001 19.62000084 -0.69999999 187 17 153 97.000000 1.000000 4.000000 1.000000 -60.708740 114.000000 105.000000 0.546420 0.823352 0.153355
0.76999998 19.61000061 -0.73000002 187 17 153 97.000000 1.000000 4.000000 1.000000 -60.708740 114.000000 105.000000 0.011914 0.893568 -0.448770
0.82999998 19.52000046 -0.75000000 187 17 153 97.000000 1.000000 4.000000 1.000000 -60.708740 114.000000 105.000000 0.889646 -0.337555 0.307550
0.81999999 19.55999947 -0.76999998 187 17 153 97.000000 1.000000 4.000000 1.000000 -60.708740 114.000000 105.000000 0.718621 0.628592 -0.297416
0.77999997 19.60000038 -0.70999998 187 17 153 97.000000 1.000000 4.000000 1.000000 -60.708740 114.000000 105.000000 0.215226 0.976245 0.024971
0.80000001 19.59000015 -0.77999997 187 17 153 97.000000 1.000000 4.000000 1.000000 -60.708740 114.000000 105.000000 0.453871 0.837556 -0.304140
0.82999998 19.52000046 -0.80000001 187 17 153 97.000000 1.000000 4.000000 1.000000 -60.708740 114.000000 105.000000 0.996844 -0.072048 0.033336
0.75999999 19.59000015 -0.85000002 187 17 153 97.000000 1.000000 4.000000 1.000000 -60.708740 114.000000 105.000000 0.050193 0.998739 -0.001024
0.77999997 19.44000053 -0.76999998 187 17 153 97.000000 1.000000 4.000000 1.000000 -60.708740 114.000000 105.000000 -0.258648 0.917551 -0.301997
0.81000000 19.47999954 -0.85000002 187 17 153 97.000000 1.000000 4.000000 1.000000 -60.708740 114.000000 105.000000 0.885436 -0.446283 -0.129750
0.81000000 19.46999931 -0.81999999 187 17 153 97.000000 1.000000 4.000000 1.000000 -60.708740 114.000000 105.000000 0.891366 -0.364582 0.269344
0.80000001 19.45999908 -0.81000000 187 17 153 97.000000 1.000000 4.000000 1.000000 -60.708740 114.000000 105.000000 0.811193 -0.574412 0.109621
0.80000001 19.46999931 -0.81999999 187 17 153 97.000000 1.000000 4.000000 1.000000 -60.708740 114.000000 105.000000 0.811564 -0.578041 0.085048
0.79000002 19.44000053 -0.81000000 187 17 153 97.000000 1.000000 4.000000 1.000000 -60.708740 114.000000 105.000000 -0.610551 0.729762 -0.307692
0.82999998 19.48999977 -0.80000001 187 17 153 97.000000 1.000000 4.000000 1.000000 -60.708740 114.000000 105.000000 0.972891 -0.103925 -0.206598
0.77999997 19.59000015 -0.92000002 187 17 153 97.000000 1.000000 4.000000 1.000000 -60.708740 114.000000 105.000000 0.375233 0.896144 -0.236912
0.79000002 19.56999969 -0.88000000 187 17 153 97.000000 1.000000 4.000000 1.000000 -60.708740 114.000000 105.000000 0.268838 0.941623 -0.202663
0.80000001 19.56999969 -0.88000000 187 17 153 97.000000 1.000000 4.000000 1.000000 -60.708740 114.000000 105.000000 0.525522 0.818335 -0.232709
0.79000002 19.56999969 -0.88999999 187 17 153 97.000000 1.000000 4.000000 1.000000 -60.708740 114.000000 105.000000 0.127707 0.991672 -0.016657
0.75999999 19.56999969 -0.93000001 187 17 153 97.000000 1.000000 4.000000 1.000000 -60.708740 114.000000 105.000000 0.126551 0.990748 0.049024
0.81000000 19.56999969 -0.87000000 187 17 153 97.000000 1.000000 4.000000 1.000000 -60.708740 114.000000 105.000000 0.674606 0.730700 -0.104807
0.75999999 19.59000015 -0.88000000 187 17 153 97.000000 1.000000 4.000000 1.000000 -60.708740 114.000000 105.000000 -0.265796 0.819150 -0.508277
0.82999998 19.54999924 -0.97000003 187 17 153 97.000000 1.000000 4.000000 1.000000 -60.708740 114.000000 105.000000 0.781128 0.582352 0.225176
0.81000000 19.53000069 -1.00000000 187 17 153 97.000000 1.000000 4.000000 1.000000 -60.708740 114.000000 105.000000 0.555333 0.817367 -0.153349
0.82999998 19.52000046 -1.00000000 187 17 153 97.000000 1.000000 4.000000 1.000000 -60.708740 114.000000 105.000000 0.945613 0.280835 0.164159
0.76999998 19.57999992 -0.98000002 187 17 153 97.000000 1.000000 4.000000 1.000000 -60.708740 114.000000 105.000000 0.082305 0.880246 -0.467325
0.83999997 19.48999977 -0.93000001 187 17 153 97.000000 1.000000 4.000000 1.000000 -60.708740 114.000000 105.000000 0.987405 0.023972 -0.156387
0.81999999 19.47999954 -0.87000000 187 17 153 97.000000 1.000000 4.000000 1.000000 -60.708740 114.000000 105.000000 -0.701855 0.692720 -0.165948
0.83999997 19.47999954 -0.98000002 187 17 153 97.000000 1.000000 4.000000 1.000000 -60.708740 114.000000 105.000000 0.976644 -0.133462 0.168387
0.82999998 19.50000000 -0.98000002 187 17 153 97.000000 1.000000 4.000000 1.000000 -60.708740 114.000000 105.000000 0.856681 0.515632 -0.014887
0.81000000 19.48999977 -1.01999998 187 17 153 97.000000 1.000000 4.000000 1.000000 -60.708740 114.000000 105.000000 0.717100 0.647448 -0.258029
0.74000001 19.62000084 -0.73000002 187 17 153 97.000000 1.000000 4.000000 1.000000 -60.708740 114.000000 105.000000 -0.311124 0.916008 -0.253241
0.72000003 19.61000061 -0.79000002 187 17 153 97.000000 1.000000 4.000000 1.000000 -60.708740 114.000000 105.000000 0.481274 -0.714418 0.507919
0.73000002 19.60000038 -0.74000001 187 17 153 97.000000 1.000000 4.000000 1.000000 -60.708740 114.000000 105.000000 -0.391435 0.916961 -0.077204
0.70999998 19.60000038 -0.72000003 187 17 153 97.000000 1.000000 4.000000 1.000000 -60.708740 114.000000 105.000000 -0.580920 0.791332 -0.190591
0.69999999 19.59000015 -0.70999998 187 17 153 97.000000 1.000000 4.000000 1.000000 -60.708740 114.000000 105.000000 0.732422 -0.673711 0.098341
0.69000000 19.54000092 -0.72000003 187 17 153 97.000000 1.000000 4.000000 1.000000 -60.708740 114.000000 105.000000 0.964985 -0.170598 -0.199248
0.72000003 19.59000015 -0.85000002 187 17 153 97.000000 1.000000 4.000000 1.000000 -60.708740 114.000000 105.000000 -0.503657 0.839428 -0.204185
0.73000002 19.59000015 -0.79000002 187 17 153 97.000000 1.000000 4.000000 1.000000 -60.708740 114.000000 105.000000 -0.341822 0.939696 -0.011352
0.69000000 19.56999969 -0.85000002 187 17 153 97.000000 1.000000 4.000000 1.000000 -60.708740 114.000000 105.000000 0.737318 -0.666394 0.110819
0.73000002 19.59000015 -0.79000002 187 17 153 97.000000 1.000000 4.000000 1.000000 -60.708740 114.000000 105.000000 -0.341822 0.939696 -0.011352
0.75000000 19.60000038 -0.81999999 187 17 153 97.000000 1.000000 4.000000 1.000000 -60.708740 114.000000 105.000000 -0.258294 0.965205 -0.040783
0.70999998 19.57999992 -0.85000002 187 17 153 97.000000 1.000000 4.000000 1.000000 -60.708740 114.000000 105.000000 -0.681532 0.665421 -0.304514
0.69999999 19.48999977 -0.73000002 187 17 153 97.000000 1.000000 4.000000 1.000000 -60.708740 114.000000 105.000000 0.933132 0.290464 -0.211884
0.67000002 19.46999931 -0.82999998 187 17 153 97.000000 1.000000 4.000000 1.000000 -60.708740 114.000000 105.000000 0.985069 0.082188 0.151274
0.70999998 19.54999924 -0.94999999 187 17 153 97.000000 1.000000 4.000000 1.000000 -60.708740 114.000000 105.000000 0.829791 -0.520326 -0.201759
0.70999998 19.57999992 -1.00999999 187 17 153 97.000000 1.000000 4.000000 1.000000 -60.708740 114.000000 105.000000 -0.701936 0.701936 0.120715
0.68000001 19.48999977 -0.88999999 187 17 153 97.000000 1.000000 4.000000 1.000000 -60.708740 114.000000 105.000000 0.979045 0.081689 -0.186543
0.68000001 19.46999931 -0.94000000 187 17 153 97.000000 1.000000 4.000000 1.000000 -60.708740 114.000000 105.000000 0.985576 0.167144 -0.026513
0.68000001 19.46999931 -0.98000002 187 17 153 97.000000 1.000000 4.000000 1.000000 -60.708740 114.000000 105.000000 0.989518 0.128464 0.065968
0.69000000 19.50000000 -1.01999998 187 17 153 97.000000 1.000000 4.000000 1.000000 -60.708740 114.000000 105.000000 0.985440 -0.146211 -0.086776
0.67000002 19.50000000 -0.91000003 187 17 153 97.000000 1.000000 4.000000 1.000000 -60.708740 114.000000 105.000000 0.949820 -0.112287 -0.291947
0.67000002 19.46999931 -0.89999998 187 17 153 97.000000 1.000000 4.000000 1.000000 -60.708740 114.000000 105.000000 0.963409 0.018316 -0.267410
0.67000002 19.51000023 -0.99000001 187 17 153 97.000000 1.000000 4.000000 1.000000 -60.708740 114.000000 105.000000 0.863183 -0.500618 -0.065541
0.77999997 19.53000069 -1.12000000 187 17 153 97.000000 1.000000 4.000000 1.000000 -60.708740 114.000000 105.000000 0.075413 0.982764 -0.168782
0.76999998 19.54000092 -1.14999998 187 17 153 97.000000 1.000000 4.000000 1.000000 -60.708740 114.000000 105.000000 -0.302790 0.871853 -0.384954
0.81999999 19.51000023 -1.10000002 187 17 153 97.000000 1.000000 4.000000 1.000000 -60.708740 114.000000 105.000000 0.756927 0.584826 -0.291616
0.75999999 19.55999947 -1.11000001 187 17 153 97.000000 1.000000 4.000000 1.000000 -60.708740 114.000000 105.000000 0.019973 0.893448 -0.448721
0.82999998 19.46999931 -1.12000000 187 17 153 97.000000 1.000000 4.000000 1.000000 -60.708740 114.000000 105.000000 0.830983 0.556256 0.006800
0.74000001 19.54000092 -1.07000005 187 17 153 97.000000 1.000000 4.000000 1.000000 -60.708740 114.000000 105.000000 -0.256313 0.845678 -0.468116
0.69999999 19.53000069 -1.02999997 187 17 153 97.000000 1.000000 4.000000 1.000000 -60.708740 114.000000 105.000000 -0.609255 0.791038 -0.055387
0.73000002 19.53000069 -1.10000002 187 17 153 97.000000 1.000000 4.000000 1.000000 -60.708740 114.000000 105.000000 0.790005 -0.612911 0.015219
0.69999999 19.53000069 -1.07000005 187 17 153 97.000000 1.000000 4.000000 1.000000 -60.708740 114.000000 105.000000 0.745695 -0.598792 0.292210
0.69999999 19.54000092 -1.07000005 187 17 153 97.000000 1.000000 4.000000 1.000000 -60.708740 114.000000 105.000000 -0.506118 0.856836 0.098372
0.69000000 19.48999977 -1.05999994 187 17 153 97.000000 1.000000 4.000000 1.000000 -60.708740 114.000000 105.000000 0.993570 -0.097673 0.057257
0.67000002 19.45999908 -1.04999995 187 17 153 97.000000 1.000000 4.000000 1.000000 -60.708740 114.000000 105.000000 0.961526 0.147826 0.231551
0.67000002 19.44000053 -1.03999996 187 17 153 97.000000 1.000000 4.000000 1.000000 -60.708740 114.000000 105.000000 0.972571 0.196032 -0.125207
0.73000002 19.51000023 -1.24000001 187 17 153 97.000000 1.000000 4.000000 1.000000 -60.708740 114.000000 105.000000 -0.548815 0.813341 -0.193074
0.70999998 19.51000023 -1.20000005 187 17 153 97.000000 1.000000 4.000000 1.000000 -60.708740 114.000000 105.000000 -0.654720 0.750960 0.086032
0.66000003 19.47999954 -1.23000002 187 17 153 97.000000 1.000000 4.000000 1.000000 -60.708740 114.000000 105.000000 0.765404 -0.607685 0.211839
0.81000000 19.43000031 -0.88999999 187 17 153 97.000000 1.000000 4.000000 1.000000 -60.708740 114.000000 105.000000 -0.671273 0.741051 -0.015351
0.81000000 19.36000061 -0.97000003 187 17 153 97.000000 1.000000 4.000000 1.000000 -60.708740 114.000000 105.000000 -0.467013 0.843089 -0.266644
0.75999999 19.37999916 -0.95999998 187 17 153 97.000000 1.000000 4.000000 1.000000 -60.708740 114.000000 105.000000 -0.216898 0.971655 -0.094031
