//X Y Z R G B PointSourceId ScanDirectionFlag NumberOfReturns ReturnNumber GpsTime Intensity Classification Nx Ny Nz
5.42000008 10.68999958 -0.70999998 188 203 60 97.000000 1.000000 4.000000 1.000000 -60.708740 114.000000 130.000000 0.559938 0.610687 0.559938
5.42000008 10.63000011 -0.74000001 188 203 60 97.000000 1.000000 4.000000 1.000000 -60.708740 114.000000 130.000000 0.981707 0.189371 0.019750
5.40000010 10.67000008 -0.72000003 188 203 60 97.000000 1.000000 4.000000 1.000000 -60.708740 114.000000 130.000000 0.704944 0.394571 0.589379
5.38999987 10.67000008 -0.73000002 188 203 60 97.000000 1.000000 4.000000 1.000000 -60.708740 114.000000 130.000000 0.743797 0.667871 0.026715
5.40000010 10.67000008 -0.73000002 188 203 60 97.000000 1.000000 4.000000 1.000000 -60.708740 114.000000 130.000000 0.835518 0.527929 0.152316
5.38000011 10.68000031 -0.69999999 188 203 60 97.000000 1.000000 4.000000 1.000000 -60.708740 114.000000 130.000000 0.328908 0.829352 0.451658
5.40000010 10.67000008 -0.72000003 188 203 60 97.000000 1.000000 4.000000 1.000000 -60.708740 114.000000 130.000000 0.704944 0.394571 0.589379
5.38000011 10.68000031 -0.69999999 188 203 60 97.000000 1.000000 4.000000 1.000000 -60.708740 114.000000 130.000000 0.328908 0.829352 0.451658
5.40000010 10.67000008 -0.74000001 188 203 60 97.000000 1.000000 4.000000 1.000000 -60.708740 114.000000 130.000000 0.932508 0.352517 0.078485
5.38999987 10.68999958 -0.75999999 188 203 60 97.000000 1.000000 4.000000 1.000000 -60.708740 114.000000 130.000000 0.572346 0.698427 0.429674
5.40000010 10.67000008 -0.76999998 188 203 60 97.000000 1.000000 4.000000 1.000000 -60.708740 114.000000 130.000000 0.892290 0.449520 0.041847
5.40000010 10.65999985 -0.73000002 188 203 60 97.000000 1.000000 4.000000 1.000000 -60.708740 114.000000 130.000000 0.883677 0.466874 -0.033831
5.40999985 10.64999962 -0.73000002 188 203 60 97.000000 1.000000 4.000000 1.000000 -60.708740 114.000000 130.000000 0.899565 0.288987 0.327519
5.40999985 10.65999985 -0.73000002 188 203 60 97.000000 1.000000 4.000000 1.000000 -60.708740 114.000000 130.000000 0.679206 0.442235 0.585753
5.40000010 10.64000034 -0.75000000 188 203 60 97.000000 1.000000 4.000000 1.000000 -60.708740 114.000000 130.000000 0.869887 0.446134 0.210384
5.40000010 10.65999985 -0.75000000 188 203 60 97.000000 1.000000 4.000000 1.000000 -60.708740 114.000000 130.000000 0.968951 0.242546 0.048017
5.40000010 10.64999962 -0.75000000 188 203 60 97.000000 1.000000 4.000000 1.000000 -60.708740 114.000000 130.000000 0.945325 0.281557 0.164582
5.42000008 10.67000008 -0.80000001 188 203 60 97.000000 1.000000 4.000000 1.000000 -60.708740 114.000000 130.000000 0.790069 0.532542 0.303628
5.42000008 10.67000008 -0.79000002 188 203 60 97.000000 1.000000 4.000000 1.000000 -60.708740 114.000000 130.000000 0.829628 0.558113 0.015084
5.42999983 10.67000008 -0.83999997 188 203 60 97.000000 1.000000 4.000000 1.000000 -60.708740 114.000000 130.000000 0.965401 -0.013324 0.260428
5.42000008 10.68999958 -0.81999999 188 203 60 97.000000 1.000000 4.000000 1.000000 -60.708740 114.000000 130.000000 0.808560 0.577543 -0.112584
5.42999983 10.68000031 -0.82999998 188 203 60 97.000000 1.000000 4.000000 1.000000 -60.708740 114.000000 130.000000 0.820928 0.346403 0.453962
5.42999983 10.68000031 -0.82999998 188 203 60 97.000000 1.000000 4.000000 1.000000 -60.708740 114.000000 130.000000 0.820928 0.346403 0.453962
5.42000008 10.68000031 -0.81999999 188 203 60 97.000000 1.000000 4.000000 1.000000 -60.708740 114.000000 130.000000 0.853210 0.453316 0.257947
5.42999983 10.64000034 -0.82999998 188 203 60 97.000000 1.000000 4.000000 1.000000 -60.708740 114.000000 130.000000 0.976089 -0.123730 0.178721
5.44000006 10.64999962 -0.81999999 188 203 60 97.000000 1.000000 4.000000 1.000000 -60.708740 114.000000 130.000000 0.840695 0.539551 0.046008
5.40999985 10.68000031 -0.79000002 188 203 60 97.000000 1.000000 4.000000 1.000000 -60.708740 114.000000 130.000000 0.881974 0.375404 0.284945
5.40999985 10.69999981 -0.82999998 188 203 60 97.000000 1.000000 4.000000 1.000000 -60.708740 114.000000 130.000000 0.934674 0.135084 0.328842
5.40999985 10.69999981 -0.81999999 188 203 60 97.000000 1.000000 4.000000 1.000000 -60.708740 114.000000 130.000000 0.833153 0.494348 -0.247944
5.40999985 10.68999958 -0.81999999 188 203 60 97.000000 1.000000 4.000000 1.000000 -60.708740 114.000000 130.000000 0.922481 0.375223 -0.090758
5.40999985 10.69999981 -0.81999999 188 203 60 97.000000 1.000000 4.000000 1.000000 -60.708740 114.000000 130.000000 0.833153 0.494348 -0.247944
5.40999985 10.64000034 -0.81000000 188 203 60 97.000000 1.000000 4.000000 1.000000 -60.708740 114.000000 130.000000 0.977395 -0.128244 0.168087
5.40999985 10.64000034 -0.82999998 188 203 60 97.000000 1.000000 4.000000 1.000000 -60.708740 114.000000 130.000000 0.970663 -0.204819 0.125945
5.44000006 10.59000015 -0.73000002 188 203 60 97.000000 1.000000 4.000000 1.000000 -60.708740 114.000000 130.000000 0.947069 -0.042177 0.318246
5.42000008 10.61999989 -0.72000003 188 203 60 97.000000 1.000000 4.000000 1.000000 -60.708740 114.000000 130.000000 0.899048 0.168302 0.404212
5.44000006 10.57999992 -0.73000002 188 203 60 97.000000 1.000000 4.000000 1.000000 -60.708740 114.000000 130.000000 0.936028 -0.129060 -0.327406
5.42999983 10.60999966 -0.75999999 188 203 60 97.000000 1.000000 4.000000 1.000000 -60.708740 114.000000 130.000000 0.935585 0.248274 0.251079
5.42999983 10.60999966 -0.76999998 188 203 60 97.000000 1.000000 4.000000 1.000000 -60.708740 114.000000 130.000000 0.985676 0.003395 0.168617
5.42000008 10.53999996 -0.70999998 188 203 60 97.000000 1.000000 4.000000 1.000000 -60.708740 114.000000 130.000000 0.914414 0.014308 -0.404527
5.40999985 10.57999992 -0.73000002 188 203 60 97.000000 1.000000 4.000000 1.000000 -60.708740 114.000000 130.000000 0.984458 0.114192 -0.133425
5.40999985 10.57999992 -0.73000002 188 203 60 97.000000 1.000000 4.000000 1.000000 -60.708740 114.000000 130.000000 0.984458 0.114192 -0.133425
5.40000010 10.59000015 -0.73000002 188 203 60 97.000000 1.000000 4.000000 1.000000 -60.708740 114.000000 130.000000 0.913963 0.405186 -0.022292
5.40999985 10.55000019 -0.73000002 188 203 60 97.000000 1.000000 4.000000 1.000000 -60.708740 114.000000 130.000000 0.941600 -0.284542 -0.180072
5.40000010 10.56000042 -0.75000000 188 203 60 97.000000 1.000000 4.000000 1.000000 -60.708740 114.000000 130.000000 0.982314 -0.048466 -0.180859
5.40000010 10.56000042 -0.74000001 188 203 60 97.000000 1.000000 4.000000 1.000000 -60.708740 114.000000 130.000000 0.972173 -0.231239 -0.037531
5.40999985 10.56000042 -0.74000001 188 203 60 97.000000 1.000000 4.000000 1.000000 -60.708740 114.000000 130.000000 0.973523 -0.203702 0.103726
5.40000010 10.55000019 -0.74000001 188 203 60 97.000000 1.000000 4.000000 1.000000 -60.708740 114.000000 130.000000 0.927039 -0.372130 0.046023
5.42000008 10.60000038 -0.80000001 188 203 60 97.000000 1.000000 4.000000 1.000000 -60.708740 114.000000 130.000000 0.954358 -0.292567 -0.060047
5.44000006 10.59000015 -0.80000001 188 203 60 97.000000 1.000000 4.000000 1.000000 -60.708740 114.000000 130.000000 0.966551 0.203144 -0.156563
5.44000006 10.59000015 -0.81000000 188 203 60 97.000000 1.000000 4.000000 1.000000 -60.708740 114.000000 130.000000 0.890260 -0.111459 -0.441603
5.42000008 10.61999989 -0.81999999 188 203 60 97.000000 1.000000 4.000000 1.000000 -60.708740 114.000000 130.000000 0.973060 0.078093 0.216924
5.42000008 10.60000038 -0.81999999 188 203 60 97.000000 1.000000 4.000000 1.000000 -60.708740 114.000000 130.000000 0.957976 0.006102 0.286783
5.42999983 10.60000038 -0.81999999 188 203 60 97.000000 1.000000 4.000000 1.000000 -60.708740 114.000000 130.000000 0.941109 0.220377 -0.256414
5.42999983 10.59000015 -0.81999999 188 203 60 97.000000 1.000000 4.000000 1.000000 -60.708740 114.000000 130.000000 0.958710 0.165295 -0.231413
5.42000008 10.60999966 -0.81999999 188 203 60 97.000000 1.000000 4.000000 1.000000 -60.708740 114.000000 130.000000 0.951415 0.284498 -0.117769
5.42999983 10.59000015 -0.81999999 188 203 60 97.000000 1.000000 4.000000 1.000000 -60.708740 114.000000 130.000000 0.958710 0.165295 -0.231413
5.42999983 10.57999992 -0.82999998 188 203 60 97.000000 1.000000 4.000000 1.000000 -60.708740 114.000000 130.000000 0.906424 -0.385194 -0.173266
5.40999985 10.57999992 -0.85000002 188 203 60 97.000000 1.000000 4.000000 1.000000 -60.708740 114.000000 130.000000 0.810263 -0.559790 -0.173520
5.38000011 10.55000019 -0.83999997 188 203 60 97.000000 1.000000 4.000000 1.000000 -60.708740 114.000000 130.000000 0.675591 -0.726297 -0.126766
5.38999987 10.53999996 -0.81999999 188 203 60 97.000000 1.000000 4.000000 1.000000 -60.708740 114.000000 130.000000 0.881039 -0.243819 -0.405368
5.34999990 10.69999981 -0.70999998 188 203 60 97.000000 1.000000 4.000000 1.000000 -60.708740 114.000000 130.000000 0.291973 0.797007 0.528708
5.30000019 10.69999981 -0.69999999 188 203 60 97.000000 1.000000 4.000000 1.000000 -60.708740 114.000000 130.000000 -0.254805 0.729596 0.634637
5.36999989 10.68999958 -0.75999999 188 203 60 97.000000 1.000000 4.000000 1.000000 -60.708740 114.000000 130.000000 0.389427 0.905810 0.166897
5.32999992 10.69999981 -0.69999999 188 203 60 97.000000 1.000000 4.000000 1.000000 -60.708740 114.000000 130.000000 0.401125 0.853359 0.332981
5.34000015 10.69999981 -0.69999999 188 203 60 97.000000 1.000000 4.000000 1.000000 -60.708740 114.000000 130.000000 0.453062 0.859151 0.237895
5.34999990 10.68999958 -0.72000003 188 203 60 97.000000 1.000000 4.000000 1.000000 -60.708740 114.000000 130.000000 0.737168 0.623026 0.261576
5.34999990 10.69999981 -0.70999998 188 203 60 97.000000 1.000000 4.000000 1.000000 -60.708740 114.000000 130.000000 0.291973 0.797007 0.528708
5.34999990 10.68000031 -0.69999999 188 203 60 97.000000 1.000000 4.000000 1.000000 -60.708740 114.000000 130.000000 0.486404 0.783741 0.386214
5.36000013 10.68999958 -0.69999999 188 203 60 97.000000 1.000000 4.000000 1.000000 -60.708740 114.000000 130.000000 0.682885 0.656932 0.319545
5.44000006 10.68999958 -0.89999998 188 203 60 97.000000 1.000000 4.000000 1.000000 -60.708740 114.000000 130.000000 0.950532 0.137314 0.278627
5.44000006 10.68999958 -0.88000000 188 203 60 97.000000 1.000000 4.000000 1.000000 -60.708740 114.000000 130.000000 0.973016 0.062577 0.222088
5.44000006 10.67000008 -0.86000001 188 203 60 97.000000 1.000000 4.000000 1.000000 -60.708740 114.000000 130.000000 0.988357 -0.118697 -0.095193
5.44000006 10.67000008 -0.93000001 188 203 60 97.000000 1.000000 4.000000 1.000000 -60.708740 114.000000 130.000000 0.972534 0.219285 0.078050
5.44000006 10.68000031 -0.92000002 188 203 60 97.000000 1.000000 4.000000 1.000000 -60.708740 114.000000 130.000000 0.963060 0.225453 -0.147261
5.44000006 10.68999958 -0.91000003 188 203 60 97.000000 1.000000 4.000000 1.000000 -60.708740 114.000000 130.000000 0.988783 -0.127246 0.078215
5.44999981 10.65999985 -0.89999998 188 203 60 97.000000 1.000000 4.000000 1.000000 -60.708740 114.000000 130.000000 0.877144 0.459456 -0.139709
5.42000008 10.64000034 -0.86000001 188 203 60 97.000000 1.000000 4.000000 1.000000 -60.708740 114.000000 130.000000 0.961154 0.191176 0.199087
5.42000008 10.64000034 -0.88000000 188 203 60 97.000000 1.000000 4.000000 1.000000 -60.708740 114.000000 130.000000 0.976151 -0.189773 0.105429
5.44999981 10.64999962 -0.89999998 188 203 60 97.000000 1.000000 4.000000 1.000000 -60.708740 114.000000 130.000000 0.967573 0.025494 -0.251302
5.42000008 10.64999962 -0.86000001 188 203 60 97.000000 1.000000 4.000000 1.000000 -60.708740 114.000000 130.000000 0.998923 0.046104 -0.005123
5.44999981 10.64000034 -0.93000001 188 203 60 97.000000 1.000000 4.000000 1.000000 -60.708740 114.000000 130.000000 0.988036 -0.028490 -0.151567
5.44999981 10.64999962 -0.93000001 188 203 60 97.000000 1.000000 4.000000 1.000000 -60.708740 114.000000 130.000000 0.999257 -0.021611 0.031902
5.44000006 10.64999962 -0.94000000 188 203 60 97.000000 1.000000 4.000000 1.000000 -60.708740 114.000000 130.000000 0.956285 -0.124962 -0.264392
5.44999981 10.63000011 -0.93000001 188 203 60 97.000000 1.000000 4.000000 1.000000 -60.708740 114.000000 130.000000 0.821987 -0.421328 -0.383170
5.42999983 10.64000034 -0.91000003 188 203 60 97.000000 1.000000 4.000000 1.000000 -60.708740 114.000000 130.000000 0.932344 -0.341633 -0.118414
5.44000006 10.65999985 -0.91000003 188 203 60 97.000000 1.000000 4.000000 1.000000 -60.708740 114.000000 130.000000 0.989946 0.072773 -0.121289
5.44999981 10.64999962 -0.93000001 188 203 60 97.000000 1.000000 4.000000 1.000000 -60.708740 114.000000 130.000000 0.999257 -0.021611 0.031902
5.44999981 10.64999962 -0.93000001 188 203 60 97.000000 1.000000 4.000000 1.000000 -60.708740 114.000000 130.000000 0.999257 -0.021611 0.031902
5.44000006 10.65999985 -0.92000002 188 203 60 97.000000 1.000000 4.000000 1.000000 -60.708740 114.000000 130.000000 0.982456 -0.073174 0.171540
5.44000006 10.64000034 -0.95999998 188 203 60 97.000000 1.000000 4.000000 1.000000 -60.708740 114.000000 130.000000 0.990809 -0.135260 -0.001100
5.44999981 10.64000034 -0.94999999 188 203 60 97.000000 1.000000 4.000000 1.000000 -60.708740 114.000000 130.000000 0.974678 -0.214013 0.064815
5.44999981 10.68000031 -0.97000003 188 203 60 97.000000 1.000000 4.000000 1.000000 -60.708740 114.000000 130.000000 0.918045 -0.395324 -0.030207
5.42999983 10.60999966 -0.88999999 188 203 60 97.000000 1.000000 4.000000 1.000000 -60.708740 114.000000 130.000000 0.922642 -0.318005 -0.218183
5.42000008 10.60999966 -0.86000001 188 203 60 97.000000 1.000000 4.000000 1.000000 -60.708740 114.000000 130.000000 0.962105 -0.229073 -0.147916
5.42000008 10.61999989 -0.88999999 188 203 60 97.000000 1.000000 4.000000 1.000000 -60.708740 114.000000 130.000000 0.963251 -0.038332 -0.265852
5.42999983 10.60999966 -0.88999999 188 203 60 97.000000 1.000000 4.000000 1.000000 -60.708740 114.000000 130.000000 0.922642 -0.318005 -0.218183
5.42999983 10.60999966 -0.88000000 188 203 60 97.000000 1.000000 4.000000 1.000000 -60.708740 114.000000 130.000000 0.981549 -0.176607 0.073286
5.42000008 10.60999966 -0.89999998 188 203 60 97.000000 1.000000 4.000000 1.000000 -60.708740 114.000000 130.000000 0.930426 -0.366299 0.011487
5.42000008 10.59000015 -0.86000001 188 203 60 97.000000 1.000000 4.000000 1.000000 -60.708740 114.000000 130.000000 0.996891 -0.001050 0.078785
5.42000008 10.57999992 -0.86000001 188 203 60 97.000000 1.000000 4.000000 1.000000 -60.708740 114.000000 130.000000 0.990321 -0.116712 -0.075112
5.42000008 10.60999966 -0.94000000 188 203 60 97.000000 1.000000 4.000000 1.000000 -60.708740 114.000000 130.000000 0.723020 -0.589188 -0.360694
5.42999983 10.61999989 -0.92000002 188 203 60 97.000000 1.000000 4.000000 1.000000 -60.708740 114.000000 130.000000 0.832966 -0.515502 -0.201061
5.44999981 10.60000038 -0.94999999 188 203 60 97.000000 1.000000 4.000000 1.000000 -60.708740 114.000000 130.000000 0.831841 -0.555013 -0.001357
5.38000011 10.52999973 -0.69999999 188 203 60 97.000000 1.000000 4.000000 1.000000 -60.708740 114.000000 130.000000 0.923095 -0.364561 0.122437
5.55999994 10.68999958 -1.03999996 188 203 60 97.000000 1.000000 4.000000 1.000000 -60.708740 114.000000 130.000000 0.888263 -0.352010 -0.295089
5.51000023 10.67000008 -1.03999996 188 203 60 97.000000 1.000000 4.000000 1.000000 -60.708740 114.000000 130.000000 0.953742 -0.292172 0.070791
5.51000023 10.65999985 -1.05999994 188 203 60 97.000000 1.000000 4.000000 1.000000 -60.708740 114.000000 130.000000 0.803548 -0.535178 -0.260568
5.48999977 10.69999981 -1.04999995 188 203 60 97.000000 1.000000 4.000000 1.000000 -60.708740 114.000000 130.000000 0.934127 -0.026983 -0.355919
5.50000000 10.68000031 -1.05999994 188 203 60 97.000000 1.000000 4.000000 1.000000 -60.708740 114.000000 130.000000 0.969748 0.225143 -0.094333
5.50000000 10.67000008 -1.10000002 188 203 60 97.000000 1.000000 4.000000 1.000000 -60.708740 114.000000 130.000000 0.885236 -0.050468 -0.462396
5.48000002 10.68000031 -1.08000004 188 203 60 97.000000 1.000000 4.000000 1.000000 -60.708740 114.000000 130.000000 0.991844 -0.012136 0.126877
5.46999979 10.64000034 -1.05999994 188 203 60 97.000000 1.000000 4.000000 1.000000 -60.708740 114.000000 130.000000 0.870511 -0.488538 -0.059510
5.46999979 10.64000034 -1.05999994 188 203 60 97.000000 1.000000 4.000000 1.000000 -60.708740 114.000000 130.000000 0.870511 -0.488538 -0.059510
5.46000004 10.65999985 -1.07000005 188 203 60 97.000000 1.000000 4.000000 1.000000 -60.708740 114.000000 130.000000 0.798497 -0.596346 -0.082304
5.48999977 10.65999985 -1.07000005 188 203 60 97.000000 1.000000 4.000000 1.000000 -60.708740 114.000000 130.000000 0.803840 -0.434812 -0.405931
5.23000002 10.98999977 -1.00000000 188 203 60 97.000000 1.000000 4.000000 1.000000 -60.708740 114.000000 130.000000 -0.167231 0.853914 0.492813
5.21000004 10.97999954 -1.00000000 188 203 60 97.000000 1.000000 4.000000 1.000000 -60.708740 114.000000 130.000000 -0.471225 0.665752 0.578551
5.26999998 10.80000019 -0.76999998 188 203 60 97.000000 1.000000 4.000000 1.000000 -60.708740 114.000000 130.000000 0.345318 0.842201 0.414069
5.21999979 10.78999996 -0.81999999 188 203 60 97.000000 1.000000 4.000000 1.000000 -60.708740 114.000000 130.000000 0.061796 0.885746 0.460039
5.28000021 10.72999954 -0.70999998 188 203 60 97.000000 1.000000 4.000000 1.000000 -60.708740 114.000000 130.000000 -0.323514 0.922088 0.212351
5.28999996 10.73999977 -0.74000001 188 203 60 97.000000 1.000000 4.000000 1.000000 -60.708740 114.000000 130.000000 0.107668 0.857034 0.503885
5.25000000 10.71000004 -0.75000000 188 203 60 97.000000 1.000000 4.000000 1.000000 -60.708740 114.000000 130.000000 -0.423572 0.740015 0.522460
5.28000021 10.72999954 -0.75000000 188 203 60 97.000000 1.000000 4.000000 1.000000 -60.708740 114.000000 130.000000 -0.386187 0.764226 0.516545
5.26999998 10.72999954 -0.75999999 188 203 60 97.000000 1.000000 4.000000 1.000000 -60.708740 114.000000 130.000000 -0.165629 0.740013 0.651880
5.26000023 10.71000004 -0.74000001 188 203 60 97.000000 1.000000 4.000000 1.000000 -60.708740 114.000000 130.000000 -0.356657 0.921713 0.152453
5.28999996 10.77000046 -0.80000001 188 203 60 97.000000 1.000000 4.000000 1.000000 -60.708740 114.000000 130.000000 0.067354 0.889351 0.452236
5.25000000 10.77999973 -0.82999998 188 203 60 97.000000 1.000000 4.000000 1.000000 -60.708740 114.000000 130.000000 0.235697 0.775772 0.585341
5.28999996 10.75000000 -0.82999998 188 203 60 97.000000 1.000000 4.000000 1.000000 -60.708740 114.000000 130.000000 0.278692 0.791990 0.543214
5.26000023 10.77000046 -0.82999998 188 203 60 97.000000 1.000000 4.000000 1.000000 -60.708740 114.000000 130.000000 0.064847 0.884399 0.462205
5.26000023 10.77000046 -0.82999998 188 203 60 97.000000 1.000000 4.000000 1.000000 -60.708740 114.000000 130.000000 0.064847 0.884399 0.462205
5.28000021 10.77999973 -0.85000002 188 203 60 97.000000 1.000000 4.000000 1.000000 -60.708740 114.000000 130.000000 0.138937 0.910810 0.388743
5.28000021 10.75000000 -0.81999999 188 203 60 97.000000 1.000000 4.000000 1.000000 -60.708740 114.000000 130.000000 0.037751 0.809548 0.585839
5.28999996 10.77999973 -0.85000002 188 203 60 97.000000 1.000000 4.000000 1.000000 -60.708740 114.000000 130.000000 0.190484 0.980816 0.041410
5.26999998 10.77000046 -0.85000002 188 203 60 97.000000 1.000000 4.000000 1.000000 -60.708740 114.000000 130.000000 0.049894 0.734161 0.677139
5.28999996 10.73999977 -0.77999997 188 203 60 97.000000 1.000000 4.000000 1.000000 -60.708740 114.000000 130.000000 0.148069 0.973206 0.175911
5.25000000 10.72999954 -0.81999999 188 203 60 97.000000 1.000000 4.000000 1.000000 -60.708740 114.000000 130.000000 0.070779 0.729462 0.680350
5.28999996 10.73999977 -0.82999998 188 203 60 97.000000 1.000000 4.000000 1.000000 -60.708740 114.000000 130.000000 -0.192289 0.860084 0.472525
5.21999979 10.77000046 -0.80000001 188 203 60 97.000000 1.000000 4.000000 1.000000 -60.708740 114.000000 130.000000 0.052657 0.781310 0.621917
5.21999979 10.77999973 -0.80000001 188 203 60 97.000000 1.000000 4.000000 1.000000 -60.708740 114.000000 130.000000 -0.023448 0.823453 0.566900
5.21000004 10.77999973 -0.81000000 188 203 60 97.000000 1.000000 4.000000 1.000000 -60.708740 114.000000 130.000000 -0.352909 0.850402 0.390221
5.23000002 10.75000000 -0.81999999 188 203 60 97.000000 1.000000 4.000000 1.000000 -60.708740 114.000000 130.000000 -0.184012 0.798397 0.573325
5.21000004 10.72999954 -0.82999998 188 203 60 97.000000 1.000000 4.000000 1.000000 -60.708740 114.000000 130.000000 0.777914 -0.472595 -0.414130
5.17999983 10.73999977 -0.75999999 188 203 60 97.000000 1.000000 4.000000 1.000000 -60.708740 114.000000 130.000000 -0.532307 0.817636 0.219366
5.19999981 10.77999973 -0.81000000 188 203 60 97.000000 1.000000 4.000000 1.000000 -60.708740 114.000000 130.000000 0.515637 -0.774263 -0.366926
5.28000021 10.80000019 -0.87000000 188 203 60 97.000000 1.000000 4.000000 1.000000 -60.708740 114.000000 130.000000 -0.127108 0.945949 0.298369
5.23999977 10.78999996 -0.89999998 188 203 60 97.000000 1.000000 4.000000 1.000000 -60.708740 114.000000 130.000000 0.202243 0.897725 0.391391
5.28000021 10.80000019 -0.93000001 188 203 60 97.000000 1.000000 4.000000 1.000000 -60.708740 114.000000 130.000000 0.111038 0.664746 0.738771
5.26999998 10.78999996 -0.89999998 188 203 60 97.000000 1.000000 4.000000 1.000000 -60.708740 114.000000 130.000000 0.128368 0.981710 0.140594
5.26000023 10.82999992 -0.98000002 188 203 60 97.000000 1.000000 4.000000 1.000000 -60.708740 114.000000 130.000000 -0.013919 0.940182 0.340389
5.26000023 10.78999996 -1.01999998 188 203 60 97.000000 1.000000 4.000000 1.000000 -60.708740 114.000000 130.000000 -0.004099 0.810204 0.586134
5.21000004 10.85000038 -0.95999998 188 203 60 97.000000 1.000000 4.000000 1.000000 -60.708740 114.000000 130.000000 0.038275 0.676192 0.735731
5.21999979 10.81999969 -1.00999999 188 203 60 97.000000 1.000000 4.000000 1.000000 -60.708740 114.000000 130.000000 -0.378197 0.796629 0.471540
5.28000021 10.77000046 -0.97000003 188 203 60 97.000000 1.000000 4.000000 1.000000 -60.708740 114.000000 130.000000 0.032007 0.819661 0.571954
5.28999996 10.77000046 -0.98000002 188 203 60 97.000000 1.000000 4.000000 1.000000 -60.708740 114.000000 130.000000 0.237538 0.895562 0.376224
5.28000021 10.77000046 -0.97000003 188 203 60 97.000000 1.000000 4.000000 1.000000 -60.708740 114.000000 130.000000 0.032007 0.819661 0.571954
5.28999996 10.77000046 -0.97000003 188 203 60 97.000000 1.000000 4.000000 1.000000 -60.708740 114.000000 130.000000 0.147028 0.895018 0.421101
5.25000000 10.77999973 -1.00000000 188 203 60 97.000000 1.000000 4.000000 1.000000 -60.708740 114.000000 130.000000 -0.155380 0.613976 0.773881
5.25000000 10.77000046 -1.00999999 188 203 60 97.000000 1.000000 4.000000 1.000000 -60.708740 114.000000 130.000000 -0.111038 0.664746 0.738771
5.26000023 10.89999962 -1.03999996 188 203 60 97.000000 1.000000 4.000000 1.000000 -60.708740 114.000000 130.000000 0.251376 0.963397 0.093150
5.25000000 10.89999962 -1.07000005 188 203 60 97.000000 1.000000 4.000000 1.000000 -60.708740 114.000000 130.000000 -0.187096 0.927038 0.324956
5.23999977 10.88000011 -1.05999994 188 203 60 97.000000 1.000000 4.000000 1.000000 -60.708740 114.000000 130.000000 -0.004159 0.700135 0.713999
5.23999977 10.89000034 -1.04999995 188 203 60 97.000000 1.000000 4.000000 1.000000 -60.708740 114.000000 130.000000 -0.285988 0.899455 0.330442
5.23000002 10.88000011 -1.10000002 188 203 60 97.000000 1.000000 4.000000 1.000000 -60.708740 114.000000 130.000000 0.260965 -0.621572 -0.738611
5.26000023 10.85000038 -1.02999997 188 203 60 97.000000 1.000000 4.000000 1.000000 -60.708740 114.000000 130.000000 0.406466 0.675232 0.615506
5.28000021 10.85000038 -1.03999996 188 203 60 97.000000 1.000000 4.000000 1.000000 -60.708740 114.000000 130.000000 0.208806 0.975648 0.067160
5.28999996 10.85999966 -1.05999994 188 203 60 97.000000 1.000000 4.000000 1.000000 -60.708740 114.000000 130.000000 0.635568 0.652163 0.413202
5.26999998 10.68000031 -0.69999999 188 203 60 97.000000 1.000000 4.000000 1.000000 -60.708740 114.000000 130.000000 -0.335921 0.718903 0.608552
5.25000000 10.68999958 -0.70999998 188 203 60 97.000000 1.000000 4.000000 1.000000 -60.708740 114.000000 130.000000 -0.196485 0.676096 0.710132
5.25000000 10.69999981 -0.70999998 188 203 60 97.000000 1.000000 4.000000 1.000000 -60.708740 114.000000 130.000000 -0.157552 0.855490 0.493269
5.26000023 10.69999981 -0.74000001 188 203 60 97.000000 1.000000 4.000000 1.000000 -60.708740 114.000000 130.000000 -0.394862 0.861936 0.318041
5.23000002 10.64999962 -0.77999997 188 203 60 97.000000 1.000000 4.000000 1.000000 -60.708740 114.000000 130.000000 -0.479950 0.680626 0.553531
5.23000002 10.65999985 -0.79000002 188 203 60 97.000000 1.000000 4.000000 1.000000 -60.708740 114.000000 130.000000 -0.541853 0.669347 0.508301
5.23999977 10.64999962 -0.77999997 188 203 60 97.000000 1.000000 4.000000 1.000000 -60.708740 114.000000 130.000000 0.761472 -0.641624 -0.092078
5.19999981 10.67000008 -0.70999998 188 203 60 97.000000 1.000000 4.000000 1.000000 -60.708740 114.000000 130.000000 0.688240 -0.645937 -0.330290
5.28000021 10.69999981 -0.98000002 188 203 60 97.000000 1.000000 4.000000 1.000000 -60.708740 114.000000 130.000000 0.968033 -0.250166 -0.018128
5.46999979 10.17000008 -0.03000000 188 203 60 97.000000 1.000000 4.000000 1.000000 -60.708740 114.000000 130.000000 0.979152 0.191967 0.066404
5.46000004 10.19999981 -0.09000000 188 203 60 97.000000 1.000000 4.000000 1.000000 -60.708740 114.000000 130.000000 0.945644 0.325182 -0.003738
5.46000004 10.14000034 -0.03000000 188 203 60 97.000000 1.000000 4.000000 1.000000 -60.708740 114.000000 130.000000 0.965565 -0.013293 -0.259820
5.46999979 10.14999962 -0.05000000 188 203 60 97.000000 1.000000 4.000000 1.000000 -60.708740 114.000000 130.000000 0.996479 -0.029086 0.078641
5.46000004 10.18999958 -0.14000000 188 203 60 97.000000 1.000000 4.000000 1.000000 -60.708740 114.000000 130.000000 0.918995 0.049066 -0.391203
5.48000002 10.14000034 -0.15000001 188 203 60 97.000000 1.000000 4.000000 1.000000 -60.708740 114.000000 130.000000 -0.619479 0.410218 0.669303
5.46000004 10.10000038 -0.14000000 188 203 60 97.000000 1.000000 4.000000 1.000000 -60.708740 114.000000 130.000000 -0.680377 0.719428 0.139680
5.40000010 10.28999996 -0.17000000 188 203 60 97.000000 1.000000 4.000000 1.000000 -60.708740 114.000000 130.000000 0.733060 0.583522 0.349463
5.38999987 10.28999996 -0.16000000 188 203 60 97.000000 1.000000 4.000000 1.000000 -60.708740 114.000000 130.000000 0.467991 0.878013 0.100385
5.38000011 10.28999996 -0.17000000 188 203 60 97.000000 1.000000 4.000000 1.000000 -60.708740 114.000000 130.000000 0.103216 0.936985 0.333776
5.42999983 10.25000000 -0.04000000 188 203 60 97.000000 1.000000 4.000000 1.000000 -60.708740 114.000000 130.000000 0.598533 0.645476 0.474467
5.42000008 10.27000046 -0.06000000 188 203 60 97.000000 1.000000 4.000000 1.000000 -60.708740 114.000000 130.000000 0.235501 0.937822 0.255009
5.42999983 10.22999954 -0.03000000 188 203 60 97.000000 1.000000 4.000000 1.000000 -60.708740 114.000000 130.000000 0.430916 0.901007 0.049981
5.44000006 10.21000004 -0.03000000 188 203 60 97.000000 1.000000 4.000000 1.000000 -60.708740 114.000000 130.000000 0.891379 0.450453 -0.050353
5.44000006 10.22000027 -0.03000000 188 203 60 97.000000 1.000000 4.000000 1.000000 -60.708740 114.000000 130.000000 0.825629 0.453070 0.336250
5.42000008 10.22999954 -0.04000000 188 203 60 97.000000 1.000000 4.000000 1.000000 -60.708740 114.000000 130.000000 0.809857 0.586353 0.017936
5.44000006 10.21000004 -0.06000000 188 203 60 97.000000 1.000000 4.000000 1.000000 -60.708740 114.000000 130.000000 0.913118 0.202119 -0.354066
5.42999983 10.22000027 -0.04000000 188 203 60 97.000000 1.000000 4.000000 1.000000 -60.708740 114.000000 130.000000 0.723934 0.682818 -0.098385
5.44000006 10.23999977 -0.09000000 188 203 60 97.000000 1.000000 4.000000 1.000000 -60.708740 114.000000 130.000000 0.992572 0.096642 0.073903
5.44000006 10.21000004 -0.07000000 188 203 60 97.000000 1.000000 4.000000 1.000000 -60.708740 114.000000 130.000000 0.898947 0.436784 -0.033393
5.42999983 10.22000027 -0.08000000 188 203 60 97.000000 1.000000 4.000000 1.000000 -60.708740 114.000000 130.000000 0.735300 0.620955 0.271569
5.42999983 10.22999954 -0.09000000 188 203 60 97.000000 1.000000 4.000000 1.000000 -60.708740 114.000000 130.000000 0.854605 0.517733 -0.040038
5.44000006 10.21000004 -0.10000000 188 203 60 97.000000 1.000000 4.000000 1.000000 -60.708740 114.000000 130.000000 0.921727 0.310100 -0.232932
5.42000008 10.21000004 -0.07000000 188 203 60 97.000000 1.000000 4.000000 1.000000 -60.708740 114.000000 130.000000 0.960052 0.279042 0.020897
5.42000008 10.22999954 -0.08000000 188 203 60 97.000000 1.000000 4.000000 1.000000 -60.708740 114.000000 130.000000 0.787400 0.612423 -0.070278
5.38000011 10.25000000 -0.06000000 188 203 60 97.000000 1.000000 4.000000 1.000000 -60.708740 114.000000 130.000000 0.220789 0.962851 0.155467
5.40999985 10.25000000 -0.04000000 188 203 60 97.000000 1.000000 4.000000 1.000000 -60.708740 114.000000 130.000000 0.369265 0.788518 0.491816
5.40000010 10.26000023 -0.10000000 188 203 60 97.000000 1.000000 4.000000 1.000000 -60.708740 114.000000 130.000000 0.721653 0.446264 0.529212
5.38999987 10.26000023 -0.07000000 188 203 60 97.000000 1.000000 4.000000 1.000000 -60.708740 114.000000 130.000000 0.588384 0.632218 0.504088
5.38999987 10.27000046 -0.10000000 188 203 60 97.000000 1.000000 4.000000 1.000000 -60.708740 114.000000 130.000000 0.207342 0.886716 0.413213
5.38999987 10.26000023 -0.07000000 188 203 60 97.000000 1.000000 4.000000 1.000000 -60.708740 114.000000 130.000000 0.588384 0.632218 0.504088
5.40000010 10.26000023 -0.10000000 188 203 60 97.000000 1.000000 4.000000 1.000000 -60.708740 114.000000 130.000000 0.721653 0.446264 0.529212
5.40000010 10.25000000 -0.09000000 188 203 60 97.000000 1.000000 4.000000 1.000000 -60.708740 114.000000 130.000000 0.656401 0.688657 0.308041
5.40000010 10.27000046 -0.10000000 188 203 60 97.000000 1.000000 4.000000 1.000000 -60.708740 114.000000 130.000000 0.735954 0.642599 0.213162
5.38999987 10.27000046 -0.08000000 188 203 60 97.000000 1.000000 4.000000 1.000000 -60.708740 114.000000 130.000000 0.486210 0.794303 0.364256
5.40999985 10.25000000 -0.08000000 188 203 60 97.000000 1.000000 4.000000 1.000000 -60.708740 114.000000 130.000000 0.788918 0.571927 0.224741
5.40999985 10.25000000 -0.10000000 188 203 60 97.000000 1.000000 4.000000 1.000000 -60.708740 114.000000 130.000000 0.786270 0.571408 0.235102
5.40000010 10.27000046 -0.10000000 188 203 60 97.000000 1.000000 4.000000 1.000000 -60.708740 114.000000 130.000000 0.735954 0.642599 0.213162
5.38999987 10.27000046 -0.08000000 188 203 60 97.000000 1.000000 4.000000 1.000000 -60.708740 114.000000 130.000000 0.486210 0.794303 0.364256
5.38999987 10.27999973 -0.10000000 188 203 60 97.000000 1.000000 4.000000 1.000000 -60.708740 114.000000 130.000000 0.058749 0.760871 0.646239
5.40000010 10.23999977 -0.03000000 188 203 60 97.000000 1.000000 4.000000 1.000000 -60.708740 114.000000 130.000000 0.176646 0.972189 0.153771
5.40000010 10.22999954 -0.07000000 188 203 60 97.000000 1.000000 4.000000 1.000000 -60.708740 114.000000 130.000000 0.369488 0.887070 0.276742
5.40999985 10.23999977 -0.08000000 188 203 60 97.000000 1.000000 4.000000 1.000000 -60.708740 114.000000 130.000000 0.589165 0.785044 0.191287
5.40999985 10.23999977 -0.07000000 188 203 60 97.000000 1.000000 4.000000 1.000000 -60.708740 114.000000 130.000000 0.497269 0.786940 0.365307
5.42000008 10.25000000 -0.12000000 188 203 60 97.000000 1.000000 4.000000 1.000000 -60.708740 114.000000 130.000000 0.726703 0.652010 0.216299
5.42999983 10.27999973 -0.13000000 188 203 60 97.000000 1.000000 4.000000 1.000000 -60.708740 114.000000 130.000000 0.518403 0.792758 0.320612
5.44000006 10.22000027 -0.11000000 188 203 60 97.000000 1.000000 4.000000 1.000000 -60.708740 114.000000 130.000000 0.962989 0.239775 0.123128
5.44000006 10.21000004 -0.13000000 188 203 60 97.000000 1.000000 4.000000 1.000000 -60.708740 114.000000 130.000000 0.991285 0.131508 -0.007736
5.42999983 10.21000004 -0.14000000 188 203 60 97.000000 1.000000 4.000000 1.000000 -60.708740 114.000000 130.000000 0.998944 0.028066 -0.036382
5.44000006 10.22000027 -0.13000000 188 203 60 97.000000 1.000000 4.000000 1.000000 -60.708740 114.000000 130.000000 0.998730 0.038613 0.032352
5.44000006 10.22000027 -0.11000000 188 203 60 97.000000 1.000000 4.000000 1.000000 -60.708740 114.000000 130.000000 0.962989 0.239775 0.123128
5.42000008 10.23999977 -0.13000000 188 203 60 97.000000 1.000000 4.000000 1.000000 -60.708740 114.000000 130.000000 0.867103 0.440314 -0.232931
5.44000006 10.22000027 -0.11000000 188 203 60 97.000000 1.000000 4.000000 1.000000 -60.708740 114.000000 130.000000 0.962989 0.239775 0.123128
5.44000006 10.22000027 -0.18000001 188 203 60 97.000000 1.000000 4.000000 1.000000 -60.708740 114.000000 130.000000 0.752945 -0.162103 -0.637806
5.42000008 10.21000004 -0.18000001 188 203 60 97.000000 1.000000 4.000000 1.000000 -60.708740 114.000000 130.000000 0.562151 -0.555399 -0.612795
5.40999985 10.26000023 -0.11000000 188 203 60 97.000000 1.000000 4.000000 1.000000 -60.708740 114.000000 130.000000 0.893194 0.385329 0.231788
5.40000010 10.26000023 -0.14000000 188 203 60 97.000000 1.000000 4.000000 1.000000 -60.708740 114.000000 130.000000 0.763307 0.645226 0.032332
5.38000011 10.27999973 -0.12000000 188 203 60 97.000000 1.000000 4.000000 1.000000 -60.708740 114.000000 130.000000 0.008207 0.976676 0.214564
5.40000010 10.26000023 -0.14000000 188 203 60 97.000000 1.000000 4.000000 1.000000 -60.708740 114.000000 130.000000 0.763307 0.645226 0.032332
5.40999985 10.26000023 -0.12000000 188 203 60 97.000000 1.000000 4.000000 1.000000 -60.708740 114.000000 130.000000 0.839763 0.540746 -0.048905
5.40999985 10.26000023 -0.11000000 188 203 60 97.000000 1.000000 4.000000 1.000000 -60.708740 114.000000 130.000000 0.893194 0.385329 0.231788
5.38999987 10.27999973 -0.12000000 188 203 60 97.000000 1.000000 4.000000 1.000000 -60.708740 114.000000 130.000000 0.463936 0.877910 0.118482
5.38000011 10.27999973 -0.11000000 188 203 60 97.000000 1.000000 4.000000 1.000000 -60.708740 114.000000 130.000000 0.127569 0.878650 0.460109
5.40999985 10.26000023 -0.11000000 188 203 60 97.000000 1.000000 4.000000 1.000000 -60.708740 114.000000 130.000000 0.893194 0.385329 0.231788
5.38999987 10.27000046 -0.16000000 188 203 60 97.000000 1.000000 4.000000 1.000000 -60.708740 114.000000 130.000000 0.852880 0.451705 0.261836
5.40000010 10.27000046 -0.17000000 188 203 60 97.000000 1.000000 4.000000 1.000000 -60.708740 114.000000 130.000000 0.875664 0.292900 0.383957
5.40000010 10.27000046 -0.18000001 188 203 60 97.000000 1.000000 4.000000 1.000000 -60.708740 114.000000 130.000000 0.840132 0.462614 0.283138
5.40999985 10.26000023 -0.16000000 188 203 60 97.000000 1.000000 4.000000 1.000000 -60.708740 114.000000 130.000000 0.958021 0.059638 0.280427
5.40000010 10.27000046 -0.17000000 188 203 60 97.000000 1.000000 4.000000 1.000000 -60.708740 114.000000 130.000000 0.875664 0.292900 0.383957
5.40000010 10.26000023 -0.16000000 188 203 60 97.000000 1.000000 4.000000 1.000000 -60.708740 114.000000 130.000000 0.888315 0.408065 0.210662
5.38999987 10.27999973 -0.15000001 188 203 60 97.000000 1.000000 4.000000 1.000000 -60.708740 114.000000 130.000000 0.821989 0.538441 0.185513
5.40000010 10.27000046 -0.18000001 188 203 60 97.000000 1.000000 4.000000 1.000000 -60.708740 114.000000 130.000000 0.840132 0.462614 0.283138
5.40000010 10.27000046 -0.16000000 188 203 60 97.000000 1.000000 4.000000 1.000000 -60.708740 114.000000 130.000000 0.878109 0.347300 0.329101
5.40000010 10.26000023 -0.16000000 188 203 60 97.000000 1.000000 4.000000 1.000000 -60.708740 114.000000 130.000000 0.888315 0.408065 0.210662
5.40000010 10.23999977 -0.15000001 188 203 60 97.000000 1.000000 4.000000 1.000000 -60.708740 114.000000 130.000000 0.997660 0.015836 -0.066511
5.34999990 10.28999996 -0.10000000 188 203 60 97.000000 1.000000 4.000000 1.000000 -60.708740 114.000000 130.000000 -0.207573 0.785701 0.582741
5.34999990 10.31000042 -0.14000000 188 203 60 97.000000 1.000000 4.000000 1.000000 -60.708740 114.000000 130.000000 0.038249 0.919289 0.391720
5.36999989 10.28999996 -0.14000000 188 203 60 97.000000 1.000000 4.000000 1.000000 -60.708740 114.000000 130.000000 0.288163 0.951333 0.109213
5.36999989 10.31000042 -0.17000000 188 203 60 97.000000 1.000000 4.000000 1.000000 -60.708740 114.000000 130.000000 0.344563 0.904662 0.250725
5.36999989 10.30000019 -0.18000001 188 203 60 97.000000 1.000000 4.000000 1.000000 -60.708740 114.000000 130.000000 0.148818 0.966667 0.208345
5.34999990 10.30000019 -0.17000000 188 203 60 97.000000 1.000000 4.000000 1.000000 -60.708740 114.000000 130.000000 -0.217322 0.971042 0.099240
5.34000015 10.31000042 -0.18000001 188 203 60 97.000000 1.000000 4.000000 1.000000 -60.708740 114.000000 130.000000 0.657267 -0.539598 -0.526150
5.36000013 10.26000023 -0.06000000 188 203 60 97.000000 1.000000 4.000000 1.000000 -60.708740 114.000000 130.000000 0.088444 0.795994 0.598808
5.34999990 10.26000023 -0.05000000 188 203 60 97.000000 1.000000 4.000000 1.000000 -60.708740 114.000000 130.000000 -0.199934 0.932559 0.300600
5.36999989 10.27999973 -0.07000000 188 203 60 97.000000 1.000000 4.000000 1.000000 -60.708740 114.000000 130.000000 0.266951 0.840974 0.470637
5.32000017 10.27999973 -0.07000000 188 203 60 97.000000 1.000000 4.000000 1.000000 -60.708740 114.000000 130.000000 -0.252163 0.868225 0.427317
5.36999989 10.27999973 -0.13000000 188 203 60 97.000000 1.000000 4.000000 1.000000 -60.708740 114.000000 130.000000 0.217582 0.941008 0.259158
5.32000017 10.27999973 -0.11000000 188 203 60 97.000000 1.000000 4.000000 1.000000 -60.708740 114.000000 130.000000 -0.517441 0.681549 0.517441
5.36000013 10.26000023 -0.15000001 188 203 60 97.000000 1.000000 4.000000 1.000000 -60.708740 114.000000 130.000000 -0.251365 0.548008 0.797812
5.38999987 10.32999992 -0.25999999 188 203 60 97.000000 1.000000 4.000000 1.000000 -60.708740 114.000000 130.000000 0.793139 0.563424 0.231267
5.38000011 10.34000015 -0.27000001 188 203 60 97.000000 1.000000 4.000000 1.000000 -60.708740 114.000000 130.000000 0.562646 0.702062 0.436507
5.38999987 10.34000015 -0.25999999 188 203 60 97.000000 1.000000 4.000000 1.000000 -60.708740 114.000000 130.000000 0.744860 0.667184 0.006935
5.38000011 10.34000015 -0.23999999 188 203 60 97.000000 1.000000 4.000000 1.000000 -60.708740 114.000000 130.000000 0.620820 0.772675 0.132501
5.38999987 10.30000019 -0.22000000 188 203 60 97.000000 1.000000 4.000000 1.000000 -60.708740 114.000000 130.000000 0.832947 0.530057 0.158869
5.38999987 10.30000019 -0.20000000 188 203 60 97.000000 1.000000 4.000000 1.000000 -60.708740 114.000000 130.000000 0.881325 0.462450 0.096988
5.38999987 10.30000019 -0.20999999 188 203 60 97.000000 1.000000 4.000000 1.000000 -60.708740 114.000000 130.000000 0.883210 0.427644 0.192513
5.38000011 10.30000019 -0.20999999 188 203 60 97.000000 1.000000 4.000000 1.000000 -60.708740 114.000000 130.000000 0.705683 0.576776 0.411511
5.38999987 10.30000019 -0.20999999 188 203 60 97.000000 1.000000 4.000000 1.000000 -60.708740 114.000000 130.000000 0.883210 0.427644 0.192513
5.38000011 10.31000042 -0.20000000 188 203 60 97.000000 1.000000 4.000000 1.000000 -60.708740 114.000000 130.000000 0.323600 0.925582 0.196421
5.38000011 10.30000019 -0.19000000 188 203 60 97.000000 1.000000 4.000000 1.000000 -60.708740 114.000000 130.000000 0.333548 0.917616 0.216162
5.38999987 10.28999996 -0.20999999 188 203 60 97.000000 1.000000 4.000000 1.000000 -60.708740 114.000000 130.000000 0.826337 0.468832 0.312032
5.38999987 10.30000019 -0.23000000 188 203 60 97.000000 1.000000 4.000000 1.000000 -60.708740 114.000000 130.000000 0.748389 0.649799 0.132947
5.38999987 10.31000042 -0.25000000 188 203 60 97.000000 1.000000 4.000000 1.000000 -60.708740 114.000000 130.000000 0.966207 0.236127 0.103385
5.40000010 10.28999996 -0.23999999 188 203 60 97.000000 1.000000 4.000000 1.000000 -60.708740 114.000000 130.000000 0.957238 0.288534 0.021052
5.38999987 10.28999996 -0.23000000 188 203 60 97.000000 1.000000 4.000000 1.000000 -60.708740 114.000000 130.000000 0.825004 0.556264 -0.099694
5.38999987 10.31000042 -0.23999999 188 203 60 97.000000 1.000000 4.000000 1.000000 -60.708740 114.000000 130.000000 0.707197 0.598903 0.375750
5.44999981 10.32999992 -0.34999999 188 203 60 97.000000 1.000000 4.000000 1.000000 -60.708740 114.000000 130.000000 0.894454 0.102183 -0.435329
5.38000011 10.35000038 -0.28999999 188 203 60 97.000000 1.000000 4.000000 1.000000 -60.708740 114.000000 130.000000 0.867154 0.492923 0.071216
5.40999985 10.32999992 -0.31000000 188 203 60 97.000000 1.000000 4.000000 1.000000 -60.708740 114.000000 130.000000 0.952980 0.302828 0.011124
5.38000011 10.35000038 -0.33000001 188 203 60 97.000000 1.000000 4.000000 1.000000 -60.708740 114.000000 130.000000 0.940777 0.159755 0.299028
5.40999985 10.31000042 -0.28999999 188 203 60 97.000000 1.000000 4.000000 1.000000 -60.708740 114.000000 130.000000 0.968233 -0.209036 0.137220
5.40000010 10.31999969 -0.31000000 188 203 60 97.000000 1.000000 4.000000 1.000000 -60.708740 114.000000 130.000000 0.934849 0.354861 -0.011447
5.38999987 10.31999969 -0.28000000 188 203 60 97.000000 1.000000 4.000000 1.000000 -60.708740 114.000000 130.000000 0.913408 0.274458 -0.300597
5.42999983 10.25000000 -0.22000000 188 203 60 97.000000 1.000000 4.000000 1.000000 -60.708740 114.000000 130.000000 0.997078 -0.031125 0.069763
5.42999983 10.25000000 -0.20000000 188 203 60 97.000000 1.000000 4.000000 1.000000 -60.708740 114.000000 130.000000 0.983747 0.179382 0.007998
5.42000008 10.27000046 -0.20000000 188 203 60 97.000000 1.000000 4.000000 1.000000 -60.708740 114.000000 130.000000 0.899339 0.431190 0.072549
5.44999981 10.27999973 -0.23000000 188 203 60 97.000000 1.000000 4.000000 1.000000 -60.708740 114.000000 130.000000 0.959450 -0.276110 -0.056735
5.42999983 10.22999954 -0.22000000 188 203 60 97.000000 1.000000 4.000000 1.000000 -60.708740 114.000000 130.000000 0.966428 -0.153956 -0.205706
5.42999983 10.23999977 -0.27000001 188 203 60 97.000000 1.000000 4.000000 1.000000 -60.708740 114.000000 130.000000 0.857232 -0.495063 -0.141655
5.42999983 10.22999954 -0.23000000 188 203 60 97.000000 1.000000 4.000000 1.000000 -60.708740 114.000000 130.000000 0.911917 -0.184096 -0.366765
5.44999981 10.22000027 -0.23999999 188 203 60 97.000000 1.000000 4.000000 1.000000 -60.708740 114.000000 130.000000 0.958934 -0.210886 -0.189665
5.42999983 10.23999977 -0.27000001 188 203 60 97.000000 1.000000 4.000000 1.000000 -60.708740 114.000000 130.000000 0.857232 -0.495063 -0.141655
5.38000011 10.27999973 -0.19000000 188 203 60 97.000000 1.000000 4.000000 1.000000 -60.708740 114.000000 130.000000 0.496487 0.755381 0.427667
5.40000010 10.27999973 -0.23999999 188 203 60 97.000000 1.000000 4.000000 1.000000 -60.708740 114.000000 130.000000 0.980521 -0.182114 0.073569
5.42000008 10.22000027 -0.33000001 188 203 60 97.000000 1.000000 4.000000 1.000000 -60.708740 114.000000 130.000000 0.847639 -0.443119 -0.291810
5.42000008 10.22999954 -0.34000000 188 203 60 97.000000 1.000000 4.000000 1.000000 -60.708740 114.000000 130.000000 0.798160 -0.564402 -0.210690
5.42999983 10.22999954 -0.33000001 188 203 60 97.000000 1.000000 4.000000 1.000000 -60.708740 114.000000 130.000000 0.846549 -0.466903 -0.255649
5.40999985 10.21000004 -0.31000000 188 203 60 97.000000 1.000000 4.000000 1.000000 -60.708740 114.000000 130.000000 0.771276 -0.445155 -0.454939
5.38999987 10.21000004 -0.30000001 188 203 60 97.000000 1.000000 4.000000 1.000000 -60.708740 114.000000 130.000000 -0.383312 0.868943 0.313064
5.36000013 10.32999992 -0.19000000 188 203 60 97.000000 1.000000 4.000000 1.000000 -60.708740 114.000000 130.000000 -0.281951 0.879022 0.384478
5.34000015 10.34000015 -0.27000001 188 203 60 97.000000 1.000000 4.000000 1.000000 -60.708740 114.000000 130.000000 -0.009664 0.791096 0.611615
5.36999989 10.31000042 -0.19000000 188 203 60 97.000000 1.000000 4.000000 1.000000 -60.708740 114.000000 130.000000 0.394557 0.751459 0.528804
5.36000013 10.30000019 -0.19000000 188 203 60 97.000000 1.000000 4.000000 1.000000 -60.708740 114.000000 130.000000 0.055206 0.908886 0.413375
5.30000019 10.32999992 -0.25000000 188 203 60 97.000000 1.000000 4.000000 1.000000 -60.708740 114.000000 130.000000 0.613055 -0.649805 -0.449351
5.34999990 10.35000038 -0.28000000 188 203 60 97.000000 1.000000 4.000000 1.000000 -60.708740 114.000000 130.000000 -0.044622 0.989682 0.136153
5.34999990 10.35000038 -0.28999999 188 203 60 97.000000 1.000000 4.000000 1.000000 -60.708740 114.000000 130.000000 0.164658 0.960286 0.225252
5.36000013 10.32999992 -0.28999999 188 203 60 97.000000 1.000000 4.000000 1.000000 -60.708740 114.000000 130.000000 0.824325 0.490855 0.282047
5.36000013 10.35000038 -0.31000000 188 203 60 97.000000 1.000000 4.000000 1.000000 -60.708740 114.000000 130.000000 0.668063 0.570951 0.477187
5.36000013 10.35000038 -0.31000000 188 203 60 97.000000 1.000000 4.000000 1.000000 -60.708740 114.000000 130.000000 0.668063 0.570951 0.477187
5.36999989 10.23999977 -0.27000001 188 203 60 97.000000 1.000000 4.000000 1.000000 -60.708740 114.000000 130.000000 -0.541916 0.819667 0.185670
5.44000006 10.18000031 -0.06000000 188 203 60 97.000000 1.000000 4.000000 1.000000 -60.708740 114.000000 130.000000 0.996975 0.073731 0.024577
5.44999981 10.19999981 -0.03000000 188 203 60 97.000000 1.000000 4.000000 1.000000 -60.708740 114.000000 130.000000 0.789259 0.503133 0.352032
5.44000006 10.17000008 -0.06000000 188 203 60 97.000000 1.000000 4.000000 1.000000 -60.708740 114.000000 130.000000 0.997977 0.039324 -0.049952
5.44000006 10.19999981 -0.05000000 188 203 60 97.000000 1.000000 4.000000 1.000000 -60.708740 114.000000 130.000000 0.847765 0.511002 0.142026
5.44000006 10.15999985 -0.08000000 188 203 60 97.000000 1.000000 4.000000 1.000000 -60.708740 114.000000 130.000000 0.982790 -0.170764 -0.070455
5.44000006 10.18000031 -0.08000000 188 203 60 97.000000 1.000000 4.000000 1.000000 -60.708740 114.000000 130.000000 0.983508 0.067787 -0.167684
5.44000006 10.18999958 -0.09000000 188 203 60 97.000000 1.000000 4.000000 1.000000 -60.708740 114.000000 130.000000 0.973793 -0.160821 -0.160821
5.44000006 10.15999985 -0.09000000 188 203 60 97.000000 1.000000 4.000000 1.000000 -60.708740 114.000000 130.000000 0.986351 -0.155248 -0.054862
5.44000006 10.15999985 -0.09000000 188 203 60 97.000000 1.000000 4.000000 1.000000 -60.708740 114.000000 130.000000 0.986351 -0.155248 -0.054862
5.42999983 10.13000011 -0.06000000 188 203 60 97.000000 1.000000 4.000000 1.000000 -60.708740 114.000000 130.000000 0.820194 -0.406115 -0.402930
5.42999983 10.14000034 -0.06000000 188 203 60 97.000000 1.000000 4.000000 1.000000 -60.708740 114.000000 130.000000 0.702497 -0.376749 -0.603786
5.42999983 10.11999989 -0.05000000 188 203 60 97.000000 1.000000 4.000000 1.000000 -60.708740 114.000000 130.000000 -0.665841 0.605765 0.435550
5.42000008 10.13000011 -0.08000000 188 203 60 97.000000 1.000000 4.000000 1.000000 -60.708740 114.000000 130.000000 0.799483 -0.416632 -0.432718
5.40999985 10.19999981 -0.03000000 188 203 60 97.000000 1.000000 4.000000 1.000000 -60.708740 114.000000 130.000000 0.763338 0.482194 0.429888
5.40999985 10.14000034 -0.10000000 188 203 60 97.000000 1.000000 4.000000 1.000000 -60.708740 114.000000 130.000000 -0.481787 0.842745 0.240129
5.44999981 10.18999958 -0.11000000 188 203 60 97.000000 1.000000 4.000000 1.000000 -60.708740 114.000000 130.000000 0.850869 0.114123 -0.512833
5.44000006 10.18999958 -0.12000000 188 203 60 97.000000 1.000000 4.000000 1.000000 -60.708740 114.000000 130.000000 0.896488 -0.044487 -0.440829
5.44000006 10.18999958 -0.13000000 188 203 60 97.000000 1.000000 4.000000 1.000000 -60.708740 114.000000 130.000000 0.997059 -0.075390 -0.013804
