//X Y Z R G B PointSourceId ScanDirectionFlag NumberOfReturns ReturnNumber GpsTime Intensity Classification Nx Ny Nz
14.72999954 15.89000034 0.28999999 20 17 237 97.000000 1.000000 4.000000 1.000000 -60.708740 114.000000 141.000000 0.874314 0.482047 0.056630
14.73999977 15.88000011 0.23000000 20 17 237 97.000000 1.000000 4.000000 1.000000 -60.708740 114.000000 141.000000 0.780287 0.573878 -0.248628
14.77000046 15.89000034 0.20000000 20 17 237 97.000000 1.000000 4.000000 1.000000 -60.708740 114.000000 141.000000 0.824310 0.544074 -0.156514
14.75000000 15.89999962 0.19000000 20 17 237 97.000000 1.000000 4.000000 1.000000 -60.708740 114.000000 141.000000 0.661821 0.747586 -0.055747
14.77000046 15.89000034 0.20000000 20 17 237 97.000000 1.000000 4.000000 1.000000 -60.708740 114.000000 141.000000 0.824310 0.544074 -0.156514
14.73999977 15.89999962 0.19000000 20 17 237 97.000000 1.000000 4.000000 1.000000 -60.708740 114.000000 141.000000 0.572590 0.807575 -0.141289
14.77000046 15.89000034 0.20000000 20 17 237 97.000000 1.000000 4.000000 1.000000 -60.708740 114.000000 141.000000 0.824310 0.544074 -0.156514
14.76000023 15.88000011 0.20000000 20 17 237 97.000000 1.000000 4.000000 1.000000 -60.708740 114.000000 141.000000 0.531052 0.738212 0.415964
14.73999977 15.89999962 0.20000000 20 17 237 97.000000 1.000000 4.000000 1.000000 -60.708740 114.000000 141.000000 0.542164 0.803149 0.247003
14.73999977 15.88000011 0.20999999 20 17 237 97.000000 1.000000 4.000000 1.000000 -60.708740 114.000000 141.000000 0.772185 0.522884 0.361001
14.75000000 15.86999989 0.17000000 20 17 237 97.000000 1.000000 4.000000 1.000000 -60.708740 114.000000 141.000000 0.712089 0.675017 0.193083
14.77999973 15.88000011 0.13000000 20 17 237 97.000000 1.000000 4.000000 1.000000 -60.708740 114.000000 141.000000 0.806590 0.581970 -0.103559
14.80000019 15.88000011 0.04000000 20 17 237 97.000000 1.000000 4.000000 1.000000 -60.708740 114.000000 141.000000 0.637173 0.717019 0.282656
14.81000042 15.88000011 0.03000000 20 17 237 97.000000 1.000000 4.000000 1.000000 -60.708740 114.000000 141.000000 0.755704 0.634549 0.162045
14.77999973 15.89999962 0.05000000 20 17 237 97.000000 1.000000 4.000000 1.000000 -60.708740 114.000000 141.000000 0.518711 0.802505 -0.294830
14.77999973 15.89999962 0.03000000 20 17 237 97.000000 1.000000 4.000000 1.000000 -60.708740 114.000000 141.000000 0.469239 0.812818 0.345169
14.80000019 15.89999962 -0.02000000 20 17 237 97.000000 1.000000 4.000000 1.000000 -60.708740 114.000000 141.000000 0.749953 0.590048 -0.299022
14.73999977 15.89000034 0.11000000 20 17 237 97.000000 1.000000 4.000000 1.000000 -60.708740 114.000000 141.000000 0.701238 0.704203 0.111190
14.77000046 15.89999962 0.12000000 20 17 237 97.000000 1.000000 4.000000 1.000000 -60.708740 114.000000 141.000000 0.878819 0.475516 -0.039513
14.73999977 15.89999962 0.10000000 20 17 237 97.000000 1.000000 4.000000 1.000000 -60.708740 114.000000 141.000000 0.923897 0.360444 0.128434
14.72999954 15.89999962 0.08000000 20 17 237 97.000000 1.000000 4.000000 1.000000 -60.708740 114.000000 141.000000 0.780502 0.615876 -0.107301
14.72999954 15.89000034 0.10000000 20 17 237 97.000000 1.000000 4.000000 1.000000 -60.708740 114.000000 141.000000 0.567548 0.757267 0.323165
14.75000000 15.88000011 0.05000000 20 17 237 97.000000 1.000000 4.000000 1.000000 -60.708740 114.000000 141.000000 0.775728 0.548608 0.311891
14.77000046 15.89999962 0.06000000 20 17 237 97.000000 1.000000 4.000000 1.000000 -60.708740 114.000000 141.000000 0.834949 0.530525 -0.146301
14.77000046 15.89999962 0.06000000 20 17 237 97.000000 1.000000 4.000000 1.000000 -60.708740 114.000000 141.000000 0.834949 0.530525 -0.146301
14.75000000 15.89999962 0.05000000 20 17 237 97.000000 1.000000 4.000000 1.000000 -60.708740 114.000000 141.000000 0.357275 0.926724 0.116354
14.76000023 15.89000034 0.00000000 20 17 237 97.000000 1.000000 4.000000 1.000000 -60.708740 114.000000 141.000000 0.909229 0.416132 0.011740
14.72000027 15.89999962 0.03000000 20 17 237 97.000000 1.000000 4.000000 1.000000 -60.708740 114.000000 141.000000 0.668659 0.738585 -0.085950
14.64999962 16.02000046 0.55000001 20 17 237 97.000000 1.000000 4.000000 1.000000 -60.708740 114.000000 141.000000 0.683535 0.677161 0.272458
14.68000031 15.94999981 0.58999997 20 17 237 97.000000 1.000000 4.000000 1.000000 -60.708740 114.000000 141.000000 0.824554 0.444721 0.349763
14.68000031 15.94999981 0.58999997 20 17 237 97.000000 1.000000 4.000000 1.000000 -60.708740 114.000000 141.000000 0.824554 0.444721 0.349763
14.68999958 15.93000031 0.61000001 20 17 237 97.000000 1.000000 4.000000 1.000000 -60.708740 114.000000 141.000000 0.576511 0.680116 0.452854
14.68999958 15.93999958 0.58999997 20 17 237 97.000000 1.000000 4.000000 1.000000 -60.708740 114.000000 141.000000 0.907747 0.386185 0.163879
14.68999958 15.93000031 0.58999997 20 17 237 97.000000 1.000000 4.000000 1.000000 -60.708740 114.000000 141.000000 0.810373 0.579251 0.088115
14.68999958 15.93000031 0.60000002 20 17 237 97.000000 1.000000 4.000000 1.000000 -60.708740 114.000000 141.000000 0.562392 0.822838 0.081568
14.67000008 15.96000004 0.54000002 20 17 237 97.000000 1.000000 4.000000 1.000000 -60.708740 114.000000 141.000000 0.693833 0.719269 -0.035328
14.68000031 15.94999981 0.54000002 20 17 237 97.000000 1.000000 4.000000 1.000000 -60.708740 114.000000 141.000000 0.762460 0.450917 0.464035
14.68999958 15.97000027 0.52999997 20 17 237 97.000000 1.000000 4.000000 1.000000 -60.708740 114.000000 141.000000 0.948124 0.317703 0.011213
14.68999958 15.94999981 0.50000000 20 17 237 97.000000 1.000000 4.000000 1.000000 -60.708740 114.000000 141.000000 0.894177 0.414586 0.169013
14.68999958 15.96000004 0.51999998 20 17 237 97.000000 1.000000 4.000000 1.000000 -60.708740 114.000000 141.000000 0.863136 0.503610 0.037050
14.68999958 15.90999985 0.50999999 20 17 237 97.000000 1.000000 4.000000 1.000000 -60.708740 114.000000 141.000000 0.793537 0.581118 -0.180556
14.67000008 16.00000000 0.37000000 20 17 237 97.000000 1.000000 4.000000 1.000000 -60.708740 114.000000 141.000000 0.857194 0.257310 0.446106
14.68999958 15.97000027 0.47999999 20 17 237 97.000000 1.000000 4.000000 1.000000 -60.708740 114.000000 141.000000 0.869476 0.493559 -0.020283
14.68999958 15.97000027 0.47999999 20 17 237 97.000000 1.000000 4.000000 1.000000 -60.708740 114.000000 141.000000 0.869476 0.493559 -0.020283
14.68000031 15.97000027 0.41000000 20 17 237 97.000000 1.000000 4.000000 1.000000 -60.708740 114.000000 141.000000 0.804089 0.585982 -0.100329
14.68999958 15.93999958 0.37000000 20 17 237 97.000000 1.000000 4.000000 1.000000 -60.708740 114.000000 141.000000 0.811835 0.526218 -0.253019
14.68999958 15.93000031 0.31999999 20 17 237 97.000000 1.000000 4.000000 1.000000 -60.708740 114.000000 141.000000 0.870545 0.325880 0.368719
14.68999958 15.94999981 0.25999999 20 17 237 97.000000 1.000000 4.000000 1.000000 -60.708740 114.000000 141.000000 0.823112 0.333352 0.459742
14.68999958 15.94999981 0.27000001 20 17 237 97.000000 1.000000 4.000000 1.000000 -60.708740 114.000000 141.000000 0.897162 0.380303 -0.224658
14.68999958 15.96000004 0.19000000 20 17 237 97.000000 1.000000 4.000000 1.000000 -60.708740 114.000000 141.000000 0.776613 0.582850 -0.239078
14.68000031 15.97999954 0.17000000 20 17 237 97.000000 1.000000 4.000000 1.000000 -60.708740 114.000000 141.000000 0.871007 0.402822 -0.281215
14.68999958 15.94999981 0.17000000 20 17 237 97.000000 1.000000 4.000000 1.000000 -60.708740 114.000000 141.000000 0.801098 0.346982 0.487694
14.68999958 15.94999981 0.11000000 20 17 237 97.000000 1.000000 4.000000 1.000000 -60.708740 114.000000 141.000000 0.760549 0.645096 -0.073601
14.68000031 15.97000027 0.11000000 20 17 237 97.000000 1.000000 4.000000 1.000000 -60.708740 114.000000 141.000000 0.988142 0.144465 -0.052007
14.68000031 15.96000004 0.11000000 20 17 237 97.000000 1.000000 4.000000 1.000000 -60.708740 114.000000 141.000000 0.970485 0.173072 0.167944
14.68999958 15.97000027 0.13000000 20 17 237 97.000000 1.000000 4.000000 1.000000 -60.708740 114.000000 141.000000 0.977044 0.204610 -0.059325
14.68999958 15.97000027 0.13000000 20 17 237 97.000000 1.000000 4.000000 1.000000 -60.708740 114.000000 141.000000 0.977044 0.204610 -0.059325
14.67000008 15.97999954 0.10000000 20 17 237 97.000000 1.000000 4.000000 1.000000 -60.708740 114.000000 141.000000 0.973713 0.227081 0.017834
14.65999985 15.97000027 0.10000000 20 17 237 97.000000 1.000000 4.000000 1.000000 -60.708740 114.000000 141.000000 0.728179 0.650215 0.216738
14.68000031 15.96000004 0.10000000 20 17 237 97.000000 1.000000 4.000000 1.000000 -60.708740 114.000000 141.000000 0.697819 0.547929 0.461327
14.68999958 15.93000031 0.01000000 20 17 237 97.000000 1.000000 4.000000 1.000000 -60.708740 114.000000 141.000000 0.803096 0.386320 0.453645
14.68999958 15.96000004 0.03000000 20 17 237 97.000000 1.000000 4.000000 1.000000 -60.708740 114.000000 141.000000 0.942772 0.325590 -0.071917
14.68999958 15.96000004 0.03000000 20 17 237 97.000000 1.000000 4.000000 1.000000 -60.708740 114.000000 141.000000 0.942772 0.325590 -0.071917
15.22999954 15.78999996 -0.51999998 20 17 237 97.000000 1.000000 4.000000 1.000000 -60.708740 114.000000 141.000000 0.038950 0.956161 -0.290241
15.19999981 15.77999973 -0.51999998 20 17 237 97.000000 1.000000 4.000000 1.000000 -60.708740 114.000000 141.000000 -0.318734 0.928119 -0.192364
15.19999981 15.78999996 -0.58999997 20 17 237 97.000000 1.000000 4.000000 1.000000 -60.708740 114.000000 141.000000 -0.506876 0.836724 -0.207290
15.19999981 15.80000019 -0.60000002 20 17 237 97.000000 1.000000 4.000000 1.000000 -60.708740 114.000000 141.000000 -0.590235 0.806886 -0.023609
15.22999954 15.75000000 -0.60000002 20 17 237 97.000000 1.000000 4.000000 1.000000 -60.708740 114.000000 141.000000 -0.413320 0.864769 -0.285206
15.25000000 15.77999973 -0.61000001 20 17 237 97.000000 1.000000 4.000000 1.000000 -60.708740 114.000000 141.000000 -0.567718 0.814169 0.121759
15.19999981 15.80000019 -0.62000000 20 17 237 97.000000 1.000000 4.000000 1.000000 -60.708740 114.000000 141.000000 -0.506498 0.845153 0.170813
15.22999954 15.77000046 -0.64999998 20 17 237 97.000000 1.000000 4.000000 1.000000 -60.708740 114.000000 141.000000 -0.358957 0.909646 0.209031
15.21000004 15.77000046 -0.64999998 20 17 237 97.000000 1.000000 4.000000 1.000000 -60.708740 114.000000 141.000000 -0.388172 0.918357 0.077093
15.06999969 15.90999985 -0.38999999 20 17 237 97.000000 1.000000 4.000000 1.000000 -60.708740 114.000000 141.000000 0.093026 0.987957 -0.123642
15.10000038 15.90999985 -0.38999999 20 17 237 97.000000 1.000000 4.000000 1.000000 -60.708740 114.000000 141.000000 0.066175 0.967648 0.243473
15.07999992 15.90999985 -0.38999999 20 17 237 97.000000 1.000000 4.000000 1.000000 -60.708740 114.000000 141.000000 -0.085407 0.974139 -0.209186
15.07999992 15.90999985 -0.43000001 20 17 237 97.000000 1.000000 4.000000 1.000000 -60.708740 114.000000 141.000000 -0.272554 0.943667 0.187638
15.06000042 15.90999985 -0.43000001 20 17 237 97.000000 1.000000 4.000000 1.000000 -60.708740 114.000000 141.000000 0.142989 0.923181 -0.356778
15.05000019 15.93000031 -0.41000000 20 17 237 97.000000 1.000000 4.000000 1.000000 -60.708740 114.000000 141.000000 -0.083351 0.992219 0.092485
15.02999973 15.93000031 -0.41000000 20 17 237 97.000000 1.000000 4.000000 1.000000 -60.708740 114.000000 141.000000 -0.013375 0.999020 -0.042183
15.05000019 15.90999985 -0.43000001 20 17 237 97.000000 1.000000 4.000000 1.000000 -60.708740 114.000000 141.000000 0.212870 0.918629 -0.332878
15.03999996 15.90999985 -0.41000000 20 17 237 97.000000 1.000000 4.000000 1.000000 -60.708740 114.000000 141.000000 -0.088606 0.996020 0.009608
15.06000042 15.90999985 -0.50999999 20 17 237 97.000000 1.000000 4.000000 1.000000 -60.708740 114.000000 141.000000 -0.204764 0.960408 -0.188911
15.06999969 15.90999985 -0.63000000 20 17 237 97.000000 1.000000 4.000000 1.000000 -60.708740 114.000000 141.000000 0.088243 0.973162 0.212530
15.09000015 15.90999985 -0.63000000 20 17 237 97.000000 1.000000 4.000000 1.000000 -60.708740 114.000000 141.000000 0.167936 0.952535 0.253920
15.07999992 15.92000008 -0.66000003 20 17 237 97.000000 1.000000 4.000000 1.000000 -60.708740 114.000000 141.000000 0.228828 0.973408 -0.010671
15.07999992 15.89999962 -0.40000001 20 17 237 97.000000 1.000000 4.000000 1.000000 -60.708740 114.000000 141.000000 -0.024812 0.918050 -0.395688
15.03999996 15.88000011 -0.40000001 20 17 237 97.000000 1.000000 4.000000 1.000000 -60.708740 114.000000 141.000000 0.306011 0.884868 -0.351234
15.02999973 15.88000011 -0.43000001 20 17 237 97.000000 1.000000 4.000000 1.000000 -60.708740 114.000000 141.000000 -0.090480 0.988226 -0.123381
15.03999996 15.88000011 -0.47000000 20 17 237 97.000000 1.000000 4.000000 1.000000 -60.708740 114.000000 141.000000 0.425397 0.904791 -0.019755
15.03999996 15.89999962 -0.51999998 20 17 237 97.000000 1.000000 4.000000 1.000000 -60.708740 114.000000 141.000000 -0.040203 0.996375 0.074973
15.02999973 15.88000011 -0.49000001 20 17 237 97.000000 1.000000 4.000000 1.000000 -60.708740 114.000000 141.000000 0.487253 0.853811 -0.183279
15.02999973 15.88000011 -0.49000001 20 17 237 97.000000 1.000000 4.000000 1.000000 -60.708740 114.000000 141.000000 0.487253 0.853811 -0.183279
15.05000019 15.89000034 -0.51999998 20 17 237 97.000000 1.000000 4.000000 1.000000 -60.708740 114.000000 141.000000 0.531603 0.833684 0.149560
15.07999992 15.81000042 -0.51999998 20 17 237 97.000000 1.000000 4.000000 1.000000 -60.708740 114.000000 141.000000 0.141571 0.915307 -0.377056
15.17000008 15.86999989 -0.57999998 20 17 237 97.000000 1.000000 4.000000 1.000000 -60.708740 114.000000 141.000000 -0.067656 0.983973 -0.164985
15.17000008 15.85000038 -0.52999997 20 17 237 97.000000 1.000000 4.000000 1.000000 -60.708740 114.000000 141.000000 0.053734 0.980340 -0.189859
15.10999966 15.85000038 -0.60000002 20 17 237 97.000000 1.000000 4.000000 1.000000 -60.708740 114.000000 141.000000 -0.225639 0.969364 -0.097062
15.15999985 15.84000015 -0.61000001 20 17 237 97.000000 1.000000 4.000000 1.000000 -60.708740 114.000000 141.000000 -0.390810 0.919785 0.035528
15.13000011 15.82999992 -0.62000000 20 17 237 97.000000 1.000000 4.000000 1.000000 -60.708740 114.000000 141.000000 -0.067322 0.991573 -0.110682
15.14999962 15.82999992 -0.63999999 20 17 237 97.000000 1.000000 4.000000 1.000000 -60.708740 114.000000 141.000000 -0.293367 0.944992 -0.144655
15.18999958 15.80000019 -0.56000000 20 17 237 97.000000 1.000000 4.000000 1.000000 -60.708740 114.000000 141.000000 -0.424944 0.904505 0.035967
15.18000031 15.80000019 -0.57999998 20 17 237 97.000000 1.000000 4.000000 1.000000 -60.708740 114.000000 141.000000 -0.112875 0.970216 0.214335
15.17000008 15.78999996 -0.56999999 20 17 237 97.000000 1.000000 4.000000 1.000000 -60.708740 114.000000 141.000000 -0.533177 0.845682 0.023301
15.15999985 15.77999973 -0.54000002 20 17 237 97.000000 1.000000 4.000000 1.000000 -60.708740 114.000000 141.000000 0.010614 0.975321 -0.220538
15.17000008 15.77999973 -0.60000002 20 17 237 97.000000 1.000000 4.000000 1.000000 -60.708740 114.000000 141.000000 -0.070013 0.958538 -0.276232
15.11999989 15.80000019 -0.56999999 20 17 237 97.000000 1.000000 4.000000 1.000000 -60.708740 114.000000 141.000000 0.254562 0.912059 -0.321475
15.11999989 15.77000046 -0.60000002 20 17 237 97.000000 1.000000 4.000000 1.000000 -60.708740 114.000000 141.000000 -0.101365 0.980679 -0.167314
15.10999966 15.77000046 -0.58999997 20 17 237 97.000000 1.000000 4.000000 1.000000 -60.708740 114.000000 141.000000 0.139879 0.979150 0.147306
15.14999962 15.77999973 -0.58999997 20 17 237 97.000000 1.000000 4.000000 1.000000 -60.708740 114.000000 141.000000 -0.024099 0.942412 0.333586
15.11999989 15.77000046 -0.60000002 20 17 237 97.000000 1.000000 4.000000 1.000000 -60.708740 114.000000 141.000000 -0.101365 0.980679 -0.167314
15.10999966 15.77000046 -0.60000002 20 17 237 97.000000 1.000000 4.000000 1.000000 -60.708740 114.000000 141.000000 -0.182935 0.949907 0.253399
15.18999958 15.80000019 -0.61000001 20 17 237 97.000000 1.000000 4.000000 1.000000 -60.708740 114.000000 141.000000 -0.027554 0.917159 -0.397567
15.18999958 15.80000019 -0.62000000 20 17 237 97.000000 1.000000 4.000000 1.000000 -60.708740 114.000000 141.000000 -0.341831 0.939720 0.008830
15.15999985 15.80000019 -0.61000001 20 17 237 97.000000 1.000000 4.000000 1.000000 -60.708740 114.000000 141.000000 0.103809 0.934282 -0.341087
15.18999958 15.80000019 -0.61000001 20 17 237 97.000000 1.000000 4.000000 1.000000 -60.708740 114.000000 141.000000 -0.027554 0.917159 -0.397567
15.15999985 15.80000019 -0.67000002 20 17 237 97.000000 1.000000 4.000000 1.000000 -60.708740 114.000000 141.000000 -0.224973 0.963614 -0.144347
15.15999985 15.80000019 -0.68000001 20 17 237 97.000000 1.000000 4.000000 1.000000 -60.708740 114.000000 141.000000 -0.210016 0.972110 -0.104379
15.10999966 15.78999996 -0.68000001 20 17 237 97.000000 1.000000 4.000000 1.000000 -60.708740 114.000000 141.000000 -0.264000 0.958464 -0.107941
15.14999962 15.80000019 -0.68000001 20 17 237 97.000000 1.000000 4.000000 1.000000 -60.708740 114.000000 141.000000 -0.202739 0.977274 -0.061914
15.10999966 15.75000000 -0.62000000 20 17 237 97.000000 1.000000 4.000000 1.000000 -60.708740 114.000000 141.000000 -0.250166 0.968033 0.018128
15.11999989 15.75000000 -0.62000000 20 17 237 97.000000 1.000000 4.000000 1.000000 -60.708740 114.000000 141.000000 -0.349947 0.924361 0.151969
15.13000011 15.77000046 -0.68000001 20 17 237 97.000000 1.000000 4.000000 1.000000 -60.708740 114.000000 141.000000 0.267171 0.917045 0.296054
15.06999969 15.84000015 -0.57999998 20 17 237 97.000000 1.000000 4.000000 1.000000 -60.708740 114.000000 141.000000 0.280979 0.959707 0.003649
15.07999992 15.85000038 -0.63999999 20 17 237 97.000000 1.000000 4.000000 1.000000 -60.708740 114.000000 141.000000 -0.181872 0.968695 -0.168973
15.02999973 15.84000015 -0.62000000 20 17 237 97.000000 1.000000 4.000000 1.000000 -60.708740 114.000000 141.000000 0.295164 0.933055 -0.205636
15.02999973 15.84000015 -0.63000000 20 17 237 97.000000 1.000000 4.000000 1.000000 -60.708740 114.000000 141.000000 0.513135 0.824406 0.238847
15.06000042 15.82999992 -0.64999998 20 17 237 97.000000 1.000000 4.000000 1.000000 -60.708740 114.000000 141.000000 -0.119044 0.980579 0.155862
15.07999992 15.81000042 -0.56000000 20 17 237 97.000000 1.000000 4.000000 1.000000 -60.708740 114.000000 141.000000 -0.062426 0.997753 0.024335
15.09000015 15.80000019 -0.60000002 20 17 237 97.000000 1.000000 4.000000 1.000000 -60.708740 114.000000 141.000000 0.204341 0.902869 0.378249
15.09000015 15.78999996 -0.57999998 20 17 237 97.000000 1.000000 4.000000 1.000000 -60.708740 114.000000 141.000000 0.195965 0.979827 0.039193
15.06999969 15.78999996 -0.60000002 20 17 237 97.000000 1.000000 4.000000 1.000000 -60.708740 114.000000 141.000000 0.152823 0.945338 -0.288064
15.03999996 15.77999973 -0.60000002 20 17 237 97.000000 1.000000 4.000000 1.000000 -60.708740 114.000000 141.000000 0.450885 0.854390 0.258304
15.06999969 15.81000042 -0.62000000 20 17 237 97.000000 1.000000 4.000000 1.000000 -60.708740 114.000000 141.000000 0.427731 0.903860 0.009156
15.09000015 15.81000042 -0.63000000 20 17 237 97.000000 1.000000 4.000000 1.000000 -60.708740 114.000000 141.000000 -0.124261 0.967184 -0.221620
15.09000015 15.81000042 -0.64999998 20 17 237 97.000000 1.000000 4.000000 1.000000 -60.708740 114.000000 141.000000 0.186132 0.975632 0.116176
15.09000015 15.81000042 -0.64999998 20 17 237 97.000000 1.000000 4.000000 1.000000 -60.708740 114.000000 141.000000 0.186132 0.975632 0.116176
15.06999969 15.77000046 -0.63000000 20 17 237 97.000000 1.000000 4.000000 1.000000 -60.708740 114.000000 141.000000 0.174890 0.914265 -0.365422
15.09000015 15.75000000 -0.64999998 20 17 237 97.000000 1.000000 4.000000 1.000000 -60.708740 114.000000 141.000000 -0.020744 0.994616 -0.101536
15.10000038 15.75000000 -0.66000003 20 17 237 97.000000 1.000000 4.000000 1.000000 -60.708740 114.000000 141.000000 0.023337 0.992363 -0.121128
15.09000015 15.75000000 -0.68000001 20 17 237 97.000000 1.000000 4.000000 1.000000 -60.708740 114.000000 141.000000 0.192262 0.903486 0.383078
15.10000038 15.75000000 -0.66000003 20 17 237 97.000000 1.000000 4.000000 1.000000 -60.708740 114.000000 141.000000 0.023337 0.992363 -0.121128
15.09000015 15.77999973 -0.66000003 20 17 237 97.000000 1.000000 4.000000 1.000000 -60.708740 114.000000 141.000000 0.366048 0.902725 -0.226046
15.06000042 15.78999996 -0.63999999 20 17 237 97.000000 1.000000 4.000000 1.000000 -60.708740 114.000000 141.000000 0.361347 0.925867 0.110449
15.05000019 15.80000019 -0.62000000 20 17 237 97.000000 1.000000 4.000000 1.000000 -60.708740 114.000000 141.000000 0.200952 0.971900 -0.122593
15.06000042 15.80000019 -0.67000002 20 17 237 97.000000 1.000000 4.000000 1.000000 -60.708740 114.000000 141.000000 0.289700 0.957110 -0.003667
15.06000042 15.75000000 -0.62000000 20 17 237 97.000000 1.000000 4.000000 1.000000 -60.708740 114.000000 141.000000 0.164892 0.985890 -0.028827
15.03999996 15.77999973 -0.62000000 20 17 237 97.000000 1.000000 4.000000 1.000000 -60.708740 114.000000 141.000000 0.444008 0.889425 -0.108535
15.05000019 15.75000000 -0.62000000 20 17 237 97.000000 1.000000 4.000000 1.000000 -60.708740 114.000000 141.000000 0.062103 0.959428 -0.275028
15.03999996 15.75000000 -0.62000000 20 17 237 97.000000 1.000000 4.000000 1.000000 -60.708740 114.000000 141.000000 0.024242 0.998144 0.055862
15.03999996 15.75000000 -0.61000001 20 17 237 97.000000 1.000000 4.000000 1.000000 -60.708740 114.000000 141.000000 -0.163217 0.985174 0.052840
15.05000019 15.77999973 -0.67000002 20 17 237 97.000000 1.000000 4.000000 1.000000 -60.708740 114.000000 141.000000 -0.109782 0.948357 0.297602
15.05000019 15.77000046 -0.64999998 20 17 237 97.000000 1.000000 4.000000 1.000000 -60.708740 114.000000 141.000000 0.197598 0.967327 0.158853
15.14000034 16.12999916 -1.05999994 20 17 237 97.000000 1.000000 4.000000 1.000000 -60.708740 114.000000 141.000000 0.832169 -0.350801 0.429456
15.13000011 16.12000084 -1.05999994 20 17 237 97.000000 1.000000 4.000000 1.000000 -60.708740 114.000000 141.000000 0.913410 0.349541 0.208574
15.13000011 16.12000084 -1.05999994 20 17 237 97.000000 1.000000 4.000000 1.000000 -60.708740 114.000000 141.000000 0.913410 0.349541 0.208574
15.14000034 16.11000061 -1.05999994 20 17 237 97.000000 1.000000 4.000000 1.000000 -60.708740 114.000000 141.000000 0.888534 0.301173 0.346124
15.10000038 16.11000061 -1.11000001 20 17 237 97.000000 1.000000 4.000000 1.000000 -60.708740 114.000000 141.000000 0.974548 0.013026 -0.223803
15.03999996 16.12999916 -1.10000002 20 17 237 97.000000 1.000000 4.000000 1.000000 -60.708740 114.000000 141.000000 0.969645 0.078823 -0.231464
15.02999973 16.07999992 -1.11000001 20 17 237 97.000000 1.000000 4.000000 1.000000 -60.708740 114.000000 141.000000 0.900640 0.430623 -0.058413
15.02999973 16.07999992 -1.11000001 20 17 237 97.000000 1.000000 4.000000 1.000000 -60.708740 114.000000 141.000000 0.900640 0.430623 -0.058413
15.02999973 16.07999992 -1.13000000 20 17 237 97.000000 1.000000 4.000000 1.000000 -60.708740 114.000000 141.000000 0.939450 0.283634 0.192317
15.02999973 16.09000015 -1.13000000 20 17 237 97.000000 1.000000 4.000000 1.000000 -60.708740 114.000000 141.000000 0.996539 0.078646 -0.026933
15.02999973 16.10000038 -1.13000000 20 17 237 97.000000 1.000000 4.000000 1.000000 -60.708740 114.000000 141.000000 0.961986 -0.259340 0.085595
15.03999996 15.90999985 -1.00999999 20 17 237 97.000000 1.000000 4.000000 1.000000 -60.708740 114.000000 141.000000 0.459379 0.842968 -0.279958
15.05000019 15.90999985 -1.00000000 20 17 237 97.000000 1.000000 4.000000 1.000000 -60.708740 114.000000 141.000000 0.770340 0.624318 -0.129632
15.15999985 15.84000015 -0.75000000 20 17 237 97.000000 1.000000 4.000000 1.000000 -60.708740 114.000000 141.000000 0.039995 0.937944 0.344472
15.14999962 15.86999989 -0.72000003 20 17 237 97.000000 1.000000 4.000000 1.000000 -60.708740 114.000000 141.000000 -0.369613 0.911902 0.178385
15.14999962 15.88000011 -0.72000003 20 17 237 97.000000 1.000000 4.000000 1.000000 -60.708740 114.000000 141.000000 -0.074346 0.996673 0.033402
15.13000011 15.88000011 -0.69999999 20 17 237 97.000000 1.000000 4.000000 1.000000 -60.708740 114.000000 141.000000 -0.231191 0.934571 -0.270423
15.13000011 15.86999989 -0.74000001 20 17 237 97.000000 1.000000 4.000000 1.000000 -60.708740 114.000000 141.000000 -0.386330 0.919384 -0.074035
15.13000011 15.85999966 -0.79000002 20 17 237 97.000000 1.000000 4.000000 1.000000 -60.708740 114.000000 141.000000 0.180371 0.970932 -0.157345
15.11999989 15.85999966 -0.77999997 20 17 237 97.000000 1.000000 4.000000 1.000000 -60.708740 114.000000 141.000000 -0.060938 0.989949 -0.127624
15.13000011 15.81000042 -0.72000003 20 17 237 97.000000 1.000000 4.000000 1.000000 -60.708740 114.000000 141.000000 0.373569 0.926712 -0.040634
15.13000011 15.81000042 -0.73000002 20 17 237 97.000000 1.000000 4.000000 1.000000 -60.708740 114.000000 141.000000 0.155467 0.962851 -0.220789
15.14999962 15.81000042 -0.79000002 20 17 237 97.000000 1.000000 4.000000 1.000000 -60.708740 114.000000 141.000000 0.114666 0.952912 0.280733
15.06000042 15.86999989 -0.70999998 20 17 237 97.000000 1.000000 4.000000 1.000000 -60.708740 114.000000 141.000000 0.388969 0.917534 0.082673
15.05000019 15.89000034 -0.72000003 20 17 237 97.000000 1.000000 4.000000 1.000000 -60.708740 114.000000 141.000000 0.511735 0.854781 0.086470
15.03999996 15.89999962 -0.72000003 20 17 237 97.000000 1.000000 4.000000 1.000000 -60.708740 114.000000 141.000000 0.343349 0.911251 0.227451
15.06999969 15.86999989 -0.82999998 20 17 237 97.000000 1.000000 4.000000 1.000000 -60.708740 114.000000 141.000000 0.215823 0.955786 -0.199736
15.02999973 15.89999962 -0.82999998 20 17 237 97.000000 1.000000 4.000000 1.000000 -60.708740 114.000000 141.000000 0.548855 0.814967 -0.185976
15.05000019 15.86999989 -0.82999998 20 17 237 97.000000 1.000000 4.000000 1.000000 -60.708740 114.000000 141.000000 0.329378 0.940513 -0.083337
15.06000042 15.78999996 -0.70999998 20 17 237 97.000000 1.000000 4.000000 1.000000 -60.708740 114.000000 141.000000 0.096844 0.992368 -0.076336
15.05000019 15.81999969 -0.76999998 20 17 237 97.000000 1.000000 4.000000 1.000000 -60.708740 114.000000 141.000000 0.355565 0.894121 -0.272253
15.02999973 15.78999996 -0.75999999 20 17 237 97.000000 1.000000 4.000000 1.000000 -60.708740 114.000000 141.000000 0.138836 0.986091 0.091371
15.02999973 15.75000000 -0.73000002 20 17 237 97.000000 1.000000 4.000000 1.000000 -60.708740 114.000000 141.000000 0.273639 0.946165 -0.172896
15.07999992 15.76000023 -0.79000002 20 17 237 97.000000 1.000000 4.000000 1.000000 -60.708740 114.000000 141.000000 0.121552 0.906747 0.403775
15.02999973 15.78999996 -0.77999997 20 17 237 97.000000 1.000000 4.000000 1.000000 -60.708740 114.000000 141.000000 0.029591 0.978856 0.202399
15.05000019 15.76000023 -0.79000002 20 17 237 97.000000 1.000000 4.000000 1.000000 -60.708740 114.000000 141.000000 0.294946 0.953785 0.057457
15.03999996 15.76000023 -0.80000001 20 17 237 97.000000 1.000000 4.000000 1.000000 -60.708740 114.000000 141.000000 0.502380 0.840318 -0.203668
15.05000019 15.76000023 -0.77999997 20 17 237 97.000000 1.000000 4.000000 1.000000 -60.708740 114.000000 141.000000 0.523246 0.850796 -0.048577
15.03999996 15.89999962 -0.87000000 20 17 237 97.000000 1.000000 4.000000 1.000000 -60.708740 114.000000 141.000000 0.154938 0.922649 0.353147
15.07999992 15.81000042 -0.88000000 20 17 237 97.000000 1.000000 4.000000 1.000000 -60.708740 114.000000 141.000000 0.340563 0.911549 -0.230423
15.10000038 15.81000042 -0.89999998 20 17 237 97.000000 1.000000 4.000000 1.000000 -60.708740 114.000000 141.000000 0.234436 0.955161 -0.180851
15.06999969 15.77999973 -0.86000001 20 17 237 97.000000 1.000000 4.000000 1.000000 -60.708740 114.000000 141.000000 -0.116106 0.968400 -0.220729
15.02999973 15.77000046 -0.92000002 20 17 237 97.000000 1.000000 4.000000 1.000000 -60.708740 114.000000 141.000000 0.507781 0.861485 0.001340
15.07999992 15.81000042 -0.97000003 20 17 237 97.000000 1.000000 4.000000 1.000000 -60.708740 114.000000 141.000000 0.460557 0.838927 -0.289980
15.07999992 15.75000000 -0.97000003 20 17 237 97.000000 1.000000 4.000000 1.000000 -60.708740 114.000000 141.000000 0.157977 0.982836 0.095269
15.07999992 15.75000000 -0.95999998 20 17 237 97.000000 1.000000 4.000000 1.000000 -60.708740 114.000000 141.000000 0.217296 0.976071 -0.008222
15.07999992 15.75000000 -0.97000003 20 17 237 97.000000 1.000000 4.000000 1.000000 -60.708740 114.000000 141.000000 0.157977 0.982836 0.095269
15.07999992 15.75000000 -0.97000003 20 17 237 97.000000 1.000000 4.000000 1.000000 -60.708740 114.000000 141.000000 0.157977 0.982836 0.095269
15.05000019 15.81000042 -0.95999998 20 17 237 97.000000 1.000000 4.000000 1.000000 -60.708740 114.000000 141.000000 0.418483 0.908224 -0.001296
15.02999973 15.81999969 -1.00000000 20 17 237 97.000000 1.000000 4.000000 1.000000 -60.708740 114.000000 141.000000 0.489635 0.869691 0.062418
15.03999996 15.81999969 -1.00000000 20 17 237 97.000000 1.000000 4.000000 1.000000 -60.708740 114.000000 141.000000 0.359197 0.850566 0.384076
15.05000019 15.75000000 -1.00999999 20 17 237 97.000000 1.000000 4.000000 1.000000 -60.708740 114.000000 141.000000 0.671870 0.735996 0.083073
15.05000019 15.75000000 -1.00000000 20 17 237 97.000000 1.000000 4.000000 1.000000 -60.708740 114.000000 141.000000 0.555821 0.827302 0.081444
15.02999973 15.75000000 -1.00999999 20 17 237 97.000000 1.000000 4.000000 1.000000 -60.708740 114.000000 141.000000 0.539764 0.836274 0.096438
15.06999969 16.02000046 -1.08000004 20 17 237 97.000000 1.000000 4.000000 1.000000 -60.708740 114.000000 141.000000 0.576293 0.817214 0.006844
15.05000019 16.05999947 -1.13999999 20 17 237 97.000000 1.000000 4.000000 1.000000 -60.708740 114.000000 141.000000 0.969491 0.147281 0.195947
15.06000042 16.04999924 -1.13999999 20 17 237 97.000000 1.000000 4.000000 1.000000 -60.708740 114.000000 141.000000 0.893974 0.237901 0.379754
15.06000042 16.05999947 -1.14999998 20 17 237 97.000000 1.000000 4.000000 1.000000 -60.708740 114.000000 141.000000 0.925279 0.318817 -0.205460
15.05000019 16.01000023 -1.14999998 20 17 237 97.000000 1.000000 4.000000 1.000000 -60.708740 114.000000 141.000000 0.788570 0.583388 0.194463
15.03999996 16.03000069 -1.15999997 20 17 237 97.000000 1.000000 4.000000 1.000000 -60.708740 114.000000 141.000000 0.616207 0.786196 0.046747
15.11999989 15.80000019 -1.03999996 20 17 237 97.000000 1.000000 4.000000 1.000000 -60.708740 114.000000 141.000000 0.084616 0.966141 0.243745
15.03999996 15.85999966 -1.11000001 20 17 237 97.000000 1.000000 4.000000 1.000000 -60.708740 114.000000 141.000000 0.334155 0.939068 -0.080567
15.02999973 15.86999989 -1.10000002 20 17 237 97.000000 1.000000 4.000000 1.000000 -60.708740 114.000000 141.000000 0.700268 0.706165 -0.104672
15.05000019 15.85000038 -1.09000003 20 17 237 97.000000 1.000000 4.000000 1.000000 -60.708740 114.000000 141.000000 0.340235 0.874237 0.346338
15.03999996 15.85000038 -1.08000004 20 17 237 97.000000 1.000000 4.000000 1.000000 -60.708740 114.000000 141.000000 0.614331 0.786172 0.067304
15.02999973 15.85000038 -1.05999994 20 17 237 97.000000 1.000000 4.000000 1.000000 -60.708740 114.000000 141.000000 0.307622 0.948827 0.071389
15.10000038 15.80000019 -1.05999994 20 17 237 97.000000 1.000000 4.000000 1.000000 -60.708740 114.000000 141.000000 -0.094825 0.995121 0.027249
15.10000038 15.80000019 -1.02999997 20 17 237 97.000000 1.000000 4.000000 1.000000 -60.708740 114.000000 141.000000 -0.051190 0.962629 0.265940
15.05000019 15.75000000 -1.02999997 20 17 237 97.000000 1.000000 4.000000 1.000000 -60.708740 114.000000 141.000000 0.523864 0.851108 0.034374
15.06000042 15.75000000 -1.09000003 20 17 237 97.000000 1.000000 4.000000 1.000000 -60.708740 114.000000 141.000000 0.082004 0.977932 -0.192159
15.03999996 15.65999985 -0.30000001 20 17 237 97.000000 1.000000 4.000000 1.000000 -60.708740 114.000000 141.000000 -0.067713 0.956919 -0.282349
15.07999992 15.64000034 -0.22000000 20 17 237 97.000000 1.000000 4.000000 1.000000 -60.708740 114.000000 141.000000 -0.036677 0.998654 -0.036677
15.06999969 15.63000011 -0.27000001 20 17 237 97.000000 1.000000 4.000000 1.000000 -60.708740 114.000000 141.000000 0.015556 0.998690 0.048742
15.09000015 15.64000034 -0.23999999 20 17 237 97.000000 1.000000 4.000000 1.000000 -60.708740 114.000000 141.000000 0.221896 0.948846 0.224619
15.09000015 15.60000038 -0.27000001 20 17 237 97.000000 1.000000 4.000000 1.000000 -60.708740 114.000000 141.000000 -0.033281 0.999445 0.001009
15.10000038 15.60000038 -0.25999999 20 17 237 97.000000 1.000000 4.000000 1.000000 -60.708740 114.000000 141.000000 -0.168342 0.896386 -0.410064
15.09000015 15.60000038 -0.27000001 20 17 237 97.000000 1.000000 4.000000 1.000000 -60.708740 114.000000 141.000000 -0.033281 0.999445 0.001009
15.06000042 15.64000034 -0.22000000 20 17 237 97.000000 1.000000 4.000000 1.000000 -60.708740 114.000000 141.000000 0.252184 0.964380 0.079837
15.05000019 15.61999989 -0.20999999 20 17 237 97.000000 1.000000 4.000000 1.000000 -60.708740 114.000000 141.000000 0.278627 0.950532 0.137314
15.03999996 15.61999989 -0.23000000 20 17 237 97.000000 1.000000 4.000000 1.000000 -60.708740 114.000000 141.000000 -0.133704 0.984110 -0.116840
15.02999973 15.63000011 -0.25000000 20 17 237 97.000000 1.000000 4.000000 1.000000 -60.708740 114.000000 141.000000 -0.309154 0.943523 0.119111
15.02999973 15.61999989 -0.27000001 20 17 237 97.000000 1.000000 4.000000 1.000000 -60.708740 114.000000 141.000000 0.377262 0.925532 -0.032635
15.02999973 15.63000011 -0.27000001 20 17 237 97.000000 1.000000 4.000000 1.000000 -60.708740 114.000000 141.000000 0.171359 0.980754 -0.093579
15.06000042 15.60999966 -0.27000001 20 17 237 97.000000 1.000000 4.000000 1.000000 -60.708740 114.000000 141.000000 -0.024769 0.921671 -0.387180
15.05000019 15.60999966 -0.23999999 20 17 237 97.000000 1.000000 4.000000 1.000000 -60.708740 114.000000 141.000000 0.036414 0.955552 -0.292567
15.06000042 15.60999966 -0.25999999 20 17 237 97.000000 1.000000 4.000000 1.000000 -60.708740 114.000000 141.000000 0.157914 0.937873 -0.308962
15.06000042 15.60999966 -0.23999999 20 17 237 97.000000 1.000000 4.000000 1.000000 -60.708740 114.000000 141.000000 -0.135928 0.986954 -0.086285
15.10000038 15.61999989 -0.33000001 20 17 237 97.000000 1.000000 4.000000 1.000000 -60.708740 114.000000 141.000000 0.114772 0.935732 0.333515
15.07999992 15.64999962 -0.34999999 20 17 237 97.000000 1.000000 4.000000 1.000000 -60.708740 114.000000 141.000000 -0.137830 0.959556 -0.245468
15.06999969 15.61999989 -0.31999999 20 17 237 97.000000 1.000000 4.000000 1.000000 -60.708740 114.000000 141.000000 -0.125977 0.920601 -0.369625
15.07999992 15.60000038 -0.28999999 20 17 237 97.000000 1.000000 4.000000 1.000000 -60.708740 114.000000 141.000000 -0.061845 0.960489 0.271360
15.09000015 15.60999966 -0.28999999 20 17 237 97.000000 1.000000 4.000000 1.000000 -60.708740 114.000000 141.000000 -0.397674 0.912311 0.097698
15.03999996 15.61999989 -0.30000001 20 17 237 97.000000 1.000000 4.000000 1.000000 -60.708740 114.000000 141.000000 0.366378 0.899024 0.239838
15.03999996 15.61999989 -0.30000001 20 17 237 97.000000 1.000000 4.000000 1.000000 -60.708740 114.000000 141.000000 0.366378 0.899024 0.239838
15.03999996 15.61999989 -0.31000000 20 17 237 97.000000 1.000000 4.000000 1.000000 -60.708740 114.000000 141.000000 0.111361 0.985486 -0.128125
15.02999973 15.64999962 -0.33000001 20 17 237 97.000000 1.000000 4.000000 1.000000 -60.708740 114.000000 141.000000 0.282730 0.890077 0.357527
15.06000042 15.60000038 -0.28000000 20 17 237 97.000000 1.000000 4.000000 1.000000 -60.708740 114.000000 141.000000 0.105877 0.986198 0.127290
15.19999981 15.59000015 -0.67000002 20 17 237 97.000000 1.000000 4.000000 1.000000 -60.708740 114.000000 141.000000 0.252013 0.959740 -0.124048
15.22000027 15.73999977 -0.63000000 20 17 237 97.000000 1.000000 4.000000 1.000000 -60.708740 114.000000 141.000000 -0.326317 0.938666 -0.111458
15.10999966 15.67000008 -0.36000001 20 17 237 97.000000 1.000000 4.000000 1.000000 -60.708740 114.000000 141.000000 0.132977 0.978067 0.160318
15.11999989 15.68000031 -0.38999999 20 17 237 97.000000 1.000000 4.000000 1.000000 -60.708740 114.000000 141.000000 -0.164977 0.959505 0.228328
15.11999989 15.67000008 -0.40000001 20 17 237 97.000000 1.000000 4.000000 1.000000 -60.708740 114.000000 141.000000 -0.237672 0.926494 0.291753
15.10999966 15.68999958 -0.46000001 20 17 237 97.000000 1.000000 4.000000 1.000000 -60.708740 114.000000 141.000000 -0.358426 0.916608 -0.177088
15.10999966 15.60999966 -0.38999999 20 17 237 97.000000 1.000000 4.000000 1.000000 -60.708740 114.000000 141.000000 -0.258264 0.963764 -0.066771
15.11999989 15.60000038 -0.49000001 20 17 237 97.000000 1.000000 4.000000 1.000000 -60.708740 114.000000 141.000000 0.045614 0.934441 -0.353185
15.10000038 15.67000008 -0.38000000 20 17 237 97.000000 1.000000 4.000000 1.000000 -60.708740 114.000000 141.000000 -0.249179 0.926945 0.280504
15.10000038 15.67000008 -0.38000000 20 17 237 97.000000 1.000000 4.000000 1.000000 -60.708740 114.000000 141.000000 -0.249179 0.926945 0.280504
15.05000019 15.67000008 -0.38999999 20 17 237 97.000000 1.000000 4.000000 1.000000 -60.708740 114.000000 141.000000 0.203607 0.976583 0.069495
15.06000042 15.65999985 -0.38000000 20 17 237 97.000000 1.000000 4.000000 1.000000 -60.708740 114.000000 141.000000 0.250881 0.892187 -0.375580
15.10000038 15.68999958 -0.47999999 20 17 237 97.000000 1.000000 4.000000 1.000000 -60.708740 114.000000 141.000000 -0.156689 0.941495 0.298390
15.10000038 15.68999958 -0.47999999 20 17 237 97.000000 1.000000 4.000000 1.000000 -60.708740 114.000000 141.000000 -0.156689 0.941495 0.298390
15.07999992 15.68999958 -0.46000001 20 17 237 97.000000 1.000000 4.000000 1.000000 -60.708740 114.000000 141.000000 -0.033140 0.965969 0.256528
15.09000015 15.68000031 -0.51999998 20 17 237 97.000000 1.000000 4.000000 1.000000 -60.708740 114.000000 141.000000 -0.168637 0.985437 -0.021797
15.03999996 15.65999985 -0.46000001 20 17 237 97.000000 1.000000 4.000000 1.000000 -60.708740 114.000000 141.000000 0.170600 0.920677 0.351070
15.06000042 15.67000008 -0.49000001 20 17 237 97.000000 1.000000 4.000000 1.000000 -60.708740 114.000000 141.000000 0.413723 0.910190 -0.019701
15.05000019 15.68000031 -0.49000001 20 17 237 97.000000 1.000000 4.000000 1.000000 -60.708740 114.000000 141.000000 -0.135639 0.987213 0.083742
15.06000042 15.67000008 -0.51999998 20 17 237 97.000000 1.000000 4.000000 1.000000 -60.708740 114.000000 141.000000 0.117406 0.993011 -0.012070
15.02999973 15.67000008 -0.50000000 20 17 237 97.000000 1.000000 4.000000 1.000000 -60.708740 114.000000 141.000000 0.307689 0.917290 -0.252796
15.06999969 15.63000011 -0.37000000 20 17 237 97.000000 1.000000 4.000000 1.000000 -60.708740 114.000000 141.000000 0.248202 0.966617 -0.063610
15.09000015 15.63000011 -0.37000000 20 17 237 97.000000 1.000000 4.000000 1.000000 -60.708740 114.000000 141.000000 -0.370397 0.922576 0.107976
15.06999969 15.63000011 -0.36000001 20 17 237 97.000000 1.000000 4.000000 1.000000 -60.708740 114.000000 141.000000 -0.186347 0.917509 -0.351356
15.06999969 15.63000011 -0.36000001 20 17 237 97.000000 1.000000 4.000000 1.000000 -60.708740 114.000000 141.000000 -0.186347 0.917509 -0.351356
15.06999969 15.63000011 -0.37000000 20 17 237 97.000000 1.000000 4.000000 1.000000 -60.708740 114.000000 141.000000 0.248202 0.966617 -0.063610
15.06999969 15.64000034 -0.38999999 20 17 237 97.000000 1.000000 4.000000 1.000000 -60.708740 114.000000 141.000000 0.015042 0.982379 0.186293
15.10000038 15.60999966 -0.38999999 20 17 237 97.000000 1.000000 4.000000 1.000000 -60.708740 114.000000 141.000000 -0.046261 0.980964 0.188601
15.09000015 15.60999966 -0.38000000 20 17 237 97.000000 1.000000 4.000000 1.000000 -60.708740 114.000000 141.000000 0.252849 0.953868 -0.161877
15.09000015 15.60999966 -0.38000000 20 17 237 97.000000 1.000000 4.000000 1.000000 -60.708740 114.000000 141.000000 0.252849 0.953868 -0.161877
15.06000042 15.64000034 -0.40000001 20 17 237 97.000000 1.000000 4.000000 1.000000 -60.708740 114.000000 141.000000 0.249535 0.957212 0.146552
15.06000042 15.60999966 -0.43000001 20 17 237 97.000000 1.000000 4.000000 1.000000 -60.708740 114.000000 141.000000 -0.135139 0.973756 0.183132
15.10000038 15.64999962 -0.47999999 20 17 237 97.000000 1.000000 4.000000 1.000000 -60.708740 114.000000 141.000000 0.245052 0.969450 -0.010758
15.06999969 15.64999962 -0.47000000 20 17 237 97.000000 1.000000 4.000000 1.000000 -60.708740 114.000000 141.000000 0.093913 0.921435 -0.377012
15.09000015 15.64999962 -0.47000000 20 17 237 97.000000 1.000000 4.000000 1.000000 -60.708740 114.000000 141.000000 0.244333 0.968739 0.042973
15.07999992 15.64999962 -0.47000000 20 17 237 97.000000 1.000000 4.000000 1.000000 -60.708740 114.000000 141.000000 0.205191 0.969879 -0.131271
15.06999969 15.64999962 -0.46000001 20 17 237 97.000000 1.000000 4.000000 1.000000 -60.708740 114.000000 141.000000 0.140900 0.965620 0.218460
15.09000015 15.64999962 -0.47000000 20 17 237 97.000000 1.000000 4.000000 1.000000 -60.708740 114.000000 141.000000 0.244333 0.968739 0.042973
15.10000038 15.64999962 -0.47999999 20 17 237 97.000000 1.000000 4.000000 1.000000 -60.708740 114.000000 141.000000 0.245052 0.969450 -0.010758
15.07999992 15.64999962 -0.47000000 20 17 237 97.000000 1.000000 4.000000 1.000000 -60.708740 114.000000 141.000000 0.205191 0.969879 -0.131271
15.06999969 15.64000034 -0.49000001 20 17 237 97.000000 1.000000 4.000000 1.000000 -60.708740 114.000000 141.000000 0.088110 0.920407 -0.380905
15.06999969 15.64999962 -0.49000001 20 17 237 97.000000 1.000000 4.000000 1.000000 -60.708740 114.000000 141.000000 0.125700 0.985249 -0.116123
15.09000015 15.60000038 -0.50999999 20 17 237 97.000000 1.000000 4.000000 1.000000 -60.708740 114.000000 141.000000 -0.057257 0.993570 -0.097673
15.18999958 15.72000027 -0.55000001 20 17 237 97.000000 1.000000 4.000000 1.000000 -60.708740 114.000000 141.000000 0.018366 0.961130 -0.275483
15.17000008 15.72000027 -0.55000001 20 17 237 97.000000 1.000000 4.000000 1.000000 -60.708740 114.000000 141.000000 -0.065041 0.995463 -0.069451
15.15999985 15.72000027 -0.57999998 20 17 237 97.000000 1.000000 4.000000 1.000000 -60.708740 114.000000 141.000000 0.217361 0.972537 -0.083218
15.15999985 15.72000027 -0.58999997 20 17 237 97.000000 1.000000 4.000000 1.000000 -60.708740 114.000000 141.000000 0.263925 0.958191 0.110511
15.13000011 15.69999981 -0.52999997 20 17 237 97.000000 1.000000 4.000000 1.000000 -60.708740 114.000000 141.000000 0.135635 0.913092 -0.384533
15.11999989 15.73999977 -0.60000002 20 17 237 97.000000 1.000000 4.000000 1.000000 -60.708740 114.000000 141.000000 -0.224397 0.921885 0.315871
15.10999966 15.71000004 -0.63000000 20 17 237 97.000000 1.000000 4.000000 1.000000 -60.708740 114.000000 141.000000 0.154704 0.937808 -0.310777
15.17000008 15.60000038 -0.63999999 20 17 237 97.000000 1.000000 4.000000 1.000000 -60.708740 114.000000 141.000000 -0.303631 0.899044 0.315480
15.18000031 15.59000015 -0.69000000 20 17 237 97.000000 1.000000 4.000000 1.000000 -60.708740 114.000000 141.000000 0.113653 0.981323 0.155203
15.10999966 15.59000015 -0.68000001 20 17 237 97.000000 1.000000 4.000000 1.000000 -60.708740 114.000000 141.000000 0.254323 0.911203 0.324080
15.11999989 15.59000015 -0.68000001 20 17 237 97.000000 1.000000 4.000000 1.000000 -60.708740 114.000000 141.000000 -0.150659 0.981120 0.121262
15.10999966 15.59000015 -0.68000001 20 17 237 97.000000 1.000000 4.000000 1.000000 -60.708740 114.000000 141.000000 0.254323 0.911203 0.324080
15.14000034 15.59000015 -0.68000001 20 17 237 97.000000 1.000000 4.000000 1.000000 -60.708740 114.000000 141.000000 0.206731 0.929586 -0.305174
15.11999989 15.57999992 -0.68000001 20 17 237 97.000000 1.000000 4.000000 1.000000 -60.708740 114.000000 141.000000 0.300763 0.947337 0.109971
15.05000019 15.69999981 -0.52999997 20 17 237 97.000000 1.000000 4.000000 1.000000 -60.708740 114.000000 141.000000 -0.126092 0.951666 0.280058
15.05000019 15.73999977 -0.55000001 20 17 237 97.000000 1.000000 4.000000 1.000000 -60.708740 114.000000 141.000000 0.386554 0.890111 -0.241411
15.03999996 15.72999954 -0.58999997 20 17 237 97.000000 1.000000 4.000000 1.000000 -60.708740 114.000000 141.000000 0.410861 0.892859 0.184379
15.02999973 15.73999977 -0.58999997 20 17 237 97.000000 1.000000 4.000000 1.000000 -60.708740 114.000000 141.000000 -0.135226 0.967190 -0.215074
15.09000015 15.69999981 -0.63999999 20 17 237 97.000000 1.000000 4.000000 1.000000 -60.708740 114.000000 141.000000 0.038665 0.983040 0.179267
15.07999992 15.71000004 -0.66000003 20 17 237 97.000000 1.000000 4.000000 1.000000 -60.708740 114.000000 141.000000 0.104304 0.930608 0.350841
15.06999969 15.68999958 -0.69000000 20 17 237 97.000000 1.000000 4.000000 1.000000 -60.708740 114.000000 141.000000 -0.148285 0.988939 0.003345
15.03999996 15.72000027 -0.63000000 20 17 237 97.000000 1.000000 4.000000 1.000000 -60.708740 114.000000 141.000000 0.508938 0.860120 -0.034295
15.05000019 15.72000027 -0.63000000 20 17 237 97.000000 1.000000 4.000000 1.000000 -60.708740 114.000000 141.000000 0.414258 0.898271 -0.146627
15.09000015 15.59000015 -0.69000000 20 17 237 97.000000 1.000000 4.000000 1.000000 -60.708740 114.000000 141.000000 0.123052 0.992177 0.021063
15.09000015 15.59000015 -0.69000000 20 17 237 97.000000 1.000000 4.000000 1.000000 -60.708740 114.000000 141.000000 0.123052 0.992177 0.021063
15.10000038 15.59000015 -0.68000001 20 17 237 97.000000 1.000000 4.000000 1.000000 -60.708740 114.000000 141.000000 0.351089 0.896239 0.271094
15.15999985 15.52000046 -0.60000002 20 17 237 97.000000 1.000000 4.000000 1.000000 -60.708740 114.000000 141.000000 -0.349783 0.898810 -0.264182
15.15999985 15.52000046 -0.60000002 20 17 237 97.000000 1.000000 4.000000 1.000000 -60.708740 114.000000 141.000000 -0.349783 0.898810 -0.264182
15.15999985 15.51000023 -0.58999997 20 17 237 97.000000 1.000000 4.000000 1.000000 -60.708740 114.000000 141.000000 -0.411780 0.894356 0.174826
15.18000031 15.55000019 -0.61000001 20 17 237 97.000000 1.000000 4.000000 1.000000 -60.708740 114.000000 141.000000 -0.036595 0.952734 0.301594
15.18999958 15.53999996 -0.69000000 20 17 237 97.000000 1.000000 4.000000 1.000000 -60.708740 114.000000 141.000000 0.123509 0.960772 0.248319
15.14999962 15.56000042 -0.62000000 20 17 237 97.000000 1.000000 4.000000 1.000000 -60.708740 114.000000 141.000000 0.154861 0.949363 0.273363
15.11999989 15.56000042 -0.69000000 20 17 237 97.000000 1.000000 4.000000 1.000000 -60.708740 114.000000 141.000000 0.093211 0.981737 -0.165842
15.11999989 15.55000019 -0.69000000 20 17 237 97.000000 1.000000 4.000000 1.000000 -60.708740 114.000000 141.000000 0.422227 0.906275 0.019730
15.14999962 15.50000000 -0.63000000 20 17 237 97.000000 1.000000 4.000000 1.000000 -60.708740 114.000000 141.000000 -0.099474 0.959859 0.262250
15.14999962 15.72999954 -0.74000001 20 17 237 97.000000 1.000000 4.000000 1.000000 -60.708740 114.000000 141.000000 -0.038765 0.904955 -0.423738
15.11999989 15.68999958 -0.85000002 20 17 237 97.000000 1.000000 4.000000 1.000000 -60.708740 114.000000 141.000000 -0.145154 0.927600 -0.344221
15.10999966 15.63000011 -0.75999999 20 17 237 97.000000 1.000000 4.000000 1.000000 -60.708740 114.000000 141.000000 0.128493 0.991705 0.003295
15.11999989 15.63000011 -0.75000000 20 17 237 97.000000 1.000000 4.000000 1.000000 -60.708740 114.000000 141.000000 -0.289270 0.929898 -0.227183
15.10999966 15.59000015 -0.75000000 20 17 237 97.000000 1.000000 4.000000 1.000000 -60.708740 114.000000 141.000000 0.273682 0.942070 0.193915
15.15999985 15.64000034 -0.83999997 20 17 237 97.000000 1.000000 4.000000 1.000000 -60.708740 114.000000 141.000000 0.040679 0.994996 -0.091254
