//X Y Z R G B PointSourceId ScanDirectionFlag NumberOfReturns ReturnNumber GpsTime Intensity Classification Nx Ny Nz
-5.69999981 -3.34999990 -0.43000001 111 230 85 0.000000 0.000000 0.000000 0.000000 -60.708740 0.000000 198.000000 0.819280 0.437480 0.370664
-5.67999983 -3.32999992 -0.46000001 111 230 85 0.000000 0.000000 0.000000 0.000000 -60.708740 0.000000 198.000000 0.686800 0.459538 0.563143
-5.76999998 -3.25000000 -0.38999999 111 230 85 0.000000 0.000000 0.000000 0.000000 -60.708740 0.000000 198.000000 0.557877 0.729026 0.396603
-5.76999998 -3.25000000 -0.38999999 111 230 85 0.000000 0.000000 0.000000 0.000000 -60.708740 0.000000 198.000000 0.557877 0.729026 0.396603
-5.76999998 -3.25000000 -0.38999999 111 230 85 0.000000 0.000000 0.000000 0.000000 -60.708740 0.000000 198.000000 0.557877 0.729026 0.396603
-5.76999998 -3.25000000 -0.41999999 111 230 85 0.000000 0.000000 0.000000 0.000000 -60.708740 0.000000 198.000000 0.101276 0.862988 0.494970
-5.78000021 -3.28999996 -0.38000000 111 230 85 0.000000 0.000000 0.000000 0.000000 -60.708740 0.000000 198.000000 0.711573 0.620803 0.329042
-5.78000021 -3.27999997 -0.38999999 111 230 85 0.000000 0.000000 0.000000 0.000000 -60.708740 0.000000 198.000000 0.631823 0.571168 0.523992
-5.75000000 -3.27999997 -0.41999999 111 230 85 0.000000 0.000000 0.000000 0.000000 -60.708740 0.000000 198.000000 0.601625 0.497141 0.625218
-5.78000021 -3.24000001 -0.47000000 111 230 85 0.000000 0.000000 0.000000 0.000000 -60.708740 0.000000 198.000000 0.493779 0.770817 0.402520
-5.78000021 -3.25999999 -0.44000000 111 230 85 0.000000 0.000000 0.000000 0.000000 -60.708740 0.000000 198.000000 0.530484 0.658474 0.533852
-5.78000021 -3.24000001 -0.47999999 111 230 85 0.000000 0.000000 0.000000 0.000000 -60.708740 0.000000 198.000000 0.746062 0.653735 0.126577
-5.76999998 -3.26999998 -0.47999999 111 230 85 0.000000 0.000000 0.000000 0.000000 -60.708740 0.000000 198.000000 0.069564 0.901604 0.426932
-5.73999977 -3.31999993 -0.43000001 111 230 85 0.000000 0.000000 0.000000 0.000000 -60.708740 0.000000 198.000000 0.822532 0.543860 0.166304
-5.63000011 -3.39000010 -0.68000001 111 230 85 0.000000 0.000000 0.000000 0.000000 -60.708740 0.000000 198.000000 0.819682 0.333243 0.465908
-5.63000011 -3.39000010 -0.68000001 111 230 85 0.000000 0.000000 0.000000 0.000000 -60.708740 0.000000 198.000000 0.819682 0.333243 0.465908
-5.78000021 -3.25999999 -0.54000002 111 230 85 0.000000 0.000000 0.000000 0.000000 -60.708740 0.000000 198.000000 0.508903 0.660062 0.552571
-5.76000023 -3.25999999 -0.56000000 111 230 85 0.000000 0.000000 0.000000 0.000000 -60.708740 0.000000 198.000000 0.782095 0.440640 0.440640
-5.78000021 -3.25999999 -0.54000002 111 230 85 0.000000 0.000000 0.000000 0.000000 -60.708740 0.000000 198.000000 0.508903 0.660062 0.552571
-5.76000023 -3.25000000 -0.56999999 111 230 85 0.000000 0.000000 0.000000 0.000000 -60.708740 0.000000 198.000000 0.572672 0.562536 0.596322
-5.78000021 -3.25000000 -0.66000003 111 230 85 0.000000 0.000000 0.000000 0.000000 -60.708740 0.000000 198.000000 0.797266 0.554822 0.237781
-5.78000021 -3.25000000 -0.66000003 111 230 85 0.000000 0.000000 0.000000 0.000000 -60.708740 0.000000 198.000000 0.797266 0.554822 0.237781
-5.59999990 -3.46000004 -0.09000000 111 230 85 0.000000 0.000000 0.000000 0.000000 -60.708740 0.000000 198.000000 0.599108 0.734756 0.318125
-5.61000013 -3.46000004 -0.08000000 111 230 85 0.000000 0.000000 0.000000 0.000000 -60.708740 0.000000 198.000000 0.581124 0.811300 0.063938
-5.59999990 -3.46000004 -0.13000000 111 230 85 0.000000 0.000000 0.000000 0.000000 -60.708740 0.000000 198.000000 0.525204 0.626529 0.575866
-5.59999990 -3.46000004 -0.18000001 111 230 85 0.000000 0.000000 0.000000 0.000000 -60.708740 0.000000 198.000000 0.579436 0.559164 0.592950
-5.59999990 -3.46000004 -0.18000001 111 230 85 0.000000 0.000000 0.000000 0.000000 -60.708740 0.000000 198.000000 0.579436 0.559164 0.592950
-5.59999990 -3.47000003 -0.17000000 111 230 85 0.000000 0.000000 0.000000 0.000000 -60.708740 0.000000 198.000000 0.601029 0.721561 0.343678
-5.57000017 -3.51999998 -0.06000000 111 230 85 0.000000 0.000000 0.000000 0.000000 -60.708740 0.000000 198.000000 0.785120 0.409557 0.464597
-5.57000017 -3.48000002 -0.07000000 111 230 85 0.000000 0.000000 0.000000 0.000000 -60.708740 0.000000 198.000000 0.647496 0.486042 0.586951
-5.55000019 -3.54999995 -0.05000000 111 230 85 0.000000 0.000000 0.000000 0.000000 -60.708740 0.000000 198.000000 0.788868 0.506097 0.348644
-5.57000017 -3.53999996 -0.10000000 111 230 85 0.000000 0.000000 0.000000 0.000000 -60.708740 0.000000 198.000000 0.665955 0.739460 -0.098497
-5.57000017 -3.53999996 -0.07000000 111 230 85 0.000000 0.000000 0.000000 0.000000 -60.708740 0.000000 198.000000 0.334430 0.882229 0.331403
-5.55000019 -3.55999994 -0.10000000 111 230 85 0.000000 0.000000 0.000000 0.000000 -60.708740 0.000000 198.000000 0.694611 0.554690 0.458077
-5.59999990 -3.48000002 -0.10000000 111 230 85 0.000000 0.000000 0.000000 0.000000 -60.708740 0.000000 198.000000 0.563738 0.825621 -0.023432
-5.57999992 -3.50000000 -0.09000000 111 230 85 0.000000 0.000000 0.000000 0.000000 -60.708740 0.000000 198.000000 0.429239 0.900720 -0.066770
-5.59000015 -3.53999996 -0.08000000 111 230 85 0.000000 0.000000 0.000000 0.000000 -60.708740 0.000000 198.000000 0.588628 0.780203 0.211659
-5.57999992 -3.55999994 -0.07000000 111 230 85 0.000000 0.000000 0.000000 0.000000 -60.708740 0.000000 198.000000 0.570343 0.808606 0.144447
-5.57999992 -3.52999997 -0.10000000 111 230 85 0.000000 0.000000 0.000000 0.000000 -60.708740 0.000000 198.000000 0.513188 0.722449 0.463364
-5.57000017 -3.48000002 -0.11000000 111 230 85 0.000000 0.000000 0.000000 0.000000 -60.708740 0.000000 198.000000 0.624368 0.775730 -0.091690
-5.57000017 -3.50999999 -0.16000000 111 230 85 0.000000 0.000000 0.000000 0.000000 -60.708740 0.000000 198.000000 0.327259 0.834588 0.443130
-5.55999994 -3.50999999 -0.16000000 111 230 85 0.000000 0.000000 0.000000 0.000000 -60.708740 0.000000 198.000000 0.534788 0.615765 0.578650
-5.55000019 -3.55999994 -0.12000000 111 230 85 0.000000 0.000000 0.000000 0.000000 -60.708740 0.000000 198.000000 0.599228 0.794597 -0.097684
-5.57000017 -3.54999995 -0.16000000 111 230 85 0.000000 0.000000 0.000000 0.000000 -60.708740 0.000000 198.000000 0.534062 0.820113 0.205409
-5.55999994 -3.54999995 -0.16000000 111 230 85 0.000000 0.000000 0.000000 0.000000 -60.708740 0.000000 198.000000 0.440533 0.825802 0.352111
-5.61000013 -3.48000002 -0.14000000 111 230 85 0.000000 0.000000 0.000000 0.000000 -60.708740 0.000000 198.000000 0.541905 0.829746 0.133641
-5.59000015 -3.50999999 -0.13000000 111 230 85 0.000000 0.000000 0.000000 0.000000 -60.708740 0.000000 198.000000 0.414021 0.720825 0.555876
-5.59999990 -3.51999998 -0.16000000 111 230 85 0.000000 0.000000 0.000000 0.000000 -60.708740 0.000000 198.000000 0.587179 0.593948 0.549952
-5.59999990 -3.48000002 -0.15000001 111 230 85 0.000000 0.000000 0.000000 0.000000 -60.708740 0.000000 198.000000 0.297766 0.944498 0.138778
-5.57999992 -3.52999997 -0.17000000 111 230 85 0.000000 0.000000 0.000000 0.000000 -60.708740 0.000000 198.000000 0.567107 0.590807 0.573879
-5.59000015 -3.44000006 -0.19000000 111 230 85 0.000000 0.000000 0.000000 0.000000 -60.708740 0.000000 198.000000 0.416481 0.853089 0.314296
-5.59000015 -3.47000003 -0.20999999 111 230 85 0.000000 0.000000 0.000000 0.000000 -60.708740 0.000000 198.000000 0.479655 0.696920 0.533136
-5.61000013 -3.47000003 -0.22000000 111 230 85 0.000000 0.000000 0.000000 0.000000 -60.708740 0.000000 198.000000 0.451694 0.802119 0.390611
-5.61000013 -3.47000003 -0.22000000 111 230 85 0.000000 0.000000 0.000000 0.000000 -60.708740 0.000000 198.000000 0.451694 0.802119 0.390611
-5.59999990 -3.44000006 -0.25000000 111 230 85 0.000000 0.000000 0.000000 0.000000 -60.708740 0.000000 198.000000 0.310121 0.941196 0.134070
-5.61000013 -3.41000009 -0.30000001 111 230 85 0.000000 0.000000 0.000000 0.000000 -60.708740 0.000000 198.000000 0.476195 0.870386 0.125163
-5.61000013 -3.43000007 -0.31000000 111 230 85 0.000000 0.000000 0.000000 0.000000 -60.708740 0.000000 198.000000 0.338286 0.921439 0.191082
-5.59000015 -3.47000003 -0.28000000 111 230 85 0.000000 0.000000 0.000000 0.000000 -60.708740 0.000000 198.000000 0.470929 0.672037 0.571483
-5.57000017 -3.49000001 -0.25999999 111 230 85 0.000000 0.000000 0.000000 0.000000 -60.708740 0.000000 198.000000 0.766501 0.416754 0.488665
-5.57000017 -3.51999998 -0.23999999 111 230 85 0.000000 0.000000 0.000000 0.000000 -60.708740 0.000000 198.000000 0.378641 0.857738 0.347731
-5.55999994 -3.55999994 -0.19000000 111 230 85 0.000000 0.000000 0.000000 0.000000 -60.708740 0.000000 198.000000 0.776580 0.504209 0.377752
-5.57000017 -3.52999997 -0.20000000 111 230 85 0.000000 0.000000 0.000000 0.000000 -60.708740 0.000000 198.000000 0.595948 0.616207 0.514913
-5.59000015 -3.48000002 -0.20000000 111 230 85 0.000000 0.000000 0.000000 0.000000 -60.708740 0.000000 198.000000 0.518439 0.855088 0.006733
-5.57999992 -3.48000002 -0.25000000 111 230 85 0.000000 0.000000 0.000000 0.000000 -60.708740 0.000000 198.000000 0.640651 0.731502 0.233391
-5.57999992 -3.48000002 -0.23999999 111 230 85 0.000000 0.000000 0.000000 0.000000 -60.708740 0.000000 198.000000 0.682499 0.534932 0.498040
-5.57999992 -3.48000002 -0.23999999 111 230 85 0.000000 0.000000 0.000000 0.000000 -60.708740 0.000000 198.000000 0.682499 0.534932 0.498040
-5.57000017 -3.50000000 -0.31999999 111 230 85 0.000000 0.000000 0.000000 0.000000 -60.708740 0.000000 198.000000 0.682324 0.582227 0.442092
-5.55999994 -3.50999999 -0.31999999 111 230 85 0.000000 0.000000 0.000000 0.000000 -60.708740 0.000000 198.000000 0.690967 0.635428 0.344667
-5.57000017 -3.55999994 -0.31000000 111 230 85 0.000000 0.000000 0.000000 0.000000 -60.708740 0.000000 198.000000 0.725618 0.493155 0.479871
-5.57999992 -3.49000001 -0.30000001 111 230 85 0.000000 0.000000 0.000000 0.000000 -60.708740 0.000000 198.000000 0.476351 0.800334 0.364080
-5.59000015 -3.52999997 -0.34000000 111 230 85 0.000000 0.000000 0.000000 0.000000 -60.708740 0.000000 198.000000 0.654553 0.750768 0.088926
-5.53000021 -3.61999989 -0.06000000 111 230 85 0.000000 0.000000 0.000000 0.000000 -60.708740 0.000000 198.000000 0.720500 0.684993 0.108001
-5.51000023 -3.57999992 -0.13000000 111 230 85 0.000000 0.000000 0.000000 0.000000 -60.708740 0.000000 198.000000 0.698444 0.698444 -0.156051
-5.57000017 -3.58999991 -0.04000000 111 230 85 0.000000 0.000000 0.000000 0.000000 -60.708740 0.000000 198.000000 0.420062 0.907281 0.019752
-5.55999994 -3.58999991 -0.04000000 111 230 85 0.000000 0.000000 0.000000 0.000000 -60.708740 0.000000 198.000000 0.310622 0.942624 0.122366
-5.57000017 -3.56999993 -0.06000000 111 230 85 0.000000 0.000000 0.000000 0.000000 -60.708740 0.000000 198.000000 0.783368 0.614777 0.091563
-5.57000017 -3.56999993 -0.06000000 111 230 85 0.000000 0.000000 0.000000 0.000000 -60.708740 0.000000 198.000000 0.783368 0.614777 0.091563
-5.55999994 -3.58999991 -0.05000000 111 230 85 0.000000 0.000000 0.000000 0.000000 -60.708740 0.000000 198.000000 0.511105 0.809906 0.287792
-5.57000017 -3.56999993 -0.06000000 111 230 85 0.000000 0.000000 0.000000 0.000000 -60.708740 0.000000 198.000000 0.783368 0.614777 0.091563
-5.55000019 -3.58999991 -0.08000000 111 230 85 0.000000 0.000000 0.000000 0.000000 -60.708740 0.000000 198.000000 0.585341 0.775772 0.235697
-5.55000019 -3.59999990 -0.07000000 111 230 85 0.000000 0.000000 0.000000 0.000000 -60.708740 0.000000 198.000000 0.608965 0.688180 0.394424
-5.55000019 -3.56999993 -0.09000000 111 230 85 0.000000 0.000000 0.000000 0.000000 -60.708740 0.000000 198.000000 0.388861 0.891572 0.232134
-5.53999996 -3.56999993 -0.09000000 111 230 85 0.000000 0.000000 0.000000 0.000000 -60.708740 0.000000 198.000000 0.462712 0.822775 0.330058
-5.55000019 -3.63000011 -0.03000000 111 230 85 0.000000 0.000000 0.000000 0.000000 -60.708740 0.000000 198.000000 0.816697 0.565406 0.115419
-5.55000019 -3.61999989 -0.08000000 111 230 85 0.000000 0.000000 0.000000 0.000000 -60.708740 0.000000 198.000000 0.541793 0.720733 0.432440
-5.55999994 -3.60999990 -0.10000000 111 230 85 0.000000 0.000000 0.000000 0.000000 -60.708740 0.000000 198.000000 0.588136 0.655160 0.474195
-5.57000017 -3.64000010 -0.08000000 111 230 85 0.000000 0.000000 0.000000 0.000000 -60.708740 0.000000 198.000000 0.540851 0.788278 0.293424
-5.57999992 -3.56999993 -0.05000000 111 230 85 0.000000 0.000000 0.000000 0.000000 -60.708740 0.000000 198.000000 0.713521 0.581692 0.390541
-5.59000015 -3.56999993 -0.05000000 111 230 85 0.000000 0.000000 0.000000 0.000000 -60.708740 0.000000 198.000000 0.642827 0.678813 0.354945
-5.55999994 -3.59999990 -0.14000000 111 230 85 0.000000 0.000000 0.000000 0.000000 -60.708740 0.000000 198.000000 0.773371 0.402153 0.490073
-5.55999994 -3.59999990 -0.15000001 111 230 85 0.000000 0.000000 0.000000 0.000000 -60.708740 0.000000 198.000000 0.786892 0.597315 0.154971
-5.55000019 -3.57999992 -0.16000000 111 230 85 0.000000 0.000000 0.000000 0.000000 -60.708740 0.000000 198.000000 0.408435 0.875649 0.257721
-5.55999994 -3.63000011 -0.13000000 111 230 85 0.000000 0.000000 0.000000 0.000000 -60.708740 0.000000 198.000000 0.743814 0.667598 -0.032462
-5.55999994 -3.64000010 -0.18000001 111 230 85 0.000000 0.000000 0.000000 0.000000 -60.708740 0.000000 198.000000 0.650739 0.741752 0.162306
-5.53999996 -3.61999989 -0.16000000 111 230 85 0.000000 0.000000 0.000000 0.000000 -60.708740 0.000000 198.000000 0.637115 0.763656 0.104469
-5.55000019 -3.60999990 -0.16000000 111 230 85 0.000000 0.000000 0.000000 0.000000 -60.708740 0.000000 198.000000 0.779089 0.617696 0.107106
-5.53999996 -3.61999989 -0.18000001 111 230 85 0.000000 0.000000 0.000000 0.000000 -60.708740 0.000000 198.000000 0.723555 0.690096 0.015335
-5.59999990 -3.56999993 -0.11000000 111 230 85 0.000000 0.000000 0.000000 0.000000 -60.708740 0.000000 198.000000 0.719298 0.619081 0.315198
-5.57000017 -3.67000008 -0.05000000 111 230 85 0.000000 0.000000 0.000000 0.000000 -60.708740 0.000000 198.000000 0.706672 0.601737 0.372192
-5.53999996 -3.67000008 -0.03000000 111 230 85 0.000000 0.000000 0.000000 0.000000 -60.708740 0.000000 198.000000 0.784972 0.483931 0.386821
-5.55000019 -3.66000009 -0.04000000 111 230 85 0.000000 0.000000 0.000000 0.000000 -60.708740 0.000000 198.000000 0.588396 0.675072 0.445048
-5.55999994 -3.68000007 -0.05000000 111 230 85 0.000000 0.000000 0.000000 0.000000 -60.708740 0.000000 198.000000 0.711395 0.474819 0.518135
-5.55999994 -3.65000010 -0.10000000 111 230 85 0.000000 0.000000 0.000000 0.000000 -60.708740 0.000000 198.000000 0.716925 0.693845 0.067798
-5.55000019 -3.66000009 -0.10000000 111 230 85 0.000000 0.000000 0.000000 0.000000 -60.708740 0.000000 198.000000 0.731721 0.623318 0.275790
-5.55000019 -3.66000009 -0.10000000 111 230 85 0.000000 0.000000 0.000000 0.000000 -60.708740 0.000000 198.000000 0.731721 0.623318 0.275790
-5.55000019 -3.70000005 -0.06000000 111 230 85 0.000000 0.000000 0.000000 0.000000 -60.708740 0.000000 198.000000 0.640493 0.739747 0.206261
-5.55999994 -3.69000006 -0.06000000 111 230 85 0.000000 0.000000 0.000000 0.000000 -60.708740 0.000000 198.000000 0.820768 0.379427 0.427054
-5.55999994 -3.72000003 -0.12000000 111 230 85 0.000000 0.000000 0.000000 0.000000 -60.708740 0.000000 198.000000 0.779942 0.620770 -0.079586
-5.55999994 -3.72000003 -0.14000000 111 230 85 0.000000 0.000000 0.000000 0.000000 -60.708740 0.000000 198.000000 0.705752 0.702830 0.089132
-5.55000019 -3.70000005 -0.15000001 111 230 85 0.000000 0.000000 0.000000 0.000000 -60.708740 0.000000 198.000000 0.548304 0.799933 0.243863
-5.59000015 -3.70000005 -0.14000000 111 230 85 0.000000 0.000000 0.000000 0.000000 -60.708740 0.000000 198.000000 0.806928 0.517504 0.284706
-5.51999998 -3.60999990 -0.20999999 111 230 85 0.000000 0.000000 0.000000 0.000000 -60.708740 0.000000 198.000000 0.845065 0.305464 0.438814
-5.51999998 -3.61999989 -0.25999999 111 230 85 0.000000 0.000000 0.000000 0.000000 -60.708740 0.000000 198.000000 0.719460 0.694216 0.021037
-5.53000021 -3.61999989 -0.28000000 111 230 85 0.000000 0.000000 0.000000 0.000000 -60.708740 0.000000 198.000000 0.736457 0.668838 0.101428
-5.51999998 -3.63000011 -0.28000000 111 230 85 0.000000 0.000000 0.000000 0.000000 -60.708740 0.000000 198.000000 0.753865 0.647645 0.110646
-5.51999998 -3.60999990 -0.34999999 111 230 85 0.000000 0.000000 0.000000 0.000000 -60.708740 0.000000 198.000000 0.658376 0.752627 0.009702
-5.51999998 -3.68000007 -0.25000000 111 230 85 0.000000 0.000000 0.000000 0.000000 -60.708740 0.000000 198.000000 0.841281 0.383824 0.380691
-5.51999998 -3.68000007 -0.25000000 111 230 85 0.000000 0.000000 0.000000 0.000000 -60.708740 0.000000 198.000000 0.841281 0.383824 0.380691
-5.55000019 -3.59999990 -0.19000000 111 230 85 0.000000 0.000000 0.000000 0.000000 -60.708740 0.000000 198.000000 0.687470 0.726201 0.004150
-5.55000019 -3.58999991 -0.22000000 111 230 85 0.000000 0.000000 0.000000 0.000000 -60.708740 0.000000 198.000000 0.609614 0.771566 -0.181815
-5.55999994 -3.56999993 -0.19000000 111 230 85 0.000000 0.000000 0.000000 0.000000 -60.708740 0.000000 198.000000 0.797516 0.337226 0.500246
-5.55999994 -3.61999989 -0.19000000 111 230 85 0.000000 0.000000 0.000000 0.000000 -60.708740 0.000000 198.000000 0.681518 0.524116 0.510720
-5.53999996 -3.61999989 -0.19000000 111 230 85 0.000000 0.000000 0.000000 0.000000 -60.708740 0.000000 198.000000 0.851598 0.482122 0.205765
-5.55000019 -3.64000010 -0.27000001 111 230 85 0.000000 0.000000 0.000000 0.000000 -60.708740 0.000000 198.000000 0.683467 0.726816 -0.067913
-5.53999996 -3.61999989 -0.27000001 111 230 85 0.000000 0.000000 0.000000 0.000000 -60.708740 0.000000 198.000000 0.716491 0.653503 0.244079
-5.53999996 -3.61999989 -0.27000001 111 230 85 0.000000 0.000000 0.000000 0.000000 -60.708740 0.000000 198.000000 0.716491 0.653503 0.244079
-5.53999996 -3.61999989 -0.25999999 111 230 85 0.000000 0.000000 0.000000 0.000000 -60.708740 0.000000 198.000000 0.731310 0.654330 0.192450
-5.57000017 -3.56999993 -0.28999999 111 230 85 0.000000 0.000000 0.000000 0.000000 -60.708740 0.000000 198.000000 0.580892 0.671291 0.460361
-5.55000019 -3.58999991 -0.34999999 111 230 85 0.000000 0.000000 0.000000 0.000000 -60.708740 0.000000 198.000000 0.773158 0.596525 0.215369
-5.55000019 -3.58999991 -0.34999999 111 230 85 0.000000 0.000000 0.000000 0.000000 -60.708740 0.000000 198.000000 0.773158 0.596525 0.215369
-5.55000019 -3.61999989 -0.31000000 111 230 85 0.000000 0.000000 0.000000 0.000000 -60.708740 0.000000 198.000000 0.651786 0.755382 -0.067625
-5.55999994 -3.60999990 -0.28999999 111 230 85 0.000000 0.000000 0.000000 0.000000 -60.708740 0.000000 198.000000 0.554636 0.828390 0.078419
-5.53999996 -3.61999989 -0.28000000 111 230 85 0.000000 0.000000 0.000000 0.000000 -60.708740 0.000000 198.000000 0.772244 0.591274 0.232453
-5.53999996 -3.61999989 -0.33000001 111 230 85 0.000000 0.000000 0.000000 0.000000 -60.708740 0.000000 198.000000 0.778139 0.541661 0.317966
-5.57999992 -3.56999993 -0.30000001 111 230 85 0.000000 0.000000 0.000000 0.000000 -60.708740 0.000000 198.000000 0.722666 0.605741 0.332914
-5.55000019 -3.70000005 -0.23999999 111 230 85 0.000000 0.000000 0.000000 0.000000 -60.708740 0.000000 198.000000 0.797273 0.426823 0.426823
-5.53999996 -3.65000010 -0.28000000 111 230 85 0.000000 0.000000 0.000000 0.000000 -60.708740 0.000000 198.000000 0.835730 0.448326 0.317109
-5.55999994 -3.67000008 -0.34999999 111 230 85 0.000000 0.000000 0.000000 0.000000 -60.708740 0.000000 198.000000 0.773177 0.592717 0.225575
-5.55999994 -3.73000002 -0.28999999 111 230 85 0.000000 0.000000 0.000000 0.000000 -60.708740 0.000000 198.000000 0.688842 0.724878 0.006930
-5.63000011 -3.45000005 -0.07000000 111 230 85 0.000000 0.000000 0.000000 0.000000 -60.708740 0.000000 198.000000 0.444336 0.875387 0.190430
-5.61999989 -3.41000009 -0.16000000 111 230 85 0.000000 0.000000 0.000000 0.000000 -60.708740 0.000000 198.000000 0.518469 0.701851 0.488462
-5.63000011 -3.44000006 -0.15000001 111 230 85 0.000000 0.000000 0.000000 0.000000 -60.708740 0.000000 198.000000 0.530213 0.800826 0.278480
-5.63000011 -3.44000006 -0.15000001 111 230 85 0.000000 0.000000 0.000000 0.000000 -60.708740 0.000000 198.000000 0.530213 0.800826 0.278480
-5.67999983 -3.41000009 -0.11000000 111 230 85 0.000000 0.000000 0.000000 0.000000 -60.708740 0.000000 198.000000 0.348753 0.854056 0.385953
-5.67000008 -3.40000010 -0.18000001 111 230 85 0.000000 0.000000 0.000000 0.000000 -60.708740 0.000000 198.000000 0.516292 0.650830 0.556653
-5.61999989 -3.42000008 -0.20000000 111 230 85 0.000000 0.000000 0.000000 0.000000 -60.708740 0.000000 198.000000 0.373491 0.692686 0.617001
-5.61999989 -3.43000007 -0.20000000 111 230 85 0.000000 0.000000 0.000000 0.000000 -60.708740 0.000000 198.000000 0.764999 0.453758 0.457034
-5.63999987 -3.42000008 -0.20000000 111 230 85 0.000000 0.000000 0.000000 0.000000 -60.708740 0.000000 198.000000 0.579575 0.582954 0.569436
-5.63000011 -3.40000010 -0.20999999 111 230 85 0.000000 0.000000 0.000000 0.000000 -60.708740 0.000000 198.000000 0.652226 0.544365 0.527511
-5.63999987 -3.42000008 -0.20000000 111 230 85 0.000000 0.000000 0.000000 0.000000 -60.708740 0.000000 198.000000 0.579575 0.582954 0.569436
-5.63999987 -3.45000005 -0.20999999 111 230 85 0.000000 0.000000 0.000000 0.000000 -60.708740 0.000000 198.000000 0.326855 0.836686 0.439456
-5.67999983 -3.40000010 -0.23000000 111 230 85 0.000000 0.000000 0.000000 0.000000 -60.708740 0.000000 198.000000 0.411682 0.580322 0.702669
-5.63000011 -3.43000007 -0.31000000 111 230 85 0.000000 0.000000 0.000000 0.000000 -60.708740 0.000000 198.000000 0.474707 0.615610 0.629029
-5.63999987 -3.40000010 -0.28000000 111 230 85 0.000000 0.000000 0.000000 0.000000 -60.708740 0.000000 198.000000 0.651295 0.496465 0.573880
-5.63000011 -3.42000008 -0.33000001 111 230 85 0.000000 0.000000 0.000000 0.000000 -60.708740 0.000000 198.000000 0.369195 0.916669 0.153012
-5.63000011 -3.42000008 -0.33000001 111 230 85 0.000000 0.000000 0.000000 0.000000 -60.708740 0.000000 198.000000 0.369195 0.916669 0.153012
-5.63000011 -3.40000010 -0.31999999 111 230 85 0.000000 0.000000 0.000000 0.000000 -60.708740 0.000000 198.000000 0.765895 0.429489 0.478480
-5.59000015 -3.47000003 -0.37000000 111 230 85 0.000000 0.000000 0.000000 0.000000 -60.708740 0.000000 198.000000 0.591706 0.694468 0.409388
-5.61000013 -3.42000008 -0.50999999 111 230 85 0.000000 0.000000 0.000000 0.000000 -60.708740 0.000000 198.000000 0.778123 0.367222 0.509581
-5.55999994 -3.51999998 -0.38000000 111 230 85 0.000000 0.000000 0.000000 0.000000 -60.708740 0.000000 198.000000 0.668975 0.691327 0.273018
-5.57000017 -3.53999996 -0.37000000 111 230 85 0.000000 0.000000 0.000000 0.000000 -60.708740 0.000000 198.000000 0.748922 0.578200 0.323728
-5.55999994 -3.55999994 -0.41999999 111 230 85 0.000000 0.000000 0.000000 0.000000 -60.708740 0.000000 198.000000 0.743583 0.642394 0.185512
-5.53999996 -3.55999994 -0.43000001 111 230 85 0.000000 0.000000 0.000000 0.000000 -60.708740 0.000000 198.000000 0.691132 0.712030 0.123896
-5.57000017 -3.54999995 -0.43000001 111 230 85 0.000000 0.000000 0.000000 0.000000 -60.708740 0.000000 198.000000 0.674830 0.631931 0.381139
-5.57999992 -3.48000002 -0.37000000 111 230 85 0.000000 0.000000 0.000000 0.000000 -60.708740 0.000000 198.000000 0.717343 0.490989 0.494317
-5.57999992 -3.48000002 -0.37000000 111 230 85 0.000000 0.000000 0.000000 0.000000 -60.708740 0.000000 198.000000 0.717343 0.490989 0.494317
-5.59999990 -3.49000001 -0.38999999 111 230 85 0.000000 0.000000 0.000000 0.000000 -60.708740 0.000000 198.000000 0.709609 0.584480 0.393495
-5.59000015 -3.51999998 -0.36000001 111 230 85 0.000000 0.000000 0.000000 0.000000 -60.708740 0.000000 198.000000 0.682931 0.726430 0.076848
-5.57999992 -3.49000001 -0.44000000 111 230 85 0.000000 0.000000 0.000000 0.000000 -60.708740 0.000000 198.000000 0.637826 0.759741 0.126376
-5.59999990 -3.44000006 -0.56000000 111 230 85 0.000000 0.000000 0.000000 0.000000 -60.708740 0.000000 198.000000 0.965867 0.156872 0.206138
-5.59999990 -3.45000005 -0.55000001 111 230 85 0.000000 0.000000 0.000000 0.000000 -60.708740 0.000000 198.000000 0.937295 0.193013 0.290214
-5.61000013 -3.42000008 -0.62000000 111 230 85 0.000000 0.000000 0.000000 0.000000 -60.708740 0.000000 198.000000 0.940355 0.251410 -0.229185
-5.59999990 -3.46000004 -0.62000000 111 230 85 0.000000 0.000000 0.000000 0.000000 -60.708740 0.000000 198.000000 0.929203 0.207273 -0.305974
-5.57000017 -3.49000001 -0.69000000 111 230 85 0.000000 0.000000 0.000000 0.000000 -60.708740 0.000000 198.000000 0.961563 -0.003629 -0.274560
-5.57000017 -3.50000000 -0.68000001 111 230 85 0.000000 0.000000 0.000000 0.000000 -60.708740 0.000000 198.000000 0.938735 0.016514 -0.344245
-5.53999996 -3.55999994 -0.64999998 111 230 85 0.000000 0.000000 0.000000 0.000000 -60.708740 0.000000 198.000000 0.960642 -0.104727 -0.257292
-5.51000023 -3.69000006 -0.50999999 111 230 85 0.000000 0.000000 0.000000 0.000000 -60.708740 0.000000 198.000000 0.862324 0.487148 0.138146
-5.55999994 -3.57999992 -0.36000001 111 230 85 0.000000 0.000000 0.000000 0.000000 -60.708740 0.000000 198.000000 0.723666 0.610340 0.322169
-5.55000019 -3.59999990 -0.40000001 111 230 85 0.000000 0.000000 0.000000 0.000000 -60.708740 0.000000 198.000000 0.650548 0.722657 0.233570
-5.53999996 -3.59999990 -0.41000000 111 230 85 0.000000 0.000000 0.000000 0.000000 -60.708740 0.000000 198.000000 0.724152 0.635026 0.268971
-5.53999996 -3.60999990 -0.38000000 111 230 85 0.000000 0.000000 0.000000 0.000000 -60.708740 0.000000 198.000000 0.801969 0.568504 0.183437
-5.55000019 -3.61999989 -0.36000001 111 230 85 0.000000 0.000000 0.000000 0.000000 -60.708740 0.000000 198.000000 0.778465 0.496858 0.383568
-5.55000019 -3.61999989 -0.36000001 111 230 85 0.000000 0.000000 0.000000 0.000000 -60.708740 0.000000 198.000000 0.778465 0.496858 0.383568
-5.55000019 -3.60999990 -0.38000000 111 230 85 0.000000 0.000000 0.000000 0.000000 -60.708740 0.000000 198.000000 0.738364 0.674158 0.018145
-5.55000019 -3.60999990 -0.38000000 111 230 85 0.000000 0.000000 0.000000 0.000000 -60.708740 0.000000 198.000000 0.738364 0.674158 0.018145
-5.50000000 -3.60999990 -0.60000002 111 230 85 0.000000 0.000000 0.000000 0.000000 -60.708740 0.000000 198.000000 0.865397 0.077142 -0.495114
-5.50000000 -3.61999989 -0.56999999 111 230 85 0.000000 0.000000 0.000000 0.000000 -60.708740 0.000000 198.000000 0.840354 0.533990 0.093055
-5.48999977 -3.60999990 -0.62000000 111 230 85 0.000000 0.000000 0.000000 0.000000 -60.708740 0.000000 198.000000 0.823925 0.496847 -0.272565
-5.50000000 -3.63000011 -0.67000002 111 230 85 0.000000 0.000000 0.000000 0.000000 -60.708740 0.000000 198.000000 0.882906 0.039331 -0.467900
-5.48999977 -3.66000009 -0.60000002 111 230 85 0.000000 0.000000 0.000000 0.000000 -60.708740 0.000000 198.000000 0.839678 -0.009526 -0.543001
-5.51999998 -3.66000009 -0.54000002 111 230 85 0.000000 0.000000 0.000000 0.000000 -60.708740 0.000000 198.000000 0.923480 -0.096564 -0.371296
-5.53000021 -3.73000002 -0.52999997 111 230 85 0.000000 0.000000 0.000000 0.000000 -60.708740 0.000000 198.000000 0.826246 -0.031939 -0.562403
-5.53000021 -3.72000003 -0.56000000 111 230 85 0.000000 0.000000 0.000000 0.000000 -60.708740 0.000000 198.000000 0.922634 0.380537 0.062755
-5.50000000 -3.65000010 -0.63999999 111 230 85 0.000000 0.000000 0.000000 0.000000 -60.708740 0.000000 198.000000 0.901326 -0.089719 -0.423747
-5.50000000 -3.65000010 -0.63999999 111 230 85 0.000000 0.000000 0.000000 0.000000 -60.708740 0.000000 198.000000 0.901326 -0.089719 -0.423747
-5.50000000 -3.67000008 -0.68000001 111 230 85 0.000000 0.000000 0.000000 0.000000 -60.708740 0.000000 198.000000 0.851742 0.107724 -0.512769
-5.50000000 -3.67000008 -0.68000001 111 230 85 0.000000 0.000000 0.000000 0.000000 -60.708740 0.000000 198.000000 0.851742 0.107724 -0.512769
-5.50000000 -3.66000009 -0.68000001 111 230 85 0.000000 0.000000 0.000000 0.000000 -60.708740 0.000000 198.000000 0.871188 -0.048170 -0.488581
-5.50000000 -3.70000005 -0.64999998 111 230 85 0.000000 0.000000 0.000000 0.000000 -60.708740 0.000000 198.000000 0.812488 -0.066877 -0.579129
-5.63000011 -3.42000008 -0.37000000 111 230 85 0.000000 0.000000 0.000000 0.000000 -60.708740 0.000000 198.000000 0.356527 0.929662 0.092832
-5.63000011 -3.44000006 -0.38999999 111 230 85 0.000000 0.000000 0.000000 0.000000 -60.708740 0.000000 198.000000 0.577291 0.567133 0.587448
-5.65000010 -3.40000010 -0.50000000 111 230 85 0.000000 0.000000 0.000000 0.000000 -60.708740 0.000000 198.000000 0.480765 0.741798 0.467548
-5.63999987 -3.40000010 -0.49000001 111 230 85 0.000000 0.000000 0.000000 0.000000 -60.708740 0.000000 198.000000 0.768473 0.406263 0.494368
-5.61999989 -3.41000009 -0.57999998 111 230 85 0.000000 0.000000 0.000000 0.000000 -60.708740 0.000000 198.000000 0.927171 0.263482 0.266330
-5.61999989 -3.40000010 -0.63999999 111 230 85 0.000000 0.000000 0.000000 0.000000 -60.708740 0.000000 198.000000 0.707482 0.517710 0.481088
-5.61999989 -3.40000010 -0.63999999 111 230 85 0.000000 0.000000 0.000000 0.000000 -60.708740 0.000000 198.000000 0.707482 0.517710 0.481088
-5.44000006 -3.66000009 -0.92000002 111 230 85 0.000000 0.000000 0.000000 0.000000 -60.708740 0.000000 198.000000 0.908002 0.191386 -0.372698
-5.42999983 -3.70000005 -0.93000001 111 230 85 0.000000 0.000000 0.000000 0.000000 -60.708740 0.000000 198.000000 0.815545 -0.517288 -0.259421
-5.44999981 -3.66000009 -1.00000000 111 230 85 0.000000 0.000000 0.000000 0.000000 -60.708740 0.000000 198.000000 0.925832 -0.369527 -0.079280
-5.44000006 -3.71000004 -0.94999999 111 230 85 0.000000 0.000000 0.000000 0.000000 -60.708740 0.000000 198.000000 0.899819 0.095666 -0.425646
-5.59999990 -3.39000010 -0.83999997 111 230 85 0.000000 0.000000 0.000000 0.000000 -60.708740 0.000000 198.000000 0.999889 0.014865 0.000991
-5.59999990 -3.39000010 -0.83999997 111 230 85 0.000000 0.000000 0.000000 0.000000 -60.708740 0.000000 198.000000 0.999889 0.014865 0.000991
-5.59999990 -3.39000010 -0.83999997 111 230 85 0.000000 0.000000 0.000000 0.000000 -60.708740 0.000000 198.000000 0.999889 0.014865 0.000991
-5.61000013 -3.39000010 -0.88000000 111 230 85 0.000000 0.000000 0.000000 0.000000 -60.708740 0.000000 198.000000 0.970069 0.200660 -0.136755
-5.59000015 -3.39000010 -0.88999999 111 230 85 0.000000 0.000000 0.000000 0.000000 -60.708740 0.000000 198.000000 0.987847 0.100080 -0.118918
-5.59000015 -3.39000010 -0.88999999 111 230 85 0.000000 0.000000 0.000000 0.000000 -60.708740 0.000000 198.000000 0.987847 0.100080 -0.118918
-5.61000013 -3.39000010 -0.93000001 111 230 85 0.000000 0.000000 0.000000 0.000000 -60.708740 0.000000 198.000000 0.949715 -0.021328 -0.312390
-5.61000013 -3.39000010 -0.93000001 111 230 85 0.000000 0.000000 0.000000 0.000000 -60.708740 0.000000 198.000000 0.949715 -0.021328 -0.312390
-5.78000021 -3.20000005 -0.76999998 111 230 85 0.000000 0.000000 0.000000 0.000000 -60.708740 0.000000 198.000000 0.492030 0.670034 0.555843
-5.61999989 -3.39000010 -0.80000001 111 230 85 0.000000 0.000000 0.000000 0.000000 -60.708740 0.000000 198.000000 0.843198 0.380143 0.380143
-5.61999989 -3.39000010 -0.88999999 111 230 85 0.000000 0.000000 0.000000 0.000000 -60.708740 0.000000 198.000000 0.942840 0.167828 0.287900
-5.53000021 -3.49000001 -0.82999998 111 230 85 0.000000 0.000000 0.000000 0.000000 -60.708740 0.000000 198.000000 0.946436 0.079851 -0.312861
-5.53000021 -3.50000000 -0.82999998 111 230 85 0.000000 0.000000 0.000000 0.000000 -60.708740 0.000000 198.000000 0.985969 -0.145587 0.081671
-5.51000023 -3.53999996 -0.77999997 111 230 85 0.000000 0.000000 0.000000 0.000000 -60.708740 0.000000 198.000000 0.965807 -0.225656 -0.127657
-5.51999998 -3.54999995 -0.77999997 111 230 85 0.000000 0.000000 0.000000 0.000000 -60.708740 0.000000 198.000000 0.835684 0.197965 -0.512291
-5.51999998 -3.55999994 -0.81999999 111 230 85 0.000000 0.000000 0.000000 0.000000 -60.708740 0.000000 198.000000 0.912822 0.083232 -0.399786
-5.51999998 -3.52999997 -0.83999997 111 230 85 0.000000 0.000000 0.000000 0.000000 -60.708740 0.000000 198.000000 0.956573 -0.089074 -0.277548
-5.51999998 -3.55999994 -0.81999999 111 230 85 0.000000 0.000000 0.000000 0.000000 -60.708740 0.000000 198.000000 0.912822 0.083232 -0.399786
-5.55000019 -3.46000004 -0.74000001 111 230 85 0.000000 0.000000 0.000000 0.000000 -60.708740 0.000000 198.000000 0.999642 -0.013167 0.023295
-5.59999990 -3.40000010 -0.75000000 111 230 85 0.000000 0.000000 0.000000 0.000000 -60.708740 0.000000 198.000000 0.851679 0.372123 0.369009
-5.57999992 -3.43000007 -0.74000001 111 230 85 0.000000 0.000000 0.000000 0.000000 -60.708740 0.000000 198.000000 0.904525 0.185507 -0.383956
-5.59999990 -3.40000010 -0.75000000 111 230 85 0.000000 0.000000 0.000000 0.000000 -60.708740 0.000000 198.000000 0.851679 0.372123 0.369009
-5.59000015 -3.43000007 -0.76999998 111 230 85 0.000000 0.000000 0.000000 0.000000 -60.708740 0.000000 198.000000 0.896158 0.224406 0.382810
-5.57999992 -3.43000007 -0.74000001 111 230 85 0.000000 0.000000 0.000000 0.000000 -60.708740 0.000000 198.000000 0.904525 0.185507 -0.383956
-5.55000019 -3.45000005 -0.85000002 111 230 85 0.000000 0.000000 0.000000 0.000000 -60.708740 0.000000 198.000000 0.980892 0.031794 0.191939
-5.59999990 -3.41000009 -0.81000000 111 230 85 0.000000 0.000000 0.000000 0.000000 -60.708740 0.000000 198.000000 0.933282 0.208484 -0.292438
-5.59000015 -3.42000008 -0.77999997 111 230 85 0.000000 0.000000 0.000000 0.000000 -60.708740 0.000000 198.000000 0.901062 0.254297 0.351311
-5.57999992 -3.42000008 -0.81000000 111 230 85 0.000000 0.000000 0.000000 0.000000 -60.708740 0.000000 198.000000 0.960930 0.069817 0.267842
-5.57999992 -3.42000008 -0.81000000 111 230 85 0.000000 0.000000 0.000000 0.000000 -60.708740 0.000000 198.000000 0.960930 0.069817 0.267842
-5.59999990 -3.41000009 -0.85000002 111 230 85 0.000000 0.000000 0.000000 0.000000 -60.708740 0.000000 198.000000 0.961134 0.156464 -0.227464
-5.59999990 -3.41000009 -0.85000002 111 230 85 0.000000 0.000000 0.000000 0.000000 -60.708740 0.000000 198.000000 0.961134 0.156464 -0.227464
-5.59999990 -3.40000010 -0.81999999 111 230 85 0.000000 0.000000 0.000000 0.000000 -60.708740 0.000000 198.000000 0.993923 -0.068353 0.086282
-5.57999992 -3.43000007 -0.85000002 111 230 85 0.000000 0.000000 0.000000 0.000000 -60.708740 0.000000 198.000000 0.932508 0.078485 -0.352517
-5.57999992 -3.42000008 -0.81999999 111 230 85 0.000000 0.000000 0.000000 0.000000 -60.708740 0.000000 198.000000 0.987997 0.035572 -0.150322
-5.59999990 -3.40000010 -0.82999998 111 230 85 0.000000 0.000000 0.000000 0.000000 -60.708740 0.000000 198.000000 0.978979 0.199134 -0.044120
-5.59999990 -3.40000010 -0.85000002 111 230 85 0.000000 0.000000 0.000000 0.000000 -60.708740 0.000000 198.000000 0.934112 0.141283 -0.327831
-5.59999990 -3.40000010 -0.85000002 111 230 85 0.000000 0.000000 0.000000 0.000000 -60.708740 0.000000 198.000000 0.934112 0.141283 -0.327831
-5.59999990 -3.41000009 -0.81999999 111 230 85 0.000000 0.000000 0.000000 0.000000 -60.708740 0.000000 198.000000 0.918525 0.231428 0.320550
-5.59000015 -3.44000006 -0.79000002 111 230 85 0.000000 0.000000 0.000000 0.000000 -60.708740 0.000000 198.000000 0.937941 0.140215 0.317185
-5.59000015 -3.44000006 -0.79000002 111 230 85 0.000000 0.000000 0.000000 0.000000 -60.708740 0.000000 198.000000 0.937941 0.140215 0.317185
-5.59000015 -3.44000006 -0.79000002 111 230 85 0.000000 0.000000 0.000000 0.000000 -60.708740 0.000000 198.000000 0.937941 0.140215 0.317185
-5.59999990 -3.44000006 -0.85000002 111 230 85 0.000000 0.000000 0.000000 0.000000 -60.708740 0.000000 198.000000 0.929158 0.222036 -0.295577
-5.55999994 -3.50999999 -0.69999999 111 230 85 0.000000 0.000000 0.000000 0.000000 -60.708740 0.000000 198.000000 0.993451 -0.113067 -0.016466
-5.57999992 -3.50000000 -0.75999999 111 230 85 0.000000 0.000000 0.000000 0.000000 -60.708740 0.000000 198.000000 0.998698 0.007215 -0.050502
-5.53999996 -3.50000000 -0.83999997 111 230 85 0.000000 0.000000 0.000000 0.000000 -60.708740 0.000000 198.000000 0.956007 0.067829 -0.285394
-5.57999992 -3.48000002 -0.77999997 111 230 85 0.000000 0.000000 0.000000 0.000000 -60.708740 0.000000 198.000000 0.969497 0.118169 -0.214738
-5.57999992 -3.48000002 -0.77999997 111 230 85 0.000000 0.000000 0.000000 0.000000 -60.708740 0.000000 198.000000 0.969497 0.118169 -0.214738
-5.53000021 -3.46000004 -0.98000002 111 230 85 0.000000 0.000000 0.000000 0.000000 -60.708740 0.000000 198.000000 0.922902 0.176126 -0.342390
-5.48000002 -3.55999994 -0.93000001 111 230 85 0.000000 0.000000 0.000000 0.000000 -60.708740 0.000000 198.000000 0.906999 -0.089461 -0.411521
-5.51000023 -3.50999999 -0.86000001 111 230 85 0.000000 0.000000 0.000000 0.000000 -60.708740 0.000000 198.000000 0.866560 -0.109926 -0.486816
-5.51000023 -3.50999999 -0.86000001 111 230 85 0.000000 0.000000 0.000000 0.000000 -60.708740 0.000000 198.000000 0.866560 -0.109926 -0.486816
-5.50000000 -3.54999995 -0.86000001 111 230 85 0.000000 0.000000 0.000000 0.000000 -60.708740 0.000000 198.000000 0.845862 0.302648 -0.439228
-5.50000000 -3.52999997 -0.93000001 111 230 85 0.000000 0.000000 0.000000 0.000000 -60.708740 0.000000 198.000000 0.964023 -0.250875 -0.087870
-5.50000000 -3.52999997 -0.92000002 111 230 85 0.000000 0.000000 0.000000 0.000000 -60.708740 0.000000 198.000000 0.930882 -0.168366 -0.324209
-5.51000023 -3.52999997 -0.93000001 111 230 85 0.000000 0.000000 0.000000 0.000000 -60.708740 0.000000 198.000000 0.919801 -0.216003 -0.327581
-5.48999977 -3.50000000 -0.95999998 111 230 85 0.000000 0.000000 0.000000 0.000000 -60.708740 0.000000 198.000000 0.947653 -0.233836 -0.217427
-5.48999977 -3.51999998 -0.94999999 111 230 85 0.000000 0.000000 0.000000 0.000000 -60.708740 0.000000 198.000000 0.929158 -0.222036 -0.295577
-5.51000023 -3.49000001 -1.00000000 111 230 85 0.000000 0.000000 0.000000 0.000000 -60.708740 0.000000 198.000000 0.934864 -0.301435 -0.187528
-5.57000017 -3.44000006 -0.87000000 111 230 85 0.000000 0.000000 0.000000 0.000000 -60.708740 0.000000 198.000000 0.920151 -0.068508 -0.385523
-5.57000017 -3.45000005 -0.88000000 111 230 85 0.000000 0.000000 0.000000 0.000000 -60.708740 0.000000 198.000000 0.990741 -0.120263 0.062995
-5.55000019 -3.44000006 -0.87000000 111 230 85 0.000000 0.000000 0.000000 0.000000 -60.708740 0.000000 198.000000 0.999496 0.023434 0.021396
-5.55000019 -3.45000005 -0.91000003 111 230 85 0.000000 0.000000 0.000000 0.000000 -60.708740 0.000000 198.000000 0.985730 -0.158233 -0.057433
-5.59999990 -3.42000008 -0.88999999 111 230 85 0.000000 0.000000 0.000000 0.000000 -60.708740 0.000000 198.000000 0.969254 0.188716 0.157905
-5.59999990 -3.41000009 -0.91000003 111 230 85 0.000000 0.000000 0.000000 0.000000 -60.708740 0.000000 198.000000 0.901707 0.293682 0.317295
-5.57999992 -3.41000009 -0.94000000 111 230 85 0.000000 0.000000 0.000000 0.000000 -60.708740 0.000000 198.000000 0.996247 0.024772 0.082931
-5.57999992 -3.41000009 -0.92000002 111 230 85 0.000000 0.000000 0.000000 0.000000 -60.708740 0.000000 198.000000 0.963404 0.166014 0.210459
-5.57999992 -3.42000008 -0.92000002 111 230 85 0.000000 0.000000 0.000000 0.000000 -60.708740 0.000000 198.000000 0.951152 0.174041 0.254990
-5.61000013 -3.40000010 -0.94000000 111 230 85 0.000000 0.000000 0.000000 0.000000 -60.708740 0.000000 198.000000 0.877193 0.320776 -0.357262
-5.57999992 -3.44000006 -0.91000003 111 230 85 0.000000 0.000000 0.000000 0.000000 -60.708740 0.000000 198.000000 0.890628 0.203949 -0.406432
-5.55000019 -3.44000006 -0.97000003 111 230 85 0.000000 0.000000 0.000000 0.000000 -60.708740 0.000000 198.000000 0.971900 0.122593 -0.200952
-5.55999994 -3.45000005 -0.99000001 111 230 85 0.000000 0.000000 0.000000 0.000000 -60.708740 0.000000 198.000000 0.984983 -0.010272 0.172344
-5.55999994 -3.45000005 -0.99000001 111 230 85 0.000000 0.000000 0.000000 0.000000 -60.708740 0.000000 198.000000 0.984983 -0.010272 0.172344
-5.57999992 -3.40000010 -0.94999999 111 230 85 0.000000 0.000000 0.000000 0.000000 -60.708740 0.000000 198.000000 0.999984 -0.004916 0.002950
-5.53000021 -3.56999993 -0.70999998 111 230 85 0.000000 0.000000 0.000000 0.000000 -60.708740 0.000000 198.000000 0.834277 0.324006 -0.446096
-5.51999998 -3.61999989 -0.73000002 111 230 85 0.000000 0.000000 0.000000 0.000000 -60.708740 0.000000 198.000000 0.872239 0.050984 -0.486415
-5.51999998 -3.63000011 -0.72000003 111 230 85 0.000000 0.000000 0.000000 0.000000 -60.708740 0.000000 198.000000 0.908467 -0.299896 -0.291119
-5.51999998 -3.60999990 -0.73000002 111 230 85 0.000000 0.000000 0.000000 0.000000 -60.708740 0.000000 198.000000 0.833469 0.198157 -0.515813
-5.51999998 -3.60999990 -0.73000002 111 230 85 0.000000 0.000000 0.000000 0.000000 -60.708740 0.000000 198.000000 0.833469 0.198157 -0.515813
-5.50000000 -3.63000011 -0.75999999 111 230 85 0.000000 0.000000 0.000000 0.000000 -60.708740 0.000000 198.000000 0.904514 -0.095285 -0.415662
-5.50000000 -3.61999989 -0.75000000 111 230 85 0.000000 0.000000 0.000000 0.000000 -60.708740 0.000000 198.000000 0.896264 0.050169 -0.440674
-5.50000000 -3.63000011 -0.75999999 111 230 85 0.000000 0.000000 0.000000 0.000000 -60.708740 0.000000 198.000000 0.904514 -0.095285 -0.415662
-5.48999977 -3.56999993 -0.83999997 111 230 85 0.000000 0.000000 0.000000 0.000000 -60.708740 0.000000 198.000000 0.958313 -0.200701 -0.203359
-5.48999977 -3.57999992 -0.83999997 111 230 85 0.000000 0.000000 0.000000 0.000000 -60.708740 0.000000 198.000000 0.935802 -0.097730 -0.338709
-5.51000023 -3.56999993 -0.80000001 111 230 85 0.000000 0.000000 0.000000 0.000000 -60.708740 0.000000 198.000000 0.975822 -0.218537 -0.003506
-5.51999998 -3.56999993 -0.82999998 111 230 85 0.000000 0.000000 0.000000 0.000000 -60.708740 0.000000 198.000000 0.914688 0.129476 -0.382860
-5.51999998 -3.56999993 -0.82999998 111 230 85 0.000000 0.000000 0.000000 0.000000 -60.708740 0.000000 198.000000 0.914688 0.129476 -0.382860
-5.51999998 -3.56999993 -0.81999999 111 230 85 0.000000 0.000000 0.000000 0.000000 -60.708740 0.000000 198.000000 0.906746 0.163698 -0.388606
-5.46999979 -3.69000006 -0.75000000 111 230 85 0.000000 0.000000 0.000000 0.000000 -60.708740 0.000000 198.000000 0.891228 -0.276176 -0.359776
-5.53000021 -3.66000009 -0.75000000 111 230 85 0.000000 0.000000 0.000000 0.000000 -60.708740 0.000000 198.000000 0.850809 0.323896 -0.413781
-5.50000000 -3.65000010 -0.75999999 111 230 85 0.000000 0.000000 0.000000 0.000000 -60.708740 0.000000 198.000000 0.911615 -0.160206 -0.378540
-5.48000002 -3.66000009 -0.82999998 111 230 85 0.000000 0.000000 0.000000 0.000000 -60.708740 0.000000 198.000000 0.858296 0.287122 -0.425310
-5.48999977 -3.69000006 -0.77999997 111 230 85 0.000000 0.000000 0.000000 0.000000 -60.708740 0.000000 198.000000 0.852071 -0.392666 -0.346105
-5.51000023 -3.66000009 -0.81000000 111 230 85 0.000000 0.000000 0.000000 0.000000 -60.708740 0.000000 198.000000 0.806776 -0.290943 -0.514261
-5.50000000 -3.58999991 -0.92000002 111 230 85 0.000000 0.000000 0.000000 0.000000 -60.708740 0.000000 198.000000 0.792130 -0.046596 -0.608571
-5.50000000 -3.60999990 -0.88000000 111 230 85 0.000000 0.000000 0.000000 0.000000 -60.708740 0.000000 198.000000 0.895402 0.067189 -0.440159
-5.46000004 -3.63000011 -0.97000003 111 230 85 0.000000 0.000000 0.000000 0.000000 -60.708740 0.000000 198.000000 0.934901 -0.245289 -0.256502
-5.48999977 -3.73000002 -0.88999999 111 230 85 0.000000 0.000000 0.000000 0.000000 -60.708740 0.000000 198.000000 0.678649 -0.477568 -0.558000
-5.46999979 -3.70000005 -0.88999999 111 230 85 0.000000 0.000000 0.000000 0.000000 -60.708740 0.000000 198.000000 0.793114 -0.487451 -0.365186
-5.46000004 -3.70000005 -0.88999999 111 230 85 0.000000 0.000000 0.000000 0.000000 -60.708740 0.000000 198.000000 0.901082 -0.291483 -0.321075
-5.46000004 -3.70000005 -0.89999998 111 230 85 0.000000 0.000000 0.000000 0.000000 -60.708740 0.000000 198.000000 0.900002 0.149763 -0.409351
-5.61999989 -3.41000009 -0.81000000 111 230 85 0.000000 0.000000 0.000000 0.000000 -60.708740 0.000000 198.000000 0.857279 0.335188 -0.390796
-5.61999989 -3.41000009 -0.81000000 111 230 85 0.000000 0.000000 0.000000 0.000000 -60.708740 0.000000 198.000000 0.857279 0.335188 -0.390796
-5.53000021 -3.46000004 -1.03999996 111 230 85 0.000000 0.000000 0.000000 0.000000 -60.708740 0.000000 198.000000 0.979646 -0.200567 -0.008115
-5.90999985 -3.22000003 -0.15000001 111 230 85 0.000000 0.000000 0.000000 0.000000 -60.708740 0.000000 198.000000 0.225936 0.765066 0.603015
-5.92999983 -3.22000003 -0.14000000 111 230 85 0.000000 0.000000 0.000000 0.000000 -60.708740 0.000000 198.000000 0.107696 0.899334 0.423792
-5.94999981 -3.22000003 -0.22000000 111 230 85 0.000000 0.000000 0.000000 0.000000 -60.708740 0.000000 198.000000 -0.044095 0.669963 0.741084
-5.94000006 -3.22000003 -0.22000000 111 230 85 0.000000 0.000000 0.000000 0.000000 -60.708740 0.000000 198.000000 -0.009617 0.803739 0.594904
-5.88000011 -3.22000003 -0.28999999 111 230 85 0.000000 0.000000 0.000000 0.000000 -60.708740 0.000000 198.000000 0.022356 0.908692 0.416868
-5.92000008 -3.22000003 -0.34999999 111 230 85 0.000000 0.000000 0.000000 0.000000 -60.708740 0.000000 198.000000 -0.293362 0.781769 0.550251
-5.94000006 -3.22000003 -0.34999999 111 230 85 0.000000 0.000000 0.000000 0.000000 -60.708740 0.000000 198.000000 -0.049470 0.804248 0.592232
-5.78999996 -3.28999996 -0.08000000 111 230 85 0.000000 0.000000 0.000000 0.000000 -60.708740 0.000000 198.000000 0.411331 0.573220 0.708679
-5.80000019 -3.26999998 -0.08000000 111 230 85 0.000000 0.000000 0.000000 0.000000 -60.708740 0.000000 198.000000 -0.064932 0.711363 0.699819
-5.80999994 -3.25999999 -0.12000000 111 230 85 0.000000 0.000000 0.000000 0.000000 -60.708740 0.000000 198.000000 0.435944 0.636378 0.636378
-5.78999996 -3.25999999 -0.15000001 111 230 85 0.000000 0.000000 0.000000 0.000000 -60.708740 0.000000 198.000000 -0.106242 0.876849 0.468880
-5.80999994 -3.25999999 -0.16000000 111 230 85 0.000000 0.000000 0.000000 0.000000 -60.708740 0.000000 198.000000 0.032169 0.801428 0.597225
-5.80999994 -3.27999997 -0.18000001 111 230 85 0.000000 0.000000 0.000000 0.000000 -60.708740 0.000000 198.000000 -0.003984 0.880464 0.474096
-5.86000013 -3.25000000 -0.11000000 111 230 85 0.000000 0.000000 0.000000 0.000000 -60.708740 0.000000 198.000000 0.017978 0.800700 0.598796
-5.82999992 -3.24000001 -0.18000001 111 230 85 0.000000 0.000000 0.000000 0.000000 -60.708740 0.000000 198.000000 0.272811 0.786895 0.553507
-5.86999989 -3.24000001 -0.18000001 111 230 85 0.000000 0.000000 0.000000 0.000000 -60.708740 0.000000 198.000000 0.456788 0.740425 0.493067
-5.88999987 -3.24000001 -0.13000000 111 230 85 0.000000 0.000000 0.000000 0.000000 -60.708740 0.000000 198.000000 0.199848 0.845972 0.494360
-5.90999985 -3.25000000 -0.13000000 111 230 85 0.000000 0.000000 0.000000 0.000000 -60.708740 0.000000 198.000000 -0.073657 0.634031 0.769792
-5.90000010 -3.23000002 -0.18000001 111 230 85 0.000000 0.000000 0.000000 0.000000 -60.708740 0.000000 198.000000 0.193810 0.801181 0.566168
-5.88999987 -3.23000002 -0.18000001 111 230 85 0.000000 0.000000 0.000000 0.000000 -60.708740 0.000000 198.000000 -0.085487 0.780970 0.618690
-5.90999985 -3.23000002 -0.18000001 111 230 85 0.000000 0.000000 0.000000 0.000000 -60.708740 0.000000 198.000000 0.237634 0.877302 0.416980
-5.92000008 -3.23000002 -0.14000000 111 230 85 0.000000 0.000000 0.000000 0.000000 -60.708740 0.000000 198.000000 -0.061460 0.613176 0.787552
-5.94999981 -3.23000002 -0.12000000 111 230 85 0.000000 0.000000 0.000000 0.000000 -60.708740 0.000000 198.000000 -0.214703 0.922796 0.319922
-5.94999981 -3.25000000 -0.15000001 111 230 85 0.000000 0.000000 0.000000 0.000000 -60.708740 0.000000 198.000000 -0.085196 0.884082 0.459499
-5.82000017 -3.25000000 -0.20000000 111 230 85 0.000000 0.000000 0.000000 0.000000 -60.708740 0.000000 198.000000 0.149386 0.725806 0.671483
