//X Y Z R G B PointSourceId ScanDirectionFlag NumberOfReturns ReturnNumber GpsTime Intensity Classification Nx Ny Nz
13.69999981 -10.64999962 -0.54000002 244 204 31 97.000000 1.000000 4.000000 1.000000 -60.708740 114.000000 37.000000 0.954360 -0.147746 -0.259554
13.69999981 -10.64999962 -0.52999997 244 204 31 97.000000 1.000000 4.000000 1.000000 -60.708740 114.000000 37.000000 0.988656 -0.063897 -0.135926
13.69999981 -10.65999985 -0.52999997 244 204 31 97.000000 1.000000 4.000000 1.000000 -60.708740 114.000000 37.000000 0.956079 0.262427 -0.130554
13.68999958 -10.65999985 -0.55000001 244 204 31 97.000000 1.000000 4.000000 1.000000 -60.708740 114.000000 37.000000 0.977920 -0.066814 -0.198014
13.69999981 -10.65999985 -0.54000002 244 204 31 97.000000 1.000000 4.000000 1.000000 -60.708740 114.000000 37.000000 0.971486 -0.135881 -0.194297
13.69999981 -10.65999985 -0.54000002 244 204 31 97.000000 1.000000 4.000000 1.000000 -60.708740 114.000000 37.000000 0.971486 -0.135881 -0.194297
13.68999958 -10.65999985 -0.56000000 244 204 31 97.000000 1.000000 4.000000 1.000000 -60.708740 114.000000 37.000000 0.998115 0.051864 -0.032812
13.68999958 -10.65999985 -0.56000000 244 204 31 97.000000 1.000000 4.000000 1.000000 -60.708740 114.000000 37.000000 0.998115 0.051864 -0.032812
13.68999958 -10.67000008 -0.58999997 244 204 31 97.000000 1.000000 4.000000 1.000000 -60.708740 114.000000 37.000000 0.893975 -0.225335 0.387340
13.68999958 -10.67000008 -0.68000001 244 204 31 97.000000 1.000000 4.000000 1.000000 -60.708740 114.000000 37.000000 0.896095 -0.431971 0.102051
13.68999958 -10.64999962 -0.79000002 244 204 31 97.000000 1.000000 4.000000 1.000000 -60.708740 114.000000 37.000000 0.952941 -0.301785 -0.028801
13.69999981 -10.64000034 -0.70999998 244 204 31 97.000000 1.000000 4.000000 1.000000 -60.708740 114.000000 37.000000 0.923704 -0.362048 0.125271
13.68999958 -10.63000011 -0.77999997 244 204 31 97.000000 1.000000 4.000000 1.000000 -60.708740 114.000000 37.000000 0.983661 0.138799 0.114660
13.68000031 -10.56000042 -0.09000000 244 204 31 97.000000 1.000000 4.000000 1.000000 -60.708740 114.000000 37.000000 -0.679793 0.726777 -0.098372
13.68000031 -10.57999992 -0.13000000 244 204 31 97.000000 1.000000 4.000000 1.000000 -60.708740 114.000000 37.000000 0.983159 -0.166454 -0.075443
13.68000031 -10.60000038 -0.14000000 244 204 31 97.000000 1.000000 4.000000 1.000000 -60.708740 114.000000 37.000000 0.972674 -0.221231 0.070448
13.67000008 -10.59000015 -0.23999999 244 204 31 97.000000 1.000000 4.000000 1.000000 -60.708740 114.000000 37.000000 0.907150 -0.303360 -0.291636
13.68000031 -10.59000015 -0.28999999 244 204 31 97.000000 1.000000 4.000000 1.000000 -60.708740 114.000000 37.000000 0.760132 -0.649768 -0.001380
13.68000031 -10.60999966 -0.28000000 244 204 31 97.000000 1.000000 4.000000 1.000000 -60.708740 114.000000 37.000000 0.970126 0.146989 0.193003
13.64999962 -10.60999966 -0.33000001 244 204 31 97.000000 1.000000 4.000000 1.000000 -60.708740 114.000000 37.000000 0.815405 -0.462540 0.348097
13.68000031 -10.64999962 -0.06000000 244 204 31 97.000000 1.000000 4.000000 1.000000 -60.708740 114.000000 37.000000 0.983437 -0.107394 -0.146007
13.68000031 -10.68999958 -0.03000000 244 204 31 97.000000 1.000000 4.000000 1.000000 -60.708740 114.000000 37.000000 0.860075 0.510123 0.006730
13.67000008 -10.67000008 -0.04000000 244 204 31 97.000000 1.000000 4.000000 1.000000 -60.708740 114.000000 37.000000 0.983208 -0.155624 0.095305
13.68000031 -10.67000008 -0.10000000 244 204 31 97.000000 1.000000 4.000000 1.000000 -60.708740 114.000000 37.000000 0.940615 0.142517 0.308109
13.68000031 -10.65999985 -0.09000000 244 204 31 97.000000 1.000000 4.000000 1.000000 -60.708740 114.000000 37.000000 0.993731 0.093197 0.061757
13.68000031 -10.67000008 -0.09000000 244 204 31 97.000000 1.000000 4.000000 1.000000 -60.708740 114.000000 37.000000 0.928688 0.358227 0.095978
13.68000031 -10.65999985 -0.07000000 244 204 31 97.000000 1.000000 4.000000 1.000000 -60.708740 114.000000 37.000000 0.877806 0.462531 -0.124583
13.68000031 -10.65999985 -0.10000000 244 204 31 97.000000 1.000000 4.000000 1.000000 -60.708740 114.000000 37.000000 0.908977 0.387130 -0.154569
13.68000031 -10.65999985 -0.07000000 244 204 31 97.000000 1.000000 4.000000 1.000000 -60.708740 114.000000 37.000000 0.877806 0.462531 -0.124583
13.68000031 -10.67000008 -0.08000000 244 204 31 97.000000 1.000000 4.000000 1.000000 -60.708740 114.000000 37.000000 0.841210 0.528471 -0.114381
13.68000031 -10.64000034 -0.14000000 244 204 31 97.000000 1.000000 4.000000 1.000000 -60.708740 114.000000 37.000000 0.973273 -0.206149 0.101200
13.68000031 -10.64999962 -0.14000000 244 204 31 97.000000 1.000000 4.000000 1.000000 -60.708740 114.000000 37.000000 0.955271 0.202308 -0.215706
13.64999962 -10.64999962 -0.11000000 244 204 31 97.000000 1.000000 4.000000 1.000000 -60.708740 114.000000 37.000000 0.989833 0.089562 -0.110498
13.68000031 -10.64999962 -0.15000001 244 204 31 97.000000 1.000000 4.000000 1.000000 -60.708740 114.000000 37.000000 0.977879 -0.049315 0.203274
13.68000031 -10.64000034 -0.15000001 244 204 31 97.000000 1.000000 4.000000 1.000000 -60.708740 114.000000 37.000000 0.882500 -0.067672 0.465419
13.68000031 -10.63000011 -0.15000001 244 204 31 97.000000 1.000000 4.000000 1.000000 -60.708740 114.000000 37.000000 0.955880 -0.280685 0.086663
13.68000031 -10.64000034 -0.15000001 244 204 31 97.000000 1.000000 4.000000 1.000000 -60.708740 114.000000 37.000000 0.882500 -0.067672 0.465419
13.68000031 -10.61999989 -0.18000001 244 204 31 97.000000 1.000000 4.000000 1.000000 -60.708740 114.000000 37.000000 0.997384 0.003140 -0.072214
13.68000031 -10.65999985 -0.11000000 244 204 31 97.000000 1.000000 4.000000 1.000000 -60.708740 114.000000 37.000000 0.895603 0.441686 0.053002
13.68000031 -10.67000008 -0.15000001 244 204 31 97.000000 1.000000 4.000000 1.000000 -60.708740 114.000000 37.000000 0.846436 0.517186 -0.126747
13.68000031 -10.64999962 -0.20999999 244 204 31 97.000000 1.000000 4.000000 1.000000 -60.708740 114.000000 37.000000 0.996323 -0.013912 0.084543
13.68000031 -10.64999962 -0.20999999 244 204 31 97.000000 1.000000 4.000000 1.000000 -60.708740 114.000000 37.000000 0.996323 -0.013912 0.084543
13.68000031 -10.61999989 -0.22000000 244 204 31 97.000000 1.000000 4.000000 1.000000 -60.708740 114.000000 37.000000 0.989259 0.051703 -0.136727
13.68000031 -10.64000034 -0.20999999 244 204 31 97.000000 1.000000 4.000000 1.000000 -60.708740 114.000000 37.000000 0.991490 -0.012186 -0.129614
13.68000031 -10.63000011 -0.27000001 244 204 31 97.000000 1.000000 4.000000 1.000000 -60.708740 114.000000 37.000000 0.948730 -0.289556 -0.126764
13.65999985 -10.64000034 -0.25000000 244 204 31 97.000000 1.000000 4.000000 1.000000 -60.708740 114.000000 37.000000 0.995427 0.040518 0.086511
13.65999985 -10.64000034 -0.27000001 244 204 31 97.000000 1.000000 4.000000 1.000000 -60.708740 114.000000 37.000000 0.949964 -0.237831 0.202496
13.68000031 -10.63000011 -0.27000001 244 204 31 97.000000 1.000000 4.000000 1.000000 -60.708740 114.000000 37.000000 0.948730 -0.289556 -0.126764
13.64999962 -10.65999985 -0.20999999 244 204 31 97.000000 1.000000 4.000000 1.000000 -60.708740 114.000000 37.000000 0.999658 0.021269 0.015192
13.64999962 -10.65999985 -0.23000000 244 204 31 97.000000 1.000000 4.000000 1.000000 -60.708740 114.000000 37.000000 0.976869 -0.128503 0.170921
13.65999985 -10.68000031 -0.25000000 244 204 31 97.000000 1.000000 4.000000 1.000000 -60.708740 114.000000 37.000000 0.939642 -0.168724 0.297668
13.65999985 -10.65999985 -0.25000000 244 204 31 97.000000 1.000000 4.000000 1.000000 -60.708740 114.000000 37.000000 0.871189 0.421251 0.252147
13.65999985 -10.68999958 -0.27000001 244 204 31 97.000000 1.000000 4.000000 1.000000 -60.708740 114.000000 37.000000 0.991782 0.127937 0.001093
13.64999962 -10.68000031 -0.23000000 244 204 31 97.000000 1.000000 4.000000 1.000000 -60.708740 114.000000 37.000000 0.992317 0.053059 0.111763
13.65999985 -10.64999962 -0.28000000 244 204 31 97.000000 1.000000 4.000000 1.000000 -60.708740 114.000000 37.000000 0.976005 0.029793 0.215698
13.64999962 -10.63000011 -0.30000001 244 204 31 97.000000 1.000000 4.000000 1.000000 -60.708740 114.000000 37.000000 0.879815 -0.464621 -0.100268
13.65999985 -10.64999962 -0.28999999 244 204 31 97.000000 1.000000 4.000000 1.000000 -60.708740 114.000000 37.000000 0.981453 0.191699 0.001148
13.65999985 -10.64999962 -0.28000000 244 204 31 97.000000 1.000000 4.000000 1.000000 -60.708740 114.000000 37.000000 0.976005 0.029793 0.215698
13.64999962 -10.64000034 -0.34999999 244 204 31 97.000000 1.000000 4.000000 1.000000 -60.708740 114.000000 37.000000 0.907896 -0.218648 0.357656
13.64999962 -10.64999962 -0.34000000 244 204 31 97.000000 1.000000 4.000000 1.000000 -60.708740 114.000000 37.000000 0.958964 0.236113 -0.156969
13.64999962 -10.61999989 -0.33000001 244 204 31 97.000000 1.000000 4.000000 1.000000 -60.708740 114.000000 37.000000 0.981653 -0.080899 -0.172665
13.67000008 -10.65999985 -0.28999999 244 204 31 97.000000 1.000000 4.000000 1.000000 -60.708740 114.000000 37.000000 0.969913 -0.097117 -0.223244
13.65999985 -10.68000031 -0.28999999 244 204 31 97.000000 1.000000 4.000000 1.000000 -60.708740 114.000000 37.000000 0.964411 0.160518 -0.210108
13.67000008 -10.65999985 -0.28999999 244 204 31 97.000000 1.000000 4.000000 1.000000 -60.708740 114.000000 37.000000 0.969913 -0.097117 -0.223244
13.64000034 -10.64000034 -0.31000000 244 204 31 97.000000 1.000000 4.000000 1.000000 -60.708740 114.000000 37.000000 0.972648 -0.232257 0.003537
13.64000034 -10.63000011 -0.34000000 244 204 31 97.000000 1.000000 4.000000 1.000000 -60.708740 114.000000 37.000000 0.871866 -0.444102 0.206455
13.64000034 -10.64000034 -0.34000000 244 204 31 97.000000 1.000000 4.000000 1.000000 -60.708740 114.000000 37.000000 0.976783 -0.008189 0.214073
13.68000031 -10.56000042 -0.43000001 244 204 31 97.000000 1.000000 4.000000 1.000000 -60.708740 114.000000 37.000000 0.739521 -0.658519 -0.139504
13.65999985 -10.60999966 -0.36000001 244 204 31 97.000000 1.000000 4.000000 1.000000 -60.708740 114.000000 37.000000 0.872887 -0.451899 0.183998
13.67000008 -10.60999966 -0.38999999 244 204 31 97.000000 1.000000 4.000000 1.000000 -60.708740 114.000000 37.000000 0.830533 -0.523040 -0.191429
13.68000031 -10.60999966 -0.38000000 244 204 31 97.000000 1.000000 4.000000 1.000000 -60.708740 114.000000 37.000000 0.826330 -0.554263 -0.099854
13.67000008 -10.60999966 -0.38999999 244 204 31 97.000000 1.000000 4.000000 1.000000 -60.708740 114.000000 37.000000 0.830533 -0.523040 -0.191429
13.65999985 -10.60999966 -0.37000000 244 204 31 97.000000 1.000000 4.000000 1.000000 -60.708740 114.000000 37.000000 0.826108 -0.485670 0.285780
13.68000031 -10.57999992 -0.37000000 244 204 31 97.000000 1.000000 4.000000 1.000000 -60.708740 114.000000 37.000000 0.728713 -0.637031 0.251335
13.68000031 -10.59000015 -0.38999999 244 204 31 97.000000 1.000000 4.000000 1.000000 -60.708740 114.000000 37.000000 0.792480 -0.574816 -0.203868
13.68000031 -10.59000015 -0.37000000 244 204 31 97.000000 1.000000 4.000000 1.000000 -60.708740 114.000000 37.000000 0.805483 -0.577040 -0.134989
13.68000031 -10.60000038 -0.38000000 244 204 31 97.000000 1.000000 4.000000 1.000000 -60.708740 114.000000 37.000000 0.828022 -0.560654 -0.006821
13.65999985 -10.60999966 -0.36000001 244 204 31 97.000000 1.000000 4.000000 1.000000 -60.708740 114.000000 37.000000 0.872887 -0.451899 0.183998
13.65999985 -10.60999966 -0.37000000 244 204 31 97.000000 1.000000 4.000000 1.000000 -60.708740 114.000000 37.000000 0.826108 -0.485670 0.285780
13.68000031 -10.59000015 -0.38000000 244 204 31 97.000000 1.000000 4.000000 1.000000 -60.708740 114.000000 37.000000 0.853906 -0.519471 0.031525
13.68000031 -10.56000042 -0.44000000 244 204 31 97.000000 1.000000 4.000000 1.000000 -60.708740 114.000000 37.000000 0.780991 -0.623386 -0.037994
13.67000008 -10.59000015 -0.47000000 244 204 31 97.000000 1.000000 4.000000 1.000000 -60.708740 114.000000 37.000000 0.992687 -0.091894 0.078280
13.68000031 -10.57999992 -0.44000000 244 204 31 97.000000 1.000000 4.000000 1.000000 -60.708740 114.000000 37.000000 0.952281 -0.081624 0.294106
13.65999985 -10.60000038 -0.50999999 244 204 31 97.000000 1.000000 4.000000 1.000000 -60.708740 114.000000 37.000000 0.921899 0.001279 0.387428
13.67000008 -10.57999992 -0.50000000 244 204 31 97.000000 1.000000 4.000000 1.000000 -60.708740 114.000000 37.000000 0.889853 -0.452445 -0.058777
13.65999985 -10.60000038 -0.50999999 244 204 31 97.000000 1.000000 4.000000 1.000000 -60.708740 114.000000 37.000000 0.921899 0.001279 0.387428
13.67000008 -10.59000015 -0.56000000 244 204 31 97.000000 1.000000 4.000000 1.000000 -60.708740 114.000000 37.000000 0.846861 -0.531813 0.001346
13.65999985 -10.60000038 -0.55000001 244 204 31 97.000000 1.000000 4.000000 1.000000 -60.708740 114.000000 37.000000 0.756917 -0.651829 -0.046864
13.68000031 -10.59000015 -0.52999997 244 204 31 97.000000 1.000000 4.000000 1.000000 -60.708740 114.000000 37.000000 0.907881 -0.404584 -0.109836
13.64000034 -10.56000042 -0.52999997 244 204 31 97.000000 1.000000 4.000000 1.000000 -60.708740 114.000000 37.000000 0.982899 -0.160399 0.090451
13.63000011 -10.57999992 -0.52999997 244 204 31 97.000000 1.000000 4.000000 1.000000 -60.708740 114.000000 37.000000 0.979730 -0.109131 -0.167989
13.61999989 -10.60000038 -0.66000003 244 204 31 97.000000 1.000000 4.000000 1.000000 -60.708740 114.000000 37.000000 0.925152 -0.349193 0.148859
13.59000015 -10.59000015 -0.62000000 244 204 31 97.000000 1.000000 4.000000 1.000000 -60.708740 114.000000 37.000000 0.745368 -0.641292 0.182133
13.57999992 -10.60000038 -0.69000000 244 204 31 97.000000 1.000000 4.000000 1.000000 -60.708740 114.000000 37.000000 0.976764 -0.189411 -0.100276
13.59000015 -10.59000015 -0.68000001 244 204 31 97.000000 1.000000 4.000000 1.000000 -60.708740 114.000000 37.000000 0.844552 -0.528379 0.086876
13.59000015 -10.59000015 -0.66000003 244 204 31 97.000000 1.000000 4.000000 1.000000 -60.708740 114.000000 37.000000 0.898682 -0.369180 -0.236805
13.59000015 -10.60000038 -0.67000002 244 204 31 97.000000 1.000000 4.000000 1.000000 -60.708740 114.000000 37.000000 0.928887 -0.368689 -0.035175
13.65999985 -10.63000011 -0.38000000 244 204 31 97.000000 1.000000 4.000000 1.000000 -60.708740 114.000000 37.000000 0.928812 -0.168495 0.330028
13.68000031 -10.63000011 -0.38000000 244 204 31 97.000000 1.000000 4.000000 1.000000 -60.708740 114.000000 37.000000 0.996703 0.013858 0.079949
13.68000031 -10.64999962 -0.37000000 244 204 31 97.000000 1.000000 4.000000 1.000000 -60.708740 114.000000 37.000000 0.965438 -0.213822 -0.149027
13.65999985 -10.61999989 -0.37000000 244 204 31 97.000000 1.000000 4.000000 1.000000 -60.708740 114.000000 37.000000 0.854885 -0.448088 0.261512
13.65999985 -10.63000011 -0.38000000 244 204 31 97.000000 1.000000 4.000000 1.000000 -60.708740 114.000000 37.000000 0.928812 -0.168495 0.330028
13.65999985 -10.61999989 -0.38000000 244 204 31 97.000000 1.000000 4.000000 1.000000 -60.708740 114.000000 37.000000 0.830457 -0.538396 0.143080
13.68000031 -10.63000011 -0.38000000 244 204 31 97.000000 1.000000 4.000000 1.000000 -60.708740 114.000000 37.000000 0.996703 0.013858 0.079949
13.68000031 -10.64999962 -0.37000000 244 204 31 97.000000 1.000000 4.000000 1.000000 -60.708740 114.000000 37.000000 0.965438 -0.213822 -0.149027
13.65999985 -10.61999989 -0.38000000 244 204 31 97.000000 1.000000 4.000000 1.000000 -60.708740 114.000000 37.000000 0.830457 -0.538396 0.143080
13.68000031 -10.68000031 -0.38000000 244 204 31 97.000000 1.000000 4.000000 1.000000 -60.708740 114.000000 37.000000 0.966397 0.231679 0.111360
13.67000008 -10.67000008 -0.37000000 244 204 31 97.000000 1.000000 4.000000 1.000000 -60.708740 114.000000 37.000000 0.998932 -0.003074 0.046105
13.67000008 -10.65999985 -0.37000000 244 204 31 97.000000 1.000000 4.000000 1.000000 -60.708740 114.000000 37.000000 0.929464 -0.150986 0.336602
13.68000031 -10.68999958 -0.40000001 244 204 31 97.000000 1.000000 4.000000 1.000000 -60.708740 114.000000 37.000000 0.973907 0.226573 -0.013049
13.68000031 -10.68999958 -0.40000001 244 204 31 97.000000 1.000000 4.000000 1.000000 -60.708740 114.000000 37.000000 0.973907 0.226573 -0.013049
13.61999989 -10.63000011 -0.38000000 244 204 31 97.000000 1.000000 4.000000 1.000000 -60.708740 114.000000 37.000000 0.888934 -0.407000 0.210112
13.63000011 -10.61999989 -0.38999999 244 204 31 97.000000 1.000000 4.000000 1.000000 -60.708740 114.000000 37.000000 0.897894 -0.382301 0.218248
13.64000034 -10.64999962 -0.43000001 244 204 31 97.000000 1.000000 4.000000 1.000000 -60.708740 114.000000 37.000000 0.936913 -0.285389 -0.201861
13.64000034 -10.64000034 -0.41000000 244 204 31 97.000000 1.000000 4.000000 1.000000 -60.708740 114.000000 37.000000 0.976255 -0.087407 -0.198206
13.64000034 -10.64000034 -0.41999999 244 204 31 97.000000 1.000000 4.000000 1.000000 -60.708740 114.000000 37.000000 0.850213 -0.245753 0.465557
13.64000034 -10.61999989 -0.41000000 244 204 31 97.000000 1.000000 4.000000 1.000000 -60.708740 114.000000 37.000000 0.948682 -0.253796 0.188651
13.64000034 -10.63000011 -0.41000000 244 204 31 97.000000 1.000000 4.000000 1.000000 -60.708740 114.000000 37.000000 0.941699 -0.037155 0.334399
13.60999966 -10.67000008 -0.43000001 244 204 31 97.000000 1.000000 4.000000 1.000000 -60.708740 114.000000 37.000000 0.898665 0.435100 -0.055574
13.64000034 -10.68999958 -0.41999999 244 204 31 97.000000 1.000000 4.000000 1.000000 -60.708740 114.000000 37.000000 0.877020 0.390961 0.279258
13.68000031 -10.61999989 -0.51999998 244 204 31 97.000000 1.000000 4.000000 1.000000 -60.708740 114.000000 37.000000 0.817135 -0.478901 0.320848
13.65999985 -10.64999962 -0.50000000 244 204 31 97.000000 1.000000 4.000000 1.000000 -60.708740 114.000000 37.000000 0.944848 0.136134 0.297876
13.64999962 -10.65999985 -0.44000000 244 204 31 97.000000 1.000000 4.000000 1.000000 -60.708740 114.000000 37.000000 0.883133 0.217455 0.415679
13.64999962 -10.67000008 -0.46000001 244 204 31 97.000000 1.000000 4.000000 1.000000 -60.708740 114.000000 37.000000 0.986620 0.142630 -0.078977
13.64999962 -10.67000008 -0.46000001 244 204 31 97.000000 1.000000 4.000000 1.000000 -60.708740 114.000000 37.000000 0.986620 0.142630 -0.078977
13.64999962 -10.68999958 -0.50000000 244 204 31 97.000000 1.000000 4.000000 1.000000 -60.708740 114.000000 37.000000 0.880695 0.463598 0.097229
13.63000011 -10.64999962 -0.46000001 244 204 31 97.000000 1.000000 4.000000 1.000000 -60.708740 114.000000 37.000000 0.952077 -0.281265 -0.120165
13.60000038 -10.63000011 -0.50999999 244 204 31 97.000000 1.000000 4.000000 1.000000 -60.708740 114.000000 37.000000 0.957819 -0.067596 -0.279311
13.61999989 -10.64999962 -0.50000000 244 204 31 97.000000 1.000000 4.000000 1.000000 -60.708740 114.000000 37.000000 0.998530 -0.052992 -0.011430
13.61999989 -10.64999962 -0.51999998 244 204 31 97.000000 1.000000 4.000000 1.000000 -60.708740 114.000000 37.000000 0.993394 0.114497 0.007633
13.61999989 -10.64999962 -0.51999998 244 204 31 97.000000 1.000000 4.000000 1.000000 -60.708740 114.000000 37.000000 0.993394 0.114497 0.007633
13.60999966 -10.67000008 -0.51999998 244 204 31 97.000000 1.000000 4.000000 1.000000 -60.708740 114.000000 37.000000 0.991112 -0.048818 0.123747
13.64000034 -10.69999981 -0.41000000 244 204 31 97.000000 1.000000 4.000000 1.000000 -60.708740 114.000000 37.000000 0.828560 0.542035 0.140309
13.65999985 -10.69999981 -0.46000001 244 204 31 97.000000 1.000000 4.000000 1.000000 -60.708740 114.000000 37.000000 0.966376 0.235546 -0.103131
13.67000008 -10.69999981 -0.47000000 244 204 31 97.000000 1.000000 4.000000 1.000000 -60.708740 114.000000 37.000000 0.965984 -0.040712 0.255375
13.64999962 -10.69999981 -0.50999999 244 204 31 97.000000 1.000000 4.000000 1.000000 -60.708740 114.000000 37.000000 0.939071 0.013940 0.343439
13.64999962 -10.64000034 -0.60000002 244 204 31 97.000000 1.000000 4.000000 1.000000 -60.708740 114.000000 37.000000 0.988893 -0.090112 0.118199
13.68000031 -10.61999989 -0.60000002 244 204 31 97.000000 1.000000 4.000000 1.000000 -60.708740 114.000000 37.000000 0.960159 0.151051 0.235114
13.68000031 -10.61999989 -0.56999999 244 204 31 97.000000 1.000000 4.000000 1.000000 -60.708740 114.000000 37.000000 0.965779 0.008440 0.259229
13.67000008 -10.68999958 -0.54000002 244 204 31 97.000000 1.000000 4.000000 1.000000 -60.708740 114.000000 37.000000 0.934328 0.135430 0.329682
13.64999962 -10.68999958 -0.55000001 244 204 31 97.000000 1.000000 4.000000 1.000000 -60.708740 114.000000 37.000000 0.983425 0.097500 0.152870
13.67000008 -10.68999958 -0.57999998 244 204 31 97.000000 1.000000 4.000000 1.000000 -60.708740 114.000000 37.000000 0.996756 -0.063992 -0.048807
13.64000034 -10.63000011 -0.56000000 244 204 31 97.000000 1.000000 4.000000 1.000000 -60.708740 114.000000 37.000000 0.824734 -0.205044 0.527040
13.64000034 -10.61999989 -0.54000002 244 204 31 97.000000 1.000000 4.000000 1.000000 -60.708740 114.000000 37.000000 0.830752 -0.436657 0.345227
13.64000034 -10.61999989 -0.55000001 244 204 31 97.000000 1.000000 4.000000 1.000000 -60.708740 114.000000 37.000000 0.935464 -0.349327 -0.053642
13.64000034 -10.64000034 -0.56000000 244 204 31 97.000000 1.000000 4.000000 1.000000 -60.708740 114.000000 37.000000 0.956645 0.291046 -0.011052
13.64000034 -10.63000011 -0.55000001 244 204 31 97.000000 1.000000 4.000000 1.000000 -60.708740 114.000000 37.000000 0.951320 -0.307080 -0.026321
13.64000034 -10.64000034 -0.56999999 244 204 31 97.000000 1.000000 4.000000 1.000000 -60.708740 114.000000 37.000000 0.931125 -0.357308 0.073055
13.61999989 -10.67000008 -0.52999997 244 204 31 97.000000 1.000000 4.000000 1.000000 -60.708740 114.000000 37.000000 0.975543 0.172007 0.136852
13.63000011 -10.67000008 -0.58999997 244 204 31 97.000000 1.000000 4.000000 1.000000 -60.708740 114.000000 37.000000 0.877023 -0.003993 0.480433
13.63000011 -10.68999958 -0.56999999 244 204 31 97.000000 1.000000 4.000000 1.000000 -60.708740 114.000000 37.000000 0.935602 -0.167220 0.310946
13.60000038 -10.67000008 -0.58999997 244 204 31 97.000000 1.000000 4.000000 1.000000 -60.708740 114.000000 37.000000 0.900110 0.424318 0.098776
13.63000011 -10.67000008 -0.57999998 244 204 31 97.000000 1.000000 4.000000 1.000000 -60.708740 114.000000 37.000000 0.966810 0.151428 -0.205787
13.63000011 -10.68000031 -0.57999998 244 204 31 97.000000 1.000000 4.000000 1.000000 -60.708740 114.000000 37.000000 0.935787 0.236395 -0.261573
13.67000008 -10.63000011 -0.62000000 244 204 31 97.000000 1.000000 4.000000 1.000000 -60.708740 114.000000 37.000000 0.953322 -0.117352 -0.278217
13.67000008 -10.63000011 -0.61000001 244 204 31 97.000000 1.000000 4.000000 1.000000 -60.708740 114.000000 37.000000 0.978905 0.190444 0.073994
13.65999985 -10.64999962 -0.68000001 244 204 31 97.000000 1.000000 4.000000 1.000000 -60.708740 114.000000 37.000000 0.990939 -0.046539 0.125996
13.68000031 -10.63000011 -0.69000000 244 204 31 97.000000 1.000000 4.000000 1.000000 -60.708740 114.000000 37.000000 0.975124 -0.100618 0.197509
13.67000008 -10.63000011 -0.68000001 244 204 31 97.000000 1.000000 4.000000 1.000000 -60.708740 114.000000 37.000000 0.983101 0.164450 -0.080425
13.68000031 -10.64000034 -0.69000000 244 204 31 97.000000 1.000000 4.000000 1.000000 -60.708740 114.000000 37.000000 0.982890 -0.141798 -0.117559
13.67000008 -10.68000031 -0.61000001 244 204 31 97.000000 1.000000 4.000000 1.000000 -60.708740 114.000000 37.000000 0.958055 -0.195875 0.209200
13.67000008 -10.67000008 -0.67000002 244 204 31 97.000000 1.000000 4.000000 1.000000 -60.708740 114.000000 37.000000 0.957097 -0.154883 -0.244900
13.65999985 -10.67000008 -0.67000002 244 204 31 97.000000 1.000000 4.000000 1.000000 -60.708740 114.000000 37.000000 0.907456 -0.401294 0.124443
13.67000008 -10.67000008 -0.66000003 244 204 31 97.000000 1.000000 4.000000 1.000000 -60.708740 114.000000 37.000000 0.937111 -0.346070 0.045365
13.65999985 -10.65999985 -0.68000001 244 204 31 97.000000 1.000000 4.000000 1.000000 -60.708740 114.000000 37.000000 0.984821 0.167455 0.045669
13.67000008 -10.65999985 -0.66000003 244 204 31 97.000000 1.000000 4.000000 1.000000 -60.708740 114.000000 37.000000 0.967933 -0.231545 -0.097426
13.67000008 -10.67000008 -0.68000001 244 204 31 97.000000 1.000000 4.000000 1.000000 -60.708740 114.000000 37.000000 0.977358 -0.182093 0.107769
13.60000038 -10.64000034 -0.61000001 244 204 31 97.000000 1.000000 4.000000 1.000000 -60.708740 114.000000 37.000000 0.985440 -0.086776 0.146211
13.60000038 -10.63000011 -0.62000000 244 204 31 97.000000 1.000000 4.000000 1.000000 -60.708740 114.000000 37.000000 0.918341 -0.269592 0.289775
13.60000038 -10.61999989 -0.66000003 244 204 31 97.000000 1.000000 4.000000 1.000000 -60.708740 114.000000 37.000000 0.887273 -0.195053 0.417972
13.60999966 -10.65999985 -0.62000000 244 204 31 97.000000 1.000000 4.000000 1.000000 -60.708740 114.000000 37.000000 0.896525 0.286947 0.337498
13.60999966 -10.68999958 -0.62000000 244 204 31 97.000000 1.000000 4.000000 1.000000 -60.708740 114.000000 37.000000 0.892731 0.413705 0.178546
13.60999966 -10.65999985 -0.63000000 244 204 31 97.000000 1.000000 4.000000 1.000000 -60.708740 114.000000 37.000000 0.962066 0.209259 -0.175041
13.61999989 -10.68000031 -0.63000000 244 204 31 97.000000 1.000000 4.000000 1.000000 -60.708740 114.000000 37.000000 0.995250 -0.094630 0.022842
13.60999966 -10.68000031 -0.64999998 244 204 31 97.000000 1.000000 4.000000 1.000000 -60.708740 114.000000 37.000000 0.952596 0.181896 0.243875
13.67000008 -10.69999981 -0.54000002 244 204 31 97.000000 1.000000 4.000000 1.000000 -60.708740 114.000000 37.000000 0.981370 0.128324 -0.142989
13.67000008 -10.69999981 -0.54000002 244 204 31 97.000000 1.000000 4.000000 1.000000 -60.708740 114.000000 37.000000 0.981370 0.128324 -0.142989
13.60999966 -10.71000004 -0.55000001 244 204 31 97.000000 1.000000 4.000000 1.000000 -60.708740 114.000000 37.000000 0.801649 0.547354 0.240340
13.61999989 -10.69999981 -0.54000002 244 204 31 97.000000 1.000000 4.000000 1.000000 -60.708740 114.000000 37.000000 0.914831 -0.049270 0.400821
13.61999989 -10.71000004 -0.58999997 244 204 31 97.000000 1.000000 4.000000 1.000000 -60.708740 114.000000 37.000000 0.918596 0.340379 -0.200809
13.61999989 -10.71000004 -0.58999997 244 204 31 97.000000 1.000000 4.000000 1.000000 -60.708740 114.000000 37.000000 0.918596 0.340379 -0.200809
13.67000008 -10.69999981 -0.61000001 244 204 31 97.000000 1.000000 4.000000 1.000000 -60.708740 114.000000 37.000000 0.943720 0.254873 0.210787
13.60999966 -10.72999954 -0.62000000 244 204 31 97.000000 1.000000 4.000000 1.000000 -60.708740 114.000000 37.000000 0.958934 0.189665 -0.210886
13.61999989 -10.71000004 -0.61000001 244 204 31 97.000000 1.000000 4.000000 1.000000 -60.708740 114.000000 37.000000 0.982062 0.123215 0.142734
13.60999966 -10.69999981 -0.62000000 244 204 31 97.000000 1.000000 4.000000 1.000000 -60.708740 114.000000 37.000000 0.914214 0.393373 0.097315
13.60999966 -10.69999981 -0.68000001 244 204 31 97.000000 1.000000 4.000000 1.000000 -60.708740 114.000000 37.000000 0.981970 0.176251 -0.068342
13.57999992 -10.64999962 -0.56999999 244 204 31 97.000000 1.000000 4.000000 1.000000 -60.708740 114.000000 37.000000 0.975939 -0.218041 0.001166
13.59000015 -10.68000031 -0.55000001 244 204 31 97.000000 1.000000 4.000000 1.000000 -60.708740 114.000000 37.000000 0.984327 0.145426 -0.099755
13.57999992 -10.64999962 -0.66000003 244 204 31 97.000000 1.000000 4.000000 1.000000 -60.708740 114.000000 37.000000 0.931207 -0.176776 0.318754
13.57999992 -10.61999989 -0.67000002 244 204 31 97.000000 1.000000 4.000000 1.000000 -60.708740 114.000000 37.000000 0.955200 -0.246460 -0.163863
13.59000015 -10.64999962 -0.69000000 244 204 31 97.000000 1.000000 4.000000 1.000000 -60.708740 114.000000 37.000000 0.964854 -0.212242 -0.154950
13.59000015 -10.64999962 -0.69000000 244 204 31 97.000000 1.000000 4.000000 1.000000 -60.708740 114.000000 37.000000 0.964854 -0.212242 -0.154950
13.59000015 -10.64000034 -0.68000001 244 204 31 97.000000 1.000000 4.000000 1.000000 -60.708740 114.000000 37.000000 0.953302 -0.227876 0.198211
13.57999992 -10.64999962 -0.67000002 244 204 31 97.000000 1.000000 4.000000 1.000000 -60.708740 114.000000 37.000000 0.961078 0.120948 0.248398
13.56999969 -10.67000008 -0.68000001 244 204 31 97.000000 1.000000 4.000000 1.000000 -60.708740 114.000000 37.000000 0.937603 -0.263309 0.227087
13.59000015 -10.67000008 -0.66000003 244 204 31 97.000000 1.000000 4.000000 1.000000 -60.708740 114.000000 37.000000 0.878722 -0.228259 0.419220
13.57999992 -10.65999985 -0.69000000 244 204 31 97.000000 1.000000 4.000000 1.000000 -60.708740 114.000000 37.000000 0.971692 -0.224618 -0.073218
13.57999992 -10.69999981 -0.68000001 244 204 31 97.000000 1.000000 4.000000 1.000000 -60.708740 114.000000 37.000000 0.915014 0.382997 0.126737
13.67000008 -10.60999966 -0.75999999 244 204 31 97.000000 1.000000 4.000000 1.000000 -60.708740 114.000000 37.000000 0.983367 -0.003426 -0.181597
13.65999985 -10.57999992 -0.76999998 244 204 31 97.000000 1.000000 4.000000 1.000000 -60.708740 114.000000 37.000000 0.806037 -0.591826 0.006866
13.60999966 -10.57999992 -0.70999998 244 204 31 97.000000 1.000000 4.000000 1.000000 -60.708740 114.000000 37.000000 0.930687 -0.343028 0.127098
13.60000038 -10.60000038 -0.72000003 244 204 31 97.000000 1.000000 4.000000 1.000000 -60.708740 114.000000 37.000000 -0.806100 0.559241 -0.193525
13.60000038 -10.60999966 -0.72000003 244 204 31 97.000000 1.000000 4.000000 1.000000 -60.708740 114.000000 37.000000 0.892519 -0.153783 0.423982
13.60000038 -10.60000038 -0.75999999 244 204 31 97.000000 1.000000 4.000000 1.000000 -60.708740 114.000000 37.000000 0.930058 -0.360581 -0.070519
13.61999989 -10.59000015 -0.75000000 244 204 31 97.000000 1.000000 4.000000 1.000000 -60.708740 114.000000 37.000000 0.899739 -0.321653 -0.294972
13.60000038 -10.60000038 -0.75000000 244 204 31 97.000000 1.000000 4.000000 1.000000 -60.708740 114.000000 37.000000 0.998340 0.007272 0.057137
13.60000038 -10.60000038 -0.75000000 244 204 31 97.000000 1.000000 4.000000 1.000000 -60.708740 114.000000 37.000000 0.998340 0.007272 0.057137
13.61999989 -10.59000015 -0.75000000 244 204 31 97.000000 1.000000 4.000000 1.000000 -60.708740 114.000000 37.000000 0.899739 -0.321653 -0.294972
13.61999989 -10.59000015 -0.75000000 244 204 31 97.000000 1.000000 4.000000 1.000000 -60.708740 114.000000 37.000000 0.899739 -0.321653 -0.294972
13.60000038 -10.60000038 -0.77999997 244 204 31 97.000000 1.000000 4.000000 1.000000 -60.708740 114.000000 37.000000 0.877417 -0.453937 0.155180
13.60000038 -10.59000015 -0.81000000 244 204 31 97.000000 1.000000 4.000000 1.000000 -60.708740 114.000000 37.000000 0.862460 -0.430470 -0.266192
13.60000038 -10.59000015 -0.80000001 244 204 31 97.000000 1.000000 4.000000 1.000000 -60.708740 114.000000 37.000000 0.884513 -0.367921 -0.286829
13.60000038 -10.60000038 -0.81000000 244 204 31 97.000000 1.000000 4.000000 1.000000 -60.708740 114.000000 37.000000 0.827194 -0.561162 0.029097
13.60000038 -10.60000038 -0.77999997 244 204 31 97.000000 1.000000 4.000000 1.000000 -60.708740 114.000000 37.000000 0.877417 -0.453937 0.155180
13.60000038 -10.60000038 -0.77999997 244 204 31 97.000000 1.000000 4.000000 1.000000 -60.708740 114.000000 37.000000 0.877417 -0.453937 0.155180
13.60000038 -10.60000038 -0.81000000 244 204 31 97.000000 1.000000 4.000000 1.000000 -60.708740 114.000000 37.000000 0.827194 -0.561162 0.029097
13.60000038 -10.57999992 -0.80000001 244 204 31 97.000000 1.000000 4.000000 1.000000 -60.708740 114.000000 37.000000 0.969369 -0.245605 0.001186
13.60000038 -10.59000015 -0.80000001 244 204 31 97.000000 1.000000 4.000000 1.000000 -60.708740 114.000000 37.000000 0.884513 -0.367921 -0.286829
13.60999966 -10.57999992 -0.85000002 244 204 31 97.000000 1.000000 4.000000 1.000000 -60.708740 114.000000 37.000000 0.950877 -0.278728 -0.134696
13.60000038 -10.59000015 -0.81999999 244 204 31 97.000000 1.000000 4.000000 1.000000 -60.708740 114.000000 37.000000 0.838185 -0.497435 0.223617
13.63000011 -10.57999992 -0.83999997 244 204 31 97.000000 1.000000 4.000000 1.000000 -60.708740 114.000000 37.000000 0.916969 -0.313358 -0.246932
13.60000038 -10.60999966 -0.82999998 244 204 31 97.000000 1.000000 4.000000 1.000000 -60.708740 114.000000 37.000000 0.882767 -0.401801 -0.243471
13.60999966 -10.57999992 -0.85000002 244 204 31 97.000000 1.000000 4.000000 1.000000 -60.708740 114.000000 37.000000 0.950877 -0.278728 -0.134696
13.60000038 -10.59000015 -0.81999999 244 204 31 97.000000 1.000000 4.000000 1.000000 -60.708740 114.000000 37.000000 0.838185 -0.497435 0.223617
13.57999992 -10.60999966 -0.73000002 244 204 31 97.000000 1.000000 4.000000 1.000000 -60.708740 114.000000 37.000000 0.989903 -0.065686 0.125610
13.57999992 -10.60000038 -0.73000002 244 204 31 97.000000 1.000000 4.000000 1.000000 -60.708740 114.000000 37.000000 0.970481 -0.182844 0.157272
13.57999992 -10.60000038 -0.73000002 244 204 31 97.000000 1.000000 4.000000 1.000000 -60.708740 114.000000 37.000000 0.970481 -0.182844 0.157272
13.57999992 -10.60000038 -0.75000000 244 204 31 97.000000 1.000000 4.000000 1.000000 -60.708740 114.000000 37.000000 0.890139 -0.447159 0.087760
13.57999992 -10.59000015 -0.79000002 244 204 31 97.000000 1.000000 4.000000 1.000000 -60.708740 114.000000 37.000000 0.890953 -0.058849 0.450266
13.56000042 -10.60999966 -0.79000002 244 204 31 97.000000 1.000000 4.000000 1.000000 -60.708740 114.000000 37.000000 0.828458 -0.394429 0.397597
13.60000038 -10.56999969 -0.89999998 244 204 31 97.000000 1.000000 4.000000 1.000000 -60.708740 114.000000 37.000000 0.869269 -0.351080 0.348014
13.63000011 -10.55000019 -0.88000000 244 204 31 97.000000 1.000000 4.000000 1.000000 -60.708740 114.000000 37.000000 -0.664627 0.746470 -0.032455
13.59000015 -10.56999969 -0.88999999 244 204 31 97.000000 1.000000 4.000000 1.000000 -60.708740 114.000000 37.000000 0.803234 -0.315273 0.505388
13.57999992 -10.56999969 -0.88000000 244 204 31 97.000000 1.000000 4.000000 1.000000 -60.708740 114.000000 37.000000 0.868478 -0.223494 0.442489
13.59000015 -10.56999969 -0.88000000 244 204 31 97.000000 1.000000 4.000000 1.000000 -60.708740 114.000000 37.000000 0.870022 -0.238918 0.431254
13.59000015 -10.59000015 -0.88999999 244 204 31 97.000000 1.000000 4.000000 1.000000 -60.708740 114.000000 37.000000 0.977534 -0.184137 0.102573
13.57999992 -10.60000038 -0.88999999 244 204 31 97.000000 1.000000 4.000000 1.000000 -60.708740 114.000000 37.000000 0.900720 -0.429239 -0.066770
13.57999992 -10.60999966 -0.89999998 244 204 31 97.000000 1.000000 4.000000 1.000000 -60.708740 114.000000 37.000000 0.986578 -0.117818 -0.113058
13.57999992 -10.60999966 -0.94000000 244 204 31 97.000000 1.000000 4.000000 1.000000 -60.708740 114.000000 37.000000 0.971985 0.101588 0.211955
13.57999992 -10.60000038 -0.92000002 244 204 31 97.000000 1.000000 4.000000 1.000000 -60.708740 114.000000 37.000000 0.884543 -0.465761 -0.025503
13.57999992 -10.60999966 -0.93000001 244 204 31 97.000000 1.000000 4.000000 1.000000 -60.708740 114.000000 37.000000 0.988177 -0.116325 0.099875
13.57999992 -10.60999966 -0.91000003 244 204 31 97.000000 1.000000 4.000000 1.000000 -60.708740 114.000000 37.000000 0.985629 -0.091770 0.141826
13.59000015 -10.60999966 -0.93000001 244 204 31 97.000000 1.000000 4.000000 1.000000 -60.708740 114.000000 37.000000 0.896743 -0.411784 0.162131
13.57999992 -10.60000038 -0.93000001 244 204 31 97.000000 1.000000 4.000000 1.000000 -60.708740 114.000000 37.000000 0.957099 -0.289697 0.006112
13.57999992 -10.60000038 -0.94000000 244 204 31 97.000000 1.000000 4.000000 1.000000 -60.708740 114.000000 37.000000 0.990745 0.098265 0.093641
13.57999992 -10.57999992 -0.94999999 244 204 31 97.000000 1.000000 4.000000 1.000000 -60.708740 114.000000 37.000000 0.881334 -0.331067 0.337114
13.59000015 -10.60999966 -0.94999999 244 204 31 97.000000 1.000000 4.000000 1.000000 -60.708740 114.000000 37.000000 0.943659 0.159319 0.290042
13.59000015 -10.60999966 -0.94999999 244 204 31 97.000000 1.000000 4.000000 1.000000 -60.708740 114.000000 37.000000 0.943659 0.159319 0.290042
13.68000031 -10.64999962 -0.70999998 244 204 31 97.000000 1.000000 4.000000 1.000000 -60.708740 114.000000 37.000000 0.970858 0.136149 0.197225
13.65999985 -10.64999962 -0.69999999 244 204 31 97.000000 1.000000 4.000000 1.000000 -60.708740 114.000000 37.000000 0.986277 -0.110644 -0.122541
13.68000031 -10.64999962 -0.70999998 244 204 31 97.000000 1.000000 4.000000 1.000000 -60.708740 114.000000 37.000000 0.970858 0.136149 0.197225
13.68000031 -10.64999962 -0.73000002 244 204 31 97.000000 1.000000 4.000000 1.000000 -60.708740 114.000000 37.000000 0.978597 0.188895 -0.081651
13.65999985 -10.64000034 -0.72000003 244 204 31 97.000000 1.000000 4.000000 1.000000 -60.708740 114.000000 37.000000 0.993263 0.023150 -0.113547
13.65999985 -10.64999962 -0.73000002 244 204 31 97.000000 1.000000 4.000000 1.000000 -60.708740 114.000000 37.000000 0.905361 -0.424592 -0.006532
13.65999985 -10.64999962 -0.72000003 244 204 31 97.000000 1.000000 4.000000 1.000000 -60.708740 114.000000 37.000000 0.981965 0.001146 0.189060
13.65999985 -10.64999962 -0.70999998 244 204 31 97.000000 1.000000 4.000000 1.000000 -60.708740 114.000000 37.000000 0.938193 -0.186533 -0.291545
13.65999985 -10.64999962 -0.72000003 244 204 31 97.000000 1.000000 4.000000 1.000000 -60.708740 114.000000 37.000000 0.981965 0.001146 0.189060
13.67000008 -10.61999989 -0.75999999 244 204 31 97.000000 1.000000 4.000000 1.000000 -60.708740 114.000000 37.000000 0.991711 -0.120720 -0.044001
13.64999962 -10.64999962 -0.75999999 244 204 31 97.000000 1.000000 4.000000 1.000000 -60.708740 114.000000 37.000000 0.993482 -0.036713 -0.107915
13.68000031 -10.65999985 -0.69999999 244 204 31 97.000000 1.000000 4.000000 1.000000 -60.708740 114.000000 37.000000 0.943146 0.026657 0.331307
13.65999985 -10.67000008 -0.70999998 244 204 31 97.000000 1.000000 4.000000 1.000000 -60.708740 114.000000 37.000000 0.900239 -0.431844 0.055503
13.65999985 -10.65999985 -0.76999998 244 204 31 97.000000 1.000000 4.000000 1.000000 -60.708740 114.000000 37.000000 0.971228 0.047645 -0.233339
13.65999985 -10.67000008 -0.75000000 244 204 31 97.000000 1.000000 4.000000 1.000000 -60.708740 114.000000 37.000000 0.939642 -0.297668 0.168724
13.61999989 -10.63000011 -0.75000000 244 204 31 97.000000 1.000000 4.000000 1.000000 -60.708740 114.000000 37.000000 0.899865 -0.189827 0.392695
13.61999989 -10.61999989 -0.75999999 244 204 31 97.000000 1.000000 4.000000 1.000000 -60.708740 114.000000 37.000000 0.998016 0.058086 -0.024290
13.61999989 -10.63000011 -0.75000000 244 204 31 97.000000 1.000000 4.000000 1.000000 -60.708740 114.000000 37.000000 0.899865 -0.189827 0.392695
13.63000011 -10.68000031 -0.75000000 244 204 31 97.000000 1.000000 4.000000 1.000000 -60.708740 114.000000 37.000000 0.943946 0.144910 0.296591
13.63000011 -10.68999958 -0.75000000 244 204 31 97.000000 1.000000 4.000000 1.000000 -60.708740 114.000000 37.000000 0.924836 -0.102154 0.366393
13.65999985 -10.64999962 -0.81000000 244 204 31 97.000000 1.000000 4.000000 1.000000 -60.708740 114.000000 37.000000 0.992409 0.078618 -0.094569
13.65999985 -10.64000034 -0.81000000 244 204 31 97.000000 1.000000 4.000000 1.000000 -60.708740 114.000000 37.000000 0.983861 0.097305 -0.150162
13.65999985 -10.63000011 -0.81000000 244 204 31 97.000000 1.000000 4.000000 1.000000 -60.708740 114.000000 37.000000 0.946828 -0.321446 0.013758
13.65999985 -10.64000034 -0.80000001 244 204 31 97.000000 1.000000 4.000000 1.000000 -60.708740 114.000000 37.000000 0.952522 0.139881 0.270436
13.65999985 -10.64000034 -0.81000000 244 204 31 97.000000 1.000000 4.000000 1.000000 -60.708740 114.000000 37.000000 0.983861 0.097305 -0.150162
13.65999985 -10.64000034 -0.81000000 244 204 31 97.000000 1.000000 4.000000 1.000000 -60.708740 114.000000 37.000000 0.983861 0.097305 -0.150162
13.67000008 -10.64999962 -0.85000002 244 204 31 97.000000 1.000000 4.000000 1.000000 -60.708740 114.000000 37.000000 0.994937 0.074315 0.067660
13.65999985 -10.64000034 -0.81999999 244 204 31 97.000000 1.000000 4.000000 1.000000 -60.708740 114.000000 37.000000 0.975983 0.084922 0.200612
13.65999985 -10.63000011 -0.85000002 244 204 31 97.000000 1.000000 4.000000 1.000000 -60.708740 114.000000 37.000000 0.953794 -0.125326 -0.273078
13.65999985 -10.65999985 -0.81000000 244 204 31 97.000000 1.000000 4.000000 1.000000 -60.708740 114.000000 37.000000 0.882420 -0.436105 0.176484
13.67000008 -10.67000008 -0.77999997 244 204 31 97.000000 1.000000 4.000000 1.000000 -60.708740 114.000000 37.000000 0.946096 -0.296578 0.130172
13.64999962 -10.67000008 -0.82999998 244 204 31 97.000000 1.000000 4.000000 1.000000 -60.708740 114.000000 37.000000 0.939777 -0.330049 -0.088808
13.64999962 -10.67000008 -0.83999997 244 204 31 97.000000 1.000000 4.000000 1.000000 -60.708740 114.000000 37.000000 0.902009 -0.353470 0.247869
13.68000031 -10.68000031 -0.83999997 244 204 31 97.000000 1.000000 4.000000 1.000000 -60.708740 114.000000 37.000000 0.942031 0.332101 0.047812
13.64999962 -10.67000008 -0.83999997 244 204 31 97.000000 1.000000 4.000000 1.000000 -60.708740 114.000000 37.000000 0.902009 -0.353470 0.247869
13.60000038 -10.64999962 -0.83999997 244 204 31 97.000000 1.000000 4.000000 1.000000 -60.708740 114.000000 37.000000 0.909947 0.052265 0.411419
13.64000034 -10.67000008 -0.77999997 244 204 31 97.000000 1.000000 4.000000 1.000000 -60.708740 114.000000 37.000000 0.999714 -0.011097 -0.021185
13.64000034 -10.67000008 -0.77999997 244 204 31 97.000000 1.000000 4.000000 1.000000 -60.708740 114.000000 37.000000 0.999714 -0.011097 -0.021185
13.60000038 -10.68999958 -0.81000000 244 204 31 97.000000 1.000000 4.000000 1.000000 -60.708740 114.000000 37.000000 0.916067 0.351895 0.192331
13.64000034 -10.67000008 -0.81000000 244 204 31 97.000000 1.000000 4.000000 1.000000 -60.708740 114.000000 37.000000 0.930836 -0.328775 0.159532
13.60999966 -10.68999958 -0.81999999 244 204 31 97.000000 1.000000 4.000000 1.000000 -60.708740 114.000000 37.000000 0.870364 0.077085 0.486338
13.60000038 -10.65999985 -0.82999998 244 204 31 97.000000 1.000000 4.000000 1.000000 -60.708740 114.000000 37.000000 0.894805 0.084363 0.438413
13.60999966 -10.69999981 -0.81000000 244 204 31 97.000000 1.000000 4.000000 1.000000 -60.708740 114.000000 37.000000 0.948972 0.200142 -0.243710
13.64999962 -10.69999981 -0.81000000 244 204 31 97.000000 1.000000 4.000000 1.000000 -60.708740 114.000000 37.000000 0.969750 -0.232790 -0.073447
13.60999966 -10.69999981 -0.81999999 244 204 31 97.000000 1.000000 4.000000 1.000000 -60.708740 114.000000 37.000000 0.993140 0.104364 0.052743
13.59000015 -10.64000034 -0.69999999 244 204 31 97.000000 1.000000 4.000000 1.000000 -60.708740 114.000000 37.000000 0.906833 -0.409938 -0.097999
13.59000015 -10.64999962 -0.72000003 244 204 31 97.000000 1.000000 4.000000 1.000000 -60.708740 114.000000 37.000000 0.895697 0.122718 0.427396
13.56999969 -10.63000011 -0.72000003 244 204 31 97.000000 1.000000 4.000000 1.000000 -60.708740 114.000000 37.000000 0.916386 -0.386064 -0.105790
13.59000015 -10.64000034 -0.69999999 244 204 31 97.000000 1.000000 4.000000 1.000000 -60.708740 114.000000 37.000000 0.906833 -0.409938 -0.097999
13.57999992 -10.61999989 -0.73000002 244 204 31 97.000000 1.000000 4.000000 1.000000 -60.708740 114.000000 37.000000 0.879955 -0.070674 0.469771
13.57999992 -10.61999989 -0.72000003 244 204 31 97.000000 1.000000 4.000000 1.000000 -60.708740 114.000000 37.000000 0.997353 0.072516 0.005255
13.57999992 -10.64000034 -0.75000000 244 204 31 97.000000 1.000000 4.000000 1.000000 -60.708740 114.000000 37.000000 0.955820 -0.202425 -0.213149
13.56999969 -10.64999962 -0.75999999 244 204 31 97.000000 1.000000 4.000000 1.000000 -60.708740 114.000000 37.000000 0.997696 0.067764 -0.003128
13.56999969 -10.64000034 -0.75000000 244 204 31 97.000000 1.000000 4.000000 1.000000 -60.708740 114.000000 37.000000 0.976089 -0.178721 -0.123730
13.56999969 -10.65999985 -0.73000002 244 204 31 97.000000 1.000000 4.000000 1.000000 -60.708740 114.000000 37.000000 0.962760 0.233199 -0.136793
13.56999969 -10.67000008 -0.69999999 244 204 31 97.000000 1.000000 4.000000 1.000000 -60.708740 114.000000 37.000000 0.942399 -0.328865 -0.061093
13.56999969 -10.68000031 -0.69999999 244 204 31 97.000000 1.000000 4.000000 1.000000 -60.708740 114.000000 37.000000 0.999536 0.027454 -0.013219
13.59000015 -10.65999985 -0.73000002 244 204 31 97.000000 1.000000 4.000000 1.000000 -60.708740 114.000000 37.000000 0.997913 -0.062041 0.017876
13.56999969 -10.67000008 -0.73000002 244 204 31 97.000000 1.000000 4.000000 1.000000 -60.708740 114.000000 37.000000 0.974910 0.131745 -0.179424
13.56999969 -10.67000008 -0.74000001 244 204 31 97.000000 1.000000 4.000000 1.000000 -60.708740 114.000000 37.000000 0.998922 -0.038460 -0.025987
13.57999992 -10.68000031 -0.76999998 244 204 31 97.000000 1.000000 4.000000 1.000000 -60.708740 114.000000 37.000000 0.955242 -0.039015 0.293243
13.57999992 -10.64000034 -0.80000001 244 204 31 97.000000 1.000000 4.000000 1.000000 -60.708740 114.000000 37.000000 0.931800 -0.249514 0.263611
13.57999992 -10.64999962 -0.80000001 244 204 31 97.000000 1.000000 4.000000 1.000000 -60.708740 114.000000 37.000000 0.963340 0.265877 0.035862
13.57999992 -10.64000034 -0.79000002 244 204 31 97.000000 1.000000 4.000000 1.000000 -60.708740 114.000000 37.000000 0.930911 -0.092688 0.353289
13.56999969 -10.64000034 -0.83999997 244 204 31 97.000000 1.000000 4.000000 1.000000 -60.708740 114.000000 37.000000 0.883424 -0.464452 -0.062019
13.56999969 -10.63000011 -0.85000002 244 204 31 97.000000 1.000000 4.000000 1.000000 -60.708740 114.000000 37.000000 0.994492 -0.025163 0.101747
13.56999969 -10.64000034 -0.83999997 244 204 31 97.000000 1.000000 4.000000 1.000000 -60.708740 114.000000 37.000000 0.883424 -0.464452 -0.062019
13.59000015 -10.61999989 -0.85000002 244 204 31 97.000000 1.000000 4.000000 1.000000 -60.708740 114.000000 37.000000 0.975648 -0.208806 -0.067160
13.59000015 -10.63000011 -0.81999999 244 204 31 97.000000 1.000000 4.000000 1.000000 -60.708740 114.000000 37.000000 0.993094 -0.057359 0.102346
13.59000015 -10.63000011 -0.82999998 244 204 31 97.000000 1.000000 4.000000 1.000000 -60.708740 114.000000 37.000000 0.863933 -0.140843 0.483512
13.56000042 -10.67000008 -0.79000002 244 204 31 97.000000 1.000000 4.000000 1.000000 -60.708740 114.000000 37.000000 0.962956 0.237175 -0.128308
13.59000015 -10.65999985 -0.79000002 244 204 31 97.000000 1.000000 4.000000 1.000000 -60.708740 114.000000 37.000000 0.948351 0.316117 -0.026448
13.59000015 -10.65999985 -0.79000002 244 204 31 97.000000 1.000000 4.000000 1.000000 -60.708740 114.000000 37.000000 0.948351 0.316117 -0.026448
13.65999985 -10.63000011 -0.88000000 244 204 31 97.000000 1.000000 4.000000 1.000000 -60.708740 114.000000 37.000000 0.968070 -0.241081 -0.068702
13.67000008 -10.64999962 -0.89999998 244 204 31 97.000000 1.000000 4.000000 1.000000 -60.708740 114.000000 37.000000 0.994304 0.090189 -0.056786
13.65999985 -10.64000034 -0.88000000 244 204 31 97.000000 1.000000 4.000000 1.000000 -60.708740 114.000000 37.000000 0.992142 -0.021109 -0.123323
13.67000008 -10.61999989 -0.88000000 244 204 31 97.000000 1.000000 4.000000 1.000000 -60.708740 114.000000 37.000000 0.812307 -0.580623 0.055096
13.65999985 -10.64000034 -0.88999999 244 204 31 97.000000 1.000000 4.000000 1.000000 -60.708740 114.000000 37.000000 0.963184 0.139083 0.230072
13.64999962 -10.61999989 -0.93000001 244 204 31 97.000000 1.000000 4.000000 1.000000 -60.708740 114.000000 37.000000 0.971116 -0.204379 0.123135
13.65999985 -10.64999962 -0.94000000 244 204 31 97.000000 1.000000 4.000000 1.000000 -60.708740 114.000000 37.000000 0.825280 -0.232062 0.514840
13.64999962 -10.63000011 -0.91000003 244 204 31 97.000000 1.000000 4.000000 1.000000 -60.708740 114.000000 37.000000 0.988760 0.146778 -0.028445
13.64999962 -10.64000034 -0.93000001 244 204 31 97.000000 1.000000 4.000000 1.000000 -60.708740 114.000000 37.000000 0.976139 0.198683 0.087618
