//X Y Z R G B PointSourceId ScanDirectionFlag NumberOfReturns ReturnNumber GpsTime Intensity Classification Nx Ny Nz
9.52000046 -9.28999996 -0.64999998 42 204 132 0.000000 0.000000 0.000000 0.000000 -60.708740 0.000000 240.000000 0.275692 0.734648 -0.619909
9.51000023 -9.28999996 -0.64999998 42 204 132 0.000000 0.000000 0.000000 0.000000 -60.708740 0.000000 240.000000 0.060563 0.838029 -0.542254
9.51000023 -9.28999996 -0.64999998 42 204 132 0.000000 0.000000 0.000000 0.000000 -60.708740 0.000000 240.000000 0.060563 0.838029 -0.542254
9.56000042 -9.39000034 -0.58999997 42 204 132 0.000000 0.000000 0.000000 0.000000 -60.708740 0.000000 240.000000 0.215212 0.976184 -0.027347
9.56999969 -9.38000011 -0.61000001 42 204 132 0.000000 0.000000 0.000000 0.000000 -60.708740 0.000000 240.000000 -0.307473 0.880009 -0.362000
9.56999969 -9.40999985 -0.63999999 42 204 132 0.000000 0.000000 0.000000 0.000000 -60.708740 0.000000 240.000000 0.265874 0.892683 -0.363906
9.55000019 -9.39999962 -0.69000000 42 204 132 0.000000 0.000000 0.000000 0.000000 -60.708740 0.000000 240.000000 0.132157 0.990610 -0.035016
9.51000023 -9.36999989 -0.69000000 42 204 132 0.000000 0.000000 0.000000 0.000000 -60.708740 0.000000 240.000000 0.310605 0.729036 -0.609944
9.46000004 -9.10999966 -0.36000001 42 204 132 0.000000 0.000000 0.000000 0.000000 -60.708740 0.000000 240.000000 -0.075124 0.974147 -0.213056
9.46000004 -9.11999989 -0.37000000 42 204 132 0.000000 0.000000 0.000000 0.000000 -60.708740 0.000000 240.000000 0.004086 0.821204 -0.570621
9.44999981 -9.10999966 -0.36000001 42 204 132 0.000000 0.000000 0.000000 0.000000 -60.708740 0.000000 240.000000 -0.106992 0.904569 -0.412684
9.46000004 -9.10999966 -0.37000000 42 204 132 0.000000 0.000000 0.000000 0.000000 -60.708740 0.000000 240.000000 0.137117 0.979587 -0.147000
9.46000004 -9.10999966 -0.37000000 42 204 132 0.000000 0.000000 0.000000 0.000000 -60.708740 0.000000 240.000000 0.137117 0.979587 -0.147000
9.44999981 -9.10999966 -0.38000000 42 204 132 0.000000 0.000000 0.000000 0.000000 -60.708740 0.000000 240.000000 0.229011 0.925999 -0.300132
9.42000008 -9.11999989 -0.38999999 42 204 132 0.000000 0.000000 0.000000 0.000000 -60.708740 0.000000 240.000000 0.114244 0.988154 0.102467
9.42000008 -9.11999989 -0.40000001 42 204 132 0.000000 0.000000 0.000000 0.000000 -60.708740 0.000000 240.000000 0.333243 0.819682 -0.465908
9.43999958 -9.10999966 -0.41999999 42 204 132 0.000000 0.000000 0.000000 0.000000 -60.708740 0.000000 240.000000 0.003098 0.998497 0.054726
9.40999985 -9.17000008 -0.38000000 42 204 132 0.000000 0.000000 0.000000 0.000000 -60.708740 0.000000 240.000000 0.068271 0.868012 -0.491827
9.42000008 -9.18000031 -0.40000001 42 204 132 0.000000 0.000000 0.000000 0.000000 -60.708740 0.000000 240.000000 0.328198 0.732382 -0.596576
9.46000004 -9.14000034 -0.46000001 42 204 132 0.000000 0.000000 0.000000 0.000000 -60.708740 0.000000 240.000000 0.271976 0.960139 0.064515
9.44999981 -9.10999966 -0.49000001 42 204 132 0.000000 0.000000 0.000000 0.000000 -60.708740 0.000000 240.000000 0.474733 0.874360 0.100615
9.44999981 -9.10999966 -0.49000001 42 204 132 0.000000 0.000000 0.000000 0.000000 -60.708740 0.000000 240.000000 0.474733 0.874360 0.100615
9.43999958 -9.10999966 -0.44000000 42 204 132 0.000000 0.000000 0.000000 0.000000 -60.708740 0.000000 240.000000 0.619057 0.785247 0.012464
9.43999958 -9.15999985 -0.51999998 42 204 132 0.000000 0.000000 0.000000 0.000000 -60.708740 0.000000 240.000000 0.732088 0.644675 -0.220095
9.46000004 -9.22000027 -0.37000000 42 204 132 0.000000 0.000000 0.000000 0.000000 -60.708740 0.000000 240.000000 0.103063 0.879562 -0.464488
9.47000027 -9.22999954 -0.37000000 42 204 132 0.000000 0.000000 0.000000 0.000000 -60.708740 0.000000 240.000000 0.027180 0.999618 -0.005033
9.46000004 -9.22999954 -0.37000000 42 204 132 0.000000 0.000000 0.000000 0.000000 -60.708740 0.000000 240.000000 -0.367526 0.910950 -0.187338
9.47000027 -9.22999954 -0.43000001 42 204 132 0.000000 0.000000 0.000000 0.000000 -60.708740 0.000000 240.000000 0.057129 0.993599 -0.097456
9.42000008 -9.21000004 -0.38999999 42 204 132 0.000000 0.000000 0.000000 0.000000 -60.708740 0.000000 240.000000 0.001211 0.960094 -0.279674
9.40999985 -9.22999954 -0.37000000 42 204 132 0.000000 0.000000 0.000000 0.000000 -60.708740 0.000000 240.000000 -0.050463 0.997450 0.050463
9.43000031 -9.26000023 -0.36000001 42 204 132 0.000000 0.000000 0.000000 0.000000 -60.708740 0.000000 240.000000 0.377564 0.912092 -0.159793
9.42000008 -9.26000023 -0.36000001 42 204 132 0.000000 0.000000 0.000000 0.000000 -60.708740 0.000000 240.000000 0.382285 0.921509 -0.068409
9.42000008 -9.25000000 -0.41000000 42 204 132 0.000000 0.000000 0.000000 0.000000 -60.708740 0.000000 240.000000 0.350971 0.936344 -0.008869
9.43999958 -9.26000023 -0.40000001 42 204 132 0.000000 0.000000 0.000000 0.000000 -60.708740 0.000000 240.000000 0.001055 0.996696 0.081212
9.42000008 -9.25000000 -0.41000000 42 204 132 0.000000 0.000000 0.000000 0.000000 -60.708740 0.000000 240.000000 0.350971 0.936344 -0.008869
9.46000004 -9.22999954 -0.46000001 42 204 132 0.000000 0.000000 0.000000 0.000000 -60.708740 0.000000 240.000000 -0.122527 0.992361 -0.014350
9.47000027 -9.22999954 -0.44999999 42 204 132 0.000000 0.000000 0.000000 0.000000 -60.708740 0.000000 240.000000 0.132368 0.991095 -0.014460
9.44999981 -9.26000023 -0.47999999 42 204 132 0.000000 0.000000 0.000000 0.000000 -60.708740 0.000000 240.000000 0.200660 0.970069 0.136755
9.44999981 -9.26000023 -0.50000000 42 204 132 0.000000 0.000000 0.000000 0.000000 -60.708740 0.000000 240.000000 0.335142 0.941712 0.029309
9.43000031 -9.21000004 -0.46000001 42 204 132 0.000000 0.000000 0.000000 0.000000 -60.708740 0.000000 240.000000 0.540737 0.725943 -0.424983
9.43999958 -9.25000000 -0.44000000 42 204 132 0.000000 0.000000 0.000000 0.000000 -60.708740 0.000000 240.000000 0.242765 0.886168 -0.394680
9.43000031 -9.25000000 -0.44000000 42 204 132 0.000000 0.000000 0.000000 0.000000 -60.708740 0.000000 240.000000 0.116596 0.988121 -0.100108
9.43000031 -9.25000000 -0.47000000 42 204 132 0.000000 0.000000 0.000000 0.000000 -60.708740 0.000000 240.000000 0.334571 0.896652 -0.289962
9.43000031 -9.25000000 -0.44000000 42 204 132 0.000000 0.000000 0.000000 0.000000 -60.708740 0.000000 240.000000 0.116596 0.988121 -0.100108
9.43000031 -9.22999954 -0.51999998 42 204 132 0.000000 0.000000 0.000000 0.000000 -60.708740 0.000000 240.000000 0.477631 0.877254 0.047900
9.39999962 -9.15999985 -0.38000000 42 204 132 0.000000 0.000000 0.000000 0.000000 -60.708740 0.000000 240.000000 0.258425 0.824794 -0.502923
9.38000011 -9.22000027 -0.38000000 42 204 132 0.000000 0.000000 0.000000 0.000000 -60.708740 0.000000 240.000000 0.673271 0.727252 -0.133455
9.38000011 -9.19999981 -0.43000001 42 204 132 0.000000 0.000000 0.000000 0.000000 -60.708740 0.000000 240.000000 0.386080 0.891978 -0.235198
9.39000034 -9.19999981 -0.41000000 42 204 132 0.000000 0.000000 0.000000 0.000000 -60.708740 0.000000 240.000000 0.605280 0.787894 -0.113398
9.39000034 -9.22999954 -0.36000001 42 204 132 0.000000 0.000000 0.000000 0.000000 -60.708740 0.000000 240.000000 0.308112 0.949905 -0.052417
9.39999962 -9.22999954 -0.36000001 42 204 132 0.000000 0.000000 0.000000 0.000000 -60.708740 0.000000 240.000000 0.175077 0.983488 0.045826
9.39999962 -9.26000023 -0.37000000 42 204 132 0.000000 0.000000 0.000000 0.000000 -60.708740 0.000000 240.000000 0.010708 0.972083 -0.234394
9.35999966 -9.19999981 -0.36000001 42 204 132 0.000000 0.000000 0.000000 0.000000 -60.708740 0.000000 240.000000 0.506543 0.835112 0.214482
9.38000011 -9.18999958 -0.46000001 42 204 132 0.000000 0.000000 0.000000 0.000000 -60.708740 0.000000 240.000000 0.213591 0.976917 0.003501
9.38000011 -9.21000004 -0.47999999 42 204 132 0.000000 0.000000 0.000000 0.000000 -60.708740 0.000000 240.000000 0.369249 0.909472 -0.191090
9.39000034 -9.19999981 -0.47000000 42 204 132 0.000000 0.000000 0.000000 0.000000 -60.708740 0.000000 240.000000 0.456167 0.889726 0.017289
9.39000034 -9.18999958 -0.47000000 42 204 132 0.000000 0.000000 0.000000 0.000000 -60.708740 0.000000 240.000000 0.282898 0.939773 0.191819
9.39000034 -9.21000004 -0.46000001 42 204 132 0.000000 0.000000 0.000000 0.000000 -60.708740 0.000000 240.000000 0.262840 0.964560 0.023228
9.39000034 -9.21000004 -0.47000000 42 204 132 0.000000 0.000000 0.000000 0.000000 -60.708740 0.000000 240.000000 0.222283 0.974442 -0.032441
9.44999981 -9.11999989 -0.56999999 42 204 132 0.000000 0.000000 0.000000 0.000000 -60.708740 0.000000 240.000000 0.515917 0.803064 0.298191
9.47000027 -9.25000000 -0.60000002 42 204 132 0.000000 0.000000 0.000000 0.000000 -60.708740 0.000000 240.000000 0.289546 0.740662 -0.606287
9.47000027 -9.25000000 -0.60000002 42 204 132 0.000000 0.000000 0.000000 0.000000 -60.708740 0.000000 240.000000 0.289546 0.740662 -0.606287
9.47999954 -9.23999977 -0.58999997 42 204 132 0.000000 0.000000 0.000000 0.000000 -60.708740 0.000000 240.000000 0.395494 0.824342 -0.405024
9.47999954 -9.23999977 -0.57999998 42 204 132 0.000000 0.000000 0.000000 0.000000 -60.708740 0.000000 240.000000 0.282658 0.922584 -0.262571
9.47999954 -9.30000019 -0.50000000 42 204 132 0.000000 0.000000 0.000000 0.000000 -60.708740 0.000000 240.000000 0.086632 0.986180 -0.141222
9.47000027 -9.30000019 -0.49000001 42 204 132 0.000000 0.000000 0.000000 0.000000 -60.708740 0.000000 240.000000 0.008721 0.948148 -0.317710
9.47999954 -9.30000019 -0.50999999 42 204 132 0.000000 0.000000 0.000000 0.000000 -60.708740 0.000000 240.000000 0.090985 0.922075 -0.376163
9.47999954 -9.31000042 -0.51999998 42 204 132 0.000000 0.000000 0.000000 0.000000 -60.708740 0.000000 240.000000 0.001349 0.846097 -0.533028
9.47999954 -9.27000046 -0.41999999 42 204 132 0.000000 0.000000 0.000000 0.000000 -60.708740 0.000000 240.000000 0.220700 0.972806 -0.070279
8.98999977 -9.10999966 -0.34000000 42 204 132 0.000000 0.000000 0.000000 0.000000 -60.708740 0.000000 235.000000 0.831098 0.458591 0.314596
9.00000000 -9.18999958 -0.20999999 42 204 132 0.000000 0.000000 0.000000 0.000000 -60.708740 0.000000 235.000000 0.779116 0.594710 0.198237
9.00000000 -9.22999954 -0.20000000 42 204 132 0.000000 0.000000 0.000000 0.000000 -60.708740 0.000000 235.000000 0.879983 0.372823 0.294334
9.00000000 -9.25000000 -0.19000000 42 204 132 0.000000 0.000000 0.000000 0.000000 -60.708740 0.000000 235.000000 0.926797 0.360648 0.104792
9.00000000 -9.26000023 -0.20000000 42 204 132 0.000000 0.000000 0.000000 0.000000 -60.708740 0.000000 235.000000 0.847923 0.521909 0.092943
9.02000046 -9.25000000 -0.25999999 42 204 132 0.000000 0.000000 0.000000 0.000000 -60.708740 0.000000 235.000000 0.658956 0.721269 -0.213421
9.01000023 -9.22999954 -0.23000000 42 204 132 0.000000 0.000000 0.000000 0.000000 -60.708740 0.000000 235.000000 0.747362 0.660961 -0.067680
9.02000046 -9.25000000 -0.25999999 42 204 132 0.000000 0.000000 0.000000 0.000000 -60.708740 0.000000 235.000000 0.658956 0.721269 -0.213421
9.02000046 -9.25000000 -0.23999999 42 204 132 0.000000 0.000000 0.000000 0.000000 -60.708740 0.000000 235.000000 0.795008 0.571364 0.203730
8.98999977 -9.22999954 -0.28000000 42 204 132 0.000000 0.000000 0.000000 0.000000 -60.708740 0.000000 235.000000 0.956563 0.273860 0.099939
8.98999977 -9.28999996 -0.09000000 42 204 132 0.000000 0.000000 0.000000 0.000000 -60.708740 0.000000 235.000000 0.794882 0.603653 0.061364
9.01000023 -9.34000015 -0.10000000 42 204 132 0.000000 0.000000 0.000000 0.000000 -60.708740 0.000000 235.000000 0.765053 0.606766 0.215705
9.02999973 -9.31000042 -0.16000000 42 204 132 0.000000 0.000000 0.000000 0.000000 -60.708740 0.000000 235.000000 0.760771 0.615715 0.205238
8.98999977 -9.31000042 -0.11000000 42 204 132 0.000000 0.000000 0.000000 0.000000 -60.708740 0.000000 235.000000 0.890316 0.455109 -0.014595
9.02000046 -9.27999973 -0.20999999 42 204 132 0.000000 0.000000 0.000000 0.000000 -60.708740 0.000000 235.000000 0.742223 0.670082 -0.009711
8.98999977 -9.18000031 -0.44999999 42 204 132 0.000000 0.000000 0.000000 0.000000 -60.708740 0.000000 235.000000 0.832966 0.515502 -0.201061
9.00000000 -9.22000027 -0.41999999 42 204 132 0.000000 0.000000 0.000000 0.000000 -60.708740 0.000000 235.000000 0.779986 0.387561 0.491343
8.98999977 -9.23999977 -0.44999999 42 204 132 0.000000 0.000000 0.000000 0.000000 -60.708740 0.000000 235.000000 0.932086 0.168081 0.320882
8.98999977 -9.18000031 -0.58999997 42 204 132 0.000000 0.000000 0.000000 0.000000 -60.708740 0.000000 235.000000 0.817343 0.569401 0.087933
9.01000023 -9.14000034 -0.66000003 42 204 132 0.000000 0.000000 0.000000 0.000000 -60.708740 0.000000 235.000000 0.914950 0.100137 0.390946
9.01000023 -9.17000008 -0.68000001 42 204 132 0.000000 0.000000 0.000000 0.000000 -60.708740 0.000000 235.000000 0.967430 0.230098 -0.105515
9.00000000 -9.18999958 -0.57999998 42 204 132 0.000000 0.000000 0.000000 0.000000 -60.708740 0.000000 235.000000 0.734997 0.578545 0.353646
9.57999992 -9.22000027 -0.73000002 42 204 132 0.000000 0.000000 0.000000 0.000000 -60.708740 0.000000 240.000000 -0.104920 0.969564 -0.221217
9.59000015 -9.21000004 -0.72000003 42 204 132 0.000000 0.000000 0.000000 0.000000 -60.708740 0.000000 240.000000 -0.195839 0.815237 -0.545010
9.59000015 -9.22000027 -0.74000001 42 204 132 0.000000 0.000000 0.000000 0.000000 -60.708740 0.000000 240.000000 -0.091387 0.917958 -0.386006
9.57999992 -9.22000027 -0.74000001 42 204 132 0.000000 0.000000 0.000000 0.000000 -60.708740 0.000000 240.000000 0.158318 0.920487 -0.357267
9.59000015 -9.23999977 -0.72000003 42 204 132 0.000000 0.000000 0.000000 0.000000 -60.708740 0.000000 240.000000 -0.193156 0.851985 -0.486634
9.59000015 -9.22999954 -0.74000001 42 204 132 0.000000 0.000000 0.000000 0.000000 -60.708740 0.000000 240.000000 -0.145782 0.989311 -0.003339
9.60999966 -9.22999954 -0.75000000 42 204 132 0.000000 0.000000 0.000000 0.000000 -60.708740 0.000000 240.000000 -0.085048 0.811564 -0.578041
9.60000038 -9.18999958 -0.79000002 42 204 132 0.000000 0.000000 0.000000 0.000000 -60.708740 0.000000 240.000000 -0.548751 0.822382 -0.150200
9.60000038 -9.18999958 -0.79000002 42 204 132 0.000000 0.000000 0.000000 0.000000 -60.708740 0.000000 240.000000 -0.548751 0.822382 -0.150200
9.57999992 -9.25000000 -0.81000000 42 204 132 0.000000 0.000000 0.000000 0.000000 -60.708740 0.000000 240.000000 -0.194626 0.940003 -0.280206
9.52000046 -9.18000031 -0.70999998 42 204 132 0.000000 0.000000 0.000000 0.000000 -60.708740 0.000000 240.000000 0.150465 0.988610 -0.003344
9.53999996 -9.18000031 -0.70999998 42 204 132 0.000000 0.000000 0.000000 0.000000 -60.708740 0.000000 240.000000 0.268379 0.798859 -0.538328
9.55000019 -9.21000004 -0.72000003 42 204 132 0.000000 0.000000 0.000000 0.000000 -60.708740 0.000000 240.000000 -0.009277 0.889296 -0.457238
9.56000042 -9.19999981 -0.70999998 42 204 132 0.000000 0.000000 0.000000 0.000000 -60.708740 0.000000 240.000000 0.274412 0.947599 -0.163566
9.56000042 -9.19999981 -0.73000002 42 204 132 0.000000 0.000000 0.000000 0.000000 -60.708740 0.000000 240.000000 0.164246 0.934410 -0.316071
9.55000019 -9.22000027 -0.76999998 42 204 132 0.000000 0.000000 0.000000 0.000000 -60.708740 0.000000 240.000000 0.075243 0.989730 0.121546
9.55000019 -9.22000027 -0.76999998 42 204 132 0.000000 0.000000 0.000000 0.000000 -60.708740 0.000000 240.000000 0.075243 0.989730 0.121546
9.55000019 -9.19999981 -0.75000000 42 204 132 0.000000 0.000000 0.000000 0.000000 -60.708740 0.000000 240.000000 0.134758 0.804104 -0.579014
9.56000042 -9.21000004 -0.75000000 42 204 132 0.000000 0.000000 0.000000 0.000000 -60.708740 0.000000 240.000000 0.303226 0.749242 -0.588804
9.56999969 -9.25000000 -0.75000000 42 204 132 0.000000 0.000000 0.000000 0.000000 -60.708740 0.000000 240.000000 0.119419 -0.788757 0.602994
9.55000019 -9.26000023 -0.76999998 42 204 132 0.000000 0.000000 0.000000 0.000000 -60.708740 0.000000 240.000000 0.407318 0.760654 -0.505467
9.51000023 -9.22000027 -0.70999998 42 204 132 0.000000 0.000000 0.000000 0.000000 -60.708740 0.000000 240.000000 0.154070 0.809239 -0.566916
9.50000000 -9.21000004 -0.74000001 42 204 132 0.000000 0.000000 0.000000 0.000000 -60.708740 0.000000 240.000000 0.504328 0.863203 -0.023109
9.51000023 -9.21000004 -0.75000000 42 204 132 0.000000 0.000000 0.000000 0.000000 -60.708740 0.000000 240.000000 0.521911 0.742529 -0.419833
9.51000023 -9.22000027 -0.75000000 42 204 132 0.000000 0.000000 0.000000 0.000000 -60.708740 0.000000 240.000000 0.253931 0.838741 -0.481699
9.48999977 -9.25000000 -0.73000002 42 204 132 0.000000 0.000000 0.000000 0.000000 -60.708740 0.000000 240.000000 0.532542 0.715033 -0.452909
9.48999977 -9.25000000 -0.74000001 42 204 132 0.000000 0.000000 0.000000 0.000000 -60.708740 0.000000 240.000000 0.192487 0.981099 -0.019832
9.53999996 -9.22000027 -0.79000002 42 204 132 0.000000 0.000000 0.000000 0.000000 -60.708740 0.000000 240.000000 0.356439 0.897753 -0.258825
9.55000019 -9.22999954 -0.77999997 42 204 132 0.000000 0.000000 0.000000 0.000000 -60.708740 0.000000 240.000000 0.169405 0.864700 -0.472860
9.53999996 -9.25000000 -0.80000001 42 204 132 0.000000 0.000000 0.000000 0.000000 -60.708740 0.000000 240.000000 -0.025677 0.999340 -0.025677
9.51000023 -9.22999954 -0.77999997 42 204 132 0.000000 0.000000 0.000000 0.000000 -60.708740 0.000000 240.000000 0.578582 0.731784 -0.360188
9.60000038 -9.27000046 -0.69999999 42 204 132 0.000000 0.000000 0.000000 0.000000 -60.708740 0.000000 240.000000 -0.526602 0.712657 -0.463476
9.59000015 -9.27000046 -0.69999999 42 204 132 0.000000 0.000000 0.000000 0.000000 -60.708740 0.000000 240.000000 -0.001364 0.816854 -0.576843
9.59000015 -9.27000046 -0.69999999 42 204 132 0.000000 0.000000 0.000000 0.000000 -60.708740 0.000000 240.000000 -0.001364 0.816854 -0.576843
9.59000015 -9.27999973 -0.69999999 42 204 132 0.000000 0.000000 0.000000 0.000000 -60.708740 0.000000 240.000000 -0.388167 0.797273 -0.462257
9.64999962 -9.30000019 -0.81000000 42 204 132 0.000000 0.000000 0.000000 0.000000 -60.708740 0.000000 240.000000 -0.495623 0.579627 -0.646830
9.61999989 -9.27999973 -0.80000001 42 204 132 0.000000 0.000000 0.000000 0.000000 -60.708740 0.000000 240.000000 -0.102954 0.819282 -0.564072
9.63000011 -9.31000042 -0.81999999 42 204 132 0.000000 0.000000 0.000000 0.000000 -60.708740 0.000000 240.000000 -0.130296 0.838872 -0.528504
9.63000011 -9.28999996 -0.81999999 42 204 132 0.000000 0.000000 0.000000 0.000000 -60.708740 0.000000 240.000000 -0.036145 0.958460 -0.282926
9.64999962 -9.30000019 -0.81999999 42 204 132 0.000000 0.000000 0.000000 0.000000 -60.708740 0.000000 240.000000 -0.308694 0.690116 -0.654560
9.60999966 -9.39999962 -0.73000002 42 204 132 0.000000 0.000000 0.000000 0.000000 -60.708740 0.000000 240.000000 -0.190797 0.951277 -0.242217
9.53999996 -9.27999973 -0.69999999 42 204 132 0.000000 0.000000 0.000000 0.000000 -60.708740 0.000000 240.000000 0.049388 0.802901 -0.594062
9.53999996 -9.30000019 -0.72000003 42 204 132 0.000000 0.000000 0.000000 0.000000 -60.708740 0.000000 240.000000 -0.061343 0.965221 -0.254137
9.56999969 -9.28999996 -0.73000002 42 204 132 0.000000 0.000000 0.000000 0.000000 -60.708740 0.000000 240.000000 -0.137834 0.920285 -0.366165
9.56000042 -9.35000038 -0.69999999 42 204 132 0.000000 0.000000 0.000000 0.000000 -60.708740 0.000000 240.000000 0.085843 0.959649 -0.267779
9.53999996 -9.35000038 -0.69999999 42 204 132 0.000000 0.000000 0.000000 0.000000 -60.708740 0.000000 240.000000 0.077313 0.915550 -0.394704
9.52999973 -9.35000038 -0.72000003 42 204 132 0.000000 0.000000 0.000000 0.000000 -60.708740 0.000000 240.000000 -0.167376 0.978223 -0.122743
9.52999973 -9.31999969 -0.75999999 42 204 132 0.000000 0.000000 0.000000 0.000000 -60.708740 0.000000 240.000000 0.552609 0.814608 -0.176172
9.52999973 -9.31999969 -0.76999998 42 204 132 0.000000 0.000000 0.000000 0.000000 -60.708740 0.000000 240.000000 0.178802 0.972634 -0.148368
9.48999977 -9.34000015 -0.74000001 42 204 132 0.000000 0.000000 0.000000 0.000000 -60.708740 0.000000 240.000000 0.385314 0.915638 -0.114627
9.55000019 -9.31000042 -0.79000002 42 204 132 0.000000 0.000000 0.000000 0.000000 -60.708740 0.000000 240.000000 -0.223737 0.913715 -0.339215
9.55000019 -9.28999996 -0.81000000 42 204 132 0.000000 0.000000 0.000000 0.000000 -60.708740 0.000000 240.000000 0.378018 0.895771 -0.233871
9.56000042 -9.30000019 -0.77999997 42 204 132 0.000000 0.000000 0.000000 0.000000 -60.708740 0.000000 240.000000 0.077822 0.960651 -0.266635
9.53999996 -9.27999973 -0.85000002 42 204 132 0.000000 0.000000 0.000000 0.000000 -60.708740 0.000000 240.000000 0.337877 0.869918 -0.359281
9.52999973 -9.35000038 -0.79000002 42 204 132 0.000000 0.000000 0.000000 0.000000 -60.708740 0.000000 240.000000 0.357992 0.816222 -0.453457
9.53999996 -9.31999969 -0.81999999 42 204 132 0.000000 0.000000 0.000000 0.000000 -60.708740 0.000000 240.000000 0.344395 0.870936 -0.350517
9.53999996 -9.31999969 -0.81999999 42 204 132 0.000000 0.000000 0.000000 0.000000 -60.708740 0.000000 240.000000 0.344395 0.870936 -0.350517
9.52000046 -9.35000038 -0.79000002 42 204 132 0.000000 0.000000 0.000000 0.000000 -60.708740 0.000000 240.000000 0.529519 0.843519 0.089918
9.48999977 -9.32999992 -0.81000000 42 204 132 0.000000 0.000000 0.000000 0.000000 -60.708740 0.000000 240.000000 0.315255 0.925974 -0.207814
9.50000000 -9.32999992 -0.79000002 42 204 132 0.000000 0.000000 0.000000 0.000000 -60.708740 0.000000 240.000000 0.195192 0.973441 -0.119634
9.53999996 -9.39000034 -0.72000003 42 204 132 0.000000 0.000000 0.000000 0.000000 -60.708740 0.000000 240.000000 0.301421 0.950833 0.071151
9.56999969 -9.39000034 -0.76999998 42 204 132 0.000000 0.000000 0.000000 0.000000 -60.708740 0.000000 240.000000 0.158353 0.982754 0.095495
9.56000042 -9.39999962 -0.72000003 42 204 132 0.000000 0.000000 0.000000 0.000000 -60.708740 0.000000 240.000000 0.341437 0.937304 -0.069869
9.53999996 -9.40999985 -0.76999998 42 204 132 0.000000 0.000000 0.000000 0.000000 -60.708740 0.000000 240.000000 0.327520 0.936353 0.126387
9.52000046 -9.35999966 -0.72000003 42 204 132 0.000000 0.000000 0.000000 0.000000 -60.708740 0.000000 240.000000 -0.051135 0.964075 -0.260662
9.55000019 -9.35999966 -0.80000001 42 204 132 0.000000 0.000000 0.000000 0.000000 -60.708740 0.000000 240.000000 0.255747 0.941424 -0.219804
9.55000019 -9.35999966 -0.80000001 42 204 132 0.000000 0.000000 0.000000 0.000000 -60.708740 0.000000 240.000000 0.255747 0.941424 -0.219804
9.56000042 -9.39000034 -0.77999997 42 204 132 0.000000 0.000000 0.000000 0.000000 -60.708740 0.000000 240.000000 -0.270230 0.877116 -0.397042
9.55000019 -9.35999966 -0.81000000 42 204 132 0.000000 0.000000 0.000000 0.000000 -60.708740 0.000000 240.000000 0.118998 0.980201 -0.158255
9.55000019 -9.35999966 -0.81000000 42 204 132 0.000000 0.000000 0.000000 0.000000 -60.708740 0.000000 240.000000 0.118998 0.980201 -0.158255
9.52999973 -9.35999966 -0.80000001 42 204 132 0.000000 0.000000 0.000000 0.000000 -60.708740 0.000000 240.000000 0.048274 0.966712 -0.251271
9.53999996 -9.39000034 -0.82999998 42 204 132 0.000000 0.000000 0.000000 0.000000 -60.708740 0.000000 240.000000 0.437995 0.898622 0.025295
9.55000019 -9.38000011 -0.85000002 42 204 132 0.000000 0.000000 0.000000 0.000000 -60.708740 0.000000 240.000000 0.117990 0.992236 -0.039330
9.53999996 -9.38000011 -0.82999998 42 204 132 0.000000 0.000000 0.000000 0.000000 -60.708740 0.000000 240.000000 0.350180 0.934255 0.067393
9.53999996 -9.39000034 -0.82999998 42 204 132 0.000000 0.000000 0.000000 0.000000 -60.708740 0.000000 240.000000 0.437995 0.898622 0.025295
9.55000019 -9.35999966 -0.81999999 42 204 132 0.000000 0.000000 0.000000 0.000000 -60.708740 0.000000 240.000000 0.188360 0.980192 0.061187
9.55000019 -9.39999962 -0.77999997 42 204 132 0.000000 0.000000 0.000000 0.000000 -60.708740 0.000000 240.000000 -0.232931 0.867103 -0.440314
9.48999977 -9.36999989 -0.79000002 42 204 132 0.000000 0.000000 0.000000 0.000000 -60.708740 0.000000 240.000000 -0.030199 0.992081 -0.121913
9.52000046 -9.38000011 -0.83999997 42 204 132 0.000000 0.000000 0.000000 0.000000 -60.708740 0.000000 240.000000 0.120407 0.891014 -0.437716
9.59000015 -9.35000038 -0.87000000 42 204 132 0.000000 0.000000 0.000000 0.000000 -60.708740 0.000000 240.000000 0.116982 0.992678 -0.030081
9.55000019 -9.38000011 -0.86000001 42 204 132 0.000000 0.000000 0.000000 0.000000 -60.708740 0.000000 240.000000 0.110357 0.993211 -0.036786
9.55000019 -9.39999962 -0.87000000 42 204 132 0.000000 0.000000 0.000000 0.000000 -60.708740 0.000000 240.000000 0.465644 0.878920 -0.103319
9.38000011 -9.10999966 -0.77999997 42 204 132 0.000000 0.000000 0.000000 0.000000 -60.708740 0.000000 240.000000 0.986810 -0.100695 0.126757
9.39000034 -9.10999966 -0.79000002 42 204 132 0.000000 0.000000 0.000000 0.000000 -60.708740 0.000000 240.000000 0.953403 -0.016117 0.301270
9.47999954 -9.32999992 -0.75000000 42 204 132 0.000000 0.000000 0.000000 0.000000 -60.708740 0.000000 240.000000 0.180128 0.981760 -0.060838
9.01000023 -9.14000034 -0.72000003 42 204 132 0.000000 0.000000 0.000000 0.000000 -60.708740 0.000000 235.000000 0.874605 0.302689 0.378742
8.98999977 -9.13000011 -0.69999999 42 204 132 0.000000 0.000000 0.000000 0.000000 -60.708740 0.000000 235.000000 0.980037 0.136835 -0.144232
9.01000023 -9.10999966 -0.74000001 42 204 132 0.000000 0.000000 0.000000 0.000000 -60.708740 0.000000 235.000000 0.992255 0.071770 -0.101390
9.00000000 -9.18000031 -0.69999999 42 204 132 0.000000 0.000000 0.000000 0.000000 -60.708740 0.000000 235.000000 0.838057 0.493064 0.233557
9.01000023 -9.14999962 -0.73000002 42 204 132 0.000000 0.000000 0.000000 0.000000 -60.708740 0.000000 235.000000 0.919797 0.351812 0.173787
8.98999977 -9.18000031 -0.75000000 42 204 132 0.000000 0.000000 0.000000 0.000000 -60.708740 0.000000 235.000000 0.820837 0.471075 0.322978
9.01000023 -9.17000008 -0.76999998 42 204 132 0.000000 0.000000 0.000000 0.000000 -60.708740 0.000000 235.000000 0.981424 0.166199 -0.095837
9.00000000 -9.14999962 -0.75999999 42 204 132 0.000000 0.000000 0.000000 0.000000 -60.708740 0.000000 235.000000 0.990067 0.139840 0.014543
9.00000000 -9.14999962 -0.75999999 42 204 132 0.000000 0.000000 0.000000 0.000000 -60.708740 0.000000 235.000000 0.990067 0.139840 0.014543
9.01000023 -9.15999985 -0.76999998 42 204 132 0.000000 0.000000 0.000000 0.000000 -60.708740 0.000000 235.000000 0.905368 0.416277 0.083805
9.01000023 -9.15999985 -0.76999998 42 204 132 0.000000 0.000000 0.000000 0.000000 -60.708740 0.000000 235.000000 0.905368 0.416277 0.083805
8.98999977 -9.17000008 -0.75000000 42 204 132 0.000000 0.000000 0.000000 0.000000 -60.708740 0.000000 235.000000 0.823781 0.493646 0.278746
9.00000000 -9.14999962 -0.75999999 42 204 132 0.000000 0.000000 0.000000 0.000000 -60.708740 0.000000 235.000000 0.990067 0.139840 0.014543
8.94999981 -9.22999954 -0.08000000 42 204 132 0.000000 0.000000 0.000000 0.000000 -60.708740 0.000000 235.000000 0.769576 0.496238 0.401872
8.97000027 -9.23999977 -0.09000000 42 204 132 0.000000 0.000000 0.000000 0.000000 -60.708740 0.000000 235.000000 0.753709 0.569720 0.327630
8.93000031 -9.25000000 -0.05000000 42 204 132 0.000000 0.000000 0.000000 0.000000 -60.708740 0.000000 235.000000 0.896438 0.408522 0.171781
8.90999985 -9.26000023 -0.05000000 42 204 132 0.000000 0.000000 0.000000 0.000000 -60.708740 0.000000 235.000000 0.916532 0.362941 0.168054
8.93000031 -9.26000023 -0.08000000 42 204 132 0.000000 0.000000 0.000000 0.000000 -60.708740 0.000000 235.000000 0.799003 0.467827 0.377798
8.97999954 -9.25000000 -0.12000000 42 204 132 0.000000 0.000000 0.000000 0.000000 -60.708740 0.000000 235.000000 0.781408 0.587212 0.211150
8.97000027 -9.22999954 -0.12000000 42 204 132 0.000000 0.000000 0.000000 0.000000 -60.708740 0.000000 235.000000 0.886050 0.442309 0.138848
8.89000034 -9.22999954 -0.05000000 42 204 132 0.000000 0.000000 0.000000 0.000000 -60.708740 0.000000 235.000000 0.952664 0.274272 0.131173
8.94999981 -9.15999985 -0.34000000 42 204 132 0.000000 0.000000 0.000000 0.000000 -60.708740 0.000000 235.000000 0.831087 0.534800 -0.152588
8.93999958 -9.13000011 -0.34999999 42 204 132 0.000000 0.000000 0.000000 0.000000 -60.708740 0.000000 235.000000 0.829527 0.551586 0.087394
8.93999958 -9.13000011 -0.34999999 42 204 132 0.000000 0.000000 0.000000 0.000000 -60.708740 0.000000 235.000000 0.829527 0.551586 0.087394
8.90999985 -9.14000034 -0.34000000 42 204 132 0.000000 0.000000 0.000000 0.000000 -60.708740 0.000000 235.000000 0.779331 0.617887 -0.104204
8.97999954 -9.18999958 -0.31999999 42 204 132 0.000000 0.000000 0.000000 0.000000 -60.708740 0.000000 235.000000 0.972511 0.088410 0.215422
8.97000027 -9.22999954 -0.30000001 42 204 132 0.000000 0.000000 0.000000 0.000000 -60.708740 0.000000 235.000000 0.714624 0.538870 0.446018
8.94999981 -9.26000023 -0.28999999 42 204 132 0.000000 0.000000 0.000000 0.000000 -60.708740 0.000000 235.000000 0.902407 0.320495 0.288002
8.85999966 -9.14000034 -0.25000000 42 204 132 0.000000 0.000000 0.000000 0.000000 -60.708740 0.000000 235.000000 0.735174 0.464233 0.493971
8.89000034 -9.18000031 -0.20999999 42 204 132 0.000000 0.000000 0.000000 0.000000 -60.708740 0.000000 235.000000 0.713271 0.507104 0.483827
8.88000011 -9.17000008 -0.25999999 42 204 132 0.000000 0.000000 0.000000 0.000000 -60.708740 0.000000 235.000000 0.713039 0.598297 0.365535
8.89000034 -9.14999962 -0.30000001 42 204 132 0.000000 0.000000 0.000000 0.000000 -60.708740 0.000000 235.000000 0.870792 0.489564 -0.045254
8.89000034 -9.19999981 -0.28999999 42 204 132 0.000000 0.000000 0.000000 0.000000 -60.708740 0.000000 235.000000 0.641232 0.651174 0.405948
8.97999954 -9.27000046 -0.07000000 42 204 132 0.000000 0.000000 0.000000 0.000000 -60.708740 0.000000 235.000000 0.802657 0.497488 0.329010
8.97999954 -9.27000046 -0.14000000 42 204 132 0.000000 0.000000 0.000000 0.000000 -60.708740 0.000000 235.000000 0.833406 0.479558 0.274698
8.97999954 -9.28999996 -0.13000000 42 204 132 0.000000 0.000000 0.000000 0.000000 -60.708740 0.000000 235.000000 0.907165 0.388785 0.160926
8.93000031 -9.18000031 -0.38000000 42 204 132 0.000000 0.000000 0.000000 0.000000 -60.708740 0.000000 235.000000 0.690279 0.696456 0.196120
8.92000008 -9.15999985 -0.41000000 42 204 132 0.000000 0.000000 0.000000 0.000000 -60.708740 0.000000 235.000000 0.713208 0.480460 0.510385
8.89999962 -9.10999966 -0.44999999 42 204 132 0.000000 0.000000 0.000000 0.000000 -60.708740 0.000000 235.000000 0.934674 0.328842 0.135084
8.90999985 -9.14000034 -0.46000001 42 204 132 0.000000 0.000000 0.000000 0.000000 -60.708740 0.000000 235.000000 0.820660 0.567493 0.066848
8.90999985 -9.14999962 -0.44000000 42 204 132 0.000000 0.000000 0.000000 0.000000 -60.708740 0.000000 235.000000 0.771840 0.623124 0.126409
8.90999985 -9.14999962 -0.47000000 42 204 132 0.000000 0.000000 0.000000 0.000000 -60.708740 0.000000 235.000000 0.887350 0.441532 0.132888
8.97000027 -9.22999954 -0.43000001 42 204 132 0.000000 0.000000 0.000000 0.000000 -60.708740 0.000000 235.000000 0.832514 0.250831 0.493968
8.93000031 -9.18999958 -0.49000001 42 204 132 0.000000 0.000000 0.000000 0.000000 -60.708740 0.000000 235.000000 0.787294 0.611055 0.082341
8.93999958 -9.18999958 -0.49000001 42 204 132 0.000000 0.000000 0.000000 0.000000 -60.708740 0.000000 235.000000 0.740272 0.634296 0.222861
8.89000034 -9.13000011 -0.40000001 42 204 132 0.000000 0.000000 0.000000 0.000000 -60.708740 0.000000 235.000000 0.773748 0.582273 0.249545
8.96000004 -9.13000011 -0.57999998 42 204 132 0.000000 0.000000 0.000000 0.000000 -60.708740 0.000000 235.000000 0.886695 0.432499 0.163453
9.72000027 -8.72000027 0.67000002 42 204 132 0.000000 0.000000 0.000000 0.000000 -60.708740 0.000000 240.000000 0.994277 0.041013 -0.098652
9.69999981 -8.75000000 0.72000003 42 204 132 0.000000 0.000000 0.000000 0.000000 -60.708740 0.000000 240.000000 0.958996 0.245997 0.140758
9.71000004 -8.77999973 0.69000000 42 204 132 0.000000 0.000000 0.000000 0.000000 -60.708740 0.000000 240.000000 0.791951 0.032239 0.609733
9.71000004 -8.77999973 0.69000000 42 204 132 0.000000 0.000000 0.000000 0.000000 -60.708740 0.000000 240.000000 0.791951 0.032239 0.609733
9.71000004 -8.77999973 0.69000000 42 204 132 0.000000 0.000000 0.000000 0.000000 -60.708740 0.000000 240.000000 0.791951 0.032239 0.609733
9.71000004 -8.82999992 0.66000003 42 204 132 0.000000 0.000000 0.000000 0.000000 -60.708740 0.000000 240.000000 0.900696 0.210987 0.379777
9.72000027 -8.76000023 0.62000000 42 204 132 0.000000 0.000000 0.000000 0.000000 -60.708740 0.000000 240.000000 0.945907 -0.003729 0.324417
9.72000027 -8.75000000 0.54000002 42 204 132 0.000000 0.000000 0.000000 0.000000 -60.708740 0.000000 240.000000 0.988294 0.142509 0.054455
9.75000000 -8.81000042 0.57999998 42 204 132 0.000000 0.000000 0.000000 0.000000 -60.708740 0.000000 240.000000 0.874240 -0.470745 0.118759
9.75000000 -8.81000042 0.57999998 42 204 132 0.000000 0.000000 0.000000 0.000000 -60.708740 0.000000 240.000000 0.874240 -0.470745 0.118759
9.75000000 -8.81000042 0.57999998 42 204 132 0.000000 0.000000 0.000000 0.000000 -60.708740 0.000000 240.000000 0.874240 -0.470745 0.118759
9.75000000 -8.80000019 0.55000001 42 204 132 0.000000 0.000000 0.000000 0.000000 -60.708740 0.000000 240.000000 0.828889 -0.004083 0.559398
9.71000004 -8.77000046 0.63999999 42 204 132 0.000000 0.000000 0.000000 0.000000 -60.708740 0.000000 240.000000 0.923868 0.289869 0.249887
9.71000004 -8.77000046 0.57999998 42 204 132 0.000000 0.000000 0.000000 0.000000 -60.708740 0.000000 240.000000 0.995516 0.056225 -0.076069
9.69999981 -8.84000015 0.60000002 42 204 132 0.000000 0.000000 0.000000 0.000000 -60.708740 0.000000 240.000000 0.842582 -0.431414 0.322393
9.72999954 -8.82999992 0.58999997 42 204 132 0.000000 0.000000 0.000000 0.000000 -60.708740 0.000000 240.000000 0.897461 -0.104681 0.428492
9.68000031 -8.77000046 0.61000001 42 204 132 0.000000 0.000000 0.000000 0.000000 -60.708740 0.000000 240.000000 0.970319 -0.241687 0.008334
9.72000027 -8.80000019 0.56000000 42 204 132 0.000000 0.000000 0.000000 0.000000 -60.708740 0.000000 240.000000 0.902281 0.250878 0.350642
9.71000004 -8.77000046 0.56000000 42 204 132 0.000000 0.000000 0.000000 0.000000 -60.708740 0.000000 240.000000 0.807866 -0.369539 0.459124
9.72000027 -8.80000019 0.50000000 42 204 132 0.000000 0.000000 0.000000 0.000000 -60.708740 0.000000 240.000000 0.963427 0.220324 0.152532
9.72000027 -8.81999969 0.55000001 42 204 132 0.000000 0.000000 0.000000 0.000000 -60.708740 0.000000 240.000000 0.997883 0.011542 0.064007
9.72000027 -8.82999992 0.50000000 42 204 132 0.000000 0.000000 0.000000 0.000000 -60.708740 0.000000 240.000000 0.809293 -0.345023 0.475400
9.72000027 -8.84000015 0.50000000 42 204 132 0.000000 0.000000 0.000000 0.000000 -60.708740 0.000000 240.000000 0.823587 -0.195659 0.532374
9.65999985 -8.80000019 0.56000000 42 204 132 0.000000 0.000000 0.000000 0.000000 -60.708740 0.000000 240.000000 0.934332 -0.126482 0.333204
9.67000008 -8.88000011 0.57999998 42 204 132 0.000000 0.000000 0.000000 0.000000 -60.708740 0.000000 240.000000 0.836749 -0.544238 0.060471
9.71000004 -8.85000038 0.46000001 42 204 132 0.000000 0.000000 0.000000 0.000000 -60.708740 0.000000 240.000000 0.871225 -0.074117 0.485257
9.71000004 -8.85000038 0.46000001 42 204 132 0.000000 0.000000 0.000000 0.000000 -60.708740 0.000000 240.000000 0.871225 -0.074117 0.485257
9.71000004 -8.84000015 0.44000000 42 204 132 0.000000 0.000000 0.000000 0.000000 -60.708740 0.000000 240.000000 0.952748 0.184620 0.241219
9.71000004 -8.82999992 0.44000000 42 204 132 0.000000 0.000000 0.000000 0.000000 -60.708740 0.000000 240.000000 0.978879 -0.044223 0.199600
9.71000004 -8.84000015 0.44000000 42 204 132 0.000000 0.000000 0.000000 0.000000 -60.708740 0.000000 240.000000 0.952748 0.184620 0.241219
9.68000031 -8.85000038 0.44000000 42 204 132 0.000000 0.000000 0.000000 0.000000 -60.708740 0.000000 240.000000 0.963509 -0.207867 0.168647
9.65999985 -8.85000038 0.40000001 42 204 132 0.000000 0.000000 0.000000 0.000000 -60.708740 0.000000 240.000000 0.875654 -0.450294 0.174544
9.67000008 -8.85000038 0.41000000 42 204 132 0.000000 0.000000 0.000000 0.000000 -60.708740 0.000000 240.000000 0.989714 -0.128189 0.063517
9.65999985 -8.85000038 0.36000001 42 204 132 0.000000 0.000000 0.000000 0.000000 -60.708740 0.000000 240.000000 0.823695 -0.309082 0.475390
9.67000008 -8.84000015 0.34999999 42 204 132 0.000000 0.000000 0.000000 0.000000 -60.708740 0.000000 240.000000 0.871951 0.127848 0.472606
9.71000004 -8.88000011 0.47000000 42 204 132 0.000000 0.000000 0.000000 0.000000 -60.708740 0.000000 240.000000 0.910058 -0.118461 0.397192
9.71000004 -8.92000008 0.41000000 42 204 132 0.000000 0.000000 0.000000 0.000000 -60.708740 0.000000 240.000000 0.935531 -0.281079 0.213955
9.71000004 -8.90999985 0.40000001 42 204 132 0.000000 0.000000 0.000000 0.000000 -60.708740 0.000000 240.000000 0.994629 -0.102818 0.011905
9.71000004 -8.90999985 0.40000001 42 204 132 0.000000 0.000000 0.000000 0.000000 -60.708740 0.000000 240.000000 0.994629 -0.102818 0.011905
9.72000027 -8.90999985 0.38999999 42 204 132 0.000000 0.000000 0.000000 0.000000 -60.708740 0.000000 240.000000 0.930687 0.136098 0.339557
9.71000004 -8.90999985 0.34000000 42 204 132 0.000000 0.000000 0.000000 0.000000 -60.708740 0.000000 240.000000 0.926547 0.189808 0.324783
9.65999985 -8.88000011 0.38999999 42 204 132 0.000000 0.000000 0.000000 0.000000 -60.708740 0.000000 240.000000 0.920151 0.068508 0.385523
9.67000008 -8.90999985 0.36000001 42 204 132 0.000000 0.000000 0.000000 0.000000 -60.708740 0.000000 240.000000 0.637920 -0.421393 0.644582
9.82999992 -8.90999985 0.25999999 42 204 132 0.000000 0.000000 0.000000 0.000000 -60.708740 0.000000 240.000000 0.705838 -0.261715 0.658254
9.84000015 -8.93000031 0.18000001 42 204 132 0.000000 0.000000 0.000000 0.000000 -60.708740 0.000000 240.000000 0.888280 0.254432 0.382392
9.82999992 -8.98999977 0.15000001 42 204 132 0.000000 0.000000 0.000000 0.000000 -60.708740 0.000000 240.000000 0.808950 -0.094064 0.580303
9.85000038 -8.97000027 0.12000000 42 204 132 0.000000 0.000000 0.000000 0.000000 -60.708740 0.000000 240.000000 0.995632 0.084153 0.040437
9.85999966 -8.97000027 0.10000000 42 204 132 0.000000 0.000000 0.000000 0.000000 -60.708740 0.000000 240.000000 0.715581 -0.383288 0.583980
9.85000038 -9.01000023 0.07000000 42 204 132 0.000000 0.000000 0.000000 0.000000 -60.708740 0.000000 240.000000 0.886624 -0.082121 0.455143
9.69999981 -8.92000008 0.30000001 42 204 132 0.000000 0.000000 0.000000 0.000000 -60.708740 0.000000 240.000000 0.996257 -0.086123 0.007443
9.80000019 -8.93000031 0.14000000 42 204 132 0.000000 0.000000 0.000000 0.000000 -60.708740 0.000000 240.000000 0.926324 0.145387 0.347544
9.81999969 -8.94999981 0.19000000 42 204 132 0.000000 0.000000 0.000000 0.000000 -60.708740 0.000000 240.000000 0.834241 0.155587 0.528995
9.80000019 -8.93999958 0.22000000 42 204 132 0.000000 0.000000 0.000000 0.000000 -60.708740 0.000000 240.000000 0.796766 -0.258284 0.546309
9.69999981 -8.97000027 0.30000001 42 204 132 0.000000 0.000000 0.000000 0.000000 -60.708740 0.000000 240.000000 0.907492 -0.035874 0.418536
9.65999985 -8.96000004 0.31000000 42 204 132 0.000000 0.000000 0.000000 0.000000 -60.708740 0.000000 240.000000 0.669491 -0.262389 0.694934
9.68999958 -8.97999954 0.27000001 42 204 132 0.000000 0.000000 0.000000 0.000000 -60.708740 0.000000 240.000000 0.950727 -0.262223 0.165402
9.69999981 -8.94999981 0.20000000 42 204 132 0.000000 0.000000 0.000000 0.000000 -60.708740 0.000000 240.000000 0.844909 0.014966 0.534701
9.67000008 -9.00000000 0.19000000 42 204 132 0.000000 0.000000 0.000000 0.000000 -60.708740 0.000000 240.000000 0.912802 -0.103258 0.395134
9.65999985 -9.00000000 0.19000000 42 204 132 0.000000 0.000000 0.000000 0.000000 -60.708740 0.000000 240.000000 -0.825786 0.054865 -0.561309
9.67000008 -8.98999977 0.22000000 42 204 132 0.000000 0.000000 0.000000 0.000000 -60.708740 0.000000 240.000000 0.816907 -0.020734 0.576396
9.67000008 -8.98999977 0.23000000 42 204 132 0.000000 0.000000 0.000000 0.000000 -60.708740 0.000000 240.000000 0.962388 -0.123051 0.242216
9.68000031 -8.98999977 0.20999999 42 204 132 0.000000 0.000000 0.000000 0.000000 -60.708740 0.000000 240.000000 0.957169 -0.261285 0.124734
9.80000019 -8.98999977 0.09000000 42 204 132 0.000000 0.000000 0.000000 0.000000 -60.708740 0.000000 240.000000 0.965692 0.157266 0.206655
9.81000042 -9.00000000 0.07000000 42 204 132 0.000000 0.000000 0.000000 0.000000 -60.708740 0.000000 240.000000 0.785828 -0.400205 0.471497
9.75000000 -8.96000004 0.02000000 42 204 132 0.000000 0.000000 0.000000 0.000000 -60.708740 0.000000 240.000000 0.765850 -0.135853 0.628505
9.76000023 -8.97999954 0.06000000 42 204 132 0.000000 0.000000 0.000000 0.000000 -60.708740 0.000000 240.000000 0.932040 -0.121097 0.341521
9.77999973 -9.00000000 0.01000000 42 204 132 0.000000 0.000000 0.000000 0.000000 -60.708740 0.000000 240.000000 0.863458 -0.217742 0.455005
9.77999973 -8.98999977 0.01000000 42 204 132 0.000000 0.000000 0.000000 0.000000 -60.708740 0.000000 240.000000 0.859778 0.014894 0.510451
9.78999996 -9.03999996 0.04000000 42 204 132 0.000000 0.000000 0.000000 0.000000 -60.708740 0.000000 240.000000 0.749953 -0.292626 0.593246
9.80000019 -9.06000042 0.02000000 42 204 132 0.000000 0.000000 0.000000 0.000000 -60.708740 0.000000 240.000000 0.893536 -0.166004 0.417176
9.73999977 -9.02000046 0.01000000 42 204 132 0.000000 0.000000 0.000000 0.000000 -60.708740 0.000000 240.000000 0.953004 -0.081686 0.291736
9.65999985 -9.01000023 0.09000000 42 204 132 0.000000 0.000000 0.000000 0.000000 -60.708740 0.000000 240.000000 0.652124 -0.461013 0.601832
9.64999962 -8.73999977 0.69000000 42 204 132 0.000000 0.000000 0.000000 0.000000 -60.708740 0.000000 240.000000 0.809916 -0.274150 0.518534
9.43999958 -8.56999969 0.69000000 42 204 132 0.000000 0.000000 0.000000 0.000000 -60.708740 0.000000 240.000000 0.999494 -0.005063 -0.031392
9.42000008 -8.53999996 0.66000003 42 204 132 0.000000 0.000000 0.000000 0.000000 -60.708740 0.000000 240.000000 0.752549 0.503339 0.424641
9.18000031 -8.75000000 0.66000003 42 204 132 0.000000 0.000000 0.000000 0.000000 -60.708740 0.000000 240.000000 -0.509977 0.828521 -0.231251
9.18000031 -8.75000000 0.67000002 42 204 132 0.000000 0.000000 0.000000 0.000000 -60.708740 0.000000 240.000000 -0.610045 0.714159 -0.343252
9.21000004 -8.93000031 0.88999999 42 204 132 0.000000 0.000000 0.000000 0.000000 -60.708740 0.000000 240.000000 -0.072254 0.906581 -0.415800
9.27999973 -8.92000008 0.73000002 42 204 132 0.000000 0.000000 0.000000 0.000000 -60.708740 0.000000 240.000000 -0.572495 0.753113 -0.324145
9.18999958 -8.93000031 0.77999997 42 204 132 0.000000 0.000000 0.000000 0.000000 -60.708740 0.000000 240.000000 0.274195 -0.756017 0.594353
9.21000004 -8.93000031 0.79000002 42 204 132 0.000000 0.000000 0.000000 0.000000 -60.708740 0.000000 240.000000 -0.233158 0.886593 -0.399487
9.22999954 -8.92000008 0.79000002 42 204 132 0.000000 0.000000 0.000000 0.000000 -60.708740 0.000000 240.000000 -0.309265 0.948500 -0.068582
9.28999996 -9.05000019 0.89999998 42 204 132 0.000000 0.000000 0.000000 0.000000 -60.708740 0.000000 240.000000 -0.443887 0.782087 -0.437383
9.27999973 -9.06000042 0.88999999 42 204 132 0.000000 0.000000 0.000000 0.000000 -60.708740 0.000000 240.000000 -0.215195 0.911329 -0.350956
9.30000019 -9.07999992 0.87000000 42 204 132 0.000000 0.000000 0.000000 0.000000 -60.708740 0.000000 240.000000 -0.241424 0.924268 -0.295709
9.28999996 -9.07999992 0.87000000 42 204 132 0.000000 0.000000 0.000000 0.000000 -60.708740 0.000000 240.000000 -0.544185 0.828746 -0.130546
9.27999973 -9.06000042 0.88999999 42 204 132 0.000000 0.000000 0.000000 0.000000 -60.708740 0.000000 240.000000 -0.215195 0.911329 -0.350956
9.23999977 -9.06999969 0.88999999 42 204 132 0.000000 0.000000 0.000000 0.000000 -60.708740 0.000000 240.000000 0.055649 0.763393 -0.643533
9.19999981 -8.97999954 0.89999998 42 204 132 0.000000 0.000000 0.000000 0.000000 -60.708740 0.000000 240.000000 0.342969 -0.771279 0.536192
9.18999958 -8.93999958 0.89999998 42 204 132 0.000000 0.000000 0.000000 0.000000 -60.708740 0.000000 240.000000 -0.583750 0.792990 -0.174367
9.17000008 -9.00000000 0.88000000 42 204 132 0.000000 0.000000 0.000000 0.000000 -60.708740 0.000000 240.000000 -0.504628 0.714473 -0.484643
9.18999958 -9.01000023 0.88999999 42 204 132 0.000000 0.000000 0.000000 0.000000 -60.708740 0.000000 240.000000 -0.501868 0.813373 -0.294199
9.19999981 -9.07999992 0.91000003 42 204 132 0.000000 0.000000 0.000000 0.000000 -60.708740 0.000000 240.000000 -0.350101 0.769576 -0.534024
9.18000031 -9.07999992 0.94999999 42 204 132 0.000000 0.000000 0.000000 0.000000 -60.708740 0.000000 240.000000 -0.518523 0.776977 -0.356989
9.21000004 -9.09000015 0.88000000 42 204 132 0.000000 0.000000 0.000000 0.000000 -60.708740 0.000000 240.000000 -0.351697 0.698486 -0.623239
9.18999958 -9.10000038 0.85000002 42 204 132 0.000000 0.000000 0.000000 0.000000 -60.708740 0.000000 240.000000 -0.036674 0.998575 -0.038769
9.27000046 -8.93999958 0.72000003 42 204 132 0.000000 0.000000 0.000000 0.000000 -60.708740 0.000000 240.000000 -0.084358 0.897510 -0.432851
9.27000046 -9.00000000 0.67000002 42 204 132 0.000000 0.000000 0.000000 0.000000 -60.708740 0.000000 240.000000 -0.137685 0.987333 -0.078845
9.27000046 -9.00000000 0.68000001 42 204 132 0.000000 0.000000 0.000000 0.000000 -60.708740 0.000000 240.000000 0.609453 -0.751187 0.253545
9.27999973 -9.02000046 0.68000001 42 204 132 0.000000 0.000000 0.000000 0.000000 -60.708740 0.000000 240.000000 -0.208110 0.934399 -0.289119
9.27000046 -9.02000046 0.68000001 42 204 132 0.000000 0.000000 0.000000 0.000000 -60.708740 0.000000 240.000000 -0.144344 0.986935 -0.071585
9.27000046 -9.02999973 0.67000002 42 204 132 0.000000 0.000000 0.000000 0.000000 -60.708740 0.000000 240.000000 0.589757 -0.714608 0.376196
9.23999977 -9.09000015 0.70999998 42 204 132 0.000000 0.000000 0.000000 0.000000 -60.708740 0.000000 240.000000 -0.003458 0.980840 -0.194785
9.21000004 -8.96000004 0.69999999 42 204 132 0.000000 0.000000 0.000000 0.000000 -60.708740 0.000000 240.000000 -0.133493 0.980991 -0.140841
9.21000004 -8.96000004 0.70999998 42 204 132 0.000000 0.000000 0.000000 0.000000 -60.708740 0.000000 240.000000 -0.153182 0.894756 -0.419461
9.22000027 -9.01000023 0.67000002 42 204 132 0.000000 0.000000 0.000000 0.000000 -60.708740 0.000000 240.000000 -0.416632 0.799483 -0.432718
9.22000027 -9.00000000 0.68000001 42 204 132 0.000000 0.000000 0.000000 0.000000 -60.708740 0.000000 240.000000 0.134636 0.937011 -0.322310
9.22000027 -8.98999977 0.68000001 42 204 132 0.000000 0.000000 0.000000 0.000000 -60.708740 0.000000 240.000000 -0.020780 0.994140 -0.106085
9.22999954 -9.00000000 0.67000002 42 204 132 0.000000 0.000000 0.000000 0.000000 -60.708740 0.000000 240.000000 0.071161 0.988083 -0.136488
9.18999958 -8.96000004 0.70999998 42 204 132 0.000000 0.000000 0.000000 0.000000 -60.708740 0.000000 240.000000 -0.038221 -0.723373 0.689399
9.18000031 -9.09000015 0.75999999 42 204 132 0.000000 0.000000 0.000000 0.000000 -60.708740 0.000000 240.000000 -0.053675 0.873934 -0.483072
9.19999981 -9.02000046 0.69999999 42 204 132 0.000000 0.000000 0.000000 0.000000 -60.708740 0.000000 240.000000 -0.118689 0.968652 -0.218234
9.21000004 -9.02000046 0.69999999 42 204 132 0.000000 0.000000 0.000000 0.000000 -60.708740 0.000000 240.000000 -0.158944 0.746282 -0.646374
9.19999981 -9.02999973 0.68000001 42 204 132 0.000000 0.000000 0.000000 0.000000 -60.708740 0.000000 240.000000 -0.337860 0.915817 -0.217093
9.22000027 -9.10000038 0.73000002 42 204 132 0.000000 0.000000 0.000000 0.000000 -60.708740 0.000000 240.000000 -0.225176 0.781128 -0.582352
9.22999954 -9.10000038 0.72000003 42 204 132 0.000000 0.000000 0.000000 0.000000 -60.708740 0.000000 240.000000 0.168836 0.912283 -0.373142
9.22000027 -9.09000015 0.69999999 42 204 132 0.000000 0.000000 0.000000 0.000000 -60.708740 0.000000 240.000000 -0.088366 0.917646 -0.387450
