//X Y Z R G B PointSourceId ScanDirectionFlag NumberOfReturns ReturnNumber GpsTime Intensity Classification Nx Ny Nz
14.46000004 2.55999994 0.41999999 79 156 138 0.000000 0.000000 0.000000 0.000000 -60.708740 0.000000 222.000000 -0.611794 -0.225726 0.758127
14.39999962 2.56999993 0.47999999 79 156 138 0.000000 0.000000 0.000000 0.000000 -60.708740 0.000000 222.000000 0.832596 -0.066438 -0.549881
14.35999966 2.58999991 0.38999999 79 156 138 0.000000 0.000000 0.000000 0.000000 -60.708740 0.000000 222.000000 -0.676448 0.061756 0.733896
14.38000011 2.64000010 0.33000001 79 156 138 0.000000 0.000000 0.000000 0.000000 -60.708740 0.000000 222.000000 0.792251 0.317219 -0.521259
14.36999989 2.48000002 0.41000000 79 156 138 0.000000 0.000000 0.000000 0.000000 -60.708740 0.000000 222.000000 -0.437964 0.027955 0.898558
14.39000034 2.50999999 0.33000001 79 156 138 0.000000 0.000000 0.000000 0.000000 -60.708740 0.000000 222.000000 -0.516527 0.408303 0.752654
14.51000023 2.47000003 0.64999998 79 156 138 0.000000 0.000000 0.000000 0.000000 -60.708740 0.000000 222.000000 0.826176 0.557919 0.078480
14.47999954 2.42000008 0.62000000 79 156 138 0.000000 0.000000 0.000000 0.000000 -60.708740 0.000000 222.000000 0.850301 0.522508 0.063037
14.44999981 2.40000010 0.51999998 79 156 138 0.000000 0.000000 0.000000 0.000000 -60.708740 0.000000 222.000000 -0.434884 -0.425184 0.793785
14.47000027 2.44000006 0.55000001 79 156 138 0.000000 0.000000 0.000000 0.000000 -60.708740 0.000000 222.000000 0.779741 0.328228 -0.533170
14.43999958 2.31999993 0.56000000 79 156 138 0.000000 0.000000 0.000000 0.000000 -60.708740 0.000000 222.000000 -0.311293 0.397167 0.863340
14.47999954 2.34999990 0.54000002 79 156 138 0.000000 0.000000 0.000000 0.000000 -60.708740 0.000000 222.000000 -0.337433 0.069587 0.938774
14.52000046 2.32999992 0.56000000 79 156 138 0.000000 0.000000 0.000000 0.000000 -60.708740 0.000000 222.000000 -0.621876 0.085526 0.778432
14.48999977 2.36999989 0.55000001 79 156 138 0.000000 0.000000 0.000000 0.000000 -60.708740 0.000000 222.000000 0.624226 0.482892 -0.614131
14.47000027 2.38000011 0.56000000 79 156 138 0.000000 0.000000 0.000000 0.000000 -60.708740 0.000000 222.000000 0.592186 0.468045 -0.655934
14.39999962 2.41000009 0.52999997 79 156 138 0.000000 0.000000 0.000000 0.000000 -60.708740 0.000000 222.000000 -0.280979 -0.003649 0.959707
14.36999989 2.42000008 0.51999998 79 156 138 0.000000 0.000000 0.000000 0.000000 -60.708740 0.000000 222.000000 -0.154950 0.212242 0.964854
14.39000034 2.44000006 0.50999999 79 156 138 0.000000 0.000000 0.000000 0.000000 -60.708740 0.000000 222.000000 -0.465545 0.344789 0.815100
14.38000011 2.39000010 0.51999998 79 156 138 0.000000 0.000000 0.000000 0.000000 -60.708740 0.000000 222.000000 -0.345285 0.518730 0.782111
14.40999985 2.33999991 0.55000001 79 156 138 0.000000 0.000000 0.000000 0.000000 -60.708740 0.000000 222.000000 -0.155165 0.217753 0.963591
14.42000008 2.31999993 0.54000002 79 156 138 0.000000 0.000000 0.000000 0.000000 -60.708740 0.000000 222.000000 -0.365444 0.113602 0.923875
14.39000034 2.34999990 0.54000002 79 156 138 0.000000 0.000000 0.000000 0.000000 -60.708740 0.000000 222.000000 -0.077873 0.336569 0.938433
14.43000031 2.38000011 0.54000002 79 156 138 0.000000 0.000000 0.000000 0.000000 -60.708740 0.000000 222.000000 -0.606272 0.161773 0.778629
14.47000027 2.47000003 0.41000000 79 156 138 0.000000 0.000000 0.000000 0.000000 -60.708740 0.000000 222.000000 -0.297954 0.060102 0.952686
14.39999962 2.45000005 0.38999999 79 156 138 0.000000 0.000000 0.000000 0.000000 -60.708740 0.000000 222.000000 0.001028 0.052451 0.998623
14.42000008 2.34999990 0.31999999 79 156 138 0.000000 0.000000 0.000000 0.000000 -60.708740 0.000000 222.000000 -0.208884 0.325404 0.922215
14.42000008 2.57999992 0.23999999 79 156 138 0.000000 0.000000 0.000000 0.000000 -60.708740 0.000000 222.000000 -0.240899 0.040354 0.969711
14.36999989 2.63000011 0.28000000 79 156 138 0.000000 0.000000 0.000000 0.000000 -60.708740 0.000000 222.000000 -0.293888 -0.044146 0.954820
14.39999962 2.59999990 0.25000000 79 156 138 0.000000 0.000000 0.000000 0.000000 -60.708740 0.000000 222.000000 0.725515 0.152979 -0.670988
14.40999985 2.60999990 0.25999999 79 156 138 0.000000 0.000000 0.000000 0.000000 -60.708740 0.000000 222.000000 -0.399800 -0.340686 0.850937
14.35999966 2.56999993 0.23000000 79 156 138 0.000000 0.000000 0.000000 0.000000 -60.708740 0.000000 222.000000 -0.507409 -0.080564 0.857931
14.39999962 2.47000003 0.31000000 79 156 138 0.000000 0.000000 0.000000 0.000000 -60.708740 0.000000 222.000000 -0.440949 -0.102188 0.891696
14.36999989 2.41000009 0.20000000 79 156 138 0.000000 0.000000 0.000000 0.000000 -60.708740 0.000000 222.000000 -0.113471 0.623352 0.773664
14.39000034 2.31999993 0.27000001 79 156 138 0.000000 0.000000 0.000000 0.000000 -60.708740 0.000000 222.000000 0.024000 0.046957 0.998609
14.40999985 2.39000010 0.28000000 79 156 138 0.000000 0.000000 0.000000 0.000000 -60.708740 0.000000 222.000000 -0.497263 0.141450 0.855992
14.36999989 2.39000010 0.25999999 79 156 138 0.000000 0.000000 0.000000 0.000000 -60.708740 0.000000 222.000000 -0.060817 0.125076 0.990281
14.39999962 2.33999991 0.30000001 79 156 138 0.000000 0.000000 0.000000 0.000000 -60.708740 0.000000 222.000000 -0.159672 0.108480 0.981192
14.60999966 2.18000007 0.51999998 79 156 138 0.000000 0.000000 0.000000 0.000000 -60.708740 0.000000 222.000000 -0.219701 0.208918 0.952935
14.52999973 2.26999998 0.55000001 79 156 138 0.000000 0.000000 0.000000 0.000000 -60.708740 0.000000 222.000000 0.796368 0.144930 -0.587191
14.57999992 2.21000004 0.54000002 79 156 138 0.000000 0.000000 0.000000 0.000000 -60.708740 0.000000 222.000000 -0.337491 0.058637 0.939501
14.59000015 2.22000003 0.54000002 79 156 138 0.000000 0.000000 0.000000 0.000000 -60.708740 0.000000 222.000000 -0.406376 0.066154 0.911308
14.55000019 2.20000005 0.51999998 79 156 138 0.000000 0.000000 0.000000 0.000000 -60.708740 0.000000 222.000000 -0.519410 0.214771 0.827096
14.56000042 2.19000006 0.52999997 79 156 138 0.000000 0.000000 0.000000 0.000000 -60.708740 0.000000 222.000000 -0.397934 0.019571 0.917205
14.56000042 2.19000006 0.52999997 79 156 138 0.000000 0.000000 0.000000 0.000000 -60.708740 0.000000 222.000000 -0.397934 0.019571 0.917205
14.59000015 2.22000003 0.54000002 79 156 138 0.000000 0.000000 0.000000 0.000000 -60.708740 0.000000 222.000000 -0.406376 0.066154 0.911308
14.53999996 2.23000002 0.47999999 79 156 138 0.000000 0.000000 0.000000 0.000000 -60.708740 0.000000 222.000000 -0.148596 -0.082025 0.985490
14.48999977 2.29999995 0.54000002 79 156 138 0.000000 0.000000 0.000000 0.000000 -60.708740 0.000000 222.000000 -0.344795 -0.121291 0.930809
14.48999977 2.30999994 0.55000001 79 156 138 0.000000 0.000000 0.000000 0.000000 -60.708740 0.000000 222.000000 -0.274052 -0.035962 0.961042
14.40999985 2.30999994 0.51999998 79 156 138 0.000000 0.000000 0.000000 0.000000 -60.708740 0.000000 222.000000 -0.157507 0.384545 0.909570
14.56000042 2.25999999 0.28000000 79 156 138 0.000000 0.000000 0.000000 0.000000 -60.708740 0.000000 222.000000 -0.117128 0.376188 0.919110
14.43999958 2.30999994 0.25000000 79 156 138 0.000000 0.000000 0.000000 0.000000 -60.708740 0.000000 222.000000 -0.009814 0.114494 0.993375
14.44999981 2.29999995 0.25000000 79 156 138 0.000000 0.000000 0.000000 0.000000 -60.708740 0.000000 222.000000 0.001152 0.199215 0.979955
14.44999981 2.25000000 0.28999999 79 156 138 0.000000 0.000000 0.000000 0.000000 -60.708740 0.000000 222.000000 -0.475884 0.382320 0.792064
14.35999966 2.28999996 0.25999999 79 156 138 0.000000 0.000000 0.000000 0.000000 -60.708740 0.000000 222.000000 -0.289476 0.331042 0.898117
14.39000034 2.23000002 0.25000000 79 156 138 0.000000 0.000000 0.000000 0.000000 -60.708740 0.000000 222.000000 -0.058565 0.033009 0.997738
14.39999962 2.25999999 0.25999999 79 156 138 0.000000 0.000000 0.000000 0.000000 -60.708740 0.000000 222.000000 0.092226 0.050002 0.994482
14.36999989 2.30999994 0.25000000 79 156 138 0.000000 0.000000 0.000000 0.000000 -60.708740 0.000000 222.000000 -0.165231 0.323520 0.931683
14.30000019 2.63000011 0.66000003 79 156 138 0.000000 0.000000 0.000000 0.000000 -60.708740 0.000000 222.000000 0.269102 0.286371 0.919552
14.28999996 2.81999993 0.56000000 79 156 138 0.000000 0.000000 0.000000 0.000000 -60.708740 0.000000 222.000000 0.376855 0.653326 0.656617
14.18999958 2.93000007 0.55000001 79 156 138 0.000000 0.000000 0.000000 0.000000 -60.708740 0.000000 222.000000 0.174785 0.782734 0.597309
14.25000000 2.90000010 0.50999999 79 156 138 0.000000 0.000000 0.000000 0.000000 -60.708740 0.000000 222.000000 0.689507 0.420350 0.589819
14.22000027 2.85999990 0.57999998 79 156 138 0.000000 0.000000 0.000000 0.000000 -60.708740 0.000000 222.000000 0.073999 0.706618 0.703716
14.26000023 2.89000010 0.51999998 79 156 138 0.000000 0.000000 0.000000 0.000000 -60.708740 0.000000 222.000000 0.503014 0.634235 0.587130
14.21000004 2.83999991 0.50999999 79 156 138 0.000000 0.000000 0.000000 0.000000 -60.708740 0.000000 222.000000 0.484471 0.707560 0.514438
14.31000042 2.85999990 0.31999999 79 156 138 0.000000 0.000000 0.000000 0.000000 -60.708740 0.000000 222.000000 0.734902 0.303931 -0.606254
14.35000038 2.91000009 0.33000001 79 156 138 0.000000 0.000000 0.000000 0.000000 -60.708740 0.000000 222.000000 0.674631 0.206267 -0.708750
14.31000042 2.77999997 0.56999999 79 156 138 0.000000 0.000000 0.000000 0.000000 -60.708740 0.000000 222.000000 0.543127 0.482965 0.686846
14.34000015 2.80999994 0.61000001 79 156 138 0.000000 0.000000 0.000000 0.000000 -60.708740 0.000000 222.000000 0.583434 0.539465 0.607110
14.32999992 2.71000004 0.63000000 79 156 138 0.000000 0.000000 0.000000 0.000000 -60.708740 0.000000 222.000000 0.560185 0.316208 0.765640
14.35000038 2.69000006 0.62000000 79 156 138 0.000000 0.000000 0.000000 0.000000 -60.708740 0.000000 222.000000 0.285780 0.826108 0.485670
14.28999996 2.65000010 0.64999998 79 156 138 0.000000 0.000000 0.000000 0.000000 -60.708740 0.000000 222.000000 0.440875 0.249981 0.862055
14.35000038 2.65000010 0.50000000 79 156 138 0.000000 0.000000 0.000000 0.000000 -60.708740 0.000000 222.000000 0.679600 0.569395 -0.462529
14.27000046 2.77999997 0.57999998 79 156 138 0.000000 0.000000 0.000000 0.000000 -60.708740 0.000000 222.000000 0.297992 0.684577 0.665248
14.27000046 2.79999995 0.56999999 79 156 138 0.000000 0.000000 0.000000 0.000000 -60.708740 0.000000 222.000000 0.110985 0.658512 0.744341
14.23999977 2.75999999 0.63000000 79 156 138 0.000000 0.000000 0.000000 0.000000 -60.708740 0.000000 222.000000 0.140574 0.317997 0.937612
14.27000046 2.74000001 0.62000000 79 156 138 0.000000 0.000000 0.000000 0.000000 -60.708740 0.000000 222.000000 0.476381 0.408094 0.778794
14.27000046 2.75999999 0.61000001 79 156 138 0.000000 0.000000 0.000000 0.000000 -60.708740 0.000000 222.000000 0.641895 0.333135 0.690646
14.26000023 2.75000000 0.62000000 79 156 138 0.000000 0.000000 0.000000 0.000000 -60.708740 0.000000 222.000000 0.095919 0.519682 0.848958
14.27000046 2.75999999 0.61000001 79 156 138 0.000000 0.000000 0.000000 0.000000 -60.708740 0.000000 222.000000 0.641895 0.333135 0.690646
14.21000004 2.78999996 0.60000002 79 156 138 0.000000 0.000000 0.000000 0.000000 -60.708740 0.000000 222.000000 0.493994 0.206964 0.844473
14.21000004 2.76999998 0.63000000 79 156 138 0.000000 0.000000 0.000000 0.000000 -60.708740 0.000000 222.000000 0.120274 0.374646 0.919334
14.18999958 2.77999997 0.54000002 79 156 138 0.000000 0.000000 0.000000 0.000000 -60.708740 0.000000 222.000000 0.195073 0.310153 0.930458
14.22000027 2.80999994 0.56000000 79 156 138 0.000000 0.000000 0.000000 0.000000 -60.708740 0.000000 222.000000 0.168724 0.297668 0.939642
14.26000023 2.72000003 0.63000000 79 156 138 0.000000 0.000000 0.000000 0.000000 -60.708740 0.000000 222.000000 0.225076 0.078342 0.971186
14.26000023 2.70000005 0.62000000 79 156 138 0.000000 0.000000 0.000000 0.000000 -60.708740 0.000000 222.000000 0.114412 0.077430 0.990411
14.22999954 2.67000008 0.62000000 79 156 138 0.000000 0.000000 0.000000 0.000000 -60.708740 0.000000 222.000000 -0.182573 0.425030 0.886576
14.19999981 2.67000008 0.61000001 79 156 138 0.000000 0.000000 0.000000 0.000000 -60.708740 0.000000 222.000000 0.049537 0.413698 0.909065
14.18999958 2.66000009 0.60000002 79 156 138 0.000000 0.000000 0.000000 0.000000 -60.708740 0.000000 222.000000 -0.497074 0.039711 0.866799
14.18000031 2.77999997 0.63000000 79 156 138 0.000000 0.000000 0.000000 0.000000 -60.708740 0.000000 222.000000 -0.321231 0.336312 0.885271
14.17000008 2.77999997 0.57999998 79 156 138 0.000000 0.000000 0.000000 0.000000 -60.708740 0.000000 222.000000 -0.133550 0.091003 0.986855
14.10999966 2.67000008 0.58999997 79 156 138 0.000000 0.000000 0.000000 0.000000 -60.708740 0.000000 222.000000 0.796079 0.357194 -0.488539
14.18000031 2.68000007 0.60000002 79 156 138 0.000000 0.000000 0.000000 0.000000 -60.708740 0.000000 222.000000 -0.198037 0.122354 0.972528
14.14999962 2.70000005 0.63000000 79 156 138 0.000000 0.000000 0.000000 0.000000 -60.708740 0.000000 222.000000 -0.313934 0.016260 0.949306
14.18000031 2.73000002 0.63999999 79 156 138 0.000000 0.000000 0.000000 0.000000 -60.708740 0.000000 222.000000 -0.217427 0.233836 0.947653
14.10999966 2.69000006 0.31999999 79 156 138 0.000000 0.000000 0.000000 0.000000 -60.708740 0.000000 222.000000 -0.068631 0.394289 0.916420
14.13000011 2.71000004 0.34999999 79 156 138 0.000000 0.000000 0.000000 0.000000 -60.708740 0.000000 222.000000 0.019099 0.345052 0.938389
14.30000019 2.90000010 0.28999999 79 156 138 0.000000 0.000000 0.000000 0.000000 -60.708740 0.000000 222.000000 -0.558076 -0.054824 0.827977
14.32999992 2.67000008 0.28999999 79 156 138 0.000000 0.000000 0.000000 0.000000 -60.708740 0.000000 222.000000 -0.458089 0.047576 0.887632
14.25000000 2.70000005 0.31000000 79 156 138 0.000000 0.000000 0.000000 0.000000 -60.708740 0.000000 222.000000 -0.145123 0.123172 0.981717
14.06000042 2.69000006 0.30000001 79 156 138 0.000000 0.000000 0.000000 0.000000 -60.708740 0.000000 222.000000 0.444373 0.203609 0.872397
14.07999992 2.73000002 0.28999999 79 156 138 0.000000 0.000000 0.000000 0.000000 -60.708740 0.000000 222.000000 0.392374 0.563114 0.727287
14.06000042 2.71000004 0.31000000 79 156 138 0.000000 0.000000 0.000000 0.000000 -60.708740 0.000000 222.000000 0.338460 0.416446 0.843811
14.06000042 2.69000006 0.30000001 79 156 138 0.000000 0.000000 0.000000 0.000000 -60.708740 0.000000 222.000000 0.444373 0.203609 0.872397
14.06999969 2.71000004 0.31000000 79 156 138 0.000000 0.000000 0.000000 0.000000 -60.708740 0.000000 222.000000 0.080564 0.507409 0.857931
14.34000015 2.61999989 0.57999998 79 156 138 0.000000 0.000000 0.000000 0.000000 -60.708740 0.000000 222.000000 0.634356 0.757913 0.152185
14.27999973 2.56999993 0.49000001 79 156 138 0.000000 0.000000 0.000000 0.000000 -60.708740 0.000000 222.000000 -0.259717 0.336017 0.905340
14.27999973 2.64000010 0.54000002 79 156 138 0.000000 0.000000 0.000000 0.000000 -60.708740 0.000000 222.000000 0.459313 0.509058 0.727936
14.31000042 2.58999991 0.51999998 79 156 138 0.000000 0.000000 0.000000 0.000000 -60.708740 0.000000 222.000000 0.918562 0.390221 0.063025
14.28999996 2.61999989 0.54000002 79 156 138 0.000000 0.000000 0.000000 0.000000 -60.708740 0.000000 222.000000 0.619808 0.351606 0.701577
14.35000038 2.53999996 0.51999998 79 156 138 0.000000 0.000000 0.000000 0.000000 -60.708740 0.000000 222.000000 0.583935 0.556854 -0.590706
14.25000000 2.64000010 0.61000001 79 156 138 0.000000 0.000000 0.000000 0.000000 -60.708740 0.000000 222.000000 -0.229828 0.636327 0.736388
14.27000046 2.60999990 0.62000000 79 156 138 0.000000 0.000000 0.000000 0.000000 -60.708740 0.000000 222.000000 -0.061651 0.635151 0.769924
14.26000023 2.64000010 0.63999999 79 156 138 0.000000 0.000000 0.000000 0.000000 -60.708740 0.000000 222.000000 -0.407543 0.323865 0.853827
14.18999958 2.63000011 0.61000001 79 156 138 0.000000 0.000000 0.000000 0.000000 -60.708740 0.000000 222.000000 -0.545914 0.026127 0.837434
14.21000004 2.59999990 0.61000001 79 156 138 0.000000 0.000000 0.000000 0.000000 -60.708740 0.000000 222.000000 -0.434530 0.135345 0.890430
14.21000004 2.54999995 0.57999998 79 156 138 0.000000 0.000000 0.000000 0.000000 -60.708740 0.000000 222.000000 0.858000 0.394216 -0.329286
14.18999958 2.54999995 0.49000001 79 156 138 0.000000 0.000000 0.000000 0.000000 -60.708740 0.000000 222.000000 0.783315 0.317474 0.534441
14.22000027 2.49000001 0.51999998 79 156 138 0.000000 0.000000 0.000000 0.000000 -60.708740 0.000000 222.000000 0.905147 0.423997 0.030570
14.22000027 2.50999999 0.50000000 79 156 138 0.000000 0.000000 0.000000 0.000000 -60.708740 0.000000 222.000000 0.913410 0.208574 0.349541
14.22000027 2.48000002 0.51999998 79 156 138 0.000000 0.000000 0.000000 0.000000 -60.708740 0.000000 222.000000 0.820071 0.571982 -0.017918
14.18999958 2.48000002 0.50000000 79 156 138 0.000000 0.000000 0.000000 0.000000 -60.708740 0.000000 222.000000 0.677487 0.638117 0.365810
14.31999969 2.61999989 0.47999999 79 156 138 0.000000 0.000000 0.000000 0.000000 -60.708740 0.000000 222.000000 0.634398 0.621007 -0.460315
14.35000038 2.61999989 0.41999999 79 156 138 0.000000 0.000000 0.000000 0.000000 -60.708740 0.000000 222.000000 -0.425963 0.066684 0.902280
14.34000015 2.60999990 0.41000000 79 156 138 0.000000 0.000000 0.000000 0.000000 -60.708740 0.000000 222.000000 -0.463614 0.020041 0.885810
14.31999969 2.52999997 0.46000001 79 156 138 0.000000 0.000000 0.000000 0.000000 -60.708740 0.000000 222.000000 -0.429359 0.173199 0.886371
14.31000042 2.50000000 0.34999999 79 156 138 0.000000 0.000000 0.000000 0.000000 -60.708740 0.000000 222.000000 -0.213906 0.032265 0.976321
14.31000042 2.52999997 0.31999999 79 156 138 0.000000 0.000000 0.000000 0.000000 -60.708740 0.000000 222.000000 -0.369489 0.314750 0.874306
14.25000000 2.50999999 0.41000000 79 156 138 0.000000 0.000000 0.000000 0.000000 -60.708740 0.000000 222.000000 0.166318 0.271788 0.947876
14.25000000 2.49000001 0.43000001 79 156 138 0.000000 0.000000 0.000000 0.000000 -60.708740 0.000000 222.000000 0.215917 0.143514 0.965807
14.27000046 2.49000001 0.40000001 79 156 138 0.000000 0.000000 0.000000 0.000000 -60.708740 0.000000 222.000000 0.133279 0.391421 0.910509
14.25000000 2.50999999 0.41000000 79 156 138 0.000000 0.000000 0.000000 0.000000 -60.708740 0.000000 222.000000 0.166318 0.271788 0.947876
14.19999981 2.52999997 0.47999999 79 156 138 0.000000 0.000000 0.000000 0.000000 -60.708740 0.000000 222.000000 0.620430 0.402039 0.673373
14.25000000 2.48000002 0.36000001 79 156 138 0.000000 0.000000 0.000000 0.000000 -60.708740 0.000000 222.000000 0.099671 0.220790 0.970215
14.22999954 2.51999998 0.31999999 79 156 138 0.000000 0.000000 0.000000 0.000000 -60.708740 0.000000 222.000000 0.131872 0.032686 0.990728
14.21000004 2.48000002 0.33000001 79 156 138 0.000000 0.000000 0.000000 0.000000 -60.708740 0.000000 222.000000 0.326576 0.767374 0.551802
14.31000042 2.44000006 0.50000000 79 156 138 0.000000 0.000000 0.000000 0.000000 -60.708740 0.000000 222.000000 0.106491 0.104150 0.988844
14.34000015 2.44000006 0.49000001 79 156 138 0.000000 0.000000 0.000000 0.000000 -60.708740 0.000000 222.000000 0.081383 0.003171 0.996678
14.27999973 2.35999990 0.49000001 79 156 138 0.000000 0.000000 0.000000 0.000000 -60.708740 0.000000 222.000000 0.701783 0.650394 0.290670
14.31000042 2.35999990 0.56000000 79 156 138 0.000000 0.000000 0.000000 0.000000 -60.708740 0.000000 222.000000 0.555487 0.609516 0.565618
14.25000000 2.45000005 0.50000000 79 156 138 0.000000 0.000000 0.000000 0.000000 -60.708740 0.000000 222.000000 0.820443 0.505966 0.266216
14.27000046 2.45000005 0.49000001 79 156 138 0.000000 0.000000 0.000000 0.000000 -60.708740 0.000000 222.000000 0.642977 0.592613 0.485171
14.23999977 2.44000006 0.50999999 79 156 138 0.000000 0.000000 0.000000 0.000000 -60.708740 0.000000 222.000000 0.829200 0.412231 0.377483
14.23999977 2.45000005 0.50000000 79 156 138 0.000000 0.000000 0.000000 0.000000 -60.708740 0.000000 222.000000 0.561431 0.344625 0.752349
14.22999954 2.41000009 0.56000000 79 156 138 0.000000 0.000000 0.000000 0.000000 -60.708740 0.000000 222.000000 0.874210 0.455409 0.168399
14.19999981 2.47000003 0.49000001 79 156 138 0.000000 0.000000 0.000000 0.000000 -60.708740 0.000000 222.000000 0.712500 0.529808 0.460052
14.22000027 2.40000010 0.56000000 79 156 138 0.000000 0.000000 0.000000 0.000000 -60.708740 0.000000 222.000000 0.944304 0.284790 0.164878
14.28999996 2.40000010 0.47000000 79 156 138 0.000000 0.000000 0.000000 0.000000 -60.708740 0.000000 222.000000 0.236879 0.311531 0.920237
14.31999969 2.41000009 0.47999999 79 156 138 0.000000 0.000000 0.000000 0.000000 -60.708740 0.000000 222.000000 0.331593 0.412545 0.848441
14.22999954 2.45000005 0.47999999 79 156 138 0.000000 0.000000 0.000000 0.000000 -60.708740 0.000000 222.000000 0.654808 0.618152 0.434873
14.25000000 2.44000006 0.44000000 79 156 138 0.000000 0.000000 0.000000 0.000000 -60.708740 0.000000 222.000000 0.716628 0.460571 0.523754
14.22000027 2.44000006 0.41999999 79 156 138 0.000000 0.000000 0.000000 0.000000 -60.708740 0.000000 222.000000 0.337544 0.503916 0.795068
14.22999954 2.47000003 0.34999999 79 156 138 0.000000 0.000000 0.000000 0.000000 -60.708740 0.000000 222.000000 0.238402 0.084513 0.967482
14.18999958 2.44000006 0.34999999 79 156 138 0.000000 0.000000 0.000000 0.000000 -60.708740 0.000000 222.000000 0.334107 0.352415 0.874172
14.21000004 2.47000003 0.34000000 79 156 138 0.000000 0.000000 0.000000 0.000000 -60.708740 0.000000 222.000000 0.320082 0.564566 0.760797
14.18999958 2.40000010 0.34000000 79 156 138 0.000000 0.000000 0.000000 0.000000 -60.708740 0.000000 222.000000 0.489142 0.749358 0.446321
14.25000000 2.35999990 0.47000000 79 156 138 0.000000 0.000000 0.000000 0.000000 -60.708740 0.000000 222.000000 0.676349 0.251849 0.692188
14.19999981 2.38000011 0.34000000 79 156 138 0.000000 0.000000 0.000000 0.000000 -60.708740 0.000000 222.000000 0.374400 0.187917 0.908027
14.21000004 2.38000011 0.34000000 79 156 138 0.000000 0.000000 0.000000 0.000000 -60.708740 0.000000 222.000000 0.017538 0.492426 0.870178
14.15999985 2.59999990 0.61000001 79 156 138 0.000000 0.000000 0.000000 0.000000 -60.708740 0.000000 222.000000 0.881261 0.076571 -0.466386
14.18000031 2.64000010 0.61000001 79 156 138 0.000000 0.000000 0.000000 0.000000 -60.708740 0.000000 222.000000 -0.376734 0.040693 0.925427
14.10999966 2.64000010 0.58999997 79 156 138 0.000000 0.000000 0.000000 0.000000 -60.708740 0.000000 222.000000 -0.596423 0.119285 0.793758
14.18000031 2.61999989 0.54000002 79 156 138 0.000000 0.000000 0.000000 0.000000 -60.708740 0.000000 222.000000 0.861767 0.439243 -0.253818
14.17000008 2.55999994 0.58999997 79 156 138 0.000000 0.000000 0.000000 0.000000 -60.708740 0.000000 222.000000 0.787618 0.015226 -0.615975
14.06000042 2.48000002 0.54000002 79 156 138 0.000000 0.000000 0.000000 0.000000 -60.708740 0.000000 222.000000 0.822119 0.543587 -0.169216
14.02000046 2.48000002 0.51999998 79 156 138 0.000000 0.000000 0.000000 0.000000 -60.708740 0.000000 222.000000 0.744998 0.597601 0.296397
14.14999962 2.63000011 0.31999999 79 156 138 0.000000 0.000000 0.000000 0.000000 -60.708740 0.000000 222.000000 0.048442 0.513485 0.856730
14.10999966 2.61999989 0.33000001 79 156 138 0.000000 0.000000 0.000000 0.000000 -60.708740 0.000000 222.000000 0.030726 0.442187 0.896397
14.14000034 2.59999990 0.34000000 79 156 138 0.000000 0.000000 0.000000 0.000000 -60.708740 0.000000 222.000000 -0.003876 0.406974 0.913431
14.14999962 2.61999989 0.31999999 79 156 138 0.000000 0.000000 0.000000 0.000000 -60.708740 0.000000 222.000000 0.057443 0.218772 0.974084
14.18000031 2.57999992 0.34000000 79 156 138 0.000000 0.000000 0.000000 0.000000 -60.708740 0.000000 222.000000 0.291354 0.138293 0.946566
14.10999966 2.48000002 0.41000000 79 156 138 0.000000 0.000000 0.000000 0.000000 -60.708740 0.000000 222.000000 0.668456 0.736335 0.104769
14.18000031 2.48000002 0.38000000 79 156 138 0.000000 0.000000 0.000000 0.000000 -60.708740 0.000000 222.000000 0.049982 0.738304 0.672614
14.14000034 2.52999997 0.36000001 79 156 138 0.000000 0.000000 0.000000 0.000000 -60.708740 0.000000 222.000000 0.466786 0.664208 0.583900
14.18000031 2.44000006 0.54000002 79 156 138 0.000000 0.000000 0.000000 0.000000 -60.708740 0.000000 222.000000 0.711888 0.634754 -0.300504
14.10999966 2.47000003 0.41999999 79 156 138 0.000000 0.000000 0.000000 0.000000 -60.708740 0.000000 222.000000 0.542152 0.676431 0.498511
14.13000011 2.47000003 0.34999999 79 156 138 0.000000 0.000000 0.000000 0.000000 -60.708740 0.000000 222.000000 0.616579 0.669761 0.413823
14.11999989 2.42000008 0.36000001 79 156 138 0.000000 0.000000 0.000000 0.000000 -60.708740 0.000000 222.000000 0.723031 0.441761 0.531105
14.14000034 2.39000010 0.37000000 79 156 138 0.000000 0.000000 0.000000 0.000000 -60.708740 0.000000 222.000000 0.488051 0.285346 0.824854
14.13000011 2.35999990 0.31999999 79 156 138 0.000000 0.000000 0.000000 0.000000 -60.708740 0.000000 222.000000 0.256331 0.765849 0.589720
14.34000015 2.63000011 0.28999999 79 156 138 0.000000 0.000000 0.000000 0.000000 -60.708740 0.000000 222.000000 -0.323069 -0.244837 0.914156
14.31999969 2.56999993 0.22000000 79 156 138 0.000000 0.000000 0.000000 0.000000 -60.708740 0.000000 222.000000 -0.232044 -0.150763 0.960951
14.32999992 2.52999997 0.25000000 79 156 138 0.000000 0.000000 0.000000 0.000000 -60.708740 0.000000 222.000000 -0.258760 0.082854 0.962382
14.30000019 2.50000000 0.31000000 79 156 138 0.000000 0.000000 0.000000 0.000000 -60.708740 0.000000 222.000000 0.063875 0.009424 0.997913
14.28999996 2.53999996 0.20999999 79 156 138 0.000000 0.000000 0.000000 0.000000 -60.708740 0.000000 222.000000 -0.310657 0.448034 0.838307
14.22999954 2.53999996 0.23999999 79 156 138 0.000000 0.000000 0.000000 0.000000 -60.708740 0.000000 222.000000 0.118670 0.097521 0.988133
14.23999977 2.52999997 0.18000001 79 156 138 0.000000 0.000000 0.000000 0.000000 -60.708740 0.000000 222.000000 -0.029605 0.351393 0.935760
14.22999954 2.55999994 0.16000000 79 156 138 0.000000 0.000000 0.000000 0.000000 -60.708740 0.000000 222.000000 0.046552 0.123761 0.991220
14.35000038 2.46000004 0.31000000 79 156 138 0.000000 0.000000 0.000000 0.000000 -60.708740 0.000000 222.000000 0.191993 0.420626 0.886686
14.31999969 2.43000007 0.30000001 79 156 138 0.000000 0.000000 0.000000 0.000000 -60.708740 0.000000 222.000000 0.115239 0.459533 0.880653
14.34000015 2.42000008 0.27000001 79 156 138 0.000000 0.000000 0.000000 0.000000 -60.708740 0.000000 222.000000 -0.187727 0.331698 0.924519
14.31999969 2.41000009 0.25999999 79 156 138 0.000000 0.000000 0.000000 0.000000 -60.708740 0.000000 222.000000 0.161393 0.604847 0.779815
14.34000015 2.43000007 0.25999999 79 156 138 0.000000 0.000000 0.000000 0.000000 -60.708740 0.000000 222.000000 -0.399176 0.506709 0.764137
14.32999992 2.40000010 0.27000001 79 156 138 0.000000 0.000000 0.000000 0.000000 -60.708740 0.000000 222.000000 -0.167227 0.281430 0.944898
14.31999969 2.40000010 0.18000001 79 156 138 0.000000 0.000000 0.000000 0.000000 -60.708740 0.000000 222.000000 0.263158 0.153620 0.952444
14.35000038 2.38000011 0.22000000 79 156 138 0.000000 0.000000 0.000000 0.000000 -60.708740 0.000000 222.000000 0.266226 0.184310 0.946126
14.31000042 2.38000011 0.22000000 79 156 138 0.000000 0.000000 0.000000 0.000000 -60.708740 0.000000 222.000000 -0.339061 0.488693 0.803876
14.26000023 2.46000004 0.18000001 79 156 138 0.000000 0.000000 0.000000 0.000000 -60.708740 0.000000 222.000000 -0.018072 0.632529 0.774326
14.22000027 2.41000009 0.20999999 79 156 138 0.000000 0.000000 0.000000 0.000000 -60.708740 0.000000 222.000000 0.353305 0.264609 0.897306
14.22999954 2.46000004 0.17000000 79 156 138 0.000000 0.000000 0.000000 0.000000 -60.708740 0.000000 222.000000 -0.230242 0.177007 0.956900
14.26000023 2.31999993 0.25999999 79 156 138 0.000000 0.000000 0.000000 0.000000 -60.708740 0.000000 222.000000 0.237699 0.205100 0.949438
14.13000011 2.55999994 0.25999999 79 156 138 0.000000 0.000000 0.000000 0.000000 -60.708740 0.000000 222.000000 0.043680 0.607289 0.793280
14.14000034 2.41000009 0.23999999 79 156 138 0.000000 0.000000 0.000000 0.000000 -60.708740 0.000000 222.000000 -0.020644 0.565649 0.824388
14.14000034 2.42000008 0.23000000 79 156 138 0.000000 0.000000 0.000000 0.000000 -60.708740 0.000000 222.000000 0.058884 0.673576 0.736769
14.14000034 2.40000010 0.20999999 79 156 138 0.000000 0.000000 0.000000 0.000000 -60.708740 0.000000 222.000000 0.439476 0.650023 0.619945
13.97999954 2.70000005 0.30000001 79 156 138 0.000000 0.000000 0.000000 0.000000 -60.708740 0.000000 222.000000 0.546136 0.768457 0.333481
14.00000000 2.49000001 0.50000000 79 156 138 0.000000 0.000000 0.000000 0.000000 -60.708740 0.000000 222.000000 0.854385 0.503348 0.129101
14.01000023 2.52999997 0.52999997 79 156 138 0.000000 0.000000 0.000000 0.000000 -60.708740 0.000000 222.000000 0.733414 0.426864 -0.529047
13.92000008 2.53999996 0.52999997 79 156 138 0.000000 0.000000 0.000000 0.000000 -60.708740 0.000000 222.000000 0.714038 0.467703 -0.520965
14.00000000 2.41000009 0.61000001 79 156 138 0.000000 0.000000 0.000000 0.000000 -60.708740 0.000000 222.000000 0.908513 0.181703 -0.376282
13.93999958 2.43000007 0.60000002 79 156 138 0.000000 0.000000 0.000000 0.000000 -60.708740 0.000000 222.000000 0.960106 0.134913 -0.244938
13.96000004 2.47000003 0.63999999 79 156 138 0.000000 0.000000 0.000000 0.000000 -60.708740 0.000000 222.000000 0.934923 0.276132 -0.222868
13.93000031 2.45000005 0.62000000 79 156 138 0.000000 0.000000 0.000000 0.000000 -60.708740 0.000000 222.000000 0.895185 0.413717 -0.165775
14.35000038 2.27999997 0.54000002 79 156 138 0.000000 0.000000 0.000000 0.000000 -60.708740 0.000000 222.000000 0.558612 0.163240 0.813207
14.60000038 2.72000003 0.67000002 79 156 138 0.000000 0.000000 0.000000 0.000000 -60.708740 0.000000 222.000000 0.789426 0.585605 0.184047
14.65999985 2.68000007 0.57999998 79 156 138 0.000000 0.000000 0.000000 0.000000 -60.708740 0.000000 222.000000 0.886700 0.416146 0.201456
14.43999958 2.74000001 0.63000000 79 156 138 0.000000 0.000000 0.000000 0.000000 -60.708740 0.000000 222.000000 0.646159 0.762100 0.041004
14.47000027 2.79999995 0.25999999 79 156 138 0.000000 0.000000 0.000000 0.000000 -60.708740 0.000000 222.000000 -0.630542 0.107295 0.768703
14.46000004 2.68000007 0.28000000 79 156 138 0.000000 0.000000 0.000000 0.000000 -60.708740 0.000000 222.000000 0.774014 -0.151797 -0.614703
14.36999989 2.79999995 0.28999999 79 156 138 0.000000 0.000000 0.000000 0.000000 -60.708740 0.000000 222.000000 0.620681 0.395581 -0.676957
14.38000011 2.78999996 0.30000001 79 156 138 0.000000 0.000000 0.000000 0.000000 -60.708740 0.000000 222.000000 0.955504 0.013562 -0.294665
14.38000011 2.65000010 0.28000000 79 156 138 0.000000 0.000000 0.000000 0.000000 -60.708740 0.000000 222.000000 -0.246980 -0.166878 0.954543
14.61999989 2.40000010 0.55000001 79 156 138 0.000000 0.000000 0.000000 0.000000 -60.708740 0.000000 222.000000 0.767053 0.171638 -0.618199
14.55000019 2.38000011 0.62000000 79 156 138 0.000000 0.000000 0.000000 0.000000 -60.708740 0.000000 222.000000 0.852522 0.463492 -0.241624
14.59000015 2.39000010 0.55000001 79 156 138 0.000000 0.000000 0.000000 0.000000 -60.708740 0.000000 222.000000 0.927083 0.351272 -0.130866
14.46000004 2.60999990 0.63999999 79 156 138 0.000000 0.000000 0.000000 0.000000 -60.708740 0.000000 222.000000 0.420303 0.662850 0.619657
14.39000034 2.61999989 0.63000000 79 156 138 0.000000 0.000000 0.000000 0.000000 -60.708740 0.000000 222.000000 0.856104 0.373094 0.357613
14.43000031 2.52999997 0.62000000 79 156 138 0.000000 0.000000 0.000000 0.000000 -60.708740 0.000000 222.000000 0.923739 0.358693 0.134337
14.42000008 2.57999992 0.43000001 79 156 138 0.000000 0.000000 0.000000 0.000000 -60.708740 0.000000 222.000000 -0.505061 -0.234876 0.830510
14.35999966 2.50999999 0.46000001 79 156 138 0.000000 0.000000 0.000000 0.000000 -60.708740 0.000000 222.000000 -0.130217 0.037367 0.990781
14.48999977 2.31999993 0.52999997 79 156 138 0.000000 0.000000 0.000000 0.000000 -60.708740 0.000000 222.000000 -0.350857 -0.048259 0.935185
14.36999989 2.41000009 0.51999998 79 156 138 0.000000 0.000000 0.000000 0.000000 -60.708740 0.000000 222.000000 -0.139419 0.071467 0.987651
14.38000011 2.46000004 0.50000000 79 156 138 0.000000 0.000000 0.000000 0.000000 -60.708740 0.000000 222.000000 -0.443710 0.058706 0.894246
14.39999962 2.45000005 0.51999998 79 156 138 0.000000 0.000000 0.000000 0.000000 -60.708740 0.000000 222.000000 0.712942 -0.146206 -0.685811
14.43000031 2.43000007 0.50999999 79 156 138 0.000000 0.000000 0.000000 0.000000 -60.708740 0.000000 222.000000 -0.473984 0.082493 0.876661
14.39000034 2.33999991 0.55000001 79 156 138 0.000000 0.000000 0.000000 0.000000 -60.708740 0.000000 222.000000 -0.028348 0.047247 0.998481
14.46000004 2.43000007 0.41999999 79 156 138 0.000000 0.000000 0.000000 0.000000 -60.708740 0.000000 222.000000 0.746076 0.175458 -0.642327
14.46000004 2.43000007 0.41000000 79 156 138 0.000000 0.000000 0.000000 0.000000 -60.708740 0.000000 222.000000 -0.689308 0.092200 0.718578
14.36999989 2.60999990 0.27000001 79 156 138 0.000000 0.000000 0.000000 0.000000 -60.708740 0.000000 222.000000 -0.432948 -0.294281 0.852030
14.35999966 2.58999991 0.25999999 79 156 138 0.000000 0.000000 0.000000 0.000000 -60.708740 0.000000 222.000000 -0.190148 0.211424 0.958720
14.35999966 2.51999998 0.23000000 79 156 138 0.000000 0.000000 0.000000 0.000000 -60.708740 0.000000 222.000000 0.482350 -0.271419 -0.832869
14.35999966 2.44000006 0.19000000 79 156 138 0.000000 0.000000 0.000000 0.000000 -60.708740 0.000000 222.000000 -0.198324 -0.022297 0.979883
14.38000011 2.45000005 0.17000000 79 156 138 0.000000 0.000000 0.000000 0.000000 -60.708740 0.000000 222.000000 -0.153735 0.487558 0.859449
14.38000011 2.38000011 0.31000000 79 156 138 0.000000 0.000000 0.000000 0.000000 -60.708740 0.000000 222.000000 -0.220245 -0.065212 0.973262
14.63000011 2.25000000 0.50999999 79 156 138 0.000000 0.000000 0.000000 0.000000 -60.708740 0.000000 222.000000 0.685896 -0.009739 -0.727634
14.57999992 2.20000005 0.54000002 79 156 138 0.000000 0.000000 0.000000 0.000000 -60.708740 0.000000 222.000000 -0.230526 0.091958 0.968711
14.51000023 2.26999998 0.52999997 79 156 138 0.000000 0.000000 0.000000 0.000000 -60.708740 0.000000 222.000000 -0.663228 0.032387 0.747716
14.50000000 2.26999998 0.55000001 79 156 138 0.000000 0.000000 0.000000 0.000000 -60.708740 0.000000 222.000000 -0.511245 0.039963 0.858505
14.47000027 2.29999995 0.52999997 79 156 138 0.000000 0.000000 0.000000 0.000000 -60.708740 0.000000 222.000000 -0.103701 -0.018557 0.994435
14.40999985 2.24000001 0.52999997 79 156 138 0.000000 0.000000 0.000000 0.000000 -60.708740 0.000000 222.000000 0.129452 0.614527 0.778202
14.47000027 2.28999996 0.25999999 79 156 138 0.000000 0.000000 0.000000 0.000000 -60.708740 0.000000 222.000000 -0.530098 0.325106 0.783136
14.43000031 2.28999996 0.27000001 79 156 138 0.000000 0.000000 0.000000 0.000000 -60.708740 0.000000 222.000000 -0.012671 0.185456 0.982571
14.34000015 2.66000009 0.69000000 79 156 138 0.000000 0.000000 0.000000 0.000000 -60.708740 0.000000 222.000000 0.099028 0.529585 0.842457
14.32999992 2.66000009 0.69000000 79 156 138 0.000000 0.000000 0.000000 0.000000 -60.708740 0.000000 222.000000 0.354030 0.605277 0.712954
14.21000004 2.91000009 0.56000000 79 156 138 0.000000 0.000000 0.000000 0.000000 -60.708740 0.000000 222.000000 0.558275 0.458286 0.691595
14.21000004 2.84999990 0.57999998 79 156 138 0.000000 0.000000 0.000000 0.000000 -60.708740 0.000000 222.000000 0.051938 0.560091 0.826801
14.31999969 2.72000003 0.62000000 79 156 138 0.000000 0.000000 0.000000 0.000000 -60.708740 0.000000 222.000000 0.385226 0.765576 0.515261
14.27000046 2.74000001 0.62000000 79 156 138 0.000000 0.000000 0.000000 0.000000 -60.708740 0.000000 222.000000 0.476381 0.408094 0.778794
14.22999954 2.75999999 0.57999998 79 156 138 0.000000 0.000000 0.000000 0.000000 -60.708740 0.000000 222.000000 0.139780 0.656815 0.740983
14.21000004 2.77999997 0.56000000 79 156 138 0.000000 0.000000 0.000000 0.000000 -60.708740 0.000000 222.000000 0.043921 0.760819 0.647476
14.22000027 2.70000005 0.61000001 79 156 138 0.000000 0.000000 0.000000 0.000000 -60.708740 0.000000 222.000000 -0.345023 0.475400 0.809293
14.22000027 2.67000008 0.61000001 79 156 138 0.000000 0.000000 0.000000 0.000000 -60.708740 0.000000 222.000000 -0.321360 0.205274 0.924441
14.23999977 2.67000008 0.62000000 79 156 138 0.000000 0.000000 0.000000 0.000000 -60.708740 0.000000 222.000000 -0.128023 0.406578 0.904602
14.31999969 2.75000000 0.34000000 79 156 138 0.000000 0.000000 0.000000 0.000000 -60.708740 0.000000 222.000000 0.790828 0.237714 -0.563989
14.18000031 2.91000009 0.54000002 79 156 138 0.000000 0.000000 0.000000 0.000000 -60.708740 0.000000 222.000000 0.313512 0.577183 0.754036
14.18000031 2.89000010 0.56000000 79 156 138 0.000000 0.000000 0.000000 0.000000 -60.708740 0.000000 222.000000 -0.022262 0.402024 0.915358
14.18000031 2.66000009 0.61000001 79 156 138 0.000000 0.000000 0.000000 0.000000 -60.708740 0.000000 222.000000 -0.277892 0.437564 0.855169
14.06000042 2.66000009 0.34999999 79 156 138 0.000000 0.000000 0.000000 0.000000 -60.708740 0.000000 222.000000 0.418510 0.470620 0.776767
14.31999969 2.86999989 0.31000000 79 156 138 0.000000 0.000000 0.000000 0.000000 -60.708740 0.000000 222.000000 0.647826 0.523309 -0.553597
14.31000042 2.69000006 0.31000000 79 156 138 0.000000 0.000000 0.000000 0.000000 -60.708740 0.000000 222.000000 -0.560865 0.393099 0.728631
14.31999969 2.80999994 0.30000001 79 156 138 0.000000 0.000000 0.000000 0.000000 -60.708740 0.000000 222.000000 0.840584 -0.048790 -0.539479
14.31999969 2.78999996 0.31000000 79 156 138 0.000000 0.000000 0.000000 0.000000 -60.708740 0.000000 222.000000 -0.453716 -0.050413 0.889719
14.31999969 2.80999994 0.28999999 79 156 138 0.000000 0.000000 0.000000 0.000000 -60.708740 0.000000 222.000000 0.731491 -0.089064 -0.676009
14.15999985 2.68000007 0.28999999 79 156 138 0.000000 0.000000 0.000000 0.000000 -60.708740 0.000000 222.000000 0.196426 0.394307 0.897741
14.35000038 2.61999989 0.61000001 79 156 138 0.000000 0.000000 0.000000 0.000000 -60.708740 0.000000 222.000000 0.804930 0.515092 0.294563
14.31999969 2.57999992 0.61000001 79 156 138 0.000000 0.000000 0.000000 0.000000 -60.708740 0.000000 222.000000 0.117182 0.731275 0.671942
14.32999992 2.59999990 0.64999998 79 156 138 0.000000 0.000000 0.000000 0.000000 -60.708740 0.000000 222.000000 0.401855 0.398678 0.824359
14.27999973 2.56999993 0.49000001 79 156 138 0.000000 0.000000 0.000000 0.000000 -60.708740 0.000000 222.000000 -0.259717 0.336017 0.905340
14.35000038 2.58999991 0.49000001 79 156 138 0.000000 0.000000 0.000000 0.000000 -60.708740 0.000000 222.000000 0.848149 0.246040 -0.469156
14.31999969 2.51999998 0.50000000 79 156 138 0.000000 0.000000 0.000000 0.000000 -60.708740 0.000000 222.000000 -0.356165 -0.261582 0.897063
14.23999977 2.57999992 0.62000000 79 156 138 0.000000 0.000000 0.000000 0.000000 -60.708740 0.000000 222.000000 -0.234806 -0.186503 0.953983
14.18999958 2.58999991 0.60000002 79 156 138 0.000000 0.000000 0.000000 0.000000 -60.708740 0.000000 222.000000 0.784311 0.273010 -0.557066
14.23999977 2.48000002 0.52999997 79 156 138 0.000000 0.000000 0.000000 0.000000 -60.708740 0.000000 222.000000 0.815088 0.527410 0.239732
14.22000027 2.49000001 0.50000000 79 156 138 0.000000 0.000000 0.000000 0.000000 -60.708740 0.000000 222.000000 0.847228 0.492084 0.200144
14.18999958 2.53999996 0.56000000 79 156 138 0.000000 0.000000 0.000000 0.000000 -60.708740 0.000000 222.000000 0.830273 0.026248 -0.556739
14.31999969 2.54999995 0.40000001 79 156 138 0.000000 0.000000 0.000000 0.000000 -60.708740 0.000000 222.000000 -0.494145 0.131869 0.859320
14.27999973 2.49000001 0.44999999 79 156 138 0.000000 0.000000 0.000000 0.000000 -60.708740 0.000000 222.000000 0.413239 0.531778 0.739220
14.32999992 2.52999997 0.47000000 79 156 138 0.000000 0.000000 0.000000 0.000000 -60.708740 0.000000 222.000000 -0.579014 0.134758 0.804104
14.32999992 2.53999996 0.33000001 79 156 138 0.000000 0.000000 0.000000 0.000000 -60.708740 0.000000 222.000000 0.005606 0.155845 0.987766
14.25000000 2.49000001 0.44999999 79 156 138 0.000000 0.000000 0.000000 0.000000 -60.708740 0.000000 222.000000 0.434812 0.399513 0.807049
14.22000027 2.50999999 0.47000000 79 156 138 0.000000 0.000000 0.000000 0.000000 -60.708740 0.000000 222.000000 0.289285 0.746388 0.599348
14.22000027 2.53999996 0.38999999 79 156 138 0.000000 0.000000 0.000000 0.000000 -60.708740 0.000000 222.000000 0.562344 0.498556 0.659705
14.27999973 2.36999989 0.54000002 79 156 138 0.000000 0.000000 0.000000 0.000000 -60.708740 0.000000 222.000000 0.839271 0.194373 0.507782
14.22000027 2.41000009 0.60000002 79 156 138 0.000000 0.000000 0.000000 0.000000 -60.708740 0.000000 222.000000 0.919416 0.392924 -0.016858
14.18999958 2.40000010 0.60000002 79 156 138 0.000000 0.000000 0.000000 0.000000 -60.708740 0.000000 222.000000 0.669264 0.545140 -0.504884
14.22999954 2.45000005 0.51999998 79 156 138 0.000000 0.000000 0.000000 0.000000 -60.708740 0.000000 222.000000 0.531093 0.571557 0.625510
14.21000004 2.46000004 0.49000001 79 156 138 0.000000 0.000000 0.000000 0.000000 -60.708740 0.000000 222.000000 0.735387 0.345778 0.582790
14.26000023 2.43000007 0.52999997 79 156 138 0.000000 0.000000 0.000000 0.000000 -60.708740 0.000000 222.000000 0.800658 0.271064 0.534294
14.25000000 2.44000006 0.47999999 79 156 138 0.000000 0.000000 0.000000 0.000000 -60.708740 0.000000 222.000000 0.370664 0.819280 0.437480
14.21000004 2.38000011 0.34000000 79 156 138 0.000000 0.000000 0.000000 0.000000 -60.708740 0.000000 222.000000 0.017538 0.492426 0.870178
14.18000031 2.64000010 0.60000002 79 156 138 0.000000 0.000000 0.000000 0.000000 -60.708740 0.000000 222.000000 0.619885 -0.318844 -0.716995
14.15999985 2.59999990 0.61000001 79 156 138 0.000000 0.000000 0.000000 0.000000 -60.708740 0.000000 222.000000 0.881261 0.076571 -0.466386
14.14999962 2.58999991 0.60000002 79 156 138 0.000000 0.000000 0.000000 0.000000 -60.708740 0.000000 222.000000 -0.605013 -0.015229 0.796070
14.11999989 2.49000001 0.58999997 79 156 138 0.000000 0.000000 0.000000 0.000000 -60.708740 0.000000 222.000000 0.683095 0.311672 -0.660486
14.13000011 2.51999998 0.61000001 79 156 138 0.000000 0.000000 0.000000 0.000000 -60.708740 0.000000 222.000000 0.684644 0.290212 -0.668610
14.10000038 2.52999997 0.58999997 79 156 138 0.000000 0.000000 0.000000 0.000000 -60.708740 0.000000 222.000000 0.953295 0.301106 -0.023739
14.02999973 2.50000000 0.56999999 79 156 138 0.000000 0.000000 0.000000 0.000000 -60.708740 0.000000 222.000000 0.743046 0.331862 -0.581163
14.14999962 2.58999991 0.31999999 79 156 138 0.000000 0.000000 0.000000 0.000000 -60.708740 0.000000 222.000000 0.123907 0.706122 0.697165
14.10999966 2.63000011 0.31999999 79 156 138 0.000000 0.000000 0.000000 0.000000 -60.708740 0.000000 222.000000 0.095044 0.630212 0.770584
14.14000034 2.53999996 0.34000000 79 156 138 0.000000 0.000000 0.000000 0.000000 -60.708740 0.000000 222.000000 0.470248 0.269814 0.840278
14.18000031 2.42000008 0.56999999 79 156 138 0.000000 0.000000 0.000000 0.000000 -60.708740 0.000000 222.000000 0.748008 0.657252 0.092220
14.17000008 2.42000008 0.50999999 79 156 138 0.000000 0.000000 0.000000 0.000000 -60.708740 0.000000 222.000000 0.860120 0.508938 0.034295
14.10999966 2.47000003 0.47000000 79 156 138 0.000000 0.000000 0.000000 0.000000 -60.708740 0.000000 222.000000 0.522877 0.845534 0.108033
14.34000015 2.53999996 0.28000000 79 156 138 0.000000 0.000000 0.000000 0.000000 -60.708740 0.000000 222.000000 -0.053724 0.352482 0.934275
14.31999969 2.51999998 0.25000000 79 156 138 0.000000 0.000000 0.000000 0.000000 -60.708740 0.000000 222.000000 -0.453104 -0.076210 0.888194
14.35000038 2.52999997 0.22000000 79 156 138 0.000000 0.000000 0.000000 0.000000 -60.708740 0.000000 222.000000 -0.615975 -0.015226 0.787618
14.32999992 2.50999999 0.22000000 79 156 138 0.000000 0.000000 0.000000 0.000000 -60.708740 0.000000 222.000000 -0.194783 0.005763 0.980829
14.22999954 2.58999991 0.28000000 79 156 138 0.000000 0.000000 0.000000 0.000000 -60.708740 0.000000 222.000000 0.084256 0.435095 0.896434
14.22000027 2.51999998 0.30000001 79 156 138 0.000000 0.000000 0.000000 0.000000 -60.708740 0.000000 222.000000 -0.235276 0.462962 0.854583
14.22999954 2.54999995 0.18000001 79 156 138 0.000000 0.000000 0.000000 0.000000 -60.708740 0.000000 222.000000 -0.117083 0.659518 0.742514
14.21000004 2.50999999 0.19000000 79 156 138 0.000000 0.000000 0.000000 0.000000 -60.708740 0.000000 222.000000 0.140319 0.079003 0.986949
14.23999977 2.64000010 0.09000000 79 156 138 0.000000 0.000000 0.000000 0.000000 -60.708740 0.000000 222.000000 -0.085108 0.082838 0.992922
14.31000042 2.44000006 0.16000000 79 156 138 0.000000 0.000000 0.000000 0.000000 -60.708740 0.000000 222.000000 -0.439426 0.163878 0.883203
14.28999996 2.46000004 0.15000001 79 156 138 0.000000 0.000000 0.000000 0.000000 -60.708740 0.000000 222.000000 0.165607 0.035901 0.985538
14.34000015 2.39000010 0.28000000 79 156 138 0.000000 0.000000 0.000000 0.000000 -60.708740 0.000000 222.000000 -0.280581 0.315837 0.906378
14.22999954 2.44000006 0.25000000 79 156 138 0.000000 0.000000 0.000000 0.000000 -60.708740 0.000000 222.000000 0.055670 0.114748 0.991834
14.27000046 2.46000004 0.19000000 79 156 138 0.000000 0.000000 0.000000 0.000000 -60.708740 0.000000 222.000000 -0.426839 0.245847 0.870269
14.23999977 2.40000010 0.19000000 79 156 138 0.000000 0.000000 0.000000 0.000000 -60.708740 0.000000 222.000000 0.241322 0.380489 0.892744
14.22000027 2.41000009 0.20999999 79 156 138 0.000000 0.000000 0.000000 0.000000 -60.708740 0.000000 222.000000 0.353305 0.264609 0.897306
14.27000046 2.35999990 0.20999999 79 156 138 0.000000 0.000000 0.000000 0.000000 -60.708740 0.000000 222.000000 -0.122419 0.272481 0.954342
14.11999989 2.52999997 0.31000000 79 156 138 0.000000 0.000000 0.000000 0.000000 -60.708740 0.000000 222.000000 0.136009 0.638196 0.757765
14.14999962 2.56999993 0.31000000 79 156 138 0.000000 0.000000 0.000000 0.000000 -60.708740 0.000000 222.000000 0.601926 0.215084 0.769041
14.10999966 2.64000010 0.31000000 79 156 138 0.000000 0.000000 0.000000 0.000000 -60.708740 0.000000 222.000000 0.441945 0.521395 0.729953
14.00000000 2.72000003 0.31999999 79 156 138 0.000000 0.000000 0.000000 0.000000 -60.708740 0.000000 222.000000 0.554795 0.782403 0.282929
13.96000004 2.48000002 0.64999998 79 156 138 0.000000 0.000000 0.000000 0.000000 -60.708740 0.000000 222.000000 0.987404 0.151641 -0.045145
13.97999954 2.54999995 0.52999997 79 156 138 0.000000 0.000000 0.000000 0.000000 -60.708740 0.000000 222.000000 0.730842 0.674963 -0.101465
13.98999977 2.52999997 0.47999999 79 156 138 0.000000 0.000000 0.000000 0.000000 -60.708740 0.000000 222.000000 0.827502 0.545299 -0.133753
14.00000000 2.42000008 0.61000001 79 156 138 0.000000 0.000000 0.000000 0.000000 -60.708740 0.000000 222.000000 0.997465 0.065075 -0.028804
13.93999958 2.43000007 0.64999998 79 156 138 0.000000 0.000000 0.000000 0.000000 -60.708740 0.000000 222.000000 0.847749 0.075010 -0.525067
14.00000000 2.38000011 0.62000000 79 156 138 0.000000 0.000000 0.000000 0.000000 -60.708740 0.000000 222.000000 0.735699 0.677066 -0.018148
14.47000027 2.70000005 0.28000000 79 156 138 0.000000 0.000000 0.000000 0.000000 -60.708740 0.000000 222.000000 -0.574766 0.084991 0.813892
14.39999962 2.67000008 0.25999999 79 156 138 0.000000 0.000000 0.000000 0.000000 -60.708740 0.000000 222.000000 0.804816 -0.029291 -0.592802
14.56000042 2.51999998 0.64999998 79 156 138 0.000000 0.000000 0.000000 0.000000 -60.708740 0.000000 222.000000 0.898571 0.333078 0.285707
