//X Y Z R G B PointSourceId ScanDirectionFlag NumberOfReturns ReturnNumber GpsTime Intensity Classification Nx Ny Nz
-16.52000046 6.46000004 -0.61000001 6 143 181 0.000000 0.000000 0.000000 0.000000 -60.708740 0.000000 125.000000 0.973526 0.140157 -0.180563
-16.52000046 6.44999981 -0.61000001 6 143 181 0.000000 0.000000 0.000000 0.000000 -60.708740 0.000000 125.000000 0.954616 -0.078585 -0.287286
-16.52000046 6.46000004 -0.63000000 6 143 181 0.000000 0.000000 0.000000 0.000000 -60.708740 0.000000 125.000000 0.995390 0.076060 0.058423
-16.52000046 6.44999981 -0.62000000 6 143 181 0.000000 0.000000 0.000000 0.000000 -60.708740 0.000000 125.000000 0.940210 -0.223595 -0.256926
-16.53000069 6.44000006 -0.63999999 6 143 181 0.000000 0.000000 0.000000 0.000000 -60.708740 0.000000 125.000000 0.959450 -0.096849 -0.264720
-16.52000046 6.44999981 -0.63000000 6 143 181 0.000000 0.000000 0.000000 0.000000 -60.708740 0.000000 125.000000 0.956678 -0.288879 0.036266
-16.53000069 6.46000004 -0.69000000 6 143 181 0.000000 0.000000 0.000000 0.000000 -60.708740 0.000000 125.000000 0.972630 -0.060099 -0.224453
-16.52000046 6.44999981 -0.68000001 6 143 181 0.000000 0.000000 0.000000 0.000000 -60.708740 0.000000 125.000000 0.919852 -0.129029 -0.370438
-16.52000046 6.44999981 -0.67000002 6 143 181 0.000000 0.000000 0.000000 0.000000 -60.708740 0.000000 125.000000 0.955847 0.207793 -0.207793
-16.52000046 6.44999981 -0.67000002 6 143 181 0.000000 0.000000 0.000000 0.000000 -60.708740 0.000000 125.000000 0.955847 0.207793 -0.207793
-16.53000069 6.46000004 -0.66000003 6 143 181 0.000000 0.000000 0.000000 0.000000 -60.708740 0.000000 125.000000 0.903966 -0.296406 0.308204
-16.52000046 6.46000004 -0.66000003 6 143 181 0.000000 0.000000 0.000000 0.000000 -60.708740 0.000000 125.000000 0.932123 -0.032320 0.360697
-16.48999977 6.40000010 -0.52999997 6 143 181 0.000000 0.000000 0.000000 0.000000 -60.708740 0.000000 125.000000 0.969361 0.045343 0.241421
-16.48999977 6.40000010 -0.52999997 6 143 181 0.000000 0.000000 0.000000 0.000000 -60.708740 0.000000 125.000000 0.969361 0.045343 0.241421
-16.50000000 6.42000008 -0.56000000 6 143 181 0.000000 0.000000 0.000000 0.000000 -60.708740 0.000000 125.000000 0.999575 -0.029133 0.001005
-16.51000023 6.42000008 -0.58999997 6 143 181 0.000000 0.000000 0.000000 0.000000 -60.708740 0.000000 125.000000 0.967581 0.113458 -0.225641
-16.48999977 6.40000010 -0.56999999 6 143 181 0.000000 0.000000 0.000000 0.000000 -60.708740 0.000000 125.000000 0.984856 -0.031321 0.170523
-16.52000046 6.40999985 -0.58999997 6 143 181 0.000000 0.000000 0.000000 0.000000 -60.708740 0.000000 125.000000 0.924694 -0.379529 -0.029997
-16.48999977 6.38000011 -0.52999997 6 143 181 0.000000 0.000000 0.000000 0.000000 -60.708740 0.000000 125.000000 0.987428 -0.003362 -0.158033
-16.53000069 6.38000011 -0.54000002 6 143 181 0.000000 0.000000 0.000000 0.000000 -60.708740 0.000000 125.000000 0.985980 0.047840 -0.159857
-16.50000000 6.36000013 -0.57999998 6 143 181 0.000000 0.000000 0.000000 0.000000 -60.708740 0.000000 125.000000 0.915832 -0.332115 0.225723
-16.50000000 6.34999990 -0.56999999 6 143 181 0.000000 0.000000 0.000000 0.000000 -60.708740 0.000000 125.000000 0.925009 0.163731 -0.342855
-16.50000000 6.34999990 -0.56999999 6 143 181 0.000000 0.000000 0.000000 0.000000 -60.708740 0.000000 125.000000 0.925009 0.163731 -0.342855
-16.53000069 6.36999989 -0.58999997 6 143 181 0.000000 0.000000 0.000000 0.000000 -60.708740 0.000000 125.000000 0.995829 0.087772 0.024923
-16.50000000 6.34999990 -0.57999998 6 143 181 0.000000 0.000000 0.000000 0.000000 -60.708740 0.000000 125.000000 0.884543 -0.465761 -0.025503
-16.52000046 6.38999987 -0.61000001 6 143 181 0.000000 0.000000 0.000000 0.000000 -60.708740 0.000000 125.000000 0.905338 -0.396530 0.152074
-16.52000046 6.38999987 -0.68000001 6 143 181 0.000000 0.000000 0.000000 0.000000 -60.708740 0.000000 125.000000 0.990945 0.104734 -0.084017
-16.51000023 6.38999987 -0.68000001 6 143 181 0.000000 0.000000 0.000000 0.000000 -60.708740 0.000000 125.000000 0.995401 0.092469 -0.025021
-16.51000023 6.40999985 -0.64999998 6 143 181 0.000000 0.000000 0.000000 0.000000 -60.708740 0.000000 125.000000 0.898619 0.067020 -0.433580
-16.52000046 6.34999990 -0.61000001 6 143 181 0.000000 0.000000 0.000000 0.000000 -60.708740 0.000000 125.000000 0.891150 -0.403733 -0.207005
-16.47999954 6.71999979 -0.94000000 6 143 181 0.000000 0.000000 0.000000 0.000000 -60.708740 0.000000 125.000000 0.996866 0.075860 -0.022437
-16.47999954 6.71999979 -0.94000000 6 143 181 0.000000 0.000000 0.000000 0.000000 -60.708740 0.000000 125.000000 0.996866 0.075860 -0.022437
-16.52000046 6.67999983 -0.92000002 6 143 181 0.000000 0.000000 0.000000 0.000000 -60.708740 0.000000 125.000000 0.950569 0.013704 -0.310212
-16.45000076 6.67999983 -1.05999994 6 143 181 0.000000 0.000000 0.000000 0.000000 -60.708740 0.000000 125.000000 0.856992 -0.376580 -0.351785
-16.45000076 6.69999981 -1.05999994 6 143 181 0.000000 0.000000 0.000000 0.000000 -60.708740 0.000000 125.000000 0.893188 -0.281824 -0.350416
-16.46999931 6.67999983 -1.08000004 6 143 181 0.000000 0.000000 0.000000 0.000000 -60.708740 0.000000 125.000000 0.962977 -0.174253 -0.205697
-16.46999931 6.69000006 -1.08000004 6 143 181 0.000000 0.000000 0.000000 0.000000 -60.708740 0.000000 125.000000 0.892791 -0.374587 0.250218
-16.45999908 6.71000004 -1.08000004 6 143 181 0.000000 0.000000 0.000000 0.000000 -60.708740 0.000000 125.000000 0.960021 -0.213191 -0.181411
-16.46999931 6.67999983 -1.11000001 6 143 181 0.000000 0.000000 0.000000 0.000000 -60.708740 0.000000 125.000000 0.842569 -0.513834 -0.161406
-16.51000023 6.71999979 -1.03999996 6 143 181 0.000000 0.000000 0.000000 0.000000 -60.708740 0.000000 125.000000 0.987388 0.085911 0.132985
-16.51000023 6.73000002 -1.02999997 6 143 181 0.000000 0.000000 0.000000 0.000000 -60.708740 0.000000 125.000000 0.974956 -0.072538 0.210236
-16.51000023 6.73000002 -1.04999995 6 143 181 0.000000 0.000000 0.000000 0.000000 -60.708740 0.000000 125.000000 0.944013 0.011283 -0.329715
-16.51000023 6.73000002 -1.04999995 6 143 181 0.000000 0.000000 0.000000 0.000000 -60.708740 0.000000 125.000000 0.944013 0.011283 -0.329715
-16.51000023 6.73999977 -1.03999996 6 143 181 0.000000 0.000000 0.000000 0.000000 -60.708740 0.000000 125.000000 0.996059 0.046912 -0.075277
-16.51000023 6.73000002 -1.03999996 6 143 181 0.000000 0.000000 0.000000 0.000000 -60.708740 0.000000 125.000000 0.985757 0.031202 -0.165256
-16.48999977 6.71999979 -1.10000002 6 143 181 0.000000 0.000000 0.000000 0.000000 -60.708740 0.000000 125.000000 0.908864 -0.151242 -0.388705
-16.51000023 6.75000000 -1.10000002 6 143 181 0.000000 0.000000 0.000000 0.000000 -60.708740 0.000000 125.000000 0.911824 -0.083141 -0.402075
-16.53000069 6.73000002 -1.07000005 6 143 181 0.000000 0.000000 0.000000 0.000000 -60.708740 0.000000 125.000000 0.961183 0.137312 -0.239315
-16.53000069 6.67999983 -1.07000005 6 143 181 0.000000 0.000000 0.000000 0.000000 -60.708740 0.000000 125.000000 0.871148 -0.428803 -0.239227
-16.46999931 6.71999979 -1.14999998 6 143 181 0.000000 0.000000 0.000000 0.000000 -60.708740 0.000000 125.000000 0.931394 -0.188513 -0.311396
-16.46999931 6.73999977 -1.16999996 6 143 181 0.000000 0.000000 0.000000 0.000000 -60.708740 0.000000 125.000000 0.813484 -0.549897 -0.189359
-16.47999954 6.71999979 -1.15999997 6 143 181 0.000000 0.000000 0.000000 0.000000 -60.708740 0.000000 125.000000 0.934187 0.001261 -0.356781
-16.47999954 6.73000002 -1.16999996 6 143 181 0.000000 0.000000 0.000000 0.000000 -60.708740 0.000000 125.000000 0.873591 -0.465046 -0.143425
-16.47999954 6.73000002 -1.17999995 6 143 181 0.000000 0.000000 0.000000 0.000000 -60.708740 0.000000 125.000000 0.924708 -0.355232 -0.136840
-16.47999954 6.71999979 -1.15999997 6 143 181 0.000000 0.000000 0.000000 0.000000 -60.708740 0.000000 125.000000 0.934187 0.001261 -0.356781
-16.47999954 6.71000004 -1.14999998 6 143 181 0.000000 0.000000 0.000000 0.000000 -60.708740 0.000000 125.000000 0.909272 -0.121516 -0.398068
-16.46999931 6.71000004 -1.13999999 6 143 181 0.000000 0.000000 0.000000 0.000000 -60.708740 0.000000 125.000000 0.895295 -0.218329 -0.388303
-16.47999954 6.69999981 -1.13000000 6 143 181 0.000000 0.000000 0.000000 0.000000 -60.708740 0.000000 125.000000 0.834389 -0.488912 -0.254481
-16.46999931 6.71000004 -1.17999995 6 143 181 0.000000 0.000000 0.000000 0.000000 -60.708740 0.000000 125.000000 0.915803 0.088714 -0.391707
-16.46999931 6.71000004 -1.17999995 6 143 181 0.000000 0.000000 0.000000 0.000000 -60.708740 0.000000 125.000000 0.915803 0.088714 -0.391707
-16.47999954 6.69000006 -1.17999995 6 143 181 0.000000 0.000000 0.000000 0.000000 -60.708740 0.000000 125.000000 0.921138 -0.173507 -0.348424
-16.51000023 6.71999979 -1.12000000 6 143 181 0.000000 0.000000 0.000000 0.000000 -60.708740 0.000000 125.000000 0.997801 0.045790 -0.047920
-16.48999977 6.73000002 -1.19000006 6 143 181 0.000000 0.000000 0.000000 0.000000 -60.708740 0.000000 125.000000 0.995857 -0.077784 0.047109
-16.48999977 6.69000006 -1.13000000 6 143 181 0.000000 0.000000 0.000000 0.000000 -60.708740 0.000000 125.000000 0.922394 -0.164262 -0.349583
-16.44000053 6.71000004 -1.20000005 6 143 181 0.000000 0.000000 0.000000 0.000000 -60.708740 0.000000 125.000000 0.843207 -0.120458 -0.523920
-16.43000031 6.69999981 -1.34000003 6 143 181 0.000000 0.000000 0.000000 0.000000 -60.708740 0.000000 125.000000 0.907111 -0.306278 -0.288693
-16.40999985 6.67999983 -1.30999994 6 143 181 0.000000 0.000000 0.000000 0.000000 -60.708740 0.000000 125.000000 0.807258 -0.548935 -0.216806
-16.43000031 6.69000006 -1.32000005 6 143 181 0.000000 0.000000 0.000000 0.000000 -60.708740 0.000000 125.000000 0.839043 -0.329680 -0.432802
-16.48999977 6.76999998 -1.22000003 6 143 181 0.000000 0.000000 0.000000 0.000000 -60.708740 0.000000 125.000000 0.887494 -0.126785 -0.443035
-16.50000000 6.76999998 -1.26999998 6 143 181 0.000000 0.000000 0.000000 0.000000 -60.708740 0.000000 125.000000 0.983268 -0.065393 -0.170021
-16.53000069 6.76999998 -1.24000001 6 143 181 0.000000 0.000000 0.000000 0.000000 -60.708740 0.000000 125.000000 0.822554 -0.456273 -0.339442
-16.51000023 6.76999998 -1.29999995 6 143 181 0.000000 0.000000 0.000000 0.000000 -60.708740 0.000000 125.000000 0.933691 -0.286967 -0.214175
-16.48999977 6.76999998 -1.36000001 6 143 181 0.000000 0.000000 0.000000 0.000000 -60.708740 0.000000 125.000000 0.962080 -0.271545 0.025803
-16.47999954 6.69999981 -1.20000005 6 143 181 0.000000 0.000000 0.000000 0.000000 -60.708740 0.000000 125.000000 0.956248 -0.248014 0.155175
-16.45999908 6.69999981 -1.23000002 6 143 181 0.000000 0.000000 0.000000 0.000000 -60.708740 0.000000 125.000000 0.926838 0.054209 -0.371528
-16.45999908 6.69999981 -1.23000002 6 143 181 0.000000 0.000000 0.000000 0.000000 -60.708740 0.000000 125.000000 0.926838 0.054209 -0.371528
-16.45000076 6.69000006 -1.26999998 6 143 181 0.000000 0.000000 0.000000 0.000000 -60.708740 0.000000 125.000000 0.927586 -0.014113 -0.373344
-16.45999908 6.69999981 -1.25000000 6 143 181 0.000000 0.000000 0.000000 0.000000 -60.708740 0.000000 125.000000 0.888128 -0.451708 0.084782
-16.52000046 6.71999979 -1.20000005 6 143 181 0.000000 0.000000 0.000000 0.000000 -60.708740 0.000000 125.000000 0.811140 -0.466924 -0.352185
-16.47999954 6.71999979 -1.28999996 6 143 181 0.000000 0.000000 0.000000 0.000000 -60.708740 0.000000 125.000000 0.953765 -0.142333 -0.264713
-16.47999954 6.73000002 -1.29999995 6 143 181 0.000000 0.000000 0.000000 0.000000 -60.708740 0.000000 125.000000 0.969988 -0.242796 -0.013156
-16.46999931 6.75000000 -1.32000005 6 143 181 0.000000 0.000000 0.000000 0.000000 -60.708740 0.000000 125.000000 0.869858 -0.300109 -0.391512
-16.46999931 6.75000000 -1.32000005 6 143 181 0.000000 0.000000 0.000000 0.000000 -60.708740 0.000000 125.000000 0.869858 -0.300109 -0.391512
-16.45000076 6.76000023 -1.36000001 6 143 181 0.000000 0.000000 0.000000 0.000000 -60.708740 0.000000 125.000000 0.978493 -0.159982 -0.130218
-16.45999908 6.73999977 -1.36000001 6 143 181 0.000000 0.000000 0.000000 0.000000 -60.708740 0.000000 125.000000 0.754504 -0.571106 -0.323359
-16.45999908 6.73999977 -1.36000001 6 143 181 0.000000 0.000000 0.000000 0.000000 -60.708740 0.000000 125.000000 0.754504 -0.571106 -0.323359
-16.45999908 6.69999981 -1.30999994 6 143 181 0.000000 0.000000 0.000000 0.000000 -60.708740 0.000000 125.000000 0.947252 -0.298922 -0.115583
-16.46999931 6.67999983 -1.33000004 6 143 181 0.000000 0.000000 0.000000 0.000000 -60.708740 0.000000 125.000000 -0.681316 0.444771 0.581367
-16.50000000 6.75000000 -1.29999995 6 143 181 0.000000 0.000000 0.000000 0.000000 -60.708740 0.000000 125.000000 0.980679 -0.167314 -0.101365
-16.48999977 6.76000023 -1.35000002 6 143 181 0.000000 0.000000 0.000000 0.000000 -60.708740 0.000000 125.000000 0.980732 -0.177765 -0.081022
-16.53000069 6.67000008 -0.69999999 6 143 181 0.000000 0.000000 0.000000 0.000000 -60.708740 0.000000 125.000000 0.788782 0.190711 0.584339
-16.52000046 6.67000008 -0.80000001 6 143 181 0.000000 0.000000 0.000000 0.000000 -60.708740 0.000000 125.000000 0.972499 -0.207048 0.106661
-16.53000069 6.65000010 -0.79000002 6 143 181 0.000000 0.000000 0.000000 0.000000 -60.708740 0.000000 125.000000 0.984994 -0.028936 -0.170146
-16.53000069 6.63999987 -0.81999999 6 143 181 0.000000 0.000000 0.000000 0.000000 -60.708740 0.000000 125.000000 0.879687 0.014728 0.475325
-16.52000046 6.53999996 -0.70999998 6 143 181 0.000000 0.000000 0.000000 0.000000 -60.708740 0.000000 125.000000 0.957865 0.033631 0.285242
-16.52000046 6.51000023 -0.75000000 6 143 181 0.000000 0.000000 0.000000 0.000000 -60.708740 0.000000 125.000000 0.988988 0.003337 0.147959
-16.52000046 6.51999998 -0.75999999 6 143 181 0.000000 0.000000 0.000000 0.000000 -60.708740 0.000000 125.000000 0.968355 0.249551 -0.003582
-16.52000046 6.51000023 -0.76999998 6 143 181 0.000000 0.000000 0.000000 0.000000 -60.708740 0.000000 125.000000 0.996780 -0.042209 0.068184
-16.52000046 6.53000021 -0.76999998 6 143 181 0.000000 0.000000 0.000000 0.000000 -60.708740 0.000000 125.000000 0.993061 -0.027739 -0.114285
-16.51000023 6.55000019 -0.75000000 6 143 181 0.000000 0.000000 0.000000 0.000000 -60.708740 0.000000 125.000000 0.919835 0.335134 0.203932
-16.52000046 6.53000021 -0.74000001 6 143 181 0.000000 0.000000 0.000000 0.000000 -60.708740 0.000000 125.000000 0.996565 0.040036 0.072497
-16.51000023 6.55000019 -0.74000001 6 143 181 0.000000 0.000000 0.000000 0.000000 -60.708740 0.000000 125.000000 0.983890 0.167344 0.062902
-16.51000023 6.55000019 -0.75000000 6 143 181 0.000000 0.000000 0.000000 0.000000 -60.708740 0.000000 125.000000 0.919835 0.335134 0.203932
-16.51000023 6.51000023 -0.79000002 6 143 181 0.000000 0.000000 0.000000 0.000000 -60.708740 0.000000 125.000000 0.984269 -0.109631 -0.138545
-16.52000046 6.51999998 -0.77999997 6 143 181 0.000000 0.000000 0.000000 0.000000 -60.708740 0.000000 125.000000 0.963173 0.250091 0.098754
-16.52000046 6.51000023 -0.83999997 6 143 181 0.000000 0.000000 0.000000 0.000000 -60.708740 0.000000 125.000000 0.994000 -0.005408 0.109243
-16.52000046 6.51999998 -0.81999999 6 143 181 0.000000 0.000000 0.000000 0.000000 -60.708740 0.000000 125.000000 0.929837 -0.209600 -0.302443
-16.52000046 6.61999989 -0.87000000 6 143 181 0.000000 0.000000 0.000000 0.000000 -60.708740 0.000000 125.000000 0.902028 -0.409240 0.137358
-16.48999977 6.63000011 -0.94000000 6 143 181 0.000000 0.000000 0.000000 0.000000 -60.708740 0.000000 125.000000 0.902835 -0.423333 0.075350
-16.46999931 6.63999987 -0.98000002 6 143 181 0.000000 0.000000 0.000000 0.000000 -60.708740 0.000000 125.000000 0.890490 -0.368427 0.266998
-16.47999954 6.63000011 -0.99000001 6 143 181 0.000000 0.000000 0.000000 0.000000 -60.708740 0.000000 125.000000 0.867743 -0.494074 -0.053974
-16.52000046 6.65000010 -0.94999999 6 143 181 0.000000 0.000000 0.000000 0.000000 -60.708740 0.000000 125.000000 0.934569 -0.248750 -0.254371
-16.52000046 6.65000010 -0.94999999 6 143 181 0.000000 0.000000 0.000000 0.000000 -60.708740 0.000000 125.000000 0.934569 -0.248750 -0.254371
-16.53000069 6.63000011 -0.94999999 6 143 181 0.000000 0.000000 0.000000 0.000000 -60.708740 0.000000 125.000000 0.890380 -0.431569 0.144812
-16.48999977 6.61999989 -0.99000001 6 143 181 0.000000 0.000000 0.000000 0.000000 -60.708740 0.000000 125.000000 0.916541 0.120634 -0.381314
-16.48999977 6.61999989 -0.99000001 6 143 181 0.000000 0.000000 0.000000 0.000000 -60.708740 0.000000 125.000000 0.916541 0.120634 -0.381314
-16.53000069 6.57000017 -0.89999998 6 143 181 0.000000 0.000000 0.000000 0.000000 -60.708740 0.000000 125.000000 0.931101 0.051217 -0.361147
-16.53000069 6.51999998 -0.88000000 6 143 181 0.000000 0.000000 0.000000 0.000000 -60.708740 0.000000 125.000000 0.989940 -0.101204 -0.098878
-16.51000023 6.55000019 -0.86000001 6 143 181 0.000000 0.000000 0.000000 0.000000 -60.708740 0.000000 125.000000 0.941516 0.151242 -0.301122
-16.50000000 6.53999996 -0.86000001 6 143 181 0.000000 0.000000 0.000000 0.000000 -60.708740 0.000000 125.000000 0.937541 0.195842 -0.287512
-16.50000000 6.51000023 -0.88000000 6 143 181 0.000000 0.000000 0.000000 0.000000 -60.708740 0.000000 125.000000 0.996392 0.046825 0.070782
-16.50000000 6.51999998 -0.88000000 6 143 181 0.000000 0.000000 0.000000 0.000000 -60.708740 0.000000 125.000000 0.993791 -0.075236 -0.081974
-16.53000069 6.51000023 -0.93000001 6 143 181 0.000000 0.000000 0.000000 0.000000 -60.708740 0.000000 125.000000 0.977241 -0.207439 -0.044366
-16.52000046 6.51000023 -1.00000000 6 143 181 0.000000 0.000000 0.000000 0.000000 -60.708740 0.000000 125.000000 0.959206 -0.264653 -0.099406
-16.48999977 6.55000019 -1.00999999 6 143 181 0.000000 0.000000 0.000000 0.000000 -60.708740 0.000000 125.000000 0.891657 -0.178331 -0.416107
-16.52000046 6.53000021 -0.99000001 6 143 181 0.000000 0.000000 0.000000 0.000000 -60.708740 0.000000 125.000000 0.797578 -0.302858 -0.521676
-16.52000046 6.46999979 -0.72000003 6 143 181 0.000000 0.000000 0.000000 0.000000 -60.708740 0.000000 125.000000 0.988487 -0.123121 -0.087944
-16.53000069 6.50000000 -0.73000002 6 143 181 0.000000 0.000000 0.000000 0.000000 -60.708740 0.000000 125.000000 0.967510 -0.174851 0.182622
-16.52000046 6.48000002 -0.74000001 6 143 181 0.000000 0.000000 0.000000 0.000000 -60.708740 0.000000 125.000000 0.947876 -0.166318 0.271788
-16.52000046 6.50000000 -0.75999999 6 143 181 0.000000 0.000000 0.000000 0.000000 -60.708740 0.000000 125.000000 0.953979 0.062745 -0.293236
-16.52000046 6.48000002 -0.75999999 6 143 181 0.000000 0.000000 0.000000 0.000000 -60.708740 0.000000 125.000000 0.990823 -0.129925 -0.037283
-16.53000069 6.48000002 -0.74000001 6 143 181 0.000000 0.000000 0.000000 0.000000 -60.708740 0.000000 125.000000 0.936353 -0.327520 0.126387
-16.52000046 6.50000000 -0.75999999 6 143 181 0.000000 0.000000 0.000000 0.000000 -60.708740 0.000000 125.000000 0.953979 0.062745 -0.293236
-16.51000023 6.50000000 -0.75000000 6 143 181 0.000000 0.000000 0.000000 0.000000 -60.708740 0.000000 125.000000 0.991117 -0.079243 0.106806
-16.53000069 6.46000004 -0.73000002 6 143 181 0.000000 0.000000 0.000000 0.000000 -60.708740 0.000000 125.000000 0.854246 -0.157322 -0.495492
-16.53000069 6.50000000 -0.81000000 6 143 181 0.000000 0.000000 0.000000 0.000000 -60.708740 0.000000 125.000000 0.970683 -0.076010 -0.228029
-16.52000046 6.48000002 -0.81000000 6 143 181 0.000000 0.000000 0.000000 0.000000 -60.708740 0.000000 125.000000 0.948877 -0.310284 0.057937
-16.52000046 6.48000002 -0.77999997 6 143 181 0.000000 0.000000 0.000000 0.000000 -60.708740 0.000000 125.000000 0.962956 -0.237175 0.128308
-16.52000046 6.46999979 -0.79000002 6 143 181 0.000000 0.000000 0.000000 0.000000 -60.708740 0.000000 125.000000 0.938235 -0.083605 -0.335747
-16.53000069 6.46999979 -0.81000000 6 143 181 0.000000 0.000000 0.000000 0.000000 -60.708740 0.000000 125.000000 0.934044 -0.351749 0.061918
-16.53000069 6.50000000 -0.81000000 6 143 181 0.000000 0.000000 0.000000 0.000000 -60.708740 0.000000 125.000000 0.970683 -0.076010 -0.228029
-16.53000069 6.46999979 -0.81999999 6 143 181 0.000000 0.000000 0.000000 0.000000 -60.708740 0.000000 125.000000 0.951242 -0.246918 -0.184851
-16.53000069 6.46999979 -0.82999998 6 143 181 0.000000 0.000000 0.000000 0.000000 -60.708740 0.000000 125.000000 0.937792 -0.340657 -0.067079
-16.51000023 6.50000000 -0.81999999 6 143 181 0.000000 0.000000 0.000000 0.000000 -60.708740 0.000000 125.000000 0.982545 0.165164 -0.085596
-16.53000069 6.48000002 -0.83999997 6 143 181 0.000000 0.000000 0.000000 0.000000 -60.708740 0.000000 125.000000 0.954763 -0.290135 0.065185
-16.48999977 6.48999977 -0.83999997 6 143 181 0.000000 0.000000 0.000000 0.000000 -60.708740 0.000000 125.000000 0.983095 0.029155 0.180759
-16.51000023 6.50000000 -0.82999998 6 143 181 0.000000 0.000000 0.000000 0.000000 -60.708740 0.000000 125.000000 0.995488 0.082317 -0.047195
-16.53000069 6.48999977 -0.82999998 6 143 181 0.000000 0.000000 0.000000 0.000000 -60.708740 0.000000 125.000000 0.951695 -0.201711 0.231493
-16.53000069 6.48000002 -0.81999999 6 143 181 0.000000 0.000000 0.000000 0.000000 -60.708740 0.000000 125.000000 0.981011 0.063484 -0.183266
-16.51000023 6.48999977 -0.81999999 6 143 181 0.000000 0.000000 0.000000 0.000000 -60.708740 0.000000 125.000000 0.965524 -0.251712 -0.066372
-16.53000069 6.46000004 -0.81999999 6 143 181 0.000000 0.000000 0.000000 0.000000 -60.708740 0.000000 125.000000 0.956708 -0.289874 0.026126
-16.51000023 6.38000011 -0.73000002 6 143 181 0.000000 0.000000 0.000000 0.000000 -60.708740 0.000000 125.000000 0.813279 -0.453590 -0.364464
-16.51000023 6.36999989 -0.72000003 6 143 181 0.000000 0.000000 0.000000 0.000000 -60.708740 0.000000 125.000000 0.862661 -0.498395 0.086125
-16.51000023 6.36000013 -0.74000001 6 143 181 0.000000 0.000000 0.000000 0.000000 -60.708740 0.000000 125.000000 0.853652 -0.418336 -0.310279
-16.51000023 6.48000002 -0.88000000 6 143 181 0.000000 0.000000 0.000000 0.000000 -60.708740 0.000000 125.000000 0.839765 -0.409680 -0.356311
-16.50000000 6.48000002 -0.88999999 6 143 181 0.000000 0.000000 0.000000 0.000000 -60.708740 0.000000 125.000000 0.940843 -0.318088 0.116767
-16.52000046 6.48999977 -0.86000001 6 143 181 0.000000 0.000000 0.000000 0.000000 -60.708740 0.000000 125.000000 -0.782358 0.403327 0.474598
-16.48999977 6.48999977 -0.89999998 6 143 181 0.000000 0.000000 0.000000 0.000000 -60.708740 0.000000 125.000000 0.980367 -0.123926 0.153374
-16.53000069 6.46999979 -0.88999999 6 143 181 0.000000 0.000000 0.000000 0.000000 -60.708740 0.000000 125.000000 0.908977 -0.387130 -0.154569
-16.53000069 6.48999977 -0.87000000 6 143 181 0.000000 0.000000 0.000000 0.000000 -60.708740 0.000000 125.000000 0.912061 -0.383656 0.144749
-16.51000023 6.48999977 -0.93000001 6 143 181 0.000000 0.000000 0.000000 0.000000 -60.708740 0.000000 125.000000 0.977813 -0.167732 -0.125488
-16.53000069 6.48999977 -0.91000003 6 143 181 0.000000 0.000000 0.000000 0.000000 -60.708740 0.000000 125.000000 0.876575 -0.444895 0.183537
-16.52000046 6.48000002 -0.93000001 6 143 181 0.000000 0.000000 0.000000 0.000000 -60.708740 0.000000 125.000000 0.986326 -0.162278 -0.028773
-16.52000046 6.42999983 -0.89999998 6 143 181 0.000000 0.000000 0.000000 0.000000 -60.708740 0.000000 125.000000 0.877420 -0.257357 -0.404847
-16.53000069 6.48000002 -0.95999998 6 143 181 0.000000 0.000000 0.000000 0.000000 -60.708740 0.000000 125.000000 0.965168 -0.249198 0.079693
-16.53000069 6.48999977 -0.94999999 6 143 181 0.000000 0.000000 0.000000 0.000000 -60.708740 0.000000 125.000000 0.974860 -0.147172 -0.167299
-16.53000069 6.48999977 -0.94999999 6 143 181 0.000000 0.000000 0.000000 0.000000 -60.708740 0.000000 125.000000 0.974860 -0.147172 -0.167299
-16.53000069 6.46999979 -0.94999999 6 143 181 0.000000 0.000000 0.000000 0.000000 -60.708740 0.000000 125.000000 0.940437 -0.220220 -0.259001
-16.53000069 6.46999979 -0.94999999 6 143 181 0.000000 0.000000 0.000000 0.000000 -60.708740 0.000000 125.000000 0.940437 -0.220220 -0.259001
-16.53000069 6.48999977 -0.94999999 6 143 181 0.000000 0.000000 0.000000 0.000000 -60.708740 0.000000 125.000000 0.974860 -0.147172 -0.167299
-16.53000069 6.48999977 -0.99000001 6 143 181 0.000000 0.000000 0.000000 0.000000 -60.708740 0.000000 125.000000 0.932871 -0.305379 -0.191036
-16.52000046 6.50000000 -1.00000000 6 143 181 0.000000 0.000000 0.000000 0.000000 -60.708740 0.000000 125.000000 0.983272 -0.120029 -0.137003
-16.52000046 6.44999981 -0.95999998 6 143 181 0.000000 0.000000 0.000000 0.000000 -60.708740 0.000000 125.000000 0.960982 -0.276480 -0.008526
-16.50000000 6.40999985 -0.93000001 6 143 181 0.000000 0.000000 0.000000 0.000000 -60.708740 0.000000 125.000000 0.939287 -0.102881 -0.327347
-16.40999985 6.67000008 -1.16999996 6 143 181 0.000000 0.000000 0.000000 0.000000 -60.708740 0.000000 125.000000 0.881603 -0.106132 -0.459905
-16.45999908 6.65999985 -1.03999996 6 143 181 0.000000 0.000000 0.000000 0.000000 -60.708740 0.000000 125.000000 0.904894 -0.322231 0.278089
-16.46999931 6.65000010 -1.09000003 6 143 181 0.000000 0.000000 0.000000 0.000000 -60.708740 0.000000 125.000000 0.776970 -0.526023 -0.345856
-16.47999954 6.61999989 -1.04999995 6 143 181 0.000000 0.000000 0.000000 0.000000 -60.708740 0.000000 125.000000 0.860343 -0.160303 -0.483851
-16.46999931 6.61999989 -1.04999995 6 143 181 0.000000 0.000000 0.000000 0.000000 -60.708740 0.000000 125.000000 0.832253 -0.281566 -0.477573
-16.47999954 6.61999989 -1.04999995 6 143 181 0.000000 0.000000 0.000000 0.000000 -60.708740 0.000000 125.000000 0.860343 -0.160303 -0.483851
-16.45999908 6.61999989 -1.03999996 6 143 181 0.000000 0.000000 0.000000 0.000000 -60.708740 0.000000 125.000000 0.933844 0.083926 -0.347694
-16.47999954 6.61000013 -1.09000003 6 143 181 0.000000 0.000000 0.000000 0.000000 -60.708740 0.000000 125.000000 0.844241 -0.242738 -0.477844
-16.50000000 6.65999985 -1.08000004 6 143 181 0.000000 0.000000 0.000000 0.000000 -60.708740 0.000000 125.000000 0.870717 -0.487435 -0.065269
-16.48999977 6.65999985 -1.08000004 6 143 181 0.000000 0.000000 0.000000 0.000000 -60.708740 0.000000 125.000000 0.792480 -0.574816 -0.203868
-16.46999931 6.61000013 -1.12000000 6 143 181 0.000000 0.000000 0.000000 0.000000 -60.708740 0.000000 125.000000 0.779849 -0.252627 -0.572726
-16.47999954 6.61000013 -1.13999999 6 143 181 0.000000 0.000000 0.000000 0.000000 -60.708740 0.000000 125.000000 0.681984 -0.703634 -0.199492
-16.45999908 6.57999992 -1.07000005 6 143 181 0.000000 0.000000 0.000000 0.000000 -60.708740 0.000000 125.000000 0.840349 -0.223384 -0.493876
-16.47999954 6.53000021 -1.09000003 6 143 181 0.000000 0.000000 0.000000 0.000000 -60.708740 0.000000 125.000000 0.884477 -0.243119 -0.398238
-16.50000000 6.51000023 -1.04999995 6 143 181 0.000000 0.000000 0.000000 0.000000 -60.708740 0.000000 125.000000 0.715495 -0.361841 -0.597610
-16.53000069 6.51999998 -1.03999996 6 143 181 0.000000 0.000000 0.000000 0.000000 -60.708740 0.000000 125.000000 0.777088 -0.428458 -0.461040
-16.51000023 6.51000023 -1.05999994 6 143 181 0.000000 0.000000 0.000000 0.000000 -60.708740 0.000000 125.000000 0.946861 -0.090615 -0.308616
-16.52000046 6.51999998 -1.05999994 6 143 181 0.000000 0.000000 0.000000 0.000000 -60.708740 0.000000 125.000000 0.769176 -0.283881 -0.572521
-16.46999931 6.57999992 -1.16999996 6 143 181 0.000000 0.000000 0.000000 0.000000 -60.708740 0.000000 125.000000 0.649143 -0.534489 -0.541234
-16.47999954 6.55000019 -1.16999996 6 143 181 0.000000 0.000000 0.000000 0.000000 -60.708740 0.000000 125.000000 0.907065 -0.072076 -0.414775
-16.47999954 6.55000019 -1.16999996 6 143 181 0.000000 0.000000 0.000000 0.000000 -60.708740 0.000000 125.000000 0.907065 -0.072076 -0.414775
-16.44000053 6.67000008 -1.20000005 6 143 181 0.000000 0.000000 0.000000 0.000000 -60.708740 0.000000 125.000000 0.830996 -0.556264 -0.004080
-16.43000031 6.65000010 -1.22000003 6 143 181 0.000000 0.000000 0.000000 0.000000 -60.708740 0.000000 125.000000 0.854192 -0.135332 -0.502038
-16.42000008 6.65999985 -1.36000001 6 143 181 0.000000 0.000000 0.000000 0.000000 -60.708740 0.000000 125.000000 0.712345 -0.645413 -0.275695
-16.43000031 6.61999989 -1.34000003 6 143 181 0.000000 0.000000 0.000000 0.000000 -60.708740 0.000000 125.000000 0.711058 -0.633664 -0.304739
-16.44000053 6.57000017 -1.33000004 6 143 181 0.000000 0.000000 0.000000 0.000000 -60.708740 0.000000 125.000000 0.882287 -0.262140 -0.390963
-16.43000031 6.55000019 -1.30999994 6 143 181 0.000000 0.000000 0.000000 0.000000 -60.708740 0.000000 125.000000 -0.528346 0.813436 0.243256
-16.44000053 6.55000019 -1.33000004 6 143 181 0.000000 0.000000 0.000000 0.000000 -60.708740 0.000000 125.000000 0.815694 -0.351400 -0.459523
-16.44000053 6.59000015 -1.36000001 6 143 181 0.000000 0.000000 0.000000 0.000000 -60.708740 0.000000 125.000000 -0.526613 0.803281 0.278240
-16.44000053 6.57000017 -1.33000004 6 143 181 0.000000 0.000000 0.000000 0.000000 -60.708740 0.000000 125.000000 0.882287 -0.262140 -0.390963
-16.45000076 6.67000008 -1.20000005 6 143 181 0.000000 0.000000 0.000000 0.000000 -60.708740 0.000000 125.000000 0.777692 -0.596691 -0.197874
-16.45000076 6.63999987 -1.32000005 6 143 181 0.000000 0.000000 0.000000 0.000000 -60.708740 0.000000 125.000000 -0.675923 0.669471 0.308118
-16.45999908 6.63999987 -1.33000004 6 143 181 0.000000 0.000000 0.000000 0.000000 -60.708740 0.000000 125.000000 -0.635374 0.457671 0.621963
-16.45999908 6.63999987 -1.33000004 6 143 181 0.000000 0.000000 0.000000 0.000000 -60.708740 0.000000 125.000000 -0.635374 0.457671 0.621963
-16.51000023 6.61000013 -1.29999995 6 143 181 0.000000 0.000000 0.000000 0.000000 -60.708740 0.000000 125.000000 -0.630885 0.482837 0.607332
-16.45000076 6.57999992 -1.25999999 6 143 181 0.000000 0.000000 0.000000 0.000000 -60.708740 0.000000 125.000000 0.551683 -0.622541 -0.555057
-16.46999931 6.53000021 -1.26999998 6 143 181 0.000000 0.000000 0.000000 0.000000 -60.708740 0.000000 125.000000 0.846549 -0.255649 -0.466903
-16.45999908 6.57999992 -1.33000004 6 143 181 0.000000 0.000000 0.000000 0.000000 -60.708740 0.000000 125.000000 0.779716 -0.384184 -0.494414
-16.47999954 6.53999996 -1.27999997 6 143 181 0.000000 0.000000 0.000000 0.000000 -60.708740 0.000000 125.000000 0.704621 -0.454756 -0.544707
-16.48999977 6.53000021 -1.30999994 6 143 181 0.000000 0.000000 0.000000 0.000000 -60.708740 0.000000 125.000000 -0.409244 0.697537 0.588185
-16.52000046 6.48000002 -1.04999995 6 143 181 0.000000 0.000000 0.000000 0.000000 -60.708740 0.000000 125.000000 0.832367 -0.426411 -0.354031
-16.53000069 6.50000000 -1.02999997 6 143 181 0.000000 0.000000 0.000000 0.000000 -60.708740 0.000000 125.000000 0.690116 -0.308694 -0.654560
-16.52000046 6.50000000 -1.11000001 6 143 181 0.000000 0.000000 0.000000 0.000000 -60.708740 0.000000 125.000000 0.688180 -0.394424 -0.608965
-16.53000069 6.44999981 -1.08000004 6 143 181 0.000000 0.000000 0.000000 0.000000 -60.708740 0.000000 125.000000 0.904010 -0.416703 -0.095523
-16.53000069 6.44999981 -1.08000004 6 143 181 0.000000 0.000000 0.000000 0.000000 -60.708740 0.000000 125.000000 0.904010 -0.416703 -0.095523
-16.51000023 6.46999979 -1.14999998 6 143 181 0.000000 0.000000 0.000000 0.000000 -60.708740 0.000000 125.000000 0.901958 -0.371566 -0.220025
-16.48999977 6.50000000 -1.16999996 6 143 181 0.000000 0.000000 0.000000 0.000000 -60.708740 0.000000 125.000000 0.586053 -0.521874 -0.619831
-16.48999977 6.50000000 -1.16999996 6 143 181 0.000000 0.000000 0.000000 0.000000 -60.708740 0.000000 125.000000 0.586053 -0.521874 -0.619831
-16.51000023 6.48000002 -1.17999995 6 143 181 0.000000 0.000000 0.000000 0.000000 -60.708740 0.000000 125.000000 0.868325 -0.494823 -0.034079
-16.50000000 6.50000000 -1.25999999 6 143 181 0.000000 0.000000 0.000000 0.000000 -60.708740 0.000000 125.000000 0.725943 -0.540737 -0.424983
-16.51000023 6.48999977 -1.27999997 6 143 181 0.000000 0.000000 0.000000 0.000000 -60.708740 0.000000 125.000000 0.853210 -0.257947 -0.453316
-16.51000023 6.46999979 -1.35000002 6 143 181 0.000000 0.000000 0.000000 0.000000 -60.708740 0.000000 125.000000 0.787561 -0.282512 -0.547663
-16.53000069 6.42999983 -1.28999996 6 143 181 0.000000 0.000000 0.000000 0.000000 -60.708740 0.000000 125.000000 0.788879 -0.597997 -0.141670
-16.53000069 6.44000006 -1.28999996 6 143 181 0.000000 0.000000 0.000000 0.000000 -60.708740 0.000000 125.000000 0.826024 -0.437493 -0.355364
-16.53000069 6.44999981 -1.29999995 6 143 181 0.000000 0.000000 0.000000 0.000000 -60.708740 0.000000 125.000000 0.760240 -0.539786 -0.361479
-16.51000023 6.46000004 -1.34000003 6 143 181 0.000000 0.000000 0.000000 0.000000 -60.708740 0.000000 125.000000 -0.670255 0.462994 0.579996
-16.22999954 6.17999983 -0.03000000 6 143 181 0.000000 0.000000 0.000000 0.000000 -60.708740 0.000000 129.000000 0.909103 0.401115 0.112423
-16.25000000 6.19000006 -0.05000000 6 143 181 0.000000 0.000000 0.000000 0.000000 -60.708740 0.000000 129.000000 0.916771 0.367554 -0.156316
-16.25000000 6.21000004 -0.04000000 6 143 181 0.000000 0.000000 0.000000 0.000000 -60.708740 0.000000 129.000000 0.967973 0.164129 -0.189976
-16.25000000 6.19999981 -0.04000000 6 143 181 0.000000 0.000000 0.000000 0.000000 -60.708740 0.000000 129.000000 0.968408 0.249019 0.013233
-16.23999977 6.19999981 -0.10000000 6 143 181 0.000000 0.000000 0.000000 0.000000 -60.708740 0.000000 129.000000 0.988470 0.142201 -0.052025
-16.27000046 6.17999983 -0.09000000 6 143 181 0.000000 0.000000 0.000000 0.000000 -60.708740 0.000000 129.000000 0.922965 -0.232524 0.306704
-16.25000000 6.19999981 -0.10000000 6 143 181 0.000000 0.000000 0.000000 0.000000 -60.708740 0.000000 129.000000 0.998173 -0.057728 0.017843
-16.25000000 6.19999981 -0.08000000 6 143 181 0.000000 0.000000 0.000000 0.000000 -60.708740 0.000000 129.000000 0.986100 -0.151980 0.067154
-16.27000046 6.17999983 -0.09000000 6 143 181 0.000000 0.000000 0.000000 0.000000 -60.708740 0.000000 129.000000 0.922965 -0.232524 0.306704
-16.26000023 6.17999983 -0.10000000 6 143 181 0.000000 0.000000 0.000000 0.000000 -60.708740 0.000000 129.000000 0.954013 -0.153443 0.257517
-16.26000023 6.17999983 -0.11000000 6 143 181 0.000000 0.000000 0.000000 0.000000 -60.708740 0.000000 129.000000 0.980131 -0.027062 -0.196497
-16.26000023 6.17999983 -0.11000000 6 143 181 0.000000 0.000000 0.000000 0.000000 -60.708740 0.000000 129.000000 0.980131 -0.027062 -0.196497
-16.27000046 6.17999983 -0.18000001 6 143 181 0.000000 0.000000 0.000000 0.000000 -60.708740 0.000000 129.000000 0.969334 -0.126435 0.210725
-16.23999977 6.19000006 -0.16000000 6 143 181 0.000000 0.000000 0.000000 0.000000 -60.708740 0.000000 129.000000 0.998991 -0.040374 -0.019669
-16.23999977 6.17999983 -0.16000000 6 143 181 0.000000 0.000000 0.000000 0.000000 -60.708740 0.000000 129.000000 0.947397 0.319163 0.023969
-16.23999977 6.19999981 -0.17000000 6 143 181 0.000000 0.000000 0.000000 0.000000 -60.708740 0.000000 129.000000 0.977049 -0.175495 -0.120731
-16.23999977 6.19999981 -0.16000000 6 143 181 0.000000 0.000000 0.000000 0.000000 -60.708740 0.000000 129.000000 0.999413 0.013244 -0.031582
-16.26000023 6.19000006 -0.18000001 6 143 181 0.000000 0.000000 0.000000 0.000000 -60.708740 0.000000 129.000000 0.964145 0.035801 0.262949
-16.23999977 6.17999983 -0.16000000 6 143 181 0.000000 0.000000 0.000000 0.000000 -60.708740 0.000000 129.000000 0.947397 0.319163 0.023969
-16.29999924 6.17999983 -0.10000000 6 143 181 0.000000 0.000000 0.000000 0.000000 -60.708740 0.000000 129.000000 0.989060 -0.138997 -0.049396
-16.28000069 6.19000006 -0.14000000 6 143 181 0.000000 0.000000 0.000000 0.000000 -60.708740 0.000000 129.000000 0.994554 -0.103260 -0.014130
-16.28000069 6.19000006 -0.15000001 6 143 181 0.000000 0.000000 0.000000 0.000000 -60.708740 0.000000 129.000000 0.993741 0.070741 0.086461
-16.28000069 6.17999983 -0.13000000 6 143 181 0.000000 0.000000 0.000000 0.000000 -60.708740 0.000000 129.000000 0.941526 0.322695 0.096941
-16.28000069 6.19999981 -0.14000000 6 143 181 0.000000 0.000000 0.000000 0.000000 -60.708740 0.000000 129.000000 0.993685 -0.110653 0.018625
-16.28000069 6.19999981 -0.14000000 6 143 181 0.000000 0.000000 0.000000 0.000000 -60.708740 0.000000 129.000000 0.993685 -0.110653 0.018625
-16.21999931 6.26999998 -0.30000001 6 143 181 0.000000 0.000000 0.000000 0.000000 -60.708740 0.000000 129.000000 0.990824 0.065443 -0.118256
-16.20999908 6.21999979 -0.20000000 6 143 181 0.000000 0.000000 0.000000 0.000000 -60.708740 0.000000 129.000000 0.955558 -0.269449 0.119609
-16.20000076 6.21999979 -0.25000000 6 143 181 0.000000 0.000000 0.000000 0.000000 -60.708740 0.000000 129.000000 0.987915 0.030837 0.151899
-16.22999954 6.19999981 -0.20000000 6 143 181 0.000000 0.000000 0.000000 0.000000 -60.708740 0.000000 129.000000 0.980620 0.108958 0.162825
-16.20000076 6.19000006 -0.23000000 6 143 181 0.000000 0.000000 0.000000 0.000000 -60.708740 0.000000 129.000000 0.961986 0.259340 0.085595
-16.21999931 6.19000006 -0.23000000 6 143 181 0.000000 0.000000 0.000000 0.000000 -60.708740 0.000000 129.000000 0.934507 -0.129603 0.331511
-16.23999977 6.19000006 -0.20000000 6 143 181 0.000000 0.000000 0.000000 0.000000 -60.708740 0.000000 129.000000 0.926239 -0.006388 -0.376883
-16.25000000 6.17999983 -0.22000000 6 143 181 0.000000 0.000000 0.000000 0.000000 -60.708740 0.000000 129.000000 0.954763 -0.290135 0.065185
-16.25000000 6.17999983 -0.22000000 6 143 181 0.000000 0.000000 0.000000 0.000000 -60.708740 0.000000 129.000000 0.954763 -0.290135 0.065185
-16.26000023 6.19000006 -0.20000000 6 143 181 0.000000 0.000000 0.000000 0.000000 -60.708740 0.000000 129.000000 0.931756 -0.266417 -0.246683
-16.23999977 6.19000006 -0.27000001 6 143 181 0.000000 0.000000 0.000000 0.000000 -60.708740 0.000000 129.000000 0.983781 0.143644 0.107431
-16.23999977 6.19000006 -0.23999999 6 143 181 0.000000 0.000000 0.000000 0.000000 -60.708740 0.000000 129.000000 0.967184 -0.221620 -0.124261
-16.25000000 6.17999983 -0.25000000 6 143 181 0.000000 0.000000 0.000000 0.000000 -60.708740 0.000000 129.000000 0.937485 0.255678 -0.236118
-16.20999908 6.23999977 -0.30000001 6 143 181 0.000000 0.000000 0.000000 0.000000 -60.708740 0.000000 129.000000 0.944591 -0.305956 -0.118909
-16.20999908 6.23999977 -0.30000001 6 143 181 0.000000 0.000000 0.000000 0.000000 -60.708740 0.000000 129.000000 0.944591 -0.305956 -0.118909
-16.20999908 6.21999979 -0.30000001 6 143 181 0.000000 0.000000 0.000000 0.000000 -60.708740 0.000000 129.000000 0.972209 -0.050139 -0.228683
-16.22999954 6.23999977 -0.34999999 6 143 181 0.000000 0.000000 0.000000 0.000000 -60.708740 0.000000 129.000000 0.977381 0.077065 0.196944
-16.22999954 6.21999979 -0.34999999 6 143 181 0.000000 0.000000 0.000000 0.000000 -60.708740 0.000000 129.000000 0.989974 0.025963 0.138845
-16.22999954 6.21999979 -0.34000000 6 143 181 0.000000 0.000000 0.000000 0.000000 -60.708740 0.000000 129.000000 0.960027 0.242299 -0.140140
-16.20000076 6.19000006 -0.28999999 6 143 181 0.000000 0.000000 0.000000 0.000000 -60.708740 0.000000 129.000000 0.986221 0.145276 0.079134
-16.20000076 6.17999983 -0.28999999 6 143 181 0.000000 0.000000 0.000000 0.000000 -60.708740 0.000000 129.000000 0.974247 -0.106304 -0.198851
-16.22999954 6.19000006 -0.30000001 6 143 181 0.000000 0.000000 0.000000 0.000000 -60.708740 0.000000 129.000000 0.989802 0.139138 -0.030542
-16.20999908 6.21000004 -0.30000001 6 143 181 0.000000 0.000000 0.000000 0.000000 -60.708740 0.000000 129.000000 0.970383 0.202748 0.131340
-16.21999931 6.21000004 -0.31999999 6 143 181 0.000000 0.000000 0.000000 0.000000 -60.708740 0.000000 129.000000 0.928387 -0.115878 -0.353087
-16.22999954 6.19999981 -0.34999999 6 143 181 0.000000 0.000000 0.000000 0.000000 -60.708740 0.000000 129.000000 0.982930 0.134864 -0.125144
-16.20000076 6.21000004 -0.31999999 6 143 181 0.000000 0.000000 0.000000 0.000000 -60.708740 0.000000 129.000000 0.932574 0.290290 -0.214562
-16.20000076 6.21000004 -0.33000001 6 143 181 0.000000 0.000000 0.000000 0.000000 -60.708740 0.000000 129.000000 0.934111 0.335845 -0.121013
-16.21999931 6.21000004 -0.31999999 6 143 181 0.000000 0.000000 0.000000 0.000000 -60.708740 0.000000 129.000000 0.928387 -0.115878 -0.353087
-16.20000076 6.21000004 -0.31999999 6 143 181 0.000000 0.000000 0.000000 0.000000 -60.708740 0.000000 129.000000 0.932574 0.290290 -0.214562
-16.20000076 6.19999981 -0.33000001 6 143 181 0.000000 0.000000 0.000000 0.000000 -60.708740 0.000000 129.000000 0.960150 0.278036 -0.028421
-16.20000076 6.17999983 -0.34000000 6 143 181 0.000000 0.000000 0.000000 0.000000 -60.708740 0.000000 129.000000 0.988709 -0.063750 0.135614
-16.22999954 6.17999983 -0.33000001 6 143 181 0.000000 0.000000 0.000000 0.000000 -60.708740 0.000000 129.000000 0.889676 -0.225739 -0.396887
-16.20000076 6.19000006 -0.33000001 6 143 181 0.000000 0.000000 0.000000 0.000000 -60.708740 0.000000 129.000000 0.983855 0.024336 0.177303
-16.23999977 6.19000006 -0.31999999 6 143 181 0.000000 0.000000 0.000000 0.000000 -60.708740 0.000000 129.000000 0.967854 0.251281 0.010821
-16.29000092 6.23000002 -0.31000000 6 143 181 0.000000 0.000000 0.000000 0.000000 -60.708740 0.000000 129.000000 0.953663 -0.300571 -0.013606
-16.22999954 6.15000010 -0.06000000 6 143 181 0.000000 0.000000 0.000000 0.000000 -60.708740 0.000000 129.000000 0.988498 0.005597 0.151129
-16.22999954 6.13999987 -0.06000000 6 143 181 0.000000 0.000000 0.000000 0.000000 -60.708740 0.000000 129.000000 0.975568 0.027397 0.217984
-16.20999908 6.15000010 -0.10000000 6 143 181 0.000000 0.000000 0.000000 0.000000 -60.708740 0.000000 129.000000 0.940234 0.318792 0.119715
-16.22999954 6.13000011 -0.06000000 6 143 181 0.000000 0.000000 0.000000 0.000000 -60.708740 0.000000 129.000000 0.963612 0.179612 -0.197967
-16.20999908 6.13000011 -0.05000000 6 143 181 0.000000 0.000000 0.000000 0.000000 -60.708740 0.000000 129.000000 0.963953 0.077268 0.254605
-16.22999954 6.11000013 -0.08000000 6 143 181 0.000000 0.000000 0.000000 0.000000 -60.708740 0.000000 129.000000 0.957237 0.285536 -0.046541
-16.26000023 6.13999987 -0.04000000 6 143 181 0.000000 0.000000 0.000000 0.000000 -60.708740 0.000000 129.000000 0.951128 0.296167 -0.087415
-16.25000000 6.15999985 -0.05000000 6 143 181 0.000000 0.000000 0.000000 0.000000 -60.708740 0.000000 129.000000 0.958853 0.003655 0.283879
-16.27000046 6.17000008 -0.08000000 6 143 181 0.000000 0.000000 0.000000 0.000000 -60.708740 0.000000 129.000000 0.983444 -0.143948 -0.110078
-16.23999977 6.15999985 -0.09000000 6 143 181 0.000000 0.000000 0.000000 0.000000 -60.708740 0.000000 129.000000 0.969117 0.032831 -0.244407
-16.23999977 6.15000010 -0.10000000 6 143 181 0.000000 0.000000 0.000000 0.000000 -60.708740 0.000000 129.000000 0.969086 -0.230017 -0.089241
-16.23999977 6.15000010 -0.10000000 6 143 181 0.000000 0.000000 0.000000 0.000000 -60.708740 0.000000 129.000000 0.969086 -0.230017 -0.089241
-16.23999977 6.17000008 -0.09000000 6 143 181 0.000000 0.000000 0.000000 0.000000 -60.708740 0.000000 129.000000 0.938526 -0.223856 -0.262787
-16.23999977 6.13000011 -0.09000000 6 143 181 0.000000 0.000000 0.000000 0.000000 -60.708740 0.000000 129.000000 0.975451 0.159437 -0.151904
-16.25000000 6.13000011 -0.10000000 6 143 181 0.000000 0.000000 0.000000 0.000000 -60.708740 0.000000 129.000000 0.993650 0.090944 0.066243
-16.27000046 6.09000015 -0.07000000 6 143 181 0.000000 0.000000 0.000000 0.000000 -60.708740 0.000000 129.000000 0.956649 0.075761 -0.281216
-16.23999977 6.09000015 -0.09000000 6 143 181 0.000000 0.000000 0.000000 0.000000 -60.708740 0.000000 129.000000 0.932770 0.112366 -0.342512
-16.23999977 6.11999989 -0.07000000 6 143 181 0.000000 0.000000 0.000000 0.000000 -60.708740 0.000000 129.000000 0.991111 -0.127703 0.037294
-16.26000023 6.09999990 -0.10000000 6 143 181 0.000000 0.000000 0.000000 0.000000 -60.708740 0.000000 129.000000 0.984639 0.082352 -0.153962
-16.22999954 6.17000008 -0.13000000 6 143 181 0.000000 0.000000 0.000000 0.000000 -60.708740 0.000000 129.000000 0.917114 -0.293188 0.270079
-16.22999954 6.17000008 -0.12000000 6 143 181 0.000000 0.000000 0.000000 0.000000 -60.708740 0.000000 129.000000 0.992110 -0.041666 -0.118242
-16.22999954 6.15999985 -0.13000000 6 143 181 0.000000 0.000000 0.000000 0.000000 -60.708740 0.000000 129.000000 0.956698 0.270173 0.108330
-16.21999931 6.15000010 -0.13000000 6 143 181 0.000000 0.000000 0.000000 0.000000 -60.708740 0.000000 129.000000 0.996756 0.063992 0.048807
-16.20000076 6.13999987 -0.18000001 6 143 181 0.000000 0.000000 0.000000 0.000000 -60.708740 0.000000 129.000000 0.933308 0.334789 -0.129816
-16.20000076 6.15000010 -0.17000000 6 143 181 0.000000 0.000000 0.000000 0.000000 -60.708740 0.000000 129.000000 0.959445 0.086055 -0.268439
-16.22999954 6.15999985 -0.16000000 6 143 181 0.000000 0.000000 0.000000 0.000000 -60.708740 0.000000 129.000000 0.971186 0.078342 0.225076
-16.22999954 6.13999987 -0.18000001 6 143 181 0.000000 0.000000 0.000000 0.000000 -60.708740 0.000000 129.000000 0.999020 -0.005113 -0.043969
-16.20999908 6.09999990 -0.17000000 6 143 181 0.000000 0.000000 0.000000 0.000000 -60.708740 0.000000 129.000000 0.893448 0.019973 -0.448721
-16.22999954 6.11999989 -0.18000001 6 143 181 0.000000 0.000000 0.000000 0.000000 -60.708740 0.000000 129.000000 0.998116 -0.061279 0.003116
-16.22999954 6.11999989 -0.17000000 6 143 181 0.000000 0.000000 0.000000 0.000000 -60.708740 0.000000 129.000000 0.957867 -0.286245 -0.023544
-16.22999954 6.13000011 -0.17000000 6 143 181 0.000000 0.000000 0.000000 0.000000 -60.708740 0.000000 129.000000 0.939752 -0.288411 -0.183535
-16.26000023 6.15999985 -0.14000000 6 143 181 0.000000 0.000000 0.000000 0.000000 -60.708740 0.000000 129.000000 0.917857 0.336500 -0.210491
-16.26000023 6.15999985 -0.12000000 6 143 181 0.000000 0.000000 0.000000 0.000000 -60.708740 0.000000 129.000000 0.985788 0.012536 -0.167527
-16.26000023 6.17000008 -0.11000000 6 143 181 0.000000 0.000000 0.000000 0.000000 -60.708740 0.000000 129.000000 0.907769 0.401432 0.121689
-16.26000023 6.15000010 -0.16000000 6 143 181 0.000000 0.000000 0.000000 0.000000 -60.708740 0.000000 129.000000 0.982821 0.105432 -0.151483
-16.23999977 6.17000008 -0.16000000 6 143 181 0.000000 0.000000 0.000000 0.000000 -60.708740 0.000000 129.000000 0.918582 -0.049186 -0.392159
-16.23999977 6.15999985 -0.15000001 6 143 181 0.000000 0.000000 0.000000 0.000000 -60.708740 0.000000 129.000000 0.962250 -0.269430 0.038490
-16.23999977 6.17000008 -0.16000000 6 143 181 0.000000 0.000000 0.000000 0.000000 -60.708740 0.000000 129.000000 0.918582 -0.049186 -0.392159
-16.27000046 6.17000008 -0.17000000 6 143 181 0.000000 0.000000 0.000000 0.000000 -60.708740 0.000000 129.000000 0.949173 -0.093211 0.300637
-16.27000046 6.15000010 -0.16000000 6 143 181 0.000000 0.000000 0.000000 0.000000 -60.708740 0.000000 129.000000 0.951891 0.220709 -0.212584
-16.27000046 6.15999985 -0.17000000 6 143 181 0.000000 0.000000 0.000000 0.000000 -60.708740 0.000000 129.000000 0.960277 0.239742 0.142797
-16.26000023 6.09999990 -0.12000000 6 143 181 0.000000 0.000000 0.000000 0.000000 -60.708740 0.000000 129.000000 0.982179 0.060864 -0.177819
-16.20000076 6.05000019 -0.05000000 6 143 181 0.000000 0.000000 0.000000 0.000000 -60.708740 0.000000 129.000000 0.915216 -0.361830 -0.177367
-16.20000076 6.05000019 -0.05000000 6 143 181 0.000000 0.000000 0.000000 0.000000 -60.708740 0.000000 129.000000 0.915216 -0.361830 -0.177367
-16.20999908 6.01000023 -0.06000000 6 143 181 0.000000 0.000000 0.000000 0.000000 -60.708740 0.000000 129.000000 0.928193 -0.048576 0.368914
-16.23999977 6.07000017 -0.09000000 6 143 181 0.000000 0.000000 0.000000 0.000000 -60.708740 0.000000 129.000000 0.903742 -0.424095 -0.058262
-16.20999908 6.07000017 -0.14000000 6 143 181 0.000000 0.000000 0.000000 0.000000 -60.708740 0.000000 129.000000 0.989931 0.133589 0.046813
-16.25000000 6.03999996 -0.11000000 6 143 181 0.000000 0.000000 0.000000 0.000000 -60.708740 0.000000 129.000000 0.977712 0.208752 0.022408
