//X Y Z R G B PointSourceId ScanDirectionFlag NumberOfReturns ReturnNumber GpsTime Intensity Classification Nx Ny Nz
-14.27999973 -1.39999998 0.08000000 242 34 117 97.000000 1.000000 4.000000 1.000000 -60.708740 114.000000 206.000000 0.716238 0.659817 0.227253
-14.31000042 -1.41999996 0.12000000 242 34 117 97.000000 1.000000 4.000000 1.000000 -60.708740 114.000000 206.000000 0.749645 0.636202 0.182429
-14.31999969 -1.42999995 0.09000000 242 34 117 97.000000 1.000000 4.000000 1.000000 -60.708740 114.000000 206.000000 0.690352 0.708479 0.146530
-14.30000019 -1.40999997 0.04000000 242 34 117 97.000000 1.000000 4.000000 1.000000 -60.708740 114.000000 206.000000 0.654436 0.705390 0.272284
-14.27999973 -1.42999995 -0.02000000 242 34 117 97.000000 1.000000 4.000000 1.000000 -60.708740 114.000000 206.000000 0.795517 0.597003 0.103636
-14.32999992 -1.41999996 0.05000000 242 34 117 97.000000 1.000000 4.000000 1.000000 -60.708740 114.000000 206.000000 0.956424 0.270095 0.110909
-14.32999992 -1.38999999 -0.01000000 242 34 117 97.000000 1.000000 4.000000 1.000000 -60.708740 114.000000 206.000000 0.913770 0.399351 0.074455
-14.31999969 -1.45000005 0.04000000 242 34 117 97.000000 1.000000 4.000000 1.000000 -60.708740 114.000000 206.000000 0.592554 0.790572 -0.154514
-14.32999992 -1.42999995 0.06000000 242 34 117 97.000000 1.000000 4.000000 1.000000 -60.708740 114.000000 206.000000 0.639644 0.756487 0.136318
-14.31999969 -1.44000006 0.06000000 242 34 117 97.000000 1.000000 4.000000 1.000000 -60.708740 114.000000 206.000000 0.932401 0.244032 0.266602
-14.32999992 -1.45000005 0.01000000 242 34 117 97.000000 1.000000 4.000000 1.000000 -60.708740 114.000000 206.000000 0.853437 0.359096 -0.377751
-14.34000015 -1.44000006 -0.01000000 242 34 117 97.000000 1.000000 4.000000 1.000000 -60.708740 114.000000 206.000000 0.881562 0.462574 0.094202
-14.32999992 -1.44000006 0.02000000 242 34 117 97.000000 1.000000 4.000000 1.000000 -60.708740 114.000000 206.000000 0.923814 0.371960 -0.090623
-14.30000019 -1.48000002 0.10000000 242 34 117 97.000000 1.000000 4.000000 1.000000 -60.708740 114.000000 206.000000 0.736032 0.664369 0.129888
-14.30000019 -1.48000002 0.10000000 242 34 117 97.000000 1.000000 4.000000 1.000000 -60.708740 114.000000 206.000000 0.736032 0.664369 0.129888
-14.27000046 -1.52999997 0.10000000 242 34 117 97.000000 1.000000 4.000000 1.000000 -60.708740 114.000000 206.000000 0.828435 0.530739 -0.178918
-14.31000042 -1.47000003 0.11000000 242 34 117 97.000000 1.000000 4.000000 1.000000 -60.708740 114.000000 206.000000 0.744939 0.651633 -0.142968
-14.31000042 -1.47000003 0.10000000 242 34 117 97.000000 1.000000 4.000000 1.000000 -60.708740 114.000000 206.000000 0.939536 0.342448 -0.001254
-14.31000042 -1.47000003 0.10000000 242 34 117 97.000000 1.000000 4.000000 1.000000 -60.708740 114.000000 206.000000 0.939536 0.342448 -0.001254
-14.31000042 -1.51999998 0.08000000 242 34 117 97.000000 1.000000 4.000000 1.000000 -60.708740 114.000000 206.000000 0.622027 0.778622 0.082647
-14.28999996 -1.51999998 0.04000000 242 34 117 97.000000 1.000000 4.000000 1.000000 -60.708740 114.000000 206.000000 0.590275 0.774054 0.228946
-14.28999996 -1.51999998 0.03000000 242 34 117 97.000000 1.000000 4.000000 1.000000 -60.708740 114.000000 206.000000 0.793948 0.607628 0.020857
-14.28999996 -1.51999998 0.03000000 242 34 117 97.000000 1.000000 4.000000 1.000000 -60.708740 114.000000 206.000000 0.793948 0.607628 0.020857
-14.30000019 -1.53999996 0.02000000 242 34 117 97.000000 1.000000 4.000000 1.000000 -60.708740 114.000000 206.000000 0.863882 0.447771 -0.230670
-14.34000015 -1.49000001 0.03000000 242 34 117 97.000000 1.000000 4.000000 1.000000 -60.708740 114.000000 206.000000 0.625935 0.759955 0.175140
-14.34000015 -1.50000000 0.06000000 242 34 117 97.000000 1.000000 4.000000 1.000000 -60.708740 114.000000 206.000000 0.677287 0.689977 0.255371
-14.31999969 -1.50000000 0.03000000 242 34 117 97.000000 1.000000 4.000000 1.000000 -60.708740 114.000000 206.000000 0.920706 0.371319 -0.120092
-14.34000015 -1.47000003 0.00000000 242 34 117 97.000000 1.000000 4.000000 1.000000 -60.708740 114.000000 206.000000 0.818826 0.561020 0.121579
-14.32999992 -1.50000000 0.01000000 242 34 117 97.000000 1.000000 4.000000 1.000000 -60.708740 114.000000 206.000000 0.727914 0.546348 -0.414300
-14.31999969 -1.51999998 -0.01000000 242 34 117 97.000000 1.000000 4.000000 1.000000 -60.708740 114.000000 206.000000 0.931830 0.260800 -0.252341
-14.31999969 -1.52999997 0.00000000 242 34 117 97.000000 1.000000 4.000000 1.000000 -60.708740 114.000000 206.000000 0.905343 0.424583 -0.009145
-14.32999992 -1.51999998 -0.02000000 242 34 117 97.000000 1.000000 4.000000 1.000000 -60.708740 114.000000 206.000000 0.805635 0.314973 -0.501741
-14.34000015 -1.53999996 -0.02000000 242 34 117 97.000000 1.000000 4.000000 1.000000 -60.708740 114.000000 206.000000 0.873136 0.034054 -0.486286
-14.34000015 -1.53999996 -0.02000000 242 34 117 97.000000 1.000000 4.000000 1.000000 -60.708740 114.000000 206.000000 0.873136 0.034054 -0.486286
-14.31999969 -1.52999997 0.00000000 242 34 117 97.000000 1.000000 4.000000 1.000000 -60.708740 114.000000 206.000000 0.905343 0.424583 -0.009145
-14.31999969 -1.52999997 -0.01000000 242 34 117 97.000000 1.000000 4.000000 1.000000 -60.708740 114.000000 206.000000 0.830746 0.528385 -0.175130
-14.32999992 -1.50999999 0.00000000 242 34 117 97.000000 1.000000 4.000000 1.000000 -60.708740 114.000000 206.000000 0.742182 0.647695 -0.172211
-14.18999958 -1.54999995 0.15000001 242 34 117 97.000000 1.000000 4.000000 1.000000 -60.708740 114.000000 206.000000 0.880762 0.373153 0.291573
-14.21000004 -1.54999995 0.10000000 242 34 117 97.000000 1.000000 4.000000 1.000000 -60.708740 114.000000 206.000000 0.789894 0.554339 0.262251
-14.21000004 -1.54999995 0.10000000 242 34 117 97.000000 1.000000 4.000000 1.000000 -60.708740 114.000000 206.000000 0.789894 0.554339 0.262251
-14.22999954 -1.55999994 0.07000000 242 34 117 97.000000 1.000000 4.000000 1.000000 -60.708740 114.000000 206.000000 0.830599 0.548455 -0.096447
-14.19999981 -1.57000005 -0.02000000 242 34 117 97.000000 1.000000 4.000000 1.000000 -60.708740 114.000000 206.000000 0.535556 0.565966 -0.626787
-14.22000027 -1.61000001 0.06000000 242 34 117 97.000000 1.000000 4.000000 1.000000 -60.708740 114.000000 206.000000 0.822366 0.556521 -0.118316
-14.18999958 -1.60000002 0.01000000 242 34 117 97.000000 1.000000 4.000000 1.000000 -60.708740 114.000000 206.000000 0.543837 0.749613 -0.377256
-14.26000023 -1.54999995 0.06000000 242 34 117 97.000000 1.000000 4.000000 1.000000 -60.708740 114.000000 206.000000 0.711092 0.596135 -0.372789
-14.26000023 -1.54999995 0.06000000 242 34 117 97.000000 1.000000 4.000000 1.000000 -60.708740 114.000000 206.000000 0.711092 0.596135 -0.372789
-14.22999954 -1.59000003 0.05000000 242 34 117 97.000000 1.000000 4.000000 1.000000 -60.708740 114.000000 206.000000 0.963140 0.263583 -0.053716
-14.25000000 -1.55999994 0.05000000 242 34 117 97.000000 1.000000 4.000000 1.000000 -60.708740 114.000000 206.000000 0.778840 0.586840 -0.221420
-14.23999977 -1.60000002 0.03000000 242 34 117 97.000000 1.000000 4.000000 1.000000 -60.708740 114.000000 206.000000 0.524415 0.806190 -0.273948
-14.22999954 -1.60000002 0.06000000 242 34 117 97.000000 1.000000 4.000000 1.000000 -60.708740 114.000000 206.000000 0.928434 0.370075 -0.032463
-14.23999977 -1.63000000 0.01000000 242 34 117 97.000000 1.000000 4.000000 1.000000 -60.708740 114.000000 206.000000 0.536691 0.651095 -0.536691
-14.26000023 -1.61000001 0.02000000 242 34 117 97.000000 1.000000 4.000000 1.000000 -60.708740 114.000000 206.000000 0.662049 0.678236 -0.318884
-14.26000023 -1.61000001 0.02000000 242 34 117 97.000000 1.000000 4.000000 1.000000 -60.708740 114.000000 206.000000 0.662049 0.678236 -0.318884
-14.25000000 -1.65999997 0.09000000 242 34 117 97.000000 1.000000 4.000000 1.000000 -60.708740 114.000000 206.000000 0.845794 0.523038 0.105184
-14.26000023 -1.63999999 0.09000000 242 34 117 97.000000 1.000000 4.000000 1.000000 -60.708740 114.000000 206.000000 0.780126 0.600682 0.174882
-14.22000027 -1.66999996 0.03000000 242 34 117 97.000000 1.000000 4.000000 1.000000 -60.708740 114.000000 206.000000 0.836908 0.535215 -0.114585
-14.23999977 -1.63999999 0.01000000 242 34 117 97.000000 1.000000 4.000000 1.000000 -60.708740 114.000000 206.000000 0.692899 0.247802 -0.677115
-14.22999954 -1.63999999 0.02000000 242 34 117 97.000000 1.000000 4.000000 1.000000 -60.708740 114.000000 206.000000 0.817429 0.333612 -0.469587
-14.22999954 -1.64999998 -0.01000000 242 34 117 97.000000 1.000000 4.000000 1.000000 -60.708740 114.000000 206.000000 0.862175 0.374792 -0.340860
-14.28999996 -1.60000002 0.09000000 242 34 117 97.000000 1.000000 4.000000 1.000000 -60.708740 114.000000 206.000000 0.618395 0.760271 -0.198935
-14.28999996 -1.54999995 0.04000000 242 34 117 97.000000 1.000000 4.000000 1.000000 -60.708740 114.000000 206.000000 0.850086 0.508885 -0.135606
-14.27000046 -1.54999995 0.04000000 242 34 117 97.000000 1.000000 4.000000 1.000000 -60.708740 114.000000 206.000000 0.800384 0.380142 -0.463549
-14.28999996 -1.54999995 -0.01000000 242 34 117 97.000000 1.000000 4.000000 1.000000 -60.708740 114.000000 206.000000 0.899331 0.437266 0.001305
-14.30000019 -1.54999995 0.02000000 242 34 117 97.000000 1.000000 4.000000 1.000000 -60.708740 114.000000 206.000000 0.694908 0.656391 -0.293691
-14.28999996 -1.55999994 -0.02000000 242 34 117 97.000000 1.000000 4.000000 1.000000 -60.708740 114.000000 206.000000 0.918051 0.381260 -0.108735
-14.28999996 -1.55999994 -0.01000000 242 34 117 97.000000 1.000000 4.000000 1.000000 -60.708740 114.000000 206.000000 0.738037 0.568598 -0.363316
-14.30000019 -1.54999995 0.01000000 242 34 117 97.000000 1.000000 4.000000 1.000000 -60.708740 114.000000 206.000000 0.686940 0.721943 -0.083133
-14.30000019 -1.58000004 0.00000000 242 34 117 97.000000 1.000000 4.000000 1.000000 -60.708740 114.000000 206.000000 0.886616 0.461471 -0.030944
-14.30000019 -1.61000001 0.04000000 242 34 117 97.000000 1.000000 4.000000 1.000000 -60.708740 114.000000 206.000000 0.603167 0.656634 -0.452793
-14.30000019 -1.61000001 0.03000000 242 34 117 97.000000 1.000000 4.000000 1.000000 -60.708740 114.000000 206.000000 0.751106 0.556435 -0.355275
-14.28999996 -1.62000000 0.03000000 242 34 117 97.000000 1.000000 4.000000 1.000000 -60.708740 114.000000 206.000000 0.797553 0.473397 -0.373903
-14.27999973 -1.63000000 0.00000000 242 34 117 97.000000 1.000000 4.000000 1.000000 -60.708740 114.000000 206.000000 0.745482 0.445973 -0.495343
-14.27000046 -1.60000002 -0.02000000 242 34 117 97.000000 1.000000 4.000000 1.000000 -60.708740 114.000000 206.000000 0.868862 0.297765 -0.395493
-14.34000015 -1.54999995 -0.01000000 242 34 117 97.000000 1.000000 4.000000 1.000000 -60.708740 114.000000 206.000000 0.864778 0.214321 -0.454121
-14.32999992 -1.58000004 0.01000000 242 34 117 97.000000 1.000000 4.000000 1.000000 -60.708740 114.000000 206.000000 0.865741 0.236385 -0.441152
-14.31000042 -1.55999994 -0.01000000 242 34 117 97.000000 1.000000 4.000000 1.000000 -60.708740 114.000000 206.000000 0.833249 0.314227 -0.454926
-14.34000015 -1.54999995 -0.01000000 242 34 117 97.000000 1.000000 4.000000 1.000000 -60.708740 114.000000 206.000000 0.864778 0.214321 -0.454121
-14.32999992 -1.63000000 -0.02000000 242 34 117 97.000000 1.000000 4.000000 1.000000 -60.708740 114.000000 206.000000 0.866594 0.360442 -0.345104
-14.34000015 -1.62000000 -0.02000000 242 34 117 97.000000 1.000000 4.000000 1.000000 -60.708740 114.000000 206.000000 0.852514 0.364920 -0.374237
-14.31999969 -1.63000000 0.02000000 242 34 117 97.000000 1.000000 4.000000 1.000000 -60.708740 114.000000 206.000000 0.861462 0.362153 -0.355989
-14.27000046 -1.63999999 0.09000000 242 34 117 97.000000 1.000000 4.000000 1.000000 -60.708740 114.000000 206.000000 0.549881 0.832596 0.066438
-14.30000019 -1.65999997 0.03000000 242 34 117 97.000000 1.000000 4.000000 1.000000 -60.708740 114.000000 206.000000 0.887725 0.431593 -0.160224
-14.27000046 -1.64999998 0.00000000 242 34 117 97.000000 1.000000 4.000000 1.000000 -60.708740 114.000000 206.000000 0.667469 0.143137 -0.730751
-14.36999989 -1.41999996 0.15000001 242 34 117 97.000000 1.000000 4.000000 1.000000 -60.708740 114.000000 206.000000 0.695289 0.391410 0.602804
-14.43000031 -1.41999996 0.18000001 242 34 117 97.000000 1.000000 4.000000 1.000000 -60.708740 114.000000 206.000000 0.542527 0.727217 0.420500
-14.42000008 -1.40999997 0.15000001 242 34 117 97.000000 1.000000 4.000000 1.000000 -60.708740 114.000000 206.000000 0.724793 0.563728 0.396089
-14.39999962 -1.46000004 0.17000000 242 34 117 97.000000 1.000000 4.000000 1.000000 -60.708740 114.000000 206.000000 0.052973 0.725873 0.685786
-14.43000031 -1.50000000 0.23999999 242 34 117 97.000000 1.000000 4.000000 1.000000 -60.708740 114.000000 206.000000 0.428667 0.471045 0.770948
-14.46000004 -1.45000005 0.25000000 242 34 117 97.000000 1.000000 4.000000 1.000000 -60.708740 114.000000 206.000000 0.406622 0.498072 0.765887
-14.47000027 -1.38999999 0.23999999 242 34 117 97.000000 1.000000 4.000000 1.000000 -60.708740 114.000000 206.000000 0.491295 0.240291 0.837191
-14.47999954 -1.45000005 0.23999999 242 34 117 97.000000 1.000000 4.000000 1.000000 -60.708740 114.000000 206.000000 -0.079920 0.158648 0.984095
-14.47000027 -1.41999996 0.15000001 242 34 117 97.000000 1.000000 4.000000 1.000000 -60.708740 114.000000 206.000000 0.640782 0.417756 0.644110
-14.43999958 -1.40999997 0.16000000 242 34 117 97.000000 1.000000 4.000000 1.000000 -60.708740 114.000000 206.000000 0.382940 0.576876 0.721506
-14.46000004 -1.44000006 0.22000000 242 34 117 97.000000 1.000000 4.000000 1.000000 -60.708740 114.000000 206.000000 0.126312 0.512508 0.849341
-14.46000004 -1.45000005 0.15000001 242 34 117 97.000000 1.000000 4.000000 1.000000 -60.708740 114.000000 206.000000 0.162967 0.378367 0.911197
-14.46000004 -1.45000005 0.16000000 242 34 117 97.000000 1.000000 4.000000 1.000000 -60.708740 114.000000 206.000000 0.248787 0.577373 0.777654
-14.51000023 -1.39999998 0.23000000 242 34 117 97.000000 1.000000 4.000000 1.000000 -60.708740 114.000000 206.000000 0.264350 0.233579 0.935714
-14.50000000 -1.41999996 0.16000000 242 34 117 97.000000 1.000000 4.000000 1.000000 -60.708740 114.000000 206.000000 0.361969 0.627304 0.689543
-14.47999954 -1.40999997 0.15000001 242 34 117 97.000000 1.000000 4.000000 1.000000 -60.708740 114.000000 206.000000 0.404600 0.701856 0.586257
-14.47999954 -1.41999996 0.15000001 242 34 117 97.000000 1.000000 4.000000 1.000000 -60.708740 114.000000 206.000000 0.600086 0.492508 0.630343
-14.51000023 -1.42999995 0.19000000 242 34 117 97.000000 1.000000 4.000000 1.000000 -60.708740 114.000000 206.000000 -0.261008 0.346536 0.900993
-14.51000023 -1.42999995 0.22000000 242 34 117 97.000000 1.000000 4.000000 1.000000 -60.708740 114.000000 206.000000 0.371069 0.418440 0.828985
-14.48999977 -1.42999995 0.16000000 242 34 117 97.000000 1.000000 4.000000 1.000000 -60.708740 114.000000 206.000000 0.513185 0.312995 0.799171
-14.47999954 -1.45000005 0.18000001 242 34 117 97.000000 1.000000 4.000000 1.000000 -60.708740 114.000000 206.000000 0.174245 0.260692 0.949567
-14.48999977 -1.49000001 0.25000000 242 34 117 97.000000 1.000000 4.000000 1.000000 -60.708740 114.000000 206.000000 -0.279977 0.336269 0.899186
-14.50000000 -1.49000001 0.25000000 242 34 117 97.000000 1.000000 4.000000 1.000000 -60.708740 114.000000 206.000000 -0.297024 0.104289 0.949158
-14.51000023 -1.52999997 0.23999999 242 34 117 97.000000 1.000000 4.000000 1.000000 -60.708740 114.000000 206.000000 0.380550 -0.467257 -0.798030
-14.51000023 -1.48000002 0.20000000 242 34 117 97.000000 1.000000 4.000000 1.000000 -60.708740 114.000000 206.000000 -0.122591 0.236149 0.963953
-14.51000023 -1.48000002 0.20000000 242 34 117 97.000000 1.000000 4.000000 1.000000 -60.708740 114.000000 206.000000 -0.122591 0.236149 0.963953
-14.38000011 -1.42999995 0.11000000 242 34 117 97.000000 1.000000 4.000000 1.000000 -60.708740 114.000000 206.000000 0.565167 0.521303 0.639398
-14.38000011 -1.46000004 0.10000000 242 34 117 97.000000 1.000000 4.000000 1.000000 -60.708740 114.000000 206.000000 0.859513 0.470864 0.198809
-14.36999989 -1.44000006 0.10000000 242 34 117 97.000000 1.000000 4.000000 1.000000 -60.708740 114.000000 206.000000 0.490302 0.759230 0.427989
-14.35000038 -1.45000005 0.08000000 242 34 117 97.000000 1.000000 4.000000 1.000000 -60.708740 114.000000 206.000000 0.633313 0.629971 0.449502
-14.38000011 -1.42999995 0.07000000 242 34 117 97.000000 1.000000 4.000000 1.000000 -60.708740 114.000000 206.000000 0.801020 0.574743 0.167445
-14.36999989 -1.44000006 0.10000000 242 34 117 97.000000 1.000000 4.000000 1.000000 -60.708740 114.000000 206.000000 0.490302 0.759230 0.427989
-14.43000031 -1.38999999 0.13000000 242 34 117 97.000000 1.000000 4.000000 1.000000 -60.708740 114.000000 206.000000 0.582396 0.518248 0.626286
-14.40999985 -1.45000005 0.08000000 242 34 117 97.000000 1.000000 4.000000 1.000000 -60.708740 114.000000 206.000000 0.859118 0.486099 0.160075
-14.42000008 -1.46000004 0.10000000 242 34 117 97.000000 1.000000 4.000000 1.000000 -60.708740 114.000000 206.000000 0.596322 0.562536 0.572672
-14.42000008 -1.45000005 0.08000000 242 34 117 97.000000 1.000000 4.000000 1.000000 -60.708740 114.000000 206.000000 0.525608 0.759934 0.382408
-14.43000031 -1.44000006 0.09000000 242 34 117 97.000000 1.000000 4.000000 1.000000 -60.708740 114.000000 206.000000 0.479109 0.702805 0.525852
-14.43000031 -1.44000006 0.09000000 242 34 117 97.000000 1.000000 4.000000 1.000000 -60.708740 114.000000 206.000000 0.479109 0.702805 0.525852
-14.43000031 -1.45000005 0.10000000 242 34 117 97.000000 1.000000 4.000000 1.000000 -60.708740 114.000000 206.000000 0.438078 0.691265 0.574666
-14.40999985 -1.45000005 0.09000000 242 34 117 97.000000 1.000000 4.000000 1.000000 -60.708740 114.000000 206.000000 0.652342 0.391405 0.649039
-14.38000011 -1.39999998 0.05000000 242 34 117 97.000000 1.000000 4.000000 1.000000 -60.708740 114.000000 206.000000 0.620637 0.746336 0.240399
-14.35999966 -1.41999996 0.04000000 242 34 117 97.000000 1.000000 4.000000 1.000000 -60.708740 114.000000 206.000000 0.708564 0.664573 0.237235
-14.35999966 -1.41999996 0.04000000 242 34 117 97.000000 1.000000 4.000000 1.000000 -60.708740 114.000000 206.000000 0.708564 0.664573 0.237235
-14.39000034 -1.41999996 0.03000000 242 34 117 97.000000 1.000000 4.000000 1.000000 -60.708740 114.000000 206.000000 0.724004 0.662255 0.192965
-14.35000038 -1.41999996 0.06000000 242 34 117 97.000000 1.000000 4.000000 1.000000 -60.708740 114.000000 206.000000 0.609135 0.792016 0.040797
-14.35000038 -1.41999996 0.05000000 242 34 117 97.000000 1.000000 4.000000 1.000000 -60.708740 114.000000 206.000000 0.740607 0.627393 -0.240579
-14.38000011 -1.38999999 -0.02000000 242 34 117 97.000000 1.000000 4.000000 1.000000 -60.708740 114.000000 206.000000 0.956819 0.263814 0.122063
-14.35000038 -1.40999997 -0.02000000 242 34 117 97.000000 1.000000 4.000000 1.000000 -60.708740 114.000000 206.000000 0.700140 0.700140 0.140028
-14.35999966 -1.39999998 -0.01000000 242 34 117 97.000000 1.000000 4.000000 1.000000 -60.708740 114.000000 206.000000 0.904679 0.425186 0.027816
-14.35000038 -1.40999997 -0.02000000 242 34 117 97.000000 1.000000 4.000000 1.000000 -60.708740 114.000000 206.000000 0.700140 0.700140 0.140028
-14.35999966 -1.39999998 -0.02000000 242 34 117 97.000000 1.000000 4.000000 1.000000 -60.708740 114.000000 206.000000 0.771354 0.546843 -0.325540
-14.35000038 -1.40999997 -0.02000000 242 34 117 97.000000 1.000000 4.000000 1.000000 -60.708740 114.000000 206.000000 0.700140 0.700140 0.140028
-14.35999966 -1.42999995 0.03000000 242 34 117 97.000000 1.000000 4.000000 1.000000 -60.708740 114.000000 206.000000 0.837839 0.519371 -0.168163
-14.38000011 -1.42999995 0.04000000 242 34 117 97.000000 1.000000 4.000000 1.000000 -60.708740 114.000000 206.000000 0.598824 0.800736 -0.015213
-14.38000011 -1.42999995 0.06000000 242 34 117 97.000000 1.000000 4.000000 1.000000 -60.708740 114.000000 206.000000 0.595365 0.802692 -0.035021
-14.39999962 -1.38999999 0.03000000 242 34 117 97.000000 1.000000 4.000000 1.000000 -60.708740 114.000000 206.000000 0.638768 0.767379 0.055731
-14.39999962 -1.41999996 0.05000000 242 34 117 97.000000 1.000000 4.000000 1.000000 -60.708740 114.000000 206.000000 0.615458 0.712893 0.336148
-14.39999962 -1.38999999 0.04000000 242 34 117 97.000000 1.000000 4.000000 1.000000 -60.708740 114.000000 206.000000 0.939296 0.257437 0.226823
-14.39999962 -1.38999999 0.06000000 242 34 117 97.000000 1.000000 4.000000 1.000000 -60.708740 114.000000 206.000000 0.653142 0.755596 0.049804
-14.42000008 -1.39999998 0.00000000 242 34 117 97.000000 1.000000 4.000000 1.000000 -60.708740 114.000000 206.000000 0.738702 0.548703 -0.391463
-14.42000008 -1.39999998 -0.01000000 242 34 117 97.000000 1.000000 4.000000 1.000000 -60.708740 114.000000 206.000000 0.580485 0.799480 0.154496
-14.42000008 -1.39999998 0.00000000 242 34 117 97.000000 1.000000 4.000000 1.000000 -60.708740 114.000000 206.000000 0.738702 0.548703 -0.391463
-14.42000008 -1.40999997 0.01000000 242 34 117 97.000000 1.000000 4.000000 1.000000 -60.708740 114.000000 206.000000 0.916231 0.381185 0.123365
-14.39999962 -1.38999999 0.02000000 242 34 117 97.000000 1.000000 4.000000 1.000000 -60.708740 114.000000 206.000000 0.490590 0.870489 -0.039630
-14.40999985 -1.45000005 0.05000000 242 34 117 97.000000 1.000000 4.000000 1.000000 -60.708740 114.000000 206.000000 0.639902 0.736432 0.219528
-14.35000038 -1.48000002 0.07000000 242 34 117 97.000000 1.000000 4.000000 1.000000 -60.708740 114.000000 206.000000 0.665056 0.611718 0.428370
-14.35000038 -1.48000002 0.05000000 242 34 117 97.000000 1.000000 4.000000 1.000000 -60.708740 114.000000 206.000000 0.862175 0.422695 -0.279253
-14.35999966 -1.48000002 0.03000000 242 34 117 97.000000 1.000000 4.000000 1.000000 -60.708740 114.000000 206.000000 0.950967 0.274189 0.143113
-14.35000038 -1.49000001 0.01000000 242 34 117 97.000000 1.000000 4.000000 1.000000 -60.708740 114.000000 206.000000 0.617411 0.764486 -0.185376
-14.35000038 -1.48000002 -0.02000000 242 34 117 97.000000 1.000000 4.000000 1.000000 -60.708740 114.000000 206.000000 0.524116 0.681518 -0.510720
-14.43999958 -1.38999999 0.13000000 242 34 117 97.000000 1.000000 4.000000 1.000000 -60.708740 114.000000 206.000000 0.583667 0.502929 0.637492
-14.46000004 -1.39999998 0.13000000 242 34 117 97.000000 1.000000 4.000000 1.000000 -60.708740 114.000000 206.000000 0.628725 0.471125 0.618665
-14.46000004 -1.41999996 0.08000000 242 34 117 97.000000 1.000000 4.000000 1.000000 -60.708740 114.000000 206.000000 0.703158 0.509413 0.496052
-14.46000004 -1.41999996 0.08000000 242 34 117 97.000000 1.000000 4.000000 1.000000 -60.708740 114.000000 206.000000 0.703158 0.509413 0.496052
-14.46000004 -1.41999996 0.09000000 242 34 117 97.000000 1.000000 4.000000 1.000000 -60.708740 114.000000 206.000000 0.559357 0.708740 0.429892
-14.46000004 -1.41999996 0.08000000 242 34 117 97.000000 1.000000 4.000000 1.000000 -60.708740 114.000000 206.000000 0.703158 0.509413 0.496052
-14.43999958 -1.42999995 0.14000000 242 34 117 97.000000 1.000000 4.000000 1.000000 -60.708740 114.000000 206.000000 0.662838 0.558798 0.498387
-14.47000027 -1.46000004 0.12000000 242 34 117 97.000000 1.000000 4.000000 1.000000 -60.708740 114.000000 206.000000 0.311912 0.432953 0.845732
-14.43999958 -1.42999995 0.14000000 242 34 117 97.000000 1.000000 4.000000 1.000000 -60.708740 114.000000 206.000000 0.662838 0.558798 0.498387
-14.47000027 -1.45000005 0.10000000 242 34 117 97.000000 1.000000 4.000000 1.000000 -60.708740 114.000000 206.000000 0.552287 0.596200 0.582688
-14.48999977 -1.39999998 0.07000000 242 34 117 97.000000 1.000000 4.000000 1.000000 -60.708740 114.000000 206.000000 0.737492 0.381011 0.557616
-14.51000023 -1.39999998 0.08000000 242 34 117 97.000000 1.000000 4.000000 1.000000 -60.708740 114.000000 206.000000 0.335375 0.279233 0.899751
-14.48999977 -1.44000006 0.13000000 242 34 117 97.000000 1.000000 4.000000 1.000000 -60.708740 114.000000 206.000000 0.292900 0.383957 0.875664
-14.47999954 -1.45000005 0.11000000 242 34 117 97.000000 1.000000 4.000000 1.000000 -60.708740 114.000000 206.000000 0.141597 0.853962 0.500699
-14.48999977 -1.46000004 0.12000000 242 34 117 97.000000 1.000000 4.000000 1.000000 -60.708740 114.000000 206.000000 0.418561 0.706424 0.570764
-14.47999954 -1.44000006 0.09000000 242 34 117 97.000000 1.000000 4.000000 1.000000 -60.708740 114.000000 206.000000 0.198933 0.744843 0.636895
-14.51000023 -1.44000006 0.09000000 242 34 117 97.000000 1.000000 4.000000 1.000000 -60.708740 114.000000 206.000000 0.288731 0.601391 0.744959
-14.44999981 -1.41999996 0.05000000 242 34 117 97.000000 1.000000 4.000000 1.000000 -60.708740 114.000000 206.000000 0.688753 0.724930 0.009740
-14.46000004 -1.40999997 0.03000000 242 34 117 97.000000 1.000000 4.000000 1.000000 -60.708740 114.000000 206.000000 0.908412 0.344470 0.236914
-14.44999981 -1.41999996 0.03000000 242 34 117 97.000000 1.000000 4.000000 1.000000 -60.708740 114.000000 206.000000 0.570454 0.594152 0.567068
-14.44999981 -1.41999996 0.05000000 242 34 117 97.000000 1.000000 4.000000 1.000000 -60.708740 114.000000 206.000000 0.688753 0.724930 0.009740
-14.46000004 -1.40999997 -0.01000000 242 34 117 97.000000 1.000000 4.000000 1.000000 -60.708740 114.000000 206.000000 0.826433 0.502039 0.254881
-14.44999981 -1.40999997 0.01000000 242 34 117 97.000000 1.000000 4.000000 1.000000 -60.708740 114.000000 206.000000 0.841437 0.504260 -0.194178
-14.44999981 -1.42999995 0.04000000 242 34 117 97.000000 1.000000 4.000000 1.000000 -60.708740 114.000000 206.000000 0.790612 0.551699 0.265633
-14.43999958 -1.44000006 0.04000000 242 34 117 97.000000 1.000000 4.000000 1.000000 -60.708740 114.000000 206.000000 0.522693 0.752088 0.401441
-14.47999954 -1.48000002 0.13000000 242 34 117 97.000000 1.000000 4.000000 1.000000 -60.708740 114.000000 206.000000 0.464910 0.622677 0.629390
-14.63000011 -1.14999998 0.33000001 242 34 117 97.000000 1.000000 4.000000 1.000000 -60.708740 114.000000 206.000000 0.077378 0.505070 0.859603
-14.64000034 -1.14999998 0.34000000 242 34 117 97.000000 1.000000 4.000000 1.000000 -60.708740 114.000000 206.000000 0.059860 0.376451 0.924501
-14.65999985 -1.13999999 0.34000000 242 34 117 97.000000 1.000000 4.000000 1.000000 -60.708740 114.000000 206.000000 0.321200 0.446547 0.835121
-14.65999985 -1.13999999 0.34000000 242 34 117 97.000000 1.000000 4.000000 1.000000 -60.708740 114.000000 206.000000 0.321200 0.446547 0.835121
-14.60000038 -1.23000002 0.31999999 242 34 117 97.000000 1.000000 4.000000 1.000000 -60.708740 114.000000 206.000000 0.245289 0.256502 0.934901
-14.69999981 -1.13000000 0.31999999 242 34 117 97.000000 1.000000 4.000000 1.000000 -60.708740 114.000000 206.000000 -0.137682 0.152566 0.978656
-14.59000015 -1.16999996 0.30000001 242 34 117 97.000000 1.000000 4.000000 1.000000 -60.708740 114.000000 206.000000 -0.164629 0.602632 0.780854
-14.57999992 -1.13999999 0.31000000 242 34 117 97.000000 1.000000 4.000000 1.000000 -60.708740 114.000000 206.000000 0.267225 0.441303 0.856646
-14.59000015 -1.15999997 0.15000001 242 34 117 97.000000 1.000000 4.000000 1.000000 -60.708740 114.000000 206.000000 0.559030 0.569163 0.602942
-14.68000031 -1.11000001 0.28000000 242 34 117 97.000000 1.000000 4.000000 1.000000 -60.708740 114.000000 206.000000 0.155164 0.619148 0.769792
-14.68000031 -1.11000001 0.28000000 242 34 117 97.000000 1.000000 4.000000 1.000000 -60.708740 114.000000 206.000000 0.155164 0.619148 0.769792
-14.67000008 -1.12000000 0.28000000 242 34 117 97.000000 1.000000 4.000000 1.000000 -60.708740 114.000000 206.000000 -0.125544 0.314536 0.940907
-14.65999985 -1.09000003 0.27000001 242 34 117 97.000000 1.000000 4.000000 1.000000 -60.708740 114.000000 206.000000 0.052937 0.438424 0.897208
-14.65999985 -1.11000001 0.27000001 242 34 117 97.000000 1.000000 4.000000 1.000000 -60.708740 114.000000 206.000000 -0.106708 0.594936 0.796659
-14.63000011 -1.15999997 0.31000000 242 34 117 97.000000 1.000000 4.000000 1.000000 -60.708740 114.000000 206.000000 0.079205 0.591876 0.802128
-14.61999989 -1.15999997 0.27000001 242 34 117 97.000000 1.000000 4.000000 1.000000 -60.708740 114.000000 206.000000 0.028220 0.463621 0.885584
-14.63000011 -1.17999995 0.27000001 242 34 117 97.000000 1.000000 4.000000 1.000000 -60.708740 114.000000 206.000000 -0.203668 0.502380 0.840318
-14.60999966 -1.17999995 0.25999999 242 34 117 97.000000 1.000000 4.000000 1.000000 -60.708740 114.000000 206.000000 0.319598 0.670021 0.670021
-14.68000031 -1.13000000 0.28000000 242 34 117 97.000000 1.000000 4.000000 1.000000 -60.708740 114.000000 206.000000 0.141191 0.254671 0.956665
-14.64999962 -1.13000000 0.23999999 242 34 117 97.000000 1.000000 4.000000 1.000000 -60.708740 114.000000 206.000000 0.340495 0.553506 0.760062
-14.68000031 -1.14999998 0.27000001 242 34 117 97.000000 1.000000 4.000000 1.000000 -60.708740 114.000000 206.000000 0.093448 0.095755 0.991009
-14.64999962 -1.17999995 0.28999999 242 34 117 97.000000 1.000000 4.000000 1.000000 -60.708740 114.000000 206.000000 0.239174 0.598716 0.764418
-14.67000008 -1.19000006 0.27000001 242 34 117 97.000000 1.000000 4.000000 1.000000 -60.708740 114.000000 206.000000 0.357781 0.303435 0.883131
-14.64999962 -1.20000005 0.23999999 242 34 117 97.000000 1.000000 4.000000 1.000000 -60.708740 114.000000 206.000000 0.159993 0.422324 0.892213
-14.64999962 -1.21000004 0.25000000 242 34 117 97.000000 1.000000 4.000000 1.000000 -60.708740 114.000000 206.000000 0.279225 0.245208 0.928389
-14.68000031 -1.20000005 0.27000001 242 34 117 97.000000 1.000000 4.000000 1.000000 -60.708740 114.000000 206.000000 0.212847 0.650970 0.728652
-14.63000011 -1.13999999 0.16000000 242 34 117 97.000000 1.000000 4.000000 1.000000 -60.708740 114.000000 206.000000 0.098196 0.348394 0.932190
-14.59000015 -1.09000003 0.01000000 242 34 117 97.000000 1.000000 4.000000 1.000000 -60.708740 114.000000 206.000000 0.579940 0.433709 0.689613
-14.57999992 -1.10000002 -0.02000000 242 34 117 97.000000 1.000000 4.000000 1.000000 -60.708740 114.000000 206.000000 0.919500 0.330334 0.213072
-14.56000042 -1.09000003 -0.02000000 242 34 117 97.000000 1.000000 4.000000 1.000000 -60.708740 114.000000 206.000000 0.668459 0.740647 -0.067857
-14.57999992 -1.15999997 0.14000000 242 34 117 97.000000 1.000000 4.000000 1.000000 -60.708740 114.000000 206.000000 0.436300 0.559061 0.705048
-14.59000015 -1.15999997 0.14000000 242 34 117 97.000000 1.000000 4.000000 1.000000 -60.708740 114.000000 206.000000 0.255533 0.503323 0.825450
-14.59000015 -1.14999998 0.09000000 242 34 117 97.000000 1.000000 4.000000 1.000000 -60.708740 114.000000 206.000000 0.638734 0.297647 0.709525
-14.52999973 -1.13999999 0.03000000 242 34 117 97.000000 1.000000 4.000000 1.000000 -60.708740 114.000000 206.000000 0.285497 0.738465 0.610869
-14.55000019 -1.13000000 -0.01000000 242 34 117 97.000000 1.000000 4.000000 1.000000 -60.708740 114.000000 206.000000 0.721553 0.649240 0.240518
-14.52999973 -1.19000006 0.04000000 242 34 117 97.000000 1.000000 4.000000 1.000000 -60.708740 114.000000 206.000000 0.698806 0.643935 0.311477
-14.52000046 -1.20000005 0.05000000 242 34 117 97.000000 1.000000 4.000000 1.000000 -60.708740 114.000000 206.000000 0.729163 0.672500 0.126746
-14.59000015 -1.15999997 0.01000000 242 34 117 97.000000 1.000000 4.000000 1.000000 -60.708740 114.000000 206.000000 0.300835 0.881342 0.364328
-14.56000042 -1.14999998 0.02000000 242 34 117 97.000000 1.000000 4.000000 1.000000 -60.708740 114.000000 206.000000 0.547904 0.833890 0.066541
-14.56999969 -1.17999995 0.06000000 242 34 117 97.000000 1.000000 4.000000 1.000000 -60.708740 114.000000 206.000000 0.817337 0.483473 0.313391
-14.60999966 -1.12000000 0.13000000 242 34 117 97.000000 1.000000 4.000000 1.000000 -60.708740 114.000000 206.000000 0.544494 0.380982 0.747248
-14.60000038 -1.08000004 0.02000000 242 34 117 97.000000 1.000000 4.000000 1.000000 -60.708740 114.000000 206.000000 0.524299 0.374963 0.764535
-14.60000038 -1.13000000 0.13000000 242 34 117 97.000000 1.000000 4.000000 1.000000 -60.708740 114.000000 206.000000 0.336437 0.226698 0.914012
-14.61999989 -1.15999997 0.12000000 242 34 117 97.000000 1.000000 4.000000 1.000000 -60.708740 114.000000 206.000000 0.641433 0.377605 0.667816
-14.60000038 -1.14999998 0.08000000 242 34 117 97.000000 1.000000 4.000000 1.000000 -60.708740 114.000000 206.000000 0.272608 0.549943 0.789460
-14.61999989 -1.19000006 0.13000000 242 34 117 97.000000 1.000000 4.000000 1.000000 -60.708740 114.000000 206.000000 0.601795 0.365669 0.710020
-14.60000038 -1.20000005 0.14000000 242 34 117 97.000000 1.000000 4.000000 1.000000 -60.708740 114.000000 206.000000 0.310710 0.236254 0.920675
-14.67000008 -1.17999995 0.10000000 242 34 117 97.000000 1.000000 4.000000 1.000000 -60.708740 114.000000 206.000000 0.406755 0.178046 0.896019
-14.52999973 -1.23000002 0.25999999 242 34 117 97.000000 1.000000 4.000000 1.000000 -60.708740 114.000000 206.000000 0.573636 0.313330 0.756813
-14.55000019 -1.27999997 0.25000000 242 34 117 97.000000 1.000000 4.000000 1.000000 -60.708740 114.000000 206.000000 0.094840 0.337949 0.936374
-14.57999992 -1.28999996 0.27000001 242 34 117 97.000000 1.000000 4.000000 1.000000 -60.708740 114.000000 206.000000 0.179725 0.352375 0.918439
-14.56000042 -1.26999998 0.23999999 242 34 117 97.000000 1.000000 4.000000 1.000000 -60.708740 114.000000 206.000000 -0.076871 0.381657 0.921102
-14.52000046 -1.24000001 0.15000001 242 34 117 97.000000 1.000000 4.000000 1.000000 -60.708740 114.000000 206.000000 0.363227 0.262413 0.893983
-14.52000046 -1.24000001 0.15000001 242 34 117 97.000000 1.000000 4.000000 1.000000 -60.708740 114.000000 206.000000 0.363227 0.262413 0.893983
-14.57999992 -1.26999998 0.19000000 242 34 117 97.000000 1.000000 4.000000 1.000000 -60.708740 114.000000 206.000000 0.203976 0.142398 0.968564
-14.53999996 -1.29999995 0.31000000 242 34 117 97.000000 1.000000 4.000000 1.000000 -60.708740 114.000000 206.000000 -0.194903 0.312686 0.929645
-14.52000046 -1.32000005 0.31000000 242 34 117 97.000000 1.000000 4.000000 1.000000 -60.708740 114.000000 206.000000 0.377873 0.144688 0.914482
-14.53999996 -1.32000005 0.25999999 242 34 117 97.000000 1.000000 4.000000 1.000000 -60.708740 114.000000 206.000000 0.037555 0.356121 0.933685
-14.52000046 -1.30999994 0.25000000 242 34 117 97.000000 1.000000 4.000000 1.000000 -60.708740 114.000000 206.000000 0.150940 0.799535 0.581344
-14.52999973 -1.36000001 0.30000001 242 34 117 97.000000 1.000000 4.000000 1.000000 -60.708740 114.000000 206.000000 0.113505 0.097123 0.988779
-14.52999973 -1.38000000 0.30000001 242 34 117 97.000000 1.000000 4.000000 1.000000 -60.708740 114.000000 206.000000 0.327639 0.184209 0.926671
-14.53999996 -1.36000001 0.23999999 242 34 117 97.000000 1.000000 4.000000 1.000000 -60.708740 114.000000 206.000000 0.406108 0.547506 0.731652
-14.56999969 -1.29999995 0.28999999 242 34 117 97.000000 1.000000 4.000000 1.000000 -60.708740 114.000000 206.000000 -0.089309 0.713011 0.695442
-14.57999992 -1.29999995 0.27000001 242 34 117 97.000000 1.000000 4.000000 1.000000 -60.708740 114.000000 206.000000 0.091789 0.487186 0.868461
-14.56000042 -1.37000000 0.30000001 242 34 117 97.000000 1.000000 4.000000 1.000000 -60.708740 114.000000 206.000000 0.394900 0.232207 0.888895
-14.56999969 -1.38000000 0.30000001 242 34 117 97.000000 1.000000 4.000000 1.000000 -60.708740 114.000000 206.000000 0.084718 0.018230 0.996238
-14.52999973 -1.34000003 0.16000000 242 34 117 97.000000 1.000000 4.000000 1.000000 -60.708740 114.000000 206.000000 0.650808 0.460083 0.603964
-14.60999966 -1.25000000 0.25000000 242 34 117 97.000000 1.000000 4.000000 1.000000 -60.708740 114.000000 206.000000 0.070034 0.072257 0.994924
-14.60999966 -1.22000003 0.25000000 242 34 117 97.000000 1.000000 4.000000 1.000000 -60.708740 114.000000 206.000000 0.195075 0.036650 0.980103
-14.60000038 -1.25000000 0.25999999 242 34 117 97.000000 1.000000 4.000000 1.000000 -60.708740 114.000000 206.000000 -0.202063 0.291249 0.935064
-14.61999989 -1.24000001 0.25000000 242 34 117 97.000000 1.000000 4.000000 1.000000 -60.708740 114.000000 206.000000 0.138844 0.436573 0.888891
-14.63000011 -1.23000002 0.25000000 242 34 117 97.000000 1.000000 4.000000 1.000000 -60.708740 114.000000 206.000000 0.070758 0.126436 0.989448
-14.63000011 -1.25999999 0.25000000 242 34 117 97.000000 1.000000 4.000000 1.000000 -60.708740 114.000000 206.000000 -0.297713 0.277381 0.913470
-14.60000038 -1.28999996 0.27000001 242 34 117 97.000000 1.000000 4.000000 1.000000 -60.708740 114.000000 206.000000 0.054884 0.099686 0.993504
-14.64999962 -1.22000003 0.25000000 242 34 117 97.000000 1.000000 4.000000 1.000000 -60.708740 114.000000 206.000000 0.066231 0.133624 0.988817
-14.64999962 -1.22000003 0.25000000 242 34 117 97.000000 1.000000 4.000000 1.000000 -60.708740 114.000000 206.000000 0.066231 0.133624 0.988817
-14.64999962 -1.22000003 0.25000000 242 34 117 97.000000 1.000000 4.000000 1.000000 -60.708740 114.000000 206.000000 0.066231 0.133624 0.988817
-14.65999985 -1.25999999 0.28999999 242 34 117 97.000000 1.000000 4.000000 1.000000 -60.708740 114.000000 206.000000 -0.177841 0.588244 0.788886
-14.60999966 -1.27999997 0.16000000 242 34 117 97.000000 1.000000 4.000000 1.000000 -60.708740 114.000000 206.000000 0.289765 0.635563 0.715609
-14.60000038 -1.28999996 0.16000000 242 34 117 97.000000 1.000000 4.000000 1.000000 -60.708740 114.000000 206.000000 0.431387 0.641251 0.634589
-14.68000031 -1.24000001 0.18000001 242 34 117 97.000000 1.000000 4.000000 1.000000 -60.708740 114.000000 206.000000 0.336216 0.229435 0.913410
-14.65999985 -1.27999997 0.20000000 242 34 117 97.000000 1.000000 4.000000 1.000000 -60.708740 114.000000 206.000000 -0.105749 0.551924 0.827162
-14.64999962 -1.27999997 0.20999999 242 34 117 97.000000 1.000000 4.000000 1.000000 -60.708740 114.000000 206.000000 -0.221764 0.032366 0.974563
-14.60000038 -1.33000004 0.28999999 242 34 117 97.000000 1.000000 4.000000 1.000000 -60.708740 114.000000 206.000000 0.064929 0.714219 0.696904
-14.63000011 -1.29999995 0.28999999 242 34 117 97.000000 1.000000 4.000000 1.000000 -60.708740 114.000000 206.000000 -0.417104 0.385385 0.823106
-14.63000011 -1.33000004 0.30000001 242 34 117 97.000000 1.000000 4.000000 1.000000 -60.708740 114.000000 206.000000 0.070518 0.457677 0.886318
-14.64000034 -1.30999994 0.23999999 242 34 117 97.000000 1.000000 4.000000 1.000000 -60.708740 114.000000 206.000000 -0.322107 0.399166 0.858437
-14.64000034 -1.34000003 0.28999999 242 34 117 97.000000 1.000000 4.000000 1.000000 -60.708740 114.000000 206.000000 -0.207911 -0.059577 0.976332
-14.63000011 -1.34000003 0.28999999 242 34 117 97.000000 1.000000 4.000000 1.000000 -60.708740 114.000000 206.000000 -0.249551 0.003582 0.968355
-14.64999962 -1.30999994 0.28000000 242 34 117 97.000000 1.000000 4.000000 1.000000 -60.708740 114.000000 206.000000 -0.035122 0.625166 0.779701
-14.65999985 -1.36000001 0.30000001 242 34 117 97.000000 1.000000 4.000000 1.000000 -60.708740 114.000000 206.000000 -0.038961 0.436634 0.898795
-14.61999989 -1.29999995 0.16000000 242 34 117 97.000000 1.000000 4.000000 1.000000 -60.708740 114.000000 206.000000 0.314607 0.601786 0.734082
-14.65999985 -1.30999994 0.22000000 242 34 117 97.000000 1.000000 4.000000 1.000000 -60.708740 114.000000 206.000000 -0.075642 0.558042 0.826358
-14.67000008 -1.29999995 0.22000000 242 34 117 97.000000 1.000000 4.000000 1.000000 -60.708740 114.000000 206.000000 0.126190 0.178665 0.975784
-14.65999985 -1.30999994 0.22000000 242 34 117 97.000000 1.000000 4.000000 1.000000 -60.708740 114.000000 206.000000 -0.075642 0.558042 0.826358
-14.59000015 -1.26999998 0.14000000 242 34 117 97.000000 1.000000 4.000000 1.000000 -60.708740 114.000000 206.000000 0.341487 0.359863 0.868266
-14.52000046 -1.28999996 0.12000000 242 34 117 97.000000 1.000000 4.000000 1.000000 -60.708740 114.000000 206.000000 0.376684 0.633290 0.676057
-14.53999996 -1.24000001 -0.01000000 242 34 117 97.000000 1.000000 4.000000 1.000000 -60.708740 114.000000 206.000000 0.703519 0.598073 0.383887
-14.55000019 -1.27999997 0.00000000 242 34 117 97.000000 1.000000 4.000000 1.000000 -60.708740 114.000000 206.000000 0.794243 0.591585 0.138583
-14.52000046 -1.32000005 0.13000000 242 34 117 97.000000 1.000000 4.000000 1.000000 -60.708740 114.000000 206.000000 0.435141 0.236391 0.868776
-14.52000046 -1.35000002 0.11000000 242 34 117 97.000000 1.000000 4.000000 1.000000 -60.708740 114.000000 206.000000 0.555677 0.599591 0.575945
-14.64000034 -1.25000000 0.13000000 242 34 117 97.000000 1.000000 4.000000 1.000000 -60.708740 114.000000 206.000000 0.391255 0.353844 0.849538
-14.69999981 -1.12000000 0.28000000 242 34 117 97.000000 1.000000 4.000000 1.000000 -60.708740 114.000000 206.000000 0.304825 0.060451 0.950488
-14.68999958 -1.11000001 0.27000001 242 34 117 97.000000 1.000000 4.000000 1.000000 -60.708740 114.000000 206.000000 0.304862 0.172433 0.936657
-14.68999958 -1.11000001 0.31000000 242 34 117 97.000000 1.000000 4.000000 1.000000 -60.708740 114.000000 206.000000 -0.205624 0.324744 0.923180
-14.69999981 -1.15999997 0.30000001 242 34 117 97.000000 1.000000 4.000000 1.000000 -60.708740 114.000000 206.000000 -0.336885 0.283458 0.897864
-14.71000004 -1.15999997 0.28999999 242 34 117 97.000000 1.000000 4.000000 1.000000 -60.708740 114.000000 206.000000 -0.055997 0.071369 0.995877
-14.69999981 -1.16999996 0.28999999 242 34 117 97.000000 1.000000 4.000000 1.000000 -60.708740 114.000000 206.000000 -0.283340 0.226954 0.931778
-14.68999958 -1.17999995 0.25000000 242 34 117 97.000000 1.000000 4.000000 1.000000 -60.708740 114.000000 206.000000 0.405895 0.219921 0.887065
-14.73999977 -1.14999998 0.28000000 242 34 117 97.000000 1.000000 4.000000 1.000000 -60.708740 114.000000 206.000000 -0.118734 0.476367 0.871193
-14.68999958 -1.21000004 0.19000000 242 34 117 97.000000 1.000000 4.000000 1.000000 -60.708740 114.000000 206.000000 0.239359 0.589792 0.771267
-14.73999977 -1.28999996 0.25000000 242 34 117 97.000000 1.000000 4.000000 1.000000 -60.708740 114.000000 206.000000 0.133389 -0.005512 0.991048
-14.69999981 -1.23000002 0.18000001 242 34 117 97.000000 1.000000 4.000000 1.000000 -60.708740 114.000000 206.000000 0.063325 0.314042 0.947295
-14.71000004 -1.22000003 0.17000000 242 34 117 97.000000 1.000000 4.000000 1.000000 -60.708740 114.000000 206.000000 -0.079971 0.664489 0.743007
-14.68999958 -1.26999998 0.23000000 242 34 117 97.000000 1.000000 4.000000 1.000000 -60.708740 114.000000 206.000000 0.321075 0.291483 0.901082
-14.69999981 -1.28999996 0.23000000 242 34 117 97.000000 1.000000 4.000000 1.000000 -60.708740 114.000000 206.000000 -0.329688 0.193851 0.923974
-14.68999958 -1.28999996 0.23000000 242 34 117 97.000000 1.000000 4.000000 1.000000 -60.708740 114.000000 206.000000 -0.335987 -0.039906 0.941021
-14.68999958 -1.28999996 0.23000000 242 34 117 97.000000 1.000000 4.000000 1.000000 -60.708740 114.000000 206.000000 -0.335987 -0.039906 0.941021
-14.68999958 -1.25999999 0.23000000 242 34 117 97.000000 1.000000 4.000000 1.000000 -60.708740 114.000000 206.000000 -0.039846 0.501505 0.864237
-14.73999977 -1.28999996 0.22000000 242 34 117 97.000000 1.000000 4.000000 1.000000 -60.708740 114.000000 206.000000 -0.168720 0.232489 0.957853
-14.69999981 -1.29999995 0.23000000 242 34 117 97.000000 1.000000 4.000000 1.000000 -60.708740 114.000000 206.000000 -0.335127 0.259028 0.905867
-14.52000046 -1.41999996 0.33000001 242 34 117 97.000000 1.000000 4.000000 1.000000 -60.708740 114.000000 206.000000 0.227368 0.286681 0.930654
-14.55000019 -1.41999996 0.31999999 242 34 117 97.000000 1.000000 4.000000 1.000000 -60.708740 114.000000 206.000000 -0.386877 0.094327 0.917294
-14.64000034 -1.38999999 0.36000001 242 34 117 97.000000 1.000000 4.000000 1.000000 -60.708740 114.000000 206.000000 -0.181772 0.146180 0.972415
-14.61999989 -1.38999999 0.36000001 242 34 117 97.000000 1.000000 4.000000 1.000000 -60.708740 114.000000 206.000000 0.128794 0.049010 0.990460
-14.61999989 -1.40999997 0.36000001 242 34 117 97.000000 1.000000 4.000000 1.000000 -60.708740 114.000000 206.000000 -0.011836 -0.095767 0.995333
-14.60000038 -1.39999998 0.34999999 242 34 117 97.000000 1.000000 4.000000 1.000000 -60.708740 114.000000 206.000000 0.198436 0.209090 0.957551
-14.60000038 -1.39999998 0.34999999 242 34 117 97.000000 1.000000 4.000000 1.000000 -60.708740 114.000000 206.000000 0.198436 0.209090 0.957551
-14.52000046 -1.46000004 0.28000000 242 34 117 97.000000 1.000000 4.000000 1.000000 -60.708740 114.000000 206.000000 0.202294 0.432644 0.878577
-14.55000019 -1.46000004 0.27000001 242 34 117 97.000000 1.000000 4.000000 1.000000 -60.708740 114.000000 206.000000 0.029970 0.221781 0.974636
-14.52999973 -1.44000006 0.27000001 242 34 117 97.000000 1.000000 4.000000 1.000000 -60.708740 114.000000 206.000000 -0.092399 0.346832 0.933365
-14.52000046 -1.41999996 0.22000000 242 34 117 97.000000 1.000000 4.000000 1.000000 -60.708740 114.000000 206.000000 0.066586 0.417180 0.906381
-14.52000046 -1.40999997 0.18000001 242 34 117 97.000000 1.000000 4.000000 1.000000 -60.708740 114.000000 206.000000 0.412600 0.152762 0.898012
-14.53999996 -1.46000004 0.23000000 242 34 117 97.000000 1.000000 4.000000 1.000000 -60.708740 114.000000 206.000000 -0.047278 0.310502 0.949396
-14.52999973 -1.42999995 0.19000000 242 34 117 97.000000 1.000000 4.000000 1.000000 -60.708740 114.000000 206.000000 0.329530 0.495091 0.803925
-14.52000046 -1.46000004 0.19000000 242 34 117 97.000000 1.000000 4.000000 1.000000 -60.708740 114.000000 206.000000 0.367840 0.444275 0.816893
-14.55000019 -1.42999995 0.18000001 242 34 117 97.000000 1.000000 4.000000 1.000000 -60.708740 114.000000 206.000000 0.058062 0.573540 0.817117
-14.55000019 -1.47000003 0.28000000 242 34 117 97.000000 1.000000 4.000000 1.000000 -60.708740 114.000000 206.000000 0.229797 0.404739 0.885088
-14.55000019 -1.47000003 0.28000000 242 34 117 97.000000 1.000000 4.000000 1.000000 -60.708740 114.000000 206.000000 0.229797 0.404739 0.885088
-14.53999996 -1.47000003 0.28000000 242 34 117 97.000000 1.000000 4.000000 1.000000 -60.708740 114.000000 206.000000 0.091506 0.471607 0.877048
-14.52000046 -1.47000003 0.23000000 242 34 117 97.000000 1.000000 4.000000 1.000000 -60.708740 114.000000 206.000000 -0.171524 0.599574 0.781723
-14.52999973 -1.49000001 0.19000000 242 34 117 97.000000 1.000000 4.000000 1.000000 -60.708740 114.000000 206.000000 0.277211 0.210346 0.937501
-14.52999973 -1.51999998 0.22000000 242 34 117 97.000000 1.000000 4.000000 1.000000 -60.708740 114.000000 206.000000 -0.015245 0.611179 0.791345
-14.53999996 -1.51999998 0.23000000 242 34 117 97.000000 1.000000 4.000000 1.000000 -60.708740 114.000000 206.000000 -0.335126 0.061288 0.940178
-14.52000046 -1.53999996 0.22000000 242 34 117 97.000000 1.000000 4.000000 1.000000 -60.708740 114.000000 206.000000 -0.143286 -0.003332 0.989676
-14.52000046 -1.50999999 0.22000000 242 34 117 97.000000 1.000000 4.000000 1.000000 -60.708740 114.000000 206.000000 -0.382761 0.519578 0.763893
-14.53999996 -1.51999998 0.23000000 242 34 117 97.000000 1.000000 4.000000 1.000000 -60.708740 114.000000 206.000000 -0.335126 0.061288 0.940178
-14.52000046 -1.51999998 0.22000000 242 34 117 97.000000 1.000000 4.000000 1.000000 -60.708740 114.000000 206.000000 -0.048692 0.524484 0.850027
-14.53999996 -1.52999997 0.23000000 242 34 117 97.000000 1.000000 4.000000 1.000000 -60.708740 114.000000 206.000000 -0.391352 -0.079895 0.916766
-14.52999973 -1.39999998 0.09000000 242 34 117 97.000000 1.000000 4.000000 1.000000 -60.708740 114.000000 206.000000 0.027666 0.407083 0.912972
-14.52000046 -1.38999999 0.08000000 242 34 117 97.000000 1.000000 4.000000 1.000000 -60.708740 114.000000 206.000000 0.417588 0.221426 0.881244
-14.00000000 -1.23000002 -0.06000000 242 34 117 97.000000 1.000000 4.000000 1.000000 -60.708740 114.000000 206.000000 0.864769 0.285206 -0.413320
