//X Y Z R G B PointSourceId ScanDirectionFlag NumberOfReturns ReturnNumber GpsTime Intensity Classification Nx Ny Nz
10.06999969 -3.49000001 -0.82999998 84 213 107 0.000000 0.000000 0.000000 0.000000 -60.708740 0.000000 150.000000 0.959899 -0.280022 -0.013451
10.06000042 -3.50999999 -0.83999997 84 213 107 0.000000 0.000000 0.000000 0.000000 -60.708740 0.000000 150.000000 0.845076 -0.136208 -0.517005
10.06000042 -3.50999999 -0.85000002 84 213 107 0.000000 0.000000 0.000000 0.000000 -60.708740 0.000000 150.000000 0.914033 -0.256393 -0.314335
10.06000042 -3.49000001 -0.81999999 84 213 107 0.000000 0.000000 0.000000 0.000000 -60.708740 0.000000 150.000000 0.994985 -0.093246 0.036201
10.06999969 -3.50000000 -0.83999997 84 213 107 0.000000 0.000000 0.000000 0.000000 -60.708740 0.000000 150.000000 0.859824 -0.254143 -0.442847
10.05000019 -3.50999999 -0.85000002 84 213 107 0.000000 0.000000 0.000000 0.000000 -60.708740 0.000000 150.000000 0.791397 -0.251311 -0.557256
10.06999969 -3.53999996 -0.79000002 84 213 107 0.000000 0.000000 0.000000 0.000000 -60.708740 0.000000 150.000000 0.880947 -0.312789 -0.355099
10.03999996 -3.55999994 -0.79000002 84 213 107 0.000000 0.000000 0.000000 0.000000 -60.708740 0.000000 150.000000 0.987726 -0.145425 0.057007
10.06999969 -3.55999994 -0.79000002 84 213 107 0.000000 0.000000 0.000000 0.000000 -60.708740 0.000000 150.000000 0.836233 0.023343 -0.547877
10.06999969 -3.55999994 -0.77999997 84 213 107 0.000000 0.000000 0.000000 0.000000 -60.708740 0.000000 150.000000 0.999668 -0.023248 0.011119
10.05000019 -3.52999997 -0.85000002 84 213 107 0.000000 0.000000 0.000000 0.000000 -60.708740 0.000000 150.000000 0.884838 -0.455741 -0.096757
10.05000019 -3.53999996 -0.81999999 84 213 107 0.000000 0.000000 0.000000 0.000000 -60.708740 0.000000 150.000000 0.986558 0.105660 -0.124655
10.05000019 -3.54999995 -0.82999998 84 213 107 0.000000 0.000000 0.000000 0.000000 -60.708740 0.000000 150.000000 0.975658 0.201052 -0.087575
10.05000019 -3.54999995 -0.82999998 84 213 107 0.000000 0.000000 0.000000 0.000000 -60.708740 0.000000 150.000000 0.975658 0.201052 -0.087575
10.05000019 -3.55999994 -0.85000002 84 213 107 0.000000 0.000000 0.000000 0.000000 -60.708740 0.000000 150.000000 0.999220 -0.037842 0.011250
10.00000000 -3.49000001 -0.79000002 84 213 107 0.000000 0.000000 0.000000 0.000000 -60.708740 0.000000 150.000000 0.985072 0.171960 0.007972
10.00000000 -3.49000001 -0.77999997 84 213 107 0.000000 0.000000 0.000000 0.000000 -60.708740 0.000000 150.000000 0.983598 -0.112239 -0.141204
10.00000000 -3.50000000 -0.77999997 84 213 107 0.000000 0.000000 0.000000 0.000000 -60.708740 0.000000 150.000000 0.996839 0.015992 0.077828
10.02000046 -3.51999998 -0.80000001 84 213 107 0.000000 0.000000 0.000000 0.000000 -60.708740 0.000000 150.000000 0.864061 0.278877 -0.419077
10.00000000 -3.50999999 -0.79000002 84 213 107 0.000000 0.000000 0.000000 0.000000 -60.708740 0.000000 150.000000 0.996099 -0.073259 0.049204
10.01000023 -3.50000000 -0.81999999 84 213 107 0.000000 0.000000 0.000000 0.000000 -60.708740 0.000000 150.000000 0.915673 -0.386924 -0.108779
10.01000023 -3.50000000 -0.81999999 84 213 107 0.000000 0.000000 0.000000 0.000000 -60.708740 0.000000 150.000000 0.915673 -0.386924 -0.108779
10.07999992 -3.40000010 -0.88999999 84 213 107 0.000000 0.000000 0.000000 0.000000 -60.708740 0.000000 150.000000 0.869271 0.468968 -0.156323
10.10999966 -3.41000009 -0.87000000 84 213 107 0.000000 0.000000 0.000000 0.000000 -60.708740 0.000000 150.000000 0.810494 0.219925 -0.542893
10.07999992 -3.41000009 -0.94000000 84 213 107 0.000000 0.000000 0.000000 0.000000 -60.708740 0.000000 150.000000 0.974108 -0.070018 -0.214967
10.07999992 -3.47000003 -0.88000000 84 213 107 0.000000 0.000000 0.000000 0.000000 -60.708740 0.000000 150.000000 0.860294 0.321648 -0.395520
10.09000015 -3.44000006 -0.92000002 84 213 107 0.000000 0.000000 0.000000 0.000000 -60.708740 0.000000 150.000000 0.967043 -0.254611 -0.001195
10.10000038 -3.44000006 -0.91000003 84 213 107 0.000000 0.000000 0.000000 0.000000 -60.708740 0.000000 150.000000 0.959928 -0.011006 -0.280030
10.07999992 -3.48000002 -0.88999999 84 213 107 0.000000 0.000000 0.000000 0.000000 -60.708740 0.000000 150.000000 0.810804 0.259893 -0.524455
10.06000042 -3.47000003 -0.89999998 84 213 107 0.000000 0.000000 0.000000 0.000000 -60.708740 0.000000 150.000000 0.896092 -0.147205 -0.418748
10.06999969 -3.45000005 -0.88999999 84 213 107 0.000000 0.000000 0.000000 0.000000 -60.708740 0.000000 150.000000 0.992360 0.060109 0.107742
10.06000042 -3.45000005 -0.91000003 84 213 107 0.000000 0.000000 0.000000 0.000000 -60.708740 0.000000 150.000000 0.885855 -0.017370 -0.463637
10.06000042 -3.45000005 -0.91000003 84 213 107 0.000000 0.000000 0.000000 0.000000 -60.708740 0.000000 150.000000 0.885855 -0.017370 -0.463637
10.02000046 -3.47000003 -0.94999999 84 213 107 0.000000 0.000000 0.000000 0.000000 -60.708740 0.000000 150.000000 0.942132 -0.080378 -0.325464
10.06000042 -3.50000000 -0.86000001 84 213 107 0.000000 0.000000 0.000000 0.000000 -60.708740 0.000000 150.000000 0.932453 -0.263795 -0.246867
10.06000042 -3.50999999 -0.87000000 84 213 107 0.000000 0.000000 0.000000 0.000000 -60.708740 0.000000 150.000000 0.937301 -0.348500 0.003774
10.06000042 -3.48000002 -0.87000000 84 213 107 0.000000 0.000000 0.000000 0.000000 -60.708740 0.000000 150.000000 0.945716 -0.316978 -0.071744
10.03999996 -3.50999999 -0.89999998 84 213 107 0.000000 0.000000 0.000000 0.000000 -60.708740 0.000000 150.000000 0.929860 0.064997 -0.362128
10.03999996 -3.50999999 -0.88000000 84 213 107 0.000000 0.000000 0.000000 0.000000 -60.708740 0.000000 150.000000 0.976842 0.195368 -0.087240
10.03999996 -3.50000000 -0.88999999 84 213 107 0.000000 0.000000 0.000000 0.000000 -60.708740 0.000000 150.000000 0.980004 -0.116814 -0.161080
10.03999996 -3.50000000 -0.88999999 84 213 107 0.000000 0.000000 0.000000 0.000000 -60.708740 0.000000 150.000000 0.980004 -0.116814 -0.161080
10.03999996 -3.49000001 -0.88000000 84 213 107 0.000000 0.000000 0.000000 0.000000 -60.708740 0.000000 150.000000 0.777386 -0.070410 -0.625070
10.06000042 -3.49000001 -0.87000000 84 213 107 0.000000 0.000000 0.000000 0.000000 -60.708740 0.000000 150.000000 0.880393 -0.405070 -0.246630
10.06000042 -3.49000001 -0.94000000 84 213 107 0.000000 0.000000 0.000000 0.000000 -60.708740 0.000000 150.000000 0.930072 -0.299706 -0.212467
10.05000019 -3.49000001 -0.93000001 84 213 107 0.000000 0.000000 0.000000 0.000000 -60.708740 0.000000 150.000000 0.952066 -0.305890 0.001228
10.03999996 -3.55999994 -0.87000000 84 213 107 0.000000 0.000000 0.000000 0.000000 -60.708740 0.000000 150.000000 0.915283 0.234947 -0.327196
10.00000000 -3.50000000 -0.88999999 84 213 107 0.000000 0.000000 0.000000 0.000000 -60.708740 0.000000 150.000000 0.979345 0.069002 -0.190058
10.00000000 -3.51999998 -0.88999999 84 213 107 0.000000 0.000000 0.000000 0.000000 -60.708740 0.000000 150.000000 0.970851 -0.020401 -0.238813
10.00000000 -3.51999998 -0.88000000 84 213 107 0.000000 0.000000 0.000000 0.000000 -60.708740 0.000000 150.000000 0.991227 -0.055892 0.119769
10.00000000 -3.50999999 -0.86000001 84 213 107 0.000000 0.000000 0.000000 0.000000 -60.708740 0.000000 150.000000 0.920032 0.257724 -0.295159
10.00000000 -3.49000001 -0.88000000 84 213 107 0.000000 0.000000 0.000000 0.000000 -60.708740 0.000000 150.000000 0.958781 -0.270820 0.085995
10.00000000 -3.50999999 -0.87000000 84 213 107 0.000000 0.000000 0.000000 0.000000 -60.708740 0.000000 150.000000 0.987336 0.146056 0.061928
10.00000000 -3.48000002 -0.89999998 84 213 107 0.000000 0.000000 0.000000 0.000000 -60.708740 0.000000 150.000000 0.935477 -0.103643 -0.337848
10.00000000 -3.51999998 -0.87000000 84 213 107 0.000000 0.000000 0.000000 0.000000 -60.708740 0.000000 150.000000 0.989913 0.028219 -0.138836
10.00000000 -3.50999999 -0.93000001 84 213 107 0.000000 0.000000 0.000000 0.000000 -60.708740 0.000000 150.000000 0.998982 -0.044148 -0.009240
10.02999973 -3.51999998 -0.92000002 84 213 107 0.000000 0.000000 0.000000 0.000000 -60.708740 0.000000 150.000000 0.846611 -0.104928 -0.521766
10.02999973 -3.48000002 -0.94000000 84 213 107 0.000000 0.000000 0.000000 0.000000 -60.708740 0.000000 150.000000 0.980875 -0.143632 -0.131356
10.00000000 -3.53999996 -0.88000000 84 213 107 0.000000 0.000000 0.000000 0.000000 -60.708740 0.000000 150.000000 0.860564 -0.289923 -0.418777
10.10000038 -3.56999993 -0.73000002 84 213 107 0.000000 0.000000 0.000000 0.000000 -60.708740 0.000000 150.000000 0.857679 -0.443312 -0.260503
10.09000015 -3.58999991 -0.70999998 84 213 107 0.000000 0.000000 0.000000 0.000000 -60.708740 0.000000 150.000000 0.911941 -0.408984 -0.033089
10.10000038 -3.58999991 -0.74000001 84 213 107 0.000000 0.000000 0.000000 0.000000 -60.708740 0.000000 150.000000 0.894715 -0.281366 -0.346869
10.13000011 -3.58999991 -0.72000003 84 213 107 0.000000 0.000000 0.000000 0.000000 -60.708740 0.000000 150.000000 0.870517 -0.242061 -0.428493
10.10000038 -3.56999993 -0.73000002 84 213 107 0.000000 0.000000 0.000000 0.000000 -60.708740 0.000000 150.000000 0.857679 -0.443312 -0.260503
10.10000038 -3.57999992 -0.74000001 84 213 107 0.000000 0.000000 0.000000 0.000000 -60.708740 0.000000 150.000000 0.978623 0.102171 -0.178491
10.06999969 -3.58999991 -0.73000002 84 213 107 0.000000 0.000000 0.000000 0.000000 -60.708740 0.000000 150.000000 0.991976 -0.032505 -0.122176
10.06999969 -3.58999991 -0.73000002 84 213 107 0.000000 0.000000 0.000000 0.000000 -60.708740 0.000000 150.000000 0.991976 -0.032505 -0.122176
10.06000042 -3.56999993 -0.74000001 84 213 107 0.000000 0.000000 0.000000 0.000000 -60.708740 0.000000 150.000000 0.974467 0.082749 -0.208726
10.03999996 -3.57999992 -0.76999998 84 213 107 0.000000 0.000000 0.000000 0.000000 -60.708740 0.000000 150.000000 0.890830 -0.370311 -0.263233
10.06999969 -3.58999991 -0.74000001 84 213 107 0.000000 0.000000 0.000000 0.000000 -60.708740 0.000000 150.000000 0.905522 0.185711 -0.381500
10.06999969 -3.58999991 -0.74000001 84 213 107 0.000000 0.000000 0.000000 0.000000 -60.708740 0.000000 150.000000 0.905522 0.185711 -0.381500
10.06999969 -3.57999992 -0.75000000 84 213 107 0.000000 0.000000 0.000000 0.000000 -60.708740 0.000000 150.000000 0.830286 -0.244927 -0.500636
10.06000042 -3.56999993 -0.74000001 84 213 107 0.000000 0.000000 0.000000 0.000000 -60.708740 0.000000 150.000000 0.974467 0.082749 -0.208726
10.01000023 -3.57999992 -0.82999998 84 213 107 0.000000 0.000000 0.000000 0.000000 -60.708740 0.000000 150.000000 0.771173 -0.171879 -0.612984
10.02000046 -3.58999991 -0.81999999 84 213 107 0.000000 0.000000 0.000000 0.000000 -60.708740 0.000000 150.000000 0.793604 -0.261404 -0.549418
10.06999969 -3.56999993 -0.80000001 84 213 107 0.000000 0.000000 0.000000 0.000000 -60.708740 0.000000 150.000000 0.808930 -0.199566 -0.552997
10.05000019 -3.56999993 -0.83999997 84 213 107 0.000000 0.000000 0.000000 0.000000 -60.708740 0.000000 150.000000 0.939241 -0.330793 0.091666
10.03999996 -3.56999993 -0.88000000 84 213 107 0.000000 0.000000 0.000000 0.000000 -60.708740 0.000000 150.000000 0.991388 -0.048831 -0.121510
10.03999996 -3.57999992 -0.88000000 84 213 107 0.000000 0.000000 0.000000 0.000000 -60.708740 0.000000 150.000000 0.954013 -0.153443 -0.257517
9.96000004 -3.39000010 -0.81999999 84 213 107 0.000000 0.000000 0.000000 0.000000 -60.708740 0.000000 150.000000 0.986299 -0.113026 -0.120164
9.93000031 -3.33999991 -0.81999999 84 213 107 0.000000 0.000000 0.000000 0.000000 -60.708740 0.000000 150.000000 0.823837 0.524260 0.215512
9.85999966 -3.29999995 -0.72000003 84 213 107 0.000000 0.000000 0.000000 0.000000 -60.708740 0.000000 150.000000 0.977107 0.210655 -0.029754
9.85999966 -3.30999994 -0.70999998 84 213 107 0.000000 0.000000 0.000000 0.000000 -60.708740 0.000000 150.000000 0.807569 0.587707 0.049328
9.85000038 -3.27999997 -0.70999998 84 213 107 0.000000 0.000000 0.000000 0.000000 -60.708740 0.000000 150.000000 0.666515 0.739758 0.092287
9.85000038 -3.29999995 -0.74000001 84 213 107 0.000000 0.000000 0.000000 0.000000 -60.708740 0.000000 150.000000 0.945024 0.313246 -0.093842
9.85999966 -3.30999994 -0.74000001 84 213 107 0.000000 0.000000 0.000000 0.000000 -60.708740 0.000000 150.000000 0.977065 0.201268 0.069529
9.86999989 -3.28999996 -0.79000002 84 213 107 0.000000 0.000000 0.000000 0.000000 -60.708740 0.000000 150.000000 0.786933 0.584447 -0.197884
9.86999989 -3.28999996 -0.81000000 84 213 107 0.000000 0.000000 0.000000 0.000000 -60.708740 0.000000 150.000000 0.943144 0.301752 0.139374
9.85999966 -3.26999998 -0.79000002 84 213 107 0.000000 0.000000 0.000000 0.000000 -60.708740 0.000000 150.000000 0.662345 0.734766 0.146350
9.84000015 -3.26999998 -0.81000000 84 213 107 0.000000 0.000000 0.000000 0.000000 -60.708740 0.000000 150.000000 0.959157 0.233522 -0.159640
9.85000038 -3.26999998 -0.83999997 84 213 107 0.000000 0.000000 0.000000 0.000000 -60.708740 0.000000 150.000000 0.717057 0.541519 -0.438846
9.89999962 -3.31999993 -0.75000000 84 213 107 0.000000 0.000000 0.000000 0.000000 -60.708740 0.000000 150.000000 0.720620 0.651541 0.237067
9.86999989 -3.31999993 -0.75000000 84 213 107 0.000000 0.000000 0.000000 0.000000 -60.708740 0.000000 150.000000 0.749078 0.661943 -0.026703
9.86999989 -3.31999993 -0.75999999 84 213 107 0.000000 0.000000 0.000000 0.000000 -60.708740 0.000000 150.000000 0.978773 0.199579 0.046608
9.86999989 -3.32999992 -0.75999999 84 213 107 0.000000 0.000000 0.000000 0.000000 -60.708740 0.000000 150.000000 0.937960 0.218811 -0.268984
9.89999962 -3.36999989 -0.75000000 84 213 107 0.000000 0.000000 0.000000 0.000000 -60.708740 0.000000 150.000000 0.917915 0.359552 -0.167791
9.84000015 -3.34999990 -0.74000001 84 213 107 0.000000 0.000000 0.000000 0.000000 -60.708740 0.000000 150.000000 0.631895 0.721480 -0.283153
9.84000015 -3.31999993 -0.76999998 84 213 107 0.000000 0.000000 0.000000 0.000000 -60.708740 0.000000 150.000000 0.927607 0.352134 -0.124686
9.85999966 -3.38000011 -0.70999998 84 213 107 0.000000 0.000000 0.000000 0.000000 -60.708740 0.000000 150.000000 0.981904 0.163449 -0.095648
9.85000038 -3.35999990 -0.74000001 84 213 107 0.000000 0.000000 0.000000 0.000000 -60.708740 0.000000 150.000000 0.807627 0.589498 0.015186
9.86999989 -3.36999989 -0.77999997 84 213 107 0.000000 0.000000 0.000000 0.000000 -60.708740 0.000000 150.000000 0.998543 0.032550 0.043050
9.85999966 -3.32999992 -0.77999997 84 213 107 0.000000 0.000000 0.000000 0.000000 -60.708740 0.000000 150.000000 0.919514 0.306505 -0.246067
9.84000015 -3.31999993 -0.79000002 84 213 107 0.000000 0.000000 0.000000 0.000000 -60.708740 0.000000 150.000000 0.784972 0.386821 -0.483931
9.84000015 -3.34999990 -0.85000002 84 213 107 0.000000 0.000000 0.000000 0.000000 -60.708740 0.000000 150.000000 0.893631 0.436294 -0.105216
9.85000038 -3.36999989 -0.79000002 84 213 107 0.000000 0.000000 0.000000 0.000000 -60.708740 0.000000 150.000000 0.786230 0.605590 -0.122895
9.90999985 -3.30999994 -0.95999998 84 213 107 0.000000 0.000000 0.000000 0.000000 -60.708740 0.000000 150.000000 0.944874 0.323552 0.050273
9.90999985 -3.30999994 -0.95999998 84 213 107 0.000000 0.000000 0.000000 0.000000 -60.708740 0.000000 150.000000 0.944874 0.323552 0.050273
9.96000004 -3.33999991 -0.88999999 84 213 107 0.000000 0.000000 0.000000 0.000000 -60.708740 0.000000 150.000000 0.980566 0.019868 -0.195178
9.96000004 -3.34999990 -0.94000000 84 213 107 0.000000 0.000000 0.000000 0.000000 -60.708740 0.000000 150.000000 0.964992 -0.157576 -0.209668
9.96000004 -3.34999990 -0.94000000 84 213 107 0.000000 0.000000 0.000000 0.000000 -60.708740 0.000000 150.000000 0.964992 -0.157576 -0.209668
9.96000004 -3.32999992 -0.91000003 84 213 107 0.000000 0.000000 0.000000 0.000000 -60.708740 0.000000 150.000000 0.968566 0.241831 -0.058288
9.96000004 -3.35999990 -0.88000000 84 213 107 0.000000 0.000000 0.000000 0.000000 -60.708740 0.000000 150.000000 0.986414 -0.091401 -0.136507
9.94999981 -3.39000010 -0.86000001 84 213 107 0.000000 0.000000 0.000000 0.000000 -60.708740 0.000000 150.000000 0.978751 0.171559 0.112316
9.96000004 -3.38000011 -0.94000000 84 213 107 0.000000 0.000000 0.000000 0.000000 -60.708740 0.000000 150.000000 0.973185 -0.193122 -0.124961
9.92000008 -3.36999989 -0.89999998 84 213 107 0.000000 0.000000 0.000000 0.000000 -60.708740 0.000000 150.000000 0.753197 0.490645 -0.438134
9.88000011 -3.29999995 -0.92000002 84 213 107 0.000000 0.000000 0.000000 0.000000 -60.708740 0.000000 150.000000 0.750465 0.513995 -0.415465
9.85999966 -3.28999996 -0.88000000 84 213 107 0.000000 0.000000 0.000000 0.000000 -60.708740 0.000000 150.000000 0.735305 0.659501 0.156158
9.82999992 -3.27999997 -0.88000000 84 213 107 0.000000 0.000000 0.000000 0.000000 -60.708740 0.000000 150.000000 0.741884 0.611618 -0.274831
9.82999992 -3.26999998 -0.98000002 84 213 107 0.000000 0.000000 0.000000 0.000000 -60.708740 0.000000 150.000000 0.604900 0.693905 -0.390630
9.88000011 -3.36999989 -0.86000001 84 213 107 0.000000 0.000000 0.000000 0.000000 -60.708740 0.000000 150.000000 0.804362 0.369399 -0.465346
9.89000034 -3.39000010 -0.87000000 84 213 107 0.000000 0.000000 0.000000 0.000000 -60.708740 0.000000 150.000000 0.902624 0.328361 -0.278297
9.88000011 -3.38000011 -0.88999999 84 213 107 0.000000 0.000000 0.000000 0.000000 -60.708740 0.000000 150.000000 0.908960 -0.124266 -0.397932
9.89000034 -3.38000011 -0.87000000 84 213 107 0.000000 0.000000 0.000000 0.000000 -60.708740 0.000000 150.000000 0.852750 0.275031 -0.444045
9.89000034 -3.36999989 -0.93000001 84 213 107 0.000000 0.000000 0.000000 0.000000 -60.708740 0.000000 150.000000 0.813853 0.091071 -0.573889
9.85999966 -3.32999992 -0.87000000 84 213 107 0.000000 0.000000 0.000000 0.000000 -60.708740 0.000000 150.000000 0.928500 0.349730 0.124806
9.85999966 -3.31999993 -0.93000001 84 213 107 0.000000 0.000000 0.000000 0.000000 -60.708740 0.000000 150.000000 0.664573 0.708564 -0.237235
9.85000038 -3.35999990 -0.89999998 84 213 107 0.000000 0.000000 0.000000 0.000000 -60.708740 0.000000 150.000000 0.932355 0.072944 -0.354109
9.85999966 -3.39000010 -0.92000002 84 213 107 0.000000 0.000000 0.000000 0.000000 -60.708740 0.000000 150.000000 0.994730 0.049792 0.089625
9.88000011 -3.34999990 -1.00000000 84 213 107 0.000000 0.000000 0.000000 0.000000 -60.708740 0.000000 150.000000 0.956013 0.288200 0.054593
9.88000011 -3.35999990 -0.97000003 84 213 107 0.000000 0.000000 0.000000 0.000000 -60.708740 0.000000 150.000000 0.978730 0.164565 0.122496
9.89999962 -3.36999989 -1.01999998 84 213 107 0.000000 0.000000 0.000000 0.000000 -60.708740 0.000000 150.000000 0.797324 0.357753 -0.486095
9.82999992 -3.39000010 -0.97000003 84 213 107 0.000000 0.000000 0.000000 0.000000 -60.708740 0.000000 150.000000 0.811564 0.424190 -0.401780
9.81000042 -3.27999997 -0.73000002 84 213 107 0.000000 0.000000 0.000000 0.000000 -60.708740 0.000000 150.000000 0.625206 0.776068 -0.082684
9.80000019 -3.29999995 -0.80000001 84 213 107 0.000000 0.000000 0.000000 0.000000 -60.708740 0.000000 150.000000 0.540555 0.813130 -0.215916
9.81999969 -3.30999994 -0.81999999 84 213 107 0.000000 0.000000 0.000000 0.000000 -60.708740 0.000000 150.000000 0.899614 0.409175 0.152549
9.81999969 -3.33999991 -0.72000003 84 213 107 0.000000 0.000000 0.000000 0.000000 -60.708740 0.000000 150.000000 0.643633 0.763511 -0.052804
9.81000042 -3.34999990 -0.76999998 84 213 107 0.000000 0.000000 0.000000 0.000000 -60.708740 0.000000 150.000000 0.806790 0.587662 -0.061185
9.80000019 -3.38000011 -0.70999998 84 213 107 0.000000 0.000000 0.000000 0.000000 -60.708740 0.000000 150.000000 0.976889 0.191426 -0.095095
9.81999969 -3.38000011 -0.75999999 84 213 107 0.000000 0.000000 0.000000 0.000000 -60.708740 0.000000 150.000000 0.886772 0.335739 -0.317672
9.78999996 -3.39000010 -0.74000001 84 213 107 0.000000 0.000000 0.000000 0.000000 -60.708740 0.000000 150.000000 0.944468 0.310382 -0.107901
9.73999977 -3.34999990 -0.73000002 84 213 107 0.000000 0.000000 0.000000 0.000000 -60.708740 0.000000 150.000000 0.514665 0.756476 -0.403563
9.77999973 -3.31999993 -0.73000002 84 213 107 0.000000 0.000000 0.000000 0.000000 -60.708740 0.000000 150.000000 0.872056 0.488406 0.031291
9.77999973 -3.34999990 -0.74000001 84 213 107 0.000000 0.000000 0.000000 0.000000 -60.708740 0.000000 150.000000 0.663701 0.613798 -0.427496
9.75000000 -3.35999990 -0.69999999 84 213 107 0.000000 0.000000 0.000000 0.000000 -60.708740 0.000000 150.000000 0.484710 0.868498 -0.103765
9.77999973 -3.39000010 -0.74000001 84 213 107 0.000000 0.000000 0.000000 0.000000 -60.708740 0.000000 150.000000 0.924088 0.382161 0.003834
9.73999977 -3.39000010 -0.74000001 84 213 107 0.000000 0.000000 0.000000 0.000000 -60.708740 0.000000 150.000000 0.959859 0.262250 0.099474
9.77999973 -3.38000011 -0.75000000 84 213 107 0.000000 0.000000 0.000000 0.000000 -60.708740 0.000000 150.000000 0.963331 0.243734 0.112195
9.80000019 -3.34999990 -0.79000002 84 213 107 0.000000 0.000000 0.000000 0.000000 -60.708740 0.000000 150.000000 0.771084 0.635757 0.035242
9.80000019 -3.33999991 -0.80000001 84 213 107 0.000000 0.000000 0.000000 0.000000 -60.708740 0.000000 150.000000 0.937202 0.346778 -0.037385
9.80000019 -3.34999990 -0.80000001 84 213 107 0.000000 0.000000 0.000000 0.000000 -60.708740 0.000000 150.000000 0.867880 0.494952 -0.042503
9.81000042 -3.38000011 -0.81000000 84 213 107 0.000000 0.000000 0.000000 0.000000 -60.708740 0.000000 150.000000 0.698335 0.582222 -0.416347
9.81000042 -3.38000011 -0.79000002 84 213 107 0.000000 0.000000 0.000000 0.000000 -60.708740 0.000000 150.000000 0.956574 0.285829 0.057166
9.81000042 -3.39000010 -0.81000000 84 213 107 0.000000 0.000000 0.000000 0.000000 -60.708740 0.000000 150.000000 0.938288 0.260713 -0.227253
9.81000042 -3.35999990 -0.85000002 84 213 107 0.000000 0.000000 0.000000 0.000000 -60.708740 0.000000 150.000000 0.759012 0.645378 0.085953
9.78999996 -3.35999990 -0.82999998 84 213 107 0.000000 0.000000 0.000000 0.000000 -60.708740 0.000000 150.000000 0.865547 0.457354 0.204096
9.81000042 -3.38000011 -0.81999999 84 213 107 0.000000 0.000000 0.000000 0.000000 -60.708740 0.000000 150.000000 0.861722 0.499488 0.089144
9.77000046 -3.32999992 -0.80000001 84 213 107 0.000000 0.000000 0.000000 0.000000 -60.708740 0.000000 150.000000 0.496145 0.863661 -0.089052
9.77000046 -3.34999990 -0.81999999 84 213 107 0.000000 0.000000 0.000000 0.000000 -60.708740 0.000000 150.000000 0.945390 0.286194 -0.155983
9.77999973 -3.33999991 -0.85000002 84 213 107 0.000000 0.000000 0.000000 0.000000 -60.708740 0.000000 150.000000 0.961860 0.193425 -0.193425
9.77000046 -3.39000010 -0.85000002 84 213 107 0.000000 0.000000 0.000000 0.000000 -60.708740 0.000000 150.000000 0.925992 0.243233 -0.288750
9.76000023 -3.39000010 -0.81999999 84 213 107 0.000000 0.000000 0.000000 0.000000 -60.708740 0.000000 150.000000 0.729231 0.679939 0.076838
9.69999981 -3.33999991 -0.75999999 84 213 107 0.000000 0.000000 0.000000 0.000000 -60.708740 0.000000 150.000000 0.496238 0.769576 -0.401872
9.71000004 -3.33999991 -0.75999999 84 213 107 0.000000 0.000000 0.000000 0.000000 -60.708740 0.000000 150.000000 0.449799 0.892963 -0.017249
9.69999981 -3.31999993 -0.81000000 84 213 107 0.000000 0.000000 0.000000 0.000000 -60.708740 0.000000 150.000000 0.404637 0.871409 0.277335
9.71000004 -3.31999993 -0.82999998 84 213 107 0.000000 0.000000 0.000000 0.000000 -60.708740 0.000000 150.000000 0.488035 0.835971 0.250945
9.72000027 -3.33999991 -0.82999998 84 213 107 0.000000 0.000000 0.000000 0.000000 -60.708740 0.000000 150.000000 0.909757 0.411076 -0.057955
9.68000031 -3.35999990 -0.77999997 84 213 107 0.000000 0.000000 0.000000 0.000000 -60.708740 0.000000 150.000000 0.340417 0.896382 -0.283929
9.81000042 -3.24000001 -0.89999998 84 213 107 0.000000 0.000000 0.000000 0.000000 -60.708740 0.000000 150.000000 0.683495 0.724475 -0.089279
9.77999973 -3.26999998 -0.88999999 84 213 107 0.000000 0.000000 0.000000 0.000000 -60.708740 0.000000 150.000000 0.713646 0.699458 0.038307
9.73999977 -3.29999995 -0.88999999 84 213 107 0.000000 0.000000 0.000000 0.000000 -60.708740 0.000000 150.000000 0.824432 0.565679 0.017893
9.78999996 -3.26999998 -0.94999999 84 213 107 0.000000 0.000000 0.000000 0.000000 -60.708740 0.000000 150.000000 0.511612 0.850754 -0.120294
9.75000000 -3.30999994 -0.95999998 84 213 107 0.000000 0.000000 0.000000 0.000000 -60.708740 0.000000 150.000000 0.981308 0.184815 0.053656
9.81999969 -3.32999992 -0.94000000 84 213 107 0.000000 0.000000 0.000000 0.000000 -60.708740 0.000000 150.000000 0.714645 0.596900 -0.364682
9.80000019 -3.35999990 -0.89999998 84 213 107 0.000000 0.000000 0.000000 0.000000 -60.708740 0.000000 150.000000 0.694255 0.703330 -0.152766
9.81999969 -3.35999990 -0.92000002 84 213 107 0.000000 0.000000 0.000000 0.000000 -60.708740 0.000000 150.000000 0.994566 0.085758 -0.059028
9.78999996 -3.35999990 -0.94000000 84 213 107 0.000000 0.000000 0.000000 0.000000 -60.708740 0.000000 150.000000 0.962702 0.235154 -0.133817
9.81999969 -3.36999989 -0.93000001 84 213 107 0.000000 0.000000 0.000000 0.000000 -60.708740 0.000000 150.000000 0.933603 0.270955 0.234454
9.78999996 -3.35999990 -0.93000001 84 213 107 0.000000 0.000000 0.000000 0.000000 -60.708740 0.000000 150.000000 0.999120 0.041843 0.003062
9.75000000 -3.33999991 -0.88999999 84 213 107 0.000000 0.000000 0.000000 0.000000 -60.708740 0.000000 150.000000 0.793542 0.602047 -0.088494
9.77999973 -3.33999991 -0.87000000 84 213 107 0.000000 0.000000 0.000000 0.000000 -60.708740 0.000000 150.000000 0.734925 0.523531 -0.431046
9.77999973 -3.33999991 -0.87000000 84 213 107 0.000000 0.000000 0.000000 0.000000 -60.708740 0.000000 150.000000 0.734925 0.523531 -0.431046
9.73999977 -3.38000011 -0.88000000 84 213 107 0.000000 0.000000 0.000000 0.000000 -60.708740 0.000000 150.000000 0.902717 0.409814 -0.130971
9.73999977 -3.36999989 -0.86000001 84 213 107 0.000000 0.000000 0.000000 0.000000 -60.708740 0.000000 150.000000 0.761102 0.476303 -0.440294
9.73999977 -3.38000011 -0.87000000 84 213 107 0.000000 0.000000 0.000000 0.000000 -60.708740 0.000000 150.000000 0.832253 0.477573 -0.281566
9.77999973 -3.33999991 -0.98000002 84 213 107 0.000000 0.000000 0.000000 0.000000 -60.708740 0.000000 150.000000 0.832656 0.543036 -0.108607
9.77999973 -3.33999991 -0.95999998 84 213 107 0.000000 0.000000 0.000000 0.000000 -60.708740 0.000000 150.000000 0.808532 0.555771 0.193378
9.77999973 -3.34999990 -0.94999999 84 213 107 0.000000 0.000000 0.000000 0.000000 -60.708740 0.000000 150.000000 0.751149 0.646615 0.132907
9.72000027 -3.34999990 -0.88000000 84 213 107 0.000000 0.000000 0.000000 0.000000 -60.708740 0.000000 150.000000 0.600682 0.780126 -0.174882
9.72999954 -3.35999990 -0.87000000 84 213 107 0.000000 0.000000 0.000000 0.000000 -60.708740 0.000000 150.000000 0.835081 0.502270 -0.224419
9.72999954 -3.36999989 -0.88000000 84 213 107 0.000000 0.000000 0.000000 0.000000 -60.708740 0.000000 150.000000 0.701960 0.511881 -0.495207
9.68999958 -3.38000011 -0.86000001 84 213 107 0.000000 0.000000 0.000000 0.000000 -60.708740 0.000000 150.000000 0.574288 0.798548 -0.180317
9.68999958 -3.38000011 -0.86000001 84 213 107 0.000000 0.000000 0.000000 0.000000 -60.708740 0.000000 150.000000 0.574288 0.798548 -0.180317
9.96000004 -3.45000005 -0.76999998 84 213 107 0.000000 0.000000 0.000000 0.000000 -60.708740 0.000000 150.000000 0.898890 0.233154 -0.370994
9.90999985 -3.45000005 -0.69999999 84 213 107 0.000000 0.000000 0.000000 0.000000 -60.708740 0.000000 150.000000 0.821309 0.046330 -0.568599
9.92000008 -3.45000005 -0.72000003 84 213 107 0.000000 0.000000 0.000000 0.000000 -60.708740 0.000000 150.000000 0.985699 0.024154 -0.166775
9.90999985 -3.44000006 -0.73000002 84 213 107 0.000000 0.000000 0.000000 0.000000 -60.708740 0.000000 150.000000 0.912075 -0.060625 -0.405516
9.93000031 -3.44000006 -0.76999998 84 213 107 0.000000 0.000000 0.000000 0.000000 -60.708740 0.000000 150.000000 0.868146 0.137686 -0.476828
9.94999981 -3.40000010 -0.80000001 84 213 107 0.000000 0.000000 0.000000 0.000000 -60.708740 0.000000 150.000000 0.811984 0.550935 -0.192751
9.96000004 -3.40000010 -0.85000002 84 213 107 0.000000 0.000000 0.000000 0.000000 -60.708740 0.000000 150.000000 0.985130 0.132867 0.108927
9.96000004 -3.43000007 -0.85000002 84 213 107 0.000000 0.000000 0.000000 0.000000 -60.708740 0.000000 150.000000 0.957688 0.274546 -0.086359
9.96000004 -3.43000007 -0.85000002 84 213 107 0.000000 0.000000 0.000000 0.000000 -60.708740 0.000000 150.000000 0.957688 0.274546 -0.086359
9.94999981 -3.42000008 -0.85000002 84 213 107 0.000000 0.000000 0.000000 0.000000 -60.708740 0.000000 150.000000 0.911050 0.405967 -0.071961
9.96000004 -3.44000006 -0.77999997 84 213 107 0.000000 0.000000 0.000000 0.000000 -60.708740 0.000000 150.000000 0.953595 -0.039051 -0.298550
9.93000031 -3.43000007 -0.81000000 84 213 107 0.000000 0.000000 0.000000 0.000000 -60.708740 0.000000 150.000000 0.943848 0.298413 0.141780
9.92000008 -3.42000008 -0.81000000 84 213 107 0.000000 0.000000 0.000000 0.000000 -60.708740 0.000000 150.000000 0.913472 0.406134 0.024973
9.93000031 -3.47000003 -0.79000002 84 213 107 0.000000 0.000000 0.000000 0.000000 -60.708740 0.000000 150.000000 0.913474 0.406424 -0.019602
9.93000031 -3.46000004 -0.81000000 84 213 107 0.000000 0.000000 0.000000 0.000000 -60.708740 0.000000 150.000000 0.941759 0.274392 -0.194419
9.93000031 -3.46000004 -0.77999997 84 213 107 0.000000 0.000000 0.000000 0.000000 -60.708740 0.000000 150.000000 0.984876 0.062513 -0.161590
9.93000031 -3.44000006 -0.83999997 84 213 107 0.000000 0.000000 0.000000 0.000000 -60.708740 0.000000 150.000000 0.998549 -0.032482 -0.042960
9.93999958 -3.44000006 -0.81999999 84 213 107 0.000000 0.000000 0.000000 0.000000 -60.708740 0.000000 150.000000 0.955504 -0.013562 -0.294665
9.96000004 -3.49000001 -0.76999998 84 213 107 0.000000 0.000000 0.000000 0.000000 -60.708740 0.000000 150.000000 0.889646 -0.337555 -0.307550
9.96000004 -3.52999997 -0.72000003 84 213 107 0.000000 0.000000 0.000000 0.000000 -60.708740 0.000000 150.000000 0.842464 -0.332922 -0.423577
9.90999985 -3.48000002 -0.69999999 84 213 107 0.000000 0.000000 0.000000 0.000000 -60.708740 0.000000 150.000000 0.986383 -0.101137 0.129693
9.93000031 -3.51999998 -0.74000001 84 213 107 0.000000 0.000000 0.000000 0.000000 -60.708740 0.000000 150.000000 0.943541 -0.330556 -0.021530
9.93000031 -3.49000001 -0.74000001 84 213 107 0.000000 0.000000 0.000000 0.000000 -60.708740 0.000000 150.000000 0.993520 0.061744 0.095423
9.93000031 -3.48000002 -0.75999999 84 213 107 0.000000 0.000000 0.000000 0.000000 -60.708740 0.000000 150.000000 0.961390 -0.273446 -0.030933
9.98999977 -3.50000000 -0.81000000 84 213 107 0.000000 0.000000 0.000000 0.000000 -60.708740 0.000000 150.000000 0.979767 -0.111868 -0.165958
9.88000011 -3.43000007 -0.72000003 84 213 107 0.000000 0.000000 0.000000 0.000000 -60.708740 0.000000 150.000000 0.956656 0.287877 -0.043999
9.86999989 -3.47000003 -0.70999998 84 213 107 0.000000 0.000000 0.000000 0.000000 -60.708740 0.000000 150.000000 0.974464 -0.003526 -0.224515
9.89999962 -3.44000006 -0.75000000 84 213 107 0.000000 0.000000 0.000000 0.000000 -60.708740 0.000000 150.000000 0.988142 -0.144465 -0.052007
9.89999962 -3.45000005 -0.75999999 84 213 107 0.000000 0.000000 0.000000 0.000000 -60.708740 0.000000 150.000000 0.922783 -0.290426 -0.253229
9.85999966 -3.42000008 -0.69999999 84 213 107 0.000000 0.000000 0.000000 0.000000 -60.708740 0.000000 150.000000 0.803906 0.409174 -0.431638
9.82999992 -3.43000007 -0.73000002 84 213 107 0.000000 0.000000 0.000000 0.000000 -60.708740 0.000000 150.000000 0.951519 0.266318 0.153903
9.84000015 -3.41000009 -0.75999999 84 213 107 0.000000 0.000000 0.000000 0.000000 -60.708740 0.000000 150.000000 0.981211 -0.071032 -0.179387
9.84000015 -3.41000009 -0.75999999 84 213 107 0.000000 0.000000 0.000000 0.000000 -60.708740 0.000000 150.000000 0.981211 -0.071032 -0.179387
9.85000038 -3.47000003 -0.73000002 84 213 107 0.000000 0.000000 0.000000 0.000000 -60.708740 0.000000 150.000000 0.851347 -0.135807 -0.506719
9.85000038 -3.47000003 -0.73000002 84 213 107 0.000000 0.000000 0.000000 0.000000 -60.708740 0.000000 150.000000 0.851347 -0.135807 -0.506719
9.85999966 -3.45000005 -0.75000000 84 213 107 0.000000 0.000000 0.000000 0.000000 -60.708740 0.000000 150.000000 0.849802 0.366428 -0.378902
9.89999962 -3.42000008 -0.79000002 84 213 107 0.000000 0.000000 0.000000 0.000000 -60.708740 0.000000 150.000000 0.910719 0.236758 -0.338433
9.89000034 -3.46000004 -0.77999997 84 213 107 0.000000 0.000000 0.000000 0.000000 -60.708740 0.000000 150.000000 0.868312 0.303680 -0.392190
9.89000034 -3.46000004 -0.85000002 84 213 107 0.000000 0.000000 0.000000 0.000000 -60.708740 0.000000 150.000000 0.958674 -0.107673 -0.263344
9.89000034 -3.45000005 -0.82999998 84 213 107 0.000000 0.000000 0.000000 0.000000 -60.708740 0.000000 150.000000 0.962346 -0.190889 -0.193522
9.89999962 -3.44000006 -0.81999999 84 213 107 0.000000 0.000000 0.000000 0.000000 -60.708740 0.000000 150.000000 0.860942 0.495868 -0.113547
9.84000015 -3.42000008 -0.77999997 84 213 107 0.000000 0.000000 0.000000 0.000000 -60.708740 0.000000 150.000000 0.841730 0.537423 -0.051648
9.85999966 -3.46000004 -0.85000002 84 213 107 0.000000 0.000000 0.000000 0.000000 -60.708740 0.000000 150.000000 0.937800 0.343034 -0.053477
9.89000034 -3.49000001 -0.70999998 84 213 107 0.000000 0.000000 0.000000 0.000000 -60.708740 0.000000 150.000000 0.970387 0.236770 -0.047845
9.88000011 -3.49000001 -0.76999998 84 213 107 0.000000 0.000000 0.000000 0.000000 -60.708740 0.000000 150.000000 0.961894 -0.145266 -0.231640
9.82999992 -3.48000002 -0.69999999 84 213 107 0.000000 0.000000 0.000000 0.000000 -60.708740 0.000000 150.000000 0.904662 -0.250725 -0.344563
9.84000015 -3.50999999 -0.69999999 84 213 107 0.000000 0.000000 0.000000 0.000000 -60.708740 0.000000 150.000000 0.988629 -0.118448 0.092647
9.86999989 -3.50999999 -0.79000002 84 213 107 0.000000 0.000000 0.000000 0.000000 -60.708740 0.000000 150.000000 0.940605 0.272099 -0.203038
9.88000011 -3.50999999 -0.77999997 84 213 107 0.000000 0.000000 0.000000 0.000000 -60.708740 0.000000 150.000000 0.982263 -0.060722 -0.177403
9.96000004 -3.41000009 -0.86000001 84 213 107 0.000000 0.000000 0.000000 0.000000 -60.708740 0.000000 150.000000 0.999916 0.010923 -0.006951
9.96000004 -3.43000007 -0.87000000 84 213 107 0.000000 0.000000 0.000000 0.000000 -60.708740 0.000000 150.000000 0.884085 0.444199 -0.145191
9.96000004 -3.41000009 -0.92000002 84 213 107 0.000000 0.000000 0.000000 0.000000 -60.708740 0.000000 150.000000 0.968566 0.226632 -0.102554
9.96000004 -3.44000006 -0.87000000 84 213 107 0.000000 0.000000 0.000000 0.000000 -60.708740 0.000000 150.000000 0.996452 0.083834 0.007428
9.97999954 -3.44000006 -0.89999998 84 213 107 0.000000 0.000000 0.000000 0.000000 -60.708740 0.000000 150.000000 0.992808 -0.119312 -0.009851
9.97000027 -3.45000005 -0.93000001 84 213 107 0.000000 0.000000 0.000000 0.000000 -60.708740 0.000000 150.000000 0.937301 -0.003774 -0.348500
9.97999954 -3.44000006 -0.93000001 84 213 107 0.000000 0.000000 0.000000 0.000000 -60.708740 0.000000 150.000000 0.918601 0.363233 -0.155671
9.96000004 -3.45000005 -0.94000000 84 213 107 0.000000 0.000000 0.000000 0.000000 -60.708740 0.000000 150.000000 0.982222 0.110485 -0.151765
9.93999958 -3.40000010 -0.88999999 84 213 107 0.000000 0.000000 0.000000 0.000000 -60.708740 0.000000 150.000000 0.892471 0.435661 -0.117022
9.90999985 -3.46000004 -0.88000000 84 213 107 0.000000 0.000000 0.000000 0.000000 -60.708740 0.000000 150.000000 0.938623 0.075248 -0.336637
9.90999985 -3.45000005 -0.88999999 84 213 107 0.000000 0.000000 0.000000 0.000000 -60.708740 0.000000 150.000000 0.921083 0.230629 -0.313713
9.90999985 -3.44000006 -0.88999999 84 213 107 0.000000 0.000000 0.000000 0.000000 -60.708740 0.000000 150.000000 0.793175 0.247770 -0.556313
9.92000008 -3.45000005 -0.91000003 84 213 107 0.000000 0.000000 0.000000 0.000000 -60.708740 0.000000 150.000000 0.985245 -0.170501 0.014876
9.90999985 -3.47000003 -0.93000001 84 213 107 0.000000 0.000000 0.000000 0.000000 -60.708740 0.000000 150.000000 0.938285 -0.072378 -0.338204
9.90999985 -3.47000003 -0.92000002 84 213 107 0.000000 0.000000 0.000000 0.000000 -60.708740 0.000000 150.000000 0.917638 -0.024872 -0.396639
9.90999985 -3.47000003 -0.94000000 84 213 107 0.000000 0.000000 0.000000 0.000000 -60.708740 0.000000 150.000000 0.990466 0.023556 -0.135726
9.90999985 -3.46000004 -0.93000001 84 213 107 0.000000 0.000000 0.000000 0.000000 -60.708740 0.000000 150.000000 0.850347 0.034455 -0.525093
9.97000027 -3.45000005 -0.94999999 84 213 107 0.000000 0.000000 0.000000 0.000000 -60.708740 0.000000 150.000000 0.806235 0.295041 -0.512772
9.96000004 -3.46000004 -0.94999999 84 213 107 0.000000 0.000000 0.000000 0.000000 -60.708740 0.000000 150.000000 0.985441 0.130514 -0.108961
9.90999985 -3.41000009 -0.98000002 84 213 107 0.000000 0.000000 0.000000 0.000000 -60.708740 0.000000 150.000000 0.991483 -0.097655 0.086166
9.90999985 -3.42000008 -0.99000001 84 213 107 0.000000 0.000000 0.000000 0.000000 -60.708740 0.000000 150.000000 0.891834 -0.256718 -0.372463
9.93999958 -3.45000005 -0.94999999 84 213 107 0.000000 0.000000 0.000000 0.000000 -60.708740 0.000000 150.000000 0.987171 0.157076 0.028663
9.97000027 -3.48000002 -0.89999998 84 213 107 0.000000 0.000000 0.000000 0.000000 -60.708740 0.000000 150.000000 0.783705 0.145352 -0.603887
9.97000027 -3.48000002 -0.89999998 84 213 107 0.000000 0.000000 0.000000 0.000000 -60.708740 0.000000 150.000000 0.783705 0.145352 -0.603887
9.97000027 -3.48000002 -0.89999998 84 213 107 0.000000 0.000000 0.000000 0.000000 -60.708740 0.000000 150.000000 0.783705 0.145352 -0.603887
9.97999954 -3.50000000 -0.95999998 84 213 107 0.000000 0.000000 0.000000 0.000000 -60.708740 0.000000 150.000000 0.984933 -0.144808 -0.094544
9.89000034 -3.40000010 -0.87000000 84 213 107 0.000000 0.000000 0.000000 0.000000 -60.708740 0.000000 150.000000 0.877764 0.414209 -0.240750
9.89000034 -3.41000009 -0.86000001 84 213 107 0.000000 0.000000 0.000000 0.000000 -60.708740 0.000000 150.000000 0.805018 0.429022 -0.409740
9.89999962 -3.42000008 -0.93000001 84 213 107 0.000000 0.000000 0.000000 0.000000 -60.708740 0.000000 150.000000 0.938198 -0.303575 -0.166211
9.89999962 -3.42000008 -0.94000000 84 213 107 0.000000 0.000000 0.000000 0.000000 -60.708740 0.000000 150.000000 0.860216 0.286739 -0.421674
9.89999962 -3.47000003 -0.94000000 84 213 107 0.000000 0.000000 0.000000 0.000000 -60.708740 0.000000 150.000000 0.904628 -0.328020 -0.272124
9.84000015 -3.42000008 -0.88999999 84 213 107 0.000000 0.000000 0.000000 0.000000 -60.708740 0.000000 150.000000 0.983667 0.171227 0.055501
9.84000015 -3.43000007 -0.91000003 84 213 107 0.000000 0.000000 0.000000 0.000000 -60.708740 0.000000 150.000000 0.946228 -0.234161 -0.223206
9.85999966 -3.47000003 -0.88000000 84 213 107 0.000000 0.000000 0.000000 0.000000 -60.708740 0.000000 150.000000 0.985576 0.026513 -0.167144
9.89999962 -3.44000006 -0.98000002 84 213 107 0.000000 0.000000 0.000000 0.000000 -60.708740 0.000000 150.000000 0.932453 -0.356410 -0.059183
9.89000034 -3.45000005 -0.97000003 84 213 107 0.000000 0.000000 0.000000 0.000000 -60.708740 0.000000 150.000000 0.818182 0.320021 -0.477667
9.89000034 -3.45000005 -0.97000003 84 213 107 0.000000 0.000000 0.000000 0.000000 -60.708740 0.000000 150.000000 0.818182 0.320021 -0.477667
9.89999962 -3.46000004 -0.99000001 84 213 107 0.000000 0.000000 0.000000 0.000000 -60.708740 0.000000 150.000000 0.951873 0.244382 -0.184974
9.89999962 -3.44000006 -1.00000000 84 213 107 0.000000 0.000000 0.000000 0.000000 -60.708740 0.000000 150.000000 0.954595 -0.296513 0.028775
9.84000015 -3.40000010 -0.95999998 84 213 107 0.000000 0.000000 0.000000 0.000000 -60.708740 0.000000 150.000000 0.906100 0.250312 -0.341068
9.92000008 -3.58999991 -0.69999999 84 213 107 0.000000 0.000000 0.000000 0.000000 -60.708740 0.000000 150.000000 0.926750 -0.243432 -0.286139
9.81000042 -3.40000010 -0.69999999 84 213 107 0.000000 0.000000 0.000000 0.000000 -60.708740 0.000000 150.000000 0.682396 0.728368 -0.061775
9.81999969 -3.42000008 -0.72000003 84 213 107 0.000000 0.000000 0.000000 0.000000 -60.708740 0.000000 150.000000 0.800247 0.329326 -0.501148
9.81999969 -3.42000008 -0.74000001 84 213 107 0.000000 0.000000 0.000000 0.000000 -60.708740 0.000000 150.000000 0.881244 0.417588 -0.221426
9.80000019 -3.41000009 -0.74000001 84 213 107 0.000000 0.000000 0.000000 0.000000 -60.708740 0.000000 150.000000 0.778742 0.493797 -0.386943
9.78999996 -3.40000010 -0.74000001 84 213 107 0.000000 0.000000 0.000000 0.000000 -60.708740 0.000000 150.000000 0.988987 0.122602 -0.082902
9.73999977 -3.40000010 -0.76999998 84 213 107 0.000000 0.000000 0.000000 0.000000 -60.708740 0.000000 150.000000 0.881325 0.462450 0.096988
9.75000000 -3.40000010 -0.76999998 84 213 107 0.000000 0.000000 0.000000 0.000000 -60.708740 0.000000 150.000000 0.907880 0.383390 -0.169604
9.77000046 -3.45000005 -0.74000001 84 213 107 0.000000 0.000000 0.000000 0.000000 -60.708740 0.000000 150.000000 0.990959 0.124012 -0.051198
9.81000042 -3.45000005 -0.81000000 84 213 107 0.000000 0.000000 0.000000 0.000000 -60.708740 0.000000 150.000000 0.985747 -0.148277 -0.079477
9.73999977 -3.40000010 -0.79000002 84 213 107 0.000000 0.000000 0.000000 0.000000 -60.708740 0.000000 150.000000 0.946702 0.127209 -0.295928
9.77000046 -3.43000007 -0.83999997 84 213 107 0.000000 0.000000 0.000000 0.000000 -60.708740 0.000000 150.000000 0.979013 -0.117284 -0.166667
9.77000046 -3.40000010 -0.81999999 84 213 107 0.000000 0.000000 0.000000 0.000000 -60.708740 0.000000 150.000000 0.931140 0.353376 0.090024
9.77000046 -3.45000005 -0.82999998 84 213 107 0.000000 0.000000 0.000000 0.000000 -60.708740 0.000000 150.000000 0.957930 0.239814 0.157668
9.80000019 -3.48000002 -0.73000002 84 213 107 0.000000 0.000000 0.000000 0.000000 -60.708740 0.000000 150.000000 0.903086 -0.363277 -0.229054
9.77999973 -3.48000002 -0.75000000 84 213 107 0.000000 0.000000 0.000000 0.000000 -60.708740 0.000000 150.000000 0.837054 0.365917 -0.406749
9.69999981 -3.40000010 -0.73000002 84 213 107 0.000000 0.000000 0.000000 0.000000 -60.708740 0.000000 150.000000 0.936894 0.348939 -0.021729
9.72999954 -3.40000010 -0.75000000 84 213 107 0.000000 0.000000 0.000000 0.000000 -60.708740 0.000000 150.000000 0.831989 0.469848 -0.295021
9.71000004 -3.43000007 -0.82999998 84 213 107 0.000000 0.000000 0.000000 0.000000 -60.708740 0.000000 150.000000 0.931882 0.185817 -0.311559
9.67000008 -3.41000009 -0.85000002 84 213 107 0.000000 0.000000 0.000000 0.000000 -60.708740 0.000000 150.000000 0.754790 0.401136 -0.519020
9.68999958 -3.46000004 -0.83999997 84 213 107 0.000000 0.000000 0.000000 0.000000 -60.708740 0.000000 150.000000 0.812439 0.001365 -0.583045
9.68000031 -3.45000005 -0.83999997 84 213 107 0.000000 0.000000 0.000000 0.000000 -60.708740 0.000000 150.000000 0.869071 -0.031281 -0.493698
9.68000031 -3.47000003 -0.85000002 84 213 107 0.000000 0.000000 0.000000 0.000000 -60.708740 0.000000 150.000000 0.814180 0.034913 -0.579562
9.78999996 -3.41000009 -0.87000000 84 213 107 0.000000 0.000000 0.000000 0.000000 -60.708740 0.000000 150.000000 0.808296 0.376138 -0.452966
9.76000023 -3.41000009 -0.89999998 84 213 107 0.000000 0.000000 0.000000 0.000000 -60.708740 0.000000 150.000000 0.870070 0.476022 -0.127994
9.77000046 -3.42000008 -0.86000001 84 213 107 0.000000 0.000000 0.000000 0.000000 -60.708740 0.000000 150.000000 0.984064 0.136107 -0.114426
9.77000046 -3.40000010 -0.92000002 84 213 107 0.000000 0.000000 0.000000 0.000000 -60.708740 0.000000 150.000000 0.802852 0.537833 -0.257224
9.76000023 -3.44000006 -0.87000000 84 213 107 0.000000 0.000000 0.000000 0.000000 -60.708740 0.000000 150.000000 0.983111 -0.153196 0.100120
9.76000023 -3.44000006 -0.87000000 84 213 107 0.000000 0.000000 0.000000 0.000000 -60.708740 0.000000 150.000000 0.983111 -0.153196 0.100120
9.81000042 -3.43000007 -0.94999999 84 213 107 0.000000 0.000000 0.000000 0.000000 -60.708740 0.000000 150.000000 0.975744 -0.169096 -0.139034
9.68000031 -3.42000008 -0.86000001 84 213 107 0.000000 0.000000 0.000000 0.000000 -60.708740 0.000000 150.000000 0.880446 0.278432 -0.383784
9.68000031 -3.47000003 -0.86000001 84 213 107 0.000000 0.000000 0.000000 0.000000 -60.708740 0.000000 150.000000 0.868478 -0.223494 -0.442489
9.64999962 -3.36999989 -0.34000000 84 213 107 0.000000 0.000000 0.000000 0.000000 -60.708740 0.000000 150.000000 0.052459 0.950651 0.305795
9.59000015 -3.31999993 -0.30000001 84 213 107 0.000000 0.000000 0.000000 0.000000 -60.708740 0.000000 150.000000 -0.453182 0.878855 0.149130
9.59000015 -3.36999989 -0.31000000 84 213 107 0.000000 0.000000 0.000000 0.000000 -60.708740 0.000000 150.000000 -0.329349 0.855072 0.400477
9.52999973 -3.38000011 -0.20000000 84 213 107 0.000000 0.000000 0.000000 0.000000 -60.708740 0.000000 150.000000 -0.326954 0.884434 0.332981
9.52999973 -3.38000011 -0.20999999 84 213 107 0.000000 0.000000 0.000000 0.000000 -60.708740 0.000000 150.000000 -0.421806 0.896159 0.137761
9.52999973 -3.38000011 -0.20000000 84 213 107 0.000000 0.000000 0.000000 0.000000 -60.708740 0.000000 150.000000 -0.326954 0.884434 0.332981
9.51000023 -3.35999990 -0.20000000 84 213 107 0.000000 0.000000 0.000000 0.000000 -60.708740 0.000000 150.000000 -0.650966 0.756837 -0.058658
9.52000046 -3.39000010 -0.20000000 84 213 107 0.000000 0.000000 0.000000 0.000000 -60.708740 0.000000 150.000000 -0.569287 0.735669 0.367019
9.52000046 -3.39000010 -0.27000001 84 213 107 0.000000 0.000000 0.000000 0.000000 -60.708740 0.000000 150.000000 0.576131 -0.495506 -0.650037
9.55000019 -3.34999990 -0.28999999 84 213 107 0.000000 0.000000 0.000000 0.000000 -60.708740 0.000000 150.000000 -0.632013 0.661872 0.403095
9.53999996 -3.34999990 -0.30000001 84 213 107 0.000000 0.000000 0.000000 0.000000 -60.708740 0.000000 150.000000 0.741022 -0.506668 -0.440652
9.53999996 -3.34999990 -0.30000001 84 213 107 0.000000 0.000000 0.000000 0.000000 -60.708740 0.000000 150.000000 0.741022 -0.506668 -0.440652
9.56000042 -3.36999989 -0.31000000 84 213 107 0.000000 0.000000 0.000000 0.000000 -60.708740 0.000000 150.000000 0.846650 -0.522889 -0.098847
9.56000042 -3.39000010 -0.30000001 84 213 107 0.000000 0.000000 0.000000 0.000000 -60.708740 0.000000 150.000000 -0.486174 0.834985 0.257749
9.56000042 -3.38000011 -0.31000000 84 213 107 0.000000 0.000000 0.000000 0.000000 -60.708740 0.000000 150.000000 -0.404459 0.810518 0.423643
9.56000042 -3.38000011 -0.31000000 84 213 107 0.000000 0.000000 0.000000 0.000000 -60.708740 0.000000 150.000000 -0.404459 0.810518 0.423643
9.56000042 -3.38000011 -0.31000000 84 213 107 0.000000 0.000000 0.000000 0.000000 -60.708740 0.000000 150.000000 -0.404459 0.810518 0.423643
9.56999969 -3.38000011 -0.30000001 84 213 107 0.000000 0.000000 0.000000 0.000000 -60.708740 0.000000 150.000000 -0.484710 0.868498 -0.103765
9.52999973 -3.35999990 -0.30000001 84 213 107 0.000000 0.000000 0.000000 0.000000 -60.708740 0.000000 150.000000 0.814029 -0.561040 -0.150305
9.56000042 -3.35999990 -0.33000001 84 213 107 0.000000 0.000000 0.000000 0.000000 -60.708740 0.000000 150.000000 -0.730004 0.662947 0.166118
9.56000042 -3.35999990 -0.33000001 84 213 107 0.000000 0.000000 0.000000 0.000000 -60.708740 0.000000 150.000000 -0.730004 0.662947 0.166118
9.53999996 -3.39000010 -0.34999999 84 213 107 0.000000 0.000000 0.000000 0.000000 -60.708740 0.000000 150.000000 -0.517140 0.847414 0.120231
9.52999973 -3.39000010 -0.31999999 84 213 107 0.000000 0.000000 0.000000 0.000000 -60.708740 0.000000 150.000000 -0.539569 0.841618 0.023340
9.47999954 -3.36999989 -0.17000000 84 213 107 0.000000 0.000000 0.000000 0.000000 -60.708740 0.000000 150.000000 0.834513 -0.550365 0.026208
9.47000027 -3.39000010 -0.15000001 84 213 107 0.000000 0.000000 0.000000 0.000000 -60.708740 0.000000 150.000000 -0.501321 0.819917 0.276429
9.47999954 -3.38000011 -0.15000001 84 213 107 0.000000 0.000000 0.000000 0.000000 -60.708740 0.000000 150.000000 0.641692 -0.544006 -0.540638
