//X Y Z R G B PointSourceId ScanDirectionFlag NumberOfReturns ReturnNumber GpsTime Intensity Classification Nx Ny Nz
9.52000046 -9.21000004 -0.44999999 14 223 137 0.000000 0.000000 0.000000 0.000000 -60.708740 0.000000 240.000000 0.949659 0.279942 0.140641
9.52000046 -9.25000000 -0.50999999 14 223 137 0.000000 0.000000 0.000000 0.000000 -60.708740 0.000000 240.000000 0.907580 0.412039 -0.080765
9.50000000 -9.23999977 -0.50000000 14 223 137 0.000000 0.000000 0.000000 0.000000 -60.708740 0.000000 240.000000 0.653626 0.686064 0.319514
9.48999977 -9.26000023 -0.51999998 14 223 137 0.000000 0.000000 0.000000 0.000000 -60.708740 0.000000 240.000000 0.651973 0.703234 0.283536
9.64999962 -9.10999966 -0.56000000 14 223 137 0.000000 0.000000 0.000000 0.000000 -60.708740 0.000000 240.000000 0.943108 -0.320525 0.088375
9.59000015 -9.17000008 -0.55000001 14 223 137 0.000000 0.000000 0.000000 0.000000 -60.708740 0.000000 240.000000 0.802139 0.592636 -0.073183
9.64000034 -9.18999958 -0.54000002 14 223 137 0.000000 0.000000 0.000000 0.000000 -60.708740 0.000000 240.000000 0.982463 0.186428 0.003431
9.64000034 -9.18999958 -0.56000000 14 223 137 0.000000 0.000000 0.000000 0.000000 -60.708740 0.000000 240.000000 0.903214 0.339256 0.262887
9.64999962 -9.21000004 -0.55000001 14 223 137 0.000000 0.000000 0.000000 0.000000 -60.708740 0.000000 240.000000 0.653824 0.719677 -0.233621
9.63000011 -9.22000027 -0.60000002 14 223 137 0.000000 0.000000 0.000000 0.000000 -60.708740 0.000000 240.000000 0.738037 0.568598 0.363316
9.64000034 -9.18999958 -0.56999999 14 223 137 0.000000 0.000000 0.000000 0.000000 -60.708740 0.000000 240.000000 0.967491 0.250740 -0.033024
9.60000038 -9.18999958 -0.55000001 14 223 137 0.000000 0.000000 0.000000 0.000000 -60.708740 0.000000 240.000000 0.936913 0.201861 0.285389
9.59000015 -9.25000000 -0.54000002 14 223 137 0.000000 0.000000 0.000000 0.000000 -60.708740 0.000000 240.000000 0.947740 0.208639 0.241367
9.59000015 -9.26000023 -0.52999997 14 223 137 0.000000 0.000000 0.000000 0.000000 -60.708740 0.000000 240.000000 0.741804 0.622107 0.250418
9.60000038 -9.22999954 -0.57999998 14 223 137 0.000000 0.000000 0.000000 0.000000 -60.708740 0.000000 240.000000 0.866335 0.499448 -0.004017
9.57999992 -9.23999977 -0.57999998 14 223 137 0.000000 0.000000 0.000000 0.000000 -60.708740 0.000000 240.000000 0.726648 0.655378 -0.206064
9.63000011 -9.23999977 -0.62000000 14 223 137 0.000000 0.000000 0.000000 0.000000 -60.708740 0.000000 240.000000 0.935084 0.348519 0.064443
9.61999989 -9.22999954 -0.64999998 14 223 137 0.000000 0.000000 0.000000 0.000000 -60.708740 0.000000 240.000000 0.852030 0.294281 0.432948
9.63000011 -9.22999954 -0.66000003 14 223 137 0.000000 0.000000 0.000000 0.000000 -60.708740 0.000000 240.000000 0.968585 -0.010802 0.248447
9.60000038 -9.22000027 -0.69000000 14 223 137 0.000000 0.000000 0.000000 0.000000 -60.708740 0.000000 240.000000 0.888082 0.458234 -0.036497
9.60000038 -9.21000004 -0.69000000 14 223 137 0.000000 0.000000 0.000000 0.000000 -60.708740 0.000000 240.000000 0.989709 0.101181 -0.101181
9.60999966 -9.21000004 -0.67000002 14 223 137 0.000000 0.000000 0.000000 0.000000 -60.708740 0.000000 240.000000 0.954931 0.294887 0.033881
9.60000038 -9.22000027 -0.69000000 14 223 137 0.000000 0.000000 0.000000 0.000000 -60.708740 0.000000 240.000000 0.888082 0.458234 -0.036497
9.60999966 -9.21000004 -0.64999998 14 223 137 0.000000 0.000000 0.000000 0.000000 -60.708740 0.000000 240.000000 0.994292 -0.003232 0.106647
9.60000038 -9.25000000 -0.62000000 14 223 137 0.000000 0.000000 0.000000 0.000000 -60.708740 0.000000 240.000000 0.832714 0.420292 0.360475
9.60999966 -9.26000023 -0.63999999 14 223 137 0.000000 0.000000 0.000000 0.000000 -60.708740 0.000000 240.000000 0.980885 0.148174 0.126131
9.57999992 -9.25000000 -0.68000001 14 223 137 0.000000 0.000000 0.000000 0.000000 -60.708740 0.000000 240.000000 0.940303 -0.085963 0.329304
9.60000038 -9.25000000 -0.69000000 14 223 137 0.000000 0.000000 0.000000 0.000000 -60.708740 0.000000 240.000000 0.813150 0.166838 0.557631
9.60999966 -9.26000023 -0.64999998 14 223 137 0.000000 0.000000 0.000000 0.000000 -60.708740 0.000000 240.000000 0.973795 0.225092 -0.032500
9.53999996 -9.22000027 -0.55000001 14 223 137 0.000000 0.000000 0.000000 0.000000 -60.708740 0.000000 240.000000 0.862460 0.430470 -0.266192
9.56000042 -9.19999981 -0.60000002 14 223 137 0.000000 0.000000 0.000000 0.000000 -60.708740 0.000000 240.000000 0.848958 0.095919 0.519682
9.56000042 -9.19999981 -0.60000002 14 223 137 0.000000 0.000000 0.000000 0.000000 -60.708740 0.000000 240.000000 0.848958 0.095919 0.519682
9.53999996 -9.23999977 -0.58999997 14 223 137 0.000000 0.000000 0.000000 0.000000 -60.708740 0.000000 240.000000 0.757650 0.499100 0.420553
9.53999996 -9.22999954 -0.60000002 14 223 137 0.000000 0.000000 0.000000 0.000000 -60.708740 0.000000 240.000000 0.967446 0.252430 -0.018117
9.53999996 -9.23999977 -0.60000002 14 223 137 0.000000 0.000000 0.000000 0.000000 -60.708740 0.000000 240.000000 0.924524 0.290075 -0.247207
9.51000023 -9.26000023 -0.58999997 14 223 137 0.000000 0.000000 0.000000 0.000000 -60.708740 0.000000 240.000000 0.929158 0.295577 -0.222036
9.51000023 -9.26000023 -0.58999997 14 223 137 0.000000 0.000000 0.000000 0.000000 -60.708740 0.000000 240.000000 0.929158 0.295577 -0.222036
9.53999996 -9.21000004 -0.62000000 14 223 137 0.000000 0.000000 0.000000 0.000000 -60.708740 0.000000 240.000000 0.839650 0.500764 0.210291
9.56999969 -9.22000027 -0.61000001 14 223 137 0.000000 0.000000 0.000000 0.000000 -60.708740 0.000000 240.000000 0.773938 0.287644 0.564164
9.56000042 -9.18999958 -0.62000000 14 223 137 0.000000 0.000000 0.000000 0.000000 -60.708740 0.000000 240.000000 0.840180 0.034604 0.541203
9.53999996 -9.22999954 -0.64999998 14 223 137 0.000000 0.000000 0.000000 0.000000 -60.708740 0.000000 240.000000 0.997301 0.018056 -0.071160
9.48999977 -9.23999977 -0.63000000 14 223 137 0.000000 0.000000 0.000000 0.000000 -60.708740 0.000000 240.000000 0.978109 0.205605 -0.032089
9.52000046 -9.25000000 -0.63000000 14 223 137 0.000000 0.000000 0.000000 0.000000 -60.708740 0.000000 240.000000 0.795769 0.604221 0.040845
9.61999989 -9.35000038 -0.37000000 14 223 137 0.000000 0.000000 0.000000 0.000000 -60.708740 0.000000 240.000000 0.590008 0.683080 -0.430457
9.64000034 -9.32999992 -0.43000001 14 223 137 0.000000 0.000000 0.000000 0.000000 -60.708740 0.000000 240.000000 0.475340 0.872171 0.115623
9.59000015 -9.27999973 -0.40000001 14 223 137 0.000000 0.000000 0.000000 0.000000 -60.708740 0.000000 240.000000 0.788851 0.542236 -0.289298
9.61999989 -9.35000038 -0.50000000 14 223 137 0.000000 0.000000 0.000000 0.000000 -60.708740 0.000000 240.000000 0.788460 0.601368 -0.129183
9.61999989 -9.34000015 -0.50999999 14 223 137 0.000000 0.000000 0.000000 0.000000 -60.708740 0.000000 240.000000 0.562852 0.825423 0.043296
9.59000015 -9.30000019 -0.47999999 14 223 137 0.000000 0.000000 0.000000 0.000000 -60.708740 0.000000 240.000000 0.420521 0.906456 -0.038715
9.59000015 -9.31999969 -0.47000000 14 223 137 0.000000 0.000000 0.000000 0.000000 -60.708740 0.000000 240.000000 0.742366 0.669667 -0.020971
9.60999966 -9.32999992 -0.46000001 14 223 137 0.000000 0.000000 0.000000 0.000000 -60.708740 0.000000 240.000000 0.649570 0.666015 -0.366719
9.59000015 -9.35000038 -0.50000000 14 223 137 0.000000 0.000000 0.000000 0.000000 -60.708740 0.000000 240.000000 0.670158 0.724865 -0.159561
9.57999992 -9.35000038 -0.49000001 14 223 137 0.000000 0.000000 0.000000 0.000000 -60.708740 0.000000 240.000000 0.564391 0.825507 -0.001360
9.59000015 -9.32999992 -0.51999998 14 223 137 0.000000 0.000000 0.000000 0.000000 -60.708740 0.000000 240.000000 0.526379 0.842497 0.114556
9.60000038 -9.32999992 -0.51999998 14 223 137 0.000000 0.000000 0.000000 0.000000 -60.708740 0.000000 240.000000 0.638434 0.729864 0.244339
9.61999989 -9.36999989 -0.38999999 14 223 137 0.000000 0.000000 0.000000 0.000000 -60.708740 0.000000 240.000000 0.544089 0.790112 -0.282295
9.61999989 -9.35999966 -0.38000000 14 223 137 0.000000 0.000000 0.000000 0.000000 -60.708740 0.000000 240.000000 0.331740 0.935642 -0.120510
9.61999989 -9.36999989 -0.43000001 14 223 137 0.000000 0.000000 0.000000 0.000000 -60.708740 0.000000 240.000000 0.637886 0.769670 -0.026637
9.64000034 -9.38000011 -0.44999999 14 223 137 0.000000 0.000000 0.000000 0.000000 -60.708740 0.000000 240.000000 0.572127 0.801582 0.173601
9.64999962 -9.39000034 -0.44999999 14 223 137 0.000000 0.000000 0.000000 0.000000 -60.708740 0.000000 240.000000 0.254765 0.957018 -0.138603
9.63000011 -9.38000011 -0.44999999 14 223 137 0.000000 0.000000 0.000000 0.000000 -60.708740 0.000000 240.000000 0.298922 0.947252 0.115583
9.60000038 -9.35999966 -0.44999999 14 223 137 0.000000 0.000000 0.000000 0.000000 -60.708740 0.000000 240.000000 0.562404 0.789859 0.244591
9.60999966 -9.38000011 -0.49000001 14 223 137 0.000000 0.000000 0.000000 0.000000 -60.708740 0.000000 240.000000 0.620638 0.637367 -0.456696
9.59000015 -9.35999966 -0.50999999 14 223 137 0.000000 0.000000 0.000000 0.000000 -60.708740 0.000000 240.000000 0.843683 0.530681 -0.081096
9.60000038 -9.35999966 -0.49000001 14 223 137 0.000000 0.000000 0.000000 0.000000 -60.708740 0.000000 240.000000 0.718839 0.686232 -0.111161
9.56999969 -9.27999973 -0.50999999 14 223 137 0.000000 0.000000 0.000000 0.000000 -60.708740 0.000000 240.000000 0.622509 0.716290 0.315297
9.55000019 -9.27000046 -0.50000000 14 223 137 0.000000 0.000000 0.000000 0.000000 -60.708740 0.000000 240.000000 0.859060 0.501714 -0.101486
9.55000019 -9.31000042 -0.51999998 14 223 137 0.000000 0.000000 0.000000 0.000000 -60.708740 0.000000 240.000000 0.508118 0.814553 -0.279856
9.56999969 -9.34000015 -0.49000001 14 223 137 0.000000 0.000000 0.000000 0.000000 -60.708740 0.000000 240.000000 0.708145 0.705318 0.032510
9.56999969 -9.35000038 -0.51999998 14 223 137 0.000000 0.000000 0.000000 0.000000 -60.708740 0.000000 240.000000 0.657069 0.749900 0.076876
9.56000042 -9.31999969 -0.49000001 14 223 137 0.000000 0.000000 0.000000 0.000000 -60.708740 0.000000 240.000000 0.672544 0.726709 -0.139925
9.50000000 -9.27999973 -0.50000000 14 223 137 0.000000 0.000000 0.000000 0.000000 -60.708740 0.000000 240.000000 0.821877 0.476154 0.312722
9.51000023 -9.28999996 -0.51999998 14 223 137 0.000000 0.000000 0.000000 0.000000 -60.708740 0.000000 240.000000 0.668638 0.632317 0.391277
9.48999977 -9.27000046 -0.50000000 14 223 137 0.000000 0.000000 0.000000 0.000000 -60.708740 0.000000 240.000000 0.729841 0.494836 0.471666
9.60000038 -9.30000019 -0.52999997 14 223 137 0.000000 0.000000 0.000000 0.000000 -60.708740 0.000000 240.000000 0.905304 0.404078 -0.130938
9.57999992 -9.35000038 -0.60000002 14 223 137 0.000000 0.000000 0.000000 0.000000 -60.708740 0.000000 240.000000 0.776084 0.626339 -0.073433
9.61999989 -9.27000046 -0.66000003 14 223 137 0.000000 0.000000 0.000000 0.000000 -60.708740 0.000000 240.000000 0.915198 0.391052 0.097420
9.60000038 -9.34000015 -0.67000002 14 223 137 0.000000 0.000000 0.000000 0.000000 -60.708740 0.000000 240.000000 0.638799 0.732970 0.233860
9.57999992 -9.34000015 -0.69000000 14 223 137 0.000000 0.000000 0.000000 0.000000 -60.708740 0.000000 240.000000 0.945056 0.303434 -0.121641
9.59000015 -9.27000046 -0.66000003 14 223 137 0.000000 0.000000 0.000000 0.000000 -60.708740 0.000000 240.000000 0.788027 0.441748 0.428803
9.59000015 -9.35000038 -0.61000001 14 223 137 0.000000 0.000000 0.000000 0.000000 -60.708740 0.000000 240.000000 0.852808 0.508210 -0.120175
9.60999966 -9.38000011 -0.55000001 14 223 137 0.000000 0.000000 0.000000 0.000000 -60.708740 0.000000 240.000000 0.834785 0.449499 -0.317939
9.60000038 -9.35999966 -0.54000002 14 223 137 0.000000 0.000000 0.000000 0.000000 -60.708740 0.000000 240.000000 0.457939 0.808973 -0.368585
9.60000038 -9.36999989 -0.55000001 14 223 137 0.000000 0.000000 0.000000 0.000000 -60.708740 0.000000 240.000000 0.680349 0.624340 -0.383829
9.59000015 -9.39000034 -0.60000002 14 223 137 0.000000 0.000000 0.000000 0.000000 -60.708740 0.000000 240.000000 0.665318 0.736761 -0.120561
9.59000015 -9.39000034 -0.60000002 14 223 137 0.000000 0.000000 0.000000 0.000000 -60.708740 0.000000 240.000000 0.665318 0.736761 -0.120561
9.60999966 -9.40999985 -0.52999997 14 223 137 0.000000 0.000000 0.000000 0.000000 -60.708740 0.000000 240.000000 0.589880 0.744182 -0.313424
9.60999966 -9.40999985 -0.58999997 14 223 137 0.000000 0.000000 0.000000 0.000000 -60.708740 0.000000 240.000000 0.431364 0.901457 0.036058
9.60000038 -9.40999985 -0.56999999 14 223 137 0.000000 0.000000 0.000000 0.000000 -60.708740 0.000000 240.000000 0.891964 0.439661 -0.105350
9.61999989 -9.39000034 -0.63999999 14 223 137 0.000000 0.000000 0.000000 0.000000 -60.708740 0.000000 240.000000 0.873692 0.444977 0.196618
9.60000038 -9.36999989 -0.62000000 14 223 137 0.000000 0.000000 0.000000 0.000000 -60.708740 0.000000 240.000000 0.731095 0.679183 0.064890
9.60000038 -9.36999989 -0.62000000 14 223 137 0.000000 0.000000 0.000000 0.000000 -60.708740 0.000000 240.000000 0.731095 0.679183 0.064890
9.57999992 -9.36999989 -0.63999999 14 223 137 0.000000 0.000000 0.000000 0.000000 -60.708740 0.000000 240.000000 0.508635 0.828260 -0.235109
9.59000015 -9.39000034 -0.61000001 14 223 137 0.000000 0.000000 0.000000 0.000000 -60.708740 0.000000 240.000000 0.498850 0.842469 0.203458
9.60000038 -9.38000011 -0.63000000 14 223 137 0.000000 0.000000 0.000000 0.000000 -60.708740 0.000000 240.000000 0.745998 0.609786 -0.267672
9.59000015 -9.35999966 -0.61000001 14 223 137 0.000000 0.000000 0.000000 0.000000 -60.708740 0.000000 240.000000 0.747230 0.651775 -0.129758
9.60999966 -9.38000011 -0.64999998 14 223 137 0.000000 0.000000 0.000000 0.000000 -60.708740 0.000000 240.000000 0.515858 0.855128 0.051447
9.60000038 -9.39999962 -0.61000001 14 223 137 0.000000 0.000000 0.000000 0.000000 -60.708740 0.000000 240.000000 0.599259 0.781313 0.174468
9.55000019 -9.31000042 -0.56000000 14 223 137 0.000000 0.000000 0.000000 0.000000 -60.708740 0.000000 240.000000 0.904010 0.416703 0.095523
9.55000019 -9.31000042 -0.56999999 14 223 137 0.000000 0.000000 0.000000 0.000000 -60.708740 0.000000 240.000000 0.869197 0.406437 -0.281614
9.55000019 -9.30000019 -0.56999999 14 223 137 0.000000 0.000000 0.000000 0.000000 -60.708740 0.000000 240.000000 0.844701 0.510371 -0.161248
9.53999996 -9.30000019 -0.58999997 14 223 137 0.000000 0.000000 0.000000 0.000000 -60.708740 0.000000 240.000000 0.812189 0.573053 0.109361
9.55000019 -9.31000042 -0.58999997 14 223 137 0.000000 0.000000 0.000000 0.000000 -60.708740 0.000000 240.000000 0.749175 0.617245 0.240302
9.52999973 -9.28999996 -0.57999998 14 223 137 0.000000 0.000000 0.000000 0.000000 -60.708740 0.000000 240.000000 0.800185 0.532933 0.275113
9.55000019 -9.32999992 -0.58999997 14 223 137 0.000000 0.000000 0.000000 0.000000 -60.708740 0.000000 240.000000 0.953674 0.290361 -0.078720
9.55000019 -9.34000015 -0.58999997 14 223 137 0.000000 0.000000 0.000000 0.000000 -60.708740 0.000000 240.000000 0.940625 0.336767 0.042580
9.52000046 -9.27999973 -0.54000002 14 223 137 0.000000 0.000000 0.000000 0.000000 -60.708740 0.000000 240.000000 0.833457 0.389157 0.392308
9.51000023 -9.27999973 -0.60000002 14 223 137 0.000000 0.000000 0.000000 0.000000 -60.708740 0.000000 240.000000 0.960835 0.239228 0.139877
9.51000023 -9.27999973 -0.60000002 14 223 137 0.000000 0.000000 0.000000 0.000000 -60.708740 0.000000 240.000000 0.960835 0.239228 0.139877
9.51000023 -9.27999973 -0.60000002 14 223 137 0.000000 0.000000 0.000000 0.000000 -60.708740 0.000000 240.000000 0.960835 0.239228 0.139877
9.52000046 -9.27999973 -0.57999998 14 223 137 0.000000 0.000000 0.000000 0.000000 -60.708740 0.000000 240.000000 0.683917 0.664607 0.300924
9.52999973 -9.28999996 -0.63999999 14 223 137 0.000000 0.000000 0.000000 0.000000 -60.708740 0.000000 240.000000 0.824741 0.565023 -0.023485
9.52999973 -9.27999973 -0.63999999 14 223 137 0.000000 0.000000 0.000000 0.000000 -60.708740 0.000000 240.000000 0.806826 0.570316 0.154180
9.55000019 -9.28999996 -0.62000000 14 223 137 0.000000 0.000000 0.000000 0.000000 -60.708740 0.000000 240.000000 0.947092 0.183968 0.263006
9.53999996 -9.32999992 -0.63999999 14 223 137 0.000000 0.000000 0.000000 0.000000 -60.708740 0.000000 240.000000 0.674763 0.735189 0.064743
9.53999996 -9.35000038 -0.62000000 14 223 137 0.000000 0.000000 0.000000 0.000000 -60.708740 0.000000 240.000000 0.576280 0.817196 -0.009582
9.55000019 -9.34000015 -0.63999999 14 223 137 0.000000 0.000000 0.000000 0.000000 -60.708740 0.000000 240.000000 0.867134 0.480458 0.131296
9.55000019 -9.34000015 -0.63000000 14 223 137 0.000000 0.000000 0.000000 0.000000 -60.708740 0.000000 240.000000 0.880454 0.456691 0.127415
9.56999969 -9.32999992 -0.69000000 14 223 137 0.000000 0.000000 0.000000 0.000000 -60.708740 0.000000 240.000000 0.935084 0.348519 0.064443
9.53999996 -9.34000015 -0.69000000 14 223 137 0.000000 0.000000 0.000000 0.000000 -60.708740 0.000000 240.000000 0.910760 0.350736 -0.217947
9.56999969 -9.31999969 -0.68000001 14 223 137 0.000000 0.000000 0.000000 0.000000 -60.708740 0.000000 240.000000 0.981308 0.184815 0.053656
9.56999969 -9.31999969 -0.69000000 14 223 137 0.000000 0.000000 0.000000 0.000000 -60.708740 0.000000 240.000000 0.957334 0.219694 0.187739
9.52000046 -9.28999996 -0.62000000 14 223 137 0.000000 0.000000 0.000000 0.000000 -60.708740 0.000000 240.000000 0.855822 0.517255 0.004031
9.51000023 -9.27999973 -0.61000001 14 223 137 0.000000 0.000000 0.000000 0.000000 -60.708740 0.000000 240.000000 0.989566 0.065817 0.128170
9.48999977 -9.27999973 -0.61000001 14 223 137 0.000000 0.000000 0.000000 0.000000 -60.708740 0.000000 240.000000 0.786321 0.614447 -0.064453
9.52000046 -9.28999996 -0.67000002 14 223 137 0.000000 0.000000 0.000000 0.000000 -60.708740 0.000000 240.000000 0.955734 0.075893 0.284276
9.52000046 -9.28999996 -0.66000003 14 223 137 0.000000 0.000000 0.000000 0.000000 -60.708740 0.000000 240.000000 0.964687 0.224015 0.138552
9.55000019 -9.38000011 -0.54000002 14 223 137 0.000000 0.000000 0.000000 0.000000 -60.708740 0.000000 240.000000 0.883133 0.415679 0.217455
9.56999969 -9.38000011 -0.56000000 14 223 137 0.000000 0.000000 0.000000 0.000000 -60.708740 0.000000 240.000000 0.662703 0.744266 -0.083020
9.55000019 -9.35999966 -0.63999999 14 223 137 0.000000 0.000000 0.000000 0.000000 -60.708740 0.000000 240.000000 0.875072 0.483769 -0.014741
9.56999969 -9.36999989 -0.66000003 14 223 137 0.000000 0.000000 0.000000 0.000000 -60.708740 0.000000 240.000000 0.644218 0.754315 -0.126463
9.56999969 -9.36999989 -0.67000002 14 223 137 0.000000 0.000000 0.000000 0.000000 -60.708740 0.000000 240.000000 0.569789 0.802541 -0.176831
9.53999996 -9.39000034 -0.67000002 14 223 137 0.000000 0.000000 0.000000 0.000000 -60.708740 0.000000 240.000000 0.948117 0.267209 -0.172262
9.56000042 -9.39999962 -0.63000000 14 223 137 0.000000 0.000000 0.000000 0.000000 -60.708740 0.000000 240.000000 0.916740 0.376990 -0.132155
9.46000004 -9.14000034 -0.37000000 14 223 137 0.000000 0.000000 0.000000 0.000000 -60.708740 0.000000 240.000000 0.825728 0.562168 0.046263
9.46000004 -9.13000011 -0.38999999 14 223 137 0.000000 0.000000 0.000000 0.000000 -60.708740 0.000000 240.000000 0.781279 0.321139 0.535232
9.47000027 -9.14000034 -0.40000001 14 223 137 0.000000 0.000000 0.000000 0.000000 -60.708740 0.000000 240.000000 0.758691 0.473568 0.447349
9.46000004 -9.14999962 -0.37000000 14 223 137 0.000000 0.000000 0.000000 0.000000 -60.708740 0.000000 240.000000 0.655266 0.734692 0.175654
9.40999985 -9.13000011 -0.38000000 14 223 137 0.000000 0.000000 0.000000 0.000000 -60.708740 0.000000 240.000000 0.836599 0.470296 0.280936
9.40999985 -9.17000008 -0.41000000 14 223 137 0.000000 0.000000 0.000000 0.000000 -60.708740 0.000000 240.000000 0.892791 0.250218 0.374587
9.46000004 -9.13000011 -0.44999999 14 223 137 0.000000 0.000000 0.000000 0.000000 -60.708740 0.000000 240.000000 0.875189 0.479764 0.062217
9.47000027 -9.14000034 -0.47999999 14 223 137 0.000000 0.000000 0.000000 0.000000 -60.708740 0.000000 240.000000 0.794472 0.472171 0.381927
9.47000027 -9.14000034 -0.46000001 14 223 137 0.000000 0.000000 0.000000 0.000000 -60.708740 0.000000 240.000000 0.921586 0.176414 0.345771
9.46000004 -9.10999966 -0.46000001 14 223 137 0.000000 0.000000 0.000000 0.000000 -60.708740 0.000000 240.000000 0.920802 -0.212712 0.326920
9.44999981 -9.10999966 -0.51999998 14 223 137 0.000000 0.000000 0.000000 0.000000 -60.708740 0.000000 240.000000 0.829895 0.211661 0.516210
9.46000004 -9.11999989 -0.49000001 14 223 137 0.000000 0.000000 0.000000 0.000000 -60.708740 0.000000 240.000000 0.735115 0.547636 0.399626
9.44999981 -9.22000027 -0.41999999 14 223 137 0.000000 0.000000 0.000000 0.000000 -60.708740 0.000000 240.000000 0.980028 0.129113 0.151246
9.44999981 -9.22999954 -0.40000001 14 223 137 0.000000 0.000000 0.000000 0.000000 -60.708740 0.000000 240.000000 0.940595 0.337485 0.037213
9.43000031 -9.19999981 -0.41000000 14 223 137 0.000000 0.000000 0.000000 0.000000 -60.708740 0.000000 240.000000 0.763139 0.578328 0.288368
9.43000031 -9.25000000 -0.37000000 14 223 137 0.000000 0.000000 0.000000 0.000000 -60.708740 0.000000 240.000000 0.642118 0.671678 0.369505
9.43000031 -9.22999954 -0.41999999 14 223 137 0.000000 0.000000 0.000000 0.000000 -60.708740 0.000000 240.000000 0.883239 0.429169 0.188952
9.42000008 -9.22000027 -0.50000000 14 223 137 0.000000 0.000000 0.000000 0.000000 -60.708740 0.000000 240.000000 0.991491 0.083675 0.099722
9.42000008 -9.22999954 -0.50999999 14 223 137 0.000000 0.000000 0.000000 0.000000 -60.708740 0.000000 240.000000 0.984275 0.082321 0.156291
9.42000008 -9.23999977 -0.50000000 14 223 137 0.000000 0.000000 0.000000 0.000000 -60.708740 0.000000 240.000000 0.919626 0.332206 0.209589
9.42000008 -9.23999977 -0.49000001 14 223 137 0.000000 0.000000 0.000000 0.000000 -60.708740 0.000000 240.000000 0.883751 0.336883 0.324797
9.38000011 -9.18000031 -0.41999999 14 223 137 0.000000 0.000000 0.000000 0.000000 -60.708740 0.000000 240.000000 0.897580 0.321942 0.301171
9.35999966 -9.15999985 -0.43000001 14 223 137 0.000000 0.000000 0.000000 0.000000 -60.708740 0.000000 240.000000 0.979076 -0.034416 0.200562
9.35999966 -9.19999981 -0.37000000 14 223 137 0.000000 0.000000 0.000000 0.000000 -60.708740 0.000000 240.000000 0.766359 0.561570 0.311983
9.35000038 -9.21000004 -0.38000000 14 223 137 0.000000 0.000000 0.000000 0.000000 -60.708740 0.000000 240.000000 0.672263 0.738199 0.055902
9.46000004 -9.11999989 -0.52999997 14 223 137 0.000000 0.000000 0.000000 0.000000 -60.708740 0.000000 240.000000 0.777104 0.029404 0.628684
9.42000008 -9.11999989 -0.55000001 14 223 137 0.000000 0.000000 0.000000 0.000000 -60.708740 0.000000 240.000000 0.762198 0.476988 0.437649
9.43000031 -9.13000011 -0.56000000 14 223 137 0.000000 0.000000 0.000000 0.000000 -60.708740 0.000000 240.000000 0.937529 -0.238923 0.252895
9.42000008 -9.14999962 -0.55000001 14 223 137 0.000000 0.000000 0.000000 0.000000 -60.708740 0.000000 240.000000 0.909414 0.038613 0.414096
9.42000008 -9.22999954 -0.52999997 14 223 137 0.000000 0.000000 0.000000 0.000000 -60.708740 0.000000 240.000000 0.957587 0.108136 0.267082
9.42000008 -9.22999954 -0.52999997 14 223 137 0.000000 0.000000 0.000000 0.000000 -60.708740 0.000000 240.000000 0.957587 0.108136 0.267082
9.47999954 -9.22999954 -0.63000000 14 223 137 0.000000 0.000000 0.000000 0.000000 -60.708740 0.000000 240.000000 0.981869 0.150025 0.115873
9.47000027 -9.21000004 -0.61000001 14 223 137 0.000000 0.000000 0.000000 0.000000 -60.708740 0.000000 240.000000 0.974979 0.054774 0.215445
9.38000011 -9.14999962 -0.69000000 14 223 137 0.000000 0.000000 0.000000 0.000000 -60.708740 0.000000 240.000000 0.922394 0.164262 0.349583
9.47000027 -9.27000046 -0.47999999 14 223 137 0.000000 0.000000 0.000000 0.000000 -60.708740 0.000000 240.000000 0.685536 0.701011 0.196531
9.47000027 -9.28999996 -0.50999999 14 223 137 0.000000 0.000000 0.000000 0.000000 -60.708740 0.000000 240.000000 0.860672 0.360030 0.360030
9.47999954 -9.27000046 -0.47000000 14 223 137 0.000000 0.000000 0.000000 0.000000 -60.708740 0.000000 240.000000 0.826321 0.521967 -0.211526
9.47999954 -9.28999996 -0.56000000 14 223 137 0.000000 0.000000 0.000000 0.000000 -60.708740 0.000000 240.000000 0.967134 0.116260 0.226133
9.47000027 -9.35000038 -0.58999997 14 223 137 0.000000 0.000000 0.000000 0.000000 -60.708740 0.000000 240.000000 0.841620 0.530868 -0.099268
9.47000027 -9.27999973 -0.63999999 14 223 137 0.000000 0.000000 0.000000 0.000000 -60.708740 0.000000 240.000000 0.899827 0.257725 0.351978
9.47999954 -9.27000046 -0.66000003 14 223 137 0.000000 0.000000 0.000000 0.000000 -60.708740 0.000000 240.000000 0.986291 0.096137 0.134117
9.60000038 -9.15999985 -0.73000002 14 223 137 0.000000 0.000000 0.000000 0.000000 -60.708740 0.000000 240.000000 0.968538 -0.211108 0.131783
9.61999989 -9.25000000 -0.72000003 14 223 137 0.000000 0.000000 0.000000 0.000000 -60.708740 0.000000 240.000000 0.984275 0.156291 0.082321
9.60000038 -9.21000004 -0.69999999 14 223 137 0.000000 0.000000 0.000000 0.000000 -60.708740 0.000000 240.000000 0.995753 0.091304 -0.011816
9.60999966 -9.23999977 -0.70999998 14 223 137 0.000000 0.000000 0.000000 0.000000 -60.708740 0.000000 240.000000 0.971033 0.238268 -0.017960
9.60000038 -9.22999954 -0.69999999 14 223 137 0.000000 0.000000 0.000000 0.000000 -60.708740 0.000000 240.000000 0.848800 0.527929 -0.028796
9.60999966 -9.23999977 -0.70999998 14 223 137 0.000000 0.000000 0.000000 0.000000 -60.708740 0.000000 240.000000 0.971033 0.238268 -0.017960
9.60000038 -9.26000023 -0.74000001 14 223 137 0.000000 0.000000 0.000000 0.000000 -60.708740 0.000000 240.000000 0.906377 -0.055218 0.418846
9.57999992 -9.22000027 -0.85000002 14 223 137 0.000000 0.000000 0.000000 0.000000 -60.708740 0.000000 240.000000 0.960457 -0.080357 0.266581
9.57999992 -9.25000000 -0.82999998 14 223 137 0.000000 0.000000 0.000000 0.000000 -60.708740 0.000000 240.000000 0.955641 -0.228552 0.185782
9.57999992 -9.23999977 -0.82999998 14 223 137 0.000000 0.000000 0.000000 0.000000 -60.708740 0.000000 240.000000 0.942839 0.171052 0.285999
9.48999977 -9.17000008 -0.75000000 14 223 137 0.000000 0.000000 0.000000 0.000000 -60.708740 0.000000 240.000000 0.940426 -0.151506 0.304376
9.51000023 -9.18000031 -0.79000002 14 223 137 0.000000 0.000000 0.000000 0.000000 -60.708740 0.000000 240.000000 0.860716 -0.125853 0.493284
9.56999969 -9.22000027 -0.74000001 14 223 137 0.000000 0.000000 0.000000 0.000000 -60.708740 0.000000 240.000000 0.816986 0.052208 0.574289
9.52999973 -9.25000000 -0.70999998 14 223 137 0.000000 0.000000 0.000000 0.000000 -60.708740 0.000000 240.000000 0.764459 0.569753 0.301634
9.56999969 -9.23999977 -0.75000000 14 223 137 0.000000 0.000000 0.000000 0.000000 -60.708740 0.000000 240.000000 0.995403 -0.036137 0.088699
9.50000000 -9.18999958 -0.75999999 14 223 137 0.000000 0.000000 0.000000 0.000000 -60.708740 0.000000 240.000000 0.995247 0.074173 0.063102
9.48999977 -9.22999954 -0.72000003 14 223 137 0.000000 0.000000 0.000000 0.000000 -60.708740 0.000000 240.000000 0.876549 -0.068068 0.476476
9.59000015 -9.23999977 -0.86000001 14 223 137 0.000000 0.000000 0.000000 0.000000 -60.708740 0.000000 240.000000 0.895860 0.274849 0.349133
9.61999989 -9.30000019 -0.76999998 14 223 137 0.000000 0.000000 0.000000 0.000000 -60.708740 0.000000 240.000000 0.999690 0.021184 -0.013114
9.60000038 -9.27000046 -0.74000001 14 223 137 0.000000 0.000000 0.000000 0.000000 -60.708740 0.000000 240.000000 0.885524 0.394393 0.245565
9.57999992 -9.40999985 -0.70999998 14 223 137 0.000000 0.000000 0.000000 0.000000 -60.708740 0.000000 240.000000 0.751748 0.652101 -0.098181
9.60000038 -9.43000031 -0.69999999 14 223 137 0.000000 0.000000 0.000000 0.000000 -60.708740 0.000000 240.000000 0.695470 0.715628 -0.064795
9.52999973 -9.31000042 -0.69999999 14 223 137 0.000000 0.000000 0.000000 0.000000 -60.708740 0.000000 240.000000 0.814553 0.508118 0.279856
9.56000042 -9.27999973 -0.73000002 14 223 137 0.000000 0.000000 0.000000 0.000000 -60.708740 0.000000 240.000000 0.946613 0.277619 -0.163863
9.52999973 -9.31000042 -0.70999998 14 223 137 0.000000 0.000000 0.000000 0.000000 -60.708740 0.000000 240.000000 0.821282 0.366956 0.436852
9.55000019 -9.30000019 -0.76999998 14 223 137 0.000000 0.000000 0.000000 0.000000 -60.708740 0.000000 240.000000 0.925729 -0.001273 0.378186
9.56000042 -9.27000046 -0.74000001 14 223 137 0.000000 0.000000 0.000000 0.000000 -60.708740 0.000000 240.000000 0.785828 0.400205 0.471497
9.55000019 -9.31000042 -0.74000001 14 223 137 0.000000 0.000000 0.000000 0.000000 -60.708740 0.000000 240.000000 0.947931 0.003717 0.318455
9.52999973 -9.27999973 -0.76999998 14 223 137 0.000000 0.000000 0.000000 0.000000 -60.708740 0.000000 240.000000 0.780245 0.530310 0.331644
9.56999969 -9.27000046 -0.75000000 14 223 137 0.000000 0.000000 0.000000 0.000000 -60.708740 0.000000 240.000000 0.993030 -0.020987 0.115982
9.56999969 -9.31999969 -0.69999999 14 223 137 0.000000 0.000000 0.000000 0.000000 -60.708740 0.000000 240.000000 0.909534 0.212562 0.357162
9.52999973 -9.31999969 -0.70999998 14 223 137 0.000000 0.000000 0.000000 0.000000 -60.708740 0.000000 240.000000 0.933907 0.337508 0.117924
9.55000019 -9.31999969 -0.73000002 14 223 137 0.000000 0.000000 0.000000 0.000000 -60.708740 0.000000 240.000000 0.984095 0.158648 0.079920
9.52999973 -9.31999969 -0.69999999 14 223 137 0.000000 0.000000 0.000000 0.000000 -60.708740 0.000000 240.000000 0.707848 0.626858 0.325577
9.56000042 -9.32999992 -0.74000001 14 223 137 0.000000 0.000000 0.000000 0.000000 -60.708740 0.000000 240.000000 0.890118 0.394132 0.228803
9.52000046 -9.30000019 -0.70999998 14 223 137 0.000000 0.000000 0.000000 0.000000 -60.708740 0.000000 240.000000 0.954069 0.145040 0.262136
9.52000046 -9.31000042 -0.75000000 14 223 137 0.000000 0.000000 0.000000 0.000000 -60.708740 0.000000 240.000000 0.976266 0.216030 -0.015346
9.52000046 -9.31000042 -0.75000000 14 223 137 0.000000 0.000000 0.000000 0.000000 -60.708740 0.000000 240.000000 0.976266 0.216030 -0.015346
9.52000046 -9.31000042 -0.76999998 14 223 137 0.000000 0.000000 0.000000 0.000000 -60.708740 0.000000 240.000000 0.998212 0.041196 0.043309
9.52000046 -9.31000042 -0.76999998 14 223 137 0.000000 0.000000 0.000000 0.000000 -60.708740 0.000000 240.000000 0.998212 0.041196 0.043309
9.52999973 -9.28999996 -0.79000002 14 223 137 0.000000 0.000000 0.000000 0.000000 -60.708740 0.000000 240.000000 0.938883 -0.114498 0.324635
9.52999973 -9.27000046 -0.79000002 14 223 137 0.000000 0.000000 0.000000 0.000000 -60.708740 0.000000 240.000000 0.822961 0.552076 0.133970
9.52999973 -9.27999973 -0.77999997 14 223 137 0.000000 0.000000 0.000000 0.000000 -60.708740 0.000000 240.000000 0.738212 0.531052 0.415964
9.56000042 -9.28999996 -0.85000002 14 223 137 0.000000 0.000000 0.000000 0.000000 -60.708740 0.000000 240.000000 0.962826 0.264182 0.056342
9.56000042 -9.30000019 -0.85000002 14 223 137 0.000000 0.000000 0.000000 0.000000 -60.708740 0.000000 240.000000 0.851224 0.507824 0.132413
9.52999973 -9.35000038 -0.81000000 14 223 137 0.000000 0.000000 0.000000 0.000000 -60.708740 0.000000 240.000000 0.950967 0.274189 0.143113
9.52000046 -9.31000042 -0.85000002 14 223 137 0.000000 0.000000 0.000000 0.000000 -60.708740 0.000000 240.000000 0.971963 -0.146112 0.184228
9.51000023 -9.34000015 -0.79000002 14 223 137 0.000000 0.000000 0.000000 0.000000 -60.708740 0.000000 240.000000 0.779278 0.603751 0.167961
9.52000046 -9.32999992 -0.83999997 14 223 137 0.000000 0.000000 0.000000 0.000000 -60.708740 0.000000 240.000000 0.886430 0.277478 0.370471
9.52000046 -9.31999969 -0.85000002 14 223 137 0.000000 0.000000 0.000000 0.000000 -60.708740 0.000000 240.000000 0.925481 0.099207 0.365572
9.52000046 -9.32999992 -0.81999999 14 223 137 0.000000 0.000000 0.000000 0.000000 -60.708740 0.000000 240.000000 0.813021 0.236038 0.532243
9.52000046 -9.32999992 -0.81999999 14 223 137 0.000000 0.000000 0.000000 0.000000 -60.708740 0.000000 240.000000 0.813021 0.236038 0.532243
9.53999996 -9.35999966 -0.76999998 14 223 137 0.000000 0.000000 0.000000 0.000000 -60.708740 0.000000 240.000000 0.987514 0.152898 -0.037937
9.53999996 -9.36999989 -0.75999999 14 223 137 0.000000 0.000000 0.000000 0.000000 -60.708740 0.000000 240.000000 0.754181 0.656236 0.023787
9.53999996 -9.36999989 -0.75000000 14 223 137 0.000000 0.000000 0.000000 0.000000 -60.708740 0.000000 240.000000 0.823969 0.549804 -0.137082
9.52999973 -9.35999966 -0.75999999 14 223 137 0.000000 0.000000 0.000000 0.000000 -60.708740 0.000000 240.000000 0.917958 0.350441 -0.185862
9.52000046 -9.39000034 -0.70999998 14 223 137 0.000000 0.000000 0.000000 0.000000 -60.708740 0.000000 240.000000 0.671443 0.740951 -0.012511
9.56000042 -9.39000034 -0.85000002 14 223 137 0.000000 0.000000 0.000000 0.000000 -60.708740 0.000000 240.000000 0.756275 0.464265 0.460984
9.56000042 -9.39999962 -0.85000002 14 223 137 0.000000 0.000000 0.000000 0.000000 -60.708740 0.000000 240.000000 0.889823 0.348452 0.294614
9.51000023 -9.35999966 -0.82999998 14 223 137 0.000000 0.000000 0.000000 0.000000 -60.708740 0.000000 240.000000 0.738509 0.339227 0.582692
9.50000000 -9.38000011 -0.81999999 14 223 137 0.000000 0.000000 0.000000 0.000000 -60.708740 0.000000 240.000000 0.878373 0.221451 0.423581
9.56999969 -9.31000042 -0.86000001 14 223 137 0.000000 0.000000 0.000000 0.000000 -60.708740 0.000000 240.000000 0.797578 0.521676 0.302858
9.47000027 -9.22000027 -0.70999998 14 223 137 0.000000 0.000000 0.000000 0.000000 -60.708740 0.000000 240.000000 0.894596 0.331938 0.299191
9.47000027 -9.22000027 -0.70999998 14 223 137 0.000000 0.000000 0.000000 0.000000 -60.708740 0.000000 240.000000 0.894596 0.331938 0.299191
9.47000027 -9.23999977 -0.69999999 14 223 137 0.000000 0.000000 0.000000 0.000000 -60.708740 0.000000 240.000000 0.838856 0.340246 0.424916
9.39999962 -9.10999966 -0.72000003 14 223 137 0.000000 0.000000 0.000000 0.000000 -60.708740 0.000000 240.000000 0.891183 -0.138312 0.432045
9.47999954 -9.35000038 -0.75999999 14 223 137 0.000000 0.000000 0.000000 0.000000 -60.708740 0.000000 240.000000 0.985249 0.116123 -0.125700
9.47000027 -9.35000038 -0.82999998 14 223 137 0.000000 0.000000 0.000000 0.000000 -60.708740 0.000000 240.000000 0.954952 0.057221 0.291191
9.47000027 -9.35000038 -0.81999999 14 223 137 0.000000 0.000000 0.000000 0.000000 -60.708740 0.000000 240.000000 0.969098 0.217761 -0.115884
9.47000027 -9.35999966 -0.82999998 14 223 137 0.000000 0.000000 0.000000 0.000000 -60.708740 0.000000 240.000000 0.952996 0.184147 0.240601
9.56999969 -9.43999958 -0.75999999 14 223 137 0.000000 0.000000 0.000000 0.000000 -60.708740 0.000000 240.000000 0.979369 0.198248 0.039175
9.82999992 -8.13000011 0.68000001 14 223 137 0.000000 0.000000 0.000000 0.000000 -60.708740 0.000000 240.000000 0.919458 0.392563 0.022171
9.75000000 -8.14999962 0.66000003 14 223 137 0.000000 0.000000 0.000000 0.000000 -60.708740 0.000000 240.000000 0.793176 0.545014 0.271722
9.72999954 -8.07999992 0.62000000 14 223 137 0.000000 0.000000 0.000000 0.000000 -60.708740 0.000000 240.000000 0.437995 0.883265 0.167340
9.82999992 -8.14999962 0.61000001 14 223 137 0.000000 0.000000 0.000000 0.000000 -60.708740 0.000000 240.000000 0.947803 0.310734 0.071508
9.82999992 -8.14999962 0.56999999 14 223 137 0.000000 0.000000 0.000000 0.000000 -60.708740 0.000000 240.000000 0.392239 0.916130 -0.082791
9.84000015 -8.14999962 0.56999999 14 223 137 0.000000 0.000000 0.000000 0.000000 -60.708740 0.000000 240.000000 0.404661 0.905936 0.124619
9.82999992 -8.14999962 0.56999999 14 223 137 0.000000 0.000000 0.000000 0.000000 -60.708740 0.000000 240.000000 0.392239 0.916130 -0.082791
9.84000015 -8.14999962 0.52999997 14 223 137 0.000000 0.000000 0.000000 0.000000 -60.708740 0.000000 240.000000 0.829904 0.512003 -0.221613
9.84000015 -8.14999962 0.52999997 14 223 137 0.000000 0.000000 0.000000 0.000000 -60.708740 0.000000 240.000000 0.829904 0.512003 -0.221613
9.85000038 -8.18999958 0.57999998 14 223 137 0.000000 0.000000 0.000000 0.000000 -60.708740 0.000000 240.000000 0.940658 0.322473 0.105707
9.80000019 -8.13000011 0.63000000 14 223 137 0.000000 0.000000 0.000000 0.000000 -60.708740 0.000000 240.000000 0.410227 0.899068 -0.152942
9.80000019 -8.11999989 0.56999999 14 223 137 0.000000 0.000000 0.000000 0.000000 -60.708740 0.000000 240.000000 0.578850 0.815340 -0.012374
9.80000019 -8.14999962 0.63000000 14 223 137 0.000000 0.000000 0.000000 0.000000 -60.708740 0.000000 240.000000 0.465046 0.873591 0.143425
9.81000042 -8.14000034 0.64999998 14 223 137 0.000000 0.000000 0.000000 0.000000 -60.708740 0.000000 240.000000 0.712079 0.697517 -0.080091
9.81000042 -8.17000008 0.58999997 14 223 137 0.000000 0.000000 0.000000 0.000000 -60.708740 0.000000 240.000000 0.719041 0.686559 0.107782
9.77999973 -8.17000008 0.57999998 14 223 137 0.000000 0.000000 0.000000 0.000000 -60.708740 0.000000 240.000000 0.493225 0.826190 0.272285
9.78999996 -8.21000004 0.63000000 14 223 137 0.000000 0.000000 0.000000 0.000000 -60.708740 0.000000 240.000000 0.549362 0.831891 0.078480
9.81999969 -8.22000027 0.57999998 14 223 137 0.000000 0.000000 0.000000 0.000000 -60.708740 0.000000 240.000000 0.529067 0.846227 0.063151
9.77000046 -8.21000004 0.64999998 14 223 137 0.000000 0.000000 0.000000 0.000000 -60.708740 0.000000 240.000000 0.783764 0.520906 0.338188
9.77999973 -8.21000004 0.61000001 14 223 137 0.000000 0.000000 0.000000 0.000000 -60.708740 0.000000 240.000000 0.836441 0.525551 0.155445
9.76000023 -8.23999977 0.56999999 14 223 137 0.000000 0.000000 0.000000 0.000000 -60.708740 0.000000 240.000000 0.757628 0.582177 0.295076
9.81999969 -8.18999958 0.55000001 14 223 137 0.000000 0.000000 0.000000 0.000000 -60.708740 0.000000 240.000000 0.829474 0.470191 0.301485
9.81999969 -8.22000027 0.52999997 14 223 137 0.000000 0.000000 0.000000 0.000000 -60.708740 0.000000 240.000000 0.720824 0.631320 -0.286092
9.80000019 -8.22000027 0.50000000 14 223 137 0.000000 0.000000 0.000000 0.000000 -60.708740 0.000000 240.000000 0.762147 0.563187 0.319300
9.78999996 -8.21000004 0.50000000 14 223 137 0.000000 0.000000 0.000000 0.000000 -60.708740 0.000000 240.000000 0.832929 0.523770 -0.178592
9.81999969 -8.23999977 0.56000000 14 223 137 0.000000 0.000000 0.000000 0.000000 -60.708740 0.000000 240.000000 0.443065 0.893031 -0.078675
9.76000023 -8.21000004 0.49000001 14 223 137 0.000000 0.000000 0.000000 0.000000 -60.708740 0.000000 240.000000 0.751447 0.656618 -0.064656
9.71000004 -8.13000011 0.61000001 14 223 137 0.000000 0.000000 0.000000 0.000000 -60.708740 0.000000 240.000000 0.307646 0.950792 -0.036715
9.72000027 -8.14999962 0.62000000 14 223 137 0.000000 0.000000 0.000000 0.000000 -60.708740 0.000000 240.000000 0.614878 0.769736 -0.171558
9.72999954 -8.17000008 0.60000002 14 223 137 0.000000 0.000000 0.000000 0.000000 -60.708740 0.000000 240.000000 0.706461 0.642091 0.297711
9.67000008 -8.10999966 0.56999999 14 223 137 0.000000 0.000000 0.000000 0.000000 -60.708740 0.000000 240.000000 0.788791 0.611277 0.064420
9.65999985 -8.10000038 0.60000002 14 223 137 0.000000 0.000000 0.000000 0.000000 -60.708740 0.000000 240.000000 0.675591 0.718292 0.166229
9.68999958 -8.17000008 0.64999998 14 223 137 0.000000 0.000000 0.000000 0.000000 -60.708740 0.000000 240.000000 0.364328 0.881342 -0.300835
9.68999958 -8.14999962 0.60000002 14 223 137 0.000000 0.000000 0.000000 0.000000 -60.708740 0.000000 240.000000 0.778161 0.597051 0.194924
9.69999981 -8.14999962 0.55000001 14 223 137 0.000000 0.000000 0.000000 0.000000 -60.708740 0.000000 240.000000 0.714326 0.697079 -0.061803
9.71000004 -8.14999962 0.52999997 14 223 137 0.000000 0.000000 0.000000 0.000000 -60.708740 0.000000 240.000000 0.837737 0.545150 -0.031743
9.72000027 -8.15999985 0.51999998 14 223 137 0.000000 0.000000 0.000000 0.000000 -60.708740 0.000000 240.000000 0.270565 0.915870 -0.296609
9.72999954 -8.15999985 0.51999998 14 223 137 0.000000 0.000000 0.000000 0.000000 -60.708740 0.000000 240.000000 0.359172 0.910191 -0.206271
9.72999954 -8.15999985 0.50999999 14 223 137 0.000000 0.000000 0.000000 0.000000 -60.708740 0.000000 240.000000 0.393327 0.820094 -0.415620
9.65999985 -8.17000008 0.55000001 14 223 137 0.000000 0.000000 0.000000 0.000000 -60.708740 0.000000 240.000000 0.652485 0.757770 0.006927
9.72000027 -8.18999958 0.62000000 14 223 137 0.000000 0.000000 0.000000 0.000000 -60.708740 0.000000 240.000000 0.404593 0.882342 -0.240367
9.65999985 -8.18999958 0.63000000 14 223 137 0.000000 0.000000 0.000000 0.000000 -60.708740 0.000000 240.000000 0.393567 0.912800 0.109094
9.65999985 -8.18999958 0.63999999 14 223 137 0.000000 0.000000 0.000000 0.000000 -60.708740 0.000000 240.000000 0.497416 0.867461 0.009385
9.69999981 -8.22000027 0.54000002 14 223 137 0.000000 0.000000 0.000000 0.000000 -60.708740 0.000000 240.000000 0.644536 0.737275 0.202480
9.72000027 -8.19999981 0.50000000 14 223 137 0.000000 0.000000 0.000000 0.000000 -60.708740 0.000000 240.000000 0.528594 0.762801 -0.372455
9.72000027 -8.22999954 0.55000001 14 223 137 0.000000 0.000000 0.000000 0.000000 -60.708740 0.000000 240.000000 0.465751 0.884794 0.014680
9.72000027 -8.22999954 0.51999998 14 223 137 0.000000 0.000000 0.000000 0.000000 -60.708740 0.000000 240.000000 0.549300 0.835535 0.012267
9.73999977 -8.15999985 0.47999999 14 223 137 0.000000 0.000000 0.000000 0.000000 -60.708740 0.000000 240.000000 0.513536 0.826257 -0.231475
9.68999958 -8.26000023 0.43000001 14 223 137 0.000000 0.000000 0.000000 0.000000 -60.708740 0.000000 240.000000 0.545431 0.837967 -0.017771
9.65999985 -8.22000027 0.41999999 14 223 137 0.000000 0.000000 0.000000 0.000000 -60.708740 0.000000 240.000000 0.722184 0.691689 0.004158
9.67000008 -8.22999954 0.41000000 14 223 137 0.000000 0.000000 0.000000 0.000000 -60.708740 0.000000 240.000000 0.685766 0.710095 0.159657
9.69999981 -8.18000031 0.34000000 14 223 137 0.000000 0.000000 0.000000 0.000000 -60.708740 0.000000 240.000000 0.109936 0.929702 -0.351522
9.68999958 -8.22000027 0.38000000 14 223 137 0.000000 0.000000 0.000000 0.000000 -60.708740 0.000000 240.000000 0.239326 0.887439 -0.393922
9.67000008 -8.25000000 0.34000000 14 223 137 0.000000 0.000000 0.000000 0.000000 -60.708740 0.000000 240.000000 0.726946 0.659036 -0.192926
9.68000031 -8.22999954 0.34999999 14 223 137 0.000000 0.000000 0.000000 0.000000 -60.708740 0.000000 240.000000 0.689613 0.579940 -0.433709
9.81000042 -8.27999973 0.51999998 14 223 137 0.000000 0.000000 0.000000 0.000000 -60.708740 0.000000 240.000000 0.826470 0.444050 -0.346074
9.77999973 -8.28999996 0.54000002 14 223 137 0.000000 0.000000 0.000000 0.000000 -60.708740 0.000000 240.000000 0.666684 0.701523 -0.251788
9.77000046 -8.27000046 0.56000000 14 223 137 0.000000 0.000000 0.000000 0.000000 -60.708740 0.000000 240.000000 0.758067 0.648328 0.070753
9.77999973 -8.28999996 0.54000002 14 223 137 0.000000 0.000000 0.000000 0.000000 -60.708740 0.000000 240.000000 0.666684 0.701523 -0.251788
9.72000027 -8.30000019 0.49000001 14 223 137 0.000000 0.000000 0.000000 0.000000 -60.708740 0.000000 240.000000 0.461208 0.871170 0.168377
9.78999996 -8.30000019 0.46000001 14 223 137 0.000000 0.000000 0.000000 0.000000 -60.708740 0.000000 240.000000 0.608872 0.783681 0.122959
9.78999996 -8.30000019 0.46000001 14 223 137 0.000000 0.000000 0.000000 0.000000 -60.708740 0.000000 240.000000 0.608872 0.783681 0.122959
9.76000023 -8.27000046 0.46000001 14 223 137 0.000000 0.000000 0.000000 0.000000 -60.708740 0.000000 240.000000 0.721277 0.682610 0.117486
9.75000000 -8.28999996 0.44999999 14 223 137 0.000000 0.000000 0.000000 0.000000 -60.708740 0.000000 240.000000 0.649312 0.712814 0.265122
9.75000000 -8.28999996 0.43000001 14 223 137 0.000000 0.000000 0.000000 0.000000 -60.708740 0.000000 240.000000 0.792079 0.595917 -0.132261
9.77999973 -8.28999996 0.41999999 14 223 137 0.000000 0.000000 0.000000 0.000000 -60.708740 0.000000 240.000000 0.583745 0.800607 -0.135167
9.77999973 -8.28999996 0.41999999 14 223 137 0.000000 0.000000 0.000000 0.000000 -60.708740 0.000000 240.000000 0.583745 0.800607 -0.135167
9.75000000 -8.34000015 0.41000000 14 223 137 0.000000 0.000000 0.000000 0.000000 -60.708740 0.000000 240.000000 0.684371 0.725056 -0.077010
9.75000000 -8.34000015 0.41999999 14 223 137 0.000000 0.000000 0.000000 0.000000 -60.708740 0.000000 240.000000 0.626974 0.769265 0.123023
9.75000000 -8.34000015 0.40000001 14 223 137 0.000000 0.000000 0.000000 0.000000 -60.708740 0.000000 240.000000 0.566758 0.815721 0.115695
9.76000023 -8.28999996 0.38000000 14 223 137 0.000000 0.000000 0.000000 0.000000 -60.708740 0.000000 240.000000 0.706605 0.700729 -0.098425
9.73999977 -8.28999996 0.33000001 14 223 137 0.000000 0.000000 0.000000 0.000000 -60.708740 0.000000 240.000000 0.576518 0.793668 0.194212
9.75000000 -8.32999992 0.34000000 14 223 137 0.000000 0.000000 0.000000 0.000000 -60.708740 0.000000 240.000000 0.814180 0.579562 -0.034913
9.75000000 -8.34000015 0.34999999 14 223 137 0.000000 0.000000 0.000000 0.000000 -60.708740 0.000000 240.000000 0.769772 0.637004 -0.040960
9.73999977 -8.32999992 0.34000000 14 223 137 0.000000 0.000000 0.000000 0.000000 -60.708740 0.000000 240.000000 0.647854 0.754108 0.107730
9.76000023 -8.36999989 0.37000000 14 223 137 0.000000 0.000000 0.000000 0.000000 -60.708740 0.000000 240.000000 0.804279 0.564060 -0.187006
9.77000046 -8.35000038 0.36000001 14 223 137 0.000000 0.000000 0.000000 0.000000 -60.708740 0.000000 240.000000 0.761420 0.551261 -0.341103
9.75000000 -8.36999989 0.33000001 14 223 137 0.000000 0.000000 0.000000 0.000000 -60.708740 0.000000 240.000000 0.403615 0.911871 -0.074744
9.77000046 -8.35000038 0.34999999 14 223 137 0.000000 0.000000 0.000000 0.000000 -60.708740 0.000000 240.000000 0.921435 0.377012 -0.093913
9.69999981 -8.30000019 0.44999999 14 223 137 0.000000 0.000000 0.000000 0.000000 -60.708740 0.000000 240.000000 0.671783 0.726130 -0.146434
9.72000027 -8.27000046 0.41000000 14 223 137 0.000000 0.000000 0.000000 0.000000 -60.708740 0.000000 240.000000 0.497474 0.779429 -0.380802
9.72000027 -8.30000019 0.43000001 14 223 137 0.000000 0.000000 0.000000 0.000000 -60.708740 0.000000 240.000000 0.630383 0.774875 -0.046748
9.69999981 -8.34000015 0.44000000 14 223 137 0.000000 0.000000 0.000000 0.000000 -60.708740 0.000000 240.000000 0.401827 0.890497 0.213425
9.72000027 -8.34000015 0.43000001 14 223 137 0.000000 0.000000 0.000000 0.000000 -60.708740 0.000000 240.000000 0.394562 0.912337 0.109370
9.68000031 -8.30000019 0.41000000 14 223 137 0.000000 0.000000 0.000000 0.000000 -60.708740 0.000000 240.000000 0.453937 0.877417 0.155180
9.72999954 -8.31000042 0.34000000 14 223 137 0.000000 0.000000 0.000000 0.000000 -60.708740 0.000000 240.000000 0.594520 0.795152 0.119494
9.71000004 -8.35999966 0.43000001 14 223 137 0.000000 0.000000 0.000000 0.000000 -60.708740 0.000000 240.000000 0.473389 0.870051 0.137529
9.69999981 -8.39000034 0.34000000 14 223 137 0.000000 0.000000 0.000000 0.000000 -60.708740 0.000000 240.000000 0.692939 0.710821 0.120705
9.71000004 -8.39999962 0.34999999 14 223 137 0.000000 0.000000 0.000000 0.000000 -60.708740 0.000000 240.000000 0.548067 0.836380 -0.009520
9.67000008 -8.18000031 0.30000001 14 223 137 0.000000 0.000000 0.000000 0.000000 -60.708740 0.000000 240.000000 0.319570 0.945772 0.058221
9.75000000 -8.38000011 0.28999999 14 223 137 0.000000 0.000000 0.000000 0.000000 -60.708740 0.000000 240.000000 0.770668 0.604536 -0.201512
9.76000023 -8.39000034 0.30000001 14 223 137 0.000000 0.000000 0.000000 0.000000 -60.708740 0.000000 240.000000 0.869534 0.418889 -0.261616
9.75000000 -8.39000034 0.31000000 14 223 137 0.000000 0.000000 0.000000 0.000000 -60.708740 0.000000 240.000000 0.707673 0.660178 0.251723
9.71000004 -8.31999969 0.30000001 14 223 137 0.000000 0.000000 0.000000 0.000000 -60.708740 0.000000 240.000000 0.466297 0.749700 -0.469592
9.71000004 -8.32999992 0.28000000 14 223 137 0.000000 0.000000 0.000000 0.000000 -60.708740 0.000000 240.000000 0.504668 0.672332 -0.541554
