//X Y Z R G B PointSourceId ScanDirectionFlag NumberOfReturns ReturnNumber GpsTime Intensity Classification Nx Ny Nz
-0.46000001 3.00000000 0.37000000 104 117 145 97.000000 1.000000 4.000000 1.000000 -60.708740 114.000000 231.000000 0.960571 0.248941 0.123819
-0.47000000 3.00000000 0.36000001 104 117 145 97.000000 1.000000 4.000000 1.000000 -60.708740 114.000000 231.000000 0.860648 0.282806 0.423445
-0.47999999 3.00999999 0.38999999 104 117 145 97.000000 1.000000 4.000000 1.000000 -60.708740 114.000000 231.000000 0.893903 0.335773 -0.296973
-0.56000000 3.06999993 0.34000000 104 117 145 97.000000 1.000000 4.000000 1.000000 -60.708740 114.000000 231.000000 0.955293 0.059945 -0.289521
-0.55000001 3.01999998 0.44000000 104 117 145 97.000000 1.000000 4.000000 1.000000 -60.708740 114.000000 231.000000 0.935348 0.301591 0.184846
-0.55000001 3.03999996 0.37000000 104 117 145 97.000000 1.000000 4.000000 1.000000 -60.708740 114.000000 231.000000 0.928236 -0.257291 0.268662
-0.56999999 3.00000000 0.33000001 104 117 145 97.000000 1.000000 4.000000 1.000000 -60.708740 114.000000 231.000000 0.983836 -0.005700 -0.178983
-0.58999997 3.07999992 0.34999999 104 117 145 97.000000 1.000000 4.000000 1.000000 -60.708740 114.000000 231.000000 0.950522 -0.218308 0.221020
-0.44000000 3.25999999 0.31000000 104 117 145 97.000000 1.000000 4.000000 1.000000 -60.708740 114.000000 231.000000 0.739647 -0.549406 -0.388684
-0.44000000 3.25999999 0.31000000 104 117 145 97.000000 1.000000 4.000000 1.000000 -60.708740 114.000000 231.000000 0.739647 -0.549406 -0.388684
-0.44999999 3.26999998 0.28000000 104 117 145 97.000000 1.000000 4.000000 1.000000 -60.708740 114.000000 231.000000 0.921765 -0.259470 -0.288141
-0.44000000 3.27999997 0.20000000 104 117 145 97.000000 1.000000 4.000000 1.000000 -60.708740 114.000000 231.000000 0.957263 -0.279894 -0.072849
-0.47999999 3.29999995 0.20000000 104 117 145 97.000000 1.000000 4.000000 1.000000 -60.708740 114.000000 231.000000 -0.643422 0.753893 -0.132864
-0.41999999 3.22000003 0.22000000 104 117 145 97.000000 1.000000 4.000000 1.000000 -60.708740 114.000000 231.000000 0.986761 -0.146665 -0.069226
-0.54000002 3.23000002 0.14000000 104 117 145 97.000000 1.000000 4.000000 1.000000 -60.708740 114.000000 231.000000 0.942789 -0.331319 -0.037098
-0.54000002 3.23000002 0.14000000 104 117 145 97.000000 1.000000 4.000000 1.000000 -60.708740 114.000000 231.000000 0.942789 -0.331319 -0.037098
-0.54000002 3.23000002 0.13000000 104 117 145 97.000000 1.000000 4.000000 1.000000 -60.708740 114.000000 231.000000 0.856207 -0.463590 0.228020
-0.41999999 3.02999997 0.28999999 104 117 145 97.000000 1.000000 4.000000 1.000000 -60.708740 114.000000 231.000000 0.801336 0.581303 0.141237
-0.44999999 3.00999999 0.31000000 104 117 145 97.000000 1.000000 4.000000 1.000000 -60.708740 114.000000 231.000000 0.973544 0.062611 -0.219753
-0.44999999 3.00999999 0.28000000 104 117 145 97.000000 1.000000 4.000000 1.000000 -60.708740 114.000000 231.000000 0.879361 0.476155 0.001326
-0.44000000 3.00000000 0.25999999 104 117 145 97.000000 1.000000 4.000000 1.000000 -60.708740 114.000000 231.000000 0.976528 0.064453 -0.205521
-0.46000001 2.99000001 0.27000001 104 117 145 97.000000 1.000000 4.000000 1.000000 -60.708740 114.000000 231.000000 0.733053 0.642398 0.223511
-0.57999998 3.01999998 0.30000001 104 117 145 97.000000 1.000000 4.000000 1.000000 -60.708740 114.000000 231.000000 0.952311 0.302261 0.041735
-0.44999999 3.07999992 0.00000000 104 117 145 97.000000 1.000000 4.000000 1.000000 -60.708740 114.000000 231.000000 0.996696 -0.081212 0.001055
-0.43000001 3.03999996 0.03000000 104 117 145 97.000000 1.000000 4.000000 1.000000 -60.708740 114.000000 231.000000 0.975823 0.192678 0.103176
-0.44000000 2.99000001 0.00000000 104 117 145 97.000000 1.000000 4.000000 1.000000 -60.708740 114.000000 231.000000 0.955175 0.271969 0.116933
-0.44000000 2.99000001 0.00000000 104 117 145 97.000000 1.000000 4.000000 1.000000 -60.708740 114.000000 231.000000 0.955175 0.271969 0.116933
-0.47000000 2.99000001 0.04000000 104 117 145 97.000000 1.000000 4.000000 1.000000 -60.708740 114.000000 231.000000 0.825910 0.561394 -0.052059
0.23000000 2.88000011 0.13000000 104 117 145 97.000000 1.000000 4.000000 1.000000 -60.708740 114.000000 231.000000 0.907563 -0.409023 0.095026
-0.20999999 2.98000002 0.52999997 104 117 145 97.000000 1.000000 4.000000 1.000000 -60.708740 114.000000 231.000000 0.136918 0.990111 0.030552
-0.20000000 2.97000003 0.38999999 104 117 145 97.000000 1.000000 4.000000 1.000000 -60.708740 114.000000 231.000000 0.001364 0.816854 0.576843
-0.20999999 2.97000003 0.38000000 104 117 145 97.000000 1.000000 4.000000 1.000000 -60.708740 114.000000 231.000000 0.105943 0.914966 0.389376
-0.23000000 2.94000006 0.33000001 104 117 145 97.000000 1.000000 4.000000 1.000000 -60.708740 114.000000 231.000000 0.382979 0.913257 -0.138882
-0.28000000 2.97000003 0.47000000 104 117 145 97.000000 1.000000 4.000000 1.000000 -60.708740 114.000000 231.000000 0.708486 0.705724 0.001381
-0.31999999 2.97000003 0.46000001 104 117 145 97.000000 1.000000 4.000000 1.000000 -60.708740 114.000000 231.000000 0.907270 0.345141 0.240288
-0.31999999 2.98000002 0.47000000 104 117 145 97.000000 1.000000 4.000000 1.000000 -60.708740 114.000000 231.000000 0.868736 0.483582 -0.106987
-0.31000000 2.95000005 0.44999999 104 117 145 97.000000 1.000000 4.000000 1.000000 -60.708740 114.000000 231.000000 0.635942 0.722009 0.272546
-0.30000001 2.97000003 0.43000001 104 117 145 97.000000 1.000000 4.000000 1.000000 -60.708740 114.000000 231.000000 0.578126 0.815937 -0.004100
-0.28999999 2.93000007 0.36000001 104 117 145 97.000000 1.000000 4.000000 1.000000 -60.708740 114.000000 231.000000 0.853514 0.427529 0.297881
-0.31000000 2.89000010 0.44000000 104 117 145 97.000000 1.000000 4.000000 1.000000 -60.708740 114.000000 231.000000 0.629457 0.759898 -0.162294
-0.34999999 2.93000007 0.47000000 104 117 145 97.000000 1.000000 4.000000 1.000000 -60.708740 114.000000 231.000000 0.697515 0.688236 -0.199511
-0.37000000 2.94000006 0.43000001 104 117 145 97.000000 1.000000 4.000000 1.000000 -60.708740 114.000000 231.000000 0.963617 0.085287 0.253315
-0.38000000 2.98000002 0.46000001 104 117 145 97.000000 1.000000 4.000000 1.000000 -60.708740 114.000000 231.000000 0.887892 0.459347 0.025445
-0.38000000 2.98000002 0.40000001 104 117 145 97.000000 1.000000 4.000000 1.000000 -60.708740 114.000000 231.000000 0.932937 0.355592 0.056422
-0.38000000 2.98000002 0.41000000 104 117 145 97.000000 1.000000 4.000000 1.000000 -60.708740 114.000000 231.000000 0.834583 0.537454 -0.120891
-0.38999999 2.92000008 0.41999999 104 117 145 97.000000 1.000000 4.000000 1.000000 -60.708740 114.000000 231.000000 0.864926 0.491597 0.101169
-0.38000000 2.90000010 0.38000000 104 117 145 97.000000 1.000000 4.000000 1.000000 -60.708740 114.000000 231.000000 0.805345 0.592612 0.015195
-0.37000000 2.88000011 0.40000001 104 117 145 97.000000 1.000000 4.000000 1.000000 -60.708740 114.000000 231.000000 0.830067 0.351243 0.433147
-0.41000000 2.96000004 0.02000000 104 117 145 97.000000 1.000000 4.000000 1.000000 -60.708740 114.000000 231.000000 0.761247 0.640973 -0.098273
-0.38000000 2.97000003 0.00000000 104 117 145 97.000000 1.000000 4.000000 1.000000 -60.708740 114.000000 231.000000 0.757531 0.543411 0.361733
-0.38999999 2.97000003 0.01000000 104 117 145 97.000000 1.000000 4.000000 1.000000 -60.708740 114.000000 231.000000 0.882188 0.467848 -0.053508
-0.50000000 2.98000002 0.37000000 104 117 145 97.000000 1.000000 4.000000 1.000000 -60.708740 114.000000 231.000000 0.947653 0.217427 -0.233836
-0.49000001 2.94000006 0.38999999 104 117 145 97.000000 1.000000 4.000000 1.000000 -60.708740 114.000000 231.000000 0.905706 0.286244 -0.312667
-0.50999999 2.95000005 0.36000001 104 117 145 97.000000 1.000000 4.000000 1.000000 -60.708740 114.000000 231.000000 0.993349 -0.034407 -0.109879
-0.52999997 2.95000005 0.33000001 104 117 145 97.000000 1.000000 4.000000 1.000000 -60.708740 114.000000 231.000000 0.821670 0.471553 0.320151
-0.51999998 2.96000004 0.34999999 104 117 145 97.000000 1.000000 4.000000 1.000000 -60.708740 114.000000 231.000000 0.839887 0.476193 -0.260442
-0.55000001 2.96000004 0.33000001 104 117 145 97.000000 1.000000 4.000000 1.000000 -60.708740 114.000000 231.000000 0.972336 0.119808 0.200521
-0.55000001 2.93000007 0.33000001 104 117 145 97.000000 1.000000 4.000000 1.000000 -60.708740 114.000000 231.000000 0.969412 0.221761 0.105178
-0.56999999 2.92000008 0.30000001 104 117 145 97.000000 1.000000 4.000000 1.000000 -60.708740 114.000000 231.000000 0.891646 0.451857 -0.028157
-0.56999999 2.92000008 0.31000000 104 117 145 97.000000 1.000000 4.000000 1.000000 -60.708740 114.000000 231.000000 0.836494 0.353116 0.419031
-0.55000001 2.86999989 0.28999999 104 117 145 97.000000 1.000000 4.000000 1.000000 -60.708740 114.000000 231.000000 0.749651 0.459676 0.476152
-0.47000000 2.98000002 0.03000000 104 117 145 97.000000 1.000000 4.000000 1.000000 -60.708740 114.000000 231.000000 0.891657 0.401026 -0.210061
-0.50000000 2.97000003 0.01000000 104 117 145 97.000000 1.000000 4.000000 1.000000 -60.708740 114.000000 231.000000 0.986876 0.161284 0.007895
-0.50000000 2.97000003 0.01000000 104 117 145 97.000000 1.000000 4.000000 1.000000 -60.708740 114.000000 231.000000 0.986876 0.161284 0.007895
-0.58999997 2.93000007 0.31000000 104 117 145 97.000000 1.000000 4.000000 1.000000 -60.708740 114.000000 231.000000 0.931451 0.147652 0.332563
-0.63000000 2.91000009 0.30000001 104 117 145 97.000000 1.000000 4.000000 1.000000 -60.708740 114.000000 231.000000 0.911902 0.178385 0.369613
0.16000000 3.66000009 -0.60000002 104 117 145 97.000000 1.000000 4.000000 1.000000 -60.708740 114.000000 231.000000 0.395910 0.861143 0.318885
0.10000000 3.68000007 -0.63000000 104 117 145 97.000000 1.000000 4.000000 1.000000 -60.708740 114.000000 231.000000 0.699842 0.699842 -0.142978
0.04000000 3.70000005 -0.49000001 104 117 145 97.000000 1.000000 4.000000 1.000000 -60.708740 114.000000 231.000000 0.332784 0.725631 0.602258
0.01000000 3.70000005 -0.60000002 104 117 145 97.000000 1.000000 4.000000 1.000000 -60.708740 114.000000 231.000000 0.398944 0.908473 -0.124583
0.07000000 3.70000005 -0.63999999 104 117 145 97.000000 1.000000 4.000000 1.000000 -60.708740 114.000000 231.000000 0.544097 0.832742 0.102469
0.06000000 3.71000004 -0.61000001 104 117 145 97.000000 1.000000 4.000000 1.000000 -60.708740 114.000000 231.000000 0.565470 0.798401 -0.206879
0.07000000 3.70000005 -0.64999998 104 117 145 97.000000 1.000000 4.000000 1.000000 -60.708740 114.000000 231.000000 0.681343 0.720277 0.130279
0.05000000 3.68000007 -0.69000000 104 117 145 97.000000 1.000000 4.000000 1.000000 -60.708740 114.000000 231.000000 0.613357 0.777516 -0.138789
0.03000000 3.66000009 -0.64999998 104 117 145 97.000000 1.000000 4.000000 1.000000 -60.708740 114.000000 231.000000 0.526629 0.812469 0.250110
0.04000000 3.67000008 -0.68000001 104 117 145 97.000000 1.000000 4.000000 1.000000 -60.708740 114.000000 231.000000 0.375499 0.909478 0.178469
-0.01000000 3.72000003 -0.52999997 104 117 145 97.000000 1.000000 4.000000 1.000000 -60.708740 114.000000 231.000000 0.095967 0.973381 0.208136
-0.30000001 3.67000008 -0.20000000 104 117 145 97.000000 1.000000 4.000000 1.000000 -60.708740 114.000000 231.000000 -0.190403 0.802739 0.565116
-0.34000000 3.68000007 -0.31000000 104 117 145 97.000000 1.000000 4.000000 1.000000 -60.708740 114.000000 231.000000 -0.055568 0.901290 0.429638
-0.23999999 3.70000005 -0.61000001 104 117 145 97.000000 1.000000 4.000000 1.000000 -60.708740 114.000000 231.000000 -0.383160 0.920929 0.071254
-0.28000000 3.66000009 -0.49000001 104 117 145 97.000000 1.000000 4.000000 1.000000 -60.708740 114.000000 231.000000 -0.013065 0.972723 0.231601
-0.33000001 3.72000003 -0.50000000 104 117 145 97.000000 1.000000 4.000000 1.000000 -60.708740 114.000000 231.000000 0.047413 0.973785 0.222475
-0.37000000 3.74000001 -0.49000001 104 117 145 97.000000 1.000000 4.000000 1.000000 -60.708740 114.000000 231.000000 -0.361855 0.932128 0.014065
-0.37000000 3.73000002 -0.50999999 104 117 145 97.000000 1.000000 4.000000 1.000000 -60.708740 114.000000 231.000000 -0.070409 0.972139 0.223580
-0.34000000 3.69000006 -0.50000000 104 117 145 97.000000 1.000000 4.000000 1.000000 -60.708740 114.000000 231.000000 -0.234943 0.788848 0.567909
-0.27000001 3.67000008 -0.63000000 104 117 145 97.000000 1.000000 4.000000 1.000000 -60.708740 114.000000 231.000000 0.174426 0.957348 0.230349
-0.28000000 3.66000009 -0.63999999 104 117 145 97.000000 1.000000 4.000000 1.000000 -60.708740 114.000000 231.000000 -0.154842 0.924864 0.347347
0.04000000 3.66000009 -0.74000001 104 117 145 97.000000 1.000000 4.000000 1.000000 -60.708740 114.000000 231.000000 0.689977 0.677287 0.255371
0.02000000 3.70000005 -0.70999998 104 117 145 97.000000 1.000000 4.000000 1.000000 -60.708740 114.000000 231.000000 0.228281 0.875824 0.425230
0.00000000 3.69000006 -0.73000002 104 117 145 97.000000 1.000000 4.000000 1.000000 -60.708740 114.000000 231.000000 0.503916 0.638744 0.581442
-0.11000000 3.72000003 -0.73000002 104 117 145 97.000000 1.000000 4.000000 1.000000 -60.708740 114.000000 231.000000 0.401497 0.911247 -0.091810
-0.10000000 3.68000007 -0.70999998 104 117 145 97.000000 1.000000 4.000000 1.000000 -60.708740 114.000000 231.000000 0.496765 0.867647 0.020304
-0.27000001 3.78999996 -1.00999999 104 117 145 97.000000 1.000000 4.000000 1.000000 -60.708740 114.000000 231.000000 -0.046224 0.822220 0.567290
-0.33000001 3.82999992 -1.14999998 104 117 145 97.000000 1.000000 4.000000 1.000000 -60.708740 114.000000 231.000000 -0.591296 0.806312 -0.015161
-0.30000001 3.84999990 -1.19000006 104 117 145 97.000000 1.000000 4.000000 1.000000 -60.708740 114.000000 231.000000 -0.442294 0.877240 0.186616
-0.33000001 3.82999992 -1.15999997 104 117 145 97.000000 1.000000 4.000000 1.000000 -60.708740 114.000000 231.000000 -0.495775 0.833455 0.244050
-0.34999999 3.88000011 -1.19000006 104 117 145 97.000000 1.000000 4.000000 1.000000 -60.708740 114.000000 231.000000 -0.139698 0.962220 0.233701
-0.31999999 3.83999991 -1.20000005 104 117 145 97.000000 1.000000 4.000000 1.000000 -60.708740 114.000000 231.000000 -0.411405 0.902845 0.124966
-0.33000001 3.80999994 -1.07000005 104 117 145 97.000000 1.000000 4.000000 1.000000 -60.708740 114.000000 231.000000 -0.279150 0.958710 0.054314
-0.31999999 3.80999994 -1.07000005 104 117 145 97.000000 1.000000 4.000000 1.000000 -60.708740 114.000000 231.000000 -0.111364 0.993456 -0.025360
-0.30000001 3.77999997 -1.15999997 104 117 145 97.000000 1.000000 4.000000 1.000000 -60.708740 114.000000 231.000000 -0.300094 0.838086 0.455583
-0.25999999 3.71000004 -1.03999996 104 117 145 97.000000 1.000000 4.000000 1.000000 -60.708740 114.000000 231.000000 0.033097 0.909505 0.414374
-0.31000000 3.67000008 -1.13000000 104 117 145 97.000000 1.000000 4.000000 1.000000 -60.708740 114.000000 231.000000 0.669709 -0.659932 -0.340558
-0.34000000 3.75000000 -1.10000002 104 117 145 97.000000 1.000000 4.000000 1.000000 -60.708740 114.000000 231.000000 -0.682323 0.682323 0.262432
-0.34000000 3.78999996 -1.10000002 104 117 145 97.000000 1.000000 4.000000 1.000000 -60.708740 114.000000 231.000000 -0.455529 0.887663 0.067435
-0.37000000 3.75000000 -1.17999995 104 117 145 97.000000 1.000000 4.000000 1.000000 -60.708740 114.000000 231.000000 0.723384 -0.555309 -0.410302
-0.34000000 3.81999993 -1.16999996 104 117 145 97.000000 1.000000 4.000000 1.000000 -60.708740 114.000000 231.000000 -0.279389 0.790812 0.544571
-0.36000001 3.73000002 -1.11000001 104 117 145 97.000000 1.000000 4.000000 1.000000 -60.708740 114.000000 231.000000 0.675480 -0.636036 -0.373075
-0.37000000 3.71000004 -1.15999997 104 117 145 97.000000 1.000000 4.000000 1.000000 -60.708740 114.000000 231.000000 -0.651136 0.624491 0.431315
-0.34000000 3.67000008 -1.13999999 104 117 145 97.000000 1.000000 4.000000 1.000000 -60.708740 114.000000 231.000000 -0.399117 0.740748 0.540368
-0.27000001 3.73000002 -1.25000000 104 117 145 97.000000 1.000000 4.000000 1.000000 -60.708740 114.000000 231.000000 -0.689032 0.720945 0.073980
-0.28999999 3.73000002 -1.22000003 104 117 145 97.000000 1.000000 4.000000 1.000000 -60.708740 114.000000 231.000000 -0.539839 0.841714 -0.009519
-0.07000000 3.41000009 -0.16000000 104 117 145 97.000000 1.000000 4.000000 1.000000 -60.708740 114.000000 231.000000 0.183421 0.982528 -0.031544
-0.08000000 3.40000010 -0.07000000 104 117 145 97.000000 1.000000 4.000000 1.000000 -60.708740 114.000000 231.000000 0.553855 0.798978 0.234263
-0.08000000 3.36999989 -0.09000000 104 117 145 97.000000 1.000000 4.000000 1.000000 -60.708740 114.000000 231.000000 0.516030 0.798655 0.309618
-0.08000000 3.40000010 -0.07000000 104 117 145 97.000000 1.000000 4.000000 1.000000 -60.708740 114.000000 231.000000 0.553855 0.798978 0.234263
-0.06000000 3.35999990 -0.07000000 104 117 145 97.000000 1.000000 4.000000 1.000000 -60.708740 114.000000 231.000000 0.843315 0.515441 0.152122
-0.07000000 3.42000008 -0.19000000 104 117 145 97.000000 1.000000 4.000000 1.000000 -60.708740 114.000000 231.000000 0.543689 0.792682 0.275784
-0.08000000 3.41000009 -0.23999999 104 117 145 97.000000 1.000000 4.000000 1.000000 -60.708740 114.000000 231.000000 0.546064 0.834066 -0.078416
0.17000000 3.61999989 -0.58999997 104 117 145 97.000000 1.000000 4.000000 1.000000 -60.708740 114.000000 231.000000 0.789503 0.581013 0.197759
0.15000001 3.57999992 -0.66000003 104 117 145 97.000000 1.000000 4.000000 1.000000 -60.708740 114.000000 231.000000 0.821634 0.542248 0.175742
0.14000000 3.58999991 -0.66000003 104 117 145 97.000000 1.000000 4.000000 1.000000 -60.708740 114.000000 231.000000 0.885000 0.416731 -0.207629
0.10000000 3.63000011 -0.68000001 104 117 145 97.000000 1.000000 4.000000 1.000000 -60.708740 114.000000 231.000000 0.456162 0.885819 0.085094
0.09000000 3.64000010 -0.67000002 104 117 145 97.000000 1.000000 4.000000 1.000000 -60.708740 114.000000 231.000000 0.337426 0.940972 0.026739
0.11000000 3.61999989 -0.69000000 104 117 145 97.000000 1.000000 4.000000 1.000000 -60.708740 114.000000 231.000000 0.888618 0.455876 -0.050350
0.15000001 3.53999996 -0.68000001 104 117 145 97.000000 1.000000 4.000000 1.000000 -60.708740 114.000000 231.000000 0.832994 0.366895 0.414135
0.07000000 3.65000010 -0.66000003 104 117 145 97.000000 1.000000 4.000000 1.000000 -60.708740 114.000000 231.000000 0.784115 0.620353 -0.018042
0.01000000 3.64000010 -0.68000001 104 117 145 97.000000 1.000000 4.000000 1.000000 -60.708740 114.000000 231.000000 0.520781 0.848945 0.089888
-0.08000000 3.35999990 -0.47000000 104 117 145 97.000000 1.000000 4.000000 1.000000 -60.708740 114.000000 231.000000 0.603124 0.740707 0.295963
-0.06000000 3.31999993 -0.50000000 104 117 145 97.000000 1.000000 4.000000 1.000000 -60.708740 114.000000 231.000000 0.960095 0.210559 -0.184073
-0.05000000 3.35999990 -0.60000002 104 117 145 97.000000 1.000000 4.000000 1.000000 -60.708740 114.000000 231.000000 0.834750 0.546613 0.066385
-0.08000000 3.33999991 -0.55000001 104 117 145 97.000000 1.000000 4.000000 1.000000 -60.708740 114.000000 231.000000 0.998698 0.007215 0.050502
0.22000000 3.17000008 -0.30000001 104 117 145 97.000000 1.000000 4.000000 1.000000 -60.708740 114.000000 231.000000 0.951100 -0.306028 -0.041904
0.22000000 3.17000008 -0.30000001 104 117 145 97.000000 1.000000 4.000000 1.000000 -60.708740 114.000000 231.000000 0.951100 -0.306028 -0.041904
0.23000000 3.08999991 -0.09000000 104 117 145 97.000000 1.000000 4.000000 1.000000 -60.708740 114.000000 231.000000 0.982827 -0.115128 -0.144213
0.23999999 3.06999993 -0.07000000 104 117 145 97.000000 1.000000 4.000000 1.000000 -60.708740 114.000000 231.000000 0.957363 -0.278109 -0.078178
0.25000000 3.10999990 -0.10000000 104 117 145 97.000000 1.000000 4.000000 1.000000 -60.708740 114.000000 231.000000 0.881543 -0.198678 -0.428262
0.23999999 3.09999990 -0.13000000 104 117 145 97.000000 1.000000 4.000000 1.000000 -60.708740 114.000000 231.000000 0.853488 -0.492567 -0.170106
0.25000000 3.07999992 -0.11000000 104 117 145 97.000000 1.000000 4.000000 1.000000 -60.708740 114.000000 231.000000 0.890092 -0.200894 -0.409120
0.25000000 3.06999993 -0.11000000 104 117 145 97.000000 1.000000 4.000000 1.000000 -60.708740 114.000000 231.000000 0.965600 -0.030596 0.258227
0.20000000 3.06999993 -0.15000001 104 117 145 97.000000 1.000000 4.000000 1.000000 -60.708740 114.000000 231.000000 0.800486 -0.589754 0.106829
0.20000000 3.06999993 -0.15000001 104 117 145 97.000000 1.000000 4.000000 1.000000 -60.708740 114.000000 231.000000 0.800486 -0.589754 0.106829
0.23000000 3.05999994 -0.11000000 104 117 145 97.000000 1.000000 4.000000 1.000000 -60.708740 114.000000 231.000000 0.947710 0.060602 -0.313325
0.19000000 3.00999999 -0.16000000 104 117 145 97.000000 1.000000 4.000000 1.000000 -60.708740 114.000000 231.000000 0.954208 -0.062592 -0.292522
0.15000001 3.00000000 -0.14000000 104 117 145 97.000000 1.000000 4.000000 1.000000 -60.708740 114.000000 231.000000 0.975224 -0.118930 -0.186532
0.17000000 2.99000001 -0.18000001 104 117 145 97.000000 1.000000 4.000000 1.000000 -60.708740 114.000000 231.000000 -0.611618 0.741884 0.274831
0.23000000 3.15000010 -0.25999999 104 117 145 97.000000 1.000000 4.000000 1.000000 -60.708740 114.000000 231.000000 0.984062 -0.175435 -0.029046
0.20999999 3.11999989 -0.27000001 104 117 145 97.000000 1.000000 4.000000 1.000000 -60.708740 114.000000 231.000000 0.994984 -0.045176 -0.089251
0.19000000 3.11999989 -0.25999999 104 117 145 97.000000 1.000000 4.000000 1.000000 -60.708740 114.000000 231.000000 0.967731 -0.227627 0.108091
0.19000000 3.09999990 -0.20999999 104 117 145 97.000000 1.000000 4.000000 1.000000 -60.708740 114.000000 231.000000 0.778783 -0.623315 0.070537
0.19000000 3.06999993 -0.20999999 104 117 145 97.000000 1.000000 4.000000 1.000000 -60.708740 114.000000 231.000000 0.927347 -0.363110 0.090440
0.19000000 3.08999991 -0.22000000 104 117 145 97.000000 1.000000 4.000000 1.000000 -60.708740 114.000000 231.000000 0.832587 -0.553691 0.015039
0.19000000 3.08999991 -0.20999999 104 117 145 97.000000 1.000000 4.000000 1.000000 -60.708740 114.000000 231.000000 0.925958 -0.084913 -0.367957
0.19000000 3.08999991 -0.23999999 104 117 145 97.000000 1.000000 4.000000 1.000000 -60.708740 114.000000 231.000000 0.784072 -0.579935 -0.221149
0.18000001 3.14000010 -0.31999999 104 117 145 97.000000 1.000000 4.000000 1.000000 -60.708740 114.000000 231.000000 0.930926 -0.364387 0.024464
0.23000000 3.03999996 -0.20000000 104 117 145 97.000000 1.000000 4.000000 1.000000 -60.708740 114.000000 231.000000 0.716700 -0.697064 -0.021038
0.23000000 3.03999996 -0.20999999 104 117 145 97.000000 1.000000 4.000000 1.000000 -60.708740 114.000000 231.000000 0.843325 -0.532552 0.072043
0.19000000 3.04999995 -0.20000000 104 117 145 97.000000 1.000000 4.000000 1.000000 -60.708740 114.000000 231.000000 0.995814 -0.018341 0.089548
0.19000000 3.00999999 -0.20999999 104 117 145 97.000000 1.000000 4.000000 1.000000 -60.708740 114.000000 231.000000 0.851858 -0.457281 -0.255405
0.16000000 3.11999989 -0.22000000 104 117 145 97.000000 1.000000 4.000000 1.000000 -60.708740 114.000000 231.000000 0.978748 0.064121 -0.194782
0.14000000 3.10999990 -0.25999999 104 117 145 97.000000 1.000000 4.000000 1.000000 -60.708740 114.000000 231.000000 0.973376 -0.216443 -0.075446
0.16000000 3.07999992 -0.19000000 104 117 145 97.000000 1.000000 4.000000 1.000000 -60.708740 114.000000 231.000000 0.884315 -0.390535 -0.255868
0.14000000 3.08999991 -0.22000000 104 117 145 97.000000 1.000000 4.000000 1.000000 -60.708740 114.000000 231.000000 0.950472 -0.264842 0.162669
0.16000000 3.08999991 -0.20000000 104 117 145 97.000000 1.000000 4.000000 1.000000 -60.708740 114.000000 231.000000 0.947624 -0.265117 -0.178104
0.14000000 3.09999990 -0.23999999 104 117 145 97.000000 1.000000 4.000000 1.000000 -60.708740 114.000000 231.000000 0.972831 -0.044937 -0.227115
0.17000000 3.06999993 -0.23000000 104 117 145 97.000000 1.000000 4.000000 1.000000 -60.708740 114.000000 231.000000 0.943144 -0.139374 -0.301752
0.14000000 3.10999990 -0.31000000 104 117 145 97.000000 1.000000 4.000000 1.000000 -60.708740 114.000000 231.000000 0.983477 -0.180592 0.012653
0.15000001 3.13000011 -0.33000001 104 117 145 97.000000 1.000000 4.000000 1.000000 -60.708740 114.000000 231.000000 0.992028 0.092468 0.085618
0.15000001 3.09999990 -0.28000000 104 117 145 97.000000 1.000000 4.000000 1.000000 -60.708740 114.000000 231.000000 0.855790 -0.502469 0.123083
0.14000000 3.09999990 -0.31000000 104 117 145 97.000000 1.000000 4.000000 1.000000 -60.708740 114.000000 231.000000 0.976620 -0.120678 0.177907
0.13000000 3.09999990 -0.34000000 104 117 145 97.000000 1.000000 4.000000 1.000000 -60.708740 114.000000 231.000000 0.991573 -0.110682 0.067322
0.17000000 3.04999995 -0.22000000 104 117 145 97.000000 1.000000 4.000000 1.000000 -60.708740 114.000000 231.000000 0.949418 -0.296282 0.104028
0.15000001 3.04999995 -0.19000000 104 117 145 97.000000 1.000000 4.000000 1.000000 -60.708740 114.000000 231.000000 0.707432 -0.704562 0.055963
0.17000000 3.00000000 -0.19000000 104 117 145 97.000000 1.000000 4.000000 1.000000 -60.708740 114.000000 231.000000 0.919345 -0.368572 -0.137693
0.10000000 3.00999999 -0.19000000 104 117 145 97.000000 1.000000 4.000000 1.000000 -60.708740 114.000000 231.000000 0.776002 -0.431112 -0.460395
0.11000000 3.01999998 -0.20999999 104 117 145 97.000000 1.000000 4.000000 1.000000 -60.708740 114.000000 231.000000 0.890436 -0.419798 0.175763
0.10000000 3.00999999 -0.19000000 104 117 145 97.000000 1.000000 4.000000 1.000000 -60.708740 114.000000 231.000000 0.776002 -0.431112 -0.460395
-0.02000000 3.16000009 -0.07000000 104 117 145 97.000000 1.000000 4.000000 1.000000 -60.708740 114.000000 231.000000 0.964116 0.111987 0.240707
-0.06000000 3.22000003 -0.06000000 104 117 145 97.000000 1.000000 4.000000 1.000000 -60.708740 114.000000 231.000000 0.938004 0.212614 0.273758
-0.04000000 3.20000005 -0.09000000 104 117 145 97.000000 1.000000 4.000000 1.000000 -60.708740 114.000000 231.000000 0.937074 0.157780 0.311443
-0.07000000 3.21000004 -0.09000000 104 117 145 97.000000 1.000000 4.000000 1.000000 -60.708740 114.000000 231.000000 0.835866 0.465408 0.291074
-0.05000000 3.19000006 -0.05000000 104 117 145 97.000000 1.000000 4.000000 1.000000 -60.708740 114.000000 231.000000 0.997559 0.013694 -0.068470
-0.04000000 3.16000009 -0.10000000 104 117 145 97.000000 1.000000 4.000000 1.000000 -60.708740 114.000000 231.000000 0.998131 -0.059574 0.013587
-0.04000000 3.16000009 -0.09000000 104 117 145 97.000000 1.000000 4.000000 1.000000 -60.708740 114.000000 231.000000 0.918490 -0.216368 -0.331000
-0.06000000 3.19000006 -0.09000000 104 117 145 97.000000 1.000000 4.000000 1.000000 -60.708740 114.000000 231.000000 0.923232 0.367925 0.110788
-0.04000000 3.17000008 -0.10000000 104 117 145 97.000000 1.000000 4.000000 1.000000 -60.708740 114.000000 231.000000 0.999368 -0.019475 -0.029725
-0.04000000 3.19000006 -0.08000000 104 117 145 97.000000 1.000000 4.000000 1.000000 -60.708740 114.000000 231.000000 0.951438 -0.031505 -0.306224
-0.04000000 3.16000009 -0.08000000 104 117 145 97.000000 1.000000 4.000000 1.000000 -60.708740 114.000000 231.000000 0.996417 0.018234 -0.082588
-0.03000000 3.22000003 -0.13000000 104 117 145 97.000000 1.000000 4.000000 1.000000 -60.708740 114.000000 231.000000 0.857097 0.244235 0.453579
-0.02000000 3.16000009 -0.11000000 104 117 145 97.000000 1.000000 4.000000 1.000000 -60.708740 114.000000 231.000000 0.998031 0.011496 0.061658
-0.02000000 3.17000008 -0.11000000 104 117 145 97.000000 1.000000 4.000000 1.000000 -60.708740 114.000000 231.000000 0.954280 -0.073406 -0.289761
-0.03000000 3.19000006 -0.14000000 104 117 145 97.000000 1.000000 4.000000 1.000000 -60.708740 114.000000 231.000000 0.999628 -0.019282 -0.019282
-0.02000000 3.16000009 -0.11000000 104 117 145 97.000000 1.000000 4.000000 1.000000 -60.708740 114.000000 231.000000 0.998031 0.011496 0.061658
-0.04000000 3.21000004 -0.18000001 104 117 145 97.000000 1.000000 4.000000 1.000000 -60.708740 114.000000 231.000000 0.962500 -0.198278 -0.185147
-0.04000000 3.16000009 -0.11000000 104 117 145 97.000000 1.000000 4.000000 1.000000 -60.708740 114.000000 231.000000 0.965696 0.259673 -0.001197
-0.07000000 3.19000006 -0.17000000 104 117 145 97.000000 1.000000 4.000000 1.000000 -60.708740 114.000000 231.000000 0.915883 -0.390174 -0.094463
-0.04000000 3.25999999 -0.25999999 104 117 145 97.000000 1.000000 4.000000 1.000000 -60.708740 114.000000 231.000000 0.913885 0.348625 -0.208027
-0.08000000 3.27999997 -0.33000001 104 117 145 97.000000 1.000000 4.000000 1.000000 -60.708740 114.000000 231.000000 0.922851 0.377469 0.076568
-0.08000000 3.27999997 -0.31999999 104 117 145 97.000000 1.000000 4.000000 1.000000 -60.708740 114.000000 231.000000 0.862990 0.501674 -0.059756
-0.03000000 3.22000003 -0.23000000 104 117 145 97.000000 1.000000 4.000000 1.000000 -60.708740 114.000000 231.000000 0.961031 -0.043627 0.272978
-0.03000000 3.21000004 -0.23000000 104 117 145 97.000000 1.000000 4.000000 1.000000 -60.708740 114.000000 231.000000 0.962511 -0.134152 0.235744
-0.07000000 3.20000005 -0.22000000 104 117 145 97.000000 1.000000 4.000000 1.000000 -60.708740 114.000000 231.000000 0.992717 0.111301 -0.046094
-0.04000000 3.16000009 -0.19000000 104 117 145 97.000000 1.000000 4.000000 1.000000 -60.708740 114.000000 231.000000 0.900507 -0.343401 0.266762
-0.07000000 3.17000008 -0.27000001 104 117 145 97.000000 1.000000 4.000000 1.000000 -60.708740 114.000000 231.000000 0.935699 -0.278332 0.216791
-0.07000000 3.19000006 -0.25000000 104 117 145 97.000000 1.000000 4.000000 1.000000 -60.708740 114.000000 231.000000 0.908086 -0.212901 0.360628
-0.08000000 3.19000006 -0.23000000 104 117 145 97.000000 1.000000 4.000000 1.000000 -60.708740 114.000000 231.000000 0.885644 -0.383829 0.261362
-0.02000000 3.18000007 -0.28999999 104 117 145 97.000000 1.000000 4.000000 1.000000 -60.708740 114.000000 231.000000 0.987708 -0.135061 -0.078688
-0.07000000 3.23000002 -0.33000001 104 117 145 97.000000 1.000000 4.000000 1.000000 -60.708740 114.000000 231.000000 0.937079 0.166500 0.306856
-0.07000000 3.19000006 -0.34999999 104 117 145 97.000000 1.000000 4.000000 1.000000 -60.708740 114.000000 231.000000 0.919345 -0.368572 0.137693
0.08000000 3.04999995 -0.18000001 104 117 145 97.000000 1.000000 4.000000 1.000000 -60.708740 114.000000 231.000000 0.739031 -0.650286 -0.175960
0.06000000 3.03999996 -0.16000000 104 117 145 97.000000 1.000000 4.000000 1.000000 -60.708740 114.000000 231.000000 -0.585086 0.803946 0.106512
0.05000000 3.00000000 -0.17000000 104 117 145 97.000000 1.000000 4.000000 1.000000 -60.708740 114.000000 231.000000 -0.588781 0.740412 0.324233
0.05000000 3.00000000 -0.17000000 104 117 145 97.000000 1.000000 4.000000 1.000000 -60.708740 114.000000 231.000000 -0.588781 0.740412 0.324233
-0.02000000 3.15000010 -0.03000000 104 117 145 97.000000 1.000000 4.000000 1.000000 -60.708740 114.000000 231.000000 0.964372 -0.173561 0.199660
-0.02000000 3.15000010 -0.13000000 104 117 145 97.000000 1.000000 4.000000 1.000000 -60.708740 114.000000 231.000000 0.826964 -0.510907 -0.234741
-0.03000000 3.14000010 -0.17000000 104 117 145 97.000000 1.000000 4.000000 1.000000 -60.708740 114.000000 231.000000 0.999730 0.019167 0.013115
-0.03000000 3.11999989 -0.17000000 104 117 145 97.000000 1.000000 4.000000 1.000000 -60.708740 114.000000 231.000000 0.998111 -0.041279 -0.045513
-0.03000000 3.15000010 -0.18000001 104 117 145 97.000000 1.000000 4.000000 1.000000 -60.708740 114.000000 231.000000 -0.738383 0.672938 0.044104
-0.04000000 3.15000010 -0.12000000 104 117 145 97.000000 1.000000 4.000000 1.000000 -60.708740 114.000000 231.000000 0.992692 -0.014291 -0.119827
-0.01000000 2.99000001 -0.15000001 104 117 145 97.000000 1.000000 4.000000 1.000000 -60.708740 114.000000 231.000000 0.810368 -0.452336 -0.372418
-0.01000000 2.99000001 -0.14000000 104 117 145 97.000000 1.000000 4.000000 1.000000 -60.708740 114.000000 231.000000 0.823973 -0.517093 -0.231695
0.08000000 3.01999998 -0.20000000 104 117 145 97.000000 1.000000 4.000000 1.000000 -60.708740 114.000000 231.000000 -0.651127 0.758957 0.004147
0.08000000 3.01999998 -0.20000000 104 117 145 97.000000 1.000000 4.000000 1.000000 -60.708740 114.000000 231.000000 -0.651127 0.758957 0.004147
0.05000000 3.00000000 -0.20999999 104 117 145 97.000000 1.000000 4.000000 1.000000 -60.708740 114.000000 231.000000 0.890436 -0.327740 -0.315768
0.02000000 3.01999998 -0.19000000 104 117 145 97.000000 1.000000 4.000000 1.000000 -60.708740 114.000000 231.000000 -0.552061 0.832958 -0.037546
0.20999999 3.17000008 -0.43000001 104 117 145 97.000000 1.000000 4.000000 1.000000 -60.708740 114.000000 231.000000 0.957824 -0.054407 -0.282159
0.17000000 3.16000009 -0.50000000 104 117 145 97.000000 1.000000 4.000000 1.000000 -60.708740 114.000000 231.000000 0.963857 0.046016 -0.262418
0.14000000 3.17000008 -0.52999997 104 117 145 97.000000 1.000000 4.000000 1.000000 -60.708740 114.000000 231.000000 0.887111 -0.160635 -0.432702
0.10000000 3.17000008 -0.55000001 104 117 145 97.000000 1.000000 4.000000 1.000000 -60.708740 114.000000 231.000000 0.876131 -0.420842 0.235132
0.09000000 3.16000009 -0.63000000 104 117 145 97.000000 1.000000 4.000000 1.000000 -60.708740 114.000000 231.000000 0.823734 -0.566231 0.029073
0.10000000 3.16000009 -0.64999998 104 117 145 97.000000 1.000000 4.000000 1.000000 -60.708740 114.000000 231.000000 0.793149 -0.607847 -0.037903
0.12000000 3.17000008 -0.63999999 104 117 145 97.000000 1.000000 4.000000 1.000000 -60.708740 114.000000 231.000000 -0.764672 0.530887 0.365289
0.10000000 3.16000009 -0.66000003 104 117 145 97.000000 1.000000 4.000000 1.000000 -60.708740 114.000000 231.000000 0.851992 -0.516316 0.086764
0.23000000 3.11999989 -0.38999999 104 117 145 97.000000 1.000000 4.000000 1.000000 -60.708740 114.000000 231.000000 -0.840190 0.522360 -0.145672
0.13000000 3.10999990 -0.40000001 104 117 145 97.000000 1.000000 4.000000 1.000000 -60.708740 114.000000 231.000000 0.864423 -0.416203 -0.282043
0.10000000 3.09999990 -0.37000000 104 117 145 97.000000 1.000000 4.000000 1.000000 -60.708740 114.000000 231.000000 0.837352 -0.394325 -0.378615
0.09000000 3.08999991 -0.38000000 104 117 145 97.000000 1.000000 4.000000 1.000000 -60.708740 114.000000 231.000000 -0.597526 0.794254 0.110109
0.17000000 3.11999989 -0.46000001 104 117 145 97.000000 1.000000 4.000000 1.000000 -60.708740 114.000000 231.000000 0.887295 -0.444357 0.123511
0.17000000 3.11999989 -0.44999999 104 117 145 97.000000 1.000000 4.000000 1.000000 -60.708740 114.000000 231.000000 0.973917 -0.157898 -0.162951
0.17000000 3.15000010 -0.50999999 104 117 145 97.000000 1.000000 4.000000 1.000000 -60.708740 114.000000 231.000000 0.783493 -0.615498 -0.085446
0.10000000 3.10999990 -0.44000000 104 117 145 97.000000 1.000000 4.000000 1.000000 -60.708740 114.000000 231.000000 0.921516 -0.230022 -0.312887
0.09000000 3.13000011 -0.46000001 104 117 145 97.000000 1.000000 4.000000 1.000000 -60.708740 114.000000 231.000000 -0.625895 0.733644 0.264619
0.10000000 3.10999990 -0.50000000 104 117 145 97.000000 1.000000 4.000000 1.000000 -60.708740 114.000000 231.000000 0.777539 -0.626864 -0.049751
0.12000000 3.14000010 -0.55000001 104 117 145 97.000000 1.000000 4.000000 1.000000 -60.708740 114.000000 231.000000 -0.689291 0.695487 0.202915
0.09000000 3.13000011 -0.54000002 104 117 145 97.000000 1.000000 4.000000 1.000000 -60.708740 114.000000 231.000000 0.840554 -0.455235 0.293650
0.10000000 3.14000010 -0.64999998 104 117 145 97.000000 1.000000 4.000000 1.000000 -60.708740 114.000000 231.000000 0.808090 -0.588334 -0.029208
0.09000000 3.14000010 -0.66000003 104 117 145 97.000000 1.000000 4.000000 1.000000 -60.708740 114.000000 231.000000 -0.595375 0.728402 0.339056
0.09000000 3.11999989 -0.57999998 104 117 145 97.000000 1.000000 4.000000 1.000000 -60.708740 114.000000 231.000000 0.862013 -0.497261 0.098312
0.09000000 3.15000010 -0.54000002 104 117 145 97.000000 1.000000 4.000000 1.000000 -60.708740 114.000000 231.000000 0.738126 -0.674661 0.001380
0.13000000 3.14000010 -0.56000000 104 117 145 97.000000 1.000000 4.000000 1.000000 -60.708740 114.000000 231.000000 0.835376 -0.472708 -0.280525
0.13000000 3.15000010 -0.54000002 104 117 145 97.000000 1.000000 4.000000 1.000000 -60.708740 114.000000 231.000000 0.963882 -0.263552 -0.038357
0.08000000 3.18000007 -0.36000001 104 117 145 97.000000 1.000000 4.000000 1.000000 -60.708740 114.000000 231.000000 0.856168 -0.221970 -0.466589
-0.07000000 3.25000000 -0.44999999 104 117 145 97.000000 1.000000 4.000000 1.000000 -60.708740 114.000000 231.000000 0.948827 0.071389 0.307622
-0.06000000 3.26999998 -0.50000000 104 117 145 97.000000 1.000000 4.000000 1.000000 -60.708740 114.000000 231.000000 0.964894 0.141172 -0.221472
-0.04000000 3.24000001 -0.44999999 104 117 145 97.000000 1.000000 4.000000 1.000000 -60.708740 114.000000 231.000000 0.999136 0.034097 0.023764
-0.01000000 3.21000004 -0.41000000 104 117 145 97.000000 1.000000 4.000000 1.000000 -60.708740 114.000000 231.000000 0.875270 -0.473692 -0.097566
-0.02000000 3.17000008 -0.38000000 104 117 145 97.000000 1.000000 4.000000 1.000000 -60.708740 114.000000 231.000000 0.952308 -0.256546 -0.165210
-0.07000000 3.20000005 -0.36000001 104 117 145 97.000000 1.000000 4.000000 1.000000 -60.708740 114.000000 231.000000 0.918223 -0.343088 -0.197881
-0.07000000 3.23000002 -0.43000001 104 117 145 97.000000 1.000000 4.000000 1.000000 -60.708740 114.000000 231.000000 0.917074 -0.129420 -0.377128
-0.04000000 3.22000003 -0.43000001 104 117 145 97.000000 1.000000 4.000000 1.000000 -60.708740 114.000000 231.000000 0.981559 -0.168233 0.090773
-0.07000000 3.19000006 -0.36000001 104 117 145 97.000000 1.000000 4.000000 1.000000 -60.708740 114.000000 231.000000 0.982556 -0.130277 0.132712
-0.05000000 3.19000006 -0.41999999 104 117 145 97.000000 1.000000 4.000000 1.000000 -60.708740 114.000000 231.000000 -0.676613 0.701615 0.223454
-0.03000000 3.20000005 -0.47999999 104 117 145 97.000000 1.000000 4.000000 1.000000 -60.708740 114.000000 231.000000 0.859627 -0.413667 -0.299870
-0.03000000 3.20000005 -0.50000000 104 117 145 97.000000 1.000000 4.000000 1.000000 -60.708740 114.000000 231.000000 0.808179 -0.574738 0.128540
-0.03000000 3.19000006 -0.50999999 104 117 145 97.000000 1.000000 4.000000 1.000000 -60.708740 114.000000 231.000000 0.952603 -0.204033 -0.225652
-0.08000000 3.20000005 -0.47999999 104 117 145 97.000000 1.000000 4.000000 1.000000 -60.708740 114.000000 231.000000 0.620955 -0.735300 -0.271569
-0.05000000 3.20000005 -0.47999999 104 117 145 97.000000 1.000000 4.000000 1.000000 -60.708740 114.000000 231.000000 0.893490 -0.423081 -0.150588
-0.06000000 3.20000005 -0.50999999 104 117 145 97.000000 1.000000 4.000000 1.000000 -60.708740 114.000000 231.000000 0.941893 -0.298516 0.154029
-0.08000000 3.21000004 -0.50999999 104 117 145 97.000000 1.000000 4.000000 1.000000 -60.708740 114.000000 231.000000 0.828330 -0.521316 0.205183
-0.06000000 3.17000008 -0.44999999 104 117 145 97.000000 1.000000 4.000000 1.000000 -60.708740 114.000000 231.000000 0.748183 -0.638021 0.182073
-0.05000000 3.18000007 -0.44999999 104 117 145 97.000000 1.000000 4.000000 1.000000 -60.708740 114.000000 231.000000 0.777010 -0.629141 0.020925
-0.05000000 3.19000006 -0.44999999 104 117 145 97.000000 1.000000 4.000000 1.000000 -60.708740 114.000000 231.000000 0.975021 -0.176934 -0.134269
-0.08000000 3.17000008 -0.49000001 104 117 145 97.000000 1.000000 4.000000 1.000000 -60.708740 114.000000 231.000000 0.780406 -0.516516 -0.352389
0.04000000 3.16000009 -0.60000002 104 117 145 97.000000 1.000000 4.000000 1.000000 -60.708740 114.000000 231.000000 0.983372 -0.179956 -0.024381
0.05000000 3.16000009 -0.66000003 104 117 145 97.000000 1.000000 4.000000 1.000000 -60.708740 114.000000 231.000000 0.823257 -0.478273 -0.305781
0.05000000 3.16000009 -0.67000002 104 117 145 97.000000 1.000000 4.000000 1.000000 -60.708740 114.000000 231.000000 0.945659 -0.315220 0.079786
0.08000000 3.16000009 -0.68000001 104 117 145 97.000000 1.000000 4.000000 1.000000 -60.708740 114.000000 231.000000 0.903562 -0.427163 0.033268
0.06000000 3.19000006 -0.64999998 104 117 145 97.000000 1.000000 4.000000 1.000000 -60.708740 114.000000 231.000000 0.777680 -0.618307 -0.113627
0.04000000 3.17000008 -0.62000000 104 117 145 97.000000 1.000000 4.000000 1.000000 -60.708740 114.000000 231.000000 0.868496 -0.485961 0.097759
0.03000000 3.18000007 -0.68000001 104 117 145 97.000000 1.000000 4.000000 1.000000 -60.708740 114.000000 231.000000 0.769804 -0.493130 -0.405246
-0.04000000 3.24000001 -0.57999998 104 117 145 97.000000 1.000000 4.000000 1.000000 -60.708740 114.000000 231.000000 0.956961 -0.259314 -0.130315
-0.08000000 3.25000000 -0.62000000 104 117 145 97.000000 1.000000 4.000000 1.000000 -60.708740 114.000000 231.000000 0.960997 -0.275099 -0.028373
-0.07000000 3.24000001 -0.68000001 104 117 145 97.000000 1.000000 4.000000 1.000000 -60.708740 114.000000 231.000000 -0.524453 0.744757 0.412658
-0.03000000 3.20000005 -0.54000002 104 117 145 97.000000 1.000000 4.000000 1.000000 -60.708740 114.000000 231.000000 0.684222 -0.601387 -0.412521
-0.03000000 3.21000004 -0.52999997 104 117 145 97.000000 1.000000 4.000000 1.000000 -60.708740 114.000000 231.000000 0.725533 -0.681561 0.095272
-0.03000000 3.21000004 -0.52999997 104 117 145 97.000000 1.000000 4.000000 1.000000 -60.708740 114.000000 231.000000 0.725533 -0.681561 0.095272
-0.03000000 3.20000005 -0.56999999 104 117 145 97.000000 1.000000 4.000000 1.000000 -60.708740 114.000000 231.000000 0.834049 -0.542060 0.102630
-0.05000000 3.23000002 -0.57999998 104 117 145 97.000000 1.000000 4.000000 1.000000 -60.708740 114.000000 231.000000 0.968566 -0.241831 0.058288
-0.07000000 3.19000006 -0.52999997 104 117 145 97.000000 1.000000 4.000000 1.000000 -60.708740 114.000000 231.000000 0.692403 -0.562264 -0.452147
-0.08000000 3.19000006 -0.60000002 104 117 145 97.000000 1.000000 4.000000 1.000000 -60.708740 114.000000 231.000000 0.777972 -0.488872 -0.394670
-0.05000000 3.18000007 -0.57999998 104 117 145 97.000000 1.000000 4.000000 1.000000 -60.708740 114.000000 231.000000 0.831498 -0.544174 -0.111737
-0.06000000 3.16000009 -0.60000002 104 117 145 97.000000 1.000000 4.000000 1.000000 -60.708740 114.000000 231.000000 0.782100 -0.511187 -0.356380
-0.04000000 3.18000007 -0.60000002 104 117 145 97.000000 1.000000 4.000000 1.000000 -60.708740 114.000000 231.000000 0.696134 -0.702174 0.149495
-0.01000000 3.16000009 -0.64999998 104 117 145 97.000000 1.000000 4.000000 1.000000 -60.708740 114.000000 231.000000 -0.505023 0.857827 0.095314
-0.01000000 3.16000009 -0.64999998 104 117 145 97.000000 1.000000 4.000000 1.000000 -60.708740 114.000000 231.000000 -0.505023 0.857827 0.095314
-0.01000000 3.16000009 -0.66000003 104 117 145 97.000000 1.000000 4.000000 1.000000 -60.708740 114.000000 231.000000 0.870403 -0.489688 0.051038
-0.06000000 3.19000006 -0.62000000 104 117 145 97.000000 1.000000 4.000000 1.000000 -60.708740 114.000000 231.000000 -0.538598 0.781526 0.314848
-0.04000000 3.16000009 -0.69000000 104 117 145 97.000000 1.000000 4.000000 1.000000 -60.708740 114.000000 231.000000 -0.424244 0.761674 0.489765
0.06000000 3.08999991 -0.38000000 104 117 145 97.000000 1.000000 4.000000 1.000000 -60.708740 114.000000 231.000000 0.962678 -0.239698 0.125679
0.08000000 3.11999989 -0.51999998 104 117 145 97.000000 1.000000 4.000000 1.000000 -60.708740 114.000000 231.000000 0.952546 -0.304371 0.003697
0.07000000 3.05999994 -0.44000000 104 117 145 97.000000 1.000000 4.000000 1.000000 -60.708740 114.000000 231.000000 -0.660879 0.736149 0.146026
-0.04000000 3.15000010 -0.40000001 104 117 145 97.000000 1.000000 4.000000 1.000000 -60.708740 114.000000 231.000000 0.774232 -0.606252 0.181723
-0.08000000 3.14000010 -0.36000001 104 117 145 97.000000 1.000000 4.000000 1.000000 -60.708740 114.000000 231.000000 -0.587785 0.808379 0.032112
-0.05000000 3.14000010 -0.46000001 104 117 145 97.000000 1.000000 4.000000 1.000000 -60.708740 114.000000 231.000000 -0.550877 0.810292 0.199903
-0.04000000 3.15000010 -0.47000000 104 117 145 97.000000 1.000000 4.000000 1.000000 -60.708740 114.000000 231.000000 -0.421238 0.885041 0.198143
-0.02000000 3.04999995 -0.49000001 104 117 145 97.000000 1.000000 4.000000 1.000000 -60.708740 114.000000 231.000000 -0.673945 0.738397 -0.023819
0.06000000 3.06999993 -0.55000001 104 117 145 97.000000 1.000000 4.000000 1.000000 -60.708740 114.000000 231.000000 -0.617098 0.666998 0.417497
0.01000000 3.10999990 -0.58999997 104 117 145 97.000000 1.000000 4.000000 1.000000 -60.708740 114.000000 231.000000 -0.564172 0.638272 0.523754
0.04000000 3.13000011 -0.57999998 104 117 145 97.000000 1.000000 4.000000 1.000000 -60.708740 114.000000 231.000000 -0.549044 0.791316 0.269016
0.03000000 3.07999992 -0.52999997 104 117 145 97.000000 1.000000 4.000000 1.000000 -60.708740 114.000000 231.000000 0.753709 -0.467989 -0.461421
0.01000000 3.08999991 -0.55000001 104 117 145 97.000000 1.000000 4.000000 1.000000 -60.708740 114.000000 231.000000 0.696589 -0.587385 -0.411997
0.02000000 3.09999990 -0.52999997 104 117 145 97.000000 1.000000 4.000000 1.000000 -60.708740 114.000000 231.000000 -0.685219 0.706680 -0.176287
0.08000000 3.13000011 -0.61000001 104 117 145 97.000000 1.000000 4.000000 1.000000 -60.708740 114.000000 231.000000 -0.730495 0.618603 0.289321
0.05000000 3.15000010 -0.66000003 104 117 145 97.000000 1.000000 4.000000 1.000000 -60.708740 114.000000 231.000000 0.679374 -0.541822 -0.494853
0.05000000 3.15000010 -0.68000001 104 117 145 97.000000 1.000000 4.000000 1.000000 -60.708740 114.000000 231.000000 0.768201 -0.582066 0.266583
0.04000000 3.13000011 -0.66000003 104 117 145 97.000000 1.000000 4.000000 1.000000 -60.708740 114.000000 231.000000 0.908959 -0.378138 -0.175513
0.04000000 3.14000010 -0.69000000 104 117 145 97.000000 1.000000 4.000000 1.000000 -60.708740 114.000000 231.000000 0.797041 -0.539221 -0.271969
0.03000000 3.13000011 -0.66000003 104 117 145 97.000000 1.000000 4.000000 1.000000 -60.708740 114.000000 231.000000 0.766828 -0.482333 -0.423472
0.04000000 3.14000010 -0.67000002 104 117 145 97.000000 1.000000 4.000000 1.000000 -60.708740 114.000000 231.000000 0.943254 -0.331955 -0.008769
0.01000000 3.08999991 -0.68000001 104 117 145 97.000000 1.000000 4.000000 1.000000 -60.708740 114.000000 231.000000 -0.409938 0.906833 -0.097999
-0.02000000 3.13000011 -0.57999998 104 117 145 97.000000 1.000000 4.000000 1.000000 -60.708740 114.000000 231.000000 0.827118 -0.561893 -0.012304
-0.08000000 3.14000010 -0.58999997 104 117 145 97.000000 1.000000 4.000000 1.000000 -60.708740 114.000000 231.000000 0.698741 -0.647102 -0.304993
-0.03000000 3.14000010 -0.61000001 104 117 145 97.000000 1.000000 4.000000 1.000000 -60.708740 114.000000 231.000000 -0.623740 0.760994 -0.178429
-0.03000000 3.11999989 -0.68000001 104 117 145 97.000000 1.000000 4.000000 1.000000 -60.708740 114.000000 231.000000 -0.678860 0.732941 0.044119
-0.03000000 3.11999989 -0.67000002 104 117 145 97.000000 1.000000 4.000000 1.000000 -60.708740 114.000000 231.000000 0.728894 -0.664983 0.162822
-0.02000000 3.10999990 -0.64999998 104 117 145 97.000000 1.000000 4.000000 1.000000 -60.708740 114.000000 231.000000 0.735697 -0.676390 0.035302
-0.01000000 3.08999991 -0.62000000 104 117 145 97.000000 1.000000 4.000000 1.000000 -60.708740 114.000000 231.000000 -0.478641 0.865628 0.146939
-0.03000000 3.07999992 -0.68000001 104 117 145 97.000000 1.000000 4.000000 1.000000 -60.708740 114.000000 231.000000 -0.522088 0.754491 0.397703
-0.01000000 3.08999991 -0.66000003 104 117 145 97.000000 1.000000 4.000000 1.000000 -60.708740 114.000000 231.000000 -0.634007 0.772387 0.038125
-0.03000000 3.07999992 -0.68000001 104 117 145 97.000000 1.000000 4.000000 1.000000 -60.708740 114.000000 231.000000 -0.522088 0.754491 0.397703
-0.07000000 3.11999989 -0.63000000 104 117 145 97.000000 1.000000 4.000000 1.000000 -60.708740 114.000000 231.000000 -0.218004 0.951904 0.215296
