//X Y Z R G B PointSourceId ScanDirectionFlag NumberOfReturns ReturnNumber GpsTime Intensity Classification Nx Ny Nz
-0.20999999 3.13000011 0.31999999 175 88 124 97.000000 1.000000 4.000000 1.000000 -60.708740 114.000000 231.000000 0.149294 0.637892 0.755517
-0.23000000 3.14000010 0.34000000 175 88 124 97.000000 1.000000 4.000000 1.000000 -60.708740 114.000000 231.000000 0.277866 0.830494 0.482773
-0.23999999 3.06999993 0.34999999 175 88 124 97.000000 1.000000 4.000000 1.000000 -60.708740 114.000000 231.000000 -0.330699 0.572674 0.750122
-0.18000001 3.05999994 0.41000000 175 88 124 97.000000 1.000000 4.000000 1.000000 -60.708740 114.000000 231.000000 0.081857 0.578744 0.811391
-0.20000000 2.99000001 0.47999999 175 88 124 97.000000 1.000000 4.000000 1.000000 -60.708740 114.000000 231.000000 0.091906 0.760045 0.643339
-0.20000000 2.99000001 0.41000000 175 88 124 97.000000 1.000000 4.000000 1.000000 -60.708740 114.000000 231.000000 -0.180062 0.495543 0.849715
-0.22000000 3.04999995 0.46000001 175 88 124 97.000000 1.000000 4.000000 1.000000 -60.708740 114.000000 231.000000 -0.178985 0.754183 0.631801
-0.23000000 3.04999995 0.44000000 175 88 124 97.000000 1.000000 4.000000 1.000000 -60.708740 114.000000 231.000000 0.094464 0.591488 0.800761
-0.23999999 3.00000000 0.47999999 175 88 124 97.000000 1.000000 4.000000 1.000000 -60.708740 114.000000 231.000000 -0.289902 0.709540 0.642270
-0.23000000 3.00999999 0.46000001 175 88 124 97.000000 1.000000 4.000000 1.000000 -60.708740 114.000000 231.000000 0.045977 0.837334 0.544755
-0.20000000 3.05999994 0.34000000 175 88 124 97.000000 1.000000 4.000000 1.000000 -60.708740 114.000000 231.000000 0.060318 0.534445 0.843048
-0.22000000 3.02999997 0.33000001 175 88 124 97.000000 1.000000 4.000000 1.000000 -60.708740 114.000000 231.000000 -0.030458 0.419787 0.907111
-0.20999999 3.04999995 0.34000000 175 88 124 97.000000 1.000000 4.000000 1.000000 -60.708740 114.000000 231.000000 0.350137 0.797802 0.490832
-0.27000001 3.27999997 0.51999998 175 88 124 97.000000 1.000000 4.000000 1.000000 -60.708740 114.000000 231.000000 -0.139019 0.263474 0.954597
-0.28999999 3.26999998 0.54000002 175 88 124 97.000000 1.000000 4.000000 1.000000 -60.708740 114.000000 231.000000 0.190431 0.405573 0.894006
-0.28999999 3.26999998 0.54000002 175 88 124 97.000000 1.000000 4.000000 1.000000 -60.708740 114.000000 231.000000 0.190431 0.405573 0.894006
-0.28999999 3.25999999 0.55000001 175 88 124 97.000000 1.000000 4.000000 1.000000 -60.708740 114.000000 231.000000 0.196307 -0.555441 -0.808053
-0.27000001 3.26999998 0.49000001 175 88 124 97.000000 1.000000 4.000000 1.000000 -60.708740 114.000000 231.000000 -0.121080 0.835889 0.535378
-0.25999999 3.25000000 0.50999999 175 88 124 97.000000 1.000000 4.000000 1.000000 -60.708740 114.000000 231.000000 0.188156 0.412776 0.891187
-0.25999999 3.25999999 0.50000000 175 88 124 97.000000 1.000000 4.000000 1.000000 -60.708740 114.000000 231.000000 0.239735 0.403530 0.883001
-0.33000001 3.28999996 0.54000002 175 88 124 97.000000 1.000000 4.000000 1.000000 -60.708740 114.000000 231.000000 -0.129977 0.527208 0.839736
-0.30000001 3.28999996 0.49000001 175 88 124 97.000000 1.000000 4.000000 1.000000 -60.708740 114.000000 231.000000 -0.191818 0.771877 0.606146
-0.31000000 3.24000001 0.56000000 175 88 124 97.000000 1.000000 4.000000 1.000000 -60.708740 114.000000 231.000000 -0.425953 0.714341 0.555230
-0.33000001 3.24000001 0.49000001 175 88 124 97.000000 1.000000 4.000000 1.000000 -60.708740 114.000000 231.000000 -0.484541 0.397032 0.779478
-0.25999999 3.18000007 0.60000002 175 88 124 97.000000 1.000000 4.000000 1.000000 -60.708740 114.000000 231.000000 0.124876 0.469361 0.874132
-0.28000000 3.21000004 0.50999999 175 88 124 97.000000 1.000000 4.000000 1.000000 -60.708740 114.000000 231.000000 0.244261 0.669748 0.701266
-0.30000001 3.18000007 0.56000000 175 88 124 97.000000 1.000000 4.000000 1.000000 -60.708740 114.000000 231.000000 -0.043883 0.624266 0.779978
-0.37000000 3.27999997 0.58999997 175 88 124 97.000000 1.000000 4.000000 1.000000 -60.708740 114.000000 231.000000 -0.529530 0.536254 0.657290
-0.37000000 3.27999997 0.58999997 175 88 124 97.000000 1.000000 4.000000 1.000000 -60.708740 114.000000 231.000000 -0.529530 0.536254 0.657290
-0.37000000 3.24000001 0.62000000 175 88 124 97.000000 1.000000 4.000000 1.000000 -60.708740 114.000000 231.000000 0.490000 -0.628075 -0.604501
-0.38999999 3.25000000 0.60000002 175 88 124 97.000000 1.000000 4.000000 1.000000 -60.708740 114.000000 231.000000 -0.245195 0.299683 0.921992
-0.38999999 3.25000000 0.60000002 175 88 124 97.000000 1.000000 4.000000 1.000000 -60.708740 114.000000 231.000000 -0.245195 0.299683 0.921992
-0.37000000 3.28999996 0.52999997 175 88 124 97.000000 1.000000 4.000000 1.000000 -60.708740 114.000000 231.000000 -0.356311 0.409680 0.839765
-0.36000001 3.28999996 0.56000000 175 88 124 97.000000 1.000000 4.000000 1.000000 -60.708740 114.000000 231.000000 -0.274150 0.809916 0.518534
-0.36000001 3.25999999 0.55000001 175 88 124 97.000000 1.000000 4.000000 1.000000 -60.708740 114.000000 231.000000 -0.355603 0.241459 0.902909
-0.36000001 3.24000001 0.50000000 175 88 124 97.000000 1.000000 4.000000 1.000000 -60.708740 114.000000 231.000000 -0.136049 0.623434 0.769948
-0.27000001 3.30999994 0.44000000 175 88 124 97.000000 1.000000 4.000000 1.000000 -60.708740 114.000000 231.000000 0.084889 0.449492 0.889242
-0.25999999 3.30999994 0.43000001 175 88 124 97.000000 1.000000 4.000000 1.000000 -60.708740 114.000000 231.000000 -0.181801 0.759287 0.624846
-0.31999999 3.27999997 0.47999999 175 88 124 97.000000 1.000000 4.000000 1.000000 -60.708740 114.000000 231.000000 -0.250339 0.293254 0.922677
-0.31000000 3.29999995 0.47999999 175 88 124 97.000000 1.000000 4.000000 1.000000 -60.708740 114.000000 231.000000 -0.333681 0.289191 0.897232
-0.30000001 3.28999996 0.41999999 175 88 124 97.000000 1.000000 4.000000 1.000000 -60.708740 114.000000 231.000000 -0.050640 0.880044 0.472185
-0.31000000 3.25999999 0.47999999 175 88 124 97.000000 1.000000 4.000000 1.000000 -60.708740 114.000000 231.000000 -0.413206 0.335243 0.846683
-0.31999999 3.25000000 0.43000001 175 88 124 97.000000 1.000000 4.000000 1.000000 -60.708740 114.000000 231.000000 -0.503061 0.392355 0.770057
-0.30000001 3.24000001 0.41000000 175 88 124 97.000000 1.000000 4.000000 1.000000 -60.708740 114.000000 231.000000 -0.026212 0.295826 0.954882
-0.27000001 3.25999999 0.34000000 175 88 124 97.000000 1.000000 4.000000 1.000000 -60.708740 114.000000 231.000000 0.009520 0.548067 0.836380
-0.30000001 3.29999995 0.38999999 175 88 124 97.000000 1.000000 4.000000 1.000000 -60.708740 114.000000 231.000000 -0.246147 0.584795 0.772933
-0.33000001 3.25000000 0.36000001 175 88 124 97.000000 1.000000 4.000000 1.000000 -60.708740 114.000000 231.000000 0.070004 0.804336 0.590037
-0.33000001 3.25999999 0.34000000 175 88 124 97.000000 1.000000 4.000000 1.000000 -60.708740 114.000000 231.000000 -0.479496 0.728369 0.489451
-0.31000000 3.25999999 0.34999999 175 88 124 97.000000 1.000000 4.000000 1.000000 -60.708740 114.000000 231.000000 -0.063151 0.529067 0.846227
-0.30000001 3.26999998 0.34999999 175 88 124 97.000000 1.000000 4.000000 1.000000 -60.708740 114.000000 231.000000 0.237329 0.677409 0.696270
-0.31999999 3.26999998 0.34000000 175 88 124 97.000000 1.000000 4.000000 1.000000 -60.708740 114.000000 231.000000 -0.499497 0.660951 0.560042
-0.25999999 3.23000002 0.40000001 175 88 124 97.000000 1.000000 4.000000 1.000000 -60.708740 114.000000 231.000000 0.098227 0.289441 0.952143
-0.28999999 3.17000008 0.43000001 175 88 124 97.000000 1.000000 4.000000 1.000000 -60.708740 114.000000 231.000000 -0.177618 0.793969 0.581434
-0.28999999 3.17000008 0.43000001 175 88 124 97.000000 1.000000 4.000000 1.000000 -60.708740 114.000000 231.000000 -0.177618 0.793969 0.581434
-0.27000001 3.17000008 0.36000001 175 88 124 97.000000 1.000000 4.000000 1.000000 -60.708740 114.000000 231.000000 0.067644 0.654854 0.752722
-0.31000000 3.22000003 0.38000000 175 88 124 97.000000 1.000000 4.000000 1.000000 -60.708740 114.000000 231.000000 -0.482019 0.404117 0.777398
-0.31000000 3.19000006 0.38000000 175 88 124 97.000000 1.000000 4.000000 1.000000 -60.708740 114.000000 231.000000 -0.422289 0.507733 0.750919
-0.34000000 3.25999999 0.41000000 175 88 124 97.000000 1.000000 4.000000 1.000000 -60.708740 114.000000 231.000000 -0.316419 0.519945 0.793433
-0.34000000 3.24000001 0.44000000 175 88 124 97.000000 1.000000 4.000000 1.000000 -60.708740 114.000000 231.000000 -0.272904 0.777696 0.566314
-0.38999999 3.27999997 0.47000000 175 88 124 97.000000 1.000000 4.000000 1.000000 -60.708740 114.000000 231.000000 -0.326601 0.693823 0.641827
-0.36000001 3.27999997 0.33000001 175 88 124 97.000000 1.000000 4.000000 1.000000 -60.708740 114.000000 231.000000 -0.198285 0.767011 0.610227
-0.34999999 3.27999997 0.34999999 175 88 124 97.000000 1.000000 4.000000 1.000000 -60.708740 114.000000 231.000000 -0.266563 0.839751 0.473034
-0.34000000 3.25000000 0.36000001 175 88 124 97.000000 1.000000 4.000000 1.000000 -60.708740 114.000000 231.000000 -0.405599 0.737304 0.540252
-0.36000001 3.24000001 0.36000001 175 88 124 97.000000 1.000000 4.000000 1.000000 -60.708740 114.000000 231.000000 -0.102084 0.521921 0.846863
-0.38999999 3.30999994 0.37000000 175 88 124 97.000000 1.000000 4.000000 1.000000 -60.708740 114.000000 231.000000 -0.277772 0.213563 0.936607
-0.38000000 3.29999995 0.34000000 175 88 124 97.000000 1.000000 4.000000 1.000000 -60.708740 114.000000 231.000000 -0.266547 0.519065 0.812111
-0.38000000 3.29999995 0.34000000 175 88 124 97.000000 1.000000 4.000000 1.000000 -60.708740 114.000000 231.000000 -0.266547 0.519065 0.812111
-0.38000000 3.16000009 0.47000000 175 88 124 97.000000 1.000000 4.000000 1.000000 -60.708740 114.000000 231.000000 -0.308634 0.262266 0.914309
-0.36000001 3.17000008 0.46000001 175 88 124 97.000000 1.000000 4.000000 1.000000 -60.708740 114.000000 231.000000 -0.036581 0.464709 0.884708
-0.36000001 3.18000007 0.46000001 175 88 124 97.000000 1.000000 4.000000 1.000000 -60.708740 114.000000 231.000000 -0.012503 0.662672 0.748805
-0.34999999 3.23000002 0.44000000 175 88 124 97.000000 1.000000 4.000000 1.000000 -60.708740 114.000000 231.000000 -0.090918 0.314918 0.944754
-0.41000000 3.23000002 0.33000001 175 88 124 97.000000 1.000000 4.000000 1.000000 -60.708740 114.000000 231.000000 -0.315555 0.549418 0.773670
-0.41000000 3.22000003 0.34000000 175 88 124 97.000000 1.000000 4.000000 1.000000 -60.708740 114.000000 231.000000 0.627989 -0.300342 -0.717931
-0.38999999 3.22000003 0.34000000 175 88 124 97.000000 1.000000 4.000000 1.000000 -60.708740 114.000000 231.000000 -0.189939 0.443190 0.876074
-0.25999999 3.10999990 0.54000002 175 88 124 97.000000 1.000000 4.000000 1.000000 -60.708740 114.000000 231.000000 -0.119817 0.316372 0.941038
-0.31999999 3.11999989 0.50000000 175 88 124 97.000000 1.000000 4.000000 1.000000 -60.708740 114.000000 231.000000 0.411946 -0.526831 -0.743472
-0.33000001 3.11999989 0.49000001 175 88 124 97.000000 1.000000 4.000000 1.000000 -60.708740 114.000000 231.000000 -0.206097 0.548065 0.810647
-0.30000001 3.08999991 0.52999997 175 88 124 97.000000 1.000000 4.000000 1.000000 -60.708740 114.000000 231.000000 -0.136842 0.307557 0.941638
-0.33000001 3.04999995 0.50000000 175 88 124 97.000000 1.000000 4.000000 1.000000 -60.708740 114.000000 231.000000 0.052515 0.784888 0.617408
-0.31999999 3.02999997 0.50000000 175 88 124 97.000000 1.000000 4.000000 1.000000 -60.708740 114.000000 231.000000 -0.329467 0.212513 0.919940
-0.31999999 3.05999994 0.50000000 175 88 124 97.000000 1.000000 4.000000 1.000000 -60.708740 114.000000 231.000000 -0.213502 0.449398 0.867443
-0.38999999 3.06999993 0.62000000 175 88 124 97.000000 1.000000 4.000000 1.000000 -60.708740 114.000000 231.000000 -0.503294 0.611022 0.611022
-0.37000000 3.07999992 0.54000002 175 88 124 97.000000 1.000000 4.000000 1.000000 -60.708740 114.000000 231.000000 -0.661039 0.329708 0.674033
-0.38999999 3.03999996 0.50000000 175 88 124 97.000000 1.000000 4.000000 1.000000 -60.708740 114.000000 231.000000 -0.599126 0.649472 0.468224
-0.28999999 3.13000011 0.40000001 175 88 124 97.000000 1.000000 4.000000 1.000000 -60.708740 114.000000 231.000000 -0.408693 0.789924 0.457154
-0.28999999 3.13000011 0.40000001 175 88 124 97.000000 1.000000 4.000000 1.000000 -60.708740 114.000000 231.000000 -0.408693 0.789924 0.457154
-0.25999999 3.11999989 0.41999999 175 88 124 97.000000 1.000000 4.000000 1.000000 -60.708740 114.000000 231.000000 -0.058664 0.771220 0.633860
-0.25999999 3.06999993 0.44999999 175 88 124 97.000000 1.000000 4.000000 1.000000 -60.708740 114.000000 231.000000 -0.243539 0.626916 0.740044
-0.28000000 3.06999993 0.44999999 175 88 124 97.000000 1.000000 4.000000 1.000000 -60.708740 114.000000 231.000000 0.155248 0.397378 0.904427
-0.28999999 3.06999993 0.47999999 175 88 124 97.000000 1.000000 4.000000 1.000000 -60.708740 114.000000 231.000000 -0.239866 0.760361 0.603585
-0.25999999 3.06999993 0.44999999 175 88 124 97.000000 1.000000 4.000000 1.000000 -60.708740 114.000000 231.000000 -0.243539 0.626916 0.740044
-0.27000001 3.06999993 0.44999999 175 88 124 97.000000 1.000000 4.000000 1.000000 -60.708740 114.000000 231.000000 -0.453072 0.620257 0.640319
-0.27000001 3.06999993 0.44999999 175 88 124 97.000000 1.000000 4.000000 1.000000 -60.708740 114.000000 231.000000 -0.453072 0.620257 0.640319
-0.28000000 3.09999990 0.41999999 175 88 124 97.000000 1.000000 4.000000 1.000000 -60.708740 114.000000 231.000000 -0.517964 0.636067 0.571954
-0.25999999 3.09999990 0.40000001 175 88 124 97.000000 1.000000 4.000000 1.000000 -60.708740 114.000000 231.000000 0.067726 0.670052 0.739218
-0.28000000 3.06999993 0.44000000 175 88 124 97.000000 1.000000 4.000000 1.000000 -60.708740 114.000000 231.000000 0.227253 0.659817 0.716238
-0.27000001 3.06999993 0.44000000 175 88 124 97.000000 1.000000 4.000000 1.000000 -60.708740 114.000000 231.000000 -0.076838 0.729231 0.679939
-0.25000000 3.06999993 0.41999999 175 88 124 97.000000 1.000000 4.000000 1.000000 -60.708740 114.000000 231.000000 -0.052942 0.736892 0.673934
-0.25000000 3.09999990 0.40000001 175 88 124 97.000000 1.000000 4.000000 1.000000 -60.708740 114.000000 231.000000 -0.104824 0.727862 0.677664
-0.25999999 3.08999991 0.41000000 175 88 124 97.000000 1.000000 4.000000 1.000000 -60.708740 114.000000 231.000000 0.040322 0.832868 0.552001
-0.25000000 3.08999991 0.43000001 175 88 124 97.000000 1.000000 4.000000 1.000000 -60.708740 114.000000 231.000000 0.253882 0.802143 0.540473
-0.33000001 3.07999992 0.44000000 175 88 124 97.000000 1.000000 4.000000 1.000000 -60.708740 114.000000 231.000000 -0.566873 0.604101 0.560105
-0.31999999 3.09999990 0.44000000 175 88 124 97.000000 1.000000 4.000000 1.000000 -60.708740 114.000000 231.000000 -0.548528 0.429211 0.717561
-0.25999999 3.11999989 0.37000000 175 88 124 97.000000 1.000000 4.000000 1.000000 -60.708740 114.000000 231.000000 -0.197832 0.864213 0.462599
-0.25999999 3.10999990 0.33000001 175 88 124 97.000000 1.000000 4.000000 1.000000 -60.708740 114.000000 231.000000 -0.257311 0.743518 0.617230
-0.27000001 3.11999989 0.34999999 175 88 124 97.000000 1.000000 4.000000 1.000000 -60.708740 114.000000 231.000000 -0.185486 0.827902 0.529314
-0.25999999 3.13000011 0.34000000 175 88 124 97.000000 1.000000 4.000000 1.000000 -60.708740 114.000000 231.000000 0.029480 0.633115 0.773496
-0.28999999 3.06999993 0.34999999 175 88 124 97.000000 1.000000 4.000000 1.000000 -60.708740 114.000000 231.000000 0.003901 0.422597 0.906309
-0.30000001 3.14000010 0.31999999 175 88 124 97.000000 1.000000 4.000000 1.000000 -60.708740 114.000000 231.000000 -0.020985 0.681320 0.731685
-0.31000000 3.14000010 0.31999999 175 88 124 97.000000 1.000000 4.000000 1.000000 -60.708740 114.000000 231.000000 -0.351400 0.459523 0.815694
-0.30000001 3.09999990 0.38000000 175 88 124 97.000000 1.000000 4.000000 1.000000 -60.708740 114.000000 231.000000 -0.511660 0.400501 0.760134
-0.33000001 3.09999990 0.33000001 175 88 124 97.000000 1.000000 4.000000 1.000000 -60.708740 114.000000 231.000000 -0.363884 0.729401 0.579278
-0.33000001 3.06999993 0.34000000 175 88 124 97.000000 1.000000 4.000000 1.000000 -60.708740 114.000000 231.000000 -0.371184 0.304522 0.877205
-0.31999999 3.09999990 0.33000001 175 88 124 97.000000 1.000000 4.000000 1.000000 -60.708740 114.000000 231.000000 -0.250757 0.730190 0.635565
-0.28000000 3.03999996 0.47999999 175 88 124 97.000000 1.000000 4.000000 1.000000 -60.708740 114.000000 231.000000 -0.239775 0.484131 0.841502
-0.25999999 3.03999996 0.47000000 175 88 124 97.000000 1.000000 4.000000 1.000000 -60.708740 114.000000 231.000000 -0.272414 0.502799 0.820356
-0.28000000 2.99000001 0.47999999 175 88 124 97.000000 1.000000 4.000000 1.000000 -60.708740 114.000000 231.000000 0.192115 0.537015 0.821406
-0.28999999 3.01999998 0.44999999 175 88 124 97.000000 1.000000 4.000000 1.000000 -60.708740 114.000000 231.000000 -0.566513 0.660652 0.492547
-0.25999999 3.01999998 0.44000000 175 88 124 97.000000 1.000000 4.000000 1.000000 -60.708740 114.000000 231.000000 0.020941 -0.635225 -0.772043
-0.33000001 3.04999995 0.43000001 175 88 124 97.000000 1.000000 4.000000 1.000000 -60.708740 114.000000 231.000000 -0.159286 0.540383 0.826205
-0.30000001 3.00999999 0.47000000 175 88 124 97.000000 1.000000 4.000000 1.000000 -60.708740 114.000000 231.000000 -0.215514 0.878404 0.426568
-0.25000000 3.05999994 0.36000001 175 88 124 97.000000 1.000000 4.000000 1.000000 -60.708740 114.000000 231.000000 -0.070437 0.613808 0.786307
-0.25000000 3.02999997 0.36000001 175 88 124 97.000000 1.000000 4.000000 1.000000 -60.708740 114.000000 231.000000 0.020355 0.511593 0.858987
-0.27000001 3.02999997 0.34000000 175 88 124 97.000000 1.000000 4.000000 1.000000 -60.708740 114.000000 231.000000 -0.049470 0.804248 0.592232
-0.34000000 3.13000011 0.47000000 175 88 124 97.000000 1.000000 4.000000 1.000000 -60.708740 114.000000 231.000000 -0.180754 0.575680 0.797446
-0.34000000 3.09999990 0.41000000 175 88 124 97.000000 1.000000 4.000000 1.000000 -60.708740 114.000000 231.000000 -0.509225 0.670564 0.539476
-0.40000001 3.11999989 0.34000000 175 88 124 97.000000 1.000000 4.000000 1.000000 -60.708740 114.000000 231.000000 -0.576131 0.650037 0.495506
-0.40000001 3.08999991 0.38000000 175 88 124 97.000000 1.000000 4.000000 1.000000 -60.708740 114.000000 231.000000 0.690254 -0.427459 -0.583805
-0.34999999 3.05999994 0.44999999 175 88 124 97.000000 1.000000 4.000000 1.000000 -60.708740 114.000000 231.000000 0.553793 -0.450684 -0.700141
-0.34999999 3.03999996 0.47000000 175 88 124 97.000000 1.000000 4.000000 1.000000 -60.708740 114.000000 231.000000 -0.462071 0.772296 0.435947
-0.34000000 3.05999994 0.43000001 175 88 124 97.000000 1.000000 4.000000 1.000000 -60.708740 114.000000 231.000000 -0.600373 0.270881 0.752447
-0.37000000 3.04999995 0.40000001 175 88 124 97.000000 1.000000 4.000000 1.000000 -60.708740 114.000000 231.000000 0.773141 -0.398778 -0.493183
-0.34999999 3.01999998 0.41000000 175 88 124 97.000000 1.000000 4.000000 1.000000 -60.708740 114.000000 231.000000 -0.555778 0.186269 0.810194
-0.37000000 3.00999999 0.43000001 175 88 124 97.000000 1.000000 4.000000 1.000000 -60.708740 114.000000 231.000000 -0.237329 0.677409 0.696270
-0.37000000 3.00000000 0.44000000 175 88 124 97.000000 1.000000 4.000000 1.000000 -60.708740 114.000000 231.000000 -0.570649 0.337863 0.748471
-0.38999999 3.00000000 0.40000001 175 88 124 97.000000 1.000000 4.000000 1.000000 -60.708740 114.000000 231.000000 -0.443190 0.189939 0.876074
-0.38999999 2.99000001 0.40000001 175 88 124 97.000000 1.000000 4.000000 1.000000 -60.708740 114.000000 231.000000 -0.425904 0.185875 0.885470
-0.41000000 3.00000000 0.41000000 175 88 124 97.000000 1.000000 4.000000 1.000000 -60.708740 114.000000 231.000000 -0.661751 0.216431 0.717805
-0.37000000 3.05999994 0.38000000 175 88 124 97.000000 1.000000 4.000000 1.000000 -60.708740 114.000000 231.000000 0.543396 -0.529937 -0.651066
-0.37000000 3.00000000 0.38000000 175 88 124 97.000000 1.000000 4.000000 1.000000 -60.708740 114.000000 231.000000 0.770902 -0.350704 -0.531712
-0.38000000 3.05999994 0.33000001 175 88 124 97.000000 1.000000 4.000000 1.000000 -60.708740 114.000000 231.000000 -0.417120 0.797199 0.436446
-0.14000000 3.30999994 0.23000000 175 88 124 97.000000 1.000000 4.000000 1.000000 -60.708740 114.000000 231.000000 -0.029114 0.572568 0.819340
-0.14000000 3.20000005 0.28000000 175 88 124 97.000000 1.000000 4.000000 1.000000 -60.708740 114.000000 231.000000 0.675913 0.484712 0.555154
-0.10000000 3.22000003 0.19000000 175 88 124 97.000000 1.000000 4.000000 1.000000 -60.708740 114.000000 231.000000 0.188774 0.618504 0.762770
-0.09000000 3.22000003 0.19000000 175 88 124 97.000000 1.000000 4.000000 1.000000 -60.708740 114.000000 231.000000 0.718095 0.576776 0.389447
-0.14000000 3.20000005 0.16000000 175 88 124 97.000000 1.000000 4.000000 1.000000 -60.708740 114.000000 231.000000 0.174367 0.792990 0.583750
-0.13000000 3.18000007 0.19000000 175 88 124 97.000000 1.000000 4.000000 1.000000 -60.708740 114.000000 231.000000 0.811140 0.466924 0.352185
-0.16000000 3.16000009 0.15000001 175 88 124 97.000000 1.000000 4.000000 1.000000 -60.708740 114.000000 231.000000 0.420053 0.582761 0.695661
-0.22000000 3.27999997 0.19000000 175 88 124 97.000000 1.000000 4.000000 1.000000 -60.708740 114.000000 231.000000 0.325632 0.454626 0.829023
-0.23000000 3.28999996 0.23000000 175 88 124 97.000000 1.000000 4.000000 1.000000 -60.708740 114.000000 231.000000 -0.023505 0.283294 0.958745
-0.23999999 3.28999996 0.17000000 175 88 124 97.000000 1.000000 4.000000 1.000000 -60.708740 114.000000 231.000000 0.042631 0.862244 0.504695
-0.23000000 3.26999998 0.20000000 175 88 124 97.000000 1.000000 4.000000 1.000000 -60.708740 114.000000 231.000000 0.185985 0.699365 0.690143
-0.22000000 3.21000004 0.27000001 175 88 124 97.000000 1.000000 4.000000 1.000000 -60.708740 114.000000 231.000000 -0.131000 0.473616 0.870935
-0.20999999 3.17000008 0.28000000 175 88 124 97.000000 1.000000 4.000000 1.000000 -60.708740 114.000000 231.000000 0.322101 0.549655 0.770799
-0.20999999 3.16000009 0.31000000 175 88 124 97.000000 1.000000 4.000000 1.000000 -60.708740 114.000000 231.000000 0.450863 0.434587 0.779652
-0.17000000 3.19000006 0.18000001 175 88 124 97.000000 1.000000 4.000000 1.000000 -60.708740 114.000000 231.000000 0.251094 0.626945 0.737490
-0.17000000 3.16000009 0.16000000 175 88 124 97.000000 1.000000 4.000000 1.000000 -60.708740 114.000000 231.000000 0.152710 0.718192 0.678881
-0.20000000 3.19000006 0.17000000 175 88 124 97.000000 1.000000 4.000000 1.000000 -60.708740 114.000000 231.000000 -0.020661 0.827824 0.560607
-0.20999999 3.22000003 0.23000000 175 88 124 97.000000 1.000000 4.000000 1.000000 -60.708740 114.000000 231.000000 0.353317 0.478017 0.804156
-0.23999999 3.21000004 0.19000000 175 88 124 97.000000 1.000000 4.000000 1.000000 -60.708740 114.000000 231.000000 0.354468 0.700768 0.619093
-0.20999999 3.16000009 0.20000000 175 88 124 97.000000 1.000000 4.000000 1.000000 -60.708740 114.000000 231.000000 0.226863 0.736914 0.636781
-0.20999999 3.16000009 0.20000000 175 88 124 97.000000 1.000000 4.000000 1.000000 -60.708740 114.000000 231.000000 0.226863 0.736914 0.636781
-0.23999999 3.18000007 0.22000000 175 88 124 97.000000 1.000000 4.000000 1.000000 -60.708740 114.000000 231.000000 0.069467 0.545813 0.835023
-0.23999999 3.18000007 0.22000000 175 88 124 97.000000 1.000000 4.000000 1.000000 -60.708740 114.000000 231.000000 0.069467 0.545813 0.835023
-0.23999999 3.18000007 0.22000000 175 88 124 97.000000 1.000000 4.000000 1.000000 -60.708740 114.000000 231.000000 0.069467 0.545813 0.835023
-0.11000000 3.24000001 0.08000000 175 88 124 97.000000 1.000000 4.000000 1.000000 -60.708740 114.000000 231.000000 0.498245 0.432470 0.751479
-0.14000000 3.27999997 0.08000000 175 88 124 97.000000 1.000000 4.000000 1.000000 -60.708740 114.000000 231.000000 0.555297 0.735482 0.388216
-0.10000000 3.25999999 -0.01000000 175 88 124 97.000000 1.000000 4.000000 1.000000 -60.708740 114.000000 231.000000 0.862964 0.243323 0.442817
-0.16000000 3.25000000 -0.02000000 175 88 124 97.000000 1.000000 4.000000 1.000000 -60.708740 114.000000 231.000000 0.673979 0.383954 0.631135
-0.14000000 3.26999998 0.01000000 175 88 124 97.000000 1.000000 4.000000 1.000000 -60.708740 114.000000 231.000000 0.721768 0.546694 0.424472
-0.15000001 3.26999998 0.02000000 175 88 124 97.000000 1.000000 4.000000 1.000000 -60.708740 114.000000 231.000000 0.859627 0.299870 0.413667
-0.16000000 3.25000000 -0.01000000 175 88 124 97.000000 1.000000 4.000000 1.000000 -60.708740 114.000000 231.000000 0.910588 0.397776 0.112264
-0.12000000 3.22000003 0.12000000 175 88 124 97.000000 1.000000 4.000000 1.000000 -60.708740 114.000000 231.000000 0.800619 0.426889 0.420446
-0.12000000 3.23000002 0.12000000 175 88 124 97.000000 1.000000 4.000000 1.000000 -60.708740 114.000000 231.000000 0.589632 0.562600 0.579495
-0.09000000 3.23000002 0.09000000 175 88 124 97.000000 1.000000 4.000000 1.000000 -60.708740 114.000000 231.000000 0.834452 0.395931 0.383312
-0.10000000 3.18000007 0.14000000 175 88 124 97.000000 1.000000 4.000000 1.000000 -60.708740 114.000000 231.000000 0.885524 0.394393 0.245565
-0.10000000 3.18000007 0.14000000 175 88 124 97.000000 1.000000 4.000000 1.000000 -60.708740 114.000000 231.000000 0.885524 0.394393 0.245565
-0.12000000 3.16000009 0.07000000 175 88 124 97.000000 1.000000 4.000000 1.000000 -60.708740 114.000000 231.000000 0.916500 0.264960 0.299708
-0.15000001 3.23000002 0.09000000 175 88 124 97.000000 1.000000 4.000000 1.000000 -60.708740 114.000000 231.000000 0.385894 0.414478 0.824193
-0.14000000 3.16000009 0.11000000 175 88 124 97.000000 1.000000 4.000000 1.000000 -60.708740 114.000000 231.000000 0.620384 0.610296 0.492608
-0.16000000 3.19000006 0.13000000 175 88 124 97.000000 1.000000 4.000000 1.000000 -60.708740 114.000000 231.000000 0.783720 0.549395 0.289739
-0.16000000 3.19000006 0.07000000 175 88 124 97.000000 1.000000 4.000000 1.000000 -60.708740 114.000000 231.000000 0.853164 0.294673 0.430439
-0.16000000 3.19000006 0.10000000 175 88 124 97.000000 1.000000 4.000000 1.000000 -60.708740 114.000000 231.000000 0.734997 0.353646 0.578545
-0.16000000 3.19000006 0.07000000 175 88 124 97.000000 1.000000 4.000000 1.000000 -60.708740 114.000000 231.000000 0.853164 0.294673 0.430439
-0.15000001 3.18000007 0.10000000 175 88 124 97.000000 1.000000 4.000000 1.000000 -60.708740 114.000000 231.000000 0.596414 0.321643 0.735416
-0.11000000 3.20000005 0.00000000 175 88 124 97.000000 1.000000 4.000000 1.000000 -60.708740 114.000000 231.000000 0.873206 0.235151 0.426867
-0.11000000 3.20000005 0.00000000 175 88 124 97.000000 1.000000 4.000000 1.000000 -60.708740 114.000000 231.000000 0.873206 0.235151 0.426867
-0.11000000 3.20000005 0.00000000 175 88 124 97.000000 1.000000 4.000000 1.000000 -60.708740 114.000000 231.000000 0.873206 0.235151 0.426867
-0.16000000 3.20000005 0.06000000 175 88 124 97.000000 1.000000 4.000000 1.000000 -60.708740 114.000000 231.000000 0.869278 0.464690 0.168578
-0.13000000 3.16000009 0.04000000 175 88 124 97.000000 1.000000 4.000000 1.000000 -60.708740 114.000000 231.000000 0.991588 0.129050 0.009927
-0.18000001 3.29999995 0.14000000 175 88 124 97.000000 1.000000 4.000000 1.000000 -60.708740 114.000000 231.000000 0.681274 0.497146 0.537319
-0.19000000 3.27999997 0.12000000 175 88 124 97.000000 1.000000 4.000000 1.000000 -60.708740 114.000000 231.000000 0.488102 0.768883 0.413009
-0.18000001 3.25999999 0.11000000 175 88 124 97.000000 1.000000 4.000000 1.000000 -60.708740 114.000000 231.000000 0.383402 0.272140 0.882577
-0.22000000 3.26999998 0.13000000 175 88 124 97.000000 1.000000 4.000000 1.000000 -60.708740 114.000000 231.000000 -0.169611 0.686083 0.707476
-0.18000001 3.25999999 0.05000000 175 88 124 97.000000 1.000000 4.000000 1.000000 -60.708740 114.000000 231.000000 0.641827 0.326601 0.693823
-0.20000000 3.26999998 -0.01000000 175 88 124 97.000000 1.000000 4.000000 1.000000 -60.708740 114.000000 231.000000 0.522552 0.660331 0.539354
-0.18000001 3.20000005 0.10000000 175 88 124 97.000000 1.000000 4.000000 1.000000 -60.708740 114.000000 231.000000 0.475119 0.708511 0.521798
-0.23000000 3.20000005 0.14000000 175 88 124 97.000000 1.000000 4.000000 1.000000 -60.708740 114.000000 231.000000 0.358002 0.593401 0.720909
-0.19000000 3.20000005 0.01000000 175 88 124 97.000000 1.000000 4.000000 1.000000 -60.708740 114.000000 231.000000 0.550020 0.776405 0.307692
-0.14000000 3.14000010 0.23999999 175 88 124 97.000000 1.000000 4.000000 1.000000 -60.708740 114.000000 231.000000 0.524325 0.618737 0.585019
-0.11000000 3.11999989 0.19000000 175 88 124 97.000000 1.000000 4.000000 1.000000 -60.708740 114.000000 231.000000 0.769551 0.232582 0.594724
-0.14000000 3.15000010 0.23000000 175 88 124 97.000000 1.000000 4.000000 1.000000 -60.708740 114.000000 231.000000 0.290021 0.543591 0.787653
-0.14000000 3.13000011 0.22000000 175 88 124 97.000000 1.000000 4.000000 1.000000 -60.708740 114.000000 231.000000 0.290224 0.681465 0.671845
-0.18000001 3.14000010 0.28000000 175 88 124 97.000000 1.000000 4.000000 1.000000 -60.708740 114.000000 231.000000 0.206261 0.640493 0.739747
-0.20000000 3.14000010 0.25999999 175 88 124 97.000000 1.000000 4.000000 1.000000 -60.708740 114.000000 231.000000 0.160642 0.438509 0.884254
-0.17000000 3.15000010 0.27000001 175 88 124 97.000000 1.000000 4.000000 1.000000 -60.708740 114.000000 231.000000 0.615667 0.581932 0.531329
-0.20000000 3.14000010 0.25999999 175 88 124 97.000000 1.000000 4.000000 1.000000 -60.708740 114.000000 231.000000 0.160642 0.438509 0.884254
-0.23999999 3.10999990 0.30000001 175 88 124 97.000000 1.000000 4.000000 1.000000 -60.708740 114.000000 231.000000 0.113572 0.615061 0.780257
-0.22000000 3.13000011 0.25999999 175 88 124 97.000000 1.000000 4.000000 1.000000 -60.708740 114.000000 231.000000 -0.267562 0.444917 0.854669
-0.23999999 3.14000010 0.25000000 175 88 124 97.000000 1.000000 4.000000 1.000000 -60.708740 114.000000 231.000000 -0.029274 0.807122 0.589659
-0.19000000 3.11999989 0.22000000 175 88 124 97.000000 1.000000 4.000000 1.000000 -60.708740 114.000000 231.000000 0.030412 0.411219 0.911029
-0.20999999 3.15000010 0.20999999 175 88 124 97.000000 1.000000 4.000000 1.000000 -60.708740 114.000000 231.000000 0.509612 0.417849 0.752129
-0.20999999 3.15000010 0.20999999 175 88 124 97.000000 1.000000 4.000000 1.000000 -60.708740 114.000000 231.000000 0.509612 0.417849 0.752129
-0.22000000 3.11999989 0.23000000 175 88 124 97.000000 1.000000 4.000000 1.000000 -60.708740 114.000000 231.000000 -0.272747 0.463825 0.842897
-0.23999999 3.14000010 0.20000000 175 88 124 97.000000 1.000000 4.000000 1.000000 -60.708740 114.000000 231.000000 -0.157797 0.393783 0.905558
-0.20999999 3.09999990 0.20999999 175 88 124 97.000000 1.000000 4.000000 1.000000 -60.708740 114.000000 231.000000 -0.080151 0.867605 0.490752
-0.22000000 3.07999992 0.20000000 175 88 124 97.000000 1.000000 4.000000 1.000000 -60.708740 114.000000 231.000000 -0.061243 0.329672 0.942107
-0.22000000 3.08999991 0.23000000 175 88 124 97.000000 1.000000 4.000000 1.000000 -60.708740 114.000000 231.000000 -0.123388 0.846295 0.518228
-0.23999999 3.08999991 0.20999999 175 88 124 97.000000 1.000000 4.000000 1.000000 -60.708740 114.000000 231.000000 0.154971 0.786892 0.597315
-0.09000000 3.14000010 0.14000000 175 88 124 97.000000 1.000000 4.000000 1.000000 -60.708740 114.000000 231.000000 0.615182 0.225826 0.755350
-0.09000000 3.14000010 0.13000000 175 88 124 97.000000 1.000000 4.000000 1.000000 -60.708740 114.000000 231.000000 0.697294 0.520044 0.493290
-0.09000000 3.15000010 0.14000000 175 88 124 97.000000 1.000000 4.000000 1.000000 -60.708740 114.000000 231.000000 0.765838 0.076729 0.638440
-0.09000000 3.13000011 0.14000000 175 88 124 97.000000 1.000000 4.000000 1.000000 -60.708740 114.000000 231.000000 0.628826 0.303959 0.715672
-0.11000000 3.09999990 0.04000000 175 88 124 97.000000 1.000000 4.000000 1.000000 -60.708740 114.000000 231.000000 0.979098 -0.193893 0.061419
-0.11000000 3.09999990 0.04000000 175 88 124 97.000000 1.000000 4.000000 1.000000 -60.708740 114.000000 231.000000 0.979098 -0.193893 0.061419
-0.15000001 3.15000010 0.00000000 175 88 124 97.000000 1.000000 4.000000 1.000000 -60.708740 114.000000 231.000000 0.987619 -0.042639 0.150966
-0.15000001 3.10999990 0.00000000 175 88 124 97.000000 1.000000 4.000000 1.000000 -60.708740 114.000000 231.000000 0.990714 0.135850 -0.005522
-0.15000001 3.10999990 0.02000000 175 88 124 97.000000 1.000000 4.000000 1.000000 -60.708740 114.000000 231.000000 0.915556 0.282937 -0.285839
-0.15000001 3.11999989 0.00000000 175 88 124 97.000000 1.000000 4.000000 1.000000 -60.708740 114.000000 231.000000 0.936041 0.346924 0.058912
-0.15000001 3.14000010 0.02000000 175 88 124 97.000000 1.000000 4.000000 1.000000 -60.708740 114.000000 231.000000 0.990798 0.131881 0.030434
-0.13000000 3.06999993 0.03000000 175 88 124 97.000000 1.000000 4.000000 1.000000 -60.708740 114.000000 231.000000 0.906781 0.417579 -0.058110
-0.14000000 3.09999990 0.04000000 175 88 124 97.000000 1.000000 4.000000 1.000000 -60.708740 114.000000 231.000000 0.985237 0.033574 -0.167872
-0.13000000 3.06999993 0.03000000 175 88 124 97.000000 1.000000 4.000000 1.000000 -60.708740 114.000000 231.000000 0.906781 0.417579 -0.058110
-0.14000000 3.08999991 0.01000000 175 88 124 97.000000 1.000000 4.000000 1.000000 -60.708740 114.000000 231.000000 0.989154 0.042311 0.140654
-0.13000000 3.06999993 0.02000000 175 88 124 97.000000 1.000000 4.000000 1.000000 -60.708740 114.000000 231.000000 0.999503 0.011185 -0.029487
-0.09000000 3.04999995 0.01000000 175 88 124 97.000000 1.000000 4.000000 1.000000 -60.708740 114.000000 231.000000 0.948007 -0.314292 0.050030
-0.09000000 3.05999994 0.02000000 175 88 124 97.000000 1.000000 4.000000 1.000000 -60.708740 114.000000 231.000000 0.996164 0.020462 -0.085078
-0.09000000 3.05999994 0.00000000 175 88 124 97.000000 1.000000 4.000000 1.000000 -60.708740 114.000000 231.000000 0.951060 0.297938 -0.081965
-0.12000000 3.02999997 -0.02000000 175 88 124 97.000000 1.000000 4.000000 1.000000 -60.708740 114.000000 231.000000 0.928712 -0.139376 -0.343610
-0.12000000 3.03999996 -0.01000000 175 88 124 97.000000 1.000000 4.000000 1.000000 -60.708740 114.000000 231.000000 -0.690551 0.073833 0.719505
-0.09000000 3.03999996 0.00000000 175 88 124 97.000000 1.000000 4.000000 1.000000 -60.708740 114.000000 231.000000 0.846061 -0.265642 -0.462186
-0.12000000 3.03999996 -0.01000000 175 88 124 97.000000 1.000000 4.000000 1.000000 -60.708740 114.000000 231.000000 -0.690551 0.073833 0.719505
-0.13000000 3.05999994 0.05000000 175 88 124 97.000000 1.000000 4.000000 1.000000 -60.708740 114.000000 231.000000 0.961801 0.268904 -0.051279
-0.15000001 3.05999994 0.03000000 175 88 124 97.000000 1.000000 4.000000 1.000000 -60.708740 114.000000 231.000000 0.905014 -0.352356 -0.238316
-0.13000000 3.05999994 0.02000000 175 88 124 97.000000 1.000000 4.000000 1.000000 -60.708740 114.000000 231.000000 0.971025 0.235142 0.042642
-0.16000000 3.04999995 0.02000000 175 88 124 97.000000 1.000000 4.000000 1.000000 -60.708740 114.000000 231.000000 0.932527 0.021806 -0.360440
-0.14000000 3.01999998 0.02000000 175 88 124 97.000000 1.000000 4.000000 1.000000 -60.708740 114.000000 231.000000 0.989554 -0.028273 -0.141365
-0.19000000 3.15000010 0.09000000 175 88 124 97.000000 1.000000 4.000000 1.000000 -60.708740 114.000000 231.000000 0.377220 0.334109 0.863757
-0.18000001 3.08999991 0.05000000 175 88 124 97.000000 1.000000 4.000000 1.000000 -60.708740 114.000000 231.000000 0.962792 0.210897 -0.168980
-0.28999999 3.29999995 0.25000000 175 88 124 97.000000 1.000000 4.000000 1.000000 -60.708740 114.000000 231.000000 0.038244 0.746472 0.664317
-0.28999999 3.28999996 0.27000001 175 88 124 97.000000 1.000000 4.000000 1.000000 -60.708740 114.000000 231.000000 -0.015310 0.766875 0.641614
-0.27000001 3.25999999 0.25000000 175 88 124 97.000000 1.000000 4.000000 1.000000 -60.708740 114.000000 231.000000 -0.350729 0.369269 0.860598
-0.33000001 3.30999994 0.31000000 175 88 124 97.000000 1.000000 4.000000 1.000000 -60.708740 114.000000 231.000000 -0.472750 0.370187 0.799668
-0.31000000 3.28999996 0.30000001 175 88 124 97.000000 1.000000 4.000000 1.000000 -60.708740 114.000000 231.000000 0.188523 -0.831009 -0.523339
-0.31999999 3.29999995 0.28999999 175 88 124 97.000000 1.000000 4.000000 1.000000 -60.708740 114.000000 231.000000 -0.019082 0.347293 0.937563
-0.30000001 3.28999996 0.30000001 175 88 124 97.000000 1.000000 4.000000 1.000000 -60.708740 114.000000 231.000000 -0.546353 0.479521 0.686701
-0.31999999 3.30999994 0.28999999 175 88 124 97.000000 1.000000 4.000000 1.000000 -60.708740 114.000000 231.000000 0.298979 -0.325753 -0.896937
-0.30000001 3.27999997 0.27000001 175 88 124 97.000000 1.000000 4.000000 1.000000 -60.708740 114.000000 231.000000 -0.528901 0.616770 0.582974
-0.31999999 3.27999997 0.27000001 175 88 124 97.000000 1.000000 4.000000 1.000000 -60.708740 114.000000 231.000000 -0.146230 0.704014 0.694969
-0.31000000 3.25000000 0.30000001 175 88 124 97.000000 1.000000 4.000000 1.000000 -60.708740 114.000000 231.000000 0.111174 0.434846 0.893616
-0.31999999 3.25999999 0.28999999 175 88 124 97.000000 1.000000 4.000000 1.000000 -60.708740 114.000000 231.000000 -0.527236 0.328521 0.783643
-0.30000001 3.25999999 0.28999999 175 88 124 97.000000 1.000000 4.000000 1.000000 -60.708740 114.000000 231.000000 0.247770 0.556313 0.793175
-0.31999999 3.25000000 0.25999999 175 88 124 97.000000 1.000000 4.000000 1.000000 -60.708740 114.000000 231.000000 -0.446731 0.767460 0.459822
-0.31999999 3.24000001 0.23999999 175 88 124 97.000000 1.000000 4.000000 1.000000 -60.708740 114.000000 231.000000 -0.078766 0.574273 0.814866
-0.28000000 3.29999995 0.20000000 175 88 124 97.000000 1.000000 4.000000 1.000000 -60.708740 114.000000 231.000000 -0.271474 0.443254 0.854300
-0.25000000 3.27999997 0.19000000 175 88 124 97.000000 1.000000 4.000000 1.000000 -60.708740 114.000000 231.000000 0.069728 0.818239 0.570633
-0.28000000 3.25999999 0.20000000 175 88 124 97.000000 1.000000 4.000000 1.000000 -60.708740 114.000000 231.000000 -0.406124 0.409309 0.817025
-0.28999999 3.25999999 0.20000000 175 88 124 97.000000 1.000000 4.000000 1.000000 -60.708740 114.000000 231.000000 0.030947 0.456125 0.889377
-0.28999999 3.26999998 0.19000000 175 88 124 97.000000 1.000000 4.000000 1.000000 -60.708740 114.000000 231.000000 0.135545 0.779010 0.612186
-0.31999999 3.29999995 0.17000000 175 88 124 97.000000 1.000000 4.000000 1.000000 -60.708740 114.000000 231.000000 -0.199266 0.855493 0.477938
-0.30000001 3.27999997 0.16000000 175 88 124 97.000000 1.000000 4.000000 1.000000 -60.708740 114.000000 231.000000 -0.133967 0.543228 0.828828
-0.33000001 3.25000000 0.22000000 175 88 124 97.000000 1.000000 4.000000 1.000000 -60.708740 114.000000 231.000000 -0.012405 0.806343 0.591318
-0.31999999 3.26999998 0.17000000 175 88 124 97.000000 1.000000 4.000000 1.000000 -60.708740 114.000000 231.000000 0.095187 0.642878 0.760031
-0.25000000 3.19000006 0.28999999 175 88 124 97.000000 1.000000 4.000000 1.000000 -60.708740 114.000000 231.000000 0.179632 0.683214 0.707779
-0.30000001 3.21000004 0.28000000 175 88 124 97.000000 1.000000 4.000000 1.000000 -60.708740 114.000000 231.000000 -0.351403 0.707710 0.612913
-0.31000000 3.20000005 0.25000000 175 88 124 97.000000 1.000000 4.000000 1.000000 -60.708740 114.000000 231.000000 0.591894 -0.445171 -0.671925
-0.30000001 3.18000007 0.23999999 175 88 124 97.000000 1.000000 4.000000 1.000000 -60.708740 114.000000 231.000000 -0.149985 0.323363 0.934313
-0.28000000 3.20000005 0.17000000 175 88 124 97.000000 1.000000 4.000000 1.000000 -60.708740 114.000000 231.000000 -0.098385 0.682818 0.723934
-0.36000001 3.24000001 0.25000000 175 88 124 97.000000 1.000000 4.000000 1.000000 -60.708740 114.000000 231.000000 -0.368817 0.422636 0.827860
-0.34999999 3.24000001 0.25000000 175 88 124 97.000000 1.000000 4.000000 1.000000 -60.708740 114.000000 231.000000 -0.181898 0.373822 0.909489
-0.34000000 3.27999997 0.20000000 175 88 124 97.000000 1.000000 4.000000 1.000000 -60.708740 114.000000 231.000000 0.581270 -0.434704 -0.687864
-0.36000001 3.26999998 0.20999999 175 88 124 97.000000 1.000000 4.000000 1.000000 -60.708740 114.000000 231.000000 0.687469 -0.513511 -0.513511
-0.38999999 3.29999995 0.20000000 175 88 124 97.000000 1.000000 4.000000 1.000000 -60.708740 114.000000 231.000000 0.599892 -0.603272 -0.525540
-0.38000000 3.27999997 0.22000000 175 88 124 97.000000 1.000000 4.000000 1.000000 -60.708740 114.000000 231.000000 0.049773 -0.647052 -0.760819
-0.41000000 3.25000000 0.18000001 175 88 124 97.000000 1.000000 4.000000 1.000000 -60.708740 114.000000 231.000000 -0.744209 0.603973 0.285254
-0.30000001 3.29999995 0.11000000 175 88 124 97.000000 1.000000 4.000000 1.000000 -60.708740 114.000000 231.000000 -0.099541 0.444432 0.890265
-0.31999999 3.25999999 0.13000000 175 88 124 97.000000 1.000000 4.000000 1.000000 -60.708740 114.000000 231.000000 -0.422294 0.272890 0.864407
-0.31999999 3.26999998 0.09000000 175 88 124 97.000000 1.000000 4.000000 1.000000 -60.708740 114.000000 231.000000 -0.236912 0.375233 0.896144
-0.30000001 3.25999999 0.10000000 175 88 124 97.000000 1.000000 4.000000 1.000000 -60.708740 114.000000 231.000000 0.498040 -0.682499 -0.534932
-0.27000001 3.27999997 0.03000000 175 88 124 97.000000 1.000000 4.000000 1.000000 -60.708740 114.000000 231.000000 -0.269416 0.556163 0.786191
-0.25999999 3.26999998 0.04000000 175 88 124 97.000000 1.000000 4.000000 1.000000 -60.708740 114.000000 231.000000 -0.303465 0.414377 0.858021
-0.25999999 3.25000000 0.01000000 175 88 124 97.000000 1.000000 4.000000 1.000000 -60.708740 114.000000 231.000000 0.278633 0.733999 0.619362
-0.25999999 3.25000000 0.01000000 175 88 124 97.000000 1.000000 4.000000 1.000000 -60.708740 114.000000 231.000000 0.278633 0.733999 0.619362
-0.33000001 3.30999994 0.05000000 175 88 124 97.000000 1.000000 4.000000 1.000000 -60.708740 114.000000 231.000000 -0.543337 0.355196 0.760671
-0.31999999 3.28999996 0.02000000 175 88 124 97.000000 1.000000 4.000000 1.000000 -60.708740 114.000000 231.000000 -0.257596 0.627396 0.734859
-0.30000001 3.25999999 0.06000000 175 88 124 97.000000 1.000000 4.000000 1.000000 -60.708740 114.000000 231.000000 -0.376562 0.626507 0.682415
-0.30000001 3.25999999 0.06000000 175 88 124 97.000000 1.000000 4.000000 1.000000 -60.708740 114.000000 231.000000 -0.376562 0.626507 0.682415
-0.28999999 3.23000002 0.12000000 175 88 124 97.000000 1.000000 4.000000 1.000000 -60.708740 114.000000 231.000000 -0.034963 0.801353 0.597169
-0.25999999 3.20000005 0.09000000 175 88 124 97.000000 1.000000 4.000000 1.000000 -60.708740 114.000000 231.000000 0.029550 0.654323 0.755638
-0.31999999 3.21000004 0.07000000 175 88 124 97.000000 1.000000 4.000000 1.000000 -60.708740 114.000000 231.000000 -0.626373 0.623014 0.468520
-0.28999999 3.22000003 0.05000000 175 88 124 97.000000 1.000000 4.000000 1.000000 -60.708740 114.000000 231.000000 -0.236223 0.599161 0.764987
-0.28999999 3.22000003 0.05000000 175 88 124 97.000000 1.000000 4.000000 1.000000 -60.708740 114.000000 231.000000 -0.236223 0.599161 0.764987
-0.28000000 3.18000007 -0.02000000 175 88 124 97.000000 1.000000 4.000000 1.000000 -60.708740 114.000000 231.000000 0.917051 -0.114459 -0.381990
-0.34999999 3.27999997 0.10000000 175 88 124 97.000000 1.000000 4.000000 1.000000 -60.708740 114.000000 231.000000 -0.715605 0.297499 0.631984
-0.34000000 3.25000000 0.11000000 175 88 124 97.000000 1.000000 4.000000 1.000000 -60.708740 114.000000 231.000000 0.732125 -0.336031 -0.592518
-0.38999999 3.27999997 0.08000000 175 88 124 97.000000 1.000000 4.000000 1.000000 -60.708740 114.000000 231.000000 -0.630212 0.095044 0.770584
-0.38999999 3.25999999 0.09000000 175 88 124 97.000000 1.000000 4.000000 1.000000 -60.708740 114.000000 231.000000 -0.728442 0.402863 0.554142
-0.40000001 3.29999995 0.04000000 175 88 124 97.000000 1.000000 4.000000 1.000000 -60.708740 114.000000 231.000000 0.454988 -0.688315 -0.564985
-0.38999999 3.26999998 0.03000000 175 88 124 97.000000 1.000000 4.000000 1.000000 -60.708740 114.000000 231.000000 0.805986 -0.260347 -0.531608
-0.40000001 3.25000000 0.00000000 175 88 124 97.000000 1.000000 4.000000 1.000000 -60.708740 114.000000 231.000000 0.929686 -0.267444 -0.253293
-0.40000001 3.19000006 0.08000000 175 88 124 97.000000 1.000000 4.000000 1.000000 -60.708740 114.000000 231.000000 0.878175 -0.070753 -0.473077
-0.31999999 3.15000010 0.27000001 175 88 124 97.000000 1.000000 4.000000 1.000000 -60.708740 114.000000 231.000000 -0.148711 0.608361 0.779604
-0.25000000 3.11999989 0.19000000 175 88 124 97.000000 1.000000 4.000000 1.000000 -60.708740 114.000000 231.000000 -0.271011 0.378816 0.884902
-0.27000001 3.14000010 0.23000000 175 88 124 97.000000 1.000000 4.000000 1.000000 -60.708740 114.000000 231.000000 0.008611 0.293988 0.955770
-0.25000000 3.13000011 0.23000000 175 88 124 97.000000 1.000000 4.000000 1.000000 -60.708740 114.000000 231.000000 0.054593 0.288200 0.956013
-0.28999999 3.15000010 0.15000001 175 88 124 97.000000 1.000000 4.000000 1.000000 -60.708740 114.000000 231.000000 -0.289992 0.493770 0.819815
-0.25000000 3.06999993 0.22000000 175 88 124 97.000000 1.000000 4.000000 1.000000 -60.708740 114.000000 231.000000 -0.020242 0.487147 0.873086
-0.33000001 3.05999994 0.25999999 175 88 124 97.000000 1.000000 4.000000 1.000000 -60.708740 114.000000 231.000000 0.662804 -0.301568 -0.685381
-0.34999999 3.10999990 0.25999999 175 88 124 97.000000 1.000000 4.000000 1.000000 -60.708740 114.000000 231.000000 -0.534678 0.645999 0.544798
-0.34999999 3.07999992 0.31000000 175 88 124 97.000000 1.000000 4.000000 1.000000 -60.708740 114.000000 231.000000 0.649039 -0.391405 -0.652342
-0.36000001 3.07999992 0.28999999 175 88 124 97.000000 1.000000 4.000000 1.000000 -60.708740 114.000000 231.000000 0.781269 -0.407689 -0.472660
-0.37000000 3.06999993 0.25000000 175 88 124 97.000000 1.000000 4.000000 1.000000 -60.708740 114.000000 231.000000 -0.580131 0.607193 0.542922
-0.36000001 3.09999990 0.25999999 175 88 124 97.000000 1.000000 4.000000 1.000000 -60.708740 114.000000 231.000000 0.534310 -0.467729 -0.704090
-0.41000000 3.08999991 0.27000001 175 88 124 97.000000 1.000000 4.000000 1.000000 -60.708740 114.000000 231.000000 0.733877 -0.433729 -0.522784
-0.37000000 3.09999990 0.17000000 175 88 124 97.000000 1.000000 4.000000 1.000000 -60.708740 114.000000 231.000000 0.896004 -0.119938 -0.427542
-0.38000000 3.09999990 0.17000000 175 88 124 97.000000 1.000000 4.000000 1.000000 -60.708740 114.000000 231.000000 0.860095 -0.263357 -0.436898
-0.36000001 3.03999996 0.28999999 175 88 124 97.000000 1.000000 4.000000 1.000000 -60.708740 114.000000 231.000000 -0.553441 0.220452 0.803184
-0.36000001 3.03999996 0.28999999 175 88 124 97.000000 1.000000 4.000000 1.000000 -60.708740 114.000000 231.000000 -0.553441 0.220452 0.803184
-0.36000001 3.05999994 0.28999999 175 88 124 97.000000 1.000000 4.000000 1.000000 -60.708740 114.000000 231.000000 0.838213 -0.369569 -0.401021
-0.36000001 3.05999994 0.28999999 175 88 124 97.000000 1.000000 4.000000 1.000000 -60.708740 114.000000 231.000000 0.838213 -0.369569 -0.401021
-0.36000001 3.05999994 0.25999999 175 88 124 97.000000 1.000000 4.000000 1.000000 -60.708740 114.000000 231.000000 0.315297 -0.622509 -0.716290
-0.38000000 3.00999999 0.28000000 175 88 124 97.000000 1.000000 4.000000 1.000000 -60.708740 114.000000 231.000000 0.616885 -0.336927 -0.711290
-0.40000001 3.01999998 0.30000001 175 88 124 97.000000 1.000000 4.000000 1.000000 -60.708740 114.000000 231.000000 -0.587711 0.371617 0.718677
-0.36000001 3.02999997 0.20000000 175 88 124 97.000000 1.000000 4.000000 1.000000 -60.708740 114.000000 231.000000 -0.648328 0.070753 0.758067
-0.37000000 3.05999994 0.18000001 175 88 124 97.000000 1.000000 4.000000 1.000000 -60.708740 114.000000 231.000000 0.713468 -0.169582 -0.679857
