//X Y Z R G B PointSourceId ScanDirectionFlag NumberOfReturns ReturnNumber GpsTime Intensity Classification Nx Ny Nz
4.86999989 -11.22999954 0.22000000 207 152 76 0.000000 0.000000 0.000000 0.000000 -60.708740 0.000000 179.000000 0.130653 0.991423 0.003294
4.86999989 -11.23999977 0.20999999 207 152 76 0.000000 0.000000 0.000000 0.000000 -60.708740 0.000000 179.000000 0.014983 0.999847 0.008990
4.92999983 -11.26000023 0.07000000 207 152 76 0.000000 0.000000 0.000000 0.000000 -60.708740 0.000000 179.000000 -0.333684 0.925023 -0.181625
4.90999985 -11.25000000 0.11000000 207 152 76 0.000000 0.000000 0.000000 0.000000 -60.708740 0.000000 179.000000 -0.430916 0.901007 0.049981
4.80999994 -11.18999958 0.14000000 207 152 76 0.000000 0.000000 0.000000 0.000000 -60.708740 0.000000 179.000000 0.481875 0.854844 -0.192452
4.82000017 -11.18999958 0.09000000 207 152 76 0.000000 0.000000 0.000000 0.000000 -60.708740 0.000000 179.000000 -0.088814 -0.761473 0.642083
4.80999994 -11.14999962 0.03000000 207 152 76 0.000000 0.000000 0.000000 0.000000 -60.708740 0.000000 179.000000 0.510726 0.835045 -0.204594
4.84999990 -11.21000004 0.01000000 207 152 76 0.000000 0.000000 0.000000 0.000000 -60.708740 0.000000 179.000000 -0.130788 0.985110 0.111590
4.86000013 -11.21000004 0.01000000 207 152 76 0.000000 0.000000 0.000000 0.000000 -60.708740 0.000000 179.000000 -0.165559 0.979865 -0.111599
4.86999989 -11.27999973 0.02000000 207 152 76 0.000000 0.000000 0.000000 0.000000 -60.708740 0.000000 179.000000 -0.566518 0.762312 -0.312949
4.88000011 -11.30000019 0.25999999 207 152 76 0.000000 0.000000 0.000000 0.000000 -60.708740 0.000000 179.000000 -0.190399 0.847052 -0.496237
4.84999990 -11.30000019 0.28000000 207 152 76 0.000000 0.000000 0.000000 0.000000 -60.708740 0.000000 179.000000 0.311343 0.774366 -0.550838
4.84999990 -11.31999969 0.16000000 207 152 76 0.000000 0.000000 0.000000 0.000000 -60.708740 0.000000 179.000000 -0.322555 0.902859 -0.284261
4.88000011 -11.30000019 0.08000000 207 152 76 0.000000 0.000000 0.000000 0.000000 -60.708740 0.000000 179.000000 -0.064248 0.996387 0.055536
4.88000011 -11.35000038 0.10000000 207 152 76 0.000000 0.000000 0.000000 0.000000 -60.708740 0.000000 179.000000 -0.019359 0.999538 -0.023435
4.88000011 -11.32999992 0.07000000 207 152 76 0.000000 0.000000 0.000000 0.000000 -60.708740 0.000000 179.000000 -0.116712 0.990321 -0.075112
4.88000011 -11.32999992 0.06000000 207 152 76 0.000000 0.000000 0.000000 0.000000 -60.708740 0.000000 179.000000 -0.322777 0.941765 -0.094309
4.84999990 -11.31999969 0.14000000 207 152 76 0.000000 0.000000 0.000000 0.000000 -60.708740 0.000000 179.000000 -0.222170 0.967018 -0.124569
4.84999990 -11.31999969 0.09000000 207 152 76 0.000000 0.000000 0.000000 0.000000 -60.708740 0.000000 179.000000 -0.437383 0.782087 -0.443887
4.86999989 -11.35000038 0.10000000 207 152 76 0.000000 0.000000 0.000000 0.000000 -60.708740 0.000000 179.000000 0.059391 0.959108 -0.276739
4.82999992 -11.35999966 0.09000000 207 152 76 0.000000 0.000000 0.000000 0.000000 -60.708740 0.000000 179.000000 0.329812 0.943592 -0.029288
4.86000013 -11.35000038 0.09000000 207 152 76 0.000000 0.000000 0.000000 0.000000 -60.708740 0.000000 179.000000 0.171957 0.985051 -0.010249
4.86000013 -11.35000038 0.07000000 207 152 76 0.000000 0.000000 0.000000 0.000000 -60.708740 0.000000 179.000000 -0.108765 0.966093 -0.234166
4.84000015 -11.31999969 -0.02000000 207 152 76 0.000000 0.000000 0.000000 0.000000 -60.708740 0.000000 179.000000 -0.116878 0.984424 0.131337
4.82999992 -11.31999969 0.02000000 207 152 76 0.000000 0.000000 0.000000 0.000000 -60.708740 0.000000 179.000000 -0.293917 0.946171 -0.135551
4.86000013 -11.32999992 0.03000000 207 152 76 0.000000 0.000000 0.000000 0.000000 -60.708740 0.000000 179.000000 -0.205948 0.978546 0.005818
4.84999990 -11.35999966 -0.02000000 207 152 76 0.000000 0.000000 0.000000 0.000000 -60.708740 0.000000 179.000000 0.033574 0.985237 -0.167872
4.82999992 -11.35000038 0.01000000 207 152 76 0.000000 0.000000 0.000000 0.000000 -60.708740 0.000000 179.000000 0.025006 0.912055 -0.409306
4.86000013 -11.32999992 0.02000000 207 152 76 0.000000 0.000000 0.000000 0.000000 -60.708740 0.000000 179.000000 -0.101915 0.961097 -0.256722
4.80999994 -11.30000019 0.04000000 207 152 76 0.000000 0.000000 0.000000 0.000000 -60.708740 0.000000 179.000000 -0.181075 0.842525 -0.507311
4.80000019 -11.34000015 0.04000000 207 152 76 0.000000 0.000000 0.000000 0.000000 -60.708740 0.000000 179.000000 -0.158465 0.946724 -0.280360
4.80999994 -11.32999992 0.04000000 207 152 76 0.000000 0.000000 0.000000 0.000000 -60.708740 0.000000 179.000000 -0.370386 0.910950 -0.181618
4.82999992 -11.36999989 0.12000000 207 152 76 0.000000 0.000000 0.000000 0.000000 -60.708740 0.000000 179.000000 -0.231430 0.790591 -0.566927
4.82000017 -11.36999989 0.02000000 207 152 76 0.000000 0.000000 0.000000 0.000000 -60.708740 0.000000 179.000000 -0.030484 0.990155 0.136612
4.76999998 -11.17000008 0.23999999 207 152 76 0.000000 0.000000 0.000000 0.000000 -60.708740 0.000000 179.000000 0.433843 0.740667 -0.513023
4.73000002 -11.19999981 0.23999999 207 152 76 0.000000 0.000000 0.000000 0.000000 -60.708740 0.000000 179.000000 0.923808 0.382221 -0.022026
4.78000021 -11.18999958 0.22000000 207 152 76 0.000000 0.000000 0.000000 0.000000 -60.708740 0.000000 179.000000 0.362902 0.779029 -0.511288
4.71000004 -11.19999981 0.16000000 207 152 76 0.000000 0.000000 0.000000 0.000000 -60.708740 0.000000 179.000000 0.651701 0.709064 -0.269285
4.76000023 -11.23999977 0.25000000 207 152 76 0.000000 0.000000 0.000000 0.000000 -60.708740 0.000000 179.000000 0.191605 0.828279 -0.526538
4.69000006 -11.25000000 0.25999999 207 152 76 0.000000 0.000000 0.000000 0.000000 -60.708740 0.000000 179.000000 0.634881 0.772599 -0.004132
4.69999981 -11.27000046 0.17000000 207 152 76 0.000000 0.000000 0.000000 0.000000 -60.708740 0.000000 179.000000 0.719460 0.694216 -0.021037
4.65000010 -11.22000027 0.19000000 207 152 76 0.000000 0.000000 0.000000 0.000000 -60.708740 0.000000 179.000000 0.702781 0.358762 -0.614319
4.75000000 -11.19999981 0.12000000 207 152 76 0.000000 0.000000 0.000000 0.000000 -60.708740 0.000000 179.000000 0.729586 0.346106 -0.589843
4.75000000 -11.17000008 0.09000000 207 152 76 0.000000 0.000000 0.000000 0.000000 -60.708740 0.000000 179.000000 0.913260 0.150568 -0.378531
4.73000002 -11.19999981 0.11000000 207 152 76 0.000000 0.000000 0.000000 0.000000 -60.708740 0.000000 179.000000 0.785663 0.429280 -0.445479
4.76000023 -11.18999958 0.03000000 207 152 76 0.000000 0.000000 0.000000 0.000000 -60.708740 0.000000 179.000000 0.548355 0.695028 -0.465019
4.76000023 -11.15999985 -0.01000000 207 152 76 0.000000 0.000000 0.000000 0.000000 -60.708740 0.000000 179.000000 0.896916 0.429568 -0.104943
4.76000023 -11.15999985 -0.02000000 207 152 76 0.000000 0.000000 0.000000 0.000000 -60.708740 0.000000 179.000000 0.982787 -0.172732 -0.065519
4.76000023 -11.15999985 -0.01000000 207 152 76 0.000000 0.000000 0.000000 0.000000 -60.708740 0.000000 179.000000 0.896916 0.429568 -0.104943
4.73999977 -11.15999985 0.05000000 207 152 76 0.000000 0.000000 0.000000 0.000000 -60.708740 0.000000 179.000000 0.753059 0.493836 -0.434773
4.65000010 -11.27999973 -0.01000000 207 152 76 0.000000 0.000000 0.000000 0.000000 -60.708740 0.000000 179.000000 0.659784 0.439299 -0.609674
4.76000023 -11.39000034 0.18000001 207 152 76 0.000000 0.000000 0.000000 0.000000 -60.708740 0.000000 179.000000 -0.091145 0.944470 -0.315704
4.75000000 -11.43000031 0.22000000 207 152 76 0.000000 0.000000 0.000000 0.000000 -60.708740 0.000000 179.000000 0.211569 0.880306 -0.424618
4.73000002 -11.38000011 0.15000001 207 152 76 0.000000 0.000000 0.000000 0.000000 -60.708740 0.000000 179.000000 0.480337 0.674480 -0.560672
4.71000004 -11.43999958 0.18000001 207 152 76 0.000000 0.000000 0.000000 0.000000 -60.708740 0.000000 179.000000 -0.055191 0.948513 -0.311893
4.69999981 -11.43999958 0.18000001 207 152 76 0.000000 0.000000 0.000000 0.000000 -60.708740 0.000000 179.000000 -0.006394 0.927129 -0.374688
4.71999979 -11.31999969 0.01000000 207 152 76 0.000000 0.000000 0.000000 0.000000 -60.708740 0.000000 179.000000 0.496328 0.865428 -0.068507
4.71000004 -11.35000038 -0.02000000 207 152 76 0.000000 0.000000 0.000000 0.000000 -60.708740 0.000000 179.000000 0.231545 0.967933 -0.097426
4.71999979 -11.32999992 0.00000000 207 152 76 0.000000 0.000000 0.000000 0.000000 -60.708740 0.000000 179.000000 0.439396 0.894039 -0.087325
4.75000000 -11.38000011 0.09000000 207 152 76 0.000000 0.000000 0.000000 0.000000 -60.708740 0.000000 179.000000 -0.083297 0.981458 -0.172630
4.76999998 -11.39999962 0.06000000 207 152 76 0.000000 0.000000 0.000000 0.000000 -60.708740 0.000000 179.000000 -0.158023 0.882899 -0.442174
4.65000010 -11.31999969 0.09000000 207 152 76 0.000000 0.000000 0.000000 0.000000 -60.708740 0.000000 179.000000 0.780627 0.420338 -0.462534
4.69000006 -11.35999966 0.05000000 207 152 76 0.000000 0.000000 0.000000 0.000000 -60.708740 0.000000 179.000000 0.460512 0.779454 -0.424713
4.67999983 -11.35999966 0.02000000 207 152 76 0.000000 0.000000 0.000000 0.000000 -60.708740 0.000000 179.000000 0.441474 0.892696 0.090523
4.63000011 -11.30000019 0.05000000 207 152 76 0.000000 0.000000 0.000000 0.000000 -60.708740 0.000000 179.000000 0.775911 0.510255 -0.370947
4.65000010 -11.31999969 0.03000000 207 152 76 0.000000 0.000000 0.000000 0.000000 -60.708740 0.000000 179.000000 0.689784 0.614056 -0.383579
4.61999989 -11.28999996 0.06000000 207 152 76 0.000000 0.000000 0.000000 0.000000 -60.708740 0.000000 179.000000 0.782054 0.335625 -0.525116
4.69999981 -11.36999989 0.13000000 207 152 76 0.000000 0.000000 0.000000 0.000000 -60.708740 0.000000 179.000000 0.518730 0.782111 -0.345285
4.63999987 -11.38000011 0.12000000 207 152 76 0.000000 0.000000 0.000000 0.000000 -60.708740 0.000000 179.000000 0.510294 0.858788 -0.045636
4.65999985 -11.38000011 0.07000000 207 152 76 0.000000 0.000000 0.000000 0.000000 -60.708740 0.000000 179.000000 0.513277 0.834264 -0.201374
4.69999981 -11.36999989 0.00000000 207 152 76 0.000000 0.000000 0.000000 0.000000 -60.708740 0.000000 179.000000 0.268680 0.954276 -0.131031
4.69000006 -11.38000011 0.05000000 207 152 76 0.000000 0.000000 0.000000 0.000000 -60.708740 0.000000 179.000000 0.233144 0.845719 -0.480003
4.67999983 -11.48999977 0.28999999 207 152 76 0.000000 0.000000 0.000000 0.000000 -60.708740 0.000000 179.000000 0.334107 0.818642 -0.467117
4.69000006 -11.48999977 0.19000000 207 152 76 0.000000 0.000000 0.000000 0.000000 -60.708740 0.000000 179.000000 -0.126892 -0.741944 0.658345
4.67000008 -11.47999954 0.17000000 207 152 76 0.000000 0.000000 0.000000 0.000000 -60.708740 0.000000 179.000000 0.262357 0.921833 -0.285295
4.63999987 -11.51000023 0.20000000 207 152 76 0.000000 0.000000 0.000000 0.000000 -60.708740 0.000000 179.000000 0.106168 0.821711 -0.559927
4.59000015 -11.27999973 0.25000000 207 152 76 0.000000 0.000000 0.000000 0.000000 -60.708740 0.000000 179.000000 0.675449 0.507844 -0.534661
4.53999996 -11.35999966 0.17000000 207 152 76 0.000000 0.000000 0.000000 0.000000 -60.708740 0.000000 179.000000 0.781723 0.279525 -0.557471
4.53000021 -11.34000015 0.31000000 207 152 76 0.000000 0.000000 0.000000 0.000000 -60.708740 0.000000 179.000000 0.647420 0.759391 -0.064598
4.90000010 -10.93999958 -0.28000000 207 152 76 0.000000 0.000000 0.000000 0.000000 -60.708740 0.000000 179.000000 0.678693 0.655907 -0.330395
4.94999981 -11.03999996 -0.05000000 207 152 76 0.000000 0.000000 0.000000 0.000000 -60.708740 0.000000 179.000000 0.645485 0.567959 -0.510658
4.92000008 -10.97000027 -0.23000000 207 152 76 0.000000 0.000000 0.000000 0.000000 -60.708740 0.000000 179.000000 0.593866 0.590482 -0.546492
4.88000011 -11.23999977 -0.15000001 207 152 76 0.000000 0.000000 0.000000 0.000000 -60.708740 0.000000 179.000000 -0.700928 0.656222 -0.279413
4.78999996 -11.14999962 -0.03000000 207 152 76 0.000000 0.000000 0.000000 0.000000 -60.708740 0.000000 179.000000 0.847307 -0.004054 -0.531087
4.78999996 -11.14000034 -0.04000000 207 152 76 0.000000 0.000000 0.000000 0.000000 -60.708740 0.000000 179.000000 0.662906 -0.704041 0.254720
4.86000013 -11.15999985 -0.15000001 207 152 76 0.000000 0.000000 0.000000 0.000000 -60.708740 0.000000 179.000000 0.938545 0.169021 -0.300939
4.86000013 -11.17000008 -0.15000001 207 152 76 0.000000 0.000000 0.000000 0.000000 -60.708740 0.000000 179.000000 0.970983 0.177822 -0.159912
4.82999992 -11.19999981 -0.18000001 207 152 76 0.000000 0.000000 0.000000 0.000000 -60.708740 0.000000 179.000000 0.969269 0.076291 -0.233875
4.86999989 -11.19999981 -0.15000001 207 152 76 0.000000 0.000000 0.000000 0.000000 -60.708740 0.000000 179.000000 0.974473 0.077613 -0.210664
4.84000015 -11.19999981 -0.15000001 207 152 76 0.000000 0.000000 0.000000 0.000000 -60.708740 0.000000 179.000000 0.975963 0.052003 -0.211640
4.84000015 -11.19999981 -0.18000001 207 152 76 0.000000 0.000000 0.000000 0.000000 -60.708740 0.000000 179.000000 0.991834 0.055670 -0.114748
4.78999996 -11.11999989 -0.13000000 207 152 76 0.000000 0.000000 0.000000 0.000000 -60.708740 0.000000 179.000000 0.149127 0.904703 -0.399092
4.78999996 -11.13000011 -0.17000000 207 152 76 0.000000 0.000000 0.000000 0.000000 -60.708740 0.000000 179.000000 0.205922 0.819113 -0.535398
4.82000017 -11.15999985 -0.14000000 207 152 76 0.000000 0.000000 0.000000 0.000000 -60.708740 0.000000 179.000000 0.903200 0.419096 0.092671
4.86000013 -11.27000046 -0.05000000 207 152 76 0.000000 0.000000 0.000000 0.000000 -60.708740 0.000000 179.000000 -0.356522 0.886041 -0.296350
4.86000013 -11.22999954 -0.13000000 207 152 76 0.000000 0.000000 0.000000 0.000000 -60.708740 0.000000 179.000000 0.890716 -0.394396 0.226002
4.86000013 -11.23999977 -0.17000000 207 152 76 0.000000 0.000000 0.000000 0.000000 -60.708740 0.000000 179.000000 0.845565 -0.351668 -0.401683
4.86000013 -11.27999973 -0.16000000 207 152 76 0.000000 0.000000 0.000000 0.000000 -60.708740 0.000000 179.000000 0.651444 -0.674301 0.347763
4.86999989 -11.27999973 -0.17000000 207 152 76 0.000000 0.000000 0.000000 0.000000 -60.708740 0.000000 179.000000 0.924606 -0.380871 0.006412
4.82000017 -11.11999989 -0.20000000 207 152 76 0.000000 0.000000 0.000000 0.000000 -60.708740 0.000000 179.000000 0.421393 0.644582 -0.637920
4.78999996 -11.14000034 -0.25999999 207 152 76 0.000000 0.000000 0.000000 0.000000 -60.708740 0.000000 179.000000 0.008534 0.959486 -0.281628
4.80000019 -11.14000034 -0.27000001 207 152 76 0.000000 0.000000 0.000000 0.000000 -60.708740 0.000000 179.000000 0.321513 0.829660 -0.456392
4.82000017 -11.15999985 -0.20000000 207 152 76 0.000000 0.000000 0.000000 0.000000 -60.708740 0.000000 179.000000 0.778177 0.420768 -0.466256
4.80999994 -11.15999985 -0.20999999 207 152 76 0.000000 0.000000 0.000000 0.000000 -60.708740 0.000000 179.000000 0.812586 0.397513 -0.426248
4.80999994 -11.18999958 -0.23999999 207 152 76 0.000000 0.000000 0.000000 0.000000 -60.708740 0.000000 179.000000 0.976981 0.182486 -0.110485
4.80000019 -11.18999958 -0.28000000 207 152 76 0.000000 0.000000 0.000000 0.000000 -60.708740 0.000000 179.000000 0.849354 0.498307 -0.174036
4.78999996 -11.18000031 -0.34999999 207 152 76 0.000000 0.000000 0.000000 0.000000 -60.708740 0.000000 179.000000 0.722778 0.421758 -0.547459
4.82999992 -11.21000004 -0.22000000 207 152 76 0.000000 0.000000 0.000000 0.000000 -60.708740 0.000000 179.000000 0.939205 0.189501 -0.286326
4.84999990 -11.22000027 -0.23999999 207 152 76 0.000000 0.000000 0.000000 0.000000 -60.708740 0.000000 179.000000 0.899114 0.084249 -0.429531
4.84000015 -11.25000000 -0.19000000 207 152 76 0.000000 0.000000 0.000000 0.000000 -60.708740 0.000000 179.000000 -0.620577 0.748757 -0.232912
4.82000017 -11.23999977 -0.23000000 207 152 76 0.000000 0.000000 0.000000 0.000000 -60.708740 0.000000 179.000000 0.949911 -0.312519 -0.001235
4.84999990 -11.25000000 -0.28999999 207 152 76 0.000000 0.000000 0.000000 0.000000 -60.708740 0.000000 179.000000 0.928628 -0.267955 0.256613
4.82000017 -11.23999977 -0.30000001 207 152 76 0.000000 0.000000 0.000000 0.000000 -60.708740 0.000000 179.000000 0.994891 -0.027302 -0.097196
4.80999994 -11.22999954 -0.31000000 207 152 76 0.000000 0.000000 0.000000 0.000000 -60.708740 0.000000 179.000000 0.854001 -0.429309 -0.293899
4.80999994 -11.22999954 -0.31000000 207 152 76 0.000000 0.000000 0.000000 0.000000 -60.708740 0.000000 179.000000 0.854001 -0.429309 -0.293899
4.80999994 -11.22999954 -0.34000000 207 152 76 0.000000 0.000000 0.000000 0.000000 -60.708740 0.000000 179.000000 0.844909 -0.014966 -0.534701
4.80000019 -11.23999977 -0.33000001 207 152 76 0.000000 0.000000 0.000000 0.000000 -60.708740 0.000000 179.000000 0.951916 -0.279352 -0.125775
4.80000019 -11.22000027 -0.34999999 207 152 76 0.000000 0.000000 0.000000 0.000000 -60.708740 0.000000 179.000000 0.971163 -0.025272 -0.237074
4.80999994 -11.27999973 -0.30000001 207 152 76 0.000000 0.000000 0.000000 0.000000 -60.708740 0.000000 179.000000 0.726870 -0.617760 0.300055
4.82000017 -11.27000046 -0.33000001 207 152 76 0.000000 0.000000 0.000000 0.000000 -60.708740 0.000000 179.000000 0.830804 -0.538621 0.140189
4.82000017 -11.25000000 -0.33000001 207 152 76 0.000000 0.000000 0.000000 0.000000 -60.708740 0.000000 179.000000 0.840403 -0.537121 0.072277
4.80999994 -11.27999973 -0.34999999 207 152 76 0.000000 0.000000 0.000000 0.000000 -60.708740 0.000000 179.000000 0.798397 -0.573325 0.184012
4.84000015 -11.31000042 -0.09000000 207 152 76 0.000000 0.000000 0.000000 0.000000 -60.708740 0.000000 179.000000 0.010420 0.980616 -0.195660
4.80000019 -11.31000042 -0.07000000 207 152 76 0.000000 0.000000 0.000000 0.000000 -60.708740 0.000000 179.000000 -0.204524 0.887253 -0.413463
4.80999994 -11.31999969 -0.07000000 207 152 76 0.000000 0.000000 0.000000 0.000000 -60.708740 0.000000 179.000000 -0.098280 0.981586 -0.163800
4.80000019 -11.31999969 -0.08000000 207 152 76 0.000000 0.000000 0.000000 0.000000 -60.708740 0.000000 179.000000 -0.117249 0.920061 -0.373818
4.84000015 -11.28999996 -0.14000000 207 152 76 0.000000 0.000000 0.000000 0.000000 -60.708740 0.000000 179.000000 0.795442 -0.605319 0.029357
4.80999994 -11.30000019 -0.13000000 207 152 76 0.000000 0.000000 0.000000 0.000000 -60.708740 0.000000 179.000000 -0.112319 0.993074 0.034474
4.80000019 -11.31000042 -0.17000000 207 152 76 0.000000 0.000000 0.000000 0.000000 -60.708740 0.000000 179.000000 -0.272734 0.911545 -0.307737
4.80000019 -11.32999992 -0.14000000 207 152 76 0.000000 0.000000 0.000000 0.000000 -60.708740 0.000000 179.000000 -0.060002 0.953642 -0.294901
4.80000019 -11.36999989 -0.04000000 207 152 76 0.000000 0.000000 0.000000 0.000000 -60.708740 0.000000 179.000000 -0.246242 0.842729 -0.478719
4.78999996 -11.36999989 -0.04000000 207 152 76 0.000000 0.000000 0.000000 0.000000 -60.708740 0.000000 179.000000 0.346916 0.933593 -0.089743
4.84000015 -11.28999996 -0.20000000 207 152 76 0.000000 0.000000 0.000000 0.000000 -60.708740 0.000000 179.000000 0.861692 -0.504844 -0.051176
4.82999992 -11.31000042 -0.23000000 207 152 76 0.000000 0.000000 0.000000 0.000000 -60.708740 0.000000 179.000000 -0.425582 0.890115 -0.163019
4.80000019 -11.31000042 -0.20999999 207 152 76 0.000000 0.000000 0.000000 0.000000 -60.708740 0.000000 179.000000 -0.078314 0.996623 0.024674
4.80999994 -11.28999996 -0.27000001 207 152 76 0.000000 0.000000 0.000000 0.000000 -60.708740 0.000000 179.000000 -0.652181 0.675065 -0.344888
4.73999977 -11.13000011 -0.05000000 207 152 76 0.000000 0.000000 0.000000 0.000000 -60.708740 0.000000 179.000000 0.876074 -0.443190 -0.189939
4.71000004 -11.17000008 -0.09000000 207 152 76 0.000000 0.000000 0.000000 0.000000 -60.708740 0.000000 179.000000 0.805895 -0.216440 -0.551078
4.71000004 -11.17000008 -0.12000000 207 152 76 0.000000 0.000000 0.000000 0.000000 -60.708740 0.000000 179.000000 0.962603 -0.270694 0.010925
4.69999981 -11.18000031 -0.17000000 207 152 76 0.000000 0.000000 0.000000 0.000000 -60.708740 0.000000 179.000000 0.848537 -0.527394 -0.042911
4.69000006 -11.17000008 -0.14000000 207 152 76 0.000000 0.000000 0.000000 0.000000 -60.708740 0.000000 179.000000 0.904866 -0.422091 -0.055290
4.69999981 -11.18000031 -0.16000000 207 152 76 0.000000 0.000000 0.000000 0.000000 -60.708740 0.000000 179.000000 0.892258 -0.450811 0.025417
4.67999983 -11.21000004 -0.03000000 207 152 76 0.000000 0.000000 0.000000 0.000000 -60.708740 0.000000 179.000000 0.788075 0.563357 -0.248127
4.67999983 -11.26000023 -0.06000000 207 152 76 0.000000 0.000000 0.000000 0.000000 -60.708740 0.000000 179.000000 0.789862 0.529223 -0.309905
4.69000006 -11.21000004 -0.18000001 207 152 76 0.000000 0.000000 0.000000 0.000000 -60.708740 0.000000 179.000000 0.992897 -0.032244 -0.114522
4.69000006 -11.27999973 -0.13000000 207 152 76 0.000000 0.000000 0.000000 0.000000 -60.708740 0.000000 179.000000 0.523712 0.658429 -0.540552
4.67000008 -11.26000023 -0.15000001 207 152 76 0.000000 0.000000 0.000000 0.000000 -60.708740 0.000000 179.000000 0.801160 0.597735 -0.029260
4.67000008 -11.27999973 -0.18000001 207 152 76 0.000000 0.000000 0.000000 0.000000 -60.708740 0.000000 179.000000 0.715699 0.689027 -0.114097
4.65000010 -11.23999977 -0.11000000 207 152 76 0.000000 0.000000 0.000000 0.000000 -60.708740 0.000000 179.000000 0.827460 0.560448 -0.034767
4.65000010 -11.22999954 -0.13000000 207 152 76 0.000000 0.000000 0.000000 0.000000 -60.708740 0.000000 179.000000 0.962488 0.125994 -0.240297
4.61999989 -11.21000004 -0.18000001 207 152 76 0.000000 0.000000 0.000000 0.000000 -60.708740 0.000000 179.000000 0.966344 0.243797 -0.082108
4.65999985 -11.23999977 -0.18000001 207 152 76 0.000000 0.000000 0.000000 0.000000 -60.708740 0.000000 179.000000 0.889170 0.457249 0.017330
4.65999985 -11.25000000 -0.11000000 207 152 76 0.000000 0.000000 0.000000 0.000000 -60.708740 0.000000 179.000000 0.813603 0.577899 0.063896
4.65999985 -11.27999973 -0.17000000 207 152 76 0.000000 0.000000 0.000000 0.000000 -60.708740 0.000000 179.000000 0.745919 0.475873 -0.465993
4.63999987 -11.25000000 -0.17000000 207 152 76 0.000000 0.000000 0.000000 0.000000 -60.708740 0.000000 179.000000 0.943169 0.213418 -0.254725
4.71999979 -11.13000011 -0.22000000 207 152 76 0.000000 0.000000 0.000000 0.000000 -60.708740 0.000000 179.000000 -0.257280 0.911381 -0.321236
4.71000004 -11.14999962 -0.23999999 207 152 76 0.000000 0.000000 0.000000 0.000000 -60.708740 0.000000 179.000000 -0.605837 0.719532 -0.339463
4.71000004 -11.14999962 -0.27000001 207 152 76 0.000000 0.000000 0.000000 0.000000 -60.708740 0.000000 179.000000 -0.576928 0.807109 -0.125419
4.78000021 -11.14999962 -0.28000000 207 152 76 0.000000 0.000000 0.000000 0.000000 -60.708740 0.000000 179.000000 0.213610 0.700078 -0.681368
4.75000000 -11.11999989 -0.28000000 207 152 76 0.000000 0.000000 0.000000 0.000000 -60.708740 0.000000 179.000000 -0.309326 0.919346 -0.243145
4.75000000 -11.14000034 -0.31999999 207 152 76 0.000000 0.000000 0.000000 0.000000 -60.708740 0.000000 179.000000 -0.081078 0.934389 -0.346907
4.73999977 -11.15999985 -0.34000000 207 152 76 0.000000 0.000000 0.000000 0.000000 -60.708740 0.000000 179.000000 0.252399 0.885636 -0.389799
4.67999983 -11.14999962 -0.27000001 207 152 76 0.000000 0.000000 0.000000 0.000000 -60.708740 0.000000 179.000000 0.735964 -0.639085 -0.223445
4.67999983 -11.18999958 -0.20000000 207 152 76 0.000000 0.000000 0.000000 0.000000 -60.708740 0.000000 179.000000 0.838346 -0.394793 -0.375919
4.69000006 -11.17000008 -0.20000000 207 152 76 0.000000 0.000000 0.000000 0.000000 -60.708740 0.000000 179.000000 0.954686 -0.289104 -0.070670
4.65999985 -11.19999981 -0.23999999 207 152 76 0.000000 0.000000 0.000000 0.000000 -60.708740 0.000000 179.000000 0.981168 0.101164 0.164544
4.65999985 -11.18000031 -0.23000000 207 152 76 0.000000 0.000000 0.000000 0.000000 -60.708740 0.000000 179.000000 0.993234 -0.068771 0.093574
4.67999983 -11.13000011 -0.30000001 207 152 76 0.000000 0.000000 0.000000 0.000000 -60.708740 0.000000 179.000000 0.840965 -0.537712 0.060370
4.67999983 -11.15999985 -0.31999999 207 152 76 0.000000 0.000000 0.000000 0.000000 -60.708740 0.000000 179.000000 0.740499 -0.668325 -0.070730
4.67999983 -11.15999985 -0.31999999 207 152 76 0.000000 0.000000 0.000000 0.000000 -60.708740 0.000000 179.000000 0.740499 -0.668325 -0.070730
4.65000010 -11.14999962 -0.30000001 207 152 76 0.000000 0.000000 0.000000 0.000000 -60.708740 0.000000 179.000000 0.928392 -0.328078 0.174510
4.63000011 -11.19999981 -0.31000000 207 152 76 0.000000 0.000000 0.000000 0.000000 -60.708740 0.000000 179.000000 0.800814 -0.315568 -0.509032
4.65000010 -11.18000031 -0.31000000 207 152 76 0.000000 0.000000 0.000000 0.000000 -60.708740 0.000000 179.000000 0.923613 -0.376684 -0.071047
4.63000011 -11.17000008 -0.34000000 207 152 76 0.000000 0.000000 0.000000 0.000000 -60.708740 0.000000 179.000000 0.959733 -0.238288 0.148765
4.65999985 -11.19999981 -0.31999999 207 152 76 0.000000 0.000000 0.000000 0.000000 -60.708740 0.000000 179.000000 0.893364 -0.436164 0.107989
4.65999985 -11.19999981 -0.31999999 207 152 76 0.000000 0.000000 0.000000 0.000000 -60.708740 0.000000 179.000000 0.893364 -0.436164 0.107989
4.67000008 -11.22000027 -0.20000000 207 152 76 0.000000 0.000000 0.000000 0.000000 -60.708740 0.000000 179.000000 0.790634 0.247950 -0.559838
4.63000011 -11.22999954 -0.19000000 207 152 76 0.000000 0.000000 0.000000 0.000000 -60.708740 0.000000 179.000000 0.964986 0.230617 -0.124971
4.65999985 -11.21000004 -0.27000001 207 152 76 0.000000 0.000000 0.000000 0.000000 -60.708740 0.000000 179.000000 0.981862 0.185057 0.041255
4.65999985 -11.27000046 -0.19000000 207 152 76 0.000000 0.000000 0.000000 0.000000 -60.708740 0.000000 179.000000 0.630351 0.453117 -0.630351
4.65999985 -11.25000000 -0.20000000 207 152 76 0.000000 0.000000 0.000000 0.000000 -60.708740 0.000000 179.000000 0.835902 0.060613 -0.545521
4.65000010 -11.25000000 -0.25999999 207 152 76 0.000000 0.000000 0.000000 0.000000 -60.708740 0.000000 179.000000 0.826420 0.431382 -0.361855
4.65999985 -11.25000000 -0.23999999 207 152 76 0.000000 0.000000 0.000000 0.000000 -60.708740 0.000000 179.000000 0.831454 0.063524 -0.551950
4.63999987 -11.23999977 -0.31000000 207 152 76 0.000000 0.000000 0.000000 0.000000 -60.708740 0.000000 179.000000 0.934458 0.240289 -0.262772
4.65999985 -11.27999973 -0.28000000 207 152 76 0.000000 0.000000 0.000000 0.000000 -60.708740 0.000000 179.000000 0.785695 0.324839 -0.526463
4.65999985 -11.27000046 -0.34000000 207 152 76 0.000000 0.000000 0.000000 0.000000 -60.708740 0.000000 179.000000 0.764556 0.113870 -0.634419
4.63999987 -11.27999973 -0.31999999 207 152 76 0.000000 0.000000 0.000000 0.000000 -60.708740 0.000000 179.000000 0.770557 0.567194 -0.290746
4.76000023 -11.31000042 -0.07000000 207 152 76 0.000000 0.000000 0.000000 0.000000 -60.708740 0.000000 179.000000 0.084357 0.968220 -0.235445
4.76999998 -11.34000015 -0.08000000 207 152 76 0.000000 0.000000 0.000000 0.000000 -60.708740 0.000000 179.000000 -0.279999 0.876321 -0.391998
4.71999979 -11.34000015 -0.09000000 207 152 76 0.000000 0.000000 0.000000 0.000000 -60.708740 0.000000 179.000000 0.248169 0.963101 -0.104154
4.73000002 -11.32999992 -0.10000000 207 152 76 0.000000 0.000000 0.000000 0.000000 -60.708740 0.000000 179.000000 0.172451 0.724905 -0.666913
4.71999979 -11.31000042 -0.14000000 207 152 76 0.000000 0.000000 0.000000 0.000000 -60.708740 0.000000 179.000000 0.034295 0.860120 -0.508938
4.71000004 -11.35999966 -0.14000000 207 152 76 0.000000 0.000000 0.000000 0.000000 -60.708740 0.000000 179.000000 0.075096 0.840227 -0.537009
4.73000002 -11.35000038 -0.16000000 207 152 76 0.000000 0.000000 0.000000 0.000000 -60.708740 0.000000 179.000000 0.488269 0.729921 -0.478339
4.69999981 -11.31999969 -0.09000000 207 152 76 0.000000 0.000000 0.000000 0.000000 -60.708740 0.000000 179.000000 0.280854 0.920338 -0.272213
4.69999981 -11.28999996 -0.07000000 207 152 76 0.000000 0.000000 0.000000 0.000000 -60.708740 0.000000 179.000000 0.502850 0.693299 -0.516215
4.69999981 -11.31999969 -0.10000000 207 152 76 0.000000 0.000000 0.000000 0.000000 -60.708740 0.000000 179.000000 0.506498 0.845153 -0.170813
4.67999983 -11.35000038 -0.04000000 207 152 76 0.000000 0.000000 0.000000 0.000000 -60.708740 0.000000 179.000000 0.178934 0.908982 -0.376476
4.69999981 -11.32999992 -0.06000000 207 152 76 0.000000 0.000000 0.000000 0.000000 -60.708740 0.000000 179.000000 0.456727 0.630718 -0.627372
4.69000006 -11.35000038 -0.08000000 207 152 76 0.000000 0.000000 0.000000 0.000000 -60.708740 0.000000 179.000000 0.344604 0.857647 -0.381692
4.67999983 -11.28999996 -0.14000000 207 152 76 0.000000 0.000000 0.000000 0.000000 -60.708740 0.000000 179.000000 0.750398 0.384191 -0.537867
4.67000008 -11.31000042 -0.13000000 207 152 76 0.000000 0.000000 0.000000 0.000000 -60.708740 0.000000 179.000000 0.320704 0.850564 -0.416761
4.67999983 -11.31000042 -0.12000000 207 152 76 0.000000 0.000000 0.000000 0.000000 -60.708740 0.000000 179.000000 0.714153 0.545142 -0.439096
4.69000006 -11.28999996 -0.11000000 207 152 76 0.000000 0.000000 0.000000 0.000000 -60.708740 0.000000 179.000000 0.769061 0.598159 -0.225281
4.69000006 -11.31999969 -0.13000000 207 152 76 0.000000 0.000000 0.000000 0.000000 -60.708740 0.000000 179.000000 0.179039 0.889372 -0.420669
4.67000008 -11.30000019 -0.16000000 207 152 76 0.000000 0.000000 0.000000 0.000000 -60.708740 0.000000 179.000000 0.621671 0.783000 -0.020861
4.67999983 -11.30000019 -0.16000000 207 152 76 0.000000 0.000000 0.000000 0.000000 -60.708740 0.000000 179.000000 0.376954 0.894341 -0.240955
4.69000006 -11.31999969 -0.15000001 207 152 76 0.000000 0.000000 0.000000 0.000000 -60.708740 0.000000 179.000000 0.290661 0.944986 -0.150062
4.67999983 -11.30000019 -0.16000000 207 152 76 0.000000 0.000000 0.000000 0.000000 -60.708740 0.000000 179.000000 0.376954 0.894341 -0.240955
4.67999983 -11.30000019 -0.17000000 207 152 76 0.000000 0.000000 0.000000 0.000000 -60.708740 0.000000 179.000000 0.657582 0.751727 0.049925
4.69000006 -11.30000019 -0.15000001 207 152 76 0.000000 0.000000 0.000000 0.000000 -60.708740 0.000000 179.000000 0.433792 0.880819 -0.189692
4.65000010 -11.28999996 -0.11000000 207 152 76 0.000000 0.000000 0.000000 0.000000 -60.708740 0.000000 179.000000 0.663717 0.446379 -0.600188
4.65000010 -11.31000042 -0.16000000 207 152 76 0.000000 0.000000 0.000000 0.000000 -60.708740 0.000000 179.000000 0.410261 0.896817 -0.165544
4.65000010 -11.31000042 -0.18000001 207 152 76 0.000000 0.000000 0.000000 0.000000 -60.708740 0.000000 179.000000 0.476154 0.821877 -0.312722
4.78000021 -11.34000015 -0.25999999 207 152 76 0.000000 0.000000 0.000000 0.000000 -60.708740 0.000000 179.000000 0.019397 0.999432 -0.027563
4.71000004 -11.30000019 -0.19000000 207 152 76 0.000000 0.000000 0.000000 0.000000 -60.708740 0.000000 179.000000 0.412984 0.875526 -0.250794
4.71000004 -11.31999969 -0.23999999 207 152 76 0.000000 0.000000 0.000000 0.000000 -60.708740 0.000000 179.000000 0.198723 0.916415 -0.347408
4.73000002 -11.31999969 -0.25000000 207 152 76 0.000000 0.000000 0.000000 0.000000 -60.708740 0.000000 179.000000 -0.021890 0.930982 -0.364409
4.78000021 -11.30000019 -0.31000000 207 152 76 0.000000 0.000000 0.000000 0.000000 -60.708740 0.000000 179.000000 -0.266323 0.901967 -0.339893
4.78000021 -11.30000019 -0.30000001 207 152 76 0.000000 0.000000 0.000000 0.000000 -60.708740 0.000000 179.000000 -0.089087 0.993487 -0.071044
4.76000023 -11.31000042 -0.34999999 207 152 76 0.000000 0.000000 0.000000 0.000000 -60.708740 0.000000 179.000000 -0.330594 0.862621 -0.382874
4.78000021 -11.31999969 -0.34999999 207 152 76 0.000000 0.000000 0.000000 0.000000 -60.708740 0.000000 179.000000 -0.383838 0.914231 -0.129807
4.73999977 -11.31000042 -0.30000001 207 152 76 0.000000 0.000000 0.000000 0.000000 -60.708740 0.000000 179.000000 -0.230734 0.897952 -0.374759
4.73999977 -11.31000042 -0.30000001 207 152 76 0.000000 0.000000 0.000000 0.000000 -60.708740 0.000000 179.000000 -0.230734 0.897952 -0.374759
4.73000002 -11.31000042 -0.34999999 207 152 76 0.000000 0.000000 0.000000 0.000000 -60.708740 0.000000 179.000000 0.129161 0.949399 -0.286284
4.71999979 -11.32999992 -0.30000001 207 152 76 0.000000 0.000000 0.000000 0.000000 -60.708740 0.000000 179.000000 -0.069654 0.900036 -0.430214
4.71000004 -11.35000038 -0.28999999 207 152 76 0.000000 0.000000 0.000000 0.000000 -60.708740 0.000000 179.000000 0.207811 0.789680 -0.577252
4.69999981 -11.31999969 -0.19000000 207 152 76 0.000000 0.000000 0.000000 0.000000 -60.708740 0.000000 179.000000 0.435151 0.900357 -0.001307
4.69000006 -11.30000019 -0.20999999 207 152 76 0.000000 0.000000 0.000000 0.000000 -60.708740 0.000000 179.000000 0.467409 0.641640 -0.608134
4.69000006 -11.31999969 -0.23999999 207 152 76 0.000000 0.000000 0.000000 0.000000 -60.708740 0.000000 179.000000 0.635272 0.534168 -0.557759
4.67000008 -11.31000042 -0.23999999 207 152 76 0.000000 0.000000 0.000000 0.000000 -60.708740 0.000000 179.000000 0.547575 0.835919 -0.037429
4.69000006 -11.32999992 -0.27000001 207 152 76 0.000000 0.000000 0.000000 0.000000 -60.708740 0.000000 179.000000 0.597346 0.637730 -0.486290
4.69999981 -11.31000042 -0.30000001 207 152 76 0.000000 0.000000 0.000000 0.000000 -60.708740 0.000000 179.000000 -0.240760 -0.703398 0.668779
4.69999981 -11.31000042 -0.28000000 207 152 76 0.000000 0.000000 0.000000 0.000000 -60.708740 0.000000 179.000000 0.215540 0.976409 0.012956
4.65000010 -11.28999996 -0.28999999 207 152 76 0.000000 0.000000 0.000000 0.000000 -60.708740 0.000000 179.000000 0.775270 0.558768 -0.294507
4.65999985 -11.31999969 -0.28000000 207 152 76 0.000000 0.000000 0.000000 0.000000 -60.708740 0.000000 179.000000 0.547575 0.797182 -0.254287
4.78999996 -11.17000008 -0.40000001 207 152 76 0.000000 0.000000 0.000000 0.000000 -60.708740 0.000000 179.000000 0.870070 0.476022 -0.127994
4.78999996 -11.17000008 -0.40000001 207 152 76 0.000000 0.000000 0.000000 0.000000 -60.708740 0.000000 179.000000 0.870070 0.476022 -0.127994
4.80000019 -11.18999958 -0.50000000 207 152 76 0.000000 0.000000 0.000000 0.000000 -60.708740 0.000000 179.000000 0.524218 0.707278 -0.474292
4.82000017 -11.21000004 -0.36000001 207 152 76 0.000000 0.000000 0.000000 0.000000 -60.708740 0.000000 179.000000 0.726434 0.375515 -0.575571
4.82000017 -11.23999977 -0.36000001 207 152 76 0.000000 0.000000 0.000000 0.000000 -60.708740 0.000000 179.000000 0.823148 -0.017865 -0.567546
4.82000017 -11.27999973 -0.36000001 207 152 76 0.000000 0.000000 0.000000 0.000000 -60.708740 0.000000 179.000000 0.929851 -0.308075 0.201163
4.78999996 -11.26000023 -0.41999999 207 152 76 0.000000 0.000000 0.000000 0.000000 -60.708740 0.000000 179.000000 0.896621 -0.427964 -0.113656
4.84000015 -11.23999977 -0.50999999 207 152 76 0.000000 0.000000 0.000000 0.000000 -60.708740 0.000000 179.000000 0.786888 0.248738 -0.564745
4.80999994 -11.23999977 -0.51999998 207 152 76 0.000000 0.000000 0.000000 0.000000 -60.708740 0.000000 179.000000 0.755217 0.355683 -0.550578
4.80999994 -11.23999977 -0.51999998 207 152 76 0.000000 0.000000 0.000000 0.000000 -60.708740 0.000000 179.000000 0.755217 0.355683 -0.550578
4.80000019 -11.21000004 -0.49000001 207 152 76 0.000000 0.000000 0.000000 0.000000 -60.708740 0.000000 179.000000 0.754008 0.226358 -0.616632
4.80999994 -11.19999981 -0.55000001 207 152 76 0.000000 0.000000 0.000000 0.000000 -60.708740 0.000000 179.000000 0.440375 0.709585 -0.550053
4.78999996 -11.19999981 -0.67000002 207 152 76 0.000000 0.000000 0.000000 0.000000 -60.708740 0.000000 179.000000 0.743183 0.408505 -0.529908
4.78999996 -11.19999981 -0.61000001 207 152 76 0.000000 0.000000 0.000000 0.000000 -60.708740 0.000000 179.000000 0.527319 0.564383 -0.635142
4.80000019 -11.22999954 -0.56999999 207 152 76 0.000000 0.000000 0.000000 0.000000 -60.708740 0.000000 179.000000 0.638354 0.467456 -0.611546
4.80000019 -11.23999977 -0.56999999 207 152 76 0.000000 0.000000 0.000000 0.000000 -60.708740 0.000000 179.000000 0.641721 0.425036 -0.638387
4.80999994 -11.23999977 -0.56999999 207 152 76 0.000000 0.000000 0.000000 0.000000 -60.708740 0.000000 179.000000 0.767476 0.152289 -0.622726
4.80000019 -11.25000000 -0.57999998 207 152 76 0.000000 0.000000 0.000000 0.000000 -60.708740 0.000000 179.000000 0.751508 0.570500 -0.331310
4.78999996 -11.22000027 -0.62000000 207 152 76 0.000000 0.000000 0.000000 0.000000 -60.708740 0.000000 179.000000 0.757526 0.281094 -0.589187
4.78999996 -11.31000042 -0.60000002 207 152 76 0.000000 0.000000 0.000000 0.000000 -60.708740 0.000000 179.000000 0.958914 -0.054183 -0.278476
4.80000019 -11.32999992 -0.61000001 207 152 76 0.000000 0.000000 0.000000 0.000000 -60.708740 0.000000 179.000000 0.956079 0.144139 -0.255219
4.78999996 -11.31999969 -0.63000000 207 152 76 0.000000 0.000000 0.000000 0.000000 -60.708740 0.000000 179.000000 0.897973 0.030689 -0.438979
4.80999994 -11.30000019 -0.67000002 207 152 76 0.000000 0.000000 0.000000 0.000000 -60.708740 0.000000 179.000000 0.977227 0.191009 -0.092424
4.78999996 -11.32999992 -0.63999999 207 152 76 0.000000 0.000000 0.000000 0.000000 -60.708740 0.000000 179.000000 0.934930 -0.143730 -0.324419
4.78999996 -11.31000042 -0.61000001 207 152 76 0.000000 0.000000 0.000000 0.000000 -60.708740 0.000000 179.000000 0.986197 0.093754 -0.136477
4.78999996 -11.31999969 -0.63000000 207 152 76 0.000000 0.000000 0.000000 0.000000 -60.708740 0.000000 179.000000 0.897973 0.030689 -0.438979
4.76000023 -11.14000034 -0.37000000 207 152 76 0.000000 0.000000 0.000000 0.000000 -60.708740 0.000000 179.000000 0.030339 0.911477 -0.410231
4.76999998 -11.14000034 -0.41000000 207 152 76 0.000000 0.000000 0.000000 0.000000 -60.708740 0.000000 179.000000 0.024025 0.944548 -0.327494
4.78000021 -11.17000008 -0.41000000 207 152 76 0.000000 0.000000 0.000000 0.000000 -60.708740 0.000000 179.000000 0.418881 0.750700 -0.510870
4.71999979 -11.13000011 -0.38000000 207 152 76 0.000000 0.000000 0.000000 0.000000 -60.708740 0.000000 179.000000 -0.239732 0.910980 -0.335624
4.73999977 -11.18999958 -0.44999999 207 152 76 0.000000 0.000000 0.000000 0.000000 -60.708740 0.000000 179.000000 -0.080235 0.983181 -0.164063
4.73000002 -11.15999985 -0.47999999 207 152 76 0.000000 0.000000 0.000000 0.000000 -60.708740 0.000000 179.000000 0.043908 0.914079 -0.403153
4.69999981 -11.14000034 -0.38999999 207 152 76 0.000000 0.000000 0.000000 0.000000 -60.708740 0.000000 179.000000 -0.109212 0.913790 -0.391229
4.67000008 -11.17000008 -0.36000001 207 152 76 0.000000 0.000000 0.000000 0.000000 -60.708740 0.000000 179.000000 0.706045 -0.681326 0.193120
4.63999987 -11.14999962 -0.38999999 207 152 76 0.000000 0.000000 0.000000 0.000000 -60.708740 0.000000 179.000000 0.839501 -0.536308 0.087239
4.63000011 -11.19999981 -0.38999999 207 152 76 0.000000 0.000000 0.000000 0.000000 -60.708740 0.000000 179.000000 0.966491 -0.201082 0.159568
4.65000010 -11.17000008 -0.40000001 207 152 76 0.000000 0.000000 0.000000 0.000000 -60.708740 0.000000 179.000000 0.900882 -0.430857 -0.052675
4.69999981 -11.14999962 -0.44999999 207 152 76 0.000000 0.000000 0.000000 0.000000 -60.708740 0.000000 179.000000 0.052469 -0.798387 0.599854
4.67000008 -11.15999985 -0.44000000 207 152 76 0.000000 0.000000 0.000000 0.000000 -60.708740 0.000000 179.000000 -0.496472 0.792106 -0.355082
4.67999983 -11.18999958 -0.46000001 207 152 76 0.000000 0.000000 0.000000 0.000000 -60.708740 0.000000 179.000000 0.722485 -0.687737 0.070945
4.67000008 -11.15999985 -0.44000000 207 152 76 0.000000 0.000000 0.000000 0.000000 -60.708740 0.000000 179.000000 -0.496472 0.792106 -0.355082
4.69000006 -11.18000031 -0.47999999 207 152 76 0.000000 0.000000 0.000000 0.000000 -60.708740 0.000000 179.000000 -0.250964 0.802774 -0.540898
4.65000010 -11.22000027 -0.44999999 207 152 76 0.000000 0.000000 0.000000 0.000000 -60.708740 0.000000 179.000000 0.685816 -0.676269 0.268916
4.75000000 -11.19999981 -0.56999999 207 152 76 0.000000 0.000000 0.000000 0.000000 -60.708740 0.000000 179.000000 0.366586 0.751094 -0.549065
4.71000004 -11.14999962 -0.52999997 207 152 76 0.000000 0.000000 0.000000 0.000000 -60.708740 0.000000 179.000000 -0.301774 0.865495 -0.399813
4.71000004 -11.18000031 -0.60000002 207 152 76 0.000000 0.000000 0.000000 0.000000 -60.708740 0.000000 179.000000 0.365563 0.761995 -0.534534
4.71999979 -11.17000008 -0.57999998 207 152 76 0.000000 0.000000 0.000000 0.000000 -60.708740 0.000000 179.000000 -0.049664 0.951264 -0.304353
4.76999998 -11.14999962 -0.62000000 207 152 76 0.000000 0.000000 0.000000 0.000000 -60.708740 0.000000 179.000000 0.620071 0.579522 -0.528835
4.78000021 -11.18999958 -0.62000000 207 152 76 0.000000 0.000000 0.000000 0.000000 -60.708740 0.000000 179.000000 0.726441 0.385358 -0.569018
4.78000021 -11.18999958 -0.61000001 207 152 76 0.000000 0.000000 0.000000 0.000000 -60.708740 0.000000 179.000000 0.363694 0.821091 -0.439927
4.75000000 -11.15999985 -0.69000000 207 152 76 0.000000 0.000000 0.000000 0.000000 -60.708740 0.000000 179.000000 0.190279 0.980117 -0.056246
4.76999998 -11.21000004 -0.63999999 207 152 76 0.000000 0.000000 0.000000 0.000000 -60.708740 0.000000 179.000000 0.509225 0.670564 -0.539476
4.69000006 -11.14000034 -0.56000000 207 152 76 0.000000 0.000000 0.000000 0.000000 -60.708740 0.000000 179.000000 -0.070412 0.931303 -0.357376
4.69999981 -11.14999962 -0.56000000 207 152 76 0.000000 0.000000 0.000000 0.000000 -60.708740 0.000000 179.000000 -0.086990 0.898901 -0.429429
4.67000008 -11.17000008 -0.54000002 207 152 76 0.000000 0.000000 0.000000 0.000000 -60.708740 0.000000 179.000000 -0.353577 0.834441 -0.422720
4.65000010 -11.19999981 -0.54000002 207 152 76 0.000000 0.000000 0.000000 0.000000 -60.708740 0.000000 179.000000 -0.113849 0.956594 -0.268265
4.69999981 -11.14999962 -0.68000001 207 152 76 0.000000 0.000000 0.000000 0.000000 -60.708740 0.000000 179.000000 -0.250451 0.929641 -0.270261
4.69999981 -11.17000008 -0.67000002 207 152 76 0.000000 0.000000 0.000000 0.000000 -60.708740 0.000000 179.000000 -0.087456 0.927038 -0.364626
4.67999983 -11.17000008 -0.68000001 207 152 76 0.000000 0.000000 0.000000 0.000000 -60.708740 0.000000 179.000000 -0.247067 0.904937 -0.346478
4.63000011 -11.18999958 -0.61000001 207 152 76 0.000000 0.000000 0.000000 0.000000 -60.708740 0.000000 179.000000 -0.067762 0.997070 -0.035494
4.63999987 -11.15999985 -0.62000000 207 152 76 0.000000 0.000000 0.000000 0.000000 -60.708740 0.000000 179.000000 -0.016474 0.939035 -0.343426
4.63999987 -11.18999958 -0.68000001 207 152 76 0.000000 0.000000 0.000000 0.000000 -60.708740 0.000000 179.000000 -0.229139 0.945370 -0.231883
4.63999987 -11.19999981 -0.69000000 207 152 76 0.000000 0.000000 0.000000 0.000000 -60.708740 0.000000 179.000000 -0.052265 0.909947 -0.411419
4.61999989 -11.19999981 -0.69000000 207 152 76 0.000000 0.000000 0.000000 0.000000 -60.708740 0.000000 179.000000 -0.139376 0.928712 -0.343610
4.63000011 -11.18999958 -0.64999998 207 152 76 0.000000 0.000000 0.000000 0.000000 -60.708740 0.000000 179.000000 -0.099102 0.980010 -0.172511
4.61999989 -11.22000027 -0.54000002 207 152 76 0.000000 0.000000 0.000000 0.000000 -60.708740 0.000000 179.000000 0.820165 -0.452122 0.350593
4.61999989 -11.22000027 -0.68000001 207 152 76 0.000000 0.000000 0.000000 0.000000 -60.708740 0.000000 179.000000 -0.669034 0.736673 -0.098517
4.61999989 -11.21000004 -0.62000000 207 152 76 0.000000 0.000000 0.000000 0.000000 -60.708740 0.000000 179.000000 -0.315228 0.940272 0.128526
4.61999989 -11.21000004 -0.63999999 207 152 76 0.000000 0.000000 0.000000 0.000000 -60.708740 0.000000 179.000000 -0.470875 0.845121 0.253076
4.63000011 -11.23999977 -0.63999999 207 152 76 0.000000 0.000000 0.000000 0.000000 -60.708740 0.000000 179.000000 -0.527929 0.848800 -0.028796
4.75000000 -11.31000042 -0.37000000 207 152 76 0.000000 0.000000 0.000000 0.000000 -60.708740 0.000000 179.000000 0.047758 0.971088 -0.233894
4.76999998 -11.32999992 -0.38000000 207 152 76 0.000000 0.000000 0.000000 0.000000 -60.708740 0.000000 179.000000 -0.406409 0.801573 -0.438536
4.75000000 -11.35000038 -0.41000000 207 152 76 0.000000 0.000000 0.000000 0.000000 -60.708740 0.000000 179.000000 -0.321887 0.827485 -0.460063
4.73999977 -11.31999969 -0.38999999 207 152 76 0.000000 0.000000 0.000000 0.000000 -60.708740 0.000000 179.000000 -0.177809 0.838241 -0.515496
4.73999977 -11.35000038 -0.41999999 207 152 76 0.000000 0.000000 0.000000 0.000000 -60.708740 0.000000 179.000000 -0.111522 0.841486 -0.528644
4.67000008 -11.31000042 -0.38000000 207 152 76 0.000000 0.000000 0.000000 0.000000 -60.708740 0.000000 179.000000 0.348983 0.779986 -0.519454
4.67999983 -11.31000042 -0.38000000 207 152 76 0.000000 0.000000 0.000000 0.000000 -60.708740 0.000000 179.000000 0.615555 0.527859 -0.585198
4.67000008 -11.31000042 -0.38999999 207 152 76 0.000000 0.000000 0.000000 0.000000 -60.708740 0.000000 179.000000 0.423253 0.872112 -0.245517
4.67999983 -11.31999969 -0.40000001 207 152 76 0.000000 0.000000 0.000000 0.000000 -60.708740 0.000000 179.000000 0.444939 0.694904 -0.564922
4.67000008 -11.31999969 -0.40000001 207 152 76 0.000000 0.000000 0.000000 0.000000 -60.708740 0.000000 179.000000 0.431551 0.773535 -0.464121
4.67000008 -11.32999992 -0.44999999 207 152 76 0.000000 0.000000 0.000000 0.000000 -60.708740 0.000000 179.000000 0.419886 0.678789 -0.602446
4.65999985 -11.31000042 -0.44000000 207 152 76 0.000000 0.000000 0.000000 0.000000 -60.708740 0.000000 179.000000 0.399737 0.820177 -0.409292
4.65999985 -11.31000042 -0.44000000 207 152 76 0.000000 0.000000 0.000000 0.000000 -60.708740 0.000000 179.000000 0.399737 0.820177 -0.409292
4.63999987 -11.31999969 -0.50000000 207 152 76 0.000000 0.000000 0.000000 0.000000 -60.708740 0.000000 179.000000 0.938322 0.200970 -0.281358
4.61999989 -11.31999969 -0.50000000 207 152 76 0.000000 0.000000 0.000000 0.000000 -60.708740 0.000000 179.000000 0.910660 0.011725 -0.412989
4.63000011 -11.28999996 -0.50999999 207 152 76 0.000000 0.000000 0.000000 0.000000 -60.708740 0.000000 179.000000 0.898502 -0.047290 -0.436415
4.78000021 -11.31999969 -0.52999997 207 152 76 0.000000 0.000000 0.000000 0.000000 -60.708740 0.000000 179.000000 0.800211 -0.525583 0.288834
4.71000004 -11.35000038 -0.56000000 207 152 76 0.000000 0.000000 0.000000 0.000000 -60.708740 0.000000 179.000000 -0.325333 0.882181 -0.340464
4.71000004 -11.35000038 -0.56000000 207 152 76 0.000000 0.000000 0.000000 0.000000 -60.708740 0.000000 179.000000 -0.325333 0.882181 -0.340464
4.71000004 -11.35000038 -0.54000002 207 152 76 0.000000 0.000000 0.000000 0.000000 -60.708740 0.000000 179.000000 0.641449 -0.687150 0.341127
4.78000021 -11.32999992 -0.66000003 207 152 76 0.000000 0.000000 0.000000 0.000000 -60.708740 0.000000 179.000000 0.787542 -0.296319 -0.540346
4.73999977 -11.34000015 -0.66000003 207 152 76 0.000000 0.000000 0.000000 0.000000 -60.708740 0.000000 179.000000 0.789069 -0.422889 -0.445573
4.73000002 -11.35999966 -0.67000002 207 152 76 0.000000 0.000000 0.000000 0.000000 -60.708740 0.000000 179.000000 0.810590 -0.584574 -0.034879
4.71000004 -11.36999989 -0.57999998 207 152 76 0.000000 0.000000 0.000000 0.000000 -60.708740 0.000000 179.000000 -0.338229 0.878181 -0.338229
4.73000002 -11.39000034 -0.69000000 207 152 76 0.000000 0.000000 0.000000 0.000000 -60.708740 0.000000 179.000000 -0.642635 0.727481 -0.240399
4.69000006 -11.31999969 -0.58999997 207 152 76 0.000000 0.000000 0.000000 0.000000 -60.708740 0.000000 179.000000 -0.527862 0.798883 0.288354
4.69999981 -11.35999966 -0.56000000 207 152 76 0.000000 0.000000 0.000000 0.000000 -60.708740 0.000000 179.000000 -0.576563 0.767163 -0.281134
4.67999983 -11.35999966 -0.56999999 207 152 76 0.000000 0.000000 0.000000 0.000000 -60.708740 0.000000 179.000000 0.414718 0.867414 -0.274959
4.65000010 -11.31999969 -0.56999999 207 152 76 0.000000 0.000000 0.000000 0.000000 -60.708740 0.000000 179.000000 0.726874 0.339858 -0.596784
4.63999987 -11.34000015 -0.58999997 207 152 76 0.000000 0.000000 0.000000 0.000000 -60.708740 0.000000 179.000000 0.835081 0.502270 -0.224419
