//X Y Z R G B PointSourceId ScanDirectionFlag NumberOfReturns ReturnNumber GpsTime Intensity Classification Nx Ny Nz
0.58999997 7.50000000 0.13000000 101 94 158 97.000000 1.000000 4.000000 1.000000 -60.708740 114.000000 231.000000 0.457179 -0.139894 0.878303
0.58999997 7.50000000 0.13000000 101 94 158 97.000000 1.000000 4.000000 1.000000 -60.708740 114.000000 231.000000 0.457179 -0.139894 0.878303
0.57999998 7.51000023 0.12000000 101 94 158 97.000000 1.000000 4.000000 1.000000 -60.708740 114.000000 231.000000 0.133515 0.400545 0.906497
0.57999998 7.48000002 0.14000000 101 94 158 97.000000 1.000000 4.000000 1.000000 -60.708740 114.000000 231.000000 0.365239 -0.027103 0.930519
0.55000001 7.50000000 0.12000000 101 94 158 97.000000 1.000000 4.000000 1.000000 -60.708740 114.000000 231.000000 0.415207 -0.063566 0.907504
0.58999997 7.48999977 0.13000000 101 94 158 97.000000 1.000000 4.000000 1.000000 -60.708740 114.000000 231.000000 0.630055 0.029468 0.775991
0.50999999 7.50000000 0.14000000 101 94 158 97.000000 1.000000 4.000000 1.000000 -60.708740 114.000000 231.000000 0.242821 0.123358 0.962196
0.51999998 7.48000002 0.14000000 101 94 158 97.000000 1.000000 4.000000 1.000000 -60.708740 114.000000 231.000000 0.336370 0.300491 0.892502
0.52999997 7.50000000 0.07000000 101 94 158 97.000000 1.000000 4.000000 1.000000 -60.708740 114.000000 231.000000 0.330207 0.229271 0.915641
0.55000001 7.48999977 0.05000000 101 94 158 97.000000 1.000000 4.000000 1.000000 -60.708740 114.000000 231.000000 0.204847 -0.168313 0.964214
0.56000000 7.46000004 0.04000000 101 94 158 97.000000 1.000000 4.000000 1.000000 -60.708740 114.000000 231.000000 0.128434 0.360444 0.923897
0.57999998 7.46000004 0.03000000 101 94 158 97.000000 1.000000 4.000000 1.000000 -60.708740 114.000000 231.000000 0.398528 0.051982 0.915682
0.58999997 7.44999981 0.03000000 101 94 158 97.000000 1.000000 4.000000 1.000000 -60.708740 114.000000 231.000000 0.445041 0.296177 0.845114
0.50999999 7.34999990 0.09000000 101 94 158 97.000000 1.000000 4.000000 1.000000 -60.708740 114.000000 231.000000 0.637746 0.279713 0.717664
0.47999999 7.48999977 0.07000000 101 94 158 97.000000 1.000000 4.000000 1.000000 -60.708740 114.000000 231.000000 0.367747 0.450530 0.813501
0.47000000 7.46000004 0.12000000 101 94 158 97.000000 1.000000 4.000000 1.000000 -60.708740 114.000000 231.000000 0.462921 0.376423 0.802502
0.43000001 7.48000002 0.14000000 101 94 158 97.000000 1.000000 4.000000 1.000000 -60.708740 114.000000 231.000000 0.796623 0.157524 0.583590
0.47000000 7.40000010 0.12000000 101 94 158 97.000000 1.000000 4.000000 1.000000 -60.708740 114.000000 231.000000 0.395677 -0.205869 0.895018
0.50000000 7.38000011 0.12000000 101 94 158 97.000000 1.000000 4.000000 1.000000 -60.708740 114.000000 231.000000 0.686383 0.344007 0.640733
0.46000001 7.40000010 0.12000000 101 94 158 97.000000 1.000000 4.000000 1.000000 -60.708740 114.000000 231.000000 0.596586 -0.055266 0.800644
0.46000001 7.40000010 0.12000000 101 94 158 97.000000 1.000000 4.000000 1.000000 -60.708740 114.000000 231.000000 0.596586 -0.055266 0.800644
0.44000000 7.34999990 0.11000000 101 94 158 97.000000 1.000000 4.000000 1.000000 -60.708740 114.000000 231.000000 0.556207 0.087671 0.826406
0.46000001 7.34999990 0.12000000 101 94 158 97.000000 1.000000 4.000000 1.000000 -60.708740 114.000000 231.000000 0.760410 0.079662 0.644538
0.36000001 7.65000010 0.28999999 101 94 158 97.000000 1.000000 4.000000 1.000000 -60.708740 114.000000 231.000000 0.871705 -0.312959 0.377077
0.34999999 7.63999987 0.25000000 101 94 158 97.000000 1.000000 4.000000 1.000000 -60.708740 114.000000 231.000000 0.939409 -0.322121 -0.117258
0.34000000 7.59999990 0.23000000 101 94 158 97.000000 1.000000 4.000000 1.000000 -60.708740 114.000000 231.000000 0.982062 0.123215 0.142734
0.36000001 7.57000017 0.25999999 101 94 158 97.000000 1.000000 4.000000 1.000000 -60.708740 114.000000 231.000000 0.931778 -0.226954 0.283340
0.34000000 7.59000015 0.23999999 101 94 158 97.000000 1.000000 4.000000 1.000000 -60.708740 114.000000 231.000000 0.968233 0.137220 0.209036
0.34999999 7.55999994 0.25999999 101 94 158 97.000000 1.000000 4.000000 1.000000 -60.708740 114.000000 231.000000 0.800388 -0.541393 0.257435
0.37000000 7.59000015 0.23999999 101 94 158 97.000000 1.000000 4.000000 1.000000 -60.708740 114.000000 231.000000 0.979329 0.161374 0.121954
0.36000001 7.51999998 0.25000000 101 94 158 97.000000 1.000000 4.000000 1.000000 -60.708740 114.000000 231.000000 0.975949 0.181194 0.121213
0.41999999 7.55999994 0.15000001 101 94 158 97.000000 1.000000 4.000000 1.000000 -60.708740 114.000000 231.000000 0.823416 -0.049096 0.565310
0.40000001 7.55999994 0.17000000 101 94 158 97.000000 1.000000 4.000000 1.000000 -60.708740 114.000000 231.000000 0.716707 0.001381 0.697373
0.41999999 7.55999994 0.15000001 101 94 158 97.000000 1.000000 4.000000 1.000000 -60.708740 114.000000 231.000000 0.823416 -0.049096 0.565310
0.41999999 7.59000015 0.17000000 101 94 158 97.000000 1.000000 4.000000 1.000000 -60.708740 114.000000 231.000000 0.693438 -0.244836 0.677642
0.41999999 7.55000019 0.15000001 101 94 158 97.000000 1.000000 4.000000 1.000000 -60.708740 114.000000 231.000000 0.578283 0.211266 0.788007
0.40000001 7.55000019 0.17000000 101 94 158 97.000000 1.000000 4.000000 1.000000 -60.708740 114.000000 231.000000 0.863183 0.065541 0.500618
0.41999999 7.53000021 0.16000000 101 94 158 97.000000 1.000000 4.000000 1.000000 -60.708740 114.000000 231.000000 0.828389 -0.012323 0.560018
0.40000001 7.55000019 0.17000000 101 94 158 97.000000 1.000000 4.000000 1.000000 -60.708740 114.000000 231.000000 0.863183 0.065541 0.500618
0.38000000 7.59000015 0.19000000 101 94 158 97.000000 1.000000 4.000000 1.000000 -60.708740 114.000000 231.000000 0.691032 -0.108020 0.714707
0.34999999 7.51999998 0.20999999 101 94 158 97.000000 1.000000 4.000000 1.000000 -60.708740 114.000000 231.000000 0.919229 -0.126169 0.372960
0.36000001 7.53000021 0.19000000 101 94 158 97.000000 1.000000 4.000000 1.000000 -60.708740 114.000000 231.000000 0.696231 -0.398555 0.597006
0.38000000 7.53000021 0.20000000 101 94 158 97.000000 1.000000 4.000000 1.000000 -60.708740 114.000000 231.000000 0.769006 0.004142 0.639228
0.37000000 7.53000021 0.22000000 101 94 158 97.000000 1.000000 4.000000 1.000000 -60.708740 114.000000 231.000000 0.951914 -0.142854 0.271022
0.34999999 7.53000021 0.20000000 101 94 158 97.000000 1.000000 4.000000 1.000000 -60.708740 114.000000 231.000000 0.841619 -0.409055 0.352634
0.36000001 7.55000019 0.17000000 101 94 158 97.000000 1.000000 4.000000 1.000000 -60.708740 114.000000 231.000000 0.729026 -0.396603 0.557877
0.27000001 7.67000008 0.25999999 101 94 158 97.000000 1.000000 4.000000 1.000000 -60.708740 114.000000 231.000000 0.785885 -0.595092 0.168079
0.28000000 7.59999990 0.25999999 101 94 158 97.000000 1.000000 4.000000 1.000000 -60.708740 114.000000 231.000000 0.964704 -0.152322 -0.214813
0.33000001 7.55999994 0.23999999 101 94 158 97.000000 1.000000 4.000000 1.000000 -60.708740 114.000000 231.000000 0.827534 -0.538270 0.159543
0.30000001 7.53000021 0.23999999 101 94 158 97.000000 1.000000 4.000000 1.000000 -60.708740 114.000000 231.000000 0.971413 0.057866 0.230234
0.27000001 7.59000015 0.25000000 101 94 158 97.000000 1.000000 4.000000 1.000000 -60.708740 114.000000 231.000000 0.892751 -0.290628 0.344283
0.28000000 7.57999992 0.20000000 101 94 158 97.000000 1.000000 4.000000 1.000000 -60.708740 114.000000 231.000000 0.834584 -0.530293 0.149191
0.41000000 7.67000008 0.08000000 101 94 158 97.000000 1.000000 4.000000 1.000000 -60.708740 114.000000 231.000000 0.592077 -0.020799 0.805613
0.34999999 7.67999983 0.09000000 101 94 158 97.000000 1.000000 4.000000 1.000000 -60.708740 114.000000 231.000000 0.710643 0.268677 0.650230
0.36000001 7.63999987 0.12000000 101 94 158 97.000000 1.000000 4.000000 1.000000 -60.708740 114.000000 231.000000 0.593678 -0.167680 0.787039
0.36000001 7.63999987 0.12000000 101 94 158 97.000000 1.000000 4.000000 1.000000 -60.708740 114.000000 231.000000 0.593678 -0.167680 0.787039
0.41000000 7.67000008 0.05000000 101 94 158 97.000000 1.000000 4.000000 1.000000 -60.708740 114.000000 231.000000 0.680704 0.162943 0.714207
0.41999999 7.63999987 0.06000000 101 94 158 97.000000 1.000000 4.000000 1.000000 -60.708740 114.000000 231.000000 0.569295 -0.204087 0.796399
0.37000000 7.57999992 0.11000000 101 94 158 97.000000 1.000000 4.000000 1.000000 -60.708740 114.000000 231.000000 0.543500 -0.226330 0.808321
0.33000001 7.67000008 0.11000000 101 94 158 97.000000 1.000000 4.000000 1.000000 -60.708740 114.000000 231.000000 0.748785 -0.212388 0.627863
0.31000000 7.65999985 0.13000000 101 94 158 97.000000 1.000000 4.000000 1.000000 -60.708740 114.000000 231.000000 0.846185 -0.054547 0.530090
0.41000000 7.48999977 0.23999999 101 94 158 97.000000 1.000000 4.000000 1.000000 -60.708740 114.000000 231.000000 0.903432 0.232061 0.360497
0.36000001 7.48999977 0.30000001 101 94 158 97.000000 1.000000 4.000000 1.000000 -60.708740 114.000000 231.000000 0.910686 -0.403989 -0.086276
0.37000000 7.48999977 0.28000000 101 94 158 97.000000 1.000000 4.000000 1.000000 -60.708740 114.000000 231.000000 0.974743 -0.069887 0.212114
0.36000001 7.48000002 0.31000000 101 94 158 97.000000 1.000000 4.000000 1.000000 -60.708740 114.000000 231.000000 0.956079 -0.130554 -0.262427
0.36000001 7.48000002 0.28999999 101 94 158 97.000000 1.000000 4.000000 1.000000 -60.708740 114.000000 231.000000 0.978745 0.084311 0.186951
0.34999999 7.50000000 0.23999999 101 94 158 97.000000 1.000000 4.000000 1.000000 -60.708740 114.000000 231.000000 0.873858 -0.412026 0.258082
0.34999999 7.50000000 0.23999999 101 94 158 97.000000 1.000000 4.000000 1.000000 -60.708740 114.000000 231.000000 0.873858 -0.412026 0.258082
0.34999999 7.48999977 0.23999999 101 94 158 97.000000 1.000000 4.000000 1.000000 -60.708740 114.000000 231.000000 0.914149 -0.165822 0.369911
0.37000000 7.46999979 0.28000000 101 94 158 97.000000 1.000000 4.000000 1.000000 -60.708740 114.000000 231.000000 0.972562 0.015475 0.232129
0.36000001 7.46999979 0.28000000 101 94 158 97.000000 1.000000 4.000000 1.000000 -60.708740 114.000000 231.000000 0.937788 -0.347095 -0.008835
0.41999999 7.51000023 0.20999999 101 94 158 97.000000 1.000000 4.000000 1.000000 -60.708740 114.000000 231.000000 0.924050 0.214334 0.316533
0.41000000 7.48000002 0.18000001 101 94 158 97.000000 1.000000 4.000000 1.000000 -60.708740 114.000000 231.000000 0.928303 -0.183420 0.323436
0.41000000 7.44999981 0.16000000 101 94 158 97.000000 1.000000 4.000000 1.000000 -60.708740 114.000000 231.000000 0.842472 -0.092972 0.530657
0.41999999 7.46000004 0.16000000 101 94 158 97.000000 1.000000 4.000000 1.000000 -60.708740 114.000000 231.000000 0.735323 -0.061877 0.674886
0.36000001 7.50000000 0.22000000 101 94 158 97.000000 1.000000 4.000000 1.000000 -60.708740 114.000000 231.000000 0.729043 -0.304170 0.613169
0.36000001 7.48999977 0.19000000 101 94 158 97.000000 1.000000 4.000000 1.000000 -60.708740 114.000000 231.000000 0.680355 -0.272461 0.680355
0.36000001 7.48999977 0.22000000 101 94 158 97.000000 1.000000 4.000000 1.000000 -60.708740 114.000000 231.000000 0.956400 -0.191280 0.220708
0.34000000 7.50000000 0.20999999 101 94 158 97.000000 1.000000 4.000000 1.000000 -60.708740 114.000000 231.000000 0.822255 -0.208996 0.529355
0.36000001 7.50000000 0.23000000 101 94 158 97.000000 1.000000 4.000000 1.000000 -60.708740 114.000000 231.000000 0.922677 -0.250339 0.293254
0.37000000 7.48999977 0.18000001 101 94 158 97.000000 1.000000 4.000000 1.000000 -60.708740 114.000000 231.000000 0.691228 -0.189357 0.697386
0.38999999 7.40000010 0.17000000 101 94 158 97.000000 1.000000 4.000000 1.000000 -60.708740 114.000000 231.000000 0.867595 0.122298 0.481997
0.40000001 7.38999987 0.16000000 101 94 158 97.000000 1.000000 4.000000 1.000000 -60.708740 114.000000 231.000000 0.511402 0.164538 0.843442
0.40000001 7.34999990 0.16000000 101 94 158 97.000000 1.000000 4.000000 1.000000 -60.708740 114.000000 231.000000 0.844304 0.167674 0.508956
0.38999999 7.36000013 0.17000000 101 94 158 97.000000 1.000000 4.000000 1.000000 -60.708740 114.000000 231.000000 0.765391 -0.123354 0.631633
0.36000001 7.42000008 0.20999999 101 94 158 97.000000 1.000000 4.000000 1.000000 -60.708740 114.000000 231.000000 0.865876 -0.249336 0.433694
0.36000001 7.40000010 0.20000000 101 94 158 97.000000 1.000000 4.000000 1.000000 -60.708740 114.000000 231.000000 0.797967 -0.103575 0.593734
0.34999999 7.36000013 0.22000000 101 94 158 97.000000 1.000000 4.000000 1.000000 -60.708740 114.000000 231.000000 0.883677 0.033831 0.466874
0.38000000 7.36999989 0.18000001 101 94 158 97.000000 1.000000 4.000000 1.000000 -60.708740 114.000000 231.000000 0.681894 0.189330 0.706523
0.31000000 7.48000002 0.27000001 101 94 158 97.000000 1.000000 4.000000 1.000000 -60.708740 114.000000 231.000000 0.912153 0.086155 0.400691
0.31000000 7.48000002 0.27000001 101 94 158 97.000000 1.000000 4.000000 1.000000 -60.708740 114.000000 231.000000 0.912153 0.086155 0.400691
0.25999999 7.48999977 0.31000000 101 94 158 97.000000 1.000000 4.000000 1.000000 -60.708740 114.000000 231.000000 0.890603 -0.447379 -0.081719
0.27000001 7.50000000 0.30000001 101 94 158 97.000000 1.000000 4.000000 1.000000 -60.708740 114.000000 231.000000 0.895011 -0.434241 -0.101928
0.28999999 7.48000002 0.28999999 101 94 158 97.000000 1.000000 4.000000 1.000000 -60.708740 114.000000 231.000000 0.901132 -0.377049 -0.214001
0.28000000 7.46000004 0.31000000 101 94 158 97.000000 1.000000 4.000000 1.000000 -60.708740 114.000000 231.000000 0.808861 -0.587634 0.020740
0.25999999 7.46999979 0.28000000 101 94 158 97.000000 1.000000 4.000000 1.000000 -60.708740 114.000000 231.000000 0.917359 -0.374460 0.135028
0.25999999 7.44999981 0.22000000 101 94 158 97.000000 1.000000 4.000000 1.000000 -60.708740 114.000000 231.000000 0.978493 0.159982 0.130218
0.31000000 7.36000013 0.23999999 101 94 158 97.000000 1.000000 4.000000 1.000000 -60.708740 114.000000 231.000000 0.975894 -0.204999 0.074880
0.28000000 7.40999985 0.25999999 101 94 158 97.000000 1.000000 4.000000 1.000000 -60.708740 114.000000 231.000000 0.992654 0.078457 0.092102
0.28999999 7.38999987 0.18000001 101 94 158 97.000000 1.000000 4.000000 1.000000 -60.708740 114.000000 231.000000 0.980515 0.098906 0.169728
0.33000001 7.34999990 0.20999999 101 94 158 97.000000 1.000000 4.000000 1.000000 -60.708740 114.000000 231.000000 0.802107 0.357026 0.478703
0.44999999 7.25000000 0.16000000 101 94 158 97.000000 1.000000 4.000000 1.000000 -60.708740 114.000000 231.000000 0.766840 0.232707 0.598167
0.50999999 7.30999994 0.10000000 101 94 158 97.000000 1.000000 4.000000 1.000000 -60.708740 114.000000 231.000000 0.237183 0.013111 0.971377
0.50999999 7.28000021 0.10000000 101 94 158 97.000000 1.000000 4.000000 1.000000 -60.708740 114.000000 231.000000 0.541000 0.127553 0.831293
0.50999999 7.19999981 0.09000000 101 94 158 97.000000 1.000000 4.000000 1.000000 -60.708740 114.000000 231.000000 0.442260 0.406879 0.799284
0.50999999 7.17999983 0.09000000 101 94 158 97.000000 1.000000 4.000000 1.000000 -60.708740 114.000000 231.000000 0.266429 0.286592 0.920261
0.51999998 7.17999983 0.12000000 101 94 158 97.000000 1.000000 4.000000 1.000000 -60.708740 114.000000 231.000000 0.308300 -0.154835 0.938604
0.50999999 7.19000006 0.09000000 101 94 158 97.000000 1.000000 4.000000 1.000000 -60.708740 114.000000 231.000000 0.537412 0.229440 0.811508
0.50999999 7.19999981 0.09000000 101 94 158 97.000000 1.000000 4.000000 1.000000 -60.708740 114.000000 231.000000 0.442260 0.406879 0.799284
0.47000000 7.34000015 0.14000000 101 94 158 97.000000 1.000000 4.000000 1.000000 -60.708740 114.000000 231.000000 0.667673 0.294420 0.683761
0.44999999 7.32999992 0.13000000 101 94 158 97.000000 1.000000 4.000000 1.000000 -60.708740 114.000000 231.000000 0.592063 0.211782 0.777566
0.44999999 7.32999992 0.13000000 101 94 158 97.000000 1.000000 4.000000 1.000000 -60.708740 114.000000 231.000000 0.592063 0.211782 0.777566
0.44999999 7.32000017 0.13000000 101 94 158 97.000000 1.000000 4.000000 1.000000 -60.708740 114.000000 231.000000 0.453451 0.433948 0.778506
0.55000001 7.09000015 0.16000000 101 94 158 97.000000 1.000000 4.000000 1.000000 -60.708740 114.000000 231.000000 -0.279253 0.422695 0.862175
0.56000000 7.05999994 0.16000000 101 94 158 97.000000 1.000000 4.000000 1.000000 -60.708740 114.000000 231.000000 -0.165420 0.620705 0.766396
0.56999999 7.07999992 0.18000001 101 94 158 97.000000 1.000000 4.000000 1.000000 -60.708740 114.000000 231.000000 0.106226 0.571877 0.813433
0.56000000 7.03999996 0.17000000 101 94 158 97.000000 1.000000 4.000000 1.000000 -60.708740 114.000000 231.000000 -0.056672 -0.137631 0.988861
0.52999997 7.07000017 0.17000000 101 94 158 97.000000 1.000000 4.000000 1.000000 -60.708740 114.000000 231.000000 -0.181433 0.514311 0.838192
0.54000002 7.05000019 0.16000000 101 94 158 97.000000 1.000000 4.000000 1.000000 -60.708740 114.000000 231.000000 -0.036715 0.307646 0.950792
0.54000002 7.01999998 0.17000000 101 94 158 97.000000 1.000000 4.000000 1.000000 -60.708740 114.000000 231.000000 0.020630 0.554265 0.832085
0.47999999 7.11000013 0.15000001 101 94 158 97.000000 1.000000 4.000000 1.000000 -60.708740 114.000000 231.000000 0.001268 0.368984 0.929435
0.43000001 7.11000013 0.19000000 101 94 158 97.000000 1.000000 4.000000 1.000000 -60.708740 114.000000 231.000000 0.565893 0.294902 0.769934
0.47999999 7.11000013 0.15000001 101 94 158 97.000000 1.000000 4.000000 1.000000 -60.708740 114.000000 231.000000 0.001268 0.368984 0.929435
0.47999999 7.05999994 0.17000000 101 94 158 97.000000 1.000000 4.000000 1.000000 -60.708740 114.000000 231.000000 0.109559 0.403565 0.908368
0.47000000 7.05000019 0.17000000 101 94 158 97.000000 1.000000 4.000000 1.000000 -60.708740 114.000000 231.000000 0.193883 0.506500 0.840159
0.49000001 7.03999996 0.15000001 101 94 158 97.000000 1.000000 4.000000 1.000000 -60.708740 114.000000 231.000000 0.272590 0.108253 0.956021
0.49000001 7.01999998 0.18000001 101 94 158 97.000000 1.000000 4.000000 1.000000 -60.708740 114.000000 231.000000 0.353299 0.152212 0.923045
0.47999999 7.03999996 0.18000001 101 94 158 97.000000 1.000000 4.000000 1.000000 -60.708740 114.000000 231.000000 0.087807 0.368791 0.925355
0.43000001 7.01999998 0.19000000 101 94 158 97.000000 1.000000 4.000000 1.000000 -60.708740 114.000000 231.000000 0.406591 0.233827 0.883181
0.44000000 7.05000019 0.19000000 101 94 158 97.000000 1.000000 4.000000 1.000000 -60.708740 114.000000 231.000000 0.038469 0.409895 0.911321
0.44999999 7.05000019 0.20000000 101 94 158 97.000000 1.000000 4.000000 1.000000 -60.708740 114.000000 231.000000 -0.041410 0.190484 0.980816
0.46000001 7.03999996 0.19000000 101 94 158 97.000000 1.000000 4.000000 1.000000 -60.708740 114.000000 231.000000 0.416621 0.055280 0.907398
0.50999999 7.15000010 0.11000000 101 94 158 97.000000 1.000000 4.000000 1.000000 -60.708740 114.000000 231.000000 0.230072 0.139083 0.963184
0.50999999 7.13999987 0.12000000 101 94 158 97.000000 1.000000 4.000000 1.000000 -60.708740 114.000000 231.000000 0.148477 0.348296 0.925551
0.50999999 7.15999985 0.11000000 101 94 158 97.000000 1.000000 4.000000 1.000000 -60.708740 114.000000 231.000000 0.401470 0.226660 0.887382
0.50999999 7.17000008 0.09000000 101 94 158 97.000000 1.000000 4.000000 1.000000 -60.708740 114.000000 231.000000 0.380417 0.428169 0.819728
0.50999999 7.11999989 0.13000000 101 94 158 97.000000 1.000000 4.000000 1.000000 -60.708740 114.000000 231.000000 0.287592 0.368901 0.883857
0.56999999 7.11999989 0.05000000 101 94 158 97.000000 1.000000 4.000000 1.000000 -60.708740 114.000000 231.000000 0.083374 0.220258 0.971872
0.55000001 7.03000021 0.14000000 101 94 158 97.000000 1.000000 4.000000 1.000000 -60.708740 114.000000 231.000000 0.244236 0.555364 0.794933
0.57999998 7.05000019 0.08000000 101 94 158 97.000000 1.000000 4.000000 1.000000 -60.708740 114.000000 231.000000 -0.141319 0.161329 0.976730
0.54000002 7.09000015 0.11000000 101 94 158 97.000000 1.000000 4.000000 1.000000 -60.708740 114.000000 231.000000 -0.238698 0.331284 0.912839
0.58999997 7.09000015 0.06000000 101 94 158 97.000000 1.000000 4.000000 1.000000 -60.708740 114.000000 231.000000 0.182901 0.096974 0.978337
0.47999999 7.11999989 0.13000000 101 94 158 97.000000 1.000000 4.000000 1.000000 -60.708740 114.000000 231.000000 0.330105 0.379236 0.864413
0.49000001 7.09000015 0.13000000 101 94 158 97.000000 1.000000 4.000000 1.000000 -60.708740 114.000000 231.000000 0.055281 0.314973 0.947489
0.49000001 7.05999994 0.14000000 101 94 158 97.000000 1.000000 4.000000 1.000000 -60.708740 114.000000 231.000000 0.501483 0.262386 0.824420
0.40000001 7.30999994 0.18000001 101 94 158 97.000000 1.000000 4.000000 1.000000 -60.708740 114.000000 231.000000 0.625741 0.384690 0.678574
0.37000000 7.32000017 0.18000001 101 94 158 97.000000 1.000000 4.000000 1.000000 -60.708740 114.000000 231.000000 0.850856 0.262156 0.455323
0.36000001 7.30000019 0.22000000 101 94 158 97.000000 1.000000 4.000000 1.000000 -60.708740 114.000000 231.000000 0.664590 0.347808 0.661324
0.30000001 7.28000021 0.28999999 101 94 158 97.000000 1.000000 4.000000 1.000000 -60.708740 114.000000 231.000000 0.804653 -0.122095 0.581056
0.33000001 7.32999992 0.20999999 101 94 158 97.000000 1.000000 4.000000 1.000000 -60.708740 114.000000 231.000000 0.983015 0.085427 0.162432
0.31000000 7.19999981 0.15000001 101 94 158 97.000000 1.000000 4.000000 1.000000 -60.708740 114.000000 231.000000 0.479869 -0.050874 0.875864
0.33000001 7.25000000 0.16000000 101 94 158 97.000000 1.000000 4.000000 1.000000 -60.708740 114.000000 231.000000 0.399914 0.139899 0.905813
0.41000000 7.30999994 0.12000000 101 94 158 97.000000 1.000000 4.000000 1.000000 -60.708740 114.000000 231.000000 0.374600 0.132294 0.917700
0.41999999 7.32999992 0.14000000 101 94 158 97.000000 1.000000 4.000000 1.000000 -60.708740 114.000000 231.000000 0.605789 0.026460 0.795185
0.38999999 7.32000017 0.14000000 101 94 158 97.000000 1.000000 4.000000 1.000000 -60.708740 114.000000 231.000000 0.572662 0.379040 0.726903
0.38999999 7.32999992 0.13000000 101 94 158 97.000000 1.000000 4.000000 1.000000 -60.708740 114.000000 231.000000 0.475340 0.256899 0.841460
0.41999999 7.32999992 0.14000000 101 94 158 97.000000 1.000000 4.000000 1.000000 -60.708740 114.000000 231.000000 0.605789 0.026460 0.795185
0.37000000 7.03999996 0.23999999 101 94 158 97.000000 1.000000 4.000000 1.000000 -60.708740 114.000000 231.000000 0.532905 0.127021 0.836587
0.34000000 7.05000019 0.25000000 101 94 158 97.000000 1.000000 4.000000 1.000000 -60.708740 114.000000 231.000000 0.501852 0.083406 0.860923
0.36000001 7.05000019 0.25000000 101 94 158 97.000000 1.000000 4.000000 1.000000 -60.708740 114.000000 231.000000 0.827295 0.093520 0.553928
0.40000001 7.05999994 0.18000001 101 94 158 97.000000 1.000000 4.000000 1.000000 -60.708740 114.000000 231.000000 0.449455 0.300155 0.841367
0.41000000 7.07000017 0.18000001 101 94 158 97.000000 1.000000 4.000000 1.000000 -60.708740 114.000000 231.000000 0.458537 0.511509 0.726707
0.41000000 7.01999998 0.20999999 101 94 158 97.000000 1.000000 4.000000 1.000000 -60.708740 114.000000 231.000000 0.587774 0.353316 0.727798
0.41000000 7.05000019 0.19000000 101 94 158 97.000000 1.000000 4.000000 1.000000 -60.708740 114.000000 231.000000 0.253931 0.481699 0.838741
0.40000001 7.05000019 0.22000000 101 94 158 97.000000 1.000000 4.000000 1.000000 -60.708740 114.000000 231.000000 0.328789 0.261570 0.907457
0.40000001 7.01999998 0.23000000 101 94 158 97.000000 1.000000 4.000000 1.000000 -60.708740 114.000000 231.000000 0.754774 0.309281 0.578500
0.36000001 7.09000015 0.20000000 101 94 158 97.000000 1.000000 4.000000 1.000000 -60.708740 114.000000 231.000000 0.771943 0.088679 0.629475
0.34999999 7.05000019 0.20999999 101 94 158 97.000000 1.000000 4.000000 1.000000 -60.708740 114.000000 231.000000 0.491704 0.042459 0.869727
0.27000001 7.13999987 0.18000001 101 94 158 97.000000 1.000000 4.000000 1.000000 -60.708740 114.000000 231.000000 0.669743 -0.206673 0.713253
0.25999999 7.15000010 0.17000000 101 94 158 97.000000 1.000000 4.000000 1.000000 -60.708740 114.000000 231.000000 0.622458 0.372818 0.688152
0.25999999 7.07999992 0.31000000 101 94 158 97.000000 1.000000 4.000000 1.000000 -60.708740 114.000000 231.000000 0.908992 0.063481 0.411950
0.28000000 7.01999998 0.30000001 101 94 158 97.000000 1.000000 4.000000 1.000000 -60.708740 114.000000 231.000000 0.891936 -0.318229 0.321217
0.33000001 7.07000017 0.22000000 101 94 158 97.000000 1.000000 4.000000 1.000000 -60.708740 114.000000 231.000000 0.690042 -0.055949 0.721603
0.33000001 7.03999996 0.18000001 101 94 158 97.000000 1.000000 4.000000 1.000000 -60.708740 114.000000 231.000000 0.411259 0.254589 0.875243
0.27000001 7.03000021 0.23000000 101 94 158 97.000000 1.000000 4.000000 1.000000 -60.708740 114.000000 231.000000 0.705290 0.407978 0.579758
0.28000000 7.03999996 0.20000000 101 94 158 97.000000 1.000000 4.000000 1.000000 -60.708740 114.000000 231.000000 0.820213 0.166442 0.547309
0.28000000 7.05000019 0.19000000 101 94 158 97.000000 1.000000 4.000000 1.000000 -60.708740 114.000000 231.000000 0.637689 -0.322901 0.699348
0.76999998 7.01000023 0.01000000 101 94 158 97.000000 1.000000 4.000000 1.000000 -60.708740 114.000000 231.000000 -0.292461 0.380351 0.877383
0.61000001 6.94999981 0.15000001 101 94 158 97.000000 1.000000 4.000000 1.000000 -60.708740 114.000000 231.000000 -0.129278 0.179482 0.975230
0.74000001 6.96999979 0.03000000 101 94 158 97.000000 1.000000 4.000000 1.000000 -60.708740 114.000000 231.000000 -0.649175 0.213278 0.730127
0.74000001 7.01000023 0.01000000 101 94 158 97.000000 1.000000 4.000000 1.000000 -60.708740 114.000000 231.000000 -0.638937 0.258429 0.724551
0.69000000 7.00000000 0.01000000 101 94 158 97.000000 1.000000 4.000000 1.000000 -60.708740 114.000000 231.000000 -0.418048 0.182077 0.889991
0.70999998 7.01000023 0.00000000 101 94 158 97.000000 1.000000 4.000000 1.000000 -60.708740 114.000000 231.000000 -0.045018 0.467915 0.882626
0.70999998 7.00000000 0.01000000 101 94 158 97.000000 1.000000 4.000000 1.000000 -60.708740 114.000000 231.000000 -0.006824 0.571891 0.820301
0.69999999 7.00000000 0.00000000 101 94 158 97.000000 1.000000 4.000000 1.000000 -60.708740 114.000000 231.000000 -0.294401 0.664414 0.686937
0.69999999 6.98999977 0.02000000 101 94 158 97.000000 1.000000 4.000000 1.000000 -60.708740 114.000000 231.000000 -0.180327 0.493293 0.850967
0.68000001 6.94000006 0.03000000 101 94 158 97.000000 1.000000 4.000000 1.000000 -60.708740 114.000000 231.000000 -0.281253 0.473935 0.834436
0.69999999 6.96000004 0.01000000 101 94 158 97.000000 1.000000 4.000000 1.000000 -60.708740 114.000000 231.000000 0.019320 0.155700 0.987615
0.68000001 6.96000004 -0.02000000 101 94 158 97.000000 1.000000 4.000000 1.000000 -60.708740 114.000000 231.000000 -0.016657 0.127707 0.991672
0.72000003 6.88999987 0.05000000 101 94 158 97.000000 1.000000 4.000000 1.000000 -60.708740 114.000000 231.000000 -0.214032 0.166761 0.962487
0.69999999 6.84999990 -0.01000000 101 94 158 97.000000 1.000000 4.000000 1.000000 -60.708740 114.000000 231.000000 -0.535236 0.445754 0.717514
0.63999999 7.01000023 0.03000000 101 94 158 97.000000 1.000000 4.000000 1.000000 -60.708740 114.000000 231.000000 -0.185895 0.226016 0.956222
0.66000003 6.98999977 0.00000000 101 94 158 97.000000 1.000000 4.000000 1.000000 -60.708740 114.000000 231.000000 0.165077 0.403362 0.900027
0.67000002 6.94000006 -0.02000000 101 94 158 97.000000 1.000000 4.000000 1.000000 -60.708740 114.000000 231.000000 -0.435516 0.344325 0.831725
0.60000002 6.96999979 0.00000000 101 94 158 97.000000 1.000000 4.000000 1.000000 -60.708740 114.000000 231.000000 0.281911 0.261877 0.923009
0.62000000 6.98999977 -0.02000000 101 94 158 97.000000 1.000000 4.000000 1.000000 -60.708740 114.000000 231.000000 -0.213925 0.570981 0.792601
0.62000000 6.98999977 -0.02000000 101 94 158 97.000000 1.000000 4.000000 1.000000 -60.708740 114.000000 231.000000 -0.213925 0.570981 0.792601
0.67000002 6.88999987 0.03000000 101 94 158 97.000000 1.000000 4.000000 1.000000 -60.708740 114.000000 231.000000 0.037014 0.500369 0.865021
0.67000002 6.90000010 -0.02000000 101 94 158 97.000000 1.000000 4.000000 1.000000 -60.708740 114.000000 231.000000 -0.032190 0.213408 0.976433
0.64999998 6.84999990 0.06000000 101 94 158 97.000000 1.000000 4.000000 1.000000 -60.708740 114.000000 231.000000 -0.042370 0.485207 0.873372
0.74000001 6.82000017 0.09000000 101 94 158 97.000000 1.000000 4.000000 1.000000 -60.708740 114.000000 231.000000 -0.248344 0.422938 0.871463
0.73000002 6.82000017 0.03000000 101 94 158 97.000000 1.000000 4.000000 1.000000 -60.708740 114.000000 231.000000 -0.072674 0.213095 0.974325
0.75000000 6.76999998 0.01000000 101 94 158 97.000000 1.000000 4.000000 1.000000 -60.708740 114.000000 231.000000 -0.414042 0.221119 0.882993
0.68000001 6.80000019 0.03000000 101 94 158 97.000000 1.000000 4.000000 1.000000 -60.708740 114.000000 231.000000 -0.264744 0.378419 0.886967
0.70999998 6.76999998 0.02000000 101 94 158 97.000000 1.000000 4.000000 1.000000 -60.708740 114.000000 231.000000 -0.600758 0.556759 0.573681
0.72000003 6.76000023 0.00000000 101 94 158 97.000000 1.000000 4.000000 1.000000 -60.708740 114.000000 231.000000 0.621069 -0.314567 -0.717859
0.69000000 6.73000002 -0.01000000 101 94 158 97.000000 1.000000 4.000000 1.000000 -60.708740 114.000000 231.000000 0.529046 -0.603417 -0.596656
0.69000000 6.71999979 0.00000000 101 94 158 97.000000 1.000000 4.000000 1.000000 -60.708740 114.000000 231.000000 0.530389 -0.349831 -0.772208
0.62000000 6.84000015 0.09000000 101 94 158 97.000000 1.000000 4.000000 1.000000 -60.708740 114.000000 231.000000 -0.515322 0.184795 0.836836
0.62000000 6.78999996 0.11000000 101 94 158 97.000000 1.000000 4.000000 1.000000 -60.708740 114.000000 231.000000 -0.131864 0.426785 0.894688
0.63999999 6.82999992 0.06000000 101 94 158 97.000000 1.000000 4.000000 1.000000 -60.708740 114.000000 231.000000 -0.228587 0.428787 0.874008
0.67000002 6.76999998 0.04000000 101 94 158 97.000000 1.000000 4.000000 1.000000 -60.708740 114.000000 231.000000 -0.416008 0.575119 0.704397
0.64999998 6.76999998 -0.01000000 101 94 158 97.000000 1.000000 4.000000 1.000000 -60.708740 114.000000 231.000000 -0.520038 0.560429 0.644578
0.62000000 6.76999998 0.05000000 101 94 158 97.000000 1.000000 4.000000 1.000000 -60.708740 114.000000 231.000000 -0.041597 0.296222 0.954213
0.62000000 6.76999998 0.05000000 101 94 158 97.000000 1.000000 4.000000 1.000000 -60.708740 114.000000 231.000000 -0.041597 0.296222 0.954213
0.63999999 6.63999987 0.13000000 101 94 158 97.000000 1.000000 4.000000 1.000000 -60.708740 114.000000 231.000000 -0.660089 0.276502 0.698448
0.60000002 6.65000010 0.13000000 101 94 158 97.000000 1.000000 4.000000 1.000000 -60.708740 114.000000 231.000000 -0.318537 0.635457 0.703369
0.60000002 6.61000013 0.08000000 101 94 158 97.000000 1.000000 4.000000 1.000000 -60.708740 114.000000 231.000000 0.522784 -0.433729 -0.733877
0.64999998 6.65999985 0.04000000 101 94 158 97.000000 1.000000 4.000000 1.000000 -60.708740 114.000000 231.000000 0.513912 -0.604899 -0.608269
0.66000003 6.61999989 0.02000000 101 94 158 97.000000 1.000000 4.000000 1.000000 -60.708740 114.000000 231.000000 -0.246348 0.604102 0.757874
0.63000000 6.63999987 0.01000000 101 94 158 97.000000 1.000000 4.000000 1.000000 -60.708740 114.000000 231.000000 0.034834 0.578246 0.815118
0.61000001 6.55000019 0.08000000 101 94 158 97.000000 1.000000 4.000000 1.000000 -60.708740 114.000000 231.000000 -0.335380 0.256295 0.906550
0.62000000 6.51000023 0.02000000 101 94 158 97.000000 1.000000 4.000000 1.000000 -60.708740 114.000000 231.000000 -0.616769 0.250809 0.746117
0.44999999 6.69999981 0.36000001 101 94 158 97.000000 1.000000 4.000000 1.000000 -60.708740 114.000000 231.000000 -0.377005 0.257794 0.889612
0.27000001 6.98000002 0.31999999 101 94 158 97.000000 1.000000 4.000000 1.000000 -60.708740 114.000000 231.000000 0.811384 0.026353 0.583919
0.27000001 7.00000000 0.31999999 101 94 158 97.000000 1.000000 4.000000 1.000000 -60.708740 114.000000 231.000000 0.989614 -0.051602 0.134166
0.28000000 6.92000008 0.33000001 101 94 158 97.000000 1.000000 4.000000 1.000000 -60.708740 114.000000 231.000000 0.947717 0.158178 0.277150
0.28999999 6.88000011 0.34999999 101 94 158 97.000000 1.000000 4.000000 1.000000 -60.708740 114.000000 231.000000 0.804990 -0.176705 0.566363
0.28999999 6.88000011 0.34000000 101 94 158 97.000000 1.000000 4.000000 1.000000 -60.708740 114.000000 231.000000 0.891696 0.102188 0.440949
0.34999999 6.80000019 0.31999999 101 94 158 97.000000 1.000000 4.000000 1.000000 -60.708740 114.000000 231.000000 0.240179 -0.109172 0.964570
0.34999999 6.80000019 0.31999999 101 94 158 97.000000 1.000000 4.000000 1.000000 -60.708740 114.000000 231.000000 0.240179 -0.109172 0.964570
0.34999999 6.82000017 0.31999999 101 94 158 97.000000 1.000000 4.000000 1.000000 -60.708740 114.000000 231.000000 0.814530 0.109284 0.569734
0.34000000 6.82000017 0.33000001 101 94 158 97.000000 1.000000 4.000000 1.000000 -60.708740 114.000000 231.000000 0.387058 -0.132745 0.912450
0.40000001 6.71999979 0.36000001 101 94 158 97.000000 1.000000 4.000000 1.000000 -60.708740 114.000000 231.000000 0.149560 0.531603 0.833684
0.38999999 6.73000002 0.31999999 101 94 158 97.000000 1.000000 4.000000 1.000000 -60.708740 114.000000 231.000000 0.064837 0.361237 0.930217
0.41999999 6.67999983 0.36000001 101 94 158 97.000000 1.000000 4.000000 1.000000 -60.708740 114.000000 231.000000 0.178473 0.529420 0.829374
0.40000001 6.71000004 0.33000001 101 94 158 97.000000 1.000000 4.000000 1.000000 -60.708740 114.000000 231.000000 0.159142 -0.045303 0.986216
0.34999999 6.73000002 0.31999999 101 94 158 97.000000 1.000000 4.000000 1.000000 -60.708740 114.000000 231.000000 0.103203 0.156626 0.982251
0.34000000 6.73000002 0.33000001 101 94 158 97.000000 1.000000 4.000000 1.000000 -60.708740 114.000000 231.000000 0.419218 -0.258795 0.870219
0.36000001 6.69999981 0.33000001 101 94 158 97.000000 1.000000 4.000000 1.000000 -60.708740 114.000000 231.000000 0.017843 -0.057728 0.998173
0.34999999 6.69000006 0.31999999 101 94 158 97.000000 1.000000 4.000000 1.000000 -60.708740 114.000000 231.000000 0.158413 0.221255 0.962264
0.31999999 6.82000017 0.34000000 101 94 158 97.000000 1.000000 4.000000 1.000000 -60.708740 114.000000 231.000000 0.439426 -0.163878 0.883203
0.31000000 6.78999996 0.37000000 101 94 158 97.000000 1.000000 4.000000 1.000000 -60.708740 114.000000 231.000000 0.733890 -0.346605 0.584183
0.31999999 6.78000021 0.33000001 101 94 158 97.000000 1.000000 4.000000 1.000000 -60.708740 114.000000 231.000000 0.318153 -0.155633 0.935177
0.28999999 6.82000017 0.34999999 101 94 158 97.000000 1.000000 4.000000 1.000000 -60.708740 114.000000 231.000000 0.514082 -0.098807 0.852031
0.31999999 6.71999979 0.33000001 101 94 158 97.000000 1.000000 4.000000 1.000000 -60.708740 114.000000 231.000000 0.298133 0.349070 0.888407
0.56000000 6.98000002 0.17000000 101 94 158 97.000000 1.000000 4.000000 1.000000 -60.708740 114.000000 231.000000 0.107301 0.615876 0.780502
0.54000002 7.01000023 0.17000000 101 94 158 97.000000 1.000000 4.000000 1.000000 -60.708740 114.000000 231.000000 0.100366 0.277635 0.955429
0.54000002 7.01000023 0.17000000 101 94 158 97.000000 1.000000 4.000000 1.000000 -60.708740 114.000000 231.000000 0.100366 0.277635 0.955429
0.52999997 6.98000002 0.15000001 101 94 158 97.000000 1.000000 4.000000 1.000000 -60.708740 114.000000 231.000000 0.003975 0.472990 0.881059
0.50999999 6.98000002 0.18000001 101 94 158 97.000000 1.000000 4.000000 1.000000 -60.708740 114.000000 231.000000 0.315974 0.149096 0.936980
0.54000002 6.96000004 0.16000000 101 94 158 97.000000 1.000000 4.000000 1.000000 -60.708740 114.000000 231.000000 -0.229296 0.360740 0.904041
0.50999999 6.90000010 0.18000001 101 94 158 97.000000 1.000000 4.000000 1.000000 -60.708740 114.000000 231.000000 0.065185 0.290135 0.954763
0.49000001 6.96999979 0.18000001 101 94 158 97.000000 1.000000 4.000000 1.000000 -60.708740 114.000000 231.000000 0.197087 0.330368 0.923046
0.47999999 6.98000002 0.18000001 101 94 158 97.000000 1.000000 4.000000 1.000000 -60.708740 114.000000 231.000000 0.357954 0.351809 0.864927
0.50000000 6.96999979 0.15000001 101 94 158 97.000000 1.000000 4.000000 1.000000 -60.708740 114.000000 231.000000 0.383115 -0.024675 0.923371
0.49000001 6.94999981 0.19000000 101 94 158 97.000000 1.000000 4.000000 1.000000 -60.708740 114.000000 231.000000 0.414409 0.030452 0.909581
0.43000001 7.00000000 0.19000000 101 94 158 97.000000 1.000000 4.000000 1.000000 -60.708740 114.000000 231.000000 0.573424 0.210614 0.791724
0.47999999 6.90999985 0.16000000 101 94 158 97.000000 1.000000 4.000000 1.000000 -60.708740 114.000000 231.000000 0.161149 0.216176 0.962964
0.47000000 6.88000011 0.20999999 101 94 158 97.000000 1.000000 4.000000 1.000000 -60.708740 114.000000 231.000000 -0.001356 0.560008 0.828486
0.47000000 6.84999990 0.20999999 101 94 158 97.000000 1.000000 4.000000 1.000000 -60.708740 114.000000 231.000000 0.450224 0.321589 0.832994
0.50000000 6.86999989 0.16000000 101 94 158 97.000000 1.000000 4.000000 1.000000 -60.708740 114.000000 231.000000 -0.137834 0.366165 0.920285
0.43000001 6.90999985 0.20999999 101 94 158 97.000000 1.000000 4.000000 1.000000 -60.708740 114.000000 231.000000 0.496172 0.373341 0.783855
0.44999999 6.90999985 0.20999999 101 94 158 97.000000 1.000000 4.000000 1.000000 -60.708740 114.000000 231.000000 0.556696 0.029009 0.830209
0.44999999 6.84999990 0.22000000 101 94 158 97.000000 1.000000 4.000000 1.000000 -60.708740 114.000000 231.000000 0.500270 0.361931 0.786598
0.43000001 6.86999989 0.20999999 101 94 158 97.000000 1.000000 4.000000 1.000000 -60.708740 114.000000 231.000000 0.350250 0.396950 0.848384
0.46000001 6.84999990 0.22000000 101 94 158 97.000000 1.000000 4.000000 1.000000 -60.708740 114.000000 231.000000 0.130055 0.521683 0.843168
0.44999999 6.86000013 0.17000000 101 94 158 97.000000 1.000000 4.000000 1.000000 -60.708740 114.000000 231.000000 0.479564 0.295236 0.826350
0.56000000 7.01000023 0.10000000 101 94 158 97.000000 1.000000 4.000000 1.000000 -60.708740 114.000000 231.000000 0.250015 0.058461 0.966475
0.56000000 7.00000000 0.10000000 101 94 158 97.000000 1.000000 4.000000 1.000000 -60.708740 114.000000 231.000000 0.212038 0.220141 0.952144
0.50999999 6.92999983 0.14000000 101 94 158 97.000000 1.000000 4.000000 1.000000 -60.708740 114.000000 231.000000 0.139140 0.392122 0.909330
0.55000001 6.90000010 0.10000000 101 94 158 97.000000 1.000000 4.000000 1.000000 -60.708740 114.000000 231.000000 0.137950 0.489361 0.861101
0.56000000 6.84999990 0.10000000 101 94 158 97.000000 1.000000 4.000000 1.000000 -60.708740 114.000000 231.000000 -0.003849 0.386161 0.922424
0.50999999 6.90000010 0.12000000 101 94 158 97.000000 1.000000 4.000000 1.000000 -60.708740 114.000000 231.000000 0.189487 0.321425 0.927783
0.54000002 6.90999985 0.10000000 101 94 158 97.000000 1.000000 4.000000 1.000000 -60.708740 114.000000 231.000000 0.278848 0.412939 0.867021
0.52999997 6.86000013 0.14000000 101 94 158 97.000000 1.000000 4.000000 1.000000 -60.708740 114.000000 231.000000 0.234994 0.459376 0.856593
0.51999998 6.86000013 0.14000000 101 94 158 97.000000 1.000000 4.000000 1.000000 -60.708740 114.000000 231.000000 0.009677 0.634562 0.772811
0.51999998 6.88000011 0.14000000 101 94 158 97.000000 1.000000 4.000000 1.000000 -60.708740 114.000000 231.000000 0.094387 0.222753 0.970295
0.50999999 6.78000021 0.17000000 101 94 158 97.000000 1.000000 4.000000 1.000000 -60.708740 114.000000 231.000000 0.260149 0.339517 0.903908
0.51999998 6.76000023 0.25999999 101 94 158 97.000000 1.000000 4.000000 1.000000 -60.708740 114.000000 231.000000 0.141842 0.386204 0.911442
0.56000000 6.71000004 0.15000001 101 94 158 97.000000 1.000000 4.000000 1.000000 -60.708740 114.000000 231.000000 0.056114 0.461229 0.885505
0.47000000 6.82000017 0.22000000 101 94 158 97.000000 1.000000 4.000000 1.000000 -60.708740 114.000000 231.000000 0.382660 0.309482 0.870513
0.47000000 6.82999992 0.19000000 101 94 158 97.000000 1.000000 4.000000 1.000000 -60.708740 114.000000 231.000000 0.195053 0.417972 0.887273
0.44999999 6.82999992 0.23000000 101 94 158 97.000000 1.000000 4.000000 1.000000 -60.708740 114.000000 231.000000 0.457939 0.368585 0.808973
0.43000001 6.84000015 0.20999999 101 94 158 97.000000 1.000000 4.000000 1.000000 -60.708740 114.000000 231.000000 0.336335 0.373194 0.864642
0.43000001 6.84000015 0.20999999 101 94 158 97.000000 1.000000 4.000000 1.000000 -60.708740 114.000000 231.000000 0.336335 0.373194 0.864642
0.44000000 6.84000015 0.19000000 101 94 158 97.000000 1.000000 4.000000 1.000000 -60.708740 114.000000 231.000000 0.242461 0.580343 0.777441
0.49000001 6.73999977 0.25000000 101 94 158 97.000000 1.000000 4.000000 1.000000 -60.708740 114.000000 231.000000 -0.365320 0.287145 0.885488
0.49000001 6.71999979 0.20000000 101 94 158 97.000000 1.000000 4.000000 1.000000 -60.708740 114.000000 231.000000 0.026559 0.630423 0.775797
0.44999999 6.71000004 0.22000000 101 94 158 97.000000 1.000000 4.000000 1.000000 -60.708740 114.000000 231.000000 -0.059900 0.502880 0.862278
0.57999998 6.76999998 0.07000000 101 94 158 97.000000 1.000000 4.000000 1.000000 -60.708740 114.000000 231.000000 -0.163761 0.563399 0.809792
0.49000001 6.84000015 0.14000000 101 94 158 97.000000 1.000000 4.000000 1.000000 -60.708740 114.000000 231.000000 0.379342 0.291685 0.878077
0.44999999 6.71999979 0.13000000 101 94 158 97.000000 1.000000 4.000000 1.000000 -60.708740 114.000000 231.000000 -0.125894 0.596884 0.792389
0.38999999 6.98000002 0.25999999 101 94 158 97.000000 1.000000 4.000000 1.000000 -60.708740 114.000000 231.000000 0.668633 0.041168 0.742452
0.34000000 6.98999977 0.23999999 101 94 158 97.000000 1.000000 4.000000 1.000000 -60.708740 114.000000 231.000000 0.699685 -0.067805 0.711226
0.34999999 6.98000002 0.27000001 101 94 158 97.000000 1.000000 4.000000 1.000000 -60.708740 114.000000 231.000000 0.790069 0.303628 0.532542
0.34999999 6.98999977 0.25999999 101 94 158 97.000000 1.000000 4.000000 1.000000 -60.708740 114.000000 231.000000 0.574430 -0.012339 0.818460
0.34000000 7.01000023 0.25999999 101 94 158 97.000000 1.000000 4.000000 1.000000 -60.708740 114.000000 231.000000 0.468369 -0.228880 0.853372
0.34999999 6.96000004 0.28999999 101 94 158 97.000000 1.000000 4.000000 1.000000 -60.708740 114.000000 231.000000 0.669703 -0.018176 0.742406
0.38000000 6.94000006 0.27000001 101 94 158 97.000000 1.000000 4.000000 1.000000 -60.708740 114.000000 231.000000 0.671240 0.261831 0.693456
0.41999999 7.00000000 0.20000000 101 94 158 97.000000 1.000000 4.000000 1.000000 -60.708740 114.000000 231.000000 0.698761 0.104888 0.707624
0.41000000 7.00000000 0.23000000 101 94 158 97.000000 1.000000 4.000000 1.000000 -60.708740 114.000000 231.000000 0.628153 -0.181874 0.756535
0.38999999 7.00000000 0.20000000 101 94 158 97.000000 1.000000 4.000000 1.000000 -60.708740 114.000000 231.000000 0.398197 0.091681 0.912707
0.41999999 6.94000006 0.17000000 101 94 158 97.000000 1.000000 4.000000 1.000000 -60.708740 114.000000 231.000000 0.452281 0.357064 0.817280
0.36000001 6.96999979 0.22000000 101 94 158 97.000000 1.000000 4.000000 1.000000 -60.708740 114.000000 231.000000 0.723507 0.080066 0.685658
0.38000000 6.94000006 0.22000000 101 94 158 97.000000 1.000000 4.000000 1.000000 -60.708740 114.000000 231.000000 0.536423 0.096355 0.838431
0.37000000 6.94999981 0.22000000 101 94 158 97.000000 1.000000 4.000000 1.000000 -60.708740 114.000000 231.000000 0.546786 0.278908 0.789452
0.40000001 6.90000010 0.25000000 101 94 158 97.000000 1.000000 4.000000 1.000000 -60.708740 114.000000 231.000000 0.330983 0.380245 0.863634
0.40000001 6.84999990 0.28000000 101 94 158 97.000000 1.000000 4.000000 1.000000 -60.708740 114.000000 231.000000 0.648325 -0.104379 0.754175
0.40000001 6.86999989 0.27000001 101 94 158 97.000000 1.000000 4.000000 1.000000 -60.708740 114.000000 231.000000 0.453589 0.379861 0.806203
0.36000001 6.88999987 0.28999999 101 94 158 97.000000 1.000000 4.000000 1.000000 -60.708740 114.000000 231.000000 0.698012 0.217055 0.682397
0.38000000 6.90000010 0.25000000 101 94 158 97.000000 1.000000 4.000000 1.000000 -60.708740 114.000000 231.000000 0.622081 -0.035106 0.782165
0.37000000 6.86000013 0.25999999 101 94 158 97.000000 1.000000 4.000000 1.000000 -60.708740 114.000000 231.000000 0.729391 -0.073954 0.680088
0.38999999 6.86000013 0.22000000 101 94 158 97.000000 1.000000 4.000000 1.000000 -60.708740 114.000000 231.000000 0.646405 0.146157 0.748865
0.30000001 6.96999979 0.27000001 101 94 158 97.000000 1.000000 4.000000 1.000000 -60.708740 114.000000 231.000000 0.922411 0.006415 0.386156
0.28000000 6.94000006 0.28000000 101 94 158 97.000000 1.000000 4.000000 1.000000 -60.708740 114.000000 231.000000 0.873436 0.103676 0.475774
0.28000000 6.96000004 0.28999999 101 94 158 97.000000 1.000000 4.000000 1.000000 -60.708740 114.000000 231.000000 0.909861 0.151408 0.386302
0.31999999 7.00000000 0.23000000 101 94 158 97.000000 1.000000 4.000000 1.000000 -60.708740 114.000000 231.000000 0.797739 0.289081 0.529193
0.31000000 6.90000010 0.30000001 101 94 158 97.000000 1.000000 4.000000 1.000000 -60.708740 114.000000 231.000000 0.759039 -0.257221 0.598078
0.33000001 6.88999987 0.28000000 101 94 158 97.000000 1.000000 4.000000 1.000000 -60.708740 114.000000 231.000000 0.775087 -0.155017 0.612544
0.38999999 6.78999996 0.31000000 101 94 158 97.000000 1.000000 4.000000 1.000000 -60.708740 114.000000 231.000000 0.101969 -0.175682 0.979152
0.38000000 6.82000017 0.25999999 101 94 158 97.000000 1.000000 4.000000 1.000000 -60.708740 114.000000 231.000000 0.723389 0.159237 0.671827
0.38000000 6.82000017 0.25999999 101 94 158 97.000000 1.000000 4.000000 1.000000 -60.708740 114.000000 231.000000 0.723389 0.159237 0.671827
0.36000001 6.78999996 0.31000000 101 94 158 97.000000 1.000000 4.000000 1.000000 -60.708740 114.000000 231.000000 0.181359 -0.083985 0.979824
0.34000000 6.76999998 0.31000000 101 94 158 97.000000 1.000000 4.000000 1.000000 -60.708740 114.000000 231.000000 0.776144 -0.067428 0.626940
0.31999999 6.82000017 0.28999999 101 94 158 97.000000 1.000000 4.000000 1.000000 -60.708740 114.000000 231.000000 0.781532 -0.138972 0.608190
0.41000000 6.73000002 0.11000000 101 94 158 97.000000 1.000000 4.000000 1.000000 -60.708740 114.000000 231.000000 -0.245859 0.063649 0.967214
0.38999999 6.69999981 0.10000000 101 94 158 97.000000 1.000000 4.000000 1.000000 -60.708740 114.000000 231.000000 0.097222 0.584781 0.805344
0.43000001 6.63999987 0.36000001 101 94 158 97.000000 1.000000 4.000000 1.000000 -60.708740 114.000000 231.000000 -0.044316 0.425702 0.903778
0.44000000 6.67000008 0.34999999 101 94 158 97.000000 1.000000 4.000000 1.000000 -60.708740 114.000000 231.000000 0.202708 0.064332 0.977124
0.44999999 6.63999987 0.36000001 101 94 158 97.000000 1.000000 4.000000 1.000000 -60.708740 114.000000 231.000000 0.069939 0.270856 0.960076
0.41000000 6.67000008 0.37000000 101 94 158 97.000000 1.000000 4.000000 1.000000 -60.708740 114.000000 231.000000 0.485849 0.009369 0.873993
0.38999999 6.67000008 0.36000001 101 94 158 97.000000 1.000000 4.000000 1.000000 -60.708740 114.000000 231.000000 0.152122 0.515441 0.843315
0.40000001 6.61000013 0.38000000 101 94 158 97.000000 1.000000 4.000000 1.000000 -60.708740 114.000000 231.000000 -0.102543 0.320946 0.941530
0.41000000 6.61000013 0.34999999 101 94 158 97.000000 1.000000 4.000000 1.000000 -60.708740 114.000000 231.000000 -0.001059 -0.085761 0.996315
0.40000001 6.61999989 0.34999999 101 94 158 97.000000 1.000000 4.000000 1.000000 -60.708740 114.000000 231.000000 0.005919 0.235562 0.971841
0.38000000 6.65999985 0.37000000 101 94 158 97.000000 1.000000 4.000000 1.000000 -60.708740 114.000000 231.000000 0.041326 0.417262 0.907846
0.34999999 6.65999985 0.34000000 101 94 158 97.000000 1.000000 4.000000 1.000000 -60.708740 114.000000 231.000000 0.028066 0.036382 0.998944
