//X Y Z R G B PointSourceId ScanDirectionFlag NumberOfReturns ReturnNumber GpsTime Intensity Classification Nx Ny Nz
3.85999990 -16.09000015 0.13000000 201 241 34 0.000000 0.000000 0.000000 0.000000 -60.708740 0.000000 7.000000 -0.140018 0.101722 0.984910
3.70000005 -15.82999992 0.07000000 201 241 34 0.000000 0.000000 0.000000 0.000000 -60.708740 0.000000 7.000000 -0.475193 0.867554 0.146772
3.75000000 -15.85000038 0.10000000 201 241 34 0.000000 0.000000 0.000000 0.000000 -60.708740 0.000000 7.000000 -0.076217 0.995239 -0.060753
3.72000003 -15.85999966 0.08000000 201 241 34 0.000000 0.000000 0.000000 0.000000 -60.708740 0.000000 7.000000 -0.366362 0.929594 0.040417
3.75999999 -15.85000038 0.10000000 201 241 34 0.000000 0.000000 0.000000 0.000000 -60.708740 0.000000 7.000000 0.150340 0.987116 0.054775
3.71000004 -15.85999966 0.07000000 201 241 34 0.000000 0.000000 0.000000 0.000000 -60.708740 0.000000 7.000000 -0.369625 0.920601 0.125977
3.71000004 -15.85000038 0.03000000 201 241 34 0.000000 0.000000 0.000000 0.000000 -60.708740 0.000000 7.000000 -0.078280 0.992687 0.091894
3.71000004 -15.85000038 0.00000000 201 241 34 0.000000 0.000000 0.000000 0.000000 -60.708740 0.000000 7.000000 0.090560 0.963002 -0.253824
3.76999998 -15.97000027 0.09000000 201 241 34 0.000000 0.000000 0.000000 0.000000 -60.708740 0.000000 7.000000 -0.249836 0.768364 0.589236
3.76999998 -15.97000027 0.09000000 201 241 34 0.000000 0.000000 0.000000 0.000000 -60.708740 0.000000 7.000000 -0.249836 0.768364 0.589236
3.73000002 -15.97999954 0.08000000 201 241 34 0.000000 0.000000 0.000000 0.000000 -60.708740 0.000000 7.000000 -0.371498 0.882872 0.287272
3.64000010 -15.85000038 0.08000000 201 241 34 0.000000 0.000000 0.000000 0.000000 -60.708740 0.000000 7.000000 -0.198248 0.979369 -0.039175
3.69000006 -15.86999989 0.07000000 201 241 34 0.000000 0.000000 0.000000 0.000000 -60.708740 0.000000 7.000000 -0.166077 0.912716 0.373319
3.61999989 -15.82999992 -0.02000000 201 241 34 0.000000 0.000000 0.000000 0.000000 -60.708740 0.000000 7.000000 -0.293286 0.942608 0.159602
3.64000010 -15.86999989 0.05000000 201 241 34 0.000000 0.000000 0.000000 0.000000 -60.708740 0.000000 7.000000 0.302950 0.953006 -0.001227
3.63000011 -15.85999966 0.03000000 201 241 34 0.000000 0.000000 0.000000 0.000000 -60.708740 0.000000 7.000000 0.026013 0.989614 0.141374
3.61999989 -15.85999966 0.03000000 201 241 34 0.000000 0.000000 0.000000 0.000000 -60.708740 0.000000 7.000000 -0.067949 0.994724 0.076860
3.63000011 -15.96000004 0.07000000 201 241 34 0.000000 0.000000 0.000000 0.000000 -60.708740 0.000000 7.000000 0.127085 0.957723 0.258100
3.64000010 -15.93999958 0.01000000 201 241 34 0.000000 0.000000 0.000000 0.000000 -60.708740 0.000000 7.000000 0.130464 0.955415 0.264881
3.63000011 -15.89999962 -0.02000000 201 241 34 0.000000 0.000000 0.000000 0.000000 -60.708740 0.000000 7.000000 -0.199973 0.872476 -0.445866
3.61999989 -15.94999981 0.05000000 201 241 34 0.000000 0.000000 0.000000 0.000000 -60.708740 0.000000 7.000000 0.259921 0.961580 0.088348
3.75999999 -16.04000092 0.28999999 201 241 34 0.000000 0.000000 0.000000 0.000000 -60.708740 0.000000 7.000000 -0.061652 -0.199461 0.977964
3.76999998 -16.04999924 0.28999999 201 241 34 0.000000 0.000000 0.000000 0.000000 -60.708740 0.000000 7.000000 0.025887 0.505480 0.862450
3.70000005 -16.00000000 0.28999999 201 241 34 0.000000 0.000000 0.000000 0.000000 -60.708740 0.000000 7.000000 0.088347 0.061508 0.994189
3.73000002 -16.00000000 0.30000001 201 241 34 0.000000 0.000000 0.000000 0.000000 -60.708740 0.000000 7.000000 0.112000 0.055434 0.992161
3.71000004 -16.02000046 0.28999999 201 241 34 0.000000 0.000000 0.000000 0.000000 -60.708740 0.000000 7.000000 -0.082415 -0.016055 0.996469
3.75000000 -16.04999924 0.17000000 201 241 34 0.000000 0.000000 0.000000 0.000000 -60.708740 0.000000 7.000000 -0.120041 0.203438 0.971701
3.76999998 -16.10000038 0.28000000 201 241 34 0.000000 0.000000 0.000000 0.000000 -60.708740 0.000000 7.000000 -0.131476 -0.095942 0.986666
3.75999999 -16.06999969 0.27000001 201 241 34 0.000000 0.000000 0.000000 0.000000 -60.708740 0.000000 7.000000 0.111980 0.283243 0.952488
3.76999998 -16.09000015 0.27000001 201 241 34 0.000000 0.000000 0.000000 0.000000 -60.708740 0.000000 7.000000 0.106738 0.104392 0.988792
3.76999998 -16.10000038 0.28000000 201 241 34 0.000000 0.000000 0.000000 0.000000 -60.708740 0.000000 7.000000 -0.131476 -0.095942 0.986666
3.71000004 -16.12000084 0.20999999 201 241 34 0.000000 0.000000 0.000000 0.000000 -60.708740 0.000000 7.000000 -0.038324 -0.088692 0.995322
3.71000004 -16.12000084 0.15000001 201 241 34 0.000000 0.000000 0.000000 0.000000 -60.708740 0.000000 7.000000 -0.115806 -0.347417 0.930532
3.73000002 -16.12000084 0.16000000 201 241 34 0.000000 0.000000 0.000000 0.000000 -60.708740 0.000000 7.000000 -0.400789 -0.068822 0.913582
3.72000003 -16.11000061 0.15000001 201 241 34 0.000000 0.000000 0.000000 0.000000 -60.708740 0.000000 7.000000 -0.235142 -0.042642 0.971025
3.75999999 -16.06999969 0.17000000 201 241 34 0.000000 0.000000 0.000000 0.000000 -60.708740 0.000000 7.000000 -0.290170 -0.115273 0.950007
3.63000011 -16.02000046 0.27000001 201 241 34 0.000000 0.000000 0.000000 0.000000 -60.708740 0.000000 7.000000 -0.346793 0.142309 0.927083
3.69000006 -16.00000000 0.28000000 201 241 34 0.000000 0.000000 0.000000 0.000000 -60.708740 0.000000 7.000000 -0.006210 0.319201 0.947667
3.63000011 -16.03000069 0.31000000 201 241 34 0.000000 0.000000 0.000000 0.000000 -60.708740 0.000000 7.000000 0.165306 0.463734 0.870416
3.69000006 -16.00000000 0.18000001 201 241 34 0.000000 0.000000 0.000000 0.000000 -60.708740 0.000000 7.000000 -0.247818 0.547070 0.799563
3.68000007 -16.12000084 0.15000001 201 241 34 0.000000 0.000000 0.000000 0.000000 -60.708740 0.000000 7.000000 -0.146869 0.089554 0.985094
3.74000001 -16.02000046 0.13000000 201 241 34 0.000000 0.000000 0.000000 0.000000 -60.708740 0.000000 7.000000 -0.148759 0.446277 0.882444
3.76999998 -16.02000046 0.14000000 201 241 34 0.000000 0.000000 0.000000 0.000000 -60.708740 0.000000 7.000000 -0.362171 0.494163 0.790339
3.74000001 -16.00000000 0.10000000 201 241 34 0.000000 0.000000 0.000000 0.000000 -60.708740 0.000000 7.000000 0.493619 -0.608180 -0.621657
3.76999998 -16.04000092 0.08000000 201 241 34 0.000000 0.000000 0.000000 0.000000 -60.708740 0.000000 7.000000 0.265219 0.655900 0.706721
3.75000000 -16.04999924 0.10000000 201 241 34 0.000000 0.000000 0.000000 0.000000 -60.708740 0.000000 7.000000 -0.166965 0.561063 0.810759
3.73000002 -16.01000023 0.12000000 201 241 34 0.000000 0.000000 0.000000 0.000000 -60.708740 0.000000 7.000000 -0.159644 0.713077 0.682668
3.72000003 -16.02000046 0.09000000 201 241 34 0.000000 0.000000 0.000000 0.000000 -60.708740 0.000000 7.000000 -0.309291 0.764412 0.565697
3.70000005 -16.04000092 0.12000000 201 241 34 0.000000 0.000000 0.000000 0.000000 -60.708740 0.000000 7.000000 -0.250061 0.343651 0.905192
3.75000000 -16.09000015 0.14000000 201 241 34 0.000000 0.000000 0.000000 0.000000 -60.708740 0.000000 7.000000 -0.426050 -0.231711 0.874523
3.75999999 -16.06999969 0.14000000 201 241 34 0.000000 0.000000 0.000000 0.000000 -60.708740 0.000000 7.000000 -0.032876 0.398462 0.916595
3.74000001 -16.09000015 0.14000000 201 241 34 0.000000 0.000000 0.000000 0.000000 -60.708740 0.000000 7.000000 -0.460774 -0.079348 0.883963
3.76999998 -16.10000038 0.14000000 201 241 34 0.000000 0.000000 0.000000 0.000000 -60.708740 0.000000 7.000000 0.044620 -0.309787 0.949758
3.73000002 -16.11000061 0.10000000 201 241 34 0.000000 0.000000 0.000000 0.000000 -60.708740 0.000000 7.000000 -0.230513 -0.219601 0.947966
3.73000002 -16.11000061 0.09000000 201 241 34 0.000000 0.000000 0.000000 0.000000 -60.708740 0.000000 7.000000 -0.302981 -0.449033 0.840578
3.69000006 -16.01000023 0.08000000 201 241 34 0.000000 0.000000 0.000000 0.000000 -60.708740 0.000000 7.000000 -0.049255 0.917201 0.395368
3.69000006 -16.01000023 0.07000000 201 241 34 0.000000 0.000000 0.000000 0.000000 -60.708740 0.000000 7.000000 0.079753 0.767080 0.636575
3.69000006 -16.05999947 0.11000000 201 241 34 0.000000 0.000000 0.000000 0.000000 -60.708740 0.000000 7.000000 -0.389695 0.396006 0.831455
3.69000006 -16.03000069 0.11000000 201 241 34 0.000000 0.000000 0.000000 0.000000 -60.708740 0.000000 7.000000 -0.049471 0.410474 0.910529
3.67000008 -16.05999947 0.09000000 201 241 34 0.000000 0.000000 0.000000 0.000000 -60.708740 0.000000 7.000000 -0.171943 0.264007 0.949071
3.65000010 -16.05999947 0.09000000 201 241 34 0.000000 0.000000 0.000000 0.000000 -60.708740 0.000000 7.000000 0.112287 0.291947 0.949820
3.65000010 -16.04000092 0.07000000 201 241 34 0.000000 0.000000 0.000000 0.000000 -60.708740 0.000000 7.000000 -0.023485 0.565023 0.824741
3.64000010 -16.01000023 0.06000000 201 241 34 0.000000 0.000000 0.000000 0.000000 -60.708740 0.000000 7.000000 0.201554 0.780060 0.592353
3.69000006 -16.03000069 0.06000000 201 241 34 0.000000 0.000000 0.000000 0.000000 -60.708740 0.000000 7.000000 -0.252156 0.947289 0.197636
3.65000010 -15.98999977 0.03000000 201 241 34 0.000000 0.000000 0.000000 0.000000 -60.708740 0.000000 7.000000 -0.456138 0.882434 0.115100
3.64000010 -16.09000015 0.11000000 201 241 34 0.000000 0.000000 0.000000 0.000000 -60.708740 0.000000 7.000000 -0.023340 -0.017252 0.999579
3.61999989 -16.09000015 0.11000000 201 241 34 0.000000 0.000000 0.000000 0.000000 -60.708740 0.000000 7.000000 -0.380965 -0.160034 0.910634
3.61999989 -16.09000015 0.11000000 201 241 34 0.000000 0.000000 0.000000 0.000000 -60.708740 0.000000 7.000000 -0.380965 -0.160034 0.910634
3.64000010 -16.12000084 0.06000000 201 241 34 0.000000 0.000000 0.000000 0.000000 -60.708740 0.000000 7.000000 0.169013 -0.414586 0.894177
3.80999994 -16.21999931 0.46000001 201 241 34 0.000000 0.000000 0.000000 0.000000 -60.708740 0.000000 7.000000 0.102962 -0.388509 0.915674
3.77999997 -16.22999954 0.44000000 201 241 34 0.000000 0.000000 0.000000 0.000000 -60.708740 0.000000 7.000000 -0.059945 -0.289521 0.955293
3.82999992 -16.20999908 0.34999999 201 241 34 0.000000 0.000000 0.000000 0.000000 -60.708740 0.000000 7.000000 -0.292993 -0.290078 0.911049
3.83999991 -16.21999931 0.34999999 201 241 34 0.000000 0.000000 0.000000 0.000000 -60.708740 0.000000 7.000000 -0.286284 -0.129161 0.949399
3.85999990 -16.20000076 0.36000001 201 241 34 0.000000 0.000000 0.000000 0.000000 -60.708740 0.000000 7.000000 -0.290243 -0.547179 0.785083
3.77999997 -16.23999977 0.41000000 201 241 34 0.000000 0.000000 0.000000 0.000000 -60.708740 0.000000 7.000000 0.060685 -0.236548 0.969723
3.77999997 -16.29999924 0.41999999 201 241 34 0.000000 0.000000 0.000000 0.000000 -60.708740 0.000000 7.000000 -0.226046 -0.366048 0.902725
3.81999993 -16.29000092 0.44000000 201 241 34 0.000000 0.000000 0.000000 0.000000 -60.708740 0.000000 7.000000 -0.297165 -0.317863 0.900365
3.79999995 -16.30999947 0.40000001 201 241 34 0.000000 0.000000 0.000000 0.000000 -60.708740 0.000000 7.000000 0.085017 -0.586471 0.805496
3.83999991 -16.27000046 0.37000000 201 241 34 0.000000 0.000000 0.000000 0.000000 -60.708740 0.000000 7.000000 0.082443 -0.606026 0.791161
3.80999994 -16.28000069 0.36000001 201 241 34 0.000000 0.000000 0.000000 0.000000 -60.708740 0.000000 7.000000 0.173776 0.805416 -0.566662
3.83999991 -16.31999969 0.34000000 201 241 34 0.000000 0.000000 0.000000 0.000000 -60.708740 0.000000 7.000000 -0.222556 0.764161 -0.605415
3.76999998 -16.19000053 0.44999999 201 241 34 0.000000 0.000000 0.000000 0.000000 -60.708740 0.000000 7.000000 -0.103644 -0.071754 0.992023
3.74000001 -16.22999954 0.44999999 201 241 34 0.000000 0.000000 0.000000 0.000000 -60.708740 0.000000 7.000000 -0.315483 -0.003712 0.948924
3.75999999 -16.21999931 0.41999999 201 241 34 0.000000 0.000000 0.000000 0.000000 -60.708740 0.000000 7.000000 0.192334 -0.389007 0.900934
3.72000003 -16.15999985 0.38000000 201 241 34 0.000000 0.000000 0.000000 0.000000 -60.708740 0.000000 7.000000 -0.278697 -0.028489 0.959956
3.71000004 -16.22999954 0.38000000 201 241 34 0.000000 0.000000 0.000000 0.000000 -60.708740 0.000000 7.000000 0.018902 -0.000995 0.999821
3.72000003 -16.17000008 0.37000000 201 241 34 0.000000 0.000000 0.000000 0.000000 -60.708740 0.000000 7.000000 -0.283770 0.103308 0.953311
3.75000000 -16.25000000 0.41000000 201 241 34 0.000000 0.000000 0.000000 0.000000 -60.708740 0.000000 7.000000 -0.052736 -0.428653 0.901929
3.75999999 -16.30999947 0.41000000 201 241 34 0.000000 0.000000 0.000000 0.000000 -60.708740 0.000000 7.000000 0.049982 -0.672614 0.738304
3.71000004 -16.30999947 0.40000001 201 241 34 0.000000 0.000000 0.000000 0.000000 -60.708740 0.000000 7.000000 -0.009724 0.712608 -0.701495
3.75999999 -16.26000023 0.38000000 201 241 34 0.000000 0.000000 0.000000 0.000000 -60.708740 0.000000 7.000000 0.020687 -0.575097 0.817824
3.71000004 -16.28000069 0.31999999 201 241 34 0.000000 0.000000 0.000000 0.000000 -60.708740 0.000000 7.000000 -0.185936 -0.677667 0.711474
3.64000010 -16.20000076 0.40000001 201 241 34 0.000000 0.000000 0.000000 0.000000 -60.708740 0.000000 7.000000 -0.086990 -0.429429 0.898901
3.66000009 -16.21999931 0.38999999 201 241 34 0.000000 0.000000 0.000000 0.000000 -60.708740 0.000000 7.000000 0.094890 -0.152544 0.983731
3.67000008 -16.21999931 0.38999999 201 241 34 0.000000 0.000000 0.000000 0.000000 -60.708740 0.000000 7.000000 0.035207 -0.060812 0.997528
3.61999989 -16.15999985 0.31999999 201 241 34 0.000000 0.000000 0.000000 0.000000 -60.708740 0.000000 7.000000 -0.230914 -0.022732 0.972709
3.63000011 -16.22999954 0.38999999 201 241 34 0.000000 0.000000 0.000000 0.000000 -60.708740 0.000000 7.000000 0.165311 0.001125 0.986241
3.65000010 -16.20999908 0.37000000 201 241 34 0.000000 0.000000 0.000000 0.000000 -60.708740 0.000000 7.000000 0.015015 -0.547372 0.836755
3.69000006 -16.29999924 0.41000000 201 241 34 0.000000 0.000000 0.000000 0.000000 -60.708740 0.000000 7.000000 -0.401872 -0.496238 0.769576
3.69000006 -16.30999947 0.36000001 201 241 34 0.000000 0.000000 0.000000 0.000000 -60.708740 0.000000 7.000000 -0.250981 -0.381669 0.889571
3.61999989 -16.25000000 0.38999999 201 241 34 0.000000 0.000000 0.000000 0.000000 -60.708740 0.000000 7.000000 0.114571 -0.166312 0.979395
3.70000005 -16.32999992 0.34999999 201 241 34 0.000000 0.000000 0.000000 0.000000 -60.708740 0.000000 7.000000 0.111643 0.833699 -0.540817
3.91000009 -16.17000008 0.25000000 201 241 34 0.000000 0.000000 0.000000 0.000000 -60.708740 0.000000 7.000000 0.198423 -0.164704 0.966178
3.90000010 -16.19000053 0.27000001 201 241 34 0.000000 0.000000 0.000000 0.000000 -60.708740 0.000000 7.000000 -0.324396 -0.237891 0.915519
3.89000010 -16.17000008 0.23999999 201 241 34 0.000000 0.000000 0.000000 0.000000 -60.708740 0.000000 7.000000 -0.199719 -0.442341 0.874326
3.86999989 -16.15999985 0.18000001 201 241 34 0.000000 0.000000 0.000000 0.000000 -60.708740 0.000000 7.000000 -0.251383 -0.123738 0.959946
3.90000010 -16.20999908 0.20000000 201 241 34 0.000000 0.000000 0.000000 0.000000 -60.708740 0.000000 7.000000 0.208762 0.857575 -0.470089
3.88000011 -16.21999931 0.20999999 201 241 34 0.000000 0.000000 0.000000 0.000000 -60.708740 0.000000 7.000000 0.255629 -0.512807 0.819562
3.83999991 -16.21999931 0.17000000 201 241 34 0.000000 0.000000 0.000000 0.000000 -60.708740 0.000000 7.000000 -0.239048 -0.595275 0.767140
3.82999992 -16.20999908 0.17000000 201 241 34 0.000000 0.000000 0.000000 0.000000 -60.708740 0.000000 7.000000 0.261913 0.725420 -0.636528
3.77999997 -16.29000092 0.28999999 201 241 34 0.000000 0.000000 0.000000 0.000000 -60.708740 0.000000 7.000000 -0.225154 -0.463908 0.856794
3.77999997 -16.23999977 0.15000001 201 241 34 0.000000 0.000000 0.000000 0.000000 -60.708740 0.000000 7.000000 -0.335694 0.844699 -0.416885
3.77999997 -16.22999954 0.09000000 201 241 34 0.000000 0.000000 0.000000 0.000000 -60.708740 0.000000 7.000000 -0.026827 0.996894 0.074043
3.74000001 -16.22999954 0.30000001 201 241 34 0.000000 0.000000 0.000000 0.000000 -60.708740 0.000000 7.000000 0.466307 0.440129 -0.767362
3.74000001 -16.27000046 0.28999999 201 241 34 0.000000 0.000000 0.000000 0.000000 -60.708740 0.000000 7.000000 -0.109048 0.827312 -0.551057
3.75999999 -16.26000023 0.25000000 201 241 34 0.000000 0.000000 0.000000 0.000000 -60.708740 0.000000 7.000000 0.158096 -0.591731 0.790481
3.75999999 -16.26000023 0.25000000 201 241 34 0.000000 0.000000 0.000000 0.000000 -60.708740 0.000000 7.000000 0.158096 -0.591731 0.790481
3.75000000 -16.29999924 0.30000001 201 241 34 0.000000 0.000000 0.000000 0.000000 -60.708740 0.000000 7.000000 -0.235621 -0.395666 0.887655
3.73000002 -16.25000000 0.28000000 201 241 34 0.000000 0.000000 0.000000 0.000000 -60.708740 0.000000 7.000000 -0.083655 -0.511858 0.854987
3.74000001 -16.23999977 0.22000000 201 241 34 0.000000 0.000000 0.000000 0.000000 -60.708740 0.000000 7.000000 -0.041140 -0.699379 0.713566
3.75999999 -16.29000092 0.16000000 201 241 34 0.000000 0.000000 0.000000 0.000000 -60.708740 0.000000 7.000000 0.137406 0.922982 -0.359477
3.69000006 -16.21999931 0.30000001 201 241 34 0.000000 0.000000 0.000000 0.000000 -60.708740 0.000000 7.000000 -0.358426 -0.177088 0.916608
3.64000010 -16.22999954 0.31000000 201 241 34 0.000000 0.000000 0.000000 0.000000 -60.708740 0.000000 7.000000 -0.196572 -0.329506 0.923464
3.67000008 -16.22999954 0.28999999 201 241 34 0.000000 0.000000 0.000000 0.000000 -60.708740 0.000000 7.000000 -0.223382 -0.667022 0.710761
3.67000008 -16.27000046 0.31000000 201 241 34 0.000000 0.000000 0.000000 0.000000 -60.708740 0.000000 7.000000 0.005555 -0.141108 0.989979
3.69000006 -16.29000092 0.30000001 201 241 34 0.000000 0.000000 0.000000 0.000000 -60.708740 0.000000 7.000000 -0.025912 0.860556 -0.508696
3.61999989 -16.25000000 0.28999999 201 241 34 0.000000 0.000000 0.000000 0.000000 -60.708740 0.000000 7.000000 0.395045 0.649592 -0.649592
3.64000010 -16.25000000 0.25000000 201 241 34 0.000000 0.000000 0.000000 0.000000 -60.708740 0.000000 7.000000 -0.064763 -0.729664 0.680732
3.66000009 -16.25000000 0.22000000 201 241 34 0.000000 0.000000 0.000000 0.000000 -60.708740 0.000000 7.000000 -0.367319 -0.446826 0.815735
3.66000009 -16.23999977 0.18000001 201 241 34 0.000000 0.000000 0.000000 0.000000 -60.708740 0.000000 7.000000 0.292709 -0.530040 0.795851
3.66000009 -16.28000069 0.20000000 201 241 34 0.000000 0.000000 0.000000 0.000000 -60.708740 0.000000 7.000000 0.333548 0.704518 -0.626419
3.74000001 -16.27000046 0.14000000 201 241 34 0.000000 0.000000 0.000000 0.000000 -60.708740 0.000000 7.000000 -0.045582 0.985274 -0.164797
3.75999999 -16.29000092 0.13000000 201 241 34 0.000000 0.000000 0.000000 0.000000 -60.708740 0.000000 7.000000 -0.153744 0.980271 -0.124225
3.75999999 -16.28000069 0.08000000 201 241 34 0.000000 0.000000 0.000000 0.000000 -60.708740 0.000000 7.000000 -0.187402 0.968031 0.166724
3.71000004 -16.26000023 0.13000000 201 241 34 0.000000 0.000000 0.000000 0.000000 -60.708740 0.000000 7.000000 0.383268 0.843190 -0.377011
3.72000003 -16.27000046 0.12000000 201 241 34 0.000000 0.000000 0.000000 0.000000 -60.708740 0.000000 7.000000 0.303403 0.841749 -0.446547
3.72000003 -16.26000023 0.08000000 201 241 34 0.000000 0.000000 0.000000 0.000000 -60.708740 0.000000 7.000000 -0.009480 0.997462 -0.070570
3.71000004 -16.27000046 0.06000000 201 241 34 0.000000 0.000000 0.000000 0.000000 -60.708740 0.000000 7.000000 -0.059361 0.929989 -0.362762
3.68000007 -16.28000069 0.12000000 201 241 34 0.000000 0.000000 0.000000 0.000000 -60.708740 0.000000 7.000000 0.195126 0.830421 -0.521849
3.68000007 -16.25000000 0.05000000 201 241 34 0.000000 0.000000 0.000000 0.000000 -60.708740 0.000000 7.000000 -0.335286 0.927948 -0.162774
3.69000006 -16.26000023 0.00000000 201 241 34 0.000000 0.000000 0.000000 0.000000 -60.708740 0.000000 7.000000 0.050845 0.982616 -0.178550
3.67000008 -16.26000023 0.02000000 201 241 34 0.000000 0.000000 0.000000 0.000000 -60.708740 0.000000 7.000000 -0.408282 0.883374 0.230123
3.60999990 -16.00000000 0.34999999 201 241 34 0.000000 0.000000 0.000000 0.000000 -60.708740 0.000000 7.000000 0.075838 0.445374 0.892127
3.57999992 -16.02000046 0.31999999 201 241 34 0.000000 0.000000 0.000000 0.000000 -60.708740 0.000000 7.000000 -0.185208 0.172256 0.967484
3.56999993 -16.02000046 0.31999999 201 241 34 0.000000 0.000000 0.000000 0.000000 -60.708740 0.000000 7.000000 -0.361280 0.450407 0.816462
3.60999990 -16.14999962 0.34000000 201 241 34 0.000000 0.000000 0.000000 0.000000 -60.708740 0.000000 7.000000 0.060978 0.247644 0.966930
3.54999995 -16.13999939 0.37000000 201 241 34 0.000000 0.000000 0.000000 0.000000 -60.708740 0.000000 7.000000 -0.260927 0.107746 0.959327
3.56999993 -16.14999962 0.34999999 201 241 34 0.000000 0.000000 0.000000 0.000000 -60.708740 0.000000 7.000000 -0.077324 -0.077324 0.994003
3.56999993 -16.13999939 0.34999999 201 241 34 0.000000 0.000000 0.000000 0.000000 -60.708740 0.000000 7.000000 0.049097 -0.073099 0.996115
3.38000011 -16.14999962 0.43000001 201 241 34 0.000000 0.000000 0.000000 0.000000 -60.708740 0.000000 7.000000 -0.445466 0.073095 0.892310
3.60999990 -15.84000015 0.08000000 201 241 34 0.000000 0.000000 0.000000 0.000000 -60.708740 0.000000 7.000000 -0.436219 0.890910 0.126461
3.60999990 -15.82999992 -0.02000000 201 241 34 0.000000 0.000000 0.000000 0.000000 -60.708740 0.000000 7.000000 -0.190420 0.943879 -0.269875
3.60999990 -15.85999966 0.03000000 201 241 34 0.000000 0.000000 0.000000 0.000000 -60.708740 0.000000 7.000000 0.313575 0.943392 0.108083
3.60999990 -15.85999966 0.04000000 201 241 34 0.000000 0.000000 0.000000 0.000000 -60.708740 0.000000 7.000000 0.105645 0.982373 0.154217
3.58999991 -15.85999966 0.05000000 201 241 34 0.000000 0.000000 0.000000 0.000000 -60.708740 0.000000 7.000000 -0.004004 0.868810 0.495129
3.60999990 -15.85999966 0.05000000 201 241 34 0.000000 0.000000 0.000000 0.000000 -60.708740 0.000000 7.000000 -0.113448 0.991241 -0.067611
3.60999990 -15.96000004 0.09000000 201 241 34 0.000000 0.000000 0.000000 0.000000 -60.708740 0.000000 7.000000 -0.329671 0.763872 0.554812
3.58999991 -15.97999954 0.07000000 201 241 34 0.000000 0.000000 0.000000 0.000000 -60.708740 0.000000 7.000000 0.347704 -0.817659 -0.458842
3.53999996 -15.93999958 0.10000000 201 241 34 0.000000 0.000000 0.000000 0.000000 -60.708740 0.000000 7.000000 -0.195644 0.642391 0.740984
3.56999993 -15.89999962 0.07000000 201 241 34 0.000000 0.000000 0.000000 0.000000 -60.708740 0.000000 7.000000 -0.304461 0.949658 -0.073848
3.54999995 -15.97999954 0.07000000 201 241 34 0.000000 0.000000 0.000000 0.000000 -60.708740 0.000000 7.000000 -0.256279 0.818541 0.514112
3.60999990 -15.93999958 0.03000000 201 241 34 0.000000 0.000000 0.000000 0.000000 -60.708740 0.000000 7.000000 0.129161 0.949399 -0.286284
3.57999992 -15.92000008 0.01000000 201 241 34 0.000000 0.000000 0.000000 0.000000 -60.708740 0.000000 7.000000 -0.056379 0.963460 0.261851
3.58999991 -15.97000027 0.04000000 201 241 34 0.000000 0.000000 0.000000 0.000000 -60.708740 0.000000 7.000000 -0.185589 0.966881 0.175207
3.54999995 -15.93999958 0.04000000 201 241 34 0.000000 0.000000 0.000000 0.000000 -60.708740 0.000000 7.000000 0.103877 0.866594 0.488082
3.55999994 -15.93999958 0.05000000 201 241 34 0.000000 0.000000 0.000000 0.000000 -60.708740 0.000000 7.000000 -0.226399 0.901212 0.369541
3.53999996 -15.93000031 0.00000000 201 241 34 0.000000 0.000000 0.000000 0.000000 -60.708740 0.000000 7.000000 0.064177 0.962659 -0.263001
3.50999999 -15.93999958 0.07000000 201 241 34 0.000000 0.000000 0.000000 0.000000 -60.708740 0.000000 7.000000 0.042947 0.968155 0.246640
3.50999999 -15.90999985 0.02000000 201 241 34 0.000000 0.000000 0.000000 0.000000 -60.708740 0.000000 7.000000 0.106764 0.963452 -0.245687
3.50000000 -15.96000004 -0.01000000 201 241 34 0.000000 0.000000 0.000000 0.000000 -60.708740 0.000000 7.000000 -0.265145 0.885315 -0.381989
3.59999990 -16.03000069 0.31000000 201 241 34 0.000000 0.000000 0.000000 0.000000 -60.708740 0.000000 7.000000 -0.020051 0.208762 0.977761
3.57999992 -16.12000084 0.31000000 201 241 34 0.000000 0.000000 0.000000 0.000000 -60.708740 0.000000 7.000000 0.051294 -0.364316 0.929862
3.60999990 -16.12000084 0.31000000 201 241 34 0.000000 0.000000 0.000000 0.000000 -60.708740 0.000000 7.000000 -0.383360 0.179476 0.905993
3.57999992 -16.12000084 0.17000000 201 241 34 0.000000 0.000000 0.000000 0.000000 -60.708740 0.000000 7.000000 -0.112766 0.295844 0.948557
3.56999993 -16.13999939 0.20999999 201 241 34 0.000000 0.000000 0.000000 0.000000 -60.708740 0.000000 7.000000 -0.309501 -0.437034 0.844518
3.54999995 -16.13999939 0.19000000 201 241 34 0.000000 0.000000 0.000000 0.000000 -60.708740 0.000000 7.000000 -0.207071 -0.180692 0.961495
3.53999996 -16.13999939 0.20000000 201 241 34 0.000000 0.000000 0.000000 0.000000 -60.708740 0.000000 7.000000 -0.328611 -0.368350 0.869674
3.56999993 -16.11000061 0.17000000 201 241 34 0.000000 0.000000 0.000000 0.000000 -60.708740 0.000000 7.000000 -0.273709 0.291087 0.916707
3.53999996 -16.12000084 0.18000001 201 241 34 0.000000 0.000000 0.000000 0.000000 -60.708740 0.000000 7.000000 -0.059558 0.150646 0.986792
3.58999991 -15.98999977 0.12000000 201 241 34 0.000000 0.000000 0.000000 0.000000 -60.708740 0.000000 7.000000 0.003948 0.454041 0.890972
3.59999990 -16.02000046 0.09000000 201 241 34 0.000000 0.000000 0.000000 0.000000 -60.708740 0.000000 7.000000 -0.181944 0.753767 0.631452
3.59999990 -16.02000046 0.09000000 201 241 34 0.000000 0.000000 0.000000 0.000000 -60.708740 0.000000 7.000000 -0.181944 0.753767 0.631452
3.59999990 -16.00000000 0.07000000 201 241 34 0.000000 0.000000 0.000000 0.000000 -60.708740 0.000000 7.000000 -0.021482 0.999442 0.025574
3.60999990 -16.01000023 0.08000000 201 241 34 0.000000 0.000000 0.000000 0.000000 -60.708740 0.000000 7.000000 -0.298249 0.864158 0.405313
3.53999996 -16.02000046 0.08000000 201 241 34 0.000000 0.000000 0.000000 0.000000 -60.708740 0.000000 7.000000 0.213677 0.803977 0.554944
3.56999993 -16.04999924 0.07000000 201 241 34 0.000000 0.000000 0.000000 0.000000 -60.708740 0.000000 7.000000 0.261232 0.631706 0.729866
3.53999996 -16.05999947 0.09000000 201 241 34 0.000000 0.000000 0.000000 0.000000 -60.708740 0.000000 7.000000 0.006749 0.519635 0.854361
3.53999996 -16.04000092 0.10000000 201 241 34 0.000000 0.000000 0.000000 0.000000 -60.708740 0.000000 7.000000 0.166002 0.738634 0.653348
3.56999993 -16.03000069 0.09000000 201 241 34 0.000000 0.000000 0.000000 0.000000 -60.708740 0.000000 7.000000 -0.166805 0.566537 0.806977
3.52999997 -16.00000000 0.05000000 201 241 34 0.000000 0.000000 0.000000 0.000000 -60.708740 0.000000 7.000000 0.182348 0.920223 0.346321
3.57999992 -16.02000046 0.06000000 201 241 34 0.000000 0.000000 0.000000 0.000000 -60.708740 0.000000 7.000000 -0.461343 0.816466 0.347196
3.52999997 -16.01000023 0.06000000 201 241 34 0.000000 0.000000 0.000000 0.000000 -60.708740 0.000000 7.000000 0.291682 0.805674 0.515568
3.55999994 -16.03000069 0.06000000 201 241 34 0.000000 0.000000 0.000000 0.000000 -60.708740 0.000000 7.000000 0.261602 0.791071 0.552966
3.52999997 -16.06999969 0.11000000 201 241 34 0.000000 0.000000 0.000000 0.000000 -60.708740 0.000000 7.000000 -0.068437 0.387807 0.919196
3.53999996 -16.07999992 0.10000000 201 241 34 0.000000 0.000000 0.000000 0.000000 -60.708740 0.000000 7.000000 -0.342379 0.151090 0.927334
3.53999996 -16.07999992 0.10000000 201 241 34 0.000000 0.000000 0.000000 0.000000 -60.708740 0.000000 7.000000 -0.342379 0.151090 0.927334
3.54999995 -16.13999939 0.13000000 201 241 34 0.000000 0.000000 0.000000 0.000000 -60.708740 0.000000 7.000000 0.112744 -0.255294 0.960268
3.53999996 -16.12999916 0.14000000 201 241 34 0.000000 0.000000 0.000000 0.000000 -60.708740 0.000000 7.000000 -0.355029 0.176807 0.917983
3.52999997 -16.14999962 0.13000000 201 241 34 0.000000 0.000000 0.000000 0.000000 -60.708740 0.000000 7.000000 0.300437 -0.294575 0.907173
3.55999994 -16.13999939 0.14000000 201 241 34 0.000000 0.000000 0.000000 0.000000 -60.708740 0.000000 7.000000 -0.353293 -0.180194 0.917995
3.55999994 -16.12000084 0.08000000 201 241 34 0.000000 0.000000 0.000000 0.000000 -60.708740 0.000000 7.000000 -0.376383 0.029954 0.925980
3.55999994 -16.11000061 0.06000000 201 241 34 0.000000 0.000000 0.000000 0.000000 -60.708740 0.000000 7.000000 -0.261999 0.359693 0.895532
3.50999999 -16.02000046 0.08000000 201 241 34 0.000000 0.000000 0.000000 0.000000 -60.708740 0.000000 7.000000 0.119068 0.801135 0.586519
3.49000001 -16.02000046 0.07000000 201 241 34 0.000000 0.000000 0.000000 0.000000 -60.708740 0.000000 7.000000 -0.001353 0.550634 0.834745
3.47000003 -16.05999947 0.09000000 201 241 34 0.000000 0.000000 0.000000 0.000000 -60.708740 0.000000 7.000000 -0.084028 0.422898 0.902273
3.51999998 -16.01000023 0.04000000 201 241 34 0.000000 0.000000 0.000000 0.000000 -60.708740 0.000000 7.000000 0.014295 0.992951 -0.117659
3.46000004 -16.00000000 0.06000000 201 241 34 0.000000 0.000000 0.000000 0.000000 -60.708740 0.000000 7.000000 -0.107295 0.768703 0.630542
3.51999998 -16.01000023 0.06000000 201 241 34 0.000000 0.000000 0.000000 0.000000 -60.708740 0.000000 7.000000 -0.182667 0.859869 0.476715
3.47000003 -16.11000061 0.14000000 201 241 34 0.000000 0.000000 0.000000 0.000000 -60.708740 0.000000 7.000000 -0.195626 0.389803 0.899880
3.43000007 -15.94999981 0.07000000 201 241 34 0.000000 0.000000 0.000000 0.000000 -60.708740 0.000000 7.000000 -0.207153 0.951821 0.226108
3.43000007 -15.97999954 0.08000000 201 241 34 0.000000 0.000000 0.000000 0.000000 -60.708740 0.000000 7.000000 -0.247160 0.612390 0.750926
3.41000009 -15.93000031 0.03000000 201 241 34 0.000000 0.000000 0.000000 0.000000 -60.708740 0.000000 7.000000 -0.170134 0.984925 -0.031249
3.44000006 -15.97000027 0.05000000 201 241 34 0.000000 0.000000 0.000000 0.000000 -60.708740 0.000000 7.000000 -0.162137 0.917835 0.362340
3.40000010 -15.93000031 0.03000000 201 241 34 0.000000 0.000000 0.000000 0.000000 -60.708740 0.000000 7.000000 0.119312 0.992808 0.009851
3.43000007 -16.00000000 0.03000000 201 241 34 0.000000 0.000000 0.000000 0.000000 -60.708740 0.000000 7.000000 -0.191464 0.890089 0.413621
3.38000011 -16.14999962 0.14000000 201 241 34 0.000000 0.000000 0.000000 0.000000 -60.708740 0.000000 7.000000 0.169363 -0.096257 0.980842
3.40000010 -16.13999939 0.14000000 201 241 34 0.000000 0.000000 0.000000 0.000000 -60.708740 0.000000 7.000000 -0.179808 -0.392701 0.901917
3.40000010 -16.12000084 0.10000000 201 241 34 0.000000 0.000000 0.000000 0.000000 -60.708740 0.000000 7.000000 0.094510 0.228084 0.969044
3.40000010 -16.11000061 0.09000000 201 241 34 0.000000 0.000000 0.000000 0.000000 -60.708740 0.000000 7.000000 -0.223856 0.262787 0.938526
3.32999992 -16.09000015 0.12000000 201 241 34 0.000000 0.000000 0.000000 0.000000 -60.708740 0.000000 7.000000 -0.228667 0.329338 0.916105
3.33999991 -16.12999916 0.10000000 201 241 34 0.000000 0.000000 0.000000 0.000000 -60.708740 0.000000 7.000000 -0.213430 0.333754 0.918181
3.27999997 -16.10000038 0.11000000 201 241 34 0.000000 0.000000 0.000000 0.000000 -60.708740 0.000000 7.000000 -0.164020 0.219130 0.961811
3.28999996 -16.10000038 0.12000000 201 241 34 0.000000 0.000000 0.000000 0.000000 -60.708740 0.000000 7.000000 -0.173302 0.194151 0.965542
3.28999996 -16.10000038 0.11000000 201 241 34 0.000000 0.000000 0.000000 0.000000 -60.708740 0.000000 7.000000 -0.150831 0.199819 0.968154
3.59999990 -16.15999985 0.34000000 201 241 34 0.000000 0.000000 0.000000 0.000000 -60.708740 0.000000 7.000000 -0.044955 -0.148698 0.987860
3.57999992 -16.18000031 0.31999999 201 241 34 0.000000 0.000000 0.000000 0.000000 -60.708740 0.000000 7.000000 -0.003518 -0.224001 0.974582
3.53999996 -16.17000008 0.31999999 201 241 34 0.000000 0.000000 0.000000 0.000000 -60.708740 0.000000 7.000000 -0.287291 -0.164750 0.943568
3.56999993 -16.19000053 0.31999999 201 241 34 0.000000 0.000000 0.000000 0.000000 -60.708740 0.000000 7.000000 0.117128 -0.376188 0.919110
3.52999997 -16.17000008 0.30000001 201 241 34 0.000000 0.000000 0.000000 0.000000 -60.708740 0.000000 7.000000 -0.362366 -0.190493 0.912361
3.54999995 -16.21999931 0.31000000 201 241 34 0.000000 0.000000 0.000000 0.000000 -60.708740 0.000000 7.000000 0.231524 -0.458509 0.858001
3.55999994 -16.20999908 0.31000000 201 241 34 0.000000 0.000000 0.000000 0.000000 -60.708740 0.000000 7.000000 0.027896 0.032029 0.999098
3.60999990 -16.23999977 0.28999999 201 241 34 0.000000 0.000000 0.000000 0.000000 -60.708740 0.000000 7.000000 -0.286092 -0.631320 0.720824
3.48000002 -16.19000053 0.16000000 201 241 34 0.000000 0.000000 0.000000 0.000000 -60.708740 0.000000 7.000000 -0.166614 -0.057901 0.984321
3.50999999 -16.21999931 0.11000000 201 241 34 0.000000 0.000000 0.000000 0.000000 -60.708740 0.000000 7.000000 0.219696 0.843937 -0.489392
3.50999999 -16.20999908 0.12000000 201 241 34 0.000000 0.000000 0.000000 0.000000 -60.708740 0.000000 7.000000 0.076212 0.800940 -0.593875
3.47000003 -16.15999985 0.13000000 201 241 34 0.000000 0.000000 0.000000 0.000000 -60.708740 0.000000 7.000000 0.214358 -0.149401 0.965262
3.47000003 -16.21999931 0.12000000 201 241 34 0.000000 0.000000 0.000000 0.000000 -60.708740 0.000000 7.000000 -0.412236 -0.480671 0.773962
3.49000001 -16.23999977 0.13000000 201 241 34 0.000000 0.000000 0.000000 0.000000 -60.708740 0.000000 7.000000 -0.115860 0.811019 -0.573433
3.39000010 -16.15999985 0.14000000 201 241 34 0.000000 0.000000 0.000000 0.000000 -60.708740 0.000000 7.000000 0.003086 -0.050399 0.998724
3.36999989 -16.17000008 0.11000000 201 241 34 0.000000 0.000000 0.000000 0.000000 -60.708740 0.000000 7.000000 -0.181872 -0.168973 0.968695
3.36999989 -16.18000031 0.10000000 201 241 34 0.000000 0.000000 0.000000 0.000000 -60.708740 0.000000 7.000000 -0.456748 -0.383027 0.802915
3.39000010 -16.20999908 0.11000000 201 241 34 0.000000 0.000000 0.000000 0.000000 -60.708740 0.000000 7.000000 -0.347763 0.651444 -0.674301
3.33999991 -16.20999908 0.12000000 201 241 34 0.000000 0.000000 0.000000 0.000000 -60.708740 0.000000 7.000000 0.350617 0.725697 -0.591973
3.25999999 -16.05999947 0.07000000 201 241 34 0.000000 0.000000 0.000000 0.000000 -60.708740 0.000000 7.000000 -0.279747 0.498543 0.820486
3.24000001 -16.10000038 0.11000000 201 241 34 0.000000 0.000000 0.000000 0.000000 -60.708740 0.000000 7.000000 0.215098 0.239759 0.946704
3.25999999 -16.13999939 0.12000000 201 241 34 0.000000 0.000000 0.000000 0.000000 -60.708740 0.000000 7.000000 -0.259793 -0.400952 0.878490
3.26999998 -16.12000084 0.12000000 201 241 34 0.000000 0.000000 0.000000 0.000000 -60.708740 0.000000 7.000000 0.065951 0.394361 0.916586
3.26999998 -16.12999916 0.09000000 201 241 34 0.000000 0.000000 0.000000 0.000000 -60.708740 0.000000 7.000000 -0.441440 0.001310 0.897290
3.24000001 -16.12000084 0.07000000 201 241 34 0.000000 0.000000 0.000000 0.000000 -60.708740 0.000000 7.000000 0.231365 0.267823 0.935276
3.26999998 -16.17000008 0.11000000 201 241 34 0.000000 0.000000 0.000000 0.000000 -60.708740 0.000000 7.000000 0.150731 -0.260111 0.953741
3.68000007 -15.77999973 -0.25000000 201 241 34 0.000000 0.000000 0.000000 0.000000 -60.708740 0.000000 7.000000 0.048790 -0.539479 0.840584
3.67000008 -15.81000042 -0.27000001 201 241 34 0.000000 0.000000 0.000000 0.000000 -60.708740 0.000000 7.000000 -0.048301 -0.503712 0.862520
3.68000007 -15.81000042 -0.23999999 201 241 34 0.000000 0.000000 0.000000 0.000000 -60.708740 0.000000 7.000000 0.028413 -0.477616 0.878109
3.68000007 -15.81000042 -0.23999999 201 241 34 0.000000 0.000000 0.000000 0.000000 -60.708740 0.000000 7.000000 0.028413 -0.477616 0.878109
3.27999997 -15.80000019 -0.28999999 201 241 34 0.000000 0.000000 0.000000 0.000000 -60.708740 0.000000 7.000000 -0.280408 0.874569 -0.395602
3.59999990 -15.81000042 -0.20999999 201 241 34 0.000000 0.000000 0.000000 0.000000 -60.708740 0.000000 7.000000 -0.076431 0.968545 -0.236811
3.59999990 -15.81000042 -0.20999999 201 241 34 0.000000 0.000000 0.000000 0.000000 -60.708740 0.000000 7.000000 -0.076431 0.968545 -0.236811
3.18000007 -15.80000019 -0.28999999 201 241 34 0.000000 0.000000 0.000000 0.000000 -60.708740 0.000000 7.000000 -0.102459 0.943424 -0.315362
3.73000002 -15.81999969 -0.05000000 201 241 34 0.000000 0.000000 0.000000 0.000000 -60.708740 0.000000 7.000000 -0.296647 0.921469 -0.250789
3.71000004 -15.81999969 -0.08000000 201 241 34 0.000000 0.000000 0.000000 0.000000 -60.708740 0.000000 7.000000 0.045365 0.937111 -0.346070
3.75000000 -15.82999992 -0.05000000 201 241 34 0.000000 0.000000 0.000000 0.000000 -60.708740 0.000000 7.000000 -0.231759 0.776160 -0.586398
3.69000006 -15.88000011 -0.03000000 201 241 34 0.000000 0.000000 0.000000 0.000000 -60.708740 0.000000 7.000000 -0.383719 0.844182 -0.374322
3.69000006 -15.97999954 -0.09000000 201 241 34 0.000000 0.000000 0.000000 0.000000 -60.708740 0.000000 7.000000 0.135253 0.798144 -0.587089
3.66000009 -15.97999954 -0.08000000 201 241 34 0.000000 0.000000 0.000000 0.000000 -60.708740 0.000000 7.000000 -0.114233 0.734358 -0.669081
3.67000008 -15.97999954 -0.08000000 201 241 34 0.000000 0.000000 0.000000 0.000000 -60.708740 0.000000 7.000000 -0.006926 -0.735582 0.677400
3.66000009 -15.92000008 -0.18000001 201 241 34 0.000000 0.000000 0.000000 0.000000 -60.708740 0.000000 7.000000 0.186631 -0.488226 0.852529
3.69000006 -15.97999954 -0.11000000 201 241 34 0.000000 0.000000 0.000000 0.000000 -60.708740 0.000000 7.000000 0.009349 -0.479486 0.877500
3.64000010 -15.97000027 -0.12000000 201 241 34 0.000000 0.000000 0.000000 0.000000 -60.708740 0.000000 7.000000 -0.237552 0.722095 -0.649729
3.63000011 -15.94999981 -0.14000000 201 241 34 0.000000 0.000000 0.000000 0.000000 -60.708740 0.000000 7.000000 0.358977 0.748816 -0.557145
3.74000001 -15.88000011 -0.22000000 201 241 34 0.000000 0.000000 0.000000 0.000000 -60.708740 0.000000 7.000000 0.073943 -0.677085 0.732180
3.71000004 -15.89000034 -0.20999999 201 241 34 0.000000 0.000000 0.000000 0.000000 -60.708740 0.000000 7.000000 -0.206099 -0.538910 0.816762
3.75000000 -15.88000011 -0.22000000 201 241 34 0.000000 0.000000 0.000000 0.000000 -60.708740 0.000000 7.000000 -0.113135 -0.603877 0.789007
3.70000005 -15.93000031 -0.25999999 201 241 34 0.000000 0.000000 0.000000 0.000000 -60.708740 0.000000 7.000000 0.031912 0.822771 -0.567476
3.73000002 -15.89999962 -0.23000000 201 241 34 0.000000 0.000000 0.000000 0.000000 -60.708740 0.000000 7.000000 0.140747 -0.564468 0.813367
3.71000004 -15.93000031 -0.19000000 201 241 34 0.000000 0.000000 0.000000 0.000000 -60.708740 0.000000 7.000000 0.245848 -0.577820 0.778256
3.68000007 -15.81999969 -0.23999999 201 241 34 0.000000 0.000000 0.000000 0.000000 -60.708740 0.000000 7.000000 0.158673 0.840818 -0.517540
3.69000006 -15.89000034 -0.22000000 201 241 34 0.000000 0.000000 0.000000 0.000000 -60.708740 0.000000 7.000000 -0.057233 -0.381999 0.922389
3.63000011 -15.84000015 -0.23000000 201 241 34 0.000000 0.000000 0.000000 0.000000 -60.708740 0.000000 7.000000 0.107418 0.760752 -0.640091
3.61999989 -15.84000015 -0.23000000 201 241 34 0.000000 0.000000 0.000000 0.000000 -60.708740 0.000000 7.000000 0.125812 0.894822 -0.428327
3.67000008 -16.00000000 -0.12000000 201 241 34 0.000000 0.000000 0.000000 0.000000 -60.708740 0.000000 7.000000 0.303570 0.727605 -0.615172
3.68000007 -16.01000023 -0.14000000 201 241 34 0.000000 0.000000 0.000000 0.000000 -60.708740 0.000000 7.000000 -0.477722 -0.399991 0.782169
3.67000008 -16.00000000 -0.12000000 201 241 34 0.000000 0.000000 0.000000 0.000000 -60.708740 0.000000 7.000000 0.303570 0.727605 -0.615172
3.66000009 -16.00000000 -0.12000000 201 241 34 0.000000 0.000000 0.000000 0.000000 -60.708740 0.000000 7.000000 -0.063262 -0.535618 0.842087
3.63000011 -16.26000023 -0.03000000 201 241 34 0.000000 0.000000 0.000000 0.000000 -60.708740 0.000000 7.000000 0.412236 -0.773962 -0.480671
3.64000010 -16.25000000 -0.05000000 201 241 34 0.000000 0.000000 0.000000 0.000000 -60.708740 0.000000 7.000000 0.041273 0.982287 0.182779
3.63000011 -16.25000000 -0.04000000 201 241 34 0.000000 0.000000 0.000000 0.000000 -60.708740 0.000000 7.000000 -0.200264 0.841712 0.501413
3.60999990 -15.85999966 -0.03000000 201 241 34 0.000000 0.000000 0.000000 0.000000 -60.708740 0.000000 7.000000 0.179338 0.982203 0.055820
3.59999990 -15.97999954 -0.10000000 201 241 34 0.000000 0.000000 0.000000 0.000000 -60.708740 0.000000 7.000000 0.346997 0.773077 -0.530986
3.53999996 -15.97999954 -0.06000000 201 241 34 0.000000 0.000000 0.000000 0.000000 -60.708740 0.000000 7.000000 0.271964 0.893172 -0.358161
3.53999996 -15.97999954 -0.03000000 201 241 34 0.000000 0.000000 0.000000 0.000000 -60.708740 0.000000 7.000000 -0.318790 0.946044 -0.058079
3.53999996 -15.97000027 -0.03000000 201 241 34 0.000000 0.000000 0.000000 0.000000 -60.708740 0.000000 7.000000 -0.399066 0.834411 -0.380138
3.50999999 -15.97999954 -0.07000000 201 241 34 0.000000 0.000000 0.000000 0.000000 -60.708740 0.000000 7.000000 0.094493 0.956584 -0.275714
3.50000000 -15.97999954 -0.11000000 201 241 34 0.000000 0.000000 0.000000 0.000000 -60.708740 0.000000 7.000000 -0.044967 0.884348 -0.464657
3.58999991 -15.82999992 -0.22000000 201 241 34 0.000000 0.000000 0.000000 0.000000 -60.708740 0.000000 7.000000 -0.155743 -0.464317 0.871868
3.59999990 -15.85000038 -0.25000000 201 241 34 0.000000 0.000000 0.000000 0.000000 -60.708740 0.000000 7.000000 -0.257221 0.759039 -0.598078
3.60999990 -15.86999989 -0.20000000 201 241 34 0.000000 0.000000 0.000000 0.000000 -60.708740 0.000000 7.000000 -0.350085 0.721339 -0.597588
3.60999990 -15.88000011 -0.20999999 201 241 34 0.000000 0.000000 0.000000 0.000000 -60.708740 0.000000 7.000000 0.105664 -0.548585 0.829391
3.60999990 -15.86999989 -0.20000000 201 241 34 0.000000 0.000000 0.000000 0.000000 -60.708740 0.000000 7.000000 -0.350085 0.721339 -0.597588
3.56999993 -15.82999992 -0.23000000 201 241 34 0.000000 0.000000 0.000000 0.000000 -60.708740 0.000000 7.000000 0.156986 -0.488565 0.858289
3.53999996 -15.85999966 -0.22000000 201 241 34 0.000000 0.000000 0.000000 0.000000 -60.708740 0.000000 7.000000 0.241071 0.904380 -0.352109
3.56999993 -15.85999966 -0.22000000 201 241 34 0.000000 0.000000 0.000000 0.000000 -60.708740 0.000000 7.000000 0.032297 0.770919 -0.636114
3.53999996 -15.89000034 -0.23000000 201 241 34 0.000000 0.000000 0.000000 0.000000 -60.708740 0.000000 7.000000 -0.268726 -0.653529 0.707592
3.58999991 -15.89999962 -0.19000000 201 241 34 0.000000 0.000000 0.000000 0.000000 -60.708740 0.000000 7.000000 -0.222440 -0.617542 0.754428
3.58999991 -15.97000027 -0.23999999 201 241 34 0.000000 0.000000 0.000000 0.000000 -60.708740 0.000000 7.000000 0.004146 -0.648164 0.761489
3.56999993 -15.96000004 -0.23999999 201 241 34 0.000000 0.000000 0.000000 0.000000 -60.708740 0.000000 7.000000 -0.280941 -0.585691 0.760288
3.49000001 -15.88000011 -0.22000000 201 241 34 0.000000 0.000000 0.000000 0.000000 -60.708740 0.000000 7.000000 0.036454 -0.454999 0.889746
3.51999998 -15.93000031 -0.20999999 201 241 34 0.000000 0.000000 0.000000 0.000000 -60.708740 0.000000 7.000000 -0.228692 -0.359790 0.904572
3.49000001 -15.93000031 -0.22000000 201 241 34 0.000000 0.000000 0.000000 0.000000 -60.708740 0.000000 7.000000 -0.258332 -0.689415 0.676736
3.49000001 -15.92000008 -0.20999999 201 241 34 0.000000 0.000000 0.000000 0.000000 -60.708740 0.000000 7.000000 -0.004071 -0.546843 0.837225
3.49000001 -15.93000031 -0.22000000 201 241 34 0.000000 0.000000 0.000000 0.000000 -60.708740 0.000000 7.000000 -0.258332 -0.689415 0.676736
3.50000000 -15.90999985 -0.23999999 201 241 34 0.000000 0.000000 0.000000 0.000000 -60.708740 0.000000 7.000000 0.314567 0.621069 -0.717859
3.45000005 -15.93000031 -0.23000000 201 241 34 0.000000 0.000000 0.000000 0.000000 -60.708740 0.000000 7.000000 -0.044061 -0.712082 0.700712
3.46000004 -15.97000027 -0.25000000 201 241 34 0.000000 0.000000 0.000000 0.000000 -60.708740 0.000000 7.000000 0.141973 0.611233 -0.778613
3.46000004 -15.96000004 -0.23999999 201 241 34 0.000000 0.000000 0.000000 0.000000 -60.708740 0.000000 7.000000 0.001269 -0.366791 0.930303
3.46000004 -15.96000004 -0.23999999 201 241 34 0.000000 0.000000 0.000000 0.000000 -60.708740 0.000000 7.000000 0.001269 -0.366791 0.930303
3.57999992 -16.03000069 -0.09000000 201 241 34 0.000000 0.000000 0.000000 0.000000 -60.708740 0.000000 7.000000 -0.232582 0.769551 -0.594724
3.57999992 -16.03000069 -0.09000000 201 241 34 0.000000 0.000000 0.000000 0.000000 -60.708740 0.000000 7.000000 -0.232582 0.769551 -0.594724
3.59999990 -15.98999977 -0.06000000 201 241 34 0.000000 0.000000 0.000000 0.000000 -60.708740 0.000000 7.000000 0.132198 0.858559 -0.495378
3.52999997 -15.98999977 -0.09000000 201 241 34 0.000000 0.000000 0.000000 0.000000 -60.708740 0.000000 7.000000 0.117417 0.842214 -0.526202
3.59999990 -16.00000000 -0.11000000 201 241 34 0.000000 0.000000 0.000000 0.000000 -60.708740 0.000000 7.000000 0.254430 0.722202 -0.643187
3.58999991 -16.05999947 -0.11000000 201 241 34 0.000000 0.000000 0.000000 0.000000 -60.708740 0.000000 7.000000 -0.185890 -0.671356 0.717444
3.54999995 -16.01000023 -0.11000000 201 241 34 0.000000 0.000000 0.000000 0.000000 -60.708740 0.000000 7.000000 -0.219734 -0.548567 0.806716
3.54999995 -16.01000023 -0.12000000 201 241 34 0.000000 0.000000 0.000000 0.000000 -60.708740 0.000000 7.000000 0.148780 0.626681 -0.764941
3.53999996 -16.01000023 -0.11000000 201 241 34 0.000000 0.000000 0.000000 0.000000 -60.708740 0.000000 7.000000 -0.129420 -0.377128 0.917074
3.52999997 -16.03000069 -0.13000000 201 241 34 0.000000 0.000000 0.000000 0.000000 -60.708740 0.000000 7.000000 -0.152335 -0.405753 0.901198
3.52999997 -16.04000092 -0.13000000 201 241 34 0.000000 0.000000 0.000000 0.000000 -60.708740 0.000000 7.000000 -0.178425 -0.520281 0.835148
3.58999991 -16.09000015 -0.07000000 201 241 34 0.000000 0.000000 0.000000 0.000000 -60.708740 0.000000 7.000000 -0.092485 -0.083351 0.992219
3.56999993 -16.11000061 -0.13000000 201 241 34 0.000000 0.000000 0.000000 0.000000 -60.708740 0.000000 7.000000 -0.268825 0.001205 0.963188
3.56999993 -16.10000038 -0.13000000 201 241 34 0.000000 0.000000 0.000000 0.000000 -60.708740 0.000000 7.000000 -0.190862 0.076588 0.978625
3.52999997 -16.06999969 -0.15000001 201 241 34 0.000000 0.000000 0.000000 0.000000 -60.708740 0.000000 7.000000 -0.021579 -0.338910 0.940571
3.52999997 -16.06999969 -0.15000001 201 241 34 0.000000 0.000000 0.000000 0.000000 -60.708740 0.000000 7.000000 -0.021579 -0.338910 0.940571
3.50000000 -16.00000000 -0.14000000 201 241 34 0.000000 0.000000 0.000000 0.000000 -60.708740 0.000000 7.000000 -0.294401 -0.664414 0.686937
3.49000001 -15.98999977 -0.12000000 201 241 34 0.000000 0.000000 0.000000 0.000000 -60.708740 0.000000 7.000000 0.074275 0.867479 -0.491898
3.51999998 -16.05999947 -0.14000000 201 241 34 0.000000 0.000000 0.000000 0.000000 -60.708740 0.000000 7.000000 0.276262 0.643547 -0.713811
3.50000000 -16.03000069 -0.14000000 201 241 34 0.000000 0.000000 0.000000 0.000000 -60.708740 0.000000 7.000000 -0.303619 -0.288951 0.907922
3.50000000 -16.03000069 -0.15000001 201 241 34 0.000000 0.000000 0.000000 0.000000 -60.708740 0.000000 7.000000 0.333884 0.643337 -0.688941
3.50000000 -16.04999924 -0.16000000 201 241 34 0.000000 0.000000 0.000000 0.000000 -60.708740 0.000000 7.000000 0.083658 -0.175804 0.980864
3.51999998 -16.03000069 -0.15000001 201 241 34 0.000000 0.000000 0.000000 0.000000 -60.708740 0.000000 7.000000 0.110151 0.782806 -0.612439
3.47000003 -16.02000046 -0.12000000 201 241 34 0.000000 0.000000 0.000000 0.000000 -60.708740 0.000000 7.000000 0.003901 -0.422597 0.906309
3.45000005 -16.02000046 -0.16000000 201 241 34 0.000000 0.000000 0.000000 0.000000 -60.708740 0.000000 7.000000 -0.095777 -0.126520 0.987329
3.45000005 -16.03000069 -0.16000000 201 241 34 0.000000 0.000000 0.000000 0.000000 -60.708740 0.000000 7.000000 0.296776 -0.497767 0.814956
3.46000004 -16.03000069 -0.16000000 201 241 34 0.000000 0.000000 0.000000 0.000000 -60.708740 0.000000 7.000000 -0.015339 -0.715341 0.698608
3.45000005 -16.03000069 -0.17000000 201 241 34 0.000000 0.000000 0.000000 0.000000 -60.708740 0.000000 7.000000 -0.110646 0.753865 -0.647645
