//X Y Z R G B PointSourceId ScanDirectionFlag NumberOfReturns ReturnNumber GpsTime Intensity Classification Nx Ny Nz
10.31999969 9.02999973 0.14000000 184 243 42 97.000000 1.000000 4.000000 1.000000 -60.708740 114.000000 143.000000 0.862751 -0.379857 -0.333720
10.30000019 9.03999996 0.13000000 184 243 42 97.000000 1.000000 4.000000 1.000000 -60.708740 114.000000 143.000000 -0.647425 0.637439 0.417747
10.28999996 9.03999996 0.09000000 184 243 42 97.000000 1.000000 4.000000 1.000000 -60.708740 114.000000 143.000000 -0.723829 0.614207 0.314358
10.28999996 9.02999973 0.08000000 184 243 42 97.000000 1.000000 4.000000 1.000000 -60.708740 114.000000 143.000000 0.778601 -0.625989 0.043805
10.31000042 9.02999973 0.08000000 184 243 42 97.000000 1.000000 4.000000 1.000000 -60.708740 114.000000 143.000000 -0.675021 0.728430 0.117202
10.27000046 9.03999996 0.08000000 184 243 42 97.000000 1.000000 4.000000 1.000000 -60.708740 114.000000 143.000000 0.811097 -0.582579 -0.052192
10.31999969 9.07999992 0.00000000 184 243 42 97.000000 1.000000 4.000000 1.000000 -60.708740 114.000000 143.000000 0.896318 -0.420372 -0.141074
10.31000042 9.06999969 -0.01000000 184 243 42 97.000000 1.000000 4.000000 1.000000 -60.708740 114.000000 143.000000 0.811711 -0.510263 -0.284177
10.31000042 9.06999969 -0.01000000 184 243 42 97.000000 1.000000 4.000000 1.000000 -60.708740 114.000000 143.000000 0.811711 -0.510263 -0.284177
10.28999996 9.05000019 0.03000000 184 243 42 97.000000 1.000000 4.000000 1.000000 -60.708740 114.000000 143.000000 0.705838 -0.658254 -0.261715
10.31000042 9.05000019 0.03000000 184 243 42 97.000000 1.000000 4.000000 1.000000 -60.708740 114.000000 143.000000 0.868683 -0.487310 -0.088987
10.28999996 9.03999996 0.05000000 184 243 42 97.000000 1.000000 4.000000 1.000000 -60.708740 114.000000 143.000000 0.859237 -0.491618 0.141504
10.31000042 9.05000019 0.03000000 184 243 42 97.000000 1.000000 4.000000 1.000000 -60.708740 114.000000 143.000000 0.868683 -0.487310 -0.088987
10.31000042 9.06000042 0.00000000 184 243 42 97.000000 1.000000 4.000000 1.000000 -60.708740 114.000000 143.000000 0.736494 -0.665076 0.123493
10.31000042 9.06000042 0.00000000 184 243 42 97.000000 1.000000 4.000000 1.000000 -60.708740 114.000000 143.000000 0.736494 -0.665076 0.123493
10.30000019 9.05000019 -0.01000000 184 243 42 97.000000 1.000000 4.000000 1.000000 -60.708740 114.000000 143.000000 -0.603414 0.752288 0.264489
10.31999969 9.06000042 0.02000000 184 243 42 97.000000 1.000000 4.000000 1.000000 -60.708740 114.000000 143.000000 0.491348 -0.714537 -0.498010
10.27999973 9.07999992 0.02000000 184 243 42 97.000000 1.000000 4.000000 1.000000 -60.708740 114.000000 143.000000 0.838876 -0.226847 -0.494800
10.27999973 9.02999973 0.04000000 184 243 42 97.000000 1.000000 4.000000 1.000000 -60.708740 114.000000 143.000000 -0.615667 0.581932 0.531329
10.25000000 9.03999996 0.05000000 184 243 42 97.000000 1.000000 4.000000 1.000000 -60.708740 114.000000 143.000000 0.958692 0.049003 -0.280194
10.27000046 9.02999973 0.06000000 184 243 42 97.000000 1.000000 4.000000 1.000000 -60.708740 114.000000 143.000000 0.849666 -0.457748 -0.261789
10.27000046 9.03999996 0.03000000 184 243 42 97.000000 1.000000 4.000000 1.000000 -60.708740 114.000000 143.000000 0.986362 -0.163441 -0.019430
10.25000000 9.05000019 -0.01000000 184 243 42 97.000000 1.000000 4.000000 1.000000 -60.708740 114.000000 143.000000 -0.714730 0.684636 0.142946
10.23999977 9.03999996 -0.01000000 184 243 42 97.000000 1.000000 4.000000 1.000000 -60.708740 114.000000 143.000000 0.847069 -0.514657 -0.132674
10.23999977 9.03999996 -0.01000000 184 243 42 97.000000 1.000000 4.000000 1.000000 -60.708740 114.000000 143.000000 0.847069 -0.514657 -0.132674
10.23999977 9.03999996 -0.01000000 184 243 42 97.000000 1.000000 4.000000 1.000000 -60.708740 114.000000 143.000000 0.847069 -0.514657 -0.132674
10.28999996 8.96000004 0.43000001 184 243 42 97.000000 1.000000 4.000000 1.000000 -60.708740 114.000000 143.000000 0.757442 -0.592297 -0.274712
10.31999969 8.94999981 0.41999999 184 243 42 97.000000 1.000000 4.000000 1.000000 -60.708740 114.000000 143.000000 0.827902 -0.185486 -0.529314
10.28999996 8.96000004 0.41000000 184 243 42 97.000000 1.000000 4.000000 1.000000 -60.708740 114.000000 143.000000 0.823095 -0.566835 0.034818
10.28999996 8.94999981 0.43000001 184 243 42 97.000000 1.000000 4.000000 1.000000 -60.708740 114.000000 143.000000 0.877887 -0.167982 -0.448438
10.27999973 8.94999981 0.41000000 184 243 42 97.000000 1.000000 4.000000 1.000000 -60.708740 114.000000 143.000000 0.799516 -0.419867 -0.429519
10.28999996 8.96000004 0.34999999 184 243 42 97.000000 1.000000 4.000000 1.000000 -60.708740 114.000000 143.000000 -0.739447 0.264428 0.619109
10.30000019 8.96000004 0.31999999 184 243 42 97.000000 1.000000 4.000000 1.000000 -60.708740 114.000000 143.000000 0.888082 -0.458234 -0.036497
10.28999996 8.93000031 0.44000000 184 243 42 97.000000 1.000000 4.000000 1.000000 -60.708740 114.000000 143.000000 0.881503 -0.361371 -0.303914
10.28999996 8.93000031 0.44000000 184 243 42 97.000000 1.000000 4.000000 1.000000 -60.708740 114.000000 143.000000 0.881503 -0.361371 -0.303914
10.28999996 8.93999958 0.44000000 184 243 42 97.000000 1.000000 4.000000 1.000000 -60.708740 114.000000 143.000000 0.903172 -0.299093 -0.307933
10.31000042 8.93999958 0.41999999 184 243 42 97.000000 1.000000 4.000000 1.000000 -60.708740 114.000000 143.000000 0.789032 -0.603204 -0.116511
10.28999996 8.93999958 0.43000001 184 243 42 97.000000 1.000000 4.000000 1.000000 -60.708740 114.000000 143.000000 0.969208 -0.235753 -0.071100
10.28999996 8.93999958 0.43000001 184 243 42 97.000000 1.000000 4.000000 1.000000 -60.708740 114.000000 143.000000 0.969208 -0.235753 -0.071100
10.30000019 8.88000011 0.40000001 184 243 42 97.000000 1.000000 4.000000 1.000000 -60.708740 114.000000 143.000000 0.996962 -0.073889 -0.024630
10.27000046 8.93000031 0.47000000 184 243 42 97.000000 1.000000 4.000000 1.000000 -60.708740 114.000000 143.000000 0.718873 -0.550310 -0.424713
10.27999973 8.90999985 0.46000001 184 243 42 97.000000 1.000000 4.000000 1.000000 -60.708740 114.000000 143.000000 0.796987 -0.489097 -0.354395
10.27000046 8.93999958 0.40000001 184 243 42 97.000000 1.000000 4.000000 1.000000 -60.708740 114.000000 143.000000 0.748025 -0.608858 -0.264102
10.27000046 8.92000008 0.41000000 184 243 42 97.000000 1.000000 4.000000 1.000000 -60.708740 114.000000 143.000000 0.869205 -0.444327 -0.216927
10.25000000 8.90999985 0.41999999 184 243 42 97.000000 1.000000 4.000000 1.000000 -60.708740 114.000000 143.000000 0.914482 -0.144688 -0.377873
10.27999973 8.93999958 0.41999999 184 243 42 97.000000 1.000000 4.000000 1.000000 -60.708740 114.000000 143.000000 0.802728 -0.137992 -0.580160
10.25000000 8.90999985 0.41000000 184 243 42 97.000000 1.000000 4.000000 1.000000 -60.708740 114.000000 143.000000 0.979020 -0.201945 -0.027162
10.27000046 8.85999966 0.44999999 184 243 42 97.000000 1.000000 4.000000 1.000000 -60.708740 114.000000 143.000000 0.982708 -0.070621 -0.171166
10.27000046 8.85999966 0.47000000 184 243 42 97.000000 1.000000 4.000000 1.000000 -60.708740 114.000000 143.000000 0.944787 -0.102032 -0.311395
10.27000046 8.85999966 0.47000000 184 243 42 97.000000 1.000000 4.000000 1.000000 -60.708740 114.000000 143.000000 0.944787 -0.102032 -0.311395
10.25000000 8.89000034 0.41999999 184 243 42 97.000000 1.000000 4.000000 1.000000 -60.708740 114.000000 143.000000 0.977892 -0.147864 0.147864
10.25000000 8.89000034 0.44000000 184 243 42 97.000000 1.000000 4.000000 1.000000 -60.708740 114.000000 143.000000 0.958812 -0.015960 -0.283592
10.26000023 8.85999966 0.43000001 184 243 42 97.000000 1.000000 4.000000 1.000000 -60.708740 114.000000 143.000000 0.885893 -0.059060 -0.460115
10.25000000 8.85999966 0.41999999 184 243 42 97.000000 1.000000 4.000000 1.000000 -60.708740 114.000000 143.000000 0.914683 -0.054908 -0.400425
10.27000046 8.86999989 0.43000001 184 243 42 97.000000 1.000000 4.000000 1.000000 -60.708740 114.000000 143.000000 0.945253 -0.138889 -0.295307
10.25000000 8.85999966 0.41000000 184 243 42 97.000000 1.000000 4.000000 1.000000 -60.708740 114.000000 143.000000 0.993517 -0.041257 0.105931
10.26000023 8.85999966 0.41999999 184 243 42 97.000000 1.000000 4.000000 1.000000 -60.708740 114.000000 143.000000 0.820311 0.026283 -0.571313
10.27000046 8.88000011 0.44000000 184 243 42 97.000000 1.000000 4.000000 1.000000 -60.708740 114.000000 143.000000 0.966143 -0.210818 0.148737
10.27000046 8.85999966 0.44000000 184 243 42 97.000000 1.000000 4.000000 1.000000 -60.708740 114.000000 143.000000 0.970023 0.212312 -0.118233
10.28999996 8.92000008 0.38999999 184 243 42 97.000000 1.000000 4.000000 1.000000 -60.708740 114.000000 143.000000 0.991045 0.025756 -0.131020
10.30000019 8.93999958 0.37000000 184 243 42 97.000000 1.000000 4.000000 1.000000 -60.708740 114.000000 143.000000 0.845095 -0.342099 -0.410832
10.30000019 8.93999958 0.34000000 184 243 42 97.000000 1.000000 4.000000 1.000000 -60.708740 114.000000 143.000000 0.840722 -0.187327 -0.508030
10.30000019 8.93000031 0.34000000 184 243 42 97.000000 1.000000 4.000000 1.000000 -60.708740 114.000000 143.000000 0.958544 -0.033655 -0.282951
10.28999996 8.93000031 0.33000001 184 243 42 97.000000 1.000000 4.000000 1.000000 -60.708740 114.000000 143.000000 0.980227 0.108914 -0.165207
10.28999996 8.89000034 0.31999999 184 243 42 97.000000 1.000000 4.000000 1.000000 -60.708740 114.000000 143.000000 0.959073 0.257058 -0.118742
10.28999996 8.85999966 0.34000000 184 243 42 97.000000 1.000000 4.000000 1.000000 -60.708740 114.000000 143.000000 0.924756 0.051596 -0.377046
10.28999996 8.85999966 0.34000000 184 243 42 97.000000 1.000000 4.000000 1.000000 -60.708740 114.000000 143.000000 0.924756 0.051596 -0.377046
10.25000000 8.92000008 0.31999999 184 243 42 97.000000 1.000000 4.000000 1.000000 -60.708740 114.000000 143.000000 0.995468 -0.082497 -0.047298
10.25000000 8.92000008 0.31999999 184 243 42 97.000000 1.000000 4.000000 1.000000 -60.708740 114.000000 143.000000 0.995468 -0.082497 -0.047298
10.27000046 8.90999985 0.34999999 184 243 42 97.000000 1.000000 4.000000 1.000000 -60.708740 114.000000 143.000000 0.934607 0.053593 -0.351621
10.27000046 8.85999966 0.38000000 184 243 42 97.000000 1.000000 4.000000 1.000000 -60.708740 114.000000 143.000000 0.891500 0.084575 -0.445057
10.27000046 8.89000034 0.38999999 184 243 42 97.000000 1.000000 4.000000 1.000000 -60.708740 114.000000 143.000000 0.943778 -0.267885 -0.193701
10.26000023 8.86999989 0.38000000 184 243 42 97.000000 1.000000 4.000000 1.000000 -60.708740 114.000000 143.000000 0.937129 0.309624 -0.161005
10.27000046 8.86999989 0.38999999 184 243 42 97.000000 1.000000 4.000000 1.000000 -60.708740 114.000000 143.000000 0.950636 0.310286 -0.003709
10.26000023 8.88000011 0.38999999 184 243 42 97.000000 1.000000 4.000000 1.000000 -60.708740 114.000000 143.000000 0.954741 -0.244360 -0.169583
10.25000000 8.88000011 0.36000001 184 243 42 97.000000 1.000000 4.000000 1.000000 -60.708740 114.000000 143.000000 0.880368 -0.366946 -0.300503
10.27000046 8.89000034 0.38999999 184 243 42 97.000000 1.000000 4.000000 1.000000 -60.708740 114.000000 143.000000 0.943778 -0.267885 -0.193701
10.27999973 8.89000034 0.36000001 184 243 42 97.000000 1.000000 4.000000 1.000000 -60.708740 114.000000 143.000000 0.922312 -0.223807 -0.315040
10.27000046 8.89999962 0.34999999 184 243 42 97.000000 1.000000 4.000000 1.000000 -60.708740 114.000000 143.000000 0.960415 -0.115666 -0.253425
10.27999973 8.88000011 0.34000000 184 243 42 97.000000 1.000000 4.000000 1.000000 -60.708740 114.000000 143.000000 0.985142 -0.170880 -0.017203
10.23999977 8.88000011 0.43000001 184 243 42 97.000000 1.000000 4.000000 1.000000 -60.708740 114.000000 143.000000 0.985450 0.069798 -0.154975
10.23999977 8.88000011 0.36000001 184 243 42 97.000000 1.000000 4.000000 1.000000 -60.708740 114.000000 143.000000 0.973647 0.205700 0.098487
10.27000046 8.81000042 0.49000001 184 243 42 97.000000 1.000000 4.000000 1.000000 -60.708740 114.000000 143.000000 0.886780 -0.117764 -0.446937
10.27000046 8.81000042 0.49000001 184 243 42 97.000000 1.000000 4.000000 1.000000 -60.708740 114.000000 143.000000 0.886780 -0.117764 -0.446937
10.28999996 8.82999992 0.47999999 184 243 42 97.000000 1.000000 4.000000 1.000000 -60.708740 114.000000 143.000000 0.907797 -0.092295 -0.409129
10.30000019 8.84000015 0.46000001 184 243 42 97.000000 1.000000 4.000000 1.000000 -60.708740 114.000000 143.000000 0.960482 0.173072 0.217991
10.30000019 8.81999969 0.46000001 184 243 42 97.000000 1.000000 4.000000 1.000000 -60.708740 114.000000 143.000000 0.974883 0.199944 0.098109
10.30000019 8.85000038 0.43000001 184 243 42 97.000000 1.000000 4.000000 1.000000 -60.708740 114.000000 143.000000 0.953659 0.299507 0.028823
10.28999996 8.77999973 0.46000001 184 243 42 97.000000 1.000000 4.000000 1.000000 -60.708740 114.000000 143.000000 0.955744 0.290879 -0.044073
10.31000042 8.80000019 0.40000001 184 243 42 97.000000 1.000000 4.000000 1.000000 -60.708740 114.000000 143.000000 0.812007 0.441898 -0.381276
10.30000019 8.81000042 0.40000001 184 243 42 97.000000 1.000000 4.000000 1.000000 -60.708740 114.000000 143.000000 0.822802 0.514058 -0.242364
10.31999969 8.78999996 0.41000000 184 243 42 97.000000 1.000000 4.000000 1.000000 -60.708740 114.000000 143.000000 0.842012 0.342116 -0.417100
10.27000046 8.85000038 0.47000000 184 243 42 97.000000 1.000000 4.000000 1.000000 -60.708740 114.000000 143.000000 0.998340 -0.007272 -0.057137
10.27000046 8.84000015 0.46000001 184 243 42 97.000000 1.000000 4.000000 1.000000 -60.708740 114.000000 143.000000 0.997882 -0.024339 0.060317
10.27000046 8.85000038 0.46000001 184 243 42 97.000000 1.000000 4.000000 1.000000 -60.708740 114.000000 143.000000 0.987383 -0.033257 0.154816
10.27000046 8.85000038 0.44999999 184 243 42 97.000000 1.000000 4.000000 1.000000 -60.708740 114.000000 143.000000 0.960277 0.239742 0.142797
10.27000046 8.84000015 0.47000000 184 243 42 97.000000 1.000000 4.000000 1.000000 -60.708740 114.000000 143.000000 0.963146 0.077407 -0.257600
10.27000046 8.85000038 0.46000001 184 243 42 97.000000 1.000000 4.000000 1.000000 -60.708740 114.000000 143.000000 0.987383 -0.033257 0.154816
10.27000046 8.84000015 0.47000000 184 243 42 97.000000 1.000000 4.000000 1.000000 -60.708740 114.000000 143.000000 0.963146 0.077407 -0.257600
10.27000046 8.84000015 0.47000000 184 243 42 97.000000 1.000000 4.000000 1.000000 -60.708740 114.000000 143.000000 0.963146 0.077407 -0.257600
10.26000023 8.82999992 0.41000000 184 243 42 97.000000 1.000000 4.000000 1.000000 -60.708740 114.000000 143.000000 0.981951 -0.169884 0.083135
10.26000023 8.84000015 0.41999999 184 243 42 97.000000 1.000000 4.000000 1.000000 -60.708740 114.000000 143.000000 0.973250 0.117092 0.197672
10.27999973 8.77999973 0.47000000 184 243 42 97.000000 1.000000 4.000000 1.000000 -60.708740 114.000000 143.000000 0.919666 0.248986 0.303677
10.27000046 8.81000042 0.47999999 184 243 42 97.000000 1.000000 4.000000 1.000000 -60.708740 114.000000 143.000000 0.956457 -0.119393 -0.266338
10.31999969 8.81999969 0.36000001 184 243 42 97.000000 1.000000 4.000000 1.000000 -60.708740 114.000000 143.000000 0.970361 0.141910 -0.195606
10.30000019 8.82999992 0.38000000 184 243 42 97.000000 1.000000 4.000000 1.000000 -60.708740 114.000000 143.000000 0.955394 0.283128 -0.084033
10.31000042 8.81999969 0.31999999 184 243 42 97.000000 1.000000 4.000000 1.000000 -60.708740 114.000000 143.000000 0.833415 0.498821 -0.237899
10.28999996 8.85000038 0.34999999 184 243 42 97.000000 1.000000 4.000000 1.000000 -60.708740 114.000000 143.000000 0.900239 -0.055503 -0.431844
10.31000042 8.81999969 0.31999999 184 243 42 97.000000 1.000000 4.000000 1.000000 -60.708740 114.000000 143.000000 0.833415 0.498821 -0.237899
10.30000019 8.82999992 0.31999999 184 243 42 97.000000 1.000000 4.000000 1.000000 -60.708740 114.000000 143.000000 0.863634 0.380245 -0.330983
10.28999996 8.84000015 0.34000000 184 243 42 97.000000 1.000000 4.000000 1.000000 -60.708740 114.000000 143.000000 0.847749 0.525067 0.075010
10.28999996 8.80000019 0.37000000 184 243 42 97.000000 1.000000 4.000000 1.000000 -60.708740 114.000000 143.000000 0.928626 0.359860 0.090302
10.31999969 8.80000019 0.36000001 184 243 42 97.000000 1.000000 4.000000 1.000000 -60.708740 114.000000 143.000000 0.912055 0.409306 0.025006
10.31000042 8.77999973 0.37000000 184 243 42 97.000000 1.000000 4.000000 1.000000 -60.708740 114.000000 143.000000 0.684142 0.717076 0.133235
10.31999969 8.81000042 0.36000001 184 243 42 97.000000 1.000000 4.000000 1.000000 -60.708740 114.000000 143.000000 0.962317 0.265424 -0.059123
10.30000019 8.80000019 0.38999999 184 243 42 97.000000 1.000000 4.000000 1.000000 -60.708740 114.000000 143.000000 0.905229 0.417693 0.078061
10.28999996 8.80000019 0.34999999 184 243 42 97.000000 1.000000 4.000000 1.000000 -60.708740 114.000000 143.000000 0.850419 0.509085 0.132741
10.31000042 8.80000019 0.31999999 184 243 42 97.000000 1.000000 4.000000 1.000000 -60.708740 114.000000 143.000000 0.792017 0.531715 -0.299982
10.26000023 8.85000038 0.34999999 184 243 42 97.000000 1.000000 4.000000 1.000000 -60.708740 114.000000 143.000000 0.910037 0.413413 0.030379
10.27999973 8.82999992 0.33000001 184 243 42 97.000000 1.000000 4.000000 1.000000 -60.708740 114.000000 143.000000 0.948002 0.115675 -0.296500
10.26000023 8.84000015 0.34000000 184 243 42 97.000000 1.000000 4.000000 1.000000 -60.708740 114.000000 143.000000 0.874425 0.483055 0.045158
10.26000023 8.85000038 0.34000000 184 243 42 97.000000 1.000000 4.000000 1.000000 -60.708740 114.000000 143.000000 0.843937 0.219696 -0.489392
10.27999973 8.82999992 0.33000001 184 243 42 97.000000 1.000000 4.000000 1.000000 -60.708740 114.000000 143.000000 0.948002 0.115675 -0.296500
10.27999973 8.84000015 0.34000000 184 243 42 97.000000 1.000000 4.000000 1.000000 -60.708740 114.000000 143.000000 0.948983 0.256592 -0.183280
10.27999973 8.81999969 0.31999999 184 243 42 97.000000 1.000000 4.000000 1.000000 -60.708740 114.000000 143.000000 0.962216 0.271957 0.013415
10.27999973 8.81999969 0.33000001 184 243 42 97.000000 1.000000 4.000000 1.000000 -60.708740 114.000000 143.000000 0.908575 0.386959 0.157335
10.27999973 8.81999969 0.33000001 184 243 42 97.000000 1.000000 4.000000 1.000000 -60.708740 114.000000 143.000000 0.908575 0.386959 0.157335
10.25000000 8.85000038 0.33000001 184 243 42 97.000000 1.000000 4.000000 1.000000 -60.708740 114.000000 143.000000 0.882068 0.421088 -0.211283
10.26000023 8.84000015 0.33000001 184 243 42 97.000000 1.000000 4.000000 1.000000 -60.708740 114.000000 143.000000 0.807808 0.582373 -0.091041
10.27999973 8.80000019 0.33000001 184 243 42 97.000000 1.000000 4.000000 1.000000 -60.708740 114.000000 143.000000 0.834146 0.550063 0.040384
10.30000019 8.77000046 0.47999999 184 243 42 97.000000 1.000000 4.000000 1.000000 -60.708740 114.000000 143.000000 0.881765 0.444502 0.157820
10.30000019 8.77000046 0.47000000 184 243 42 97.000000 1.000000 4.000000 1.000000 -60.708740 114.000000 143.000000 0.929890 0.356615 -0.090163
10.31999969 8.77000046 0.46000001 184 243 42 97.000000 1.000000 4.000000 1.000000 -60.708740 114.000000 143.000000 0.853351 0.317490 -0.413511
10.30000019 8.76000023 0.47999999 184 243 42 97.000000 1.000000 4.000000 1.000000 -60.708740 114.000000 143.000000 0.770352 0.637581 -0.006915
10.31999969 8.76000023 0.44999999 184 243 42 97.000000 1.000000 4.000000 1.000000 -60.708740 114.000000 143.000000 0.990561 0.130486 -0.041983
10.31999969 8.75000000 0.44000000 184 243 42 97.000000 1.000000 4.000000 1.000000 -60.708740 114.000000 143.000000 0.732020 0.676937 -0.076826
10.31999969 8.77000046 0.41000000 184 243 42 97.000000 1.000000 4.000000 1.000000 -60.708740 114.000000 143.000000 0.764459 0.569753 -0.301634
10.31000042 8.72999954 0.47000000 184 243 42 97.000000 1.000000 4.000000 1.000000 -60.708740 114.000000 143.000000 0.912713 0.356775 -0.199163
10.27000046 8.75000000 0.47999999 184 243 42 97.000000 1.000000 4.000000 1.000000 -60.708740 114.000000 143.000000 0.921095 0.215636 -0.324168
10.27000046 8.75000000 0.47999999 184 243 42 97.000000 1.000000 4.000000 1.000000 -60.708740 114.000000 143.000000 0.921095 0.215636 -0.324168
10.27000046 8.77000046 0.41999999 184 243 42 97.000000 1.000000 4.000000 1.000000 -60.708740 114.000000 143.000000 0.963331 0.112195 -0.243734
10.27000046 8.75000000 0.41000000 184 243 42 97.000000 1.000000 4.000000 1.000000 -60.708740 114.000000 143.000000 0.900429 0.220364 -0.375057
10.23999977 8.78999996 0.40000001 184 243 42 97.000000 1.000000 4.000000 1.000000 -60.708740 114.000000 143.000000 0.859156 0.442503 0.256986
10.28999996 8.98999977 0.28000000 184 243 42 97.000000 1.000000 4.000000 1.000000 -60.708740 114.000000 143.000000 0.744288 -0.597031 -0.299316
10.28999996 8.98999977 0.28000000 184 243 42 97.000000 1.000000 4.000000 1.000000 -60.708740 114.000000 143.000000 0.744288 -0.597031 -0.299316
10.31000042 8.97999954 0.30000001 184 243 42 97.000000 1.000000 4.000000 1.000000 -60.708740 114.000000 143.000000 -0.697024 0.708863 0.108031
10.31000042 8.97999954 0.30000001 184 243 42 97.000000 1.000000 4.000000 1.000000 -60.708740 114.000000 143.000000 -0.697024 0.708863 0.108031
10.27999973 8.98999977 0.27000001 184 243 42 97.000000 1.000000 4.000000 1.000000 -60.708740 114.000000 143.000000 0.817766 -0.563220 -0.118496
10.27000046 8.94999981 0.28999999 184 243 42 97.000000 1.000000 4.000000 1.000000 -60.708740 114.000000 143.000000 0.954733 -0.051984 -0.292886
10.27999973 8.97999954 0.27000001 184 243 42 97.000000 1.000000 4.000000 1.000000 -60.708740 114.000000 143.000000 0.978521 -0.162056 -0.127418
10.31000042 8.98999977 0.20999999 184 243 42 97.000000 1.000000 4.000000 1.000000 -60.708740 114.000000 143.000000 -0.697996 0.701011 0.146233
10.31999969 9.02000046 0.15000001 184 243 42 97.000000 1.000000 4.000000 1.000000 -60.708740 114.000000 143.000000 0.959234 -0.266525 -0.093992
10.31999969 9.01000023 0.15000001 184 243 42 97.000000 1.000000 4.000000 1.000000 -60.708740 114.000000 143.000000 0.756448 -0.263730 -0.598526
10.31999969 9.01000023 0.15000001 184 243 42 97.000000 1.000000 4.000000 1.000000 -60.708740 114.000000 143.000000 0.756448 -0.263730 -0.598526
10.31999969 9.00000000 0.15000001 184 243 42 97.000000 1.000000 4.000000 1.000000 -60.708740 114.000000 143.000000 -0.679193 0.423458 0.599483
10.28999996 8.97999954 0.20999999 184 243 42 97.000000 1.000000 4.000000 1.000000 -60.708740 114.000000 143.000000 0.908738 -0.417317 -0.006500
10.28999996 8.96000004 0.22000000 184 243 42 97.000000 1.000000 4.000000 1.000000 -60.708740 114.000000 143.000000 0.877771 -0.475402 0.059253
10.26000023 8.98999977 0.22000000 184 243 42 97.000000 1.000000 4.000000 1.000000 -60.708740 114.000000 143.000000 0.895027 -0.441364 -0.064223
10.27999973 8.98999977 0.17000000 184 243 42 97.000000 1.000000 4.000000 1.000000 -60.708740 114.000000 143.000000 -0.857944 0.276805 0.432795
10.27999973 8.98999977 0.17000000 184 243 42 97.000000 1.000000 4.000000 1.000000 -60.708740 114.000000 143.000000 -0.857944 0.276805 0.432795
10.27999973 9.01000023 0.17000000 184 243 42 97.000000 1.000000 4.000000 1.000000 -60.708740 114.000000 143.000000 0.712327 -0.533000 -0.456620
10.27000046 8.97000027 0.20000000 184 243 42 97.000000 1.000000 4.000000 1.000000 -60.708740 114.000000 143.000000 0.983012 -0.124846 -0.134543
10.25000000 8.96000004 0.19000000 184 243 42 97.000000 1.000000 4.000000 1.000000 -60.708740 114.000000 143.000000 0.869903 -0.474624 -0.134164
10.27999973 8.96000004 0.19000000 184 243 42 97.000000 1.000000 4.000000 1.000000 -60.708740 114.000000 143.000000 0.771668 -0.519299 -0.367230
10.27999973 8.94999981 0.22000000 184 243 42 97.000000 1.000000 4.000000 1.000000 -60.708740 114.000000 143.000000 0.972175 -0.166913 0.164365
10.27000046 8.96000004 0.19000000 184 243 42 97.000000 1.000000 4.000000 1.000000 -60.708740 114.000000 143.000000 0.906281 -0.092421 -0.412448
10.25000000 8.96000004 0.20000000 184 243 42 97.000000 1.000000 4.000000 1.000000 -60.708740 114.000000 143.000000 0.911147 -0.412031 -0.006499
10.27000046 8.97000027 0.19000000 184 243 42 97.000000 1.000000 4.000000 1.000000 -60.708740 114.000000 143.000000 0.914231 0.150728 -0.376116
10.27000046 8.96000004 0.19000000 184 243 42 97.000000 1.000000 4.000000 1.000000 -60.708740 114.000000 143.000000 0.906281 -0.092421 -0.412448
10.27000046 8.97000027 0.16000000 184 243 42 97.000000 1.000000 4.000000 1.000000 -60.708740 114.000000 143.000000 0.984808 -0.147183 0.092139
10.27999973 8.96000004 0.15000001 184 243 42 97.000000 1.000000 4.000000 1.000000 -60.708740 114.000000 143.000000 0.839489 -0.499443 -0.214047
10.27000046 8.94999981 0.18000001 184 243 42 97.000000 1.000000 4.000000 1.000000 -60.708740 114.000000 143.000000 0.994881 -0.038476 0.093442
10.27000046 8.96000004 0.16000000 184 243 42 97.000000 1.000000 4.000000 1.000000 -60.708740 114.000000 143.000000 0.903158 -0.411548 -0.122200
10.25000000 8.97000027 0.16000000 184 243 42 97.000000 1.000000 4.000000 1.000000 -60.708740 114.000000 143.000000 0.967329 -0.164459 0.192948
10.25000000 8.97000027 0.18000001 184 243 42 97.000000 1.000000 4.000000 1.000000 -60.708740 114.000000 143.000000 0.839527 -0.158429 -0.519707
10.28999996 8.93999958 0.30000001 184 243 42 97.000000 1.000000 4.000000 1.000000 -60.708740 114.000000 143.000000 0.997301 -0.071160 -0.018056
10.28999996 8.93000031 0.31000000 184 243 42 97.000000 1.000000 4.000000 1.000000 -60.708740 114.000000 143.000000 0.955200 -0.144406 -0.258341
10.28999996 8.93000031 0.31000000 184 243 42 97.000000 1.000000 4.000000 1.000000 -60.708740 114.000000 143.000000 0.955200 -0.144406 -0.258341
10.30000019 8.93999958 0.31000000 184 243 42 97.000000 1.000000 4.000000 1.000000 -60.708740 114.000000 143.000000 0.898142 -0.055709 -0.436163
10.28999996 8.93000031 0.23999999 184 243 42 97.000000 1.000000 4.000000 1.000000 -60.708740 114.000000 143.000000 0.961108 -0.080411 -0.264209
10.27000046 8.93999958 0.28999999 184 243 42 97.000000 1.000000 4.000000 1.000000 -60.708740 114.000000 143.000000 0.912755 -0.269314 -0.307163
10.27000046 8.93999958 0.28000000 184 243 42 97.000000 1.000000 4.000000 1.000000 -60.708740 114.000000 143.000000 0.973235 -0.202182 0.109253
10.25000000 8.93000031 0.31000000 184 243 42 97.000000 1.000000 4.000000 1.000000 -60.708740 114.000000 143.000000 0.928924 -0.019326 -0.369766
10.26000023 8.92000008 0.28000000 184 243 42 97.000000 1.000000 4.000000 1.000000 -60.708740 114.000000 143.000000 0.986537 0.158447 -0.040479
10.26000023 8.92000008 0.23999999 184 243 42 97.000000 1.000000 4.000000 1.000000 -60.708740 114.000000 143.000000 0.860182 0.270430 -0.432383
10.25000000 8.92000008 0.27000001 184 243 42 97.000000 1.000000 4.000000 1.000000 -60.708740 114.000000 143.000000 0.963329 -0.256972 -0.077218
10.25000000 8.92000008 0.25999999 184 243 42 97.000000 1.000000 4.000000 1.000000 -60.708740 114.000000 143.000000 0.907872 0.055145 -0.415604
10.26000023 8.92000008 0.27000001 184 243 42 97.000000 1.000000 4.000000 1.000000 -60.708740 114.000000 143.000000 0.978179 -0.109783 -0.176393
10.26000023 8.92000008 0.23999999 184 243 42 97.000000 1.000000 4.000000 1.000000 -60.708740 114.000000 143.000000 0.860182 0.270430 -0.432383
10.27000046 8.93999958 0.27000001 184 243 42 97.000000 1.000000 4.000000 1.000000 -60.708740 114.000000 143.000000 0.996649 -0.037875 0.072503
10.26000023 8.90999985 0.25999999 184 243 42 97.000000 1.000000 4.000000 1.000000 -60.708740 114.000000 143.000000 0.878053 0.388399 -0.279587
10.26000023 8.86999989 0.28000000 184 243 42 97.000000 1.000000 4.000000 1.000000 -60.708740 114.000000 143.000000 0.935289 0.288532 -0.204899
10.27000046 8.86999989 0.30000001 184 243 42 97.000000 1.000000 4.000000 1.000000 -60.708740 114.000000 143.000000 0.997856 0.020063 -0.062300
10.27000046 8.86999989 0.30000001 184 243 42 97.000000 1.000000 4.000000 1.000000 -60.708740 114.000000 143.000000 0.997856 0.020063 -0.062300
10.26000023 8.86999989 0.28000000 184 243 42 97.000000 1.000000 4.000000 1.000000 -60.708740 114.000000 143.000000 0.935289 0.288532 -0.204899
10.25000000 8.89999962 0.31000000 184 243 42 97.000000 1.000000 4.000000 1.000000 -60.708740 114.000000 143.000000 0.987128 0.151955 -0.049878
10.26000023 8.86999989 0.28999999 184 243 42 97.000000 1.000000 4.000000 1.000000 -60.708740 114.000000 143.000000 0.839271 0.194373 -0.507782
10.25000000 8.85999966 0.31000000 184 243 42 97.000000 1.000000 4.000000 1.000000 -60.708740 114.000000 143.000000 0.949791 0.265402 -0.165708
10.27000046 8.88000011 0.30000001 184 243 42 97.000000 1.000000 4.000000 1.000000 -60.708740 114.000000 143.000000 0.944754 0.090918 -0.314918
10.26000023 8.89000034 0.25000000 184 243 42 97.000000 1.000000 4.000000 1.000000 -60.708740 114.000000 143.000000 0.894693 -0.244007 -0.374145
10.26000023 8.88000011 0.27000001 184 243 42 97.000000 1.000000 4.000000 1.000000 -60.708740 114.000000 143.000000 0.999008 -0.036233 0.025881
10.26000023 8.89999962 0.27000001 184 243 42 97.000000 1.000000 4.000000 1.000000 -60.708740 114.000000 143.000000 0.994111 0.052439 -0.094837
10.26000023 8.88000011 0.27000001 184 243 42 97.000000 1.000000 4.000000 1.000000 -60.708740 114.000000 143.000000 0.999008 -0.036233 0.025881
10.26000023 8.89000034 0.25999999 184 243 42 97.000000 1.000000 4.000000 1.000000 -60.708740 114.000000 143.000000 0.985018 -0.060163 0.161614
10.27000046 8.85999966 0.27000001 184 243 42 97.000000 1.000000 4.000000 1.000000 -60.708740 114.000000 143.000000 0.987654 0.035560 0.152564
10.26000023 8.89000034 0.25000000 184 243 42 97.000000 1.000000 4.000000 1.000000 -60.708740 114.000000 143.000000 0.894693 -0.244007 -0.374145
10.27000046 8.85999966 0.27000001 184 243 42 97.000000 1.000000 4.000000 1.000000 -60.708740 114.000000 143.000000 0.987654 0.035560 0.152564
10.25000000 8.90999985 0.20000000 184 243 42 97.000000 1.000000 4.000000 1.000000 -60.708740 114.000000 143.000000 0.866795 0.009407 -0.498575
10.26000023 8.93000031 0.20999999 184 243 42 97.000000 1.000000 4.000000 1.000000 -60.708740 114.000000 143.000000 0.983591 0.050652 0.173159
10.26000023 8.92000008 0.20999999 184 243 42 97.000000 1.000000 4.000000 1.000000 -60.708740 114.000000 143.000000 0.989602 0.080050 -0.119495
10.26000023 8.90999985 0.23000000 184 243 42 97.000000 1.000000 4.000000 1.000000 -60.708740 114.000000 143.000000 0.959940 -0.237687 0.148390
10.26000023 8.92000008 0.20999999 184 243 42 97.000000 1.000000 4.000000 1.000000 -60.708740 114.000000 143.000000 0.989602 0.080050 -0.119495
10.26000023 8.86999989 0.20999999 184 243 42 97.000000 1.000000 4.000000 1.000000 -60.708740 114.000000 143.000000 0.944548 0.327494 0.024025
10.25000000 8.89000034 0.22000000 184 243 42 97.000000 1.000000 4.000000 1.000000 -60.708740 114.000000 143.000000 0.946657 0.178435 -0.268333
10.27999973 8.86999989 0.23000000 184 243 42 97.000000 1.000000 4.000000 1.000000 -60.708740 114.000000 143.000000 0.838005 0.461758 -0.290736
10.26000023 8.85999966 0.20000000 184 243 42 97.000000 1.000000 4.000000 1.000000 -60.708740 114.000000 143.000000 0.971163 0.237074 0.025272
10.25000000 8.88000011 0.23000000 184 243 42 97.000000 1.000000 4.000000 1.000000 -60.708740 114.000000 143.000000 0.927899 0.282775 0.242987
10.25000000 8.89000034 0.20999999 184 243 42 97.000000 1.000000 4.000000 1.000000 -60.708740 114.000000 143.000000 0.990661 -0.084189 -0.107254
10.26000023 8.85999966 0.20999999 184 243 42 97.000000 1.000000 4.000000 1.000000 -60.708740 114.000000 143.000000 0.936913 0.285389 0.201861
10.26000023 8.88000011 0.22000000 184 243 42 97.000000 1.000000 4.000000 1.000000 -60.708740 114.000000 143.000000 0.847120 0.327968 -0.418120
10.27000046 8.86999989 0.17000000 184 243 42 97.000000 1.000000 4.000000 1.000000 -60.708740 114.000000 143.000000 0.921058 0.134755 -0.365367
10.26000023 8.89000034 0.16000000 184 243 42 97.000000 1.000000 4.000000 1.000000 -60.708740 114.000000 143.000000 0.918326 -0.146764 -0.367610
10.27000046 8.88000011 0.17000000 184 243 42 97.000000 1.000000 4.000000 1.000000 -60.708740 114.000000 143.000000 0.910529 0.410474 -0.049471
10.27999973 8.85999966 0.16000000 184 243 42 97.000000 1.000000 4.000000 1.000000 -60.708740 114.000000 143.000000 0.892796 0.437259 -0.108260
10.23999977 8.94999981 0.23999999 184 243 42 97.000000 1.000000 4.000000 1.000000 -60.708740 114.000000 143.000000 0.992515 -0.071625 -0.098910
10.23999977 8.96000004 0.23999999 184 243 42 97.000000 1.000000 4.000000 1.000000 -60.708740 114.000000 143.000000 0.927468 -0.350377 0.130533
10.23999977 8.94999981 0.20999999 184 243 42 97.000000 1.000000 4.000000 1.000000 -60.708740 114.000000 143.000000 0.995287 -0.065174 0.071802
10.23999977 8.94999981 0.22000000 184 243 42 97.000000 1.000000 4.000000 1.000000 -60.708740 114.000000 143.000000 0.916894 -0.389850 -0.085577
10.23999977 8.98999977 0.16000000 184 243 42 97.000000 1.000000 4.000000 1.000000 -60.708740 114.000000 143.000000 0.898220 0.095792 -0.428980
10.22999954 8.90999985 0.28999999 184 243 42 97.000000 1.000000 4.000000 1.000000 -60.708740 114.000000 143.000000 0.956407 -0.291723 -0.013540
10.22999954 8.92000008 0.27000001 184 243 42 97.000000 1.000000 4.000000 1.000000 -60.708740 114.000000 143.000000 0.888850 -0.387295 -0.244842
10.22999954 8.86999989 0.27000001 184 243 42 97.000000 1.000000 4.000000 1.000000 -60.708740 114.000000 143.000000 0.830752 0.345227 -0.436657
10.22999954 8.89000034 0.25999999 184 243 42 97.000000 1.000000 4.000000 1.000000 -60.708740 114.000000 143.000000 0.969981 0.076150 0.230948
10.23999977 8.93000031 0.22000000 184 243 42 97.000000 1.000000 4.000000 1.000000 -60.708740 114.000000 143.000000 0.935510 0.008861 -0.353190
10.23999977 8.92000008 0.19000000 184 243 42 97.000000 1.000000 4.000000 1.000000 -60.708740 114.000000 143.000000 0.961296 0.270168 0.054034
10.23999977 8.93999958 0.22000000 184 243 42 97.000000 1.000000 4.000000 1.000000 -60.708740 114.000000 143.000000 0.992323 -0.003282 0.123630
10.23999977 8.92000008 0.22000000 184 243 42 97.000000 1.000000 4.000000 1.000000 -60.708740 114.000000 143.000000 0.901826 -0.143440 -0.407597
10.23999977 8.93999958 0.23000000 184 243 42 97.000000 1.000000 4.000000 1.000000 -60.708740 114.000000 143.000000 0.977331 0.186570 0.100081
10.22999954 8.89000034 0.16000000 184 243 42 97.000000 1.000000 4.000000 1.000000 -60.708740 114.000000 143.000000 0.973326 0.210617 0.090977
10.28999996 9.02000046 0.12000000 184 243 42 97.000000 1.000000 4.000000 1.000000 -60.708740 114.000000 143.000000 0.773781 -0.483817 -0.408882
10.31000042 9.02000046 0.08000000 184 243 42 97.000000 1.000000 4.000000 1.000000 -60.708740 114.000000 143.000000 -0.711226 0.699685 0.067805
10.28999996 9.02000046 0.09000000 184 243 42 97.000000 1.000000 4.000000 1.000000 -60.708740 114.000000 143.000000 0.630025 -0.688937 -0.358378
10.31000042 9.00000000 0.08000000 184 243 42 97.000000 1.000000 4.000000 1.000000 -60.708740 114.000000 143.000000 0.972263 -0.017938 -0.233200
10.25000000 8.98999977 0.12000000 184 243 42 97.000000 1.000000 4.000000 1.000000 -60.708740 114.000000 143.000000 0.946448 -0.206822 -0.247912
10.27999973 9.01000023 0.11000000 184 243 42 97.000000 1.000000 4.000000 1.000000 -60.708740 114.000000 143.000000 -0.680349 0.624340 0.383829
10.27999973 9.01000023 0.11000000 184 243 42 97.000000 1.000000 4.000000 1.000000 -60.708740 114.000000 143.000000 -0.680349 0.624340 0.383829
10.25000000 8.98999977 0.12000000 184 243 42 97.000000 1.000000 4.000000 1.000000 -60.708740 114.000000 143.000000 0.946448 -0.206822 -0.247912
10.25000000 9.01000023 0.07000000 184 243 42 97.000000 1.000000 4.000000 1.000000 -60.708740 114.000000 143.000000 0.877715 -0.253562 -0.406599
10.27000046 9.02000046 0.07000000 184 243 42 97.000000 1.000000 4.000000 1.000000 -60.708740 114.000000 143.000000 0.888068 -0.238696 -0.392885
10.27000046 9.01000023 0.09000000 184 243 42 97.000000 1.000000 4.000000 1.000000 -60.708740 114.000000 143.000000 0.866281 -0.272521 -0.418677
10.27000046 8.96000004 0.11000000 184 243 42 97.000000 1.000000 4.000000 1.000000 -60.708740 114.000000 143.000000 0.845592 -0.101930 -0.524008
10.27999973 8.97000027 0.14000000 184 243 42 97.000000 1.000000 4.000000 1.000000 -60.708740 114.000000 143.000000 0.870501 -0.119031 -0.477556
10.27000046 8.94999981 0.14000000 184 243 42 97.000000 1.000000 4.000000 1.000000 -60.708740 114.000000 143.000000 0.954408 -0.178031 -0.239606
10.25000000 8.96000004 0.07000000 184 243 42 97.000000 1.000000 4.000000 1.000000 -60.708740 114.000000 143.000000 0.960736 -0.227370 0.159027
10.25000000 8.97000027 0.07000000 184 243 42 97.000000 1.000000 4.000000 1.000000 -60.708740 114.000000 143.000000 0.989613 0.094415 -0.108403
10.27000046 8.97000027 0.08000000 184 243 42 97.000000 1.000000 4.000000 1.000000 -60.708740 114.000000 143.000000 0.890231 0.257112 -0.376008
10.25000000 8.97999954 0.07000000 184 243 42 97.000000 1.000000 4.000000 1.000000 -60.708740 114.000000 143.000000 0.958905 0.059536 -0.277411
10.28999996 9.02000046 0.04000000 184 243 42 97.000000 1.000000 4.000000 1.000000 -60.708740 114.000000 143.000000 0.785696 -0.432538 -0.442258
10.31999969 8.94999981 0.00000000 184 243 42 97.000000 1.000000 4.000000 1.000000 -60.708740 114.000000 143.000000 0.942626 0.202286 -0.265587
10.25000000 9.02000046 0.04000000 184 243 42 97.000000 1.000000 4.000000 1.000000 -60.708740 114.000000 143.000000 0.701624 -0.379567 -0.603036
10.25000000 9.02000046 0.04000000 184 243 42 97.000000 1.000000 4.000000 1.000000 -60.708740 114.000000 143.000000 0.701624 -0.379567 -0.603036
10.25000000 9.01000023 0.03000000 184 243 42 97.000000 1.000000 4.000000 1.000000 -60.708740 114.000000 143.000000 0.930608 -0.104304 -0.350841
10.25000000 9.00000000 0.04000000 184 243 42 97.000000 1.000000 4.000000 1.000000 -60.708740 114.000000 143.000000 0.973456 -0.199715 -0.111790
10.27000046 9.00000000 -0.01000000 184 243 42 97.000000 1.000000 4.000000 1.000000 -60.708740 114.000000 143.000000 0.902859 -0.322555 -0.284261
10.26000023 9.01000023 0.01000000 184 243 42 97.000000 1.000000 4.000000 1.000000 -60.708740 114.000000 143.000000 0.998304 0.030571 -0.049546
10.25000000 8.97000027 0.05000000 184 243 42 97.000000 1.000000 4.000000 1.000000 -60.708740 114.000000 143.000000 0.957575 -0.285899 0.036206
10.25000000 8.97000027 0.05000000 184 243 42 97.000000 1.000000 4.000000 1.000000 -60.708740 114.000000 143.000000 0.957575 -0.285899 0.036206
10.26000023 8.97999954 0.05000000 184 243 42 97.000000 1.000000 4.000000 1.000000 -60.708740 114.000000 143.000000 0.966118 -0.257063 -0.023148
10.30000019 8.85999966 0.11000000 184 243 42 97.000000 1.000000 4.000000 1.000000 -60.708740 114.000000 143.000000 0.924251 0.351632 0.148714
10.30000019 8.86999989 0.13000000 184 243 42 97.000000 1.000000 4.000000 1.000000 -60.708740 114.000000 143.000000 0.837157 0.300878 -0.456773
10.30000019 8.86999989 0.10000000 184 243 42 97.000000 1.000000 4.000000 1.000000 -60.708740 114.000000 143.000000 0.991993 0.114504 -0.053284
10.27000046 8.93000031 0.14000000 184 243 42 97.000000 1.000000 4.000000 1.000000 -60.708740 114.000000 143.000000 0.867750 0.417918 -0.268987
10.27000046 8.92000008 0.13000000 184 243 42 97.000000 1.000000 4.000000 1.000000 -60.708740 114.000000 143.000000 0.980724 0.185607 -0.061071
10.25000000 8.92000008 0.14000000 184 243 42 97.000000 1.000000 4.000000 1.000000 -60.708740 114.000000 143.000000 0.928371 0.059596 -0.366846
10.27000046 8.90999985 0.11000000 184 243 42 97.000000 1.000000 4.000000 1.000000 -60.708740 114.000000 143.000000 0.990750 -0.095954 0.095954
10.26000023 8.93000031 0.11000000 184 243 42 97.000000 1.000000 4.000000 1.000000 -60.708740 114.000000 143.000000 0.961812 0.267799 0.056577
10.26000023 8.93999958 0.13000000 184 243 42 97.000000 1.000000 4.000000 1.000000 -60.708740 114.000000 143.000000 0.970749 -0.190068 -0.146697
10.25000000 8.90999985 0.13000000 184 243 42 97.000000 1.000000 4.000000 1.000000 -60.708740 114.000000 143.000000 0.956218 -0.180041 -0.230719
10.26000023 8.93000031 0.12000000 184 243 42 97.000000 1.000000 4.000000 1.000000 -60.708740 114.000000 143.000000 0.904937 0.346478 -0.247067
10.25000000 8.90999985 0.14000000 184 243 42 97.000000 1.000000 4.000000 1.000000 -60.708740 114.000000 143.000000 0.911754 0.299055 -0.281550
10.26000023 8.90999985 0.09000000 184 243 42 97.000000 1.000000 4.000000 1.000000 -60.708740 114.000000 143.000000 0.959919 -0.118525 -0.253981
10.25000000 8.93000031 0.08000000 184 243 42 97.000000 1.000000 4.000000 1.000000 -60.708740 114.000000 143.000000 0.967892 0.218639 -0.124023
10.25000000 8.90999985 0.07000000 184 243 42 97.000000 1.000000 4.000000 1.000000 -60.708740 114.000000 143.000000 0.967155 0.071317 0.243978
10.25000000 8.93000031 0.10000000 184 243 42 97.000000 1.000000 4.000000 1.000000 -60.708740 114.000000 143.000000 0.969381 -0.163061 -0.183605
10.27999973 8.92000008 0.08000000 184 243 42 97.000000 1.000000 4.000000 1.000000 -60.708740 114.000000 143.000000 0.974554 -0.047214 0.219123
10.25000000 8.93000031 0.07000000 184 243 42 97.000000 1.000000 4.000000 1.000000 -60.708740 114.000000 143.000000 0.979978 0.131896 -0.149154
10.25000000 8.92000008 0.07000000 184 243 42 97.000000 1.000000 4.000000 1.000000 -60.708740 114.000000 143.000000 0.999098 -0.030025 -0.030025
10.27999973 8.93000031 0.09000000 184 243 42 97.000000 1.000000 4.000000 1.000000 -60.708740 114.000000 143.000000 0.934922 0.346120 -0.078242
10.25000000 8.89000034 0.13000000 184 243 42 97.000000 1.000000 4.000000 1.000000 -60.708740 114.000000 143.000000 0.947552 0.016272 -0.319188
10.25000000 8.89000034 0.13000000 184 243 42 97.000000 1.000000 4.000000 1.000000 -60.708740 114.000000 143.000000 0.947552 0.016272 -0.319188
10.27000046 8.89999962 0.13000000 184 243 42 97.000000 1.000000 4.000000 1.000000 -60.708740 114.000000 143.000000 0.957266 0.284524 0.051847
10.25000000 8.88000011 0.12000000 184 243 42 97.000000 1.000000 4.000000 1.000000 -60.708740 114.000000 143.000000 0.944931 0.319322 -0.071684
10.25000000 8.88000011 0.12000000 184 243 42 97.000000 1.000000 4.000000 1.000000 -60.708740 114.000000 143.000000 0.944931 0.319322 -0.071684
10.27000046 8.89000034 0.12000000 184 243 42 97.000000 1.000000 4.000000 1.000000 -60.708740 114.000000 143.000000 0.842561 0.469801 -0.263397
10.25000000 8.88000011 0.13000000 184 243 42 97.000000 1.000000 4.000000 1.000000 -60.708740 114.000000 143.000000 0.974071 0.187273 -0.126943
10.27999973 8.88000011 0.12000000 184 243 42 97.000000 1.000000 4.000000 1.000000 -60.708740 114.000000 143.000000 0.745331 0.569959 -0.345873
10.27999973 8.86999989 0.12000000 184 243 42 97.000000 1.000000 4.000000 1.000000 -60.708740 114.000000 143.000000 0.884902 0.271011 -0.378816
10.27999973 8.88000011 0.12000000 184 243 42 97.000000 1.000000 4.000000 1.000000 -60.708740 114.000000 143.000000 0.745331 0.569959 -0.345873
10.27000046 8.86999989 0.10000000 184 243 42 97.000000 1.000000 4.000000 1.000000 -60.708740 114.000000 143.000000 0.902561 0.399072 0.161631
10.27999973 8.86999989 0.07000000 184 243 42 97.000000 1.000000 4.000000 1.000000 -60.708740 114.000000 143.000000 0.761139 0.632030 0.145622
10.26000023 8.89000034 0.09000000 184 243 42 97.000000 1.000000 4.000000 1.000000 -60.708740 114.000000 143.000000 0.807902 0.588951 0.020786
10.26000023 8.89000034 0.10000000 184 243 42 97.000000 1.000000 4.000000 1.000000 -60.708740 114.000000 143.000000 0.790870 0.610422 -0.043702
10.27999973 8.85999966 0.10000000 184 243 42 97.000000 1.000000 4.000000 1.000000 -60.708740 114.000000 143.000000 0.777849 0.581438 0.238499
10.26000023 8.89000034 0.09000000 184 243 42 97.000000 1.000000 4.000000 1.000000 -60.708740 114.000000 143.000000 0.807902 0.588951 0.020786
10.26000023 8.89999962 0.10000000 184 243 42 97.000000 1.000000 4.000000 1.000000 -60.708740 114.000000 143.000000 0.978409 0.201894 0.044202
10.27999973 8.85999966 0.10000000 184 243 42 97.000000 1.000000 4.000000 1.000000 -60.708740 114.000000 143.000000 0.777849 0.581438 0.238499
10.27999973 8.86999989 0.08000000 184 243 42 97.000000 1.000000 4.000000 1.000000 -60.708740 114.000000 143.000000 0.967828 0.234050 0.092355
10.27000046 8.89000034 0.10000000 184 243 42 97.000000 1.000000 4.000000 1.000000 -60.708740 114.000000 143.000000 0.804697 0.580268 -0.125503
10.26000023 8.89999962 0.09000000 184 243 42 97.000000 1.000000 4.000000 1.000000 -60.708740 114.000000 143.000000 0.943051 0.219539 0.249915
10.25000000 8.88000011 0.07000000 184 243 42 97.000000 1.000000 4.000000 1.000000 -60.708740 114.000000 143.000000 0.909696 0.414926 -0.017016
10.28999996 8.85999966 0.04000000 184 243 42 97.000000 1.000000 4.000000 1.000000 -60.708740 114.000000 143.000000 0.727650 0.685427 0.026741
10.28999996 8.88000011 0.05000000 184 243 42 97.000000 1.000000 4.000000 1.000000 -60.708740 114.000000 143.000000 0.928626 0.359860 -0.090302
10.31999969 8.85999966 0.05000000 184 243 42 97.000000 1.000000 4.000000 1.000000 -60.708740 114.000000 143.000000 0.690909 0.719757 -0.067793
10.31000042 8.85999966 0.05000000 184 243 42 97.000000 1.000000 4.000000 1.000000 -60.708740 114.000000 143.000000 0.692190 0.606285 -0.391525
10.28999996 8.86999989 0.03000000 184 243 42 97.000000 1.000000 4.000000 1.000000 -60.708740 114.000000 143.000000 0.962487 0.166761 -0.214032
10.28999996 8.85999966 0.04000000 184 243 42 97.000000 1.000000 4.000000 1.000000 -60.708740 114.000000 143.000000 0.727650 0.685427 0.026741
10.31999969 8.85999966 0.06000000 184 243 42 97.000000 1.000000 4.000000 1.000000 -60.708740 114.000000 143.000000 0.802073 0.594076 0.061260
10.28999996 8.86999989 0.04000000 184 243 42 97.000000 1.000000 4.000000 1.000000 -60.708740 114.000000 143.000000 0.743311 0.473016 -0.473016
10.30000019 8.86999989 0.00000000 184 243 42 97.000000 1.000000 4.000000 1.000000 -60.708740 114.000000 143.000000 0.651675 0.638409 -0.409577
10.28999996 8.86999989 -0.01000000 184 243 42 97.000000 1.000000 4.000000 1.000000 -60.708740 114.000000 143.000000 0.676116 0.707202 0.206720
10.28999996 8.88000011 -0.01000000 184 243 42 97.000000 1.000000 4.000000 1.000000 -60.708740 114.000000 143.000000 0.694745 0.706749 0.133547
10.28999996 8.88000011 -0.01000000 184 243 42 97.000000 1.000000 4.000000 1.000000 -60.708740 114.000000 143.000000 0.694745 0.706749 0.133547
10.28999996 8.89000034 -0.02000000 184 243 42 97.000000 1.000000 4.000000 1.000000 -60.708740 114.000000 143.000000 0.762130 0.646613 0.032401
10.28999996 8.88000011 -0.02000000 184 243 42 97.000000 1.000000 4.000000 1.000000 -60.708740 114.000000 143.000000 0.813546 0.571089 0.109544
10.30000019 8.88000011 0.01000000 184 243 42 97.000000 1.000000 4.000000 1.000000 -60.708740 114.000000 143.000000 0.667015 0.676706 -0.311705
10.26000023 8.92000008 0.05000000 184 243 42 97.000000 1.000000 4.000000 1.000000 -60.708740 114.000000 143.000000 0.808296 0.452966 -0.376138
10.26000023 8.90999985 0.04000000 184 243 42 97.000000 1.000000 4.000000 1.000000 -60.708740 114.000000 143.000000 0.947783 0.316776 0.036894
10.25000000 8.92000008 -0.02000000 184 243 42 97.000000 1.000000 4.000000 1.000000 -60.708740 114.000000 143.000000 0.994206 -0.102621 -0.032000
10.25000000 8.90999985 -0.01000000 184 243 42 97.000000 1.000000 4.000000 1.000000 -60.708740 114.000000 143.000000 0.881094 0.439816 0.173881
10.25000000 8.90999985 0.00000000 184 243 42 97.000000 1.000000 4.000000 1.000000 -60.708740 114.000000 143.000000 0.922848 0.383538 0.035343
10.25000000 8.92000008 -0.02000000 184 243 42 97.000000 1.000000 4.000000 1.000000 -60.708740 114.000000 143.000000 0.994206 -0.102621 -0.032000
10.26000023 8.90999985 0.01000000 184 243 42 97.000000 1.000000 4.000000 1.000000 -60.708740 114.000000 143.000000 0.804520 0.315778 -0.503023
10.25000000 8.92000008 -0.02000000 184 243 42 97.000000 1.000000 4.000000 1.000000 -60.708740 114.000000 143.000000 0.994206 -0.102621 -0.032000
10.25000000 8.89999962 0.06000000 184 243 42 97.000000 1.000000 4.000000 1.000000 -60.708740 114.000000 143.000000 0.877806 0.462531 0.124583
