//X Y Z R G B PointSourceId ScanDirectionFlag NumberOfReturns ReturnNumber GpsTime Intensity Classification Nx Ny Nz
-9.27999973 -19.01000023 0.62000000 26 184 150 0.000000 0.000000 0.000000 0.000000 -60.708740 0.000000 46.000000 -0.362158 0.236063 0.901730
-9.31000042 -19.01000023 0.61000001 26 184 150 0.000000 0.000000 0.000000 0.000000 -60.708740 0.000000 46.000000 -0.273457 0.842001 0.465032
-9.30000019 -19.01000023 0.60000002 26 184 150 0.000000 0.000000 0.000000 0.000000 -60.708740 0.000000 46.000000 -0.362681 0.746505 0.557846
-9.31000042 -19.05999947 0.57999998 26 184 150 0.000000 0.000000 0.000000 0.000000 -60.708740 0.000000 46.000000 -0.414443 0.751894 0.512730
-9.27000046 -19.04999924 0.49000001 26 184 150 0.000000 0.000000 0.000000 0.000000 -60.708740 0.000000 46.000000 -0.345322 0.163573 0.924120
-9.27000046 -19.14999962 0.62000000 26 184 150 0.000000 0.000000 0.000000 0.000000 -60.708740 0.000000 46.000000 0.642801 -0.551695 -0.531450
-9.31000042 -19.14999962 0.62000000 26 184 150 0.000000 0.000000 0.000000 0.000000 -60.708740 0.000000 46.000000 -0.251773 0.948572 0.191892
-9.30000019 -19.17000008 0.64999998 26 184 150 0.000000 0.000000 0.000000 0.000000 -60.708740 0.000000 46.000000 -0.249089 0.584342 0.772334
-9.27999973 -19.15999985 0.62000000 26 184 150 0.000000 0.000000 0.000000 0.000000 -60.708740 0.000000 46.000000 0.622596 -0.742386 -0.247462
-9.27999973 -19.15999985 0.62000000 26 184 150 0.000000 0.000000 0.000000 0.000000 -60.708740 0.000000 46.000000 0.622596 -0.742386 -0.247462
-9.31000042 -19.14999962 0.62000000 26 184 150 0.000000 0.000000 0.000000 0.000000 -60.708740 0.000000 46.000000 -0.251773 0.948572 0.191892
-9.27999973 -19.15999985 0.63000000 26 184 150 0.000000 0.000000 0.000000 0.000000 -60.708740 0.000000 46.000000 0.595808 -0.701436 -0.391154
-9.31000042 -19.14999962 0.60000002 26 184 150 0.000000 0.000000 0.000000 0.000000 -60.708740 0.000000 46.000000 -0.588875 0.754845 0.288852
-9.31000042 -19.14999962 0.60000002 26 184 150 0.000000 0.000000 0.000000 0.000000 -60.708740 0.000000 46.000000 -0.588875 0.754845 0.288852
-9.27000046 -19.12000084 0.55000001 26 184 150 0.000000 0.000000 0.000000 0.000000 -60.708740 0.000000 46.000000 0.089049 -0.672974 -0.734286
-9.26000023 -19.10000038 0.50000000 26 184 150 0.000000 0.000000 0.000000 0.000000 -60.708740 0.000000 46.000000 -0.116592 0.621334 0.774823
-9.18999958 -19.02000046 0.47999999 26 184 150 0.000000 0.000000 0.000000 0.000000 -60.708740 0.000000 46.000000 0.711284 -0.471413 -0.521387
-9.21000004 -19.03000069 0.47000000 26 184 150 0.000000 0.000000 0.000000 0.000000 -60.708740 0.000000 46.000000 -0.624544 0.285917 0.726771
-9.22999954 -19.07999992 0.47000000 26 184 150 0.000000 0.000000 0.000000 0.000000 -60.708740 0.000000 46.000000 -0.269113 0.641730 0.718165
-9.31000042 -19.05999947 0.46000001 26 184 150 0.000000 0.000000 0.000000 0.000000 -60.708740 0.000000 46.000000 0.683822 -0.624503 -0.377338
-9.39000034 -18.87000084 0.51999998 26 184 150 0.000000 0.000000 0.000000 0.000000 -60.708740 0.000000 46.000000 -0.297276 -0.199580 0.933699
-9.35999966 -18.88999939 0.55000001 26 184 150 0.000000 0.000000 0.000000 0.000000 -60.708740 0.000000 46.000000 -0.312794 -0.082452 0.946235
-9.35999966 -18.87999916 0.55000001 26 184 150 0.000000 0.000000 0.000000 0.000000 -60.708740 0.000000 46.000000 -0.490199 -0.110045 0.864636
-9.36999989 -18.89999962 0.51999998 26 184 150 0.000000 0.000000 0.000000 0.000000 -60.708740 0.000000 46.000000 -0.550216 -0.179386 0.815526
-9.39000034 -18.88999939 0.51999998 26 184 150 0.000000 0.000000 0.000000 0.000000 -60.708740 0.000000 46.000000 -0.512807 0.255629 0.819562
-9.31999969 -18.95000076 0.56999999 26 184 150 0.000000 0.000000 0.000000 0.000000 -60.708740 0.000000 46.000000 -0.148713 0.306975 0.940027
-9.31999969 -18.94000053 0.56999999 26 184 150 0.000000 0.000000 0.000000 0.000000 -60.708740 0.000000 46.000000 -0.342219 0.178855 0.922441
-9.31999969 -18.93000031 0.56999999 26 184 150 0.000000 0.000000 0.000000 0.000000 -60.708740 0.000000 46.000000 -0.367860 0.415224 0.832027
-9.34000015 -18.96999931 0.52999997 26 184 150 0.000000 0.000000 0.000000 0.000000 -60.708740 0.000000 46.000000 -0.490534 0.091887 0.866564
-9.31999969 -19.00000000 0.55000001 26 184 150 0.000000 0.000000 0.000000 0.000000 -60.708740 0.000000 46.000000 -0.267910 0.347839 0.898461
-9.32999992 -19.00000000 0.50999999 26 184 150 0.000000 0.000000 0.000000 0.000000 -60.708740 0.000000 46.000000 -0.331359 0.483563 0.810166
-9.38000011 -18.93000031 0.54000002 26 184 150 0.000000 0.000000 0.000000 0.000000 -60.708740 0.000000 46.000000 -0.434424 0.195859 0.879156
-9.39000034 -18.94000053 0.54000002 26 184 150 0.000000 0.000000 0.000000 0.000000 -60.708740 0.000000 46.000000 -0.279942 0.140641 0.949659
-9.36999989 -18.94000053 0.56000000 26 184 150 0.000000 0.000000 0.000000 0.000000 -60.708740 0.000000 46.000000 -0.604782 0.035080 0.795618
-9.39000034 -18.94000053 0.54000002 26 184 150 0.000000 0.000000 0.000000 0.000000 -60.708740 0.000000 46.000000 -0.279942 0.140641 0.949659
-9.35999966 -18.93000031 0.52999997 26 184 150 0.000000 0.000000 0.000000 0.000000 -60.708740 0.000000 46.000000 -0.291844 0.205268 0.934180
-9.43000031 -18.86000061 0.54000002 26 184 150 0.000000 0.000000 0.000000 0.000000 -60.708740 0.000000 46.000000 0.708260 -0.026753 -0.705444
-9.39999962 -18.87000084 0.50999999 26 184 150 0.000000 0.000000 0.000000 0.000000 -60.708740 0.000000 46.000000 -0.449475 -0.237601 0.861115
-9.39999962 -18.90999985 0.52999997 26 184 150 0.000000 0.000000 0.000000 0.000000 -60.708740 0.000000 46.000000 -0.145055 0.338461 0.929733
-9.44999981 -18.90999985 0.52999997 26 184 150 0.000000 0.000000 0.000000 0.000000 -60.708740 0.000000 46.000000 -0.302571 0.262035 0.916400
-9.40999985 -18.93000031 0.52999997 26 184 150 0.000000 0.000000 0.000000 0.000000 -60.708740 0.000000 46.000000 -0.401125 0.332981 0.853359
-9.40999985 -18.95999908 0.51999998 26 184 150 0.000000 0.000000 0.000000 0.000000 -60.708740 0.000000 46.000000 -0.413723 0.019701 0.910190
-9.42000008 -18.94000053 0.51999998 26 184 150 0.000000 0.000000 0.000000 0.000000 -60.708740 0.000000 46.000000 -0.376154 0.105323 0.920552
-9.42000008 -18.96999931 0.51999998 26 184 150 0.000000 0.000000 0.000000 0.000000 -60.708740 0.000000 46.000000 -0.395680 0.148912 0.906235
-9.43000031 -18.96999931 0.50999999 26 184 150 0.000000 0.000000 0.000000 0.000000 -60.708740 0.000000 46.000000 -0.366525 0.385241 0.846906
-9.46000004 -18.95999908 0.51999998 26 184 150 0.000000 0.000000 0.000000 0.000000 -60.708740 0.000000 46.000000 -0.438765 0.075649 0.895412
-9.44999981 -19.00000000 0.52999997 26 184 150 0.000000 0.000000 0.000000 0.000000 -60.708740 0.000000 46.000000 -0.560241 0.731106 0.389376
-9.38000011 -19.05999947 0.57999998 26 184 150 0.000000 0.000000 0.000000 0.000000 -60.708740 0.000000 46.000000 -0.243092 0.845472 0.475482
-9.38000011 -19.05999947 0.57999998 26 184 150 0.000000 0.000000 0.000000 0.000000 -60.708740 0.000000 46.000000 -0.243092 0.845472 0.475482
-9.38000011 -19.06999969 0.62000000 26 184 150 0.000000 0.000000 0.000000 0.000000 -60.708740 0.000000 46.000000 -0.469482 0.838250 0.277351
-9.34000015 -19.01000023 0.55000001 26 184 150 0.000000 0.000000 0.000000 0.000000 -60.708740 0.000000 46.000000 -0.375166 0.451796 0.809401
-9.35000038 -19.07999992 0.49000001 26 184 150 0.000000 0.000000 0.000000 0.000000 -60.708740 0.000000 46.000000 -0.253160 0.432039 0.865594
-9.39000034 -19.02000046 0.56000000 26 184 150 0.000000 0.000000 0.000000 0.000000 -60.708740 0.000000 46.000000 0.656401 -0.688657 -0.308041
-9.35999966 -19.07999992 0.49000001 26 184 150 0.000000 0.000000 0.000000 0.000000 -60.708740 0.000000 46.000000 0.445762 -0.649443 -0.616052
-9.34000015 -19.10000038 0.61000001 26 184 150 0.000000 0.000000 0.000000 0.000000 -60.708740 0.000000 46.000000 -0.408787 0.740413 0.533557
-9.34000015 -19.12000084 0.58999997 26 184 150 0.000000 0.000000 0.000000 0.000000 -60.708740 0.000000 46.000000 0.689543 -0.361969 -0.627304
-9.32999992 -19.15999985 0.62000000 26 184 150 0.000000 0.000000 0.000000 0.000000 -60.708740 0.000000 46.000000 -0.370378 0.921125 0.119788
-9.34000015 -19.13999939 0.61000001 26 184 150 0.000000 0.000000 0.000000 0.000000 -60.708740 0.000000 46.000000 -0.442260 0.799284 0.406879
-9.32999992 -19.15999985 0.62000000 26 184 150 0.000000 0.000000 0.000000 0.000000 -60.708740 0.000000 46.000000 -0.370378 0.921125 0.119788
-9.32999992 -19.17000008 0.58999997 26 184 150 0.000000 0.000000 0.000000 0.000000 -60.708740 0.000000 46.000000 -0.528322 0.636350 0.562081
-9.35000038 -19.12999916 0.50000000 26 184 150 0.000000 0.000000 0.000000 0.000000 -60.708740 0.000000 46.000000 -0.306713 0.749921 0.586127
-9.38000011 -19.14999962 0.49000001 26 184 150 0.000000 0.000000 0.000000 0.000000 -60.708740 0.000000 46.000000 -0.264859 0.487897 0.831749
-9.35999966 -19.14999962 0.51999998 26 184 150 0.000000 0.000000 0.000000 0.000000 -60.708740 0.000000 46.000000 0.752509 -0.547723 -0.365690
-9.35999966 -19.13999939 0.50999999 26 184 150 0.000000 0.000000 0.000000 0.000000 -60.708740 0.000000 46.000000 -0.537534 0.368641 0.758394
-9.43000031 -19.02000046 0.50999999 26 184 150 0.000000 0.000000 0.000000 0.000000 -60.708740 0.000000 46.000000 -0.600304 0.593540 0.536046
-9.47999954 -19.13999939 0.50000000 26 184 150 0.000000 0.000000 0.000000 0.000000 -60.708740 0.000000 46.000000 -0.293920 0.464984 0.835105
-9.40999985 -19.10000038 0.49000001 26 184 150 0.000000 0.000000 0.000000 0.000000 -60.708740 0.000000 46.000000 -0.189056 0.733167 0.653241
-9.40999985 -19.15999985 0.50000000 26 184 150 0.000000 0.000000 0.000000 0.000000 -60.708740 0.000000 46.000000 -0.171707 0.776482 0.606294
-9.32999992 -19.07999992 0.46000001 26 184 150 0.000000 0.000000 0.000000 0.000000 -60.708740 0.000000 46.000000 -0.695560 0.290754 0.657007
-9.35999966 -19.05999947 0.46000001 26 184 150 0.000000 0.000000 0.000000 0.000000 -60.708740 0.000000 46.000000 -0.361891 0.692670 0.623894
-9.36999989 -19.06999969 0.47000000 26 184 150 0.000000 0.000000 0.000000 0.000000 -60.708740 0.000000 46.000000 -0.329718 0.664309 0.670806
-9.36999989 -19.04999924 0.44999999 26 184 150 0.000000 0.000000 0.000000 0.000000 -60.708740 0.000000 46.000000 -0.402584 0.741084 0.537327
-9.34000015 -19.11000061 0.47000000 26 184 150 0.000000 0.000000 0.000000 0.000000 -60.708740 0.000000 46.000000 -0.496219 0.780696 0.379842
-9.32999992 -19.09000015 0.46000001 26 184 150 0.000000 0.000000 0.000000 0.000000 -60.708740 0.000000 46.000000 -0.479047 0.309417 0.821447
-9.32999992 -19.10000038 0.47000000 26 184 150 0.000000 0.000000 0.000000 0.000000 -60.708740 0.000000 46.000000 0.586865 -0.499424 -0.637312
-9.34000015 -19.10000038 0.47000000 26 184 150 0.000000 0.000000 0.000000 0.000000 -60.708740 0.000000 46.000000 0.355037 -0.669170 -0.652809
-9.36999989 -19.12000084 0.47999999 26 184 150 0.000000 0.000000 0.000000 0.000000 -60.708740 0.000000 46.000000 0.652610 -0.706861 -0.272852
-9.38000011 -19.09000015 0.47000000 26 184 150 0.000000 0.000000 0.000000 0.000000 -60.708740 0.000000 46.000000 -0.557406 0.766233 0.319665
-9.39000034 -19.13999939 0.47999999 26 184 150 0.000000 0.000000 0.000000 0.000000 -60.708740 0.000000 46.000000 -0.216932 0.561560 0.798493
-9.39000034 -19.13999939 0.47999999 26 184 150 0.000000 0.000000 0.000000 0.000000 -60.708740 0.000000 46.000000 -0.216932 0.561560 0.798493
-9.36999989 -19.14999962 0.47999999 26 184 150 0.000000 0.000000 0.000000 0.000000 -60.708740 0.000000 46.000000 -0.241720 0.575449 0.781300
-9.43000031 -19.07999992 0.44999999 26 184 150 0.000000 0.000000 0.000000 0.000000 -60.708740 0.000000 46.000000 -0.305685 0.803017 0.511587
-9.46000004 -19.05999947 0.47000000 26 184 150 0.000000 0.000000 0.000000 0.000000 -60.708740 0.000000 46.000000 -0.406583 0.541562 0.735800
-9.42000008 -19.12999916 0.47000000 26 184 150 0.000000 0.000000 0.000000 0.000000 -60.708740 0.000000 46.000000 -0.277747 0.519402 0.808133
-9.43000031 -19.10000038 0.44999999 26 184 150 0.000000 0.000000 0.000000 0.000000 -60.708740 0.000000 46.000000 -0.223880 0.795159 0.563560
-9.42000008 -19.09000015 0.44000000 26 184 150 0.000000 0.000000 0.000000 0.000000 -60.708740 0.000000 46.000000 -0.232453 0.591274 0.772244
-9.44999981 -19.10000038 0.46000001 26 184 150 0.000000 0.000000 0.000000 0.000000 -60.708740 0.000000 46.000000 -0.236780 0.751109 0.616255
-9.44999981 -19.09000015 0.44999999 26 184 150 0.000000 0.000000 0.000000 0.000000 -60.708740 0.000000 46.000000 -0.258025 0.489784 0.832787
-9.44999981 -19.09000015 0.44999999 26 184 150 0.000000 0.000000 0.000000 0.000000 -60.708740 0.000000 46.000000 -0.258025 0.489784 0.832787
-9.47999954 -19.09000015 0.41999999 26 184 150 0.000000 0.000000 0.000000 0.000000 -60.708740 0.000000 46.000000 -0.653056 0.410445 0.636438
-9.44999981 -19.09000015 0.44000000 26 184 150 0.000000 0.000000 0.000000 0.000000 -60.708740 0.000000 46.000000 -0.486841 0.716138 0.500133
-9.47000027 -19.11000061 0.40000001 26 184 150 0.000000 0.000000 0.000000 0.000000 -60.708740 0.000000 46.000000 -0.216632 0.809682 0.545422
-9.47000027 -19.12999916 0.41999999 26 184 150 0.000000 0.000000 0.000000 0.000000 -60.708740 0.000000 46.000000 0.695899 -0.633968 -0.337356
-9.47000027 -19.12000084 0.41999999 26 184 150 0.000000 0.000000 0.000000 0.000000 -60.708740 0.000000 46.000000 -0.511587 0.305685 0.803017
-9.43999958 -19.09000015 0.44000000 26 184 150 0.000000 0.000000 0.000000 0.000000 -60.708740 0.000000 46.000000 -0.187197 0.579854 0.792923
-9.39000034 -19.13999939 0.16000000 26 184 150 0.000000 0.000000 0.000000 0.000000 -60.708740 0.000000 46.000000 0.652425 -0.464580 -0.598755
-9.40999985 -19.14999962 0.16000000 26 184 150 0.000000 0.000000 0.000000 0.000000 -60.708740 0.000000 46.000000 -0.463859 0.490271 0.737882
-9.44999981 -19.12000084 0.22000000 26 184 150 0.000000 0.000000 0.000000 0.000000 -60.708740 0.000000 46.000000 -0.379303 0.224067 0.897732
-9.46000004 -19.15999985 0.20000000 26 184 150 0.000000 0.000000 0.000000 0.000000 -60.708740 0.000000 46.000000 -0.522951 0.715529 0.463185
-9.44999981 -19.13999939 0.22000000 26 184 150 0.000000 0.000000 0.000000 0.000000 -60.708740 0.000000 46.000000 -0.421191 0.469977 0.775706
-9.46000004 -19.15999985 0.17000000 26 184 150 0.000000 0.000000 0.000000 0.000000 -60.708740 0.000000 46.000000 -0.388992 0.469695 0.792510
-9.52000046 -18.70999908 0.55000001 26 184 150 0.000000 0.000000 0.000000 0.000000 -60.708740 0.000000 46.000000 -0.462835 -0.369948 0.805557
-9.52000046 -18.70999908 0.55000001 26 184 150 0.000000 0.000000 0.000000 0.000000 -60.708740 0.000000 46.000000 -0.462835 -0.369948 0.805557
-9.56000042 -18.70000076 0.52999997 26 184 150 0.000000 0.000000 0.000000 0.000000 -60.708740 0.000000 46.000000 -0.473728 -0.222486 0.852105
-9.56000042 -18.70000076 0.52999997 26 184 150 0.000000 0.000000 0.000000 0.000000 -60.708740 0.000000 46.000000 -0.473728 -0.222486 0.852105
-9.55000019 -18.70999908 0.51999998 26 184 150 0.000000 0.000000 0.000000 0.000000 -60.708740 0.000000 46.000000 0.714027 0.422452 -0.558300
-9.55000019 -18.70999908 0.51999998 26 184 150 0.000000 0.000000 0.000000 0.000000 -60.708740 0.000000 46.000000 0.714027 0.422452 -0.558300
-9.52999973 -18.71999931 0.55000001 26 184 150 0.000000 0.000000 0.000000 0.000000 -60.708740 0.000000 46.000000 -0.411457 -0.330719 0.849310
-9.56000042 -18.73999977 0.50000000 26 184 150 0.000000 0.000000 0.000000 0.000000 -60.708740 0.000000 46.000000 -0.292460 -0.526428 0.798336
-9.52000046 -18.78000069 0.52999997 26 184 150 0.000000 0.000000 0.000000 0.000000 -60.708740 0.000000 46.000000 -0.639561 0.082664 0.764283
-9.51000023 -18.77000046 0.55000001 26 184 150 0.000000 0.000000 0.000000 0.000000 -60.708740 0.000000 46.000000 -0.478472 -0.448875 0.754703
-9.48999977 -18.79999924 0.52999997 26 184 150 0.000000 0.000000 0.000000 0.000000 -60.708740 0.000000 46.000000 -0.634737 -0.192112 0.748467
-9.53999996 -18.79000092 0.52999997 26 184 150 0.000000 0.000000 0.000000 0.000000 -60.708740 0.000000 46.000000 -0.486094 0.094951 0.868733
-9.55000019 -18.76000023 0.54000002 26 184 150 0.000000 0.000000 0.000000 0.000000 -60.708740 0.000000 46.000000 -0.274651 -0.535178 0.798844
-9.53999996 -18.76000023 0.50999999 26 184 150 0.000000 0.000000 0.000000 0.000000 -60.708740 0.000000 46.000000 -0.523853 -0.136466 0.840806
-9.52999973 -18.78000069 0.50000000 26 184 150 0.000000 0.000000 0.000000 0.000000 -60.708740 0.000000 46.000000 -0.215342 -0.104523 0.970929
-9.56000042 -18.77000046 0.49000001 26 184 150 0.000000 0.000000 0.000000 0.000000 -60.708740 0.000000 46.000000 0.482892 0.624226 -0.614131
-9.56000042 -18.77000046 0.49000001 26 184 150 0.000000 0.000000 0.000000 0.000000 -60.708740 0.000000 46.000000 0.482892 0.624226 -0.614131
-9.53999996 -18.77000046 0.49000001 26 184 150 0.000000 0.000000 0.000000 0.000000 -60.708740 0.000000 46.000000 0.529046 0.596656 -0.603417
-9.52999973 -18.78000069 0.50000000 26 184 150 0.000000 0.000000 0.000000 0.000000 -60.708740 0.000000 46.000000 -0.215342 -0.104523 0.970929
-9.52999973 -18.79000092 0.50000000 26 184 150 0.000000 0.000000 0.000000 0.000000 -60.708740 0.000000 46.000000 -0.233866 -0.050202 0.970972
-9.52999973 -18.79999924 0.54000002 26 184 150 0.000000 0.000000 0.000000 0.000000 -60.708740 0.000000 46.000000 -0.108705 -0.130207 0.985510
-9.55000019 -18.82999992 0.50000000 26 184 150 0.000000 0.000000 0.000000 0.000000 -60.708740 0.000000 46.000000 -0.560448 -0.034767 0.827460
-9.56000042 -18.82999992 0.49000001 26 184 150 0.000000 0.000000 0.000000 0.000000 -60.708740 0.000000 46.000000 0.771099 0.049703 -0.634772
-9.56000042 -18.81999969 0.49000001 26 184 150 0.000000 0.000000 0.000000 0.000000 -60.708740 0.000000 46.000000 -0.656889 -0.196294 0.727987
-9.53999996 -18.82999992 0.50999999 26 184 150 0.000000 0.000000 0.000000 0.000000 -60.708740 0.000000 46.000000 -0.299695 -0.021140 0.953801
-9.56999969 -18.69000053 0.52999997 26 184 150 0.000000 0.000000 0.000000 0.000000 -60.708740 0.000000 46.000000 -0.340968 -0.471012 0.813566
-9.56999969 -18.68000031 0.52999997 26 184 150 0.000000 0.000000 0.000000 0.000000 -60.708740 0.000000 46.000000 0.323547 0.751723 -0.574657
-9.56999969 -18.70000076 0.51999998 26 184 150 0.000000 0.000000 0.000000 0.000000 -60.708740 0.000000 46.000000 -0.268296 -0.494720 0.826601
-9.56999969 -18.72999954 0.52999997 26 184 150 0.000000 0.000000 0.000000 0.000000 -60.708740 0.000000 46.000000 -0.207511 -0.452344 0.867366
-9.57999992 -18.72999954 0.51999998 26 184 150 0.000000 0.000000 0.000000 0.000000 -60.708740 0.000000 46.000000 0.616589 0.630030 -0.472102
-9.56999969 -18.75000000 0.50000000 26 184 150 0.000000 0.000000 0.000000 0.000000 -60.708740 0.000000 46.000000 -0.513331 -0.037158 0.857386
-9.60000038 -18.71999931 0.50999999 26 184 150 0.000000 0.000000 0.000000 0.000000 -60.708740 0.000000 46.000000 0.527044 0.557354 -0.641546
-9.64000034 -18.69000053 0.49000001 26 184 150 0.000000 0.000000 0.000000 0.000000 -60.708740 0.000000 46.000000 -0.441817 -0.374826 0.815048
-9.63000011 -18.68000031 0.49000001 26 184 150 0.000000 0.000000 0.000000 0.000000 -60.708740 0.000000 46.000000 -0.412472 -0.578123 0.704018
-9.61999989 -18.69000053 0.50999999 26 184 150 0.000000 0.000000 0.000000 0.000000 -60.708740 0.000000 46.000000 0.514693 0.514693 -0.685698
-9.60999966 -18.69000053 0.50999999 26 184 150 0.000000 0.000000 0.000000 0.000000 -60.708740 0.000000 46.000000 -0.221850 -0.298155 0.928378
-9.60999966 -18.71999931 0.50000000 26 184 150 0.000000 0.000000 0.000000 0.000000 -60.708740 0.000000 46.000000 0.628832 0.564768 -0.534423
-9.64000034 -18.75000000 0.50000000 26 184 150 0.000000 0.000000 0.000000 0.000000 -60.708740 0.000000 46.000000 0.336682 0.771631 -0.539658
-9.59000015 -18.79000092 0.49000001 26 184 150 0.000000 0.000000 0.000000 0.000000 -60.708740 0.000000 46.000000 0.631566 -0.006910 -0.775292
-9.59000015 -18.79999924 0.50999999 26 184 150 0.000000 0.000000 0.000000 0.000000 -60.708740 0.000000 46.000000 -0.351477 -0.333218 0.874888
-9.48999977 -18.79999924 0.47999999 26 184 150 0.000000 0.000000 0.000000 0.000000 -60.708740 0.000000 46.000000 -0.479291 -0.542751 0.689711
-9.52000046 -18.80999947 0.47999999 26 184 150 0.000000 0.000000 0.000000 0.000000 -60.708740 0.000000 46.000000 -0.188254 -0.196153 0.962333
-9.60000038 -18.70999908 0.47000000 26 184 150 0.000000 0.000000 0.000000 0.000000 -60.708740 0.000000 46.000000 0.525758 0.696003 -0.489038
-9.60000038 -18.71999931 0.46000001 26 184 150 0.000000 0.000000 0.000000 0.000000 -60.708740 0.000000 46.000000 0.686655 0.383671 -0.617496
-9.59000015 -18.75000000 0.47999999 26 184 150 0.000000 0.000000 0.000000 0.000000 -60.708740 0.000000 46.000000 -0.417495 -0.496082 0.761315
-9.59000015 -18.73999977 0.44999999 26 184 150 0.000000 0.000000 0.000000 0.000000 -60.708740 0.000000 46.000000 -0.080402 -0.500748 0.861851
-9.57999992 -18.72999954 0.47000000 26 184 150 0.000000 0.000000 0.000000 0.000000 -60.708740 0.000000 46.000000 0.500045 0.513425 -0.697388
-9.64000034 -18.70999908 0.46000001 26 184 150 0.000000 0.000000 0.000000 0.000000 -60.708740 0.000000 46.000000 -0.359017 -0.258551 0.896804
-9.60999966 -18.70999908 0.46000001 26 184 150 0.000000 0.000000 0.000000 0.000000 -60.708740 0.000000 46.000000 -0.249703 -0.161573 0.954747
-9.61999989 -18.73999977 0.47000000 26 184 150 0.000000 0.000000 0.000000 0.000000 -60.708740 0.000000 46.000000 0.682726 0.251864 -0.685894
-9.60999966 -18.71999931 0.44999999 26 184 150 0.000000 0.000000 0.000000 0.000000 -60.708740 0.000000 46.000000 -0.399211 -0.405573 0.822278
-9.60000038 -18.79000092 0.47000000 26 184 150 0.000000 0.000000 0.000000 0.000000 -60.708740 0.000000 46.000000 -0.339095 -0.240131 0.909589
-9.57999992 -18.76000023 0.47999999 26 184 150 0.000000 0.000000 0.000000 0.000000 -60.708740 0.000000 46.000000 0.622244 0.575027 -0.531184
-9.57999992 -18.77000046 0.47000000 26 184 150 0.000000 0.000000 0.000000 0.000000 -60.708740 0.000000 46.000000 -0.069382 -0.420376 0.904693
-9.56999969 -18.79000092 0.47000000 26 184 150 0.000000 0.000000 0.000000 0.000000 -60.708740 0.000000 46.000000 -0.276389 -0.030985 0.960546
-9.57999992 -18.76000023 0.47999999 26 184 150 0.000000 0.000000 0.000000 0.000000 -60.708740 0.000000 46.000000 0.622244 0.575027 -0.531184
-9.57999992 -18.82999992 0.47000000 26 184 150 0.000000 0.000000 0.000000 0.000000 -60.708740 0.000000 46.000000 -0.222637 -0.304885 0.926001
-9.63000011 -18.77000046 0.47000000 26 184 150 0.000000 0.000000 0.000000 0.000000 -60.708740 0.000000 46.000000 -0.396403 0.006456 0.918054
-9.61999989 -18.79000092 0.46000001 26 184 150 0.000000 0.000000 0.000000 0.000000 -60.708740 0.000000 46.000000 -0.515651 -0.485613 0.705892
-9.60999966 -18.82999992 0.46000001 26 184 150 0.000000 0.000000 0.000000 0.000000 -60.708740 0.000000 46.000000 0.429638 -0.055568 -0.901290
-9.60999966 -18.79999924 0.44000000 26 184 150 0.000000 0.000000 0.000000 0.000000 -60.708740 0.000000 46.000000 0.553515 0.506408 -0.661190
-9.72999954 -18.63999939 0.56999999 26 184 150 0.000000 0.000000 0.000000 0.000000 -60.708740 0.000000 46.000000 -0.153105 0.822012 -0.548503
-9.72999954 -18.63999939 0.56999999 26 184 150 0.000000 0.000000 0.000000 0.000000 -60.708740 0.000000 46.000000 -0.153105 0.822012 -0.548503
-9.77999973 -18.55999947 0.56999999 26 184 150 0.000000 0.000000 0.000000 0.000000 -60.708740 0.000000 46.000000 0.051980 0.830276 -0.554923
-9.81000042 -18.56999969 0.63999999 26 184 150 0.000000 0.000000 0.000000 0.000000 -60.708740 0.000000 46.000000 -0.006367 0.930810 -0.365448
-9.75000000 -18.60000038 0.64999998 26 184 150 0.000000 0.000000 0.000000 0.000000 -60.708740 0.000000 46.000000 -0.392477 0.899366 -0.192618
-9.77000046 -18.60000038 0.63999999 26 184 150 0.000000 0.000000 0.000000 0.000000 -60.708740 0.000000 46.000000 -0.015933 0.959672 -0.280670
-9.73999977 -18.64999962 0.56999999 26 184 150 0.000000 0.000000 0.000000 0.000000 -60.708740 0.000000 46.000000 0.420905 0.755009 -0.502793
-9.73999977 -18.63999939 0.56999999 26 184 150 0.000000 0.000000 0.000000 0.000000 -60.708740 0.000000 46.000000 0.176807 0.917983 -0.355029
-9.78999996 -18.62999916 0.56999999 26 184 150 0.000000 0.000000 0.000000 0.000000 -60.708740 0.000000 46.000000 0.244887 0.965591 -0.087550
-9.76000023 -18.61000061 0.54000002 26 184 150 0.000000 0.000000 0.000000 0.000000 -60.708740 0.000000 46.000000 -0.210896 0.903217 -0.373795
-9.76000023 -18.60000038 0.54000002 26 184 150 0.000000 0.000000 0.000000 0.000000 -60.708740 0.000000 46.000000 0.097713 0.954982 -0.280111
-9.76000023 -18.61000061 0.54000002 26 184 150 0.000000 0.000000 0.000000 0.000000 -60.708740 0.000000 46.000000 -0.210896 0.903217 -0.373795
-9.73999977 -18.63999939 0.55000001 26 184 150 0.000000 0.000000 0.000000 0.000000 -60.708740 0.000000 46.000000 0.186347 0.940017 -0.285732
-9.76000023 -18.63999939 0.52999997 26 184 150 0.000000 0.000000 0.000000 0.000000 -60.708740 0.000000 46.000000 0.416182 0.818013 -0.397047
-9.73999977 -18.63999939 0.54000002 26 184 150 0.000000 0.000000 0.000000 0.000000 -60.708740 0.000000 46.000000 -0.090767 0.945814 -0.311764
-9.75000000 -18.63999939 0.56000000 26 184 150 0.000000 0.000000 0.000000 0.000000 -60.708740 0.000000 46.000000 0.020933 0.999780 -0.000997
-9.77000046 -18.64999962 0.50000000 26 184 150 0.000000 0.000000 0.000000 0.000000 -60.708740 0.000000 46.000000 0.499506 0.799529 -0.333536
-9.77000046 -18.63999939 0.51999998 26 184 150 0.000000 0.000000 0.000000 0.000000 -60.708740 0.000000 46.000000 0.490951 0.685321 -0.537868
-9.76000023 -18.63999939 0.51999998 26 184 150 0.000000 0.000000 0.000000 0.000000 -60.708740 0.000000 46.000000 0.272584 0.903212 -0.331521
-9.81000042 -18.60000038 0.52999997 26 184 150 0.000000 0.000000 0.000000 0.000000 -60.708740 0.000000 46.000000 0.417680 0.821066 -0.389093
-9.80000019 -18.61000061 0.52999997 26 184 150 0.000000 0.000000 0.000000 0.000000 -60.708740 0.000000 46.000000 0.233339 0.920472 -0.313504
-9.80000019 -18.61000061 0.52999997 26 184 150 0.000000 0.000000 0.000000 0.000000 -60.708740 0.000000 46.000000 0.233339 0.920472 -0.313504
-9.78999996 -18.60000038 0.54000002 26 184 150 0.000000 0.000000 0.000000 0.000000 -60.708740 0.000000 46.000000 0.256986 0.859156 -0.442503
-9.77999973 -18.61000061 0.50999999 26 184 150 0.000000 0.000000 0.000000 0.000000 -60.708740 0.000000 46.000000 0.446919 0.855705 -0.260830
-9.80000019 -18.62999916 0.55000001 26 184 150 0.000000 0.000000 0.000000 0.000000 -60.708740 0.000000 46.000000 -0.014821 0.869058 -0.494487
-9.78999996 -18.62999916 0.55000001 26 184 150 0.000000 0.000000 0.000000 0.000000 -60.708740 0.000000 46.000000 -0.005103 0.999195 -0.039804
-9.81000042 -18.62999916 0.51999998 26 184 150 0.000000 0.000000 0.000000 0.000000 -60.708740 0.000000 46.000000 0.343023 0.902460 -0.260580
-9.81000042 -18.62999916 0.51999998 26 184 150 0.000000 0.000000 0.000000 0.000000 -60.708740 0.000000 46.000000 0.343023 0.902460 -0.260580
-9.77000046 -18.65999985 0.43000001 26 184 150 0.000000 0.000000 0.000000 0.000000 -60.708740 0.000000 46.000000 -0.004071 0.837225 -0.546843
-9.71000004 -18.72999954 0.50000000 26 184 150 0.000000 0.000000 0.000000 0.000000 -60.708740 0.000000 46.000000 -0.326542 -0.638463 0.696948
-9.72999954 -18.71999931 0.49000001 26 184 150 0.000000 0.000000 0.000000 0.000000 -60.708740 0.000000 46.000000 0.463408 0.680892 -0.567132
-9.67000008 -18.72999954 0.49000001 26 184 150 0.000000 0.000000 0.000000 0.000000 -60.708740 0.000000 46.000000 0.337449 0.836559 -0.431621
-9.77000046 -18.67000008 0.55000001 26 184 150 0.000000 0.000000 0.000000 0.000000 -60.708740 0.000000 46.000000 0.131282 0.818670 -0.559056
-9.77999973 -18.70000076 0.52999997 26 184 150 0.000000 0.000000 0.000000 0.000000 -60.708740 0.000000 46.000000 0.186301 -0.715948 0.672837
-9.75000000 -18.67000008 0.55000001 26 184 150 0.000000 0.000000 0.000000 0.000000 -60.708740 0.000000 46.000000 -0.075346 0.831648 -0.550167
-9.67000008 -18.70000076 0.44999999 26 184 150 0.000000 0.000000 0.000000 0.000000 -60.708740 0.000000 46.000000 -0.300166 -0.601937 0.739981
-9.68000031 -18.70000076 0.44999999 26 184 150 0.000000 0.000000 0.000000 0.000000 -60.708740 0.000000 46.000000 -0.038088 -0.382190 0.923298
-9.68000031 -18.70000076 0.44999999 26 184 150 0.000000 0.000000 0.000000 0.000000 -60.708740 0.000000 46.000000 -0.038088 -0.382190 0.923298
-9.68999958 -18.70999908 0.44999999 26 184 150 0.000000 0.000000 0.000000 0.000000 -60.708740 0.000000 46.000000 0.061291 -0.608633 0.791081
-9.67000008 -18.75000000 0.47000000 26 184 150 0.000000 0.000000 0.000000 0.000000 -60.708740 0.000000 46.000000 -0.188839 -0.314732 0.930206
-9.68999958 -18.71999931 0.44000000 26 184 150 0.000000 0.000000 0.000000 0.000000 -60.708740 0.000000 46.000000 -0.097713 -0.280111 0.954982
-9.68999958 -18.73999977 0.44000000 26 184 150 0.000000 0.000000 0.000000 0.000000 -60.708740 0.000000 46.000000 -0.226659 -0.260033 0.938621
-9.71000004 -18.70000076 0.46000001 26 184 150 0.000000 0.000000 0.000000 0.000000 -60.708740 0.000000 46.000000 0.069915 0.897922 -0.434567
-9.72999954 -18.70000076 0.44999999 26 184 150 0.000000 0.000000 0.000000 0.000000 -60.708740 0.000000 46.000000 -0.347611 -0.608728 0.713174
-9.69999981 -18.70000076 0.46000001 26 184 150 0.000000 0.000000 0.000000 0.000000 -60.708740 0.000000 46.000000 -0.058509 0.786306 -0.615060
-9.69999981 -18.70999908 0.44999999 26 184 150 0.000000 0.000000 0.000000 0.000000 -60.708740 0.000000 46.000000 -0.001358 0.824239 -0.566240
-9.69999981 -18.70000076 0.46000001 26 184 150 0.000000 0.000000 0.000000 0.000000 -60.708740 0.000000 46.000000 -0.058509 0.786306 -0.615060
-9.69999981 -18.70000076 0.44000000 26 184 150 0.000000 0.000000 0.000000 0.000000 -60.708740 0.000000 46.000000 0.544130 0.655314 -0.523914
-9.69999981 -18.70999908 0.41000000 26 184 150 0.000000 0.000000 0.000000 0.000000 -60.708740 0.000000 46.000000 -0.156798 -0.427238 0.890439
-9.72999954 -18.71999931 0.44000000 26 184 150 0.000000 0.000000 0.000000 0.000000 -60.708740 0.000000 46.000000 -0.261100 -0.295721 0.918899
-9.69999981 -18.71999931 0.40000001 26 184 150 0.000000 0.000000 0.000000 0.000000 -60.708740 0.000000 46.000000 -0.062572 -0.374103 0.925274
-9.64999962 -18.77000046 0.47000000 26 184 150 0.000000 0.000000 0.000000 0.000000 -60.708740 0.000000 46.000000 -0.203658 -0.402921 0.892288
-9.67000008 -18.76000023 0.46000001 26 184 150 0.000000 0.000000 0.000000 0.000000 -60.708740 0.000000 46.000000 0.690961 0.480159 -0.540388
-9.68999958 -18.76000023 0.43000001 26 184 150 0.000000 0.000000 0.000000 0.000000 -60.708740 0.000000 46.000000 -0.402756 -0.236303 0.884279
-9.73999977 -18.69000053 0.44999999 26 184 150 0.000000 0.000000 0.000000 0.000000 -60.708740 0.000000 46.000000 -0.446018 -0.538870 0.714624
-9.73999977 -18.69000053 0.44999999 26 184 150 0.000000 0.000000 0.000000 0.000000 -60.708740 0.000000 46.000000 -0.446018 -0.538870 0.714624
-9.77000046 -18.70000076 0.41000000 26 184 150 0.000000 0.000000 0.000000 0.000000 -60.708740 0.000000 46.000000 0.302790 0.871853 -0.384954
-9.77000046 -18.70000076 0.44000000 26 184 150 0.000000 0.000000 0.000000 0.000000 -60.708740 0.000000 46.000000 0.214976 0.910403 -0.353485
-9.76000023 -18.70000076 0.41000000 26 184 150 0.000000 0.000000 0.000000 0.000000 -60.708740 0.000000 46.000000 0.236983 0.861894 -0.448306
-9.76000023 -18.70000076 0.44000000 26 184 150 0.000000 0.000000 0.000000 0.000000 -60.708740 0.000000 46.000000 -0.332967 -0.456054 0.825316
-9.77000046 -18.70000076 0.41000000 26 184 150 0.000000 0.000000 0.000000 0.000000 -60.708740 0.000000 46.000000 0.302790 0.871853 -0.384954
-9.77000046 -18.75000000 0.40000001 26 184 150 0.000000 0.000000 0.000000 0.000000 -60.708740 0.000000 46.000000 -0.191199 -0.302847 0.933663
-9.76000023 -18.73999977 0.41999999 26 184 150 0.000000 0.000000 0.000000 0.000000 -60.708740 0.000000 46.000000 -0.552607 -0.269219 0.788763
-9.81000042 -18.68000031 0.44999999 26 184 150 0.000000 0.000000 0.000000 0.000000 -60.708740 0.000000 46.000000 -0.029444 0.938373 -0.344369
-9.81000042 -18.69000053 0.44000000 26 184 150 0.000000 0.000000 0.000000 0.000000 -60.708740 0.000000 46.000000 -0.227291 -0.713223 0.663062
-9.77999973 -18.70000076 0.43000001 26 184 150 0.000000 0.000000 0.000000 0.000000 -60.708740 0.000000 46.000000 0.307526 0.785547 -0.536976
-9.77999973 -18.70000076 0.41999999 26 184 150 0.000000 0.000000 0.000000 0.000000 -60.708740 0.000000 46.000000 0.126908 0.838757 -0.529511
-9.78999996 -18.70000076 0.41999999 26 184 150 0.000000 0.000000 0.000000 0.000000 -60.708740 0.000000 46.000000 -0.281566 -0.477573 0.832253
-9.81000042 -18.69000053 0.44000000 26 184 150 0.000000 0.000000 0.000000 0.000000 -60.708740 0.000000 46.000000 -0.227291 -0.713223 0.663062
-9.78999996 -18.67000008 0.41999999 26 184 150 0.000000 0.000000 0.000000 0.000000 -60.708740 0.000000 46.000000 -0.182984 0.708869 -0.681191
-9.80000019 -18.69000053 0.44000000 26 184 150 0.000000 0.000000 0.000000 0.000000 -60.708740 0.000000 46.000000 0.078872 0.810228 -0.580783
-9.48999977 -18.86000061 0.50999999 26 184 150 0.000000 0.000000 0.000000 0.000000 -60.708740 0.000000 46.000000 -0.190022 0.190022 0.963215
-9.52000046 -18.89999962 0.52999997 26 184 150 0.000000 0.000000 0.000000 0.000000 -60.708740 0.000000 46.000000 -0.380296 -0.094052 0.920070
-9.51000023 -18.89999962 0.52999997 26 184 150 0.000000 0.000000 0.000000 0.000000 -60.708740 0.000000 46.000000 -0.468970 0.042139 0.882208
-9.51000023 -18.89999962 0.52999997 26 184 150 0.000000 0.000000 0.000000 0.000000 -60.708740 0.000000 46.000000 -0.468970 0.042139 0.882208
-9.51000023 -18.88999939 0.52999997 26 184 150 0.000000 0.000000 0.000000 0.000000 -60.708740 0.000000 46.000000 -0.601025 -0.058255 0.797104
-9.52000046 -18.92000008 0.51999998 26 184 150 0.000000 0.000000 0.000000 0.000000 -60.708740 0.000000 46.000000 -0.397912 0.022179 0.917155
-9.55000019 -18.84000015 0.50000000 26 184 150 0.000000 0.000000 0.000000 0.000000 -60.708740 0.000000 46.000000 -0.643244 0.120330 0.756146
-9.55000019 -18.87999916 0.49000001 26 184 150 0.000000 0.000000 0.000000 0.000000 -60.708740 0.000000 46.000000 0.779942 0.079586 -0.620770
-9.55000019 -18.87999916 0.50000000 26 184 150 0.000000 0.000000 0.000000 0.000000 -60.708740 0.000000 46.000000 -0.673706 -0.129961 0.727483
-9.52999973 -18.92000008 0.51999998 26 184 150 0.000000 0.000000 0.000000 0.000000 -60.708740 0.000000 46.000000 -0.520372 -0.065923 0.851391
-9.55000019 -18.89999962 0.50999999 26 184 150 0.000000 0.000000 0.000000 0.000000 -60.708740 0.000000 46.000000 -0.355251 0.289297 0.888878
-9.53999996 -18.87999916 0.50999999 26 184 150 0.000000 0.000000 0.000000 0.000000 -60.708740 0.000000 46.000000 -0.575939 -0.160902 0.801502
-9.52999973 -18.89999962 0.51999998 26 184 150 0.000000 0.000000 0.000000 0.000000 -60.708740 0.000000 46.000000 -0.685133 -0.064907 0.725520
-9.55000019 -18.90999985 0.50999999 26 184 150 0.000000 0.000000 0.000000 0.000000 -60.708740 0.000000 46.000000 -0.351276 0.465719 0.812226
-9.52999973 -18.89999962 0.50000000 26 184 150 0.000000 0.000000 0.000000 0.000000 -60.708740 0.000000 46.000000 -0.180389 0.233838 0.955395
-9.48999977 -18.94000053 0.50000000 26 184 150 0.000000 0.000000 0.000000 0.000000 -60.708740 0.000000 46.000000 -0.491839 0.083148 0.866707
-9.53999996 -18.95999908 0.50000000 26 184 150 0.000000 0.000000 0.000000 0.000000 -60.708740 0.000000 46.000000 -0.262762 0.104846 0.959147
-9.57999992 -18.92000008 0.50999999 26 184 150 0.000000 0.000000 0.000000 0.000000 -60.708740 0.000000 46.000000 -0.163837 0.348680 0.922811
-9.59000015 -18.84000015 0.50999999 26 184 150 0.000000 0.000000 0.000000 0.000000 -60.708740 0.000000 46.000000 -0.159333 -0.105816 0.981538
-9.64000034 -18.98999977 0.52999997 26 184 150 0.000000 0.000000 0.000000 0.000000 -60.708740 0.000000 46.000000 0.661078 -0.556786 -0.502957
-9.64000034 -18.98999977 0.51999998 26 184 150 0.000000 0.000000 0.000000 0.000000 -60.708740 0.000000 46.000000 0.738284 -0.540970 -0.402850
-9.64000034 -18.96999931 0.50999999 26 184 150 0.000000 0.000000 0.000000 0.000000 -60.708740 0.000000 46.000000 -0.416151 0.104386 0.903284
-9.64000034 -18.96999931 0.50999999 26 184 150 0.000000 0.000000 0.000000 0.000000 -60.708740 0.000000 46.000000 -0.416151 0.104386 0.903284
-9.64000034 -18.96999931 0.50999999 26 184 150 0.000000 0.000000 0.000000 0.000000 -60.708740 0.000000 46.000000 -0.416151 0.104386 0.903284
-9.56999969 -18.84000015 0.46000001 26 184 150 0.000000 0.000000 0.000000 0.000000 -60.708740 0.000000 46.000000 -0.434796 0.025263 0.900174
-9.61999989 -18.95000076 0.47000000 26 184 150 0.000000 0.000000 0.000000 0.000000 -60.708740 0.000000 46.000000 -0.244792 0.506519 0.826750
-9.64000034 -18.98999977 0.41999999 26 184 150 0.000000 0.000000 0.000000 0.000000 -60.708740 0.000000 46.000000 -0.262306 0.419993 0.868793
-9.51000023 -18.84000015 0.47999999 26 184 150 0.000000 0.000000 0.000000 0.000000 -60.708740 0.000000 46.000000 0.557691 0.248383 -0.792014
-9.57999992 -19.02000046 0.50000000 26 184 150 0.000000 0.000000 0.000000 0.000000 -60.708740 0.000000 46.000000 -0.662238 0.612195 0.432039
-9.51000023 -19.06999969 0.43000001 26 184 150 0.000000 0.000000 0.000000 0.000000 -60.708740 0.000000 46.000000 0.698239 -0.629880 -0.340168
-9.48999977 -19.10000038 0.40000001 26 184 150 0.000000 0.000000 0.000000 0.000000 -60.708740 0.000000 46.000000 -0.631283 0.161984 0.758448
-9.56000042 -19.09000015 0.44000000 26 184 150 0.000000 0.000000 0.000000 0.000000 -60.708740 0.000000 46.000000 -0.231620 0.582937 0.778804
-9.56000042 -19.15999985 0.46000001 26 184 150 0.000000 0.000000 0.000000 0.000000 -60.708740 0.000000 46.000000 0.607790 -0.747439 -0.268189
-9.51000023 -19.09000015 0.38999999 26 184 150 0.000000 0.000000 0.000000 0.000000 -60.708740 0.000000 46.000000 -0.402910 0.507307 0.761776
-9.55000019 -19.12999916 0.38999999 26 184 150 0.000000 0.000000 0.000000 0.000000 -60.708740 0.000000 46.000000 -0.403530 0.239735 0.883001
-9.56000042 -19.09000015 0.38999999 26 184 150 0.000000 0.000000 0.000000 0.000000 -60.708740 0.000000 46.000000 -0.134953 0.486121 0.863409
-9.59000015 -19.01000023 0.43000001 26 184 150 0.000000 0.000000 0.000000 0.000000 -60.708740 0.000000 46.000000 -0.374923 0.735111 0.564840
-9.63000011 -19.02000046 0.47000000 26 184 150 0.000000 0.000000 0.000000 0.000000 -60.708740 0.000000 46.000000 0.498040 -0.682499 -0.534932
-9.60999966 -19.02000046 0.47999999 26 184 150 0.000000 0.000000 0.000000 0.000000 -60.708740 0.000000 46.000000 -0.381500 0.185711 0.905522
-9.63000011 -19.03000069 0.47999999 26 184 150 0.000000 0.000000 0.000000 0.000000 -60.708740 0.000000 46.000000 -0.288321 0.404259 0.868013
-9.61999989 -19.02000046 0.47999999 26 184 150 0.000000 0.000000 0.000000 0.000000 -60.708740 0.000000 46.000000 -0.390146 0.292989 0.872894
-9.64000034 -19.05999947 0.43000001 26 184 150 0.000000 0.000000 0.000000 0.000000 -60.708740 0.000000 46.000000 -0.493552 0.722880 0.483582
-9.60999966 -19.07999992 0.41000000 26 184 150 0.000000 0.000000 0.000000 0.000000 -60.708740 0.000000 46.000000 0.763026 -0.308730 -0.567871
-9.59000015 -19.06999969 0.33000001 26 184 150 0.000000 0.000000 0.000000 0.000000 -60.708740 0.000000 46.000000 -0.446829 0.630916 0.634263
-9.63000011 -19.07999992 0.34000000 26 184 150 0.000000 0.000000 0.000000 0.000000 -60.708740 0.000000 46.000000 -0.309025 0.306067 0.900459
-9.63000011 -19.06999969 0.34000000 26 184 150 0.000000 0.000000 0.000000 0.000000 -60.708740 0.000000 46.000000 -0.243830 0.618228 0.747222
-9.63000011 -19.10000038 0.41999999 26 184 150 0.000000 0.000000 0.000000 0.000000 -60.708740 0.000000 46.000000 -0.667229 0.644164 0.373977
-9.61999989 -19.10000038 0.41999999 26 184 150 0.000000 0.000000 0.000000 0.000000 -60.708740 0.000000 46.000000 -0.264286 0.836133 0.480661
-9.60999966 -19.09000015 0.41000000 26 184 150 0.000000 0.000000 0.000000 0.000000 -60.708740 0.000000 46.000000 0.740384 -0.567899 -0.359615
-9.60999966 -19.09000015 0.41999999 26 184 150 0.000000 0.000000 0.000000 0.000000 -60.708740 0.000000 46.000000 -0.474046 0.756178 0.451082
-9.61999989 -19.10000038 0.43000001 26 184 150 0.000000 0.000000 0.000000 0.000000 -60.708740 0.000000 46.000000 -0.421598 0.500340 0.756251
-9.57999992 -19.11000061 0.37000000 26 184 150 0.000000 0.000000 0.000000 0.000000 -60.708740 0.000000 46.000000 -0.456143 0.265699 0.849316
-9.57999992 -19.10000038 0.37000000 26 184 150 0.000000 0.000000 0.000000 0.000000 -60.708740 0.000000 46.000000 -0.295395 0.589193 0.752059
-9.57999992 -19.12000084 0.37000000 26 184 150 0.000000 0.000000 0.000000 0.000000 -60.708740 0.000000 46.000000 -0.435769 0.616087 0.656157
-9.60000038 -19.15999985 0.38999999 26 184 150 0.000000 0.000000 0.000000 0.000000 -60.708740 0.000000 46.000000 -0.274641 0.525741 0.805090
-9.57999992 -19.13999939 0.38999999 26 184 150 0.000000 0.000000 0.000000 0.000000 -60.708740 0.000000 46.000000 -0.301144 0.466539 0.831657
-9.60999966 -19.12000084 0.31999999 26 184 150 0.000000 0.000000 0.000000 0.000000 -60.708740 0.000000 46.000000 0.751479 -0.432470 -0.498245
-9.63000011 -19.09000015 0.33000001 26 184 150 0.000000 0.000000 0.000000 0.000000 -60.708740 0.000000 46.000000 -0.488421 0.748255 0.448953
-9.64999962 -18.92000008 0.50000000 26 184 150 0.000000 0.000000 0.000000 0.000000 -60.708740 0.000000 46.000000 -0.285707 0.333078 0.898571
-9.64999962 -18.98999977 0.51999998 26 184 150 0.000000 0.000000 0.000000 0.000000 -60.708740 0.000000 46.000000 -0.417211 0.430098 0.800594
-9.64999962 -18.98999977 0.50000000 26 184 150 0.000000 0.000000 0.000000 0.000000 -60.708740 0.000000 46.000000 0.360533 -0.585662 -0.725959
-9.68999958 -19.00000000 0.40000001 26 184 150 0.000000 0.000000 0.000000 0.000000 -60.708740 0.000000 46.000000 -0.160515 0.574553 0.802574
-9.73999977 -19.09000015 0.50000000 26 184 150 0.000000 0.000000 0.000000 0.000000 -60.708740 0.000000 46.000000 -0.055710 0.769947 0.635671
-9.65999985 -19.03000069 0.40000001 26 184 150 0.000000 0.000000 0.000000 0.000000 -60.708740 0.000000 46.000000 -0.373412 0.777537 0.505965
-9.67000008 -19.04000092 0.40000001 26 184 150 0.000000 0.000000 0.000000 0.000000 -60.708740 0.000000 46.000000 -0.330798 0.470081 0.818289
-9.67000008 -19.05999947 0.46000001 26 184 150 0.000000 0.000000 0.000000 0.000000 -60.708740 0.000000 46.000000 0.552716 -0.623707 -0.552716
-9.65999985 -19.04000092 0.37000000 26 184 150 0.000000 0.000000 0.000000 0.000000 -60.708740 0.000000 46.000000 -0.278536 0.261396 0.924170
-9.67000008 -19.01000023 0.37000000 26 184 150 0.000000 0.000000 0.000000 0.000000 -60.708740 0.000000 46.000000 -0.168562 0.291899 0.941478
-9.68999958 -19.05999947 0.37000000 26 184 150 0.000000 0.000000 0.000000 0.000000 -60.708740 0.000000 46.000000 -0.330368 0.197087 0.923046
-9.65999985 -19.04999924 0.37000000 26 184 150 0.000000 0.000000 0.000000 0.000000 -60.708740 0.000000 46.000000 -0.380053 0.309842 0.871526
-9.68999958 -19.05999947 0.37000000 26 184 150 0.000000 0.000000 0.000000 0.000000 -60.708740 0.000000 46.000000 -0.330368 0.197087 0.923046
-9.68999958 -19.05999947 0.37000000 26 184 150 0.000000 0.000000 0.000000 0.000000 -60.708740 0.000000 46.000000 -0.330368 0.197087 0.923046
-9.68999958 -19.07999992 0.38000000 26 184 150 0.000000 0.000000 0.000000 0.000000 -60.708740 0.000000 46.000000 0.643238 -0.471932 -0.602931
-9.68000031 -19.07999992 0.38000000 26 184 150 0.000000 0.000000 0.000000 0.000000 -60.708740 0.000000 46.000000 0.405685 -0.697116 -0.591141
-9.68000031 -19.05999947 0.33000001 26 184 150 0.000000 0.000000 0.000000 0.000000 -60.708740 0.000000 46.000000 0.714396 -0.542013 -0.442561
-9.71000004 -19.05999947 0.36000001 26 184 150 0.000000 0.000000 0.000000 0.000000 -60.708740 0.000000 46.000000 -0.545167 0.468477 0.695213
-9.71000004 -19.05999947 0.37000000 26 184 150 0.000000 0.000000 0.000000 0.000000 -60.708740 0.000000 46.000000 -0.172097 0.463338 0.869310
-9.69999981 -19.06999969 0.37000000 26 184 150 0.000000 0.000000 0.000000 0.000000 -60.708740 0.000000 46.000000 -0.186872 0.401268 0.896696
-9.69999981 -19.06999969 0.33000001 26 184 150 0.000000 0.000000 0.000000 0.000000 -60.708740 0.000000 46.000000 -0.186858 0.439925 0.878379
-9.69999981 -19.06999969 0.33000001 26 184 150 0.000000 0.000000 0.000000 0.000000 -60.708740 0.000000 46.000000 -0.186858 0.439925 0.878379
-9.71000004 -19.06999969 0.31999999 26 184 150 0.000000 0.000000 0.000000 0.000000 -60.708740 0.000000 46.000000 -0.631823 0.571168 0.523992
-9.69999981 -19.06999969 0.33000001 26 184 150 0.000000 0.000000 0.000000 0.000000 -60.708740 0.000000 46.000000 -0.186858 0.439925 0.878379
-9.67000008 -19.12000084 0.31999999 26 184 150 0.000000 0.000000 0.000000 0.000000 -60.708740 0.000000 46.000000 -0.575638 0.455505 0.679085
-9.72999954 -19.10000038 0.31999999 26 184 150 0.000000 0.000000 0.000000 0.000000 -60.708740 0.000000 46.000000 -0.452956 0.271773 0.849100
-9.72999954 -19.15999985 0.31999999 26 184 150 0.000000 0.000000 0.000000 0.000000 -60.708740 0.000000 46.000000 -0.136622 0.665094 0.734156
-9.72999954 -19.15999985 0.31999999 26 184 150 0.000000 0.000000 0.000000 0.000000 -60.708740 0.000000 46.000000 -0.136622 0.665094 0.734156
-9.73999977 -19.05999947 0.34999999 26 184 150 0.000000 0.000000 0.000000 0.000000 -60.708740 0.000000 46.000000 -0.324864 0.277825 0.904034
-9.75000000 -19.04999924 0.31999999 26 184 150 0.000000 0.000000 0.000000 0.000000 -60.708740 0.000000 46.000000 0.596065 -0.639720 -0.485247
-9.75000000 -19.07999992 0.31999999 26 184 150 0.000000 0.000000 0.000000 0.000000 -60.708740 0.000000 46.000000 -0.422452 0.558300 0.714027
-9.77999973 -19.06999969 0.31999999 26 184 150 0.000000 0.000000 0.000000 0.000000 -60.708740 0.000000 46.000000 -0.406630 0.190927 0.893420
-9.76000023 -19.11000061 0.43000001 26 184 150 0.000000 0.000000 0.000000 0.000000 -60.708740 0.000000 46.000000 -0.622032 0.625386 0.471135
-9.77999973 -19.11000061 0.33000001 26 184 150 0.000000 0.000000 0.000000 0.000000 -60.708740 0.000000 46.000000 -0.395710 0.342948 0.851939
-9.51000023 -19.09000015 0.28999999 26 184 150 0.000000 0.000000 0.000000 0.000000 -60.708740 0.000000 46.000000 -0.309618 0.516030 0.798655
-9.50000000 -19.11000061 0.25999999 26 184 150 0.000000 0.000000 0.000000 0.000000 -60.708740 0.000000 46.000000 0.559127 -0.692650 -0.455647
-9.50000000 -19.11000061 0.25999999 26 184 150 0.000000 0.000000 0.000000 0.000000 -60.708740 0.000000 46.000000 0.559127 -0.692650 -0.455647
-9.50000000 -19.13999939 0.28999999 26 184 150 0.000000 0.000000 0.000000 0.000000 -60.708740 0.000000 46.000000 -0.390384 0.700056 0.597931
-9.55000019 -19.10000038 0.28999999 26 184 150 0.000000 0.000000 0.000000 0.000000 -60.708740 0.000000 46.000000 -0.179437 0.348983 0.919790
-9.53999996 -19.09000015 0.31000000 26 184 150 0.000000 0.000000 0.000000 0.000000 -60.708740 0.000000 46.000000 -0.624566 0.506723 0.594263
-9.56000042 -19.10000038 0.25000000 26 184 150 0.000000 0.000000 0.000000 0.000000 -60.708740 0.000000 46.000000 -0.265219 0.706721 0.655900
-9.55000019 -19.12999916 0.25000000 26 184 150 0.000000 0.000000 0.000000 0.000000 -60.708740 0.000000 46.000000 -0.534699 0.735417 0.416243
-9.53999996 -19.12000084 0.25000000 26 184 150 0.000000 0.000000 0.000000 0.000000 -60.708740 0.000000 46.000000 -0.486764 0.530255 0.694183
-9.53999996 -19.12000084 0.25000000 26 184 150 0.000000 0.000000 0.000000 0.000000 -60.708740 0.000000 46.000000 -0.486764 0.530255 0.694183
-9.53999996 -19.13999939 0.25999999 26 184 150 0.000000 0.000000 0.000000 0.000000 -60.708740 0.000000 46.000000 -0.482510 0.647269 0.590108
-9.48999977 -19.09000015 0.23000000 26 184 150 0.000000 0.000000 0.000000 0.000000 -60.708740 0.000000 46.000000 0.450206 -0.607527 -0.654389
-9.48999977 -19.12000084 0.22000000 26 184 150 0.000000 0.000000 0.000000 0.000000 -60.708740 0.000000 46.000000 0.508569 -0.701991 -0.498564
