//X Y Z R G B PointSourceId ScanDirectionFlag NumberOfReturns ReturnNumber GpsTime Intensity Classification Nx Ny Nz
15.01000023 14.96000004 -1.11000001 137 9 182 97.000000 1.000000 4.000000 1.000000 -60.708740 114.000000 139.000000 0.796635 -0.492086 -0.351032
15.02000046 14.97999954 -1.10000002 137 9 182 97.000000 1.000000 4.000000 1.000000 -60.708740 114.000000 139.000000 -0.628223 0.773310 0.085601
15.02000046 14.97999954 -1.11000001 137 9 182 97.000000 1.000000 4.000000 1.000000 -60.708740 114.000000 139.000000 -0.365875 0.906733 0.209691
15.01000023 14.96000004 -1.10000002 137 9 182 97.000000 1.000000 4.000000 1.000000 -60.708740 114.000000 139.000000 0.701305 -0.471424 -0.534725
15.00000000 14.94999981 -1.11000001 137 9 182 97.000000 1.000000 4.000000 1.000000 -60.708740 114.000000 139.000000 -0.585072 0.810840 0.015143
15.00000000 14.94999981 -1.10000002 137 9 182 97.000000 1.000000 4.000000 1.000000 -60.708740 114.000000 139.000000 -0.517083 0.853397 0.065862
15.00000000 14.94999981 -1.11000001 137 9 182 97.000000 1.000000 4.000000 1.000000 -60.708740 114.000000 139.000000 -0.585072 0.810840 0.015143
15.01000023 14.96000004 -1.08000004 137 9 182 97.000000 1.000000 4.000000 1.000000 -60.708740 114.000000 139.000000 -0.599290 0.669402 0.439035
14.98999977 14.97000027 -1.11000001 137 9 182 97.000000 1.000000 4.000000 1.000000 -60.708740 114.000000 139.000000 0.675831 -0.715676 -0.176237
14.98999977 14.92000008 -1.04999995 137 9 182 97.000000 1.000000 4.000000 1.000000 -60.708740 114.000000 139.000000 -0.515104 0.669468 0.535239
15.00000000 14.93999958 -1.05999994 137 9 182 97.000000 1.000000 4.000000 1.000000 -60.708740 114.000000 139.000000 0.676502 -0.572939 -0.462694
15.00000000 14.90999985 -1.03999996 137 9 182 97.000000 1.000000 4.000000 1.000000 -60.708740 114.000000 139.000000 0.884242 -0.344960 -0.314832
14.98999977 14.90999985 -1.05999994 137 9 182 97.000000 1.000000 4.000000 1.000000 -60.708740 114.000000 139.000000 0.542401 -0.559298 -0.626887
14.98999977 14.93000031 -1.05999994 137 9 182 97.000000 1.000000 4.000000 1.000000 -60.708740 114.000000 139.000000 0.742066 -0.548768 -0.384957
15.00000000 14.93000031 -1.05999994 137 9 182 97.000000 1.000000 4.000000 1.000000 -60.708740 114.000000 139.000000 -0.753059 0.434773 0.493836
15.02000046 14.93999958 -1.03999996 137 9 182 97.000000 1.000000 4.000000 1.000000 -60.708740 114.000000 139.000000 -0.661190 0.553515 0.506408
15.00000000 14.93000031 -1.04999995 137 9 182 97.000000 1.000000 4.000000 1.000000 -60.708740 114.000000 139.000000 -0.451658 0.829352 0.328908
15.00000000 14.92000008 -1.04999995 137 9 182 97.000000 1.000000 4.000000 1.000000 -60.708740 114.000000 139.000000 0.770212 -0.411974 -0.486878
14.98999977 14.93000031 -1.05999994 137 9 182 97.000000 1.000000 4.000000 1.000000 -60.708740 114.000000 139.000000 0.742066 -0.548768 -0.384957
15.01000023 14.92000008 -1.03999996 137 9 182 97.000000 1.000000 4.000000 1.000000 -60.708740 114.000000 139.000000 0.800009 -0.564443 -0.203444
14.98999977 14.93000031 -1.05999994 137 9 182 97.000000 1.000000 4.000000 1.000000 -60.708740 114.000000 139.000000 0.742066 -0.548768 -0.384957
14.98999977 14.93000031 -1.09000003 137 9 182 97.000000 1.000000 4.000000 1.000000 -60.708740 114.000000 139.000000 -0.361717 0.871477 0.331192
14.98999977 14.93000031 -1.07000005 137 9 182 97.000000 1.000000 4.000000 1.000000 -60.708740 114.000000 139.000000 0.759232 -0.327227 -0.562573
15.02000046 14.93999958 -1.10000002 137 9 182 97.000000 1.000000 4.000000 1.000000 -60.708740 114.000000 139.000000 -0.473828 0.664699 0.577635
14.98999977 14.93999958 -1.07000005 137 9 182 97.000000 1.000000 4.000000 1.000000 -60.708740 114.000000 139.000000 0.588123 -0.635308 -0.500495
14.98999977 14.93000031 -1.09000003 137 9 182 97.000000 1.000000 4.000000 1.000000 -60.708740 114.000000 139.000000 -0.361717 0.871477 0.331192
15.00000000 14.93999958 -1.07000005 137 9 182 97.000000 1.000000 4.000000 1.000000 -60.708740 114.000000 139.000000 0.813631 -0.495732 -0.303734
14.97999954 14.94999981 -1.11000001 137 9 182 97.000000 1.000000 4.000000 1.000000 -60.708740 114.000000 139.000000 -0.508102 0.831579 0.224297
14.97999954 14.94999981 -1.11000001 137 9 182 97.000000 1.000000 4.000000 1.000000 -60.708740 114.000000 139.000000 -0.508102 0.831579 0.224297
14.97999954 14.90999985 -1.02999997 137 9 182 97.000000 1.000000 4.000000 1.000000 -60.708740 114.000000 139.000000 0.643732 -0.325920 -0.692377
14.97999954 14.90999985 -1.04999995 137 9 182 97.000000 1.000000 4.000000 1.000000 -60.708740 114.000000 139.000000 0.342426 -0.731916 -0.589103
14.97999954 14.92000008 -1.02999997 137 9 182 97.000000 1.000000 4.000000 1.000000 -60.708740 114.000000 139.000000 0.811660 -0.448087 -0.374735
14.97999954 14.90999985 -1.02999997 137 9 182 97.000000 1.000000 4.000000 1.000000 -60.708740 114.000000 139.000000 0.643732 -0.325920 -0.692377
14.97000027 14.90999985 -1.03999996 137 9 182 97.000000 1.000000 4.000000 1.000000 -60.708740 114.000000 139.000000 -0.382998 0.596689 0.705177
14.97999954 14.93000031 -1.09000003 137 9 182 97.000000 1.000000 4.000000 1.000000 -60.708740 114.000000 139.000000 -0.614870 0.767444 0.181562
14.97999954 14.93000031 -1.09000003 137 9 182 97.000000 1.000000 4.000000 1.000000 -60.708740 114.000000 139.000000 -0.614870 0.767444 0.181562
14.97000027 14.92000008 -1.08000004 137 9 182 97.000000 1.000000 4.000000 1.000000 -60.708740 114.000000 139.000000 -0.459346 0.780726 0.423637
14.97999954 14.93000031 -1.07000005 137 9 182 97.000000 1.000000 4.000000 1.000000 -60.708740 114.000000 139.000000 -0.583297 0.408143 0.702270
14.97999954 14.93000031 -1.07000005 137 9 182 97.000000 1.000000 4.000000 1.000000 -60.708740 114.000000 139.000000 -0.583297 0.408143 0.702270
14.97999954 14.93000031 -1.10000002 137 9 182 97.000000 1.000000 4.000000 1.000000 -60.708740 114.000000 139.000000 -0.476524 0.725578 0.496448
14.97999954 14.93999958 -1.11000001 137 9 182 97.000000 1.000000 4.000000 1.000000 -60.708740 114.000000 139.000000 0.728633 -0.588448 -0.350461
14.97999954 14.93999958 -1.11000001 137 9 182 97.000000 1.000000 4.000000 1.000000 -60.708740 114.000000 139.000000 0.728633 -0.588448 -0.350461
14.96000004 14.93000031 -1.11000001 137 9 182 97.000000 1.000000 4.000000 1.000000 -60.708740 114.000000 139.000000 -0.543500 0.808321 0.226330
15.00000000 14.94999981 -1.12000000 137 9 182 97.000000 1.000000 4.000000 1.000000 -60.708740 114.000000 139.000000 -0.592720 0.803086 0.061120
15.00000000 14.97999954 -1.13999999 137 9 182 97.000000 1.000000 4.000000 1.000000 -60.708740 114.000000 139.000000 -0.559583 0.822747 -0.099771
15.00000000 14.94999981 -1.14999998 137 9 182 97.000000 1.000000 4.000000 1.000000 -60.708740 114.000000 139.000000 -0.461252 0.881599 0.100150
14.98999977 14.97999954 -1.13000000 137 9 182 97.000000 1.000000 4.000000 1.000000 -60.708740 114.000000 139.000000 -0.490818 0.869012 0.062569
15.02000046 14.97999954 -1.12000000 137 9 182 97.000000 1.000000 4.000000 1.000000 -60.708740 114.000000 139.000000 -0.432294 0.834721 0.341119
15.02000046 14.94999981 -1.13000000 137 9 182 97.000000 1.000000 4.000000 1.000000 -60.708740 114.000000 139.000000 -0.457243 0.868614 0.190888
15.02000046 14.97000027 -1.14999998 137 9 182 97.000000 1.000000 4.000000 1.000000 -60.708740 114.000000 139.000000 -0.471811 0.818964 0.326639
14.97000027 14.92000008 -1.15999997 137 9 182 97.000000 1.000000 4.000000 1.000000 -60.708740 114.000000 139.000000 -0.662262 0.721199 0.203176
14.93999958 14.90999985 -1.04999995 137 9 182 97.000000 1.000000 4.000000 1.000000 -60.708740 114.000000 139.000000 -0.275883 0.728777 0.626716
14.93999958 14.90999985 -1.19000006 137 9 182 97.000000 1.000000 4.000000 1.000000 -60.708740 114.000000 139.000000 -0.437430 0.895559 0.081414
15.00000000 14.89999962 -1.02999997 137 9 182 97.000000 1.000000 4.000000 1.000000 -60.708740 114.000000 139.000000 -0.359388 0.674468 0.644929
15.00000000 14.89999962 -1.04999995 137 9 182 97.000000 1.000000 4.000000 1.000000 -60.708740 114.000000 139.000000 0.620631 -0.657236 -0.427619
14.94999981 14.89999962 -1.03999996 137 9 182 97.000000 1.000000 4.000000 1.000000 -60.708740 114.000000 139.000000 -0.577559 0.408759 0.706641
14.94999981 14.88000011 -1.03999996 137 9 182 97.000000 1.000000 4.000000 1.000000 -60.708740 114.000000 139.000000 -0.420905 0.755009 0.502793
14.96000004 14.88000011 -1.02999997 137 9 182 97.000000 1.000000 4.000000 1.000000 -60.708740 114.000000 139.000000 0.695473 -0.379797 -0.609977
14.97000027 14.89999962 -1.05999994 137 9 182 97.000000 1.000000 4.000000 1.000000 -60.708740 114.000000 139.000000 0.800038 -0.360739 -0.479382
14.97000027 14.89000034 -1.02999997 137 9 182 97.000000 1.000000 4.000000 1.000000 -60.708740 114.000000 139.000000 0.599283 -0.731740 -0.324679
14.97999954 14.89000034 -1.03999996 137 9 182 97.000000 1.000000 4.000000 1.000000 -60.708740 114.000000 139.000000 -0.573220 0.708679 0.411331
14.96000004 14.89000034 -1.07000005 137 9 182 97.000000 1.000000 4.000000 1.000000 -60.708740 114.000000 139.000000 -0.582768 0.592903 0.555741
14.97999954 14.89999962 -1.11000001 137 9 182 97.000000 1.000000 4.000000 1.000000 -60.708740 114.000000 139.000000 0.747738 -0.656658 -0.098425
14.97000027 14.89000034 -1.10000002 137 9 182 97.000000 1.000000 4.000000 1.000000 -60.708740 114.000000 139.000000 0.870461 -0.452284 -0.194260
14.93999958 14.85999966 -1.02999997 137 9 182 97.000000 1.000000 4.000000 1.000000 -60.708740 114.000000 139.000000 -0.522951 0.463185 0.715529
14.93000031 14.88000011 -1.03999996 137 9 182 97.000000 1.000000 4.000000 1.000000 -60.708740 114.000000 139.000000 -0.637920 0.644582 0.421393
14.90999985 14.85999966 -1.04999995 137 9 182 97.000000 1.000000 4.000000 1.000000 -60.708740 114.000000 139.000000 -0.247433 0.644585 0.723386
14.93999958 14.88000011 -1.02999997 137 9 182 97.000000 1.000000 4.000000 1.000000 -60.708740 114.000000 139.000000 0.710635 -0.619569 -0.333364
14.93999958 14.88000011 -1.04999995 137 9 182 97.000000 1.000000 4.000000 1.000000 -60.708740 114.000000 139.000000 0.856924 -0.416924 -0.303077
14.92000008 14.89000034 -1.09000003 137 9 182 97.000000 1.000000 4.000000 1.000000 -60.708740 114.000000 139.000000 0.606855 -0.769707 -0.198188
14.92000008 14.89999962 -1.09000003 137 9 182 97.000000 1.000000 4.000000 1.000000 -60.708740 114.000000 139.000000 -0.517964 0.571954 0.636067
14.93000031 14.88000011 -1.08000004 137 9 182 97.000000 1.000000 4.000000 1.000000 -60.708740 114.000000 139.000000 0.701796 -0.153092 -0.695733
14.93999958 14.89999962 -1.08000004 137 9 182 97.000000 1.000000 4.000000 1.000000 -60.708740 114.000000 139.000000 0.513206 -0.509863 -0.690405
14.93999958 14.89999962 -1.08000004 137 9 182 97.000000 1.000000 4.000000 1.000000 -60.708740 114.000000 139.000000 0.513206 -0.509863 -0.690405
14.93999958 14.88000011 -1.07000005 137 9 182 97.000000 1.000000 4.000000 1.000000 -60.708740 114.000000 139.000000 0.804954 -0.349079 -0.479784
14.92000008 14.89000034 -1.09000003 137 9 182 97.000000 1.000000 4.000000 1.000000 -60.708740 114.000000 139.000000 0.606855 -0.769707 -0.198188
14.93000031 14.86999989 -1.07000005 137 9 182 97.000000 1.000000 4.000000 1.000000 -60.708740 114.000000 139.000000 0.503288 -0.614381 -0.607648
14.90999985 14.88000011 -1.07000005 137 9 182 97.000000 1.000000 4.000000 1.000000 -60.708740 114.000000 139.000000 0.885904 -0.376247 -0.271317
14.90999985 14.89999962 -1.11000001 137 9 182 97.000000 1.000000 4.000000 1.000000 -60.708740 114.000000 139.000000 -0.657065 0.751545 0.058692
14.93999958 14.86999989 -1.07000005 137 9 182 97.000000 1.000000 4.000000 1.000000 -60.708740 114.000000 139.000000 0.822511 -0.506518 -0.258680
14.93999958 14.89999962 -1.08000004 137 9 182 97.000000 1.000000 4.000000 1.000000 -60.708740 114.000000 139.000000 0.513206 -0.509863 -0.690405
14.93000031 14.85000038 -1.02999997 137 9 182 97.000000 1.000000 4.000000 1.000000 -60.708740 114.000000 139.000000 0.601737 -0.706672 -0.372192
14.89999962 14.85999966 -1.02999997 137 9 182 97.000000 1.000000 4.000000 1.000000 -60.708740 114.000000 139.000000 0.810916 -0.382266 -0.443045
14.89999962 14.85999966 -1.02999997 137 9 182 97.000000 1.000000 4.000000 1.000000 -60.708740 114.000000 139.000000 0.810916 -0.382266 -0.443045
14.89999962 14.85999966 -1.02999997 137 9 182 97.000000 1.000000 4.000000 1.000000 -60.708740 114.000000 139.000000 0.810916 -0.382266 -0.443045
14.89999962 14.85999966 -1.02999997 137 9 182 97.000000 1.000000 4.000000 1.000000 -60.708740 114.000000 139.000000 0.810916 -0.382266 -0.443045
14.89999962 14.89000034 -1.03999996 137 9 182 97.000000 1.000000 4.000000 1.000000 -60.708740 114.000000 139.000000 0.523246 -0.761234 -0.383062
14.86999989 14.85999966 -1.08000004 137 9 182 97.000000 1.000000 4.000000 1.000000 -60.708740 114.000000 139.000000 -0.447804 0.551016 0.704168
14.89000034 14.82999992 -1.05999994 137 9 182 97.000000 1.000000 4.000000 1.000000 -60.708740 114.000000 139.000000 0.578691 -0.441940 -0.685424
14.88000011 14.85000038 -1.04999995 137 9 182 97.000000 1.000000 4.000000 1.000000 -60.708740 114.000000 139.000000 -0.456753 0.746965 0.483136
14.88000011 14.85000038 -1.04999995 137 9 182 97.000000 1.000000 4.000000 1.000000 -60.708740 114.000000 139.000000 -0.456753 0.746965 0.483136
14.86999989 14.84000015 -1.05999994 137 9 182 97.000000 1.000000 4.000000 1.000000 -60.708740 114.000000 139.000000 0.716680 -0.120688 -0.686880
14.89000034 14.85000038 -1.03999996 137 9 182 97.000000 1.000000 4.000000 1.000000 -60.708740 114.000000 139.000000 0.751041 -0.478234 -0.455226
14.89000034 14.85000038 -1.03999996 137 9 182 97.000000 1.000000 4.000000 1.000000 -60.708740 114.000000 139.000000 0.751041 -0.478234 -0.455226
14.89999962 14.85000038 -1.04999995 137 9 182 97.000000 1.000000 4.000000 1.000000 -60.708740 114.000000 139.000000 -0.366743 0.659480 0.656191
14.86999989 14.82999992 -1.10000002 137 9 182 97.000000 1.000000 4.000000 1.000000 -60.708740 114.000000 139.000000 -0.627372 0.630718 0.456727
14.88000011 14.84000015 -1.11000001 137 9 182 97.000000 1.000000 4.000000 1.000000 -60.708740 114.000000 139.000000 0.854193 -0.228289 -0.467160
14.86999989 14.82999992 -1.10000002 137 9 182 97.000000 1.000000 4.000000 1.000000 -60.708740 114.000000 139.000000 -0.627372 0.630718 0.456727
14.85999966 14.85000038 -1.08000004 137 9 182 97.000000 1.000000 4.000000 1.000000 -60.708740 114.000000 139.000000 -0.323331 0.818580 0.474745
14.86999989 14.82999992 -1.11000001 137 9 182 97.000000 1.000000 4.000000 1.000000 -60.708740 114.000000 139.000000 -0.620071 0.528835 0.579522
14.92000008 14.89999962 -1.12000000 137 9 182 97.000000 1.000000 4.000000 1.000000 -60.708740 114.000000 139.000000 -0.661850 0.693900 0.283650
14.92000008 14.88000011 -1.16999996 137 9 182 97.000000 1.000000 4.000000 1.000000 -60.708740 114.000000 139.000000 -0.471497 0.757352 0.451783
14.89000034 14.88000011 -1.12000000 137 9 182 97.000000 1.000000 4.000000 1.000000 -60.708740 114.000000 139.000000 0.709609 -0.393495 -0.584480
14.89000034 14.86999989 -1.13000000 137 9 182 97.000000 1.000000 4.000000 1.000000 -60.708740 114.000000 139.000000 0.733561 -0.385653 -0.559607
14.86999989 14.86999989 -1.13000000 137 9 182 97.000000 1.000000 4.000000 1.000000 -60.708740 114.000000 139.000000 -0.497380 0.678245 0.540922
14.86999989 14.86999989 -1.13999999 137 9 182 97.000000 1.000000 4.000000 1.000000 -60.708740 114.000000 139.000000 -0.696206 0.637783 0.329440
14.89000034 14.86999989 -1.13000000 137 9 182 97.000000 1.000000 4.000000 1.000000 -60.708740 114.000000 139.000000 0.733561 -0.385653 -0.559607
14.89000034 14.89000034 -1.13999999 137 9 182 97.000000 1.000000 4.000000 1.000000 -60.708740 114.000000 139.000000 -0.644587 0.764316 -0.018099
14.89000034 14.88000011 -1.13999999 137 9 182 97.000000 1.000000 4.000000 1.000000 -60.708740 114.000000 139.000000 0.288017 -0.768575 -0.571260
14.89999962 14.89999962 -1.16999996 137 9 182 97.000000 1.000000 4.000000 1.000000 -60.708740 114.000000 139.000000 -0.296757 0.927187 0.228602
14.89999962 14.89999962 -1.16999996 137 9 182 97.000000 1.000000 4.000000 1.000000 -60.708740 114.000000 139.000000 -0.296757 0.927187 0.228602
14.85999966 14.81999969 -1.13000000 137 9 182 97.000000 1.000000 4.000000 1.000000 -60.708740 114.000000 139.000000 0.821002 -0.481926 -0.306110
14.86999989 14.84000015 -1.12000000 137 9 182 97.000000 1.000000 4.000000 1.000000 -60.708740 114.000000 139.000000 0.481460 -0.649216 -0.588824
14.88000011 14.84000015 -1.13000000 137 9 182 97.000000 1.000000 4.000000 1.000000 -60.708740 114.000000 139.000000 -0.349270 0.823392 0.447255
14.85999966 14.81999969 -1.12000000 137 9 182 97.000000 1.000000 4.000000 1.000000 -60.708740 114.000000 139.000000 0.867150 -0.443343 -0.226932
14.85999966 14.81999969 -1.12000000 137 9 182 97.000000 1.000000 4.000000 1.000000 -60.708740 114.000000 139.000000 0.867150 -0.443343 -0.226932
14.85999966 14.85000038 -1.17999995 137 9 182 97.000000 1.000000 4.000000 1.000000 -60.708740 114.000000 139.000000 0.878893 -0.420858 -0.224556
14.90999985 14.78999996 -1.03999996 137 9 182 97.000000 1.000000 4.000000 1.000000 -60.708740 114.000000 139.000000 -0.545630 0.037486 0.837188
14.90999985 14.76000023 -1.03999996 137 9 182 97.000000 1.000000 4.000000 1.000000 -60.708740 114.000000 139.000000 -0.365225 0.352897 0.861438
14.86999989 14.81000042 -1.04999995 137 9 182 97.000000 1.000000 4.000000 1.000000 -60.708740 114.000000 139.000000 -0.326379 0.372348 0.868812
14.85999966 14.78999996 -1.05999994 137 9 182 97.000000 1.000000 4.000000 1.000000 -60.708740 114.000000 139.000000 0.682097 -0.287283 -0.672467
14.89000034 14.81000042 -1.03999996 137 9 182 97.000000 1.000000 4.000000 1.000000 -60.708740 114.000000 139.000000 -0.587711 0.371617 0.718677
14.85999966 14.78999996 -1.02999997 137 9 182 97.000000 1.000000 4.000000 1.000000 -60.708740 114.000000 139.000000 -0.588332 0.148206 0.794922
14.85999966 14.81000042 -1.08000004 137 9 182 97.000000 1.000000 4.000000 1.000000 -60.708740 114.000000 139.000000 0.842374 -0.348514 -0.411028
14.86999989 14.81000042 -1.08000004 137 9 182 97.000000 1.000000 4.000000 1.000000 -60.708740 114.000000 139.000000 -0.593664 0.253528 0.763732
14.86999989 14.81000042 -1.08000004 137 9 182 97.000000 1.000000 4.000000 1.000000 -60.708740 114.000000 139.000000 -0.593664 0.253528 0.763732
14.85999966 14.81000042 -1.08000004 137 9 182 97.000000 1.000000 4.000000 1.000000 -60.708740 114.000000 139.000000 0.842374 -0.348514 -0.411028
14.85999966 14.77000046 -1.02999997 137 9 182 97.000000 1.000000 4.000000 1.000000 -60.708740 114.000000 139.000000 -0.489455 -0.095054 0.866832
14.88000011 14.77000046 -1.04999995 137 9 182 97.000000 1.000000 4.000000 1.000000 -60.708740 114.000000 139.000000 -0.757628 0.288696 0.585367
14.89000034 14.77000046 -1.02999997 137 9 182 97.000000 1.000000 4.000000 1.000000 -60.708740 114.000000 139.000000 0.628826 -0.303959 -0.715672
14.85999966 14.75000000 -1.02999997 137 9 182 97.000000 1.000000 4.000000 1.000000 -60.708740 114.000000 139.000000 -0.513492 0.634710 0.577468
14.85999966 14.73999977 -1.02999997 137 9 182 97.000000 1.000000 4.000000 1.000000 -60.708740 114.000000 139.000000 0.651029 -0.546730 -0.526543
14.86999989 14.77000046 -1.04999995 137 9 182 97.000000 1.000000 4.000000 1.000000 -60.708740 114.000000 139.000000 -0.596657 0.456267 0.660167
14.85999966 14.77000046 -1.07000005 137 9 182 97.000000 1.000000 4.000000 1.000000 -60.708740 114.000000 139.000000 -0.493853 0.527335 0.691395
14.85999966 14.77000046 -1.07000005 137 9 182 97.000000 1.000000 4.000000 1.000000 -60.708740 114.000000 139.000000 -0.493853 0.527335 0.691395
14.85999966 14.86999989 -1.21000004 137 9 182 97.000000 1.000000 4.000000 1.000000 -60.708740 114.000000 139.000000 -0.340228 0.940335 0.003766
14.89000034 14.85999966 -1.22000003 137 9 182 97.000000 1.000000 4.000000 1.000000 -60.708740 114.000000 139.000000 -0.373344 0.927586 -0.014113
14.85000038 14.89999962 -1.14999998 137 9 182 97.000000 1.000000 4.000000 1.000000 -60.708740 114.000000 139.000000 0.596145 -0.613033 -0.518461
14.85000038 14.89999962 -1.14999998 137 9 182 97.000000 1.000000 4.000000 1.000000 -60.708740 114.000000 139.000000 0.596145 -0.613033 -0.518461
14.84000015 14.86999989 -1.13000000 137 9 182 97.000000 1.000000 4.000000 1.000000 -60.708740 114.000000 139.000000 -0.588866 0.511251 0.625987
14.85000038 14.81999969 -1.13999999 137 9 182 97.000000 1.000000 4.000000 1.000000 -60.708740 114.000000 139.000000 0.771894 -0.544017 -0.328978
14.85000038 14.81999969 -1.12000000 137 9 182 97.000000 1.000000 4.000000 1.000000 -60.708740 114.000000 139.000000 -0.595143 0.772288 0.222208
14.84000015 14.82999992 -1.14999998 137 9 182 97.000000 1.000000 4.000000 1.000000 -60.708740 114.000000 139.000000 -0.519304 0.342451 0.782975
14.85000038 14.81999969 -1.13999999 137 9 182 97.000000 1.000000 4.000000 1.000000 -60.708740 114.000000 139.000000 0.771894 -0.544017 -0.328978
14.84000015 14.82999992 -1.15999997 137 9 182 97.000000 1.000000 4.000000 1.000000 -60.708740 114.000000 139.000000 0.765978 -0.640455 -0.055630
14.85000038 14.82999992 -1.19000006 137 9 182 97.000000 1.000000 4.000000 1.000000 -60.708740 114.000000 139.000000 0.829538 -0.539717 -0.143432
14.84000015 14.82999992 -1.15999997 137 9 182 97.000000 1.000000 4.000000 1.000000 -60.708740 114.000000 139.000000 0.765978 -0.640455 -0.055630
14.82999992 14.82999992 -1.16999996 137 9 182 97.000000 1.000000 4.000000 1.000000 -60.708740 114.000000 139.000000 -0.738834 0.618078 0.268522
14.82999992 14.81999969 -1.15999997 137 9 182 97.000000 1.000000 4.000000 1.000000 -60.708740 114.000000 139.000000 0.630916 -0.446829 -0.634263
14.84000015 14.84000015 -1.15999997 137 9 182 97.000000 1.000000 4.000000 1.000000 -60.708740 114.000000 139.000000 0.775477 -0.574136 -0.262687
14.80000019 14.88000011 -1.15999997 137 9 182 97.000000 1.000000 4.000000 1.000000 -60.708740 114.000000 139.000000 0.864159 -0.355830 -0.355830
14.80000019 14.88000011 -1.16999996 137 9 182 97.000000 1.000000 4.000000 1.000000 -60.708740 114.000000 139.000000 0.799923 -0.469694 -0.373511
14.85000038 14.77999973 -1.03999996 137 9 182 97.000000 1.000000 4.000000 1.000000 -60.708740 114.000000 139.000000 0.675341 -0.023869 -0.737119
14.85000038 14.80000019 -1.03999996 137 9 182 97.000000 1.000000 4.000000 1.000000 -60.708740 114.000000 139.000000 0.727664 -0.515498 -0.452511
14.85000038 14.77999973 -1.03999996 137 9 182 97.000000 1.000000 4.000000 1.000000 -60.708740 114.000000 139.000000 0.675341 -0.023869 -0.737119
14.85000038 14.81000042 -1.09000003 137 9 182 97.000000 1.000000 4.000000 1.000000 -60.708740 114.000000 139.000000 0.774540 -0.297411 -0.558242
14.85000038 14.80000019 -1.07000005 137 9 182 97.000000 1.000000 4.000000 1.000000 -60.708740 114.000000 139.000000 -0.558300 0.714027 0.422452
14.82999992 14.80000019 -1.10000002 137 9 182 97.000000 1.000000 4.000000 1.000000 -60.708740 114.000000 139.000000 -0.455586 0.508600 0.730594
14.84000015 14.80000019 -1.10000002 137 9 182 97.000000 1.000000 4.000000 1.000000 -60.708740 114.000000 139.000000 0.689204 -0.468926 -0.552364
14.85000038 14.77999973 -1.08000004 137 9 182 97.000000 1.000000 4.000000 1.000000 -60.708740 114.000000 139.000000 -0.314567 0.621069 0.717859
14.81999969 14.77999973 -1.08000004 137 9 182 97.000000 1.000000 4.000000 1.000000 -60.708740 114.000000 139.000000 0.640633 -0.297035 -0.708068
14.85000038 14.77999973 -1.08000004 137 9 182 97.000000 1.000000 4.000000 1.000000 -60.708740 114.000000 139.000000 -0.314567 0.621069 0.717859
14.84000015 14.80000019 -1.09000003 137 9 182 97.000000 1.000000 4.000000 1.000000 -60.708740 114.000000 139.000000 -0.447804 0.551016 0.704168
14.85000038 14.75000000 -1.03999996 137 9 182 97.000000 1.000000 4.000000 1.000000 -60.708740 114.000000 139.000000 0.844549 -0.249839 -0.473622
14.85000038 14.76000023 -1.03999996 137 9 182 97.000000 1.000000 4.000000 1.000000 -60.708740 114.000000 139.000000 -0.505660 0.132608 0.852481
14.84000015 14.76000023 -1.04999995 137 9 182 97.000000 1.000000 4.000000 1.000000 -60.708740 114.000000 139.000000 -0.501505 -0.039846 0.864237
14.85000038 14.75000000 -1.05999994 137 9 182 97.000000 1.000000 4.000000 1.000000 -60.708740 114.000000 139.000000 0.721844 -0.449700 -0.526033
14.85000038 14.73999977 -1.05999994 137 9 182 97.000000 1.000000 4.000000 1.000000 -60.708740 114.000000 139.000000 0.813336 -0.328188 -0.480392
14.85000038 14.76000023 -1.07000005 137 9 182 97.000000 1.000000 4.000000 1.000000 -60.708740 114.000000 139.000000 -0.421911 0.513845 0.746963
14.81999969 14.77000046 -1.08000004 137 9 182 97.000000 1.000000 4.000000 1.000000 -60.708740 114.000000 139.000000 -0.267649 0.299477 0.915793
14.81999969 14.77000046 -1.08000004 137 9 182 97.000000 1.000000 4.000000 1.000000 -60.708740 114.000000 139.000000 -0.267649 0.299477 0.915793
14.82999992 14.75000000 -1.07000005 137 9 182 97.000000 1.000000 4.000000 1.000000 -60.708740 114.000000 139.000000 -0.324071 0.585262 0.743267
14.82999992 14.76000023 -1.07000005 137 9 182 97.000000 1.000000 4.000000 1.000000 -60.708740 114.000000 139.000000 0.801670 -0.134846 -0.582359
14.82999992 14.75000000 -1.07000005 137 9 182 97.000000 1.000000 4.000000 1.000000 -60.708740 114.000000 139.000000 -0.324071 0.585262 0.743267
14.82999992 14.76000023 -1.08000004 137 9 182 97.000000 1.000000 4.000000 1.000000 -60.708740 114.000000 139.000000 -0.544494 0.380982 0.747248
14.81999969 14.75000000 -1.09000003 137 9 182 97.000000 1.000000 4.000000 1.000000 -60.708740 114.000000 139.000000 -0.818399 0.066895 0.570744
14.84000015 14.75000000 -1.07000005 137 9 182 97.000000 1.000000 4.000000 1.000000 -60.708740 114.000000 139.000000 -0.591317 0.180891 0.785889
14.78999996 14.73999977 -1.11000001 137 9 182 97.000000 1.000000 4.000000 1.000000 -60.708740 114.000000 139.000000 0.733714 -0.491903 -0.468716
14.80000019 14.73999977 -1.07000005 137 9 182 97.000000 1.000000 4.000000 1.000000 -60.708740 114.000000 139.000000 -0.484069 0.328532 0.811014
14.81999969 14.77999973 -1.12000000 137 9 182 97.000000 1.000000 4.000000 1.000000 -60.708740 114.000000 139.000000 -0.432146 0.551358 0.713620
14.84000015 14.78999996 -1.13000000 137 9 182 97.000000 1.000000 4.000000 1.000000 -60.708740 114.000000 139.000000 -0.343120 0.820641 0.456966
14.82999992 14.78999996 -1.12000000 137 9 182 97.000000 1.000000 4.000000 1.000000 -60.708740 114.000000 139.000000 0.691595 -0.558275 -0.458286
14.81999969 14.77999973 -1.12000000 137 9 182 97.000000 1.000000 4.000000 1.000000 -60.708740 114.000000 139.000000 -0.432146 0.551358 0.713620
14.82999992 14.78999996 -1.12000000 137 9 182 97.000000 1.000000 4.000000 1.000000 -60.708740 114.000000 139.000000 0.691595 -0.558275 -0.458286
14.81999969 14.80000019 -1.13000000 137 9 182 97.000000 1.000000 4.000000 1.000000 -60.708740 114.000000 139.000000 -0.694857 0.599128 0.397768
14.85000038 14.78999996 -1.12000000 137 9 182 97.000000 1.000000 4.000000 1.000000 -60.708740 114.000000 139.000000 -0.550839 0.716256 0.428431
14.81999969 14.77999973 -1.12000000 137 9 182 97.000000 1.000000 4.000000 1.000000 -60.708740 114.000000 139.000000 -0.432146 0.551358 0.713620
14.84000015 14.81000042 -1.14999998 137 9 182 97.000000 1.000000 4.000000 1.000000 -60.708740 114.000000 139.000000 0.341553 -0.755949 -0.558464
14.81999969 14.81000042 -1.15999997 137 9 182 97.000000 1.000000 4.000000 1.000000 -60.708740 114.000000 139.000000 0.754500 -0.628494 -0.189009
14.81999969 14.81000042 -1.15999997 137 9 182 97.000000 1.000000 4.000000 1.000000 -60.708740 114.000000 139.000000 0.754500 -0.628494 -0.189009
14.81999969 14.80000019 -1.16999996 137 9 182 97.000000 1.000000 4.000000 1.000000 -60.708740 114.000000 139.000000 0.774567 -0.625780 -0.091898
14.81999969 14.81000042 -1.15999997 137 9 182 97.000000 1.000000 4.000000 1.000000 -60.708740 114.000000 139.000000 0.754500 -0.628494 -0.189009
14.81999969 14.80000019 -1.19000006 137 9 182 97.000000 1.000000 4.000000 1.000000 -60.708740 114.000000 139.000000 0.720787 -0.688881 -0.076865
14.81999969 14.80000019 -1.17999995 137 9 182 97.000000 1.000000 4.000000 1.000000 -60.708740 114.000000 139.000000 0.836997 -0.542419 -0.072228
14.81999969 14.76000023 -1.12000000 137 9 182 97.000000 1.000000 4.000000 1.000000 -60.708740 114.000000 139.000000 -0.462998 0.318605 0.827118
14.80000019 14.77999973 -1.14999998 137 9 182 97.000000 1.000000 4.000000 1.000000 -60.708740 114.000000 139.000000 -0.653936 0.695711 0.297244
14.80000019 14.77999973 -1.13999999 137 9 182 97.000000 1.000000 4.000000 1.000000 -60.708740 114.000000 139.000000 -0.298866 0.752758 0.586544
14.80000019 14.78999996 -1.14999998 137 9 182 97.000000 1.000000 4.000000 1.000000 -60.708740 114.000000 139.000000 -0.560504 0.786590 0.259057
14.80000019 14.78999996 -1.16999996 137 9 182 97.000000 1.000000 4.000000 1.000000 -60.708740 114.000000 139.000000 0.862103 -0.270075 -0.428763
14.80000019 14.80000019 -1.19000006 137 9 182 97.000000 1.000000 4.000000 1.000000 -60.708740 114.000000 139.000000 0.351778 -0.785477 -0.509194
14.78999996 14.77000046 -1.13999999 137 9 182 97.000000 1.000000 4.000000 1.000000 -60.708740 114.000000 139.000000 -0.623866 0.686417 0.373661
14.78999996 14.73999977 -1.14999998 137 9 182 97.000000 1.000000 4.000000 1.000000 -60.708740 114.000000 139.000000 -0.471412 0.302268 0.828495
14.78999996 14.76000023 -1.19000006 137 9 182 97.000000 1.000000 4.000000 1.000000 -60.708740 114.000000 139.000000 -0.594487 0.733795 0.328831
14.75000000 14.85999966 -1.16999996 137 9 182 97.000000 1.000000 4.000000 1.000000 -60.708740 114.000000 139.000000 -0.648918 0.756345 0.082748
14.76000023 14.89999962 -1.15999997 137 9 182 97.000000 1.000000 4.000000 1.000000 -60.708740 114.000000 139.000000 0.782140 -0.564966 -0.262812
14.73999977 14.75000000 -1.08000004 137 9 182 97.000000 1.000000 4.000000 1.000000 -60.708740 114.000000 139.000000 0.499627 -0.627478 -0.597197
14.71000004 14.73999977 -1.11000001 137 9 182 97.000000 1.000000 4.000000 1.000000 -60.708740 114.000000 139.000000 0.470913 -0.645201 -0.601629
14.75000000 14.76000023 -1.12000000 137 9 182 97.000000 1.000000 4.000000 1.000000 -60.708740 114.000000 139.000000 -0.765275 0.491147 0.416088
14.77000046 14.75000000 -1.14999998 137 9 182 97.000000 1.000000 4.000000 1.000000 -60.708740 114.000000 139.000000 0.764261 -0.486051 -0.423862
14.76000023 14.73999977 -1.14999998 137 9 182 97.000000 1.000000 4.000000 1.000000 -60.708740 114.000000 139.000000 0.610552 -0.617279 -0.496178
14.76000023 14.75000000 -1.14999998 137 9 182 97.000000 1.000000 4.000000 1.000000 -60.708740 114.000000 139.000000 -0.620255 0.731869 0.282224
14.77000046 14.73999977 -1.13999999 137 9 182 97.000000 1.000000 4.000000 1.000000 -60.708740 114.000000 139.000000 -0.531474 0.595588 0.602337
14.75000000 14.76000023 -1.12000000 137 9 182 97.000000 1.000000 4.000000 1.000000 -60.708740 114.000000 139.000000 -0.765275 0.491147 0.416088
14.75000000 14.75000000 -1.19000006 137 9 182 97.000000 1.000000 4.000000 1.000000 -60.708740 114.000000 139.000000 0.765535 -0.637217 -0.088948
14.69999981 14.75000000 -1.14999998 137 9 182 97.000000 1.000000 4.000000 1.000000 -60.708740 114.000000 139.000000 0.405058 -0.532971 -0.742880
14.71000004 14.73999977 -1.13999999 137 9 182 97.000000 1.000000 4.000000 1.000000 -60.708740 114.000000 139.000000 0.719401 -0.629676 -0.293208
14.72000027 14.76000023 -1.13999999 137 9 182 97.000000 1.000000 4.000000 1.000000 -60.708740 114.000000 139.000000 -0.528331 0.682637 0.504850
14.84000015 14.82999992 -1.20000005 137 9 182 97.000000 1.000000 4.000000 1.000000 -60.708740 114.000000 139.000000 -0.388766 0.918779 0.068606
14.75000000 14.76000023 -1.22000003 137 9 182 97.000000 1.000000 4.000000 1.000000 -60.708740 114.000000 139.000000 0.777286 -0.448121 -0.441603
14.75000000 14.76000023 -1.23000002 137 9 182 97.000000 1.000000 4.000000 1.000000 -60.708740 114.000000 139.000000 0.807320 -0.378881 -0.452419
14.77000046 14.76000023 -1.22000003 137 9 182 97.000000 1.000000 4.000000 1.000000 -60.708740 114.000000 139.000000 0.812195 -0.547051 -0.202668
14.77000046 14.77000046 -1.22000003 137 9 182 97.000000 1.000000 4.000000 1.000000 -60.708740 114.000000 139.000000 0.655631 -0.391397 -0.645722
14.77000046 14.73999977 -1.20000005 137 9 182 97.000000 1.000000 4.000000 1.000000 -60.708740 114.000000 139.000000 0.868812 -0.326379 -0.372348
14.72000027 14.73999977 -1.21000004 137 9 182 97.000000 1.000000 4.000000 1.000000 -60.708740 114.000000 139.000000 0.556395 -0.512690 -0.653890
14.69999981 14.73999977 -1.22000003 137 9 182 97.000000 1.000000 4.000000 1.000000 -60.708740 114.000000 139.000000 -0.422415 0.791421 0.441836
14.72000027 14.73999977 -1.24000001 137 9 182 97.000000 1.000000 4.000000 1.000000 -60.708740 114.000000 139.000000 0.655160 -0.474195 -0.588136
14.71000004 14.75000000 -1.25000000 137 9 182 97.000000 1.000000 4.000000 1.000000 -60.708740 114.000000 139.000000 -0.438565 0.648677 0.621996
15.02000046 14.71000004 -0.91000003 137 9 182 97.000000 1.000000 4.000000 1.000000 -60.708740 114.000000 139.000000 0.026668 0.067203 0.997383
15.01000023 14.72999954 -0.94000000 137 9 182 97.000000 1.000000 4.000000 1.000000 -60.708740 114.000000 139.000000 -0.290361 -0.078720 0.953674
15.02000046 14.68000031 -0.94000000 137 9 182 97.000000 1.000000 4.000000 1.000000 -60.708740 114.000000 139.000000 0.086124 -0.005316 0.996270
15.02000046 14.67000008 -0.94000000 137 9 182 97.000000 1.000000 4.000000 1.000000 -60.708740 114.000000 139.000000 0.072342 -0.267793 0.960757
15.01000023 14.68000031 -0.94000000 137 9 182 97.000000 1.000000 4.000000 1.000000 -60.708740 114.000000 139.000000 -0.456558 0.070346 0.886908
14.97999954 14.71000004 -0.92000002 137 9 182 97.000000 1.000000 4.000000 1.000000 -60.708740 114.000000 139.000000 -0.391645 0.019517 0.919910
14.96000004 14.71000004 -0.94000000 137 9 182 97.000000 1.000000 4.000000 1.000000 -60.708740 114.000000 139.000000 -0.309011 -0.323939 0.894190
14.94999981 14.68000031 -0.94000000 137 9 182 97.000000 1.000000 4.000000 1.000000 -60.708740 114.000000 139.000000 -0.326855 -0.439456 0.836686
15.02000046 14.69999981 -0.94999999 137 9 182 97.000000 1.000000 4.000000 1.000000 -60.708740 114.000000 139.000000 0.004975 -0.014924 0.999876
15.00000000 14.65999985 -0.95999998 137 9 182 97.000000 1.000000 4.000000 1.000000 -60.708740 114.000000 139.000000 -0.546028 -0.046084 0.836498
15.01000023 14.65999985 -0.94999999 137 9 182 97.000000 1.000000 4.000000 1.000000 -60.708740 114.000000 139.000000 -0.252156 -0.197636 0.947289
15.02000046 14.64999962 -0.97000003 137 9 182 97.000000 1.000000 4.000000 1.000000 -60.708740 114.000000 139.000000 0.070846 -0.470919 0.879327
14.96000004 14.72999954 -0.97000003 137 9 182 97.000000 1.000000 4.000000 1.000000 -60.708740 114.000000 139.000000 -0.670198 -0.041090 0.741044
14.94999981 14.72000027 -0.97000003 137 9 182 97.000000 1.000000 4.000000 1.000000 -60.708740 114.000000 139.000000 -0.365926 -0.001266 0.930643
14.96000004 14.72999954 -0.95999998 137 9 182 97.000000 1.000000 4.000000 1.000000 -60.708740 114.000000 139.000000 0.698706 -0.006945 -0.715375
14.97999954 14.71000004 -0.94999999 137 9 182 97.000000 1.000000 4.000000 1.000000 -60.708740 114.000000 139.000000 -0.575540 -0.173719 0.799109
14.94999981 14.72999954 -0.97000003 137 9 182 97.000000 1.000000 4.000000 1.000000 -60.708740 114.000000 139.000000 -0.471039 -0.012009 0.882031
14.96000004 14.72000027 -0.95999998 137 9 182 97.000000 1.000000 4.000000 1.000000 -60.708740 114.000000 139.000000 -0.641453 -0.041064 0.766062
14.97999954 14.69999981 -0.95999998 137 9 182 97.000000 1.000000 4.000000 1.000000 -60.708740 114.000000 139.000000 -0.566493 -0.210324 0.796775
14.97000027 14.72000027 -0.95999998 137 9 182 97.000000 1.000000 4.000000 1.000000 -60.708740 114.000000 139.000000 0.655517 0.258715 -0.709482
14.96000004 14.64999962 -0.95999998 137 9 182 97.000000 1.000000 4.000000 1.000000 -60.708740 114.000000 139.000000 -0.253012 -0.313735 0.915181
14.97000027 14.68000031 -0.97000003 137 9 182 97.000000 1.000000 4.000000 1.000000 -60.708740 114.000000 139.000000 -0.582442 -0.144493 0.799927
14.97999954 14.68999958 -0.95999998 137 9 182 97.000000 1.000000 4.000000 1.000000 -60.708740 114.000000 139.000000 -0.451452 -0.204122 0.868634
14.96000004 14.68000031 -0.97000003 137 9 182 97.000000 1.000000 4.000000 1.000000 -60.708740 114.000000 139.000000 -0.204394 -0.308706 0.928937
14.94999981 14.68999958 -0.97000003 137 9 182 97.000000 1.000000 4.000000 1.000000 -60.708740 114.000000 139.000000 -0.337164 -0.197746 0.920444
14.97999954 14.67000008 -0.99000001 137 9 182 97.000000 1.000000 4.000000 1.000000 -60.708740 114.000000 139.000000 -0.166817 -0.078008 0.982897
15.01000023 14.61999989 -0.97000003 137 9 182 97.000000 1.000000 4.000000 1.000000 -60.708740 114.000000 139.000000 -0.364951 -0.159226 0.917310
14.98999977 14.64000034 -0.97000003 137 9 182 97.000000 1.000000 4.000000 1.000000 -60.708740 114.000000 139.000000 -0.118640 -0.186078 0.975346
14.96000004 14.64000034 -0.95999998 137 9 182 97.000000 1.000000 4.000000 1.000000 -60.708740 114.000000 139.000000 -0.205742 -0.531882 0.821445
14.92000008 14.72999954 -0.98000002 137 9 182 97.000000 1.000000 4.000000 1.000000 -60.708740 114.000000 139.000000 -0.505585 -0.211040 0.836568
14.93000031 14.72999954 -0.98000002 137 9 182 97.000000 1.000000 4.000000 1.000000 -60.708740 114.000000 139.000000 -0.250646 0.101544 0.962738
14.92000008 14.72000027 -0.98000002 137 9 182 97.000000 1.000000 4.000000 1.000000 -60.708740 114.000000 139.000000 -0.657208 0.380489 0.650620
14.92000008 14.72000027 -0.98000002 137 9 182 97.000000 1.000000 4.000000 1.000000 -60.708740 114.000000 139.000000 -0.657208 0.380489 0.650620
14.93000031 14.71000004 -0.95999998 137 9 182 97.000000 1.000000 4.000000 1.000000 -60.708740 114.000000 139.000000 -0.171643 0.330726 0.927987
14.92000008 14.71000004 -0.98000002 137 9 182 97.000000 1.000000 4.000000 1.000000 -60.708740 114.000000 139.000000 -0.384543 0.264841 0.884300
14.93999958 14.69999981 -0.94999999 137 9 182 97.000000 1.000000 4.000000 1.000000 -60.708740 114.000000 139.000000 -0.157067 -0.233620 0.959558
14.90999985 14.71000004 -0.98000002 137 9 182 97.000000 1.000000 4.000000 1.000000 -60.708740 114.000000 139.000000 -0.433477 0.229488 0.871454
14.90999985 14.69999981 -0.99000001 137 9 182 97.000000 1.000000 4.000000 1.000000 -60.708740 114.000000 139.000000 -0.531069 -0.335328 0.778152
14.93999958 14.71000004 -0.99000001 137 9 182 97.000000 1.000000 4.000000 1.000000 -60.708740 114.000000 139.000000 -0.472229 -0.341850 0.812489
14.93999958 14.67000008 -0.97000003 137 9 182 97.000000 1.000000 4.000000 1.000000 -60.708740 114.000000 139.000000 -0.324454 0.013780 0.945801
14.92000008 14.68000031 -0.97000003 137 9 182 97.000000 1.000000 4.000000 1.000000 -60.708740 114.000000 139.000000 -0.253153 -0.365665 0.895658
14.93999958 14.65999985 -0.97000003 137 9 182 97.000000 1.000000 4.000000 1.000000 -60.708740 114.000000 139.000000 -0.337848 -0.103643 0.935477
14.93999958 14.65999985 -0.97000003 137 9 182 97.000000 1.000000 4.000000 1.000000 -60.708740 114.000000 139.000000 -0.337848 -0.103643 0.935477
14.93999958 14.68000031 -0.97000003 137 9 182 97.000000 1.000000 4.000000 1.000000 -60.708740 114.000000 139.000000 -0.149266 -0.010101 0.988746
14.90999985 14.67000008 -0.99000001 137 9 182 97.000000 1.000000 4.000000 1.000000 -60.708740 114.000000 139.000000 -0.131309 -0.146036 0.980526
14.92000008 14.67000008 -0.99000001 137 9 182 97.000000 1.000000 4.000000 1.000000 -60.708740 114.000000 139.000000 -0.394999 -0.088841 0.914376
14.90999985 14.68000031 -0.99000001 137 9 182 97.000000 1.000000 4.000000 1.000000 -60.708740 114.000000 139.000000 -0.416557 0.057968 0.907259
14.93000031 14.68999958 -0.99000001 137 9 182 97.000000 1.000000 4.000000 1.000000 -60.708740 114.000000 139.000000 -0.540417 0.358655 0.761128
14.90999985 14.64999962 -0.99000001 137 9 182 97.000000 1.000000 4.000000 1.000000 -60.708740 114.000000 139.000000 -0.495868 -0.113547 0.860942
14.92000008 14.67000008 -0.99000001 137 9 182 97.000000 1.000000 4.000000 1.000000 -60.708740 114.000000 139.000000 -0.394999 -0.088841 0.914376
14.90999985 14.68999958 -1.00000000 137 9 182 97.000000 1.000000 4.000000 1.000000 -60.708740 114.000000 139.000000 -0.195765 0.211746 0.957517
14.90999985 14.65999985 -0.99000001 137 9 182 97.000000 1.000000 4.000000 1.000000 -60.708740 114.000000 139.000000 -0.346535 0.346535 0.871681
14.93000031 14.67000008 -0.99000001 137 9 182 97.000000 1.000000 4.000000 1.000000 -60.708740 114.000000 139.000000 -0.235425 0.303913 0.923153
14.89999962 14.71000004 -0.98000002 137 9 182 97.000000 1.000000 4.000000 1.000000 -60.708740 114.000000 139.000000 -0.111853 -0.079566 0.990534
14.85999966 14.71000004 -0.97000003 137 9 182 97.000000 1.000000 4.000000 1.000000 -60.708740 114.000000 139.000000 -0.553575 -0.213149 0.805060
14.88000011 14.72000027 -1.00000000 137 9 182 97.000000 1.000000 4.000000 1.000000 -60.708740 114.000000 139.000000 0.748407 0.110711 -0.653934
14.86999989 14.69999981 -1.00999999 137 9 182 97.000000 1.000000 4.000000 1.000000 -60.708740 114.000000 139.000000 -0.151050 0.205273 0.966978
14.89000034 14.72000027 -0.99000001 137 9 182 97.000000 1.000000 4.000000 1.000000 -60.708740 114.000000 139.000000 -0.446701 0.190180 0.874237
14.88000011 14.72999954 -1.01999998 137 9 182 97.000000 1.000000 4.000000 1.000000 -60.708740 114.000000 139.000000 -0.342109 0.029470 0.939198
14.88000011 14.72000027 -0.99000001 137 9 182 97.000000 1.000000 4.000000 1.000000 -60.708740 114.000000 139.000000 -0.574928 -0.097028 0.812430
14.85999966 14.71000004 -1.00999999 137 9 182 97.000000 1.000000 4.000000 1.000000 -60.708740 114.000000 139.000000 -0.372731 0.150499 0.915653
14.85999966 14.69999981 -1.00999999 137 9 182 97.000000 1.000000 4.000000 1.000000 -60.708740 114.000000 139.000000 -0.580759 0.040583 0.813063
14.89000034 14.71000004 -0.99000001 137 9 182 97.000000 1.000000 4.000000 1.000000 -60.708740 114.000000 139.000000 -0.478768 -0.232545 0.846584
14.89999962 14.71000004 -1.00999999 137 9 182 97.000000 1.000000 4.000000 1.000000 -60.708740 114.000000 139.000000 -0.404800 0.091938 0.909772
14.88000011 14.72999954 -0.99000001 137 9 182 97.000000 1.000000 4.000000 1.000000 -60.708740 114.000000 139.000000 -0.275483 0.018366 0.961130
14.86999989 14.72000027 -1.00999999 137 9 182 97.000000 1.000000 4.000000 1.000000 -60.708740 114.000000 139.000000 -0.407133 0.326635 0.852967
14.86999989 14.68999958 -1.00000000 137 9 182 97.000000 1.000000 4.000000 1.000000 -60.708740 114.000000 139.000000 -0.509616 0.095642 0.855070
14.85999966 14.68999958 -1.01999998 137 9 182 97.000000 1.000000 4.000000 1.000000 -60.708740 114.000000 139.000000 -0.557429 0.102799 0.823836
14.85999966 14.68999958 -1.01999998 137 9 182 97.000000 1.000000 4.000000 1.000000 -60.708740 114.000000 139.000000 -0.557429 0.102799 0.823836
14.85999966 14.65999985 -1.01999998 137 9 182 97.000000 1.000000 4.000000 1.000000 -60.708740 114.000000 139.000000 -0.481478 0.100841 0.870638
14.93000031 14.63000011 -0.98000002 137 9 182 97.000000 1.000000 4.000000 1.000000 -60.708740 114.000000 139.000000 -0.541149 0.037368 0.840096
14.92000008 14.61999989 -0.98000002 137 9 182 97.000000 1.000000 4.000000 1.000000 -60.708740 114.000000 139.000000 -0.377462 -0.380594 0.844198
14.93000031 14.61999989 -0.98000002 137 9 182 97.000000 1.000000 4.000000 1.000000 -60.708740 114.000000 139.000000 -0.616629 -0.267893 0.740272
14.93000031 14.64000034 -0.97000003 137 9 182 97.000000 1.000000 4.000000 1.000000 -60.708740 114.000000 139.000000 -0.008001 -0.177169 0.984148
14.92000008 14.63000011 -1.00000000 137 9 182 97.000000 1.000000 4.000000 1.000000 -60.708740 114.000000 139.000000 -0.458334 -0.350490 0.816754
14.90999985 14.61999989 -1.00999999 137 9 182 97.000000 1.000000 4.000000 1.000000 -60.708740 114.000000 139.000000 -0.448064 -0.250612 0.858156
14.92000008 14.64000034 -0.99000001 137 9 182 97.000000 1.000000 4.000000 1.000000 -60.708740 114.000000 139.000000 -0.309465 -0.443204 0.841310
14.93999958 14.57999992 -1.00000000 137 9 182 97.000000 1.000000 4.000000 1.000000 -60.708740 114.000000 139.000000 -0.141750 -0.601316 0.786337
14.93000031 14.57999992 -1.00000000 137 9 182 97.000000 1.000000 4.000000 1.000000 -60.708740 114.000000 139.000000 -0.076623 -0.188518 0.979076
14.93000031 14.59000015 -1.00000000 137 9 182 97.000000 1.000000 4.000000 1.000000 -60.708740 114.000000 139.000000 -0.102024 -0.527363 0.843493
14.88000011 14.64000034 -0.95999998 137 9 182 97.000000 1.000000 4.000000 1.000000 -60.708740 114.000000 139.000000 -0.060685 -0.236548 0.969723
14.85999966 14.60999966 -1.00999999 137 9 182 97.000000 1.000000 4.000000 1.000000 -60.708740 114.000000 139.000000 -0.208731 0.174599 0.962261
14.89000034 14.63000011 -0.99000001 137 9 182 97.000000 1.000000 4.000000 1.000000 -60.708740 114.000000 139.000000 0.017184 -0.017184 0.999705
14.85999966 14.63000011 -0.99000001 137 9 182 97.000000 1.000000 4.000000 1.000000 -60.708740 114.000000 139.000000 -0.412020 -0.060790 0.909145
14.86999989 14.61999989 -0.99000001 137 9 182 97.000000 1.000000 4.000000 1.000000 -60.708740 114.000000 139.000000 -0.103643 -0.337848 0.935477
14.89999962 14.60000038 -1.00999999 137 9 182 97.000000 1.000000 4.000000 1.000000 -60.708740 114.000000 139.000000 -0.184924 -0.460090 0.868401
14.89999962 14.59000015 -1.00999999 137 9 182 97.000000 1.000000 4.000000 1.000000 -60.708740 114.000000 139.000000 -0.233550 -0.343796 0.909538
14.88000011 14.59000015 -1.00000000 137 9 182 97.000000 1.000000 4.000000 1.000000 -60.708740 114.000000 139.000000 -0.301731 -0.084903 0.949605
14.85999966 14.57999992 -1.00999999 137 9 182 97.000000 1.000000 4.000000 1.000000 -60.708740 114.000000 139.000000 -0.302867 -0.531206 0.791260
14.89000034 14.59000015 -0.99000001 137 9 182 97.000000 1.000000 4.000000 1.000000 -60.708740 114.000000 139.000000 -0.295091 -0.408234 0.863867
14.89999962 14.57999992 -1.00999999 137 9 182 97.000000 1.000000 4.000000 1.000000 -60.708740 114.000000 139.000000 -0.280300 -0.294823 0.913516
14.89999962 14.60000038 -0.99000001 137 9 182 97.000000 1.000000 4.000000 1.000000 -60.708740 114.000000 139.000000 -0.047171 -0.429926 0.901631
14.90999985 14.56000042 -1.00999999 137 9 182 97.000000 1.000000 4.000000 1.000000 -60.708740 114.000000 139.000000 0.107539 -0.216342 0.970377
14.90999985 14.56000042 -1.00999999 137 9 182 97.000000 1.000000 4.000000 1.000000 -60.708740 114.000000 139.000000 0.107539 -0.216342 0.970377
14.85999966 14.55000019 -1.01999998 137 9 182 97.000000 1.000000 4.000000 1.000000 -60.708740 114.000000 139.000000 -0.142890 0.152831 0.977868
14.88000011 14.56000042 -1.00999999 137 9 182 97.000000 1.000000 4.000000 1.000000 -60.708740 114.000000 139.000000 -0.300227 -0.535326 0.789487
14.88000011 14.56000042 -1.01999998 137 9 182 97.000000 1.000000 4.000000 1.000000 -60.708740 114.000000 139.000000 -0.325869 -0.540974 0.775343
14.85000038 14.68000031 -0.92000002 137 9 182 97.000000 1.000000 4.000000 1.000000 -60.708740 114.000000 139.000000 -0.439529 0.108127 0.891697
14.84000015 14.68000031 -0.93000001 137 9 182 97.000000 1.000000 4.000000 1.000000 -60.708740 114.000000 139.000000 -0.345078 -0.191710 0.918787
14.85000038 14.69999981 -1.01999998 137 9 182 97.000000 1.000000 4.000000 1.000000 -60.708740 114.000000 139.000000 -0.602936 0.037947 0.796887
14.84000015 14.69999981 -1.00999999 137 9 182 97.000000 1.000000 4.000000 1.000000 -60.708740 114.000000 139.000000 -0.393915 0.481451 0.782966
14.85000038 14.71000004 -1.01999998 137 9 182 97.000000 1.000000 4.000000 1.000000 -60.708740 114.000000 139.000000 -0.552024 -0.115066 0.825851
14.82999992 14.71000004 -1.01999998 137 9 182 97.000000 1.000000 4.000000 1.000000 -60.708740 114.000000 139.000000 -0.398064 0.297404 0.867811
14.85000038 14.71000004 -1.00999999 137 9 182 97.000000 1.000000 4.000000 1.000000 -60.708740 114.000000 139.000000 -0.454560 0.123971 0.882047
