//X Y Z R G B PointSourceId ScanDirectionFlag NumberOfReturns ReturnNumber GpsTime Intensity Classification Nx Ny Nz
4.09000015 -18.75000000 0.67000002 213 27 135 0.000000 0.000000 0.000000 0.000000 -60.708740 0.000000 64.000000 0.835847 0.503944 -0.217716
4.07000017 -18.75000000 0.69999999 213 27 135 0.000000 0.000000 0.000000 0.000000 -60.708740 0.000000 64.000000 0.754702 0.644981 0.120100
4.09999990 -18.76000023 0.77999997 213 27 135 0.000000 0.000000 0.000000 0.000000 -60.708740 0.000000 64.000000 0.974236 -0.017843 -0.224824
4.09999990 -18.79999924 0.75999999 213 27 135 0.000000 0.000000 0.000000 0.000000 -60.708740 0.000000 64.000000 0.995589 0.088327 -0.031623
4.05000019 -18.78000069 0.77999997 213 27 135 0.000000 0.000000 0.000000 0.000000 -60.708740 0.000000 64.000000 0.977399 0.049291 -0.205578
4.05000019 -18.79000092 0.77999997 213 27 135 0.000000 0.000000 0.000000 0.000000 -60.708740 0.000000 64.000000 0.999730 -0.003008 0.023063
4.03999996 -18.77000046 0.75999999 213 27 135 0.000000 0.000000 0.000000 0.000000 -60.708740 0.000000 64.000000 0.819331 0.468866 0.329942
4.09999990 -18.79000092 0.72000003 213 27 135 0.000000 0.000000 0.000000 0.000000 -60.708740 0.000000 64.000000 0.930854 0.212646 -0.297141
4.09000015 -18.77000046 0.70999998 213 27 135 0.000000 0.000000 0.000000 0.000000 -60.708740 0.000000 64.000000 0.974304 -0.027496 0.223552
4.09000015 -18.77000046 0.67000002 213 27 135 0.000000 0.000000 0.000000 0.000000 -60.708740 0.000000 64.000000 0.927798 0.350501 -0.127830
4.09000015 -18.78000069 0.67000002 213 27 135 0.000000 0.000000 0.000000 0.000000 -60.708740 0.000000 64.000000 0.997858 0.001038 0.065416
4.09000015 -18.82999992 0.69999999 213 27 135 0.000000 0.000000 0.000000 0.000000 -60.708740 0.000000 64.000000 0.843413 -0.535962 -0.037393
4.09000015 -18.82999992 0.70999998 213 27 135 0.000000 0.000000 0.000000 0.000000 -60.708740 0.000000 64.000000 0.843747 -0.488005 0.223479
4.11000013 -18.79999924 0.69999999 213 27 135 0.000000 0.000000 0.000000 0.000000 -60.708740 0.000000 64.000000 0.980111 0.146340 -0.134043
4.05000019 -18.79000092 0.67000002 213 27 135 0.000000 0.000000 0.000000 0.000000 -60.708740 0.000000 64.000000 0.884399 0.462205 0.064847
4.05000019 -18.80999947 0.72000003 213 27 135 0.000000 0.000000 0.000000 0.000000 -60.708740 0.000000 64.000000 0.967569 -0.228188 0.108357
4.00000000 -18.72999954 0.74000001 213 27 135 0.000000 0.000000 0.000000 0.000000 -60.708740 0.000000 64.000000 0.591595 0.761975 -0.263457
4.03000021 -18.78000069 0.77999997 213 27 135 0.000000 0.000000 0.000000 0.000000 -60.708740 0.000000 64.000000 0.925495 0.104953 0.363928
4.03000021 -18.79000092 0.77999997 213 27 135 0.000000 0.000000 0.000000 0.000000 -60.708740 0.000000 64.000000 0.995287 0.071802 0.065174
4.03000021 -18.78000069 0.69999999 213 27 135 0.000000 0.000000 0.000000 0.000000 -60.708740 0.000000 64.000000 0.925907 0.320887 -0.199317
4.03000021 -18.78000069 0.69999999 213 27 135 0.000000 0.000000 0.000000 0.000000 -60.708740 0.000000 64.000000 0.925907 0.320887 -0.199317
4.03000021 -18.78000069 0.73000002 213 27 135 0.000000 0.000000 0.000000 0.000000 -60.708740 0.000000 64.000000 0.919926 0.298004 -0.254815
4.01999998 -18.77000046 0.66000003 213 27 135 0.000000 0.000000 0.000000 0.000000 -60.708740 0.000000 64.000000 0.630890 0.770765 0.088878
4.01999998 -18.79999924 0.73000002 213 27 135 0.000000 0.000000 0.000000 0.000000 -60.708740 0.000000 64.000000 0.988444 0.099902 -0.114006
4.01999998 -18.81999969 0.69000000 213 27 135 0.000000 0.000000 0.000000 0.000000 -60.708740 0.000000 64.000000 0.951765 0.204433 0.228803
4.03000021 -18.79999924 0.66000003 213 27 135 0.000000 0.000000 0.000000 0.000000 -60.708740 0.000000 64.000000 0.822446 0.538740 -0.182598
4.03000021 -18.79999924 0.67000002 213 27 135 0.000000 0.000000 0.000000 0.000000 -60.708740 0.000000 64.000000 0.830846 0.453903 0.321973
4.11999989 -18.82999992 0.37000000 213 27 135 0.000000 0.000000 0.000000 0.000000 -60.708740 0.000000 64.000000 0.936673 0.314053 -0.154969
4.11999989 -18.78000069 0.43000001 213 27 135 0.000000 0.000000 0.000000 0.000000 -60.708740 0.000000 64.000000 0.832929 0.523770 -0.178592
4.05000019 -18.73999977 0.58999997 213 27 135 0.000000 0.000000 0.000000 0.000000 -60.708740 0.000000 64.000000 0.344234 0.932807 0.106645
4.03999996 -18.71999931 0.61000001 213 27 135 0.000000 0.000000 0.000000 0.000000 -60.708740 0.000000 64.000000 0.724602 0.680148 -0.111135
4.05999994 -18.73999977 0.62000000 213 27 135 0.000000 0.000000 0.000000 0.000000 -60.708740 0.000000 64.000000 0.633430 0.769682 0.079722
4.05999994 -18.72999954 0.61000001 213 27 135 0.000000 0.000000 0.000000 0.000000 -60.708740 0.000000 64.000000 0.692896 0.610605 -0.383480
4.07000017 -18.75000000 0.63000000 213 27 135 0.000000 0.000000 0.000000 0.000000 -60.708740 0.000000 64.000000 0.836887 0.543342 0.066330
4.07999992 -18.76000023 0.62000000 213 27 135 0.000000 0.000000 0.000000 0.000000 -60.708740 0.000000 64.000000 0.616890 0.778842 0.113366
4.09000015 -18.79000092 0.63000000 213 27 135 0.000000 0.000000 0.000000 0.000000 -60.708740 0.000000 64.000000 0.963839 0.181782 -0.194860
4.09999990 -18.78000069 0.62000000 213 27 135 0.000000 0.000000 0.000000 0.000000 -60.708740 0.000000 64.000000 0.995771 -0.011791 -0.091109
4.09999990 -18.79000092 0.60000002 213 27 135 0.000000 0.000000 0.000000 0.000000 -60.708740 0.000000 64.000000 0.992193 0.081065 0.094766
4.09000015 -18.81999969 0.61000001 213 27 135 0.000000 0.000000 0.000000 0.000000 -60.708740 0.000000 64.000000 0.949984 0.179727 -0.255401
4.11000013 -18.80999947 0.56999999 213 27 135 0.000000 0.000000 0.000000 0.000000 -60.708740 0.000000 64.000000 0.955161 0.234436 -0.180851
4.03999996 -18.76000023 0.61000001 213 27 135 0.000000 0.000000 0.000000 0.000000 -60.708740 0.000000 64.000000 0.733055 0.679996 -0.015359
4.05000019 -18.81999969 0.56999999 213 27 135 0.000000 0.000000 0.000000 0.000000 -60.708740 0.000000 64.000000 0.860348 0.506169 -0.059959
4.09999990 -18.79000092 0.55000001 213 27 135 0.000000 0.000000 0.000000 0.000000 -60.708740 0.000000 64.000000 0.978856 0.029591 0.202399
4.07999992 -18.78000069 0.50999999 213 27 135 0.000000 0.000000 0.000000 0.000000 -60.708740 0.000000 64.000000 0.621660 0.782362 -0.038061
4.09000015 -18.79000092 0.50999999 213 27 135 0.000000 0.000000 0.000000 0.000000 -60.708740 0.000000 64.000000 0.950782 0.242091 -0.193402
4.07999992 -18.78000069 0.50999999 213 27 135 0.000000 0.000000 0.000000 0.000000 -60.708740 0.000000 64.000000 0.621660 0.782362 -0.038061
4.09999990 -18.82999992 0.56000000 213 27 135 0.000000 0.000000 0.000000 0.000000 -60.708740 0.000000 64.000000 0.962522 0.035924 -0.268813
4.09999990 -18.79999924 0.50999999 213 27 135 0.000000 0.000000 0.000000 0.000000 -60.708740 0.000000 64.000000 0.977758 0.197981 0.069233
4.09999990 -18.82999992 0.50999999 213 27 135 0.000000 0.000000 0.000000 0.000000 -60.708740 0.000000 64.000000 0.989052 -0.094585 -0.113268
4.09999990 -18.79999924 0.51999998 213 27 135 0.000000 0.000000 0.000000 0.000000 -60.708740 0.000000 64.000000 0.973672 0.219229 -0.062462
4.03999996 -18.78000069 0.55000001 213 27 135 0.000000 0.000000 0.000000 0.000000 -60.708740 0.000000 64.000000 0.923573 0.378731 -0.059800
4.03999996 -18.79000092 0.51999998 213 27 135 0.000000 0.000000 0.000000 0.000000 -60.708740 0.000000 64.000000 0.913953 0.405769 -0.006482
4.05000019 -18.81999969 0.50999999 213 27 135 0.000000 0.000000 0.000000 0.000000 -60.708740 0.000000 64.000000 0.883131 0.357781 0.303435
4.05000019 -18.82999992 0.50999999 213 27 135 0.000000 0.000000 0.000000 0.000000 -60.708740 0.000000 64.000000 0.973168 -0.005898 0.230021
4.00000000 -18.79000092 0.64999998 213 27 135 0.000000 0.000000 0.000000 0.000000 -60.708740 0.000000 64.000000 0.797324 0.486095 -0.357753
4.03000021 -18.76000023 0.62000000 213 27 135 0.000000 0.000000 0.000000 0.000000 -60.708740 0.000000 64.000000 0.886654 0.462431 0.001317
4.03000021 -18.76000023 0.63000000 213 27 135 0.000000 0.000000 0.000000 0.000000 -60.708740 0.000000 64.000000 0.860908 0.507785 0.031480
4.01999998 -18.79999924 0.64999998 213 27 135 0.000000 0.000000 0.000000 0.000000 -60.708740 0.000000 64.000000 0.961672 0.059083 -0.267760
4.03000021 -18.82999992 0.62000000 213 27 135 0.000000 0.000000 0.000000 0.000000 -60.708740 0.000000 64.000000 0.984848 0.163553 -0.057655
4.01999998 -18.80999947 0.61000001 213 27 135 0.000000 0.000000 0.000000 0.000000 -60.708740 0.000000 64.000000 0.844717 0.532993 -0.048707
4.03000021 -18.81999969 0.63999999 213 27 135 0.000000 0.000000 0.000000 0.000000 -60.708740 0.000000 64.000000 0.918690 -0.094190 0.383584
4.01999998 -18.80999947 0.63999999 213 27 135 0.000000 0.000000 0.000000 0.000000 -60.708740 0.000000 64.000000 0.977908 0.208291 -0.017652
4.01000023 -18.79999924 0.60000002 213 27 135 0.000000 0.000000 0.000000 0.000000 -60.708740 0.000000 64.000000 0.805064 0.582978 -0.109582
4.03000021 -18.82999992 0.57999998 213 27 135 0.000000 0.000000 0.000000 0.000000 -60.708740 0.000000 64.000000 0.903089 0.398044 0.161215
4.07000017 -18.75000000 0.41000000 213 27 135 0.000000 0.000000 0.000000 0.000000 -60.708740 0.000000 64.000000 0.305174 0.929586 -0.206731
4.11000013 -18.79999924 0.46000001 213 27 135 0.000000 0.000000 0.000000 0.000000 -60.708740 0.000000 64.000000 0.991400 0.044087 0.123218
4.09999990 -18.80999947 0.40000001 213 27 135 0.000000 0.000000 0.000000 0.000000 -60.708740 0.000000 64.000000 0.733295 0.542144 -0.410316
4.09000015 -18.82999992 0.41999999 213 27 135 0.000000 0.000000 0.000000 0.000000 -60.708740 0.000000 64.000000 0.814841 0.576766 0.058102
4.09999990 -18.80999947 0.40000001 213 27 135 0.000000 0.000000 0.000000 0.000000 -60.708740 0.000000 64.000000 0.733295 0.542144 -0.410316
4.03999996 -18.79000092 0.46000001 213 27 135 0.000000 0.000000 0.000000 0.000000 -60.708740 0.000000 64.000000 0.896467 0.442221 0.028056
4.03999996 -18.79000092 0.46000001 213 27 135 0.000000 0.000000 0.000000 0.000000 -60.708740 0.000000 64.000000 0.896467 0.442221 0.028056
4.07000017 -18.76000023 0.41000000 213 27 135 0.000000 0.000000 0.000000 0.000000 -60.708740 0.000000 64.000000 0.733656 0.671906 -0.101447
4.03999996 -18.79999924 0.44999999 213 27 135 0.000000 0.000000 0.000000 0.000000 -60.708740 0.000000 64.000000 0.660739 0.740918 -0.120269
4.09999990 -18.78000069 0.37000000 213 27 135 0.000000 0.000000 0.000000 0.000000 -60.708740 0.000000 64.000000 0.845443 0.511987 -0.151973
4.09000015 -18.79000092 0.33000001 213 27 135 0.000000 0.000000 0.000000 0.000000 -60.708740 0.000000 64.000000 0.893536 0.417176 0.166004
4.07999992 -18.81999969 0.38999999 213 27 135 0.000000 0.000000 0.000000 0.000000 -60.708740 0.000000 64.000000 0.955195 0.292252 0.046811
4.09999990 -18.80999947 0.36000001 213 27 135 0.000000 0.000000 0.000000 0.000000 -60.708740 0.000000 64.000000 0.878628 0.464154 -0.112135
4.11000013 -18.81999969 0.37000000 213 27 135 0.000000 0.000000 0.000000 0.000000 -60.708740 0.000000 64.000000 0.924888 0.329006 -0.190626
4.11000013 -18.81999969 0.37000000 213 27 135 0.000000 0.000000 0.000000 0.000000 -60.708740 0.000000 64.000000 0.924888 0.329006 -0.190626
4.11000013 -18.82999992 0.36000001 213 27 135 0.000000 0.000000 0.000000 0.000000 -60.708740 0.000000 64.000000 0.782403 0.554795 -0.282929
4.07000017 -18.78000069 0.38000000 213 27 135 0.000000 0.000000 0.000000 0.000000 -60.708740 0.000000 64.000000 0.909359 0.364608 -0.200318
4.09000015 -18.82999992 0.31000000 213 27 135 0.000000 0.000000 0.000000 0.000000 -60.708740 0.000000 64.000000 0.877500 0.479486 -0.009349
4.05999994 -18.82999992 0.18000001 213 27 135 0.000000 0.000000 0.000000 0.000000 -60.708740 0.000000 64.000000 0.889665 0.437003 -0.132382
4.03999996 -18.82999992 0.11000000 213 27 135 0.000000 0.000000 0.000000 0.000000 -60.708740 0.000000 64.000000 0.618519 0.767450 -0.168687
4.11999989 -18.85000038 0.34999999 213 27 135 0.000000 0.000000 0.000000 0.000000 -60.708740 0.000000 64.000000 0.963652 -0.195353 -0.182242
4.11999989 -18.84000015 0.34999999 213 27 135 0.000000 0.000000 0.000000 0.000000 -60.708740 0.000000 64.000000 0.918611 0.385136 -0.088459
4.11999989 -18.84000015 0.36000001 213 27 135 0.000000 0.000000 0.000000 0.000000 -60.708740 0.000000 64.000000 0.978546 0.205948 0.005818
4.09999990 -18.86000061 0.50999999 213 27 135 0.000000 0.000000 0.000000 0.000000 -60.708740 0.000000 64.000000 0.892731 -0.413705 -0.178546
4.03000021 -18.84000015 0.56999999 213 27 135 0.000000 0.000000 0.000000 0.000000 -60.708740 0.000000 64.000000 0.953979 0.293236 0.062745
4.03000021 -18.84000015 0.49000001 213 27 135 0.000000 0.000000 0.000000 0.000000 -60.708740 0.000000 64.000000 0.936958 0.345332 0.053429
4.03000021 -18.84000015 0.56000000 213 27 135 0.000000 0.000000 0.000000 0.000000 -60.708740 0.000000 64.000000 0.992680 0.080733 0.089830
4.11000013 -18.86000061 0.41999999 213 27 135 0.000000 0.000000 0.000000 0.000000 -60.708740 0.000000 64.000000 0.939905 -0.039969 -0.339088
4.05000019 -18.84000015 0.44999999 213 27 135 0.000000 0.000000 0.000000 0.000000 -60.708740 0.000000 64.000000 0.993805 0.108715 -0.023061
4.05000019 -18.85000038 0.41000000 213 27 135 0.000000 0.000000 0.000000 0.000000 -60.708740 0.000000 64.000000 0.999999 -0.000978 -0.000978
4.05000019 -18.85000038 0.41999999 213 27 135 0.000000 0.000000 0.000000 0.000000 -60.708740 0.000000 64.000000 0.990766 0.023563 0.133523
4.03999996 -18.85000038 0.44000000 213 27 135 0.000000 0.000000 0.000000 0.000000 -60.708740 0.000000 64.000000 0.869958 0.313430 -0.380702
4.05000019 -18.86000061 0.44000000 213 27 135 0.000000 0.000000 0.000000 0.000000 -60.708740 0.000000 64.000000 0.934613 0.097886 -0.341932
4.07999992 -18.88999939 0.38000000 213 27 135 0.000000 0.000000 0.000000 0.000000 -60.708740 0.000000 64.000000 0.901967 -0.266323 0.339893
4.05000019 -18.85000038 0.38000000 213 27 135 0.000000 0.000000 0.000000 0.000000 -60.708740 0.000000 64.000000 0.934923 0.222868 0.276132
4.05000019 -18.86000061 0.38000000 213 27 135 0.000000 0.000000 0.000000 0.000000 -60.708740 0.000000 64.000000 0.962317 0.265424 0.059123
4.05000019 -18.84000015 0.37000000 213 27 135 0.000000 0.000000 0.000000 0.000000 -60.708740 0.000000 64.000000 0.901171 0.357234 0.245507
4.03999996 -18.84000015 0.38999999 213 27 135 0.000000 0.000000 0.000000 0.000000 -60.708740 0.000000 64.000000 0.796051 0.577706 -0.180438
4.05000019 -18.84000015 0.37000000 213 27 135 0.000000 0.000000 0.000000 0.000000 -60.708740 0.000000 64.000000 0.901171 0.357234 0.245507
4.03999996 -18.87000084 0.31999999 213 27 135 0.000000 0.000000 0.000000 0.000000 -60.708740 0.000000 64.000000 0.965294 0.206570 0.159800
4.03999996 -18.86000061 0.33000001 213 27 135 0.000000 0.000000 0.000000 0.000000 -60.708740 0.000000 64.000000 0.939322 0.151768 0.307638
4.05999994 -18.87000084 0.34000000 213 27 135 0.000000 0.000000 0.000000 0.000000 -60.708740 0.000000 64.000000 0.874063 0.431802 -0.222624
4.03999996 -18.87999916 0.31999999 213 27 135 0.000000 0.000000 0.000000 0.000000 -60.708740 0.000000 64.000000 0.950345 -0.250091 0.185202
4.03000021 -18.84000015 0.40000001 213 27 135 0.000000 0.000000 0.000000 0.000000 -60.708740 0.000000 64.000000 0.857493 0.411042 0.309436
4.01000023 -18.85000038 0.41999999 213 27 135 0.000000 0.000000 0.000000 0.000000 -60.708740 0.000000 64.000000 0.692490 0.720698 0.032438
4.03000021 -18.88999939 0.43000001 213 27 135 0.000000 0.000000 0.000000 0.000000 -60.708740 0.000000 64.000000 0.725174 -0.629547 0.278913
4.03000021 -18.84000015 0.47999999 213 27 135 0.000000 0.000000 0.000000 0.000000 -60.708740 0.000000 64.000000 0.997300 0.072819 -0.009498
4.03000021 -18.85000038 0.38999999 213 27 135 0.000000 0.000000 0.000000 0.000000 -60.708740 0.000000 64.000000 0.992483 0.069190 0.100950
4.11999989 -18.86000061 0.23000000 213 27 135 0.000000 0.000000 0.000000 0.000000 -60.708740 0.000000 64.000000 0.964586 0.040757 0.260599
4.11000013 -18.84000015 0.30000001 213 27 135 0.000000 0.000000 0.000000 0.000000 -60.708740 0.000000 64.000000 0.992232 0.124166 0.007692
4.11000013 -18.86000061 0.28999999 213 27 135 0.000000 0.000000 0.000000 0.000000 -60.708740 0.000000 64.000000 0.978453 0.091845 -0.184914
4.09000015 -18.85000038 0.27000001 213 27 135 0.000000 0.000000 0.000000 0.000000 -60.708740 0.000000 64.000000 0.895620 0.397568 -0.199512
4.11000013 -18.85000038 0.27000001 213 27 135 0.000000 0.000000 0.000000 0.000000 -60.708740 0.000000 64.000000 0.925287 0.313152 0.213964
4.09000015 -18.87999916 0.27000001 213 27 135 0.000000 0.000000 0.000000 0.000000 -60.708740 0.000000 64.000000 0.972263 -0.233200 0.017938
4.05000019 -18.86000061 0.23999999 213 27 135 0.000000 0.000000 0.000000 0.000000 -60.708740 0.000000 64.000000 0.815925 0.578118 0.006834
4.05000019 -18.86000061 0.23999999 213 27 135 0.000000 0.000000 0.000000 0.000000 -60.708740 0.000000 64.000000 0.815925 0.578118 0.006834
4.07000017 -18.88999939 0.28999999 213 27 135 0.000000 0.000000 0.000000 0.000000 -60.708740 0.000000 64.000000 0.918872 0.003855 -0.394537
4.07000017 -18.89999962 0.28999999 213 27 135 0.000000 0.000000 0.000000 0.000000 -60.708740 0.000000 64.000000 0.972875 0.193061 0.127445
4.03999996 -18.89999962 0.28000000 213 27 135 0.000000 0.000000 0.000000 0.000000 -60.708740 0.000000 64.000000 0.850303 -0.419730 0.317508
4.05000019 -18.88999939 0.25000000 213 27 135 0.000000 0.000000 0.000000 0.000000 -60.708740 0.000000 64.000000 0.877621 0.421675 0.227973
4.09999990 -18.87000084 0.19000000 213 27 135 0.000000 0.000000 0.000000 0.000000 -60.708740 0.000000 64.000000 0.877838 0.426293 0.218345
4.09000015 -18.86000061 0.20000000 213 27 135 0.000000 0.000000 0.000000 0.000000 -60.708740 0.000000 64.000000 0.944664 0.187292 -0.269318
4.07999992 -18.84000015 0.22000000 213 27 135 0.000000 0.000000 0.000000 0.000000 -60.708740 0.000000 64.000000 0.788027 0.428803 -0.441748
4.11000013 -18.87000084 0.16000000 213 27 135 0.000000 0.000000 0.000000 0.000000 -60.708740 0.000000 64.000000 0.972739 0.193536 -0.127759
4.11000013 -18.89999962 0.17000000 213 27 135 0.000000 0.000000 0.000000 0.000000 -60.708740 0.000000 64.000000 0.967056 -0.200661 0.156645
4.03999996 -18.84000015 0.22000000 213 27 135 0.000000 0.000000 0.000000 0.000000 -60.708740 0.000000 64.000000 0.572524 0.679350 -0.459020
4.05999994 -18.84000015 0.17000000 213 27 135 0.000000 0.000000 0.000000 0.000000 -60.708740 0.000000 64.000000 0.795638 0.581253 -0.170602
4.03999996 -18.87999916 0.19000000 213 27 135 0.000000 0.000000 0.000000 0.000000 -60.708740 0.000000 64.000000 0.908027 0.374400 0.187917
4.05999994 -18.92000008 0.16000000 213 27 135 0.000000 0.000000 0.000000 0.000000 -60.708740 0.000000 64.000000 0.941904 -0.008803 -0.335766
4.03999996 -18.92000008 0.15000001 213 27 135 0.000000 0.000000 0.000000 0.000000 -60.708740 0.000000 64.000000 0.950131 0.199243 0.239905
4.03999996 -18.89999962 0.17000000 213 27 135 0.000000 0.000000 0.000000 0.000000 -60.708740 0.000000 64.000000 0.995106 -0.065307 0.074162
4.03000021 -18.87000084 0.25000000 213 27 135 0.000000 0.000000 0.000000 0.000000 -60.708740 0.000000 64.000000 0.915038 0.199046 -0.350836
4.03000021 -18.84000015 0.27000001 213 27 135 0.000000 0.000000 0.000000 0.000000 -60.708740 0.000000 64.000000 0.510503 0.792160 -0.334468
4.03000021 -18.84000015 0.25999999 213 27 135 0.000000 0.000000 0.000000 0.000000 -60.708740 0.000000 64.000000 0.493933 0.868166 0.048155
4.03000021 -18.86000061 0.31000000 213 27 135 0.000000 0.000000 0.000000 0.000000 -60.708740 0.000000 64.000000 0.856104 0.357613 -0.373094
4.03000021 -18.89999962 0.25999999 213 27 135 0.000000 0.000000 0.000000 0.000000 -60.708740 0.000000 64.000000 0.966404 0.229121 0.116480
4.03000021 -18.86000061 0.31000000 213 27 135 0.000000 0.000000 0.000000 0.000000 -60.708740 0.000000 64.000000 0.856104 0.357613 -0.373094
4.03000021 -18.88999939 0.22000000 213 27 135 0.000000 0.000000 0.000000 0.000000 -60.708740 0.000000 64.000000 0.917078 0.051910 -0.395315
4.01999998 -18.88999939 0.20000000 213 27 135 0.000000 0.000000 0.000000 0.000000 -60.708740 0.000000 64.000000 0.737085 0.609174 -0.292596
4.07999992 -18.85000038 0.12000000 213 27 135 0.000000 0.000000 0.000000 0.000000 -60.708740 0.000000 64.000000 0.521643 0.849614 0.077752
4.09000015 -18.90999985 0.08000000 213 27 135 0.000000 0.000000 0.000000 0.000000 -60.708740 0.000000 64.000000 0.981862 -0.041255 -0.185057
4.09000015 -18.89999962 0.09000000 213 27 135 0.000000 0.000000 0.000000 0.000000 -60.708740 0.000000 64.000000 0.999658 -0.025168 0.007047
4.09000015 -18.92000008 0.09000000 213 27 135 0.000000 0.000000 0.000000 0.000000 -60.708740 0.000000 64.000000 0.952052 -0.285747 0.109295
4.09000015 -18.88999939 0.09000000 213 27 135 0.000000 0.000000 0.000000 0.000000 -60.708740 0.000000 64.000000 0.974012 0.085614 -0.209692
4.09999990 -18.88999939 0.07000000 213 27 135 0.000000 0.000000 0.000000 0.000000 -60.708740 0.000000 64.000000 0.965692 0.206655 0.157266
4.05000019 -18.84000015 0.11000000 213 27 135 0.000000 0.000000 0.000000 0.000000 -60.708740 0.000000 64.000000 0.571948 0.725996 -0.381845
4.05999994 -18.85000038 0.08000000 213 27 135 0.000000 0.000000 0.000000 0.000000 -60.708740 0.000000 64.000000 0.611800 0.768200 0.188600
4.05999994 -18.85000038 0.08000000 213 27 135 0.000000 0.000000 0.000000 0.000000 -60.708740 0.000000 64.000000 0.611800 0.768200 0.188600
4.05999994 -18.85000038 0.08000000 213 27 135 0.000000 0.000000 0.000000 0.000000 -60.708740 0.000000 64.000000 0.611800 0.768200 0.188600
4.03999996 -18.84000015 0.08000000 213 27 135 0.000000 0.000000 0.000000 0.000000 -60.708740 0.000000 64.000000 0.236741 0.970270 -0.050292
4.05999994 -18.85000038 0.07000000 213 27 135 0.000000 0.000000 0.000000 0.000000 -60.708740 0.000000 64.000000 0.627609 0.765414 -0.142298
4.07000017 -18.85000038 0.09000000 213 27 135 0.000000 0.000000 0.000000 0.000000 -60.708740 0.000000 64.000000 0.499856 0.855439 -0.135529
4.03999996 -18.89999962 0.13000000 213 27 135 0.000000 0.000000 0.000000 0.000000 -60.708740 0.000000 64.000000 0.996003 0.009628 0.088795
4.03999996 -18.90999985 0.14000000 213 27 135 0.000000 0.000000 0.000000 0.000000 -60.708740 0.000000 64.000000 0.950746 0.237347 -0.199372
4.03999996 -18.90999985 0.10000000 213 27 135 0.000000 0.000000 0.000000 0.000000 -60.708740 0.000000 64.000000 0.913214 0.346590 -0.214282
4.03999996 -18.92000008 0.09000000 213 27 135 0.000000 0.000000 0.000000 0.000000 -60.708740 0.000000 64.000000 0.993423 0.109887 -0.032189
4.03999996 -18.92000008 0.10000000 213 27 135 0.000000 0.000000 0.000000 0.000000 -60.708740 0.000000 64.000000 0.990383 -0.016748 0.137336
4.05000019 -18.87000084 -0.02000000 213 27 135 0.000000 0.000000 0.000000 0.000000 -60.708740 0.000000 64.000000 0.292567 0.951169 -0.098397
4.03999996 -18.88999939 -0.01000000 213 27 135 0.000000 0.000000 0.000000 0.000000 -60.708740 0.000000 64.000000 0.669089 0.592336 -0.448840
4.03999996 -18.88999939 -0.02000000 213 27 135 0.000000 0.000000 0.000000 0.000000 -60.708740 0.000000 64.000000 0.765161 0.643838 0.001379
4.09000015 -18.93000031 0.08000000 213 27 135 0.000000 0.000000 0.000000 0.000000 -60.708740 0.000000 64.000000 0.915307 -0.377056 -0.141571
4.09000015 -18.94000053 0.08000000 213 27 135 0.000000 0.000000 0.000000 0.000000 -60.708740 0.000000 64.000000 0.992314 -0.032370 -0.119435
4.05000019 -18.93000031 0.12000000 213 27 135 0.000000 0.000000 0.000000 0.000000 -60.708740 0.000000 64.000000 0.867582 -0.351640 0.351640
4.03999996 -18.93000031 0.10000000 213 27 135 0.000000 0.000000 0.000000 0.000000 -60.708740 0.000000 64.000000 0.971822 -0.146474 0.184684
4.07999992 -18.95000076 0.01000000 213 27 135 0.000000 0.000000 0.000000 0.000000 -60.708740 0.000000 64.000000 0.998503 0.003091 0.054614
4.05999994 -18.96999931 -0.01000000 213 27 135 0.000000 0.000000 0.000000 0.000000 -60.708740 0.000000 64.000000 0.967967 -0.239174 0.076386
4.05999994 -18.97999954 -0.02000000 213 27 135 0.000000 0.000000 0.000000 0.000000 -60.708740 0.000000 64.000000 0.941626 -0.264098 0.208789
4.01999998 -18.90999985 0.11000000 213 27 135 0.000000 0.000000 0.000000 0.000000 -60.708740 0.000000 64.000000 0.980726 -0.034225 -0.192369
4.01999998 -18.88999939 0.12000000 213 27 135 0.000000 0.000000 0.000000 0.000000 -60.708740 0.000000 64.000000 0.730315 0.682471 -0.029550
4.01999998 -18.90999985 0.11000000 213 27 135 0.000000 0.000000 0.000000 0.000000 -60.708740 0.000000 64.000000 0.980726 -0.034225 -0.192369
4.03000021 -18.87000084 0.05000000 213 27 135 0.000000 0.000000 0.000000 0.000000 -60.708740 0.000000 64.000000 0.344403 0.817363 -0.461850
4.01999998 -18.92000008 -0.02000000 213 27 135 0.000000 0.000000 0.000000 0.000000 -60.708740 0.000000 64.000000 0.791335 0.576215 0.204364
4.03000021 -18.88999939 -0.01000000 213 27 135 0.000000 0.000000 0.000000 0.000000 -60.708740 0.000000 64.000000 0.454392 0.756227 -0.470796
4.01999998 -18.89999962 0.00000000 213 27 135 0.000000 0.000000 0.000000 0.000000 -60.708740 0.000000 64.000000 0.839462 0.537312 -0.081238
4.01999998 -18.92000008 0.00000000 213 27 135 0.000000 0.000000 0.000000 0.000000 -60.708740 0.000000 64.000000 0.909497 0.370960 -0.187628
4.00000000 -18.88999939 -0.01000000 213 27 135 0.000000 0.000000 0.000000 0.000000 -60.708740 0.000000 64.000000 0.481320 0.838082 -0.256807
4.00000000 -18.93000031 0.09000000 213 27 135 0.000000 0.000000 0.000000 0.000000 -60.708740 0.000000 64.000000 0.910509 -0.391421 0.133279
4.01999998 -18.95000076 0.05000000 213 27 135 0.000000 0.000000 0.000000 0.000000 -60.708740 0.000000 64.000000 0.926425 -0.357159 -0.119053
4.01000023 -18.94000053 0.03000000 213 27 135 0.000000 0.000000 0.000000 0.000000 -60.708740 0.000000 64.000000 0.997701 -0.013696 0.066373
4.01999998 -18.94000053 -0.01000000 213 27 135 0.000000 0.000000 0.000000 0.000000 -60.708740 0.000000 64.000000 0.970711 0.197714 -0.136486
4.01999998 -18.93000031 0.02000000 213 27 135 0.000000 0.000000 0.000000 0.000000 -60.708740 0.000000 64.000000 0.983591 0.173159 -0.050652
4.01999998 -18.93000031 0.01000000 213 27 135 0.000000 0.000000 0.000000 0.000000 -60.708740 0.000000 64.000000 0.994301 0.045447 0.096437
4.01000023 -18.95000076 0.00000000 213 27 135 0.000000 0.000000 0.000000 0.000000 -60.708740 0.000000 64.000000 0.999807 0.018977 -0.004994
4.01999998 -18.93000031 0.00000000 213 27 135 0.000000 0.000000 0.000000 0.000000 -60.708740 0.000000 64.000000 0.962488 0.240297 -0.125994
4.01000023 -18.95000076 -0.02000000 213 27 135 0.000000 0.000000 0.000000 0.000000 -60.708740 0.000000 64.000000 0.984795 0.155619 0.077216
4.01999998 -18.94000053 -0.01000000 213 27 135 0.000000 0.000000 0.000000 0.000000 -60.708740 0.000000 64.000000 0.970711 0.197714 -0.136486
4.09000015 -18.89999962 -0.08000000 213 27 135 0.000000 0.000000 0.000000 0.000000 -60.708740 0.000000 64.000000 0.687086 0.661340 -0.300902
4.05999994 -18.86000061 -0.05000000 213 27 135 0.000000 0.000000 0.000000 0.000000 -60.708740 0.000000 64.000000 0.695723 0.572850 -0.433374
4.03999996 -18.88999939 -0.03000000 213 27 135 0.000000 0.000000 0.000000 0.000000 -60.708740 0.000000 64.000000 0.596989 0.782314 0.177730
4.07000017 -18.87999916 -0.06000000 213 27 135 0.000000 0.000000 0.000000 0.000000 -60.708740 0.000000 64.000000 0.553441 0.803184 -0.220452
4.03999996 -18.88999939 -0.08000000 213 27 135 0.000000 0.000000 0.000000 0.000000 -60.708740 0.000000 64.000000 0.606287 0.740662 -0.289546
4.05000019 -18.90999985 -0.15000001 213 27 135 0.000000 0.000000 0.000000 0.000000 -60.708740 0.000000 64.000000 0.796904 0.595119 0.103817
4.05000019 -18.92000008 -0.18000001 213 27 135 0.000000 0.000000 0.000000 0.000000 -60.708740 0.000000 64.000000 0.664647 0.664647 -0.341305
4.03999996 -18.87999916 -0.11000000 213 27 135 0.000000 0.000000 0.000000 0.000000 -60.708740 0.000000 64.000000 0.123564 0.984912 -0.121165
4.07000017 -18.89999962 -0.16000000 213 27 135 0.000000 0.000000 0.000000 0.000000 -60.708740 0.000000 64.000000 0.482400 0.799726 -0.357392
4.05999994 -18.92000008 -0.13000000 213 27 135 0.000000 0.000000 0.000000 0.000000 -60.708740 0.000000 64.000000 0.705672 0.644589 -0.294164
4.09000015 -18.94000053 -0.03000000 213 27 135 0.000000 0.000000 0.000000 0.000000 -60.708740 0.000000 64.000000 0.994215 0.088151 -0.061371
4.07999992 -18.95999908 -0.09000000 213 27 135 0.000000 0.000000 0.000000 0.000000 -60.708740 0.000000 64.000000 0.973373 -0.212576 0.085776
4.07999992 -18.94000053 -0.09000000 213 27 135 0.000000 0.000000 0.000000 0.000000 -60.708740 0.000000 64.000000 0.939500 0.246358 -0.238007
4.07999992 -18.93000031 -0.10000000 213 27 135 0.000000 0.000000 0.000000 0.000000 -60.708740 0.000000 64.000000 0.851110 0.505392 -0.142096
4.05999994 -18.95999908 -0.09000000 213 27 135 0.000000 0.000000 0.000000 0.000000 -60.708740 0.000000 64.000000 0.966280 0.183372 0.180771
4.07999992 -18.94000053 -0.13000000 213 27 135 0.000000 0.000000 0.000000 0.000000 -60.708740 0.000000 64.000000 0.980428 0.022256 -0.195617
4.07999992 -18.95000076 -0.12000000 213 27 135 0.000000 0.000000 0.000000 0.000000 -60.708740 0.000000 64.000000 0.983393 -0.053124 0.173540
4.07999992 -18.96999931 -0.14000000 213 27 135 0.000000 0.000000 0.000000 0.000000 -60.708740 0.000000 64.000000 0.923789 0.276421 -0.264963
4.07000017 -18.95000076 -0.15000001 213 27 135 0.000000 0.000000 0.000000 0.000000 -60.708740 0.000000 64.000000 0.996817 0.053034 -0.059528
4.07000017 -18.95000076 -0.16000000 213 27 135 0.000000 0.000000 0.000000 0.000000 -60.708740 0.000000 64.000000 0.973718 -0.025151 0.226363
4.07000017 -18.95000076 -0.16000000 213 27 135 0.000000 0.000000 0.000000 0.000000 -60.708740 0.000000 64.000000 0.973718 -0.025151 0.226363
4.07000017 -18.95000076 -0.15000001 213 27 135 0.000000 0.000000 0.000000 0.000000 -60.708740 0.000000 64.000000 0.996817 0.053034 -0.059528
4.07000017 -18.94000053 -0.16000000 213 27 135 0.000000 0.000000 0.000000 0.000000 -60.708740 0.000000 64.000000 0.940613 0.320694 0.111371
4.03999996 -18.98999977 -0.12000000 213 27 135 0.000000 0.000000 0.000000 0.000000 -60.708740 0.000000 64.000000 0.902600 -0.358407 0.238450
4.03999996 -19.00000000 -0.12000000 213 27 135 0.000000 0.000000 0.000000 0.000000 -60.708740 0.000000 64.000000 0.714027 -0.558300 0.422452
4.05999994 -19.00000000 -0.18000001 213 27 135 0.000000 0.000000 0.000000 0.000000 -60.708740 0.000000 64.000000 0.907136 -0.363144 0.212678
4.03999996 -18.97999954 -0.15000001 213 27 135 0.000000 0.000000 0.000000 0.000000 -60.708740 0.000000 64.000000 0.896126 -0.402313 -0.187359
3.99000001 -18.90999985 -0.04000000 213 27 135 0.000000 0.000000 0.000000 0.000000 -60.708740 0.000000 64.000000 0.026903 0.936463 -0.349733
4.00000000 -18.90999985 -0.06000000 213 27 135 0.000000 0.000000 0.000000 0.000000 -60.708740 0.000000 64.000000 0.493971 0.865505 0.083032
4.01999998 -18.92000008 -0.07000000 213 27 135 0.000000 0.000000 0.000000 0.000000 -60.708740 0.000000 64.000000 0.599504 0.636448 -0.485313
4.01000023 -18.87999916 -0.09000000 213 27 135 0.000000 0.000000 0.000000 0.000000 -60.708740 0.000000 64.000000 0.187350 0.981523 -0.038884
4.03000021 -18.89999962 -0.13000000 213 27 135 0.000000 0.000000 0.000000 0.000000 -60.708740 0.000000 64.000000 0.520717 0.849890 0.080874
4.01000023 -18.90999985 -0.13000000 213 27 135 0.000000 0.000000 0.000000 0.000000 -60.708740 0.000000 64.000000 0.211535 0.913773 -0.346802
4.01000023 -18.90999985 -0.12000000 213 27 135 0.000000 0.000000 0.000000 0.000000 -60.708740 0.000000 64.000000 0.600914 0.795960 -0.073142
4.01999998 -18.89999962 -0.15000001 213 27 135 0.000000 0.000000 0.000000 0.000000 -60.708740 0.000000 64.000000 0.657051 0.689339 -0.305117
4.03000021 -18.94000053 -0.08000000 213 27 135 0.000000 0.000000 0.000000 0.000000 -60.708740 0.000000 64.000000 0.853478 0.362223 -0.374660
4.01000023 -18.96999931 -0.17000000 213 27 135 0.000000 0.000000 0.000000 0.000000 -60.708740 0.000000 64.000000 0.916459 0.390823 -0.085790
3.99000001 -18.98999977 -0.17000000 213 27 135 0.000000 0.000000 0.000000 0.000000 -60.708740 0.000000 64.000000 -0.160012 0.986550 0.033384
4.07000017 -18.89999962 -0.19000000 213 27 135 0.000000 0.000000 0.000000 0.000000 -60.708740 0.000000 64.000000 0.737718 0.630757 -0.240663
4.05999994 -18.94000053 -0.20999999 213 27 135 0.000000 0.000000 0.000000 0.000000 -60.708740 0.000000 64.000000 0.948239 0.310026 0.068751
4.05999994 -18.94000053 -0.19000000 213 27 135 0.000000 0.000000 0.000000 0.000000 -60.708740 0.000000 64.000000 0.748029 0.494850 -0.442241
4.05000019 -18.94000053 -0.23000000 213 27 135 0.000000 0.000000 0.000000 0.000000 -60.708740 0.000000 64.000000 0.577233 0.813827 0.066988
4.05000019 -18.95000076 -0.25000000 213 27 135 0.000000 0.000000 0.000000 0.000000 -60.708740 0.000000 64.000000 0.693381 0.699504 0.172963
4.05999994 -18.95000076 -0.25999999 213 27 135 0.000000 0.000000 0.000000 0.000000 -60.708740 0.000000 64.000000 0.862940 0.497359 -0.089270
4.07000017 -18.94000053 -0.25999999 213 27 135 0.000000 0.000000 0.000000 0.000000 -60.708740 0.000000 64.000000 0.933907 0.337508 0.117924
4.05999994 -18.97999954 -0.25000000 213 27 135 0.000000 0.000000 0.000000 0.000000 -60.708740 0.000000 64.000000 0.982534 0.050964 0.178966
4.07000017 -18.98999977 -0.23999999 213 27 135 0.000000 0.000000 0.000000 0.000000 -60.708740 0.000000 64.000000 0.917197 -0.378812 0.123496
4.07000017 -18.97999954 -0.25000000 213 27 135 0.000000 0.000000 0.000000 0.000000 -60.708740 0.000000 64.000000 0.996540 -0.061944 -0.055424
4.05000019 -18.95999908 -0.31000000 213 27 135 0.000000 0.000000 0.000000 0.000000 -60.708740 0.000000 64.000000 0.732382 0.624352 -0.271664
4.07000017 -18.94000053 -0.28000000 213 27 135 0.000000 0.000000 0.000000 0.000000 -60.708740 0.000000 64.000000 0.922384 0.376787 -0.085081
4.07000017 -18.97999954 -0.31000000 213 27 135 0.000000 0.000000 0.000000 0.000000 -60.708740 0.000000 64.000000 0.982599 0.160745 0.093063
4.05999994 -18.96999931 -0.30000001 213 27 135 0.000000 0.000000 0.000000 0.000000 -60.708740 0.000000 64.000000 0.972213 0.233853 0.010684
4.05000019 -19.00000000 -0.31000000 213 27 135 0.000000 0.000000 0.000000 0.000000 -60.708740 0.000000 64.000000 0.917790 0.105635 0.382756
4.05999994 -18.96999931 -0.31000000 213 27 135 0.000000 0.000000 0.000000 0.000000 -60.708740 0.000000 64.000000 0.972098 0.207498 -0.109408
4.05999994 -18.98999977 -0.28000000 213 27 135 0.000000 0.000000 0.000000 0.000000 -60.708740 0.000000 64.000000 0.952849 -0.289885 -0.089695
4.00000000 -18.92000008 -0.27000001 213 27 135 0.000000 0.000000 0.000000 0.000000 -60.708740 0.000000 64.000000 -0.031965 0.999156 0.025778
3.98000002 -18.92000008 -0.31999999 213 27 135 0.000000 0.000000 0.000000 0.000000 -60.708740 0.000000 64.000000 0.005797 0.979662 0.200570
4.01999998 -18.92000008 -0.34999999 213 27 135 0.000000 0.000000 0.000000 0.000000 -60.708740 0.000000 64.000000 0.203418 0.891232 -0.405372
3.99000001 -18.92000008 -0.28999999 213 27 135 0.000000 0.000000 0.000000 0.000000 -60.708740 0.000000 64.000000 -0.351522 0.929702 -0.109936
4.01000023 -18.92000008 -0.28000000 213 27 135 0.000000 0.000000 0.000000 0.000000 -60.708740 0.000000 64.000000 0.117679 0.989199 0.087385
3.99000001 -18.96999931 -0.22000000 213 27 135 0.000000 0.000000 0.000000 0.000000 -60.708740 0.000000 64.000000 0.207887 0.902781 -0.376522
3.97000003 -18.97999954 -0.27000001 213 27 135 0.000000 0.000000 0.000000 0.000000 -60.708740 0.000000 64.000000 0.847294 -0.483518 0.219781
3.98000002 -18.97999954 -0.27000001 213 27 135 0.000000 0.000000 0.000000 0.000000 -60.708740 0.000000 64.000000 -0.516967 0.746730 -0.418497
3.97000003 -18.96999931 -0.25000000 213 27 135 0.000000 0.000000 0.000000 0.000000 -60.708740 0.000000 64.000000 -0.647903 0.756130 0.092140
3.98000002 -19.00000000 -0.25000000 213 27 135 0.000000 0.000000 0.000000 0.000000 -60.708740 0.000000 64.000000 0.745764 0.661775 -0.076749
3.98000002 -18.97999954 -0.27000001 213 27 135 0.000000 0.000000 0.000000 0.000000 -60.708740 0.000000 64.000000 -0.516967 0.746730 -0.418497
3.97000003 -18.97999954 -0.27000001 213 27 135 0.000000 0.000000 0.000000 0.000000 -60.708740 0.000000 64.000000 0.847294 -0.483518 0.219781
4.03000021 -18.93000031 -0.34000000 213 27 135 0.000000 0.000000 0.000000 0.000000 -60.708740 0.000000 64.000000 0.053799 0.995838 -0.073562
4.00000000 -18.97999954 -0.34999999 213 27 135 0.000000 0.000000 0.000000 0.000000 -60.708740 0.000000 64.000000 0.215514 0.945791 -0.242968
3.96000004 -18.94000053 -0.30000001 213 27 135 0.000000 0.000000 0.000000 0.000000 -60.708740 0.000000 64.000000 -0.549082 0.747860 -0.373115
3.97000003 -19.00000000 -0.31000000 213 27 135 0.000000 0.000000 0.000000 0.000000 -60.708740 0.000000 64.000000 0.890972 -0.430470 -0.144443
3.97000003 -19.00000000 -0.31000000 213 27 135 0.000000 0.000000 0.000000 0.000000 -60.708740 0.000000 64.000000 0.890972 -0.430470 -0.144443
3.98000002 -19.00000000 -0.30000001 213 27 135 0.000000 0.000000 0.000000 0.000000 -60.708740 0.000000 64.000000 0.873043 -0.457726 -0.168174
3.98000002 -19.00000000 -0.30000001 213 27 135 0.000000 0.000000 0.000000 0.000000 -60.708740 0.000000 64.000000 0.873043 -0.457726 -0.168174
4.07000017 -19.01000023 -0.16000000 213 27 135 0.000000 0.000000 0.000000 0.000000 -60.708740 0.000000 64.000000 -0.843811 0.416446 0.338460
3.98000002 -19.01000023 -0.25000000 213 27 135 0.000000 0.000000 0.000000 0.000000 -60.708740 0.000000 64.000000 0.575840 0.799525 -0.170787
3.99000001 -19.02000046 -0.31000000 213 27 135 0.000000 0.000000 0.000000 0.000000 -60.708740 0.000000 64.000000 -0.056209 0.989969 0.129625
3.99000001 -19.03000069 -0.34999999 213 27 135 0.000000 0.000000 0.000000 0.000000 -60.708740 0.000000 64.000000 0.113058 0.868688 -0.482286
3.99000001 -19.03000069 -0.34999999 213 27 135 0.000000 0.000000 0.000000 0.000000 -60.708740 0.000000 64.000000 0.113058 0.868688 -0.482286
4.03000021 -19.04000092 -0.34999999 213 27 135 0.000000 0.000000 0.000000 0.000000 -60.708740 0.000000 64.000000 -0.685235 0.688385 0.237863
3.98000002 -19.02000046 -0.28000000 213 27 135 0.000000 0.000000 0.000000 0.000000 -60.708740 0.000000 64.000000 0.423663 0.899060 -0.110460
3.97000003 -19.04000092 -0.33000001 213 27 135 0.000000 0.000000 0.000000 0.000000 -60.708740 0.000000 64.000000 0.524360 0.784134 -0.331934
4.03999996 -19.00000000 -0.41999999 213 27 135 0.000000 0.000000 0.000000 0.000000 -60.708740 0.000000 64.000000 0.798969 0.590031 -0.116240
4.03000021 -18.95999908 -0.37000000 213 27 135 0.000000 0.000000 0.000000 0.000000 -60.708740 0.000000 64.000000 0.620291 0.783452 0.037977
3.99000001 -18.95999908 -0.38000000 213 27 135 0.000000 0.000000 0.000000 0.000000 -60.708740 0.000000 64.000000 -0.427682 0.871870 -0.238601
4.03000021 -18.93000031 -0.37000000 213 27 135 0.000000 0.000000 0.000000 0.000000 -60.708740 0.000000 64.000000 0.248887 0.967068 -0.053244
4.00000000 -18.95000076 -0.41999999 213 27 135 0.000000 0.000000 0.000000 0.000000 -60.708740 0.000000 64.000000 0.110895 0.894181 -0.433755
4.01000023 -18.98999977 -0.36000001 213 27 135 0.000000 0.000000 0.000000 0.000000 -60.708740 0.000000 64.000000 0.366409 0.835035 -0.410441
4.03000021 -18.98999977 -0.41999999 213 27 135 0.000000 0.000000 0.000000 0.000000 -60.708740 0.000000 64.000000 0.910872 0.399457 -0.103665
4.01000023 -18.96999931 -0.41999999 213 27 135 0.000000 0.000000 0.000000 0.000000 -60.708740 0.000000 64.000000 0.612029 0.790824 0.004126
3.99000001 -18.98999977 -0.43000001 213 27 135 0.000000 0.000000 0.000000 0.000000 -60.708740 0.000000 64.000000 0.335126 0.940178 -0.061288
4.01999998 -18.96999931 -0.41000000 213 27 135 0.000000 0.000000 0.000000 0.000000 -60.708740 0.000000 64.000000 0.408310 0.910218 -0.069182
3.98000002 -18.95999908 -0.38000000 213 27 135 0.000000 0.000000 0.000000 0.000000 -60.708740 0.000000 64.000000 -0.064970 0.974555 -0.214525
3.98000002 -18.95999908 -0.38000000 213 27 135 0.000000 0.000000 0.000000 0.000000 -60.708740 0.000000 64.000000 -0.064970 0.974555 -0.214525
3.98000002 -18.95999908 -0.38999999 213 27 135 0.000000 0.000000 0.000000 0.000000 -60.708740 0.000000 64.000000 -0.293517 0.936194 0.193360
3.98000002 -18.95999908 -0.38999999 213 27 135 0.000000 0.000000 0.000000 0.000000 -60.708740 0.000000 64.000000 -0.293517 0.936194 0.193360
3.96000004 -18.95999908 -0.41000000 213 27 135 0.000000 0.000000 0.000000 0.000000 -60.708740 0.000000 64.000000 0.733872 -0.672103 0.098536
3.97000003 -18.95999908 -0.43000001 213 27 135 0.000000 0.000000 0.000000 0.000000 -60.708740 0.000000 64.000000 -0.385561 0.895734 -0.221368
3.97000003 -18.98999977 -0.43000001 213 27 135 0.000000 0.000000 0.000000 0.000000 -60.708740 0.000000 64.000000 0.772288 -0.595143 0.222208
3.96000004 -19.00000000 -0.43000001 213 27 135 0.000000 0.000000 0.000000 0.000000 -60.708740 0.000000 64.000000 0.696056 -0.710772 -0.101539
3.95000005 -18.97999954 -0.43000001 213 27 135 0.000000 0.000000 0.000000 0.000000 -60.708740 0.000000 64.000000 0.773996 -0.543239 0.325303
3.95000005 -18.97999954 -0.40000001 213 27 135 0.000000 0.000000 0.000000 0.000000 -60.708740 0.000000 64.000000 0.863494 -0.475142 -0.169168
3.99000001 -18.95000076 -0.46000001 213 27 135 0.000000 0.000000 0.000000 0.000000 -60.708740 0.000000 64.000000 0.294538 0.941153 -0.165764
3.99000001 -18.95000076 -0.46000001 213 27 135 0.000000 0.000000 0.000000 0.000000 -60.708740 0.000000 64.000000 0.294538 0.941153 -0.165764
3.99000001 -18.95999908 -0.50000000 213 27 135 0.000000 0.000000 0.000000 0.000000 -60.708740 0.000000 64.000000 0.014630 0.889764 -0.456187
4.01999998 -18.95999908 -0.49000001 213 27 135 0.000000 0.000000 0.000000 0.000000 -60.708740 0.000000 64.000000 -0.075390 0.993577 -0.084392
4.01000023 -18.96999931 -0.46000001 213 27 135 0.000000 0.000000 0.000000 0.000000 -60.708740 0.000000 64.000000 0.409167 0.856936 -0.313438
4.01000023 -18.96999931 -0.47000000 213 27 135 0.000000 0.000000 0.000000 0.000000 -60.708740 0.000000 64.000000 0.313190 0.949552 0.016221
4.03000021 -18.98999977 -0.44000000 213 27 135 0.000000 0.000000 0.000000 0.000000 -60.708740 0.000000 64.000000 0.908625 0.391429 -0.145550
4.03000021 -19.00000000 -0.44000000 213 27 135 0.000000 0.000000 0.000000 0.000000 -60.708740 0.000000 64.000000 0.849100 0.452956 -0.271773
3.99000001 -18.97999954 -0.51999998 213 27 135 0.000000 0.000000 0.000000 0.000000 -60.708740 0.000000 64.000000 -0.064970 0.974555 -0.214525
3.99000001 -18.97999954 -0.50999999 213 27 135 0.000000 0.000000 0.000000 0.000000 -60.708740 0.000000 64.000000 -0.178081 0.965796 0.188480
3.99000001 -18.97999954 -0.50999999 213 27 135 0.000000 0.000000 0.000000 0.000000 -60.708740 0.000000 64.000000 -0.178081 0.965796 0.188480
3.97000003 -18.95000076 -0.46000001 213 27 135 0.000000 0.000000 0.000000 0.000000 -60.708740 0.000000 64.000000 0.094356 0.992443 -0.078441
3.97000003 -18.95000076 -0.47999999 213 27 135 0.000000 0.000000 0.000000 0.000000 -60.708740 0.000000 64.000000 -0.584467 0.745477 -0.320410
3.96000004 -18.95000076 -0.44999999 213 27 135 0.000000 0.000000 0.000000 0.000000 -60.708740 0.000000 64.000000 -0.452628 0.874496 0.174313
3.96000004 -18.98999977 -0.44000000 213 27 135 0.000000 0.000000 0.000000 0.000000 -60.708740 0.000000 64.000000 0.725760 -0.685679 -0.055828
3.96000004 -19.00000000 -0.47000000 213 27 135 0.000000 0.000000 0.000000 0.000000 -60.708740 0.000000 64.000000 -0.655436 0.668512 -0.351418
3.97000003 -18.97999954 -0.50000000 213 27 135 0.000000 0.000000 0.000000 0.000000 -60.708740 0.000000 64.000000 -0.610527 0.789843 -0.058349
3.98000002 -18.97999954 -0.50000000 213 27 135 0.000000 0.000000 0.000000 0.000000 -60.708740 0.000000 64.000000 -0.278164 0.957551 0.075630
3.95000005 -18.98999977 -0.49000001 213 27 135 0.000000 0.000000 0.000000 0.000000 -60.708740 0.000000 64.000000 -0.670084 0.734884 0.104563
3.99000001 -18.97999954 -0.52999997 213 27 135 0.000000 0.000000 0.000000 0.000000 -60.708740 0.000000 64.000000 -0.141910 0.970361 0.195606
3.98000002 -18.97999954 -0.52999997 213 27 135 0.000000 0.000000 0.000000 0.000000 -60.708740 0.000000 64.000000 -0.121504 0.968196 0.218707
3.96000004 -18.97999954 -0.55000001 213 27 135 0.000000 0.000000 0.000000 0.000000 -60.708740 0.000000 64.000000 -0.712534 0.625285 -0.318298
3.97000003 -18.97999954 -0.55000001 213 27 135 0.000000 0.000000 0.000000 0.000000 -60.708740 0.000000 64.000000 -0.558713 0.811715 -0.170174
3.95000005 -19.00000000 -0.58999997 213 27 135 0.000000 0.000000 0.000000 0.000000 -60.708740 0.000000 64.000000 -0.326797 0.923804 -0.199474
3.97000003 -18.98999977 -0.62000000 213 27 135 0.000000 0.000000 0.000000 0.000000 -60.708740 0.000000 64.000000 -0.001189 0.968656 -0.248404
4.03999996 -19.03000069 -0.40000001 213 27 135 0.000000 0.000000 0.000000 0.000000 -60.708740 0.000000 64.000000 0.956375 -0.236093 0.172067
4.03999996 -19.03000069 -0.40000001 213 27 135 0.000000 0.000000 0.000000 0.000000 -60.708740 0.000000 64.000000 0.956375 -0.236093 0.172067
4.03999996 -19.04000092 -0.43000001 213 27 135 0.000000 0.000000 0.000000 0.000000 -60.708740 0.000000 64.000000 0.883280 -0.393067 0.255568
4.05000019 -19.01000023 -0.38999999 213 27 135 0.000000 0.000000 0.000000 0.000000 -60.708740 0.000000 64.000000 0.943586 -0.037129 -0.329039
4.00000000 -19.03000069 -0.37000000 213 27 135 0.000000 0.000000 0.000000 0.000000 -60.708740 0.000000 64.000000 -0.630542 0.768703 -0.107295
4.01999998 -19.04999924 -0.38999999 213 27 135 0.000000 0.000000 0.000000 0.000000 -60.708740 0.000000 64.000000 0.584802 -0.782308 0.214479
4.01000023 -19.04999924 -0.38999999 213 27 135 0.000000 0.000000 0.000000 0.000000 -60.708740 0.000000 64.000000 -0.529997 0.820197 -0.215359
4.00000000 -19.04999924 -0.38000000 213 27 135 0.000000 0.000000 0.000000 0.000000 -60.708740 0.000000 64.000000 0.088980 0.995936 0.013937
4.01000023 -19.05999947 -0.41000000 213 27 135 0.000000 0.000000 0.000000 0.000000 -60.708740 0.000000 64.000000 -0.406693 0.885851 -0.223311
4.01999998 -19.04999924 -0.41000000 213 27 135 0.000000 0.000000 0.000000 0.000000 -60.708740 0.000000 64.000000 -0.475482 0.845472 -0.243092
3.96000004 -19.03000069 -0.38999999 213 27 135 0.000000 0.000000 0.000000 0.000000 -60.708740 0.000000 64.000000 0.836064 0.523099 0.165424
3.97000003 -19.03000069 -0.38000000 213 27 135 0.000000 0.000000 0.000000 0.000000 -60.708740 0.000000 64.000000 0.979584 0.194960 0.049039
3.97000003 -19.03000069 -0.43000001 213 27 135 0.000000 0.000000 0.000000 0.000000 -60.708740 0.000000 64.000000 0.977360 0.082162 -0.194981
3.96000004 -19.03000069 -0.40000001 213 27 135 0.000000 0.000000 0.000000 0.000000 -60.708740 0.000000 64.000000 0.928735 0.365946 -0.059450
3.97000003 -19.03000069 -0.41999999 213 27 135 0.000000 0.000000 0.000000 0.000000 -60.708740 0.000000 64.000000 0.957480 0.272643 0.094327
3.97000003 -19.04999924 -0.38000000 213 27 135 0.000000 0.000000 0.000000 0.000000 -60.708740 0.000000 64.000000 0.182946 0.980155 -0.076329
4.03000021 -19.04000092 -0.49000001 213 27 135 0.000000 0.000000 0.000000 0.000000 -60.708740 0.000000 64.000000 0.991668 -0.114992 -0.058066
4.01999998 -19.04000092 -0.50999999 213 27 135 0.000000 0.000000 0.000000 0.000000 -60.708740 0.000000 64.000000 0.999268 0.035871 -0.013324
4.00000000 -19.06999969 -0.46000001 213 27 135 0.000000 0.000000 0.000000 0.000000 -60.708740 0.000000 64.000000 -0.317697 0.877087 -0.360259
4.01000023 -19.06999969 -0.47000000 213 27 135 0.000000 0.000000 0.000000 0.000000 -60.708740 0.000000 64.000000 -0.494727 0.736300 -0.461635
4.03000021 -19.05999947 -0.47000000 213 27 135 0.000000 0.000000 0.000000 0.000000 -60.708740 0.000000 64.000000 0.766894 -0.630426 0.120152
4.01000023 -19.05999947 -0.46000001 213 27 135 0.000000 0.000000 0.000000 0.000000 -60.708740 0.000000 64.000000 -0.524257 0.801342 -0.288105
4.00000000 -19.06999969 -0.47000000 213 27 135 0.000000 0.000000 0.000000 0.000000 -60.708740 0.000000 64.000000 -0.503015 0.808924 -0.304332
4.00000000 -19.07999992 -0.51999998 213 27 135 0.000000 0.000000 0.000000 0.000000 -60.708740 0.000000 64.000000 -0.256313 0.845678 -0.468116
