//X Y Z R G B PointSourceId ScanDirectionFlag NumberOfReturns ReturnNumber GpsTime Intensity Classification Nx Ny Nz
1.46000004 1.41999996 -0.38000000 19 28 232 97.000000 1.000000 4.000000 1.000000 -60.708740 114.000000 133.000000 0.118663 0.906026 0.406246
1.49000001 1.46000004 -0.46000001 19 28 232 97.000000 1.000000 4.000000 1.000000 -60.708740 114.000000 133.000000 -0.183242 0.961033 0.206972
1.50000000 1.46000004 -0.51999998 19 28 232 97.000000 1.000000 4.000000 1.000000 -60.708740 114.000000 133.000000 0.003419 0.983442 0.181190
1.47000003 1.45000005 -0.44000000 19 28 232 97.000000 1.000000 4.000000 1.000000 -60.708740 114.000000 133.000000 -0.591716 0.788451 0.167981
1.47000003 1.46000004 -0.49000001 19 28 232 97.000000 1.000000 4.000000 1.000000 -60.708740 114.000000 133.000000 -0.701680 0.701680 0.123651
1.50999999 1.37000000 -0.43000001 19 28 232 97.000000 1.000000 4.000000 1.000000 -60.708740 114.000000 133.000000 0.157459 0.926638 0.341393
1.48000002 1.36000001 -0.44999999 19 28 232 97.000000 1.000000 4.000000 1.000000 -60.708740 114.000000 133.000000 -0.379777 0.900696 0.210987
1.47000003 1.36000001 -0.44999999 19 28 232 97.000000 1.000000 4.000000 1.000000 -60.708740 114.000000 133.000000 -0.320227 0.926825 0.196086
1.50999999 1.38000000 -0.44999999 19 28 232 97.000000 1.000000 4.000000 1.000000 -60.708740 114.000000 133.000000 -0.257096 0.749205 0.610405
1.53999996 1.47000003 -0.68000001 19 28 232 97.000000 1.000000 4.000000 1.000000 -60.708740 114.000000 133.000000 0.626144 -0.514754 0.585638
1.57000005 1.37000000 -0.60000002 19 28 232 97.000000 1.000000 4.000000 1.000000 -60.708740 114.000000 133.000000 -0.390673 0.776482 -0.494420
1.57000005 1.37000000 -0.60000002 19 28 232 97.000000 1.000000 4.000000 1.000000 -60.708740 114.000000 133.000000 -0.390673 0.776482 -0.494420
1.58000004 1.34000003 -0.56999999 19 28 232 97.000000 1.000000 4.000000 1.000000 -60.708740 114.000000 133.000000 -0.734659 0.665831 -0.130174
1.52999997 1.32000005 -0.54000002 19 28 232 97.000000 1.000000 4.000000 1.000000 -60.708740 114.000000 133.000000 -0.554098 0.830442 0.057807
1.57000005 1.35000002 -0.68000001 19 28 232 97.000000 1.000000 4.000000 1.000000 -60.708740 114.000000 133.000000 -0.424461 0.837958 -0.343015
1.59000003 1.33000004 -0.69000000 19 28 232 97.000000 1.000000 4.000000 1.000000 -60.708740 114.000000 133.000000 -0.585341 0.775772 -0.235697
1.50999999 1.47000003 -0.60000002 19 28 232 97.000000 1.000000 4.000000 1.000000 -60.708740 114.000000 133.000000 -0.576668 0.814703 0.060926
1.50000000 1.41999996 -0.52999997 19 28 232 97.000000 1.000000 4.000000 1.000000 -60.708740 114.000000 133.000000 -0.129610 0.991461 0.014401
1.49000001 1.41999996 -0.56999999 19 28 232 97.000000 1.000000 4.000000 1.000000 -60.708740 114.000000 133.000000 -0.481997 0.867595 0.122298
1.45000005 1.42999995 -0.56000000 19 28 232 97.000000 1.000000 4.000000 1.000000 -60.708740 114.000000 133.000000 -0.305492 0.951676 0.031429
1.42999995 1.38999999 -0.54000002 19 28 232 97.000000 1.000000 4.000000 1.000000 -60.708740 114.000000 133.000000 -0.621083 0.770741 -0.142176
1.46000004 1.41999996 -0.54000002 19 28 232 97.000000 1.000000 4.000000 1.000000 -60.708740 114.000000 133.000000 -0.512953 0.828381 0.225087
1.50999999 1.47000003 -0.62000000 19 28 232 97.000000 1.000000 4.000000 1.000000 -60.708740 114.000000 133.000000 0.712614 -0.701544 0.004151
1.50000000 1.44000006 -0.63999999 19 28 232 97.000000 1.000000 4.000000 1.000000 -60.708740 114.000000 133.000000 0.684318 -0.705847 0.182997
1.50999999 1.46000004 -0.69000000 19 28 232 97.000000 1.000000 4.000000 1.000000 -60.708740 114.000000 133.000000 -0.400595 0.911935 -0.088869
1.49000001 1.44000006 -0.69000000 19 28 232 97.000000 1.000000 4.000000 1.000000 -60.708740 114.000000 133.000000 -0.624522 0.699530 -0.347319
1.36000001 1.57000005 -0.38999999 19 28 232 97.000000 1.000000 4.000000 1.000000 -60.708740 114.000000 133.000000 -0.248787 0.777654 0.577373
1.38000000 1.52999997 -0.36000001 19 28 232 97.000000 1.000000 4.000000 1.000000 -60.708740 114.000000 133.000000 -0.638837 0.760379 0.117095
1.37000000 1.52999997 -0.37000000 19 28 232 97.000000 1.000000 4.000000 1.000000 -60.708740 114.000000 133.000000 -0.085902 0.960305 0.265398
1.38000000 1.52999997 -0.36000001 19 28 232 97.000000 1.000000 4.000000 1.000000 -60.708740 114.000000 133.000000 -0.638837 0.760379 0.117095
1.34000003 1.50999999 -0.40000001 19 28 232 97.000000 1.000000 4.000000 1.000000 -60.708740 114.000000 133.000000 -0.190656 0.981350 0.024563
1.40999997 1.38999999 -0.43000001 19 28 232 97.000000 1.000000 4.000000 1.000000 -60.708740 114.000000 133.000000 -0.387058 0.912450 -0.132745
1.37000000 1.40999997 -0.37000000 19 28 232 97.000000 1.000000 4.000000 1.000000 -60.708740 114.000000 133.000000 -0.093754 0.986197 0.136477
1.37000000 1.40999997 -0.38000000 19 28 232 97.000000 1.000000 4.000000 1.000000 -60.708740 114.000000 133.000000 -0.185871 0.982460 0.015008
1.37000000 1.38999999 -0.49000001 19 28 232 97.000000 1.000000 4.000000 1.000000 -60.708740 114.000000 133.000000 -0.623465 0.720126 0.304483
1.37000000 1.39999998 -0.47999999 19 28 232 97.000000 1.000000 4.000000 1.000000 -60.708740 114.000000 133.000000 -0.508900 0.780313 0.363500
1.37000000 1.39999998 -0.50999999 19 28 232 97.000000 1.000000 4.000000 1.000000 -60.708740 114.000000 133.000000 -0.660894 0.749013 -0.046902
1.39999998 1.38999999 -0.46000001 19 28 232 97.000000 1.000000 4.000000 1.000000 -60.708740 114.000000 133.000000 -0.186258 0.955408 0.229137
1.38999999 1.37000000 -0.41999999 19 28 232 97.000000 1.000000 4.000000 1.000000 -60.708740 114.000000 133.000000 -0.362151 0.925192 0.113428
1.41999996 1.36000001 -0.43000001 19 28 232 97.000000 1.000000 4.000000 1.000000 -60.708740 114.000000 133.000000 -0.059779 0.996671 -0.055431
1.37000000 1.38000000 -0.37000000 19 28 232 97.000000 1.000000 4.000000 1.000000 -60.708740 114.000000 133.000000 -0.122095 0.804653 0.581056
1.38000000 1.37000000 -0.41999999 19 28 232 97.000000 1.000000 4.000000 1.000000 -60.708740 114.000000 133.000000 -0.343782 0.929991 0.130117
1.40999997 1.36000001 -0.47999999 19 28 232 97.000000 1.000000 4.000000 1.000000 -60.708740 114.000000 133.000000 -0.367088 0.897817 0.243251
1.39999998 1.38000000 -0.44000000 19 28 232 97.000000 1.000000 4.000000 1.000000 -60.708740 114.000000 133.000000 -0.275443 0.891840 0.358820
1.39999998 1.36000001 -0.44999999 19 28 232 97.000000 1.000000 4.000000 1.000000 -60.708740 114.000000 133.000000 -0.465583 0.885003 -0.001319
1.41999996 1.37000000 -0.50000000 19 28 232 97.000000 1.000000 4.000000 1.000000 -60.708740 114.000000 133.000000 -0.548122 0.744464 0.381231
1.40999997 1.37000000 -0.50999999 19 28 232 97.000000 1.000000 4.000000 1.000000 -60.708740 114.000000 133.000000 -0.316874 0.948097 -0.026511
1.38000000 1.35000002 -0.47000000 19 28 232 97.000000 1.000000 4.000000 1.000000 -60.708740 114.000000 133.000000 -0.302211 0.936992 -0.175255
1.30999994 1.36000001 -0.38000000 19 28 232 97.000000 1.000000 4.000000 1.000000 -60.708740 114.000000 133.000000 -0.522323 0.832406 0.185146
1.34000003 1.34000003 -0.38000000 19 28 232 97.000000 1.000000 4.000000 1.000000 -60.708740 114.000000 133.000000 -0.469022 0.882306 -0.039425
1.33000004 1.34000003 -0.36000001 19 28 232 97.000000 1.000000 4.000000 1.000000 -60.708740 114.000000 133.000000 -0.194006 0.891263 0.409893
1.30999994 1.34000003 -0.41000000 19 28 232 97.000000 1.000000 4.000000 1.000000 -60.708740 114.000000 133.000000 -0.535259 0.824751 0.182440
1.27999997 1.30999994 -0.38999999 19 28 232 97.000000 1.000000 4.000000 1.000000 -60.708740 114.000000 133.000000 -0.408302 0.900542 -0.149379
1.29999995 1.33000004 -0.41000000 19 28 232 97.000000 1.000000 4.000000 1.000000 -60.708740 114.000000 133.000000 -0.400567 0.900198 0.170851
1.34000003 1.33000004 -0.46000001 19 28 232 97.000000 1.000000 4.000000 1.000000 -60.708740 114.000000 133.000000 -0.287900 0.942840 0.167828
1.30999994 1.30999994 -0.44000000 19 28 232 97.000000 1.000000 4.000000 1.000000 -60.708740 114.000000 133.000000 -0.372816 0.874977 -0.308905
1.34000003 1.38000000 -0.49000001 19 28 232 97.000000 1.000000 4.000000 1.000000 -60.708740 114.000000 133.000000 -0.516514 0.855347 0.039944
1.32000005 1.30999994 -0.50999999 19 28 232 97.000000 1.000000 4.000000 1.000000 -60.708740 114.000000 133.000000 -0.644357 0.749990 0.149394
1.33000004 1.33000004 -0.47999999 19 28 232 97.000000 1.000000 4.000000 1.000000 -60.708740 114.000000 133.000000 -0.478766 0.828093 -0.291626
1.34000003 1.33000004 -0.47999999 19 28 232 97.000000 1.000000 4.000000 1.000000 -60.708740 114.000000 133.000000 -0.187550 0.923651 -0.334206
1.34000003 1.34000003 -0.46000001 19 28 232 97.000000 1.000000 4.000000 1.000000 -60.708740 114.000000 133.000000 -0.542893 0.810494 -0.219925
1.41999996 1.42999995 -0.66000003 19 28 232 97.000000 1.000000 4.000000 1.000000 -60.708740 114.000000 133.000000 0.572600 -0.599625 0.559087
1.40999997 1.41999996 -0.64999998 19 28 232 97.000000 1.000000 4.000000 1.000000 -60.708740 114.000000 133.000000 -0.486755 0.844619 -0.222907
1.37000000 1.35000002 -0.52999997 19 28 232 97.000000 1.000000 4.000000 1.000000 -60.708740 114.000000 133.000000 -0.587100 0.809171 0.023595
1.38000000 1.37000000 -0.57999998 19 28 232 97.000000 1.000000 4.000000 1.000000 -60.708740 114.000000 133.000000 -0.209237 0.920929 -0.328801
1.38000000 1.35000002 -0.56999999 19 28 232 97.000000 1.000000 4.000000 1.000000 -60.708740 114.000000 133.000000 -0.294208 0.882624 -0.366628
1.38000000 1.35000002 -0.56999999 19 28 232 97.000000 1.000000 4.000000 1.000000 -60.708740 114.000000 133.000000 -0.294208 0.882624 -0.366628
1.38000000 1.37000000 -0.57999998 19 28 232 97.000000 1.000000 4.000000 1.000000 -60.708740 114.000000 133.000000 -0.209237 0.920929 -0.328801
1.36000001 1.34000003 -0.54000002 19 28 232 97.000000 1.000000 4.000000 1.000000 -60.708740 114.000000 133.000000 -0.728933 0.623660 -0.282322
1.37000000 1.34000003 -0.56000000 19 28 232 97.000000 1.000000 4.000000 1.000000 -60.708740 114.000000 133.000000 -0.613682 0.787392 -0.058378
1.39999998 1.38000000 -0.63000000 19 28 232 97.000000 1.000000 4.000000 1.000000 -60.708740 114.000000 133.000000 -0.395006 0.659445 -0.639612
1.37000000 1.37000000 -0.63999999 19 28 232 97.000000 1.000000 4.000000 1.000000 -60.708740 114.000000 133.000000 -0.376925 0.913373 -0.153876
1.37000000 1.35000002 -0.61000001 19 28 232 97.000000 1.000000 4.000000 1.000000 -60.708740 114.000000 133.000000 -0.637086 0.663563 -0.392180
1.37000000 1.34000003 -0.66000003 19 28 232 97.000000 1.000000 4.000000 1.000000 -60.708740 114.000000 133.000000 -0.397034 0.723227 -0.565073
1.32000005 1.33000004 -0.58999997 19 28 232 97.000000 1.000000 4.000000 1.000000 -60.708740 114.000000 133.000000 -0.408613 0.770016 -0.490010
1.33000004 1.35000002 -0.56999999 19 28 232 97.000000 1.000000 4.000000 1.000000 -60.708740 114.000000 133.000000 -0.377341 0.925966 -0.014166
1.27999997 1.30999994 -0.56999999 19 28 232 97.000000 1.000000 4.000000 1.000000 -60.708740 114.000000 133.000000 -0.485748 0.811690 -0.324359
1.27999997 1.32000005 -0.56999999 19 28 232 97.000000 1.000000 4.000000 1.000000 -60.708740 114.000000 133.000000 -0.376791 0.898727 -0.224315
1.29999995 1.30999994 -0.60000002 19 28 232 97.000000 1.000000 4.000000 1.000000 -60.708740 114.000000 133.000000 -0.227598 0.797367 -0.558931
1.30999994 1.32000005 -0.60000002 19 28 232 97.000000 1.000000 4.000000 1.000000 -60.708740 114.000000 133.000000 -0.623961 0.735099 -0.265144
1.32000005 1.33000004 -0.55000001 19 28 232 97.000000 1.000000 4.000000 1.000000 -60.708740 114.000000 133.000000 -0.466172 0.876746 0.118325
1.33000004 1.32000005 -0.60000002 19 28 232 97.000000 1.000000 4.000000 1.000000 -60.708740 114.000000 133.000000 -0.412821 0.674771 -0.611770
1.33000004 1.32000005 -0.61000001 19 28 232 97.000000 1.000000 4.000000 1.000000 -60.708740 114.000000 133.000000 -0.580775 0.807845 -0.100435
1.57000005 0.97000003 -0.20000000 19 28 232 97.000000 1.000000 4.000000 1.000000 -60.708740 114.000000 133.000000 0.327405 -0.053058 0.943393
1.35000002 1.23000002 -0.03000000 19 28 232 97.000000 1.000000 4.000000 1.000000 -60.708740 114.000000 133.000000 0.341247 0.677595 0.651471
1.38000000 1.26999998 -0.09000000 19 28 232 97.000000 1.000000 4.000000 1.000000 -60.708740 114.000000 133.000000 0.415178 0.473791 0.776627
1.35000002 1.23000002 -0.12000000 19 28 232 97.000000 1.000000 4.000000 1.000000 -60.708740 114.000000 133.000000 0.083733 0.223705 0.971054
1.36000001 1.25000000 -0.16000000 19 28 232 97.000000 1.000000 4.000000 1.000000 -60.708740 114.000000 133.000000 0.181987 0.825711 0.533930
1.35000002 1.20000005 -0.03000000 19 28 232 97.000000 1.000000 4.000000 1.000000 -60.708740 114.000000 133.000000 -0.132066 0.328124 0.935357
1.35000002 1.20000005 -0.05000000 19 28 232 97.000000 1.000000 4.000000 1.000000 -60.708740 114.000000 133.000000 0.360184 0.481846 0.798807
1.38000000 1.20000005 -0.05000000 19 28 232 97.000000 1.000000 4.000000 1.000000 -60.708740 114.000000 133.000000 0.176762 0.389450 0.903927
1.37000000 1.22000003 -0.09000000 19 28 232 97.000000 1.000000 4.000000 1.000000 -60.708740 114.000000 133.000000 -0.113438 0.262081 0.958356
1.35000002 1.20000005 -0.09000000 19 28 232 97.000000 1.000000 4.000000 1.000000 -60.708740 114.000000 133.000000 -0.159933 0.557522 0.814611
1.35000002 1.22000003 -0.08000000 19 28 232 97.000000 1.000000 4.000000 1.000000 -60.708740 114.000000 133.000000 0.295347 0.797595 0.525939
1.35000002 1.13999999 -0.07000000 19 28 232 97.000000 1.000000 4.000000 1.000000 -60.708740 114.000000 133.000000 0.204808 0.416984 0.885538
1.36000001 1.19000006 -0.15000001 19 28 232 97.000000 1.000000 4.000000 1.000000 -60.708740 114.000000 133.000000 0.432826 0.501947 0.748806
1.35000002 1.21000004 -0.17000000 19 28 232 97.000000 1.000000 4.000000 1.000000 -60.708740 114.000000 133.000000 0.341072 0.638083 0.690304
1.35000002 1.21000004 -0.17000000 19 28 232 97.000000 1.000000 4.000000 1.000000 -60.708740 114.000000 133.000000 0.341072 0.638083 0.690304
1.35000002 1.20000005 -0.15000001 19 28 232 97.000000 1.000000 4.000000 1.000000 -60.708740 114.000000 133.000000 0.494119 0.530969 0.688417
1.30999994 1.23000002 -0.03000000 19 28 232 97.000000 1.000000 4.000000 1.000000 -60.708740 114.000000 133.000000 0.413202 0.652163 0.635568
1.30999994 1.24000001 -0.03000000 19 28 232 97.000000 1.000000 4.000000 1.000000 -60.708740 114.000000 133.000000 0.459466 0.583104 0.669985
1.33000004 1.24000001 -0.04000000 19 28 232 97.000000 1.000000 4.000000 1.000000 -60.708740 114.000000 133.000000 0.126922 0.661490 0.739136
1.33000004 1.17999995 -0.07000000 19 28 232 97.000000 1.000000 4.000000 1.000000 -60.708740 114.000000 133.000000 0.493075 0.325017 0.806995
1.30999994 1.19000006 -0.09000000 19 28 232 97.000000 1.000000 4.000000 1.000000 -60.708740 114.000000 133.000000 0.106899 0.296942 0.948893
1.30999994 1.15999997 -0.04000000 19 28 232 97.000000 1.000000 4.000000 1.000000 -60.708740 114.000000 133.000000 0.431602 0.266891 0.861678
1.34000003 1.16999996 -0.05000000 19 28 232 97.000000 1.000000 4.000000 1.000000 -60.708740 114.000000 133.000000 0.206609 0.663323 0.719247
1.34000003 1.14999998 -0.05000000 19 28 232 97.000000 1.000000 4.000000 1.000000 -60.708740 114.000000 133.000000 0.180851 0.329458 0.926688
1.32000005 1.15999997 -0.05000000 19 28 232 97.000000 1.000000 4.000000 1.000000 -60.708740 114.000000 133.000000 0.301591 0.184846 0.935348
1.34000003 1.15999997 -0.09000000 19 28 232 97.000000 1.000000 4.000000 1.000000 -60.708740 114.000000 133.000000 0.565826 0.203943 0.798904
1.29999995 1.20000005 -0.07000000 19 28 232 97.000000 1.000000 4.000000 1.000000 -60.708740 114.000000 133.000000 0.380889 0.431886 0.817556
1.26999998 1.13999999 -0.04000000 19 28 232 97.000000 1.000000 4.000000 1.000000 -60.708740 114.000000 133.000000 0.042324 0.138411 0.989470
1.29999995 1.13999999 -0.04000000 19 28 232 97.000000 1.000000 4.000000 1.000000 -60.708740 114.000000 133.000000 -0.167330 0.390436 0.905296
1.29999995 1.13999999 -0.04000000 19 28 232 97.000000 1.000000 4.000000 1.000000 -60.708740 114.000000 133.000000 -0.167330 0.390436 0.905296
1.34000003 1.14999998 -0.13000000 19 28 232 97.000000 1.000000 4.000000 1.000000 -60.708740 114.000000 133.000000 -0.123788 0.669649 0.732289
1.38999999 1.22000003 -0.20000000 19 28 232 97.000000 1.000000 4.000000 1.000000 -60.708740 114.000000 133.000000 0.001349 0.842882 0.538096
1.38999999 1.13999999 -0.20000000 19 28 232 97.000000 1.000000 4.000000 1.000000 -60.708740 114.000000 133.000000 0.206302 0.680953 0.702669
1.35000002 1.20000005 -0.19000000 19 28 232 97.000000 1.000000 4.000000 1.000000 -60.708740 114.000000 133.000000 -0.079429 0.607994 0.789959
1.37000000 1.16999996 -0.19000000 19 28 232 97.000000 1.000000 4.000000 1.000000 -60.708740 114.000000 133.000000 0.358395 0.536781 0.763819
1.36000001 1.14999998 -0.25999999 19 28 232 97.000000 1.000000 4.000000 1.000000 -60.708740 114.000000 133.000000 -0.167162 0.498528 0.850604
1.36000001 1.14999998 -0.25999999 19 28 232 97.000000 1.000000 4.000000 1.000000 -60.708740 114.000000 133.000000 -0.167162 0.498528 0.850604
1.37000000 1.13999999 -0.25000000 19 28 232 97.000000 1.000000 4.000000 1.000000 -60.708740 114.000000 133.000000 0.122059 0.413877 0.902113
1.26999998 1.23000002 -0.25999999 19 28 232 97.000000 1.000000 4.000000 1.000000 -60.708740 114.000000 133.000000 0.144849 0.789947 0.595820
1.32000005 1.27999997 -0.31000000 19 28 232 97.000000 1.000000 4.000000 1.000000 -60.708740 114.000000 133.000000 -0.014988 0.846138 0.532753
1.33000004 1.24000001 -0.28000000 19 28 232 97.000000 1.000000 4.000000 1.000000 -60.708740 114.000000 133.000000 -0.431638 0.803906 0.409174
1.34000003 1.24000001 -0.28000000 19 28 232 97.000000 1.000000 4.000000 1.000000 -60.708740 114.000000 133.000000 0.262687 0.775477 0.574136
1.27999997 1.29999995 -0.33000001 19 28 232 97.000000 1.000000 4.000000 1.000000 -60.708740 114.000000 133.000000 0.015153 0.980288 0.196990
1.26999998 1.23000002 -0.33000001 19 28 232 97.000000 1.000000 4.000000 1.000000 -60.708740 114.000000 133.000000 -0.405930 0.637890 0.654459
1.32000005 1.20000005 -0.20999999 19 28 232 97.000000 1.000000 4.000000 1.000000 -60.708740 114.000000 133.000000 0.319877 0.560990 0.763525
1.30999994 1.17999995 -0.27000001 19 28 232 97.000000 1.000000 4.000000 1.000000 -60.708740 114.000000 133.000000 -0.277493 0.515791 0.810529
1.30999994 1.17999995 -0.27000001 19 28 232 97.000000 1.000000 4.000000 1.000000 -60.708740 114.000000 133.000000 -0.277493 0.515791 0.810529
1.33000004 1.22000003 -0.25999999 19 28 232 97.000000 1.000000 4.000000 1.000000 -60.708740 114.000000 133.000000 0.275113 0.532933 0.800185
1.27999997 1.15999997 -0.27000001 19 28 232 97.000000 1.000000 4.000000 1.000000 -60.708740 114.000000 133.000000 0.160249 0.489569 0.857113
1.34000003 1.19000006 -0.34000000 19 28 232 97.000000 1.000000 4.000000 1.000000 -60.708740 114.000000 133.000000 0.523992 -0.631823 -0.571168
1.30999994 1.20000005 -0.34000000 19 28 232 97.000000 1.000000 4.000000 1.000000 -60.708740 114.000000 133.000000 -0.154950 0.964854 0.212242
1.34000003 1.21000004 -0.34999999 19 28 232 97.000000 1.000000 4.000000 1.000000 -60.708740 114.000000 133.000000 -0.089177 0.864871 0.494010
1.34000003 1.19000006 -0.34000000 19 28 232 97.000000 1.000000 4.000000 1.000000 -60.708740 114.000000 133.000000 0.523992 -0.631823 -0.571168
1.33000004 1.22000003 -0.34000000 19 28 232 97.000000 1.000000 4.000000 1.000000 -60.708740 114.000000 133.000000 0.051811 0.977172 0.206037
1.33000004 1.14999998 -0.28999999 19 28 232 97.000000 1.000000 4.000000 1.000000 -60.708740 114.000000 133.000000 -0.192289 0.472525 0.860084
1.33000004 1.13999999 -0.28000000 19 28 232 97.000000 1.000000 4.000000 1.000000 -60.708740 114.000000 133.000000 0.320065 0.577404 0.751108
1.29999995 1.22000003 -0.30000001 19 28 232 97.000000 1.000000 4.000000 1.000000 -60.708740 114.000000 133.000000 -0.463782 0.607773 0.644607
1.29999995 1.22000003 -0.33000001 19 28 232 97.000000 1.000000 4.000000 1.000000 -60.708740 114.000000 133.000000 -0.550578 0.755217 0.355683
1.27999997 1.21000004 -0.31999999 19 28 232 97.000000 1.000000 4.000000 1.000000 -60.708740 114.000000 133.000000 0.124730 0.875978 0.465946
1.35000002 1.11000001 -0.06000000 19 28 232 97.000000 1.000000 4.000000 1.000000 -60.708740 114.000000 133.000000 0.171249 0.053146 0.983793
1.35000002 1.13000000 -0.07000000 19 28 232 97.000000 1.000000 4.000000 1.000000 -60.708740 114.000000 133.000000 -0.017579 0.205093 0.978585
1.39999998 1.12000000 -0.13000000 19 28 232 97.000000 1.000000 4.000000 1.000000 -60.708740 114.000000 133.000000 0.489219 0.420499 0.764098
1.35000002 1.11000001 -0.11000000 19 28 232 97.000000 1.000000 4.000000 1.000000 -60.708740 114.000000 133.000000 0.244850 0.687161 0.684002
1.32000005 1.10000002 -0.05000000 19 28 232 97.000000 1.000000 4.000000 1.000000 -60.708740 114.000000 133.000000 0.168174 0.457726 0.873043
1.32000005 1.11000001 -0.03000000 19 28 232 97.000000 1.000000 4.000000 1.000000 -60.708740 114.000000 133.000000 -0.071585 0.144344 0.986935
1.32000005 1.11000001 -0.06000000 19 28 232 97.000000 1.000000 4.000000 1.000000 -60.708740 114.000000 133.000000 0.254943 0.414848 0.873444
1.30999994 1.08000004 -0.03000000 19 28 232 97.000000 1.000000 4.000000 1.000000 -60.708740 114.000000 133.000000 0.428289 0.608270 0.668264
1.27999997 1.12000000 -0.03000000 19 28 232 97.000000 1.000000 4.000000 1.000000 -60.708740 114.000000 133.000000 0.577789 0.368279 0.728375
1.28999996 1.05999994 -0.03000000 19 28 232 97.000000 1.000000 4.000000 1.000000 -60.708740 114.000000 133.000000 0.169689 0.275574 0.946184
1.30999994 1.11000001 -0.15000001 19 28 232 97.000000 1.000000 4.000000 1.000000 -60.708740 114.000000 133.000000 0.291483 0.321075 0.901082
1.30999994 1.08000004 -0.11000000 19 28 232 97.000000 1.000000 4.000000 1.000000 -60.708740 114.000000 133.000000 0.281648 -0.028537 0.959093
1.28999996 1.10000002 -0.12000000 19 28 232 97.000000 1.000000 4.000000 1.000000 -60.708740 114.000000 133.000000 0.568891 0.525000 0.633039
1.35000002 1.12000000 -0.25000000 19 28 232 97.000000 1.000000 4.000000 1.000000 -60.708740 114.000000 133.000000 0.158993 0.103164 0.981875
1.36000001 1.09000003 -0.25999999 19 28 232 97.000000 1.000000 4.000000 1.000000 -60.708740 114.000000 133.000000 0.624484 0.314662 0.714848
1.36000001 1.13000000 -0.34000000 19 28 232 97.000000 1.000000 4.000000 1.000000 -60.708740 114.000000 133.000000 0.013919 0.340389 0.940182
1.34000003 1.11000001 -0.25000000 19 28 232 97.000000 1.000000 4.000000 1.000000 -60.708740 114.000000 133.000000 0.261413 0.192980 0.945739
1.27999997 1.09000003 -0.27000001 19 28 232 97.000000 1.000000 4.000000 1.000000 -60.708740 114.000000 133.000000 -0.080896 0.338173 0.937601
1.27999997 1.09000003 -0.27000001 19 28 232 97.000000 1.000000 4.000000 1.000000 -60.708740 114.000000 133.000000 -0.080896 0.338173 0.937601
1.32000005 1.08000004 -0.28000000 19 28 232 97.000000 1.000000 4.000000 1.000000 -60.708740 114.000000 133.000000 0.217604 0.132622 0.966985
1.42999995 1.24000001 -0.58999997 19 28 232 97.000000 1.000000 4.000000 1.000000 -60.708740 114.000000 133.000000 -0.369585 0.655397 -0.658682
1.59000003 0.98000002 -0.38999999 19 28 232 97.000000 1.000000 4.000000 1.000000 -60.708740 114.000000 133.000000 0.558275 -0.458286 0.691595
1.54999995 0.97000003 -0.43000001 19 28 232 97.000000 1.000000 4.000000 1.000000 -60.708740 114.000000 133.000000 0.785366 -0.501538 0.362849
1.59000003 1.01999998 -0.49000001 19 28 232 97.000000 1.000000 4.000000 1.000000 -60.708740 114.000000 133.000000 -0.099353 0.985147 -0.140051
1.59000003 1.01999998 -0.50000000 19 28 232 97.000000 1.000000 4.000000 1.000000 -60.708740 114.000000 133.000000 -0.669152 0.738825 0.079834
1.58000004 0.99000001 -0.50000000 19 28 232 97.000000 1.000000 4.000000 1.000000 -60.708740 114.000000 133.000000 -0.649796 0.741102 0.168917
1.58000004 0.99000001 -0.50000000 19 28 232 97.000000 1.000000 4.000000 1.000000 -60.708740 114.000000 133.000000 -0.649796 0.741102 0.168917
1.53999996 1.04999995 -0.50999999 19 28 232 97.000000 1.000000 4.000000 1.000000 -60.708740 114.000000 133.000000 -0.524484 0.850027 0.048692
1.53999996 0.97000003 -0.47000000 19 28 232 97.000000 1.000000 4.000000 1.000000 -60.708740 114.000000 133.000000 -0.185260 0.920643 -0.343650
1.49000001 0.97000003 -0.38999999 19 28 232 97.000000 1.000000 4.000000 1.000000 -60.708740 114.000000 133.000000 -0.611055 0.787294 0.082341
1.48000002 1.00000000 -0.44000000 19 28 232 97.000000 1.000000 4.000000 1.000000 -60.708740 114.000000 133.000000 -0.231309 0.955989 0.180501
1.52999997 1.07000005 -0.62000000 19 28 232 97.000000 1.000000 4.000000 1.000000 -60.708740 114.000000 133.000000 -0.261473 0.454137 0.851699
1.57000005 1.00000000 -0.57999998 19 28 232 97.000000 1.000000 4.000000 1.000000 -60.708740 114.000000 133.000000 -0.257681 0.964746 0.053528
1.55999994 1.00000000 -0.57999998 19 28 232 97.000000 1.000000 4.000000 1.000000 -60.708740 114.000000 133.000000 -0.324056 0.930443 0.171068
1.53999996 0.97000003 -0.56000000 19 28 232 97.000000 1.000000 4.000000 1.000000 -60.708740 114.000000 133.000000 -0.001227 0.953006 0.302950
1.53999996 0.97000003 -0.56000000 19 28 232 97.000000 1.000000 4.000000 1.000000 -60.708740 114.000000 133.000000 -0.001227 0.953006 0.302950
1.54999995 0.97000003 -0.60000002 19 28 232 97.000000 1.000000 4.000000 1.000000 -60.708740 114.000000 133.000000 0.104388 0.768942 0.630738
1.59000003 1.02999997 -0.64999998 19 28 232 97.000000 1.000000 4.000000 1.000000 -60.708740 114.000000 133.000000 -0.067079 0.937792 0.340657
1.57000005 0.99000001 -0.63000000 19 28 232 97.000000 1.000000 4.000000 1.000000 -60.708740 114.000000 133.000000 -0.462876 0.763828 0.449792
1.53999996 1.01999998 -0.67000002 19 28 232 97.000000 1.000000 4.000000 1.000000 -60.708740 114.000000 133.000000 -0.333016 0.635166 0.696896
1.54999995 1.02999997 -0.67000002 19 28 232 97.000000 1.000000 4.000000 1.000000 -60.708740 114.000000 133.000000 0.052983 0.720288 0.691648
1.51999998 0.99000001 -0.63999999 19 28 232 97.000000 1.000000 4.000000 1.000000 -60.708740 114.000000 133.000000 0.090592 0.559368 0.823954
1.51999998 1.00000000 -0.67000002 19 28 232 97.000000 1.000000 4.000000 1.000000 -60.708740 114.000000 133.000000 -0.244167 0.660037 0.710446
1.52999997 1.00999999 -0.67000002 19 28 232 97.000000 1.000000 4.000000 1.000000 -60.708740 114.000000 133.000000 0.458923 0.552377 0.695895
1.52999997 1.00999999 -0.67000002 19 28 232 97.000000 1.000000 4.000000 1.000000 -60.708740 114.000000 133.000000 0.458923 0.552377 0.695895
1.54999995 1.00000000 -0.64999998 19 28 232 97.000000 1.000000 4.000000 1.000000 -60.708740 114.000000 133.000000 0.245854 0.867276 0.432884
1.52999997 0.97000003 -0.69000000 19 28 232 97.000000 1.000000 4.000000 1.000000 -60.708740 114.000000 133.000000 -0.116952 0.920483 0.372871
1.54999995 1.00000000 -0.64999998 19 28 232 97.000000 1.000000 4.000000 1.000000 -60.708740 114.000000 133.000000 0.245854 0.867276 0.432884
1.52999997 0.99000001 -0.64999998 19 28 232 97.000000 1.000000 4.000000 1.000000 -60.708740 114.000000 133.000000 -0.254097 0.491254 0.833129
1.44000006 1.07000005 -0.56000000 19 28 232 97.000000 1.000000 4.000000 1.000000 -60.708740 114.000000 133.000000 0.442341 0.199719 0.874326
1.46000004 0.97000003 -0.54000002 19 28 232 97.000000 1.000000 4.000000 1.000000 -60.708740 114.000000 133.000000 -0.021794 0.934570 0.355111
1.46000004 1.03999996 -0.57999998 19 28 232 97.000000 1.000000 4.000000 1.000000 -60.708740 114.000000 133.000000 0.166349 0.301078 0.938978
1.42999995 0.97000003 -0.57999998 19 28 232 97.000000 1.000000 4.000000 1.000000 -60.708740 114.000000 133.000000 0.179226 0.742947 0.644909
1.50999999 1.00999999 -0.64999998 19 28 232 97.000000 1.000000 4.000000 1.000000 -60.708740 114.000000 133.000000 -0.035479 0.387636 0.921129
1.45000005 1.04999995 -0.68000001 19 28 232 97.000000 1.000000 4.000000 1.000000 -60.708740 114.000000 133.000000 0.442166 0.649067 0.619033
1.45000005 1.04999995 -0.69000000 19 28 232 97.000000 1.000000 4.000000 1.000000 -60.708740 114.000000 133.000000 0.479416 0.456351 0.749602
1.46000004 1.03999996 -0.69000000 19 28 232 97.000000 1.000000 4.000000 1.000000 -60.708740 114.000000 133.000000 0.468457 0.381527 0.796860
1.35000002 1.24000001 -0.36000001 19 28 232 97.000000 1.000000 4.000000 1.000000 -60.708740 114.000000 133.000000 0.101102 0.766323 0.634451
1.35000002 1.24000001 -0.36000001 19 28 232 97.000000 1.000000 4.000000 1.000000 -60.708740 114.000000 133.000000 0.101102 0.766323 0.634451
1.35000002 1.25999999 -0.41000000 19 28 232 97.000000 1.000000 4.000000 1.000000 -60.708740 114.000000 133.000000 -0.291084 0.854770 0.429695
1.38999999 1.23000002 -0.47000000 19 28 232 97.000000 1.000000 4.000000 1.000000 -60.708740 114.000000 133.000000 -0.718647 0.672678 0.176214
1.37000000 1.29999995 -0.50999999 19 28 232 97.000000 1.000000 4.000000 1.000000 -60.708740 114.000000 133.000000 0.750768 -0.654553 -0.088926
1.36000001 1.26999998 -0.50000000 19 28 232 97.000000 1.000000 4.000000 1.000000 -60.708740 114.000000 133.000000 0.771220 -0.633860 0.058664
1.38000000 1.25000000 -0.50999999 19 28 232 97.000000 1.000000 4.000000 1.000000 -60.708740 114.000000 133.000000 0.754851 -0.632855 0.172320
1.35000002 1.21000004 -0.40000001 19 28 232 97.000000 1.000000 4.000000 1.000000 -60.708740 114.000000 133.000000 -0.463590 0.886001 0.009298
1.37000000 1.22000003 -0.49000001 19 28 232 97.000000 1.000000 4.000000 1.000000 -60.708740 114.000000 133.000000 -0.267837 0.959857 0.083299
1.30999994 1.24000001 -0.38000000 19 28 232 97.000000 1.000000 4.000000 1.000000 -60.708740 114.000000 133.000000 -0.346275 0.805847 0.480317
1.26999998 1.26999998 -0.37000000 19 28 232 97.000000 1.000000 4.000000 1.000000 -60.708740 114.000000 133.000000 -0.554944 0.803977 0.213677
1.27999997 1.28999996 -0.38999999 19 28 232 97.000000 1.000000 4.000000 1.000000 -60.708740 114.000000 133.000000 -0.003395 0.985676 0.168617
1.27999997 1.28999996 -0.37000000 19 28 232 97.000000 1.000000 4.000000 1.000000 -60.708740 114.000000 133.000000 -0.525142 0.786915 0.324024
1.29999995 1.23000002 -0.37000000 19 28 232 97.000000 1.000000 4.000000 1.000000 -60.708740 114.000000 133.000000 -0.073775 0.875556 0.477450
1.29999995 1.23000002 -0.37000000 19 28 232 97.000000 1.000000 4.000000 1.000000 -60.708740 114.000000 133.000000 -0.073775 0.875556 0.477450
1.26999998 1.24000001 -0.40000001 19 28 232 97.000000 1.000000 4.000000 1.000000 -60.708740 114.000000 133.000000 -0.126491 0.987103 -0.098119
1.29999995 1.23000002 -0.41000000 19 28 232 97.000000 1.000000 4.000000 1.000000 -60.708740 114.000000 133.000000 0.731621 -0.681643 -0.009718
1.28999996 1.29999995 -0.44999999 19 28 232 97.000000 1.000000 4.000000 1.000000 -60.708740 114.000000 133.000000 -0.404741 0.845425 -0.348484
1.26999998 1.27999997 -0.50000000 19 28 232 97.000000 1.000000 4.000000 1.000000 -60.708740 114.000000 133.000000 -0.316776 0.947783 -0.036894
1.27999997 1.27999997 -0.49000001 19 28 232 97.000000 1.000000 4.000000 1.000000 -60.708740 114.000000 133.000000 0.696503 -0.708384 -0.114351
1.27999997 1.22000003 -0.36000001 19 28 232 97.000000 1.000000 4.000000 1.000000 -60.708740 114.000000 133.000000 0.369284 -0.759717 -0.535218
1.29999995 1.22000003 -0.41000000 19 28 232 97.000000 1.000000 4.000000 1.000000 -60.708740 114.000000 133.000000 0.670232 -0.707727 -0.223411
1.28999996 1.15999997 -0.36000001 19 28 232 97.000000 1.000000 4.000000 1.000000 -60.708740 114.000000 133.000000 -0.098487 0.973647 0.205700
1.32000005 1.20000005 -0.50000000 19 28 232 97.000000 1.000000 4.000000 1.000000 -60.708740 114.000000 133.000000 -0.457790 0.886710 -0.064613
1.33000004 1.15999997 -0.51999998 19 28 232 97.000000 1.000000 4.000000 1.000000 -60.708740 114.000000 133.000000 0.795245 -0.514758 0.320329
1.27999997 1.17999995 -0.46000001 19 28 232 97.000000 1.000000 4.000000 1.000000 -60.708740 114.000000 133.000000 0.791345 -0.611179 0.015245
1.29999995 1.20000005 -0.46000001 19 28 232 97.000000 1.000000 4.000000 1.000000 -60.708740 114.000000 133.000000 -0.276299 0.954605 -0.111305
1.38000000 1.25999999 -0.56000000 19 28 232 97.000000 1.000000 4.000000 1.000000 -60.708740 114.000000 133.000000 -0.436212 0.748968 -0.498764
1.37000000 1.25999999 -0.52999997 19 28 232 97.000000 1.000000 4.000000 1.000000 -60.708740 114.000000 133.000000 0.829656 -0.500256 0.247819
1.37000000 1.27999997 -0.63999999 19 28 232 97.000000 1.000000 4.000000 1.000000 -60.708740 114.000000 133.000000 0.875627 -0.357865 0.324363
1.36000001 1.27999997 -0.62000000 19 28 232 97.000000 1.000000 4.000000 1.000000 -60.708740 114.000000 133.000000 0.768434 -0.560749 0.308332
1.36000001 1.27999997 -0.62000000 19 28 232 97.000000 1.000000 4.000000 1.000000 -60.708740 114.000000 133.000000 0.768434 -0.560749 0.308332
1.35000002 1.25000000 -0.67000002 19 28 232 97.000000 1.000000 4.000000 1.000000 -60.708740 114.000000 133.000000 0.607227 -0.405370 0.683338
1.38999999 1.21000004 -0.57999998 19 28 232 97.000000 1.000000 4.000000 1.000000 -60.708740 114.000000 133.000000 0.636502 -0.538579 0.552085
1.38999999 1.20000005 -0.58999997 19 28 232 97.000000 1.000000 4.000000 1.000000 -60.708740 114.000000 133.000000 0.571526 -0.227681 0.788365
1.38999999 1.17999995 -0.68000001 19 28 232 97.000000 1.000000 4.000000 1.000000 -60.708740 114.000000 133.000000 0.271667 -0.235070 0.933241
1.36000001 1.17999995 -0.62000000 19 28 232 97.000000 1.000000 4.000000 1.000000 -60.708740 114.000000 133.000000 -0.487814 0.665505 -0.564925
1.37000000 1.17999995 -0.63000000 19 28 232 97.000000 1.000000 4.000000 1.000000 -60.708740 114.000000 133.000000 0.558419 -0.622527 0.548296
1.37000000 1.13999999 -0.62000000 19 28 232 97.000000 1.000000 4.000000 1.000000 -60.708740 114.000000 133.000000 0.377761 -0.099554 0.920536
1.30999994 1.27999997 -0.52999997 19 28 232 97.000000 1.000000 4.000000 1.000000 -60.708740 114.000000 133.000000 -0.689288 0.666898 -0.283072
1.28999996 1.25999999 -0.60000002 19 28 232 97.000000 1.000000 4.000000 1.000000 -60.708740 114.000000 133.000000 0.395807 -0.634284 0.664094
1.29999995 1.29999995 -0.67000002 19 28 232 97.000000 1.000000 4.000000 1.000000 -60.708740 114.000000 133.000000 0.659850 -0.599712 0.452707
1.34000003 1.22000003 -0.63000000 19 28 232 97.000000 1.000000 4.000000 1.000000 -60.708740 114.000000 133.000000 0.703381 -0.297770 0.645437
1.34000003 1.13999999 -0.66000003 19 28 232 97.000000 1.000000 4.000000 1.000000 -60.708740 114.000000 133.000000 0.383811 0.141996 0.912429
1.30999994 1.16999996 -0.64999998 19 28 232 97.000000 1.000000 4.000000 1.000000 -60.708740 114.000000 133.000000 0.338286 0.050549 0.939685
1.28999996 1.17999995 -0.63999999 19 28 232 97.000000 1.000000 4.000000 1.000000 -60.708740 114.000000 133.000000 0.347562 -0.270655 0.897745
1.36000001 1.10000002 -0.51999998 19 28 232 97.000000 1.000000 4.000000 1.000000 -60.708740 114.000000 133.000000 0.525391 -0.042974 0.849775
1.38999999 0.97000003 -0.49000001 19 28 232 97.000000 1.000000 4.000000 1.000000 -60.708740 114.000000 133.000000 -0.080094 0.916332 0.392326
1.38999999 0.97000003 -0.49000001 19 28 232 97.000000 1.000000 4.000000 1.000000 -60.708740 114.000000 133.000000 -0.080094 0.916332 0.392326
1.32000005 1.11000001 -0.50000000 19 28 232 97.000000 1.000000 4.000000 1.000000 -60.708740 114.000000 133.000000 0.702312 -0.272325 0.657721
1.28999996 1.02999997 -0.47999999 19 28 232 97.000000 1.000000 4.000000 1.000000 -60.708740 114.000000 133.000000 0.097503 0.329907 0.938965
1.28999996 0.97000003 -0.50999999 19 28 232 97.000000 1.000000 4.000000 1.000000 -60.708740 114.000000 133.000000 0.424772 0.614670 0.664643
1.34000003 0.97000003 -0.51999998 19 28 232 97.000000 1.000000 4.000000 1.000000 -60.708740 114.000000 133.000000 0.066935 0.900203 0.430295
1.38999999 1.10000002 -0.67000002 19 28 232 97.000000 1.000000 4.000000 1.000000 -60.708740 114.000000 133.000000 0.252047 0.277679 0.927020
1.39999998 1.09000003 -0.61000001 19 28 232 97.000000 1.000000 4.000000 1.000000 -60.708740 114.000000 133.000000 0.505909 0.203874 0.838148
1.36000001 1.10000002 -0.61000001 19 28 232 97.000000 1.000000 4.000000 1.000000 -60.708740 114.000000 133.000000 0.572726 0.252627 0.779849
1.38000000 1.12000000 -0.61000001 19 28 232 97.000000 1.000000 4.000000 1.000000 -60.708740 114.000000 133.000000 0.670902 0.076799 0.737558
1.35000002 1.10000002 -0.63999999 19 28 232 97.000000 1.000000 4.000000 1.000000 -60.708740 114.000000 133.000000 0.689178 0.169620 0.704459
1.38000000 1.12000000 -0.64999998 19 28 232 97.000000 1.000000 4.000000 1.000000 -60.708740 114.000000 133.000000 0.378681 0.126227 0.916879
1.37000000 1.08000004 -0.63999999 19 28 232 97.000000 1.000000 4.000000 1.000000 -60.708740 114.000000 133.000000 0.629067 0.329976 0.703840
1.37000000 1.08000004 -0.67000002 19 28 232 97.000000 1.000000 4.000000 1.000000 -60.708740 114.000000 133.000000 0.345653 0.440353 0.828621
1.40999997 0.97000003 -0.56000000 19 28 232 97.000000 1.000000 4.000000 1.000000 -60.708740 114.000000 133.000000 -0.035020 0.359280 0.932572
1.41999996 0.97000003 -0.57999998 19 28 232 97.000000 1.000000 4.000000 1.000000 -60.708740 114.000000 133.000000 -0.166305 0.697260 0.697260
1.35000002 0.99000001 -0.57999998 19 28 232 97.000000 1.000000 4.000000 1.000000 -60.708740 114.000000 133.000000 -0.188934 0.625173 0.757273
1.39999998 0.99000001 -0.63000000 19 28 232 97.000000 1.000000 4.000000 1.000000 -60.708740 114.000000 133.000000 -0.039944 0.516514 0.855347
1.39999998 0.99000001 -0.63000000 19 28 232 97.000000 1.000000 4.000000 1.000000 -60.708740 114.000000 133.000000 -0.039944 0.516514 0.855347
1.40999997 1.00000000 -0.67000002 19 28 232 97.000000 1.000000 4.000000 1.000000 -60.708740 114.000000 133.000000 0.542618 0.351487 0.762904
1.28999996 1.07000005 -0.58999997 19 28 232 97.000000 1.000000 4.000000 1.000000 -60.708740 114.000000 133.000000 0.612676 -0.333153 0.716685
1.32000005 1.11000001 -0.66000003 19 28 232 97.000000 1.000000 4.000000 1.000000 -60.708740 114.000000 133.000000 0.599529 -0.336321 0.726259
1.33000004 1.12000000 -0.67000002 19 28 232 97.000000 1.000000 4.000000 1.000000 -60.708740 114.000000 133.000000 0.428901 -0.259159 0.865379
1.34000003 1.13000000 -0.67000002 19 28 232 97.000000 1.000000 4.000000 1.000000 -60.708740 114.000000 133.000000 0.421015 -0.405006 0.811614
1.34000003 1.09000003 -0.69000000 19 28 232 97.000000 1.000000 4.000000 1.000000 -60.708740 114.000000 133.000000 0.714707 0.108020 0.691032
1.26999998 0.97000003 -0.60000002 19 28 232 97.000000 1.000000 4.000000 1.000000 -60.708740 114.000000 133.000000 0.382259 0.288583 0.877837
1.32000005 0.97000003 -0.67000002 19 28 232 97.000000 1.000000 4.000000 1.000000 -60.708740 114.000000 133.000000 0.318016 0.158319 0.934773
1.28999996 1.01999998 -0.64999998 19 28 232 97.000000 1.000000 4.000000 1.000000 -60.708740 114.000000 133.000000 0.228853 0.068037 0.971080
1.28999996 0.98000002 -0.62000000 19 28 232 97.000000 1.000000 4.000000 1.000000 -60.708740 114.000000 133.000000 0.306641 0.197427 0.931125
1.27999997 1.00000000 -0.61000001 19 28 232 97.000000 1.000000 4.000000 1.000000 -60.708740 114.000000 133.000000 0.427918 0.402275 0.809358
1.29999995 0.97000003 -0.67000002 19 28 232 97.000000 1.000000 4.000000 1.000000 -60.708740 114.000000 133.000000 0.354925 0.433798 0.828159
1.27999997 0.99000001 -0.69000000 19 28 232 97.000000 1.000000 4.000000 1.000000 -60.708740 114.000000 133.000000 0.374022 0.563483 0.736611
1.29999995 0.99000001 -0.69000000 19 28 232 97.000000 1.000000 4.000000 1.000000 -60.708740 114.000000 133.000000 0.040837 0.615376 0.787175
1.29999995 1.00999999 -0.67000002 19 28 232 97.000000 1.000000 4.000000 1.000000 -60.708740 114.000000 133.000000 0.279911 0.564566 0.776476
1.11000001 1.45000005 -0.18000001 19 28 232 97.000000 1.000000 4.000000 1.000000 -60.708740 114.000000 133.000000 0.028689 0.997752 0.060566
1.23000002 1.38999999 -0.22000000 19 28 232 97.000000 1.000000 4.000000 1.000000 -60.708740 114.000000 133.000000 -0.520487 0.684499 0.510445
1.23000002 1.35000002 -0.25999999 19 28 232 97.000000 1.000000 4.000000 1.000000 -60.708740 114.000000 133.000000 -0.172753 0.886992 0.428253
1.24000001 1.30999994 -0.20999999 19 28 232 97.000000 1.000000 4.000000 1.000000 -60.708740 114.000000 133.000000 0.223382 0.710761 0.667022
1.25999999 1.34000003 -0.20999999 19 28 232 97.000000 1.000000 4.000000 1.000000 -60.708740 114.000000 133.000000 -0.112429 0.813283 0.570904
1.22000003 1.30999994 -0.30000001 19 28 232 97.000000 1.000000 4.000000 1.000000 -60.708740 114.000000 133.000000 -0.393726 0.915987 -0.077122
1.11000001 1.47000003 -0.20999999 19 28 232 97.000000 1.000000 4.000000 1.000000 -60.708740 114.000000 133.000000 -0.178562 0.923742 0.338846
1.13999999 1.36000001 -0.22000000 19 28 232 97.000000 1.000000 4.000000 1.000000 -60.708740 114.000000 133.000000 -0.255616 0.907070 0.334491
1.12000000 1.36000001 -0.20999999 19 28 232 97.000000 1.000000 4.000000 1.000000 -60.708740 114.000000 133.000000 -0.521643 0.849614 0.077752
1.23000002 1.30999994 -0.38999999 19 28 232 97.000000 1.000000 4.000000 1.000000 -60.708740 114.000000 133.000000 -0.237891 0.915519 0.324396
1.24000001 1.30999994 -0.38000000 19 28 232 97.000000 1.000000 4.000000 1.000000 -60.708740 114.000000 133.000000 -0.071012 0.997349 0.015898
1.14999998 1.41999996 -0.49000001 19 28 232 97.000000 1.000000 4.000000 1.000000 -60.708740 114.000000 133.000000 -0.438846 0.717057 -0.541519
1.13999999 1.38000000 -0.47999999 19 28 232 97.000000 1.000000 4.000000 1.000000 -60.708740 114.000000 133.000000 -0.129693 0.986383 -0.101137
1.13000000 1.36000001 -0.51999998 19 28 232 97.000000 1.000000 4.000000 1.000000 -60.708740 114.000000 133.000000 0.579915 -0.643790 0.499232
1.21000004 1.30999994 -0.55000001 19 28 232 97.000000 1.000000 4.000000 1.000000 -60.708740 114.000000 133.000000 0.616596 -0.716935 0.325291
1.23000002 1.34000003 -0.64999998 19 28 232 97.000000 1.000000 4.000000 1.000000 -60.708740 114.000000 133.000000 -0.595791 0.781690 -0.184375
1.17999995 1.32000005 -0.69000000 19 28 232 97.000000 1.000000 4.000000 1.000000 -60.708740 114.000000 133.000000 0.739893 -0.377296 0.556961
1.13999999 1.36000001 -0.52999997 19 28 232 97.000000 1.000000 4.000000 1.000000 -60.708740 114.000000 133.000000 -0.431387 0.641251 -0.634589
1.15999997 1.36000001 -0.60000002 19 28 232 97.000000 1.000000 4.000000 1.000000 -60.708740 114.000000 133.000000 0.661953 -0.652098 0.369577
1.15999997 1.36000001 -0.57999998 19 28 232 97.000000 1.000000 4.000000 1.000000 -60.708740 114.000000 133.000000 -0.267633 0.897533 -0.350437
1.14999998 1.36000001 -0.57999998 19 28 232 97.000000 1.000000 4.000000 1.000000 -60.708740 114.000000 133.000000 -0.501231 0.747738 -0.435495
1.13999999 1.37000000 -0.57999998 19 28 232 97.000000 1.000000 4.000000 1.000000 -60.708740 114.000000 133.000000 0.737492 -0.381011 0.557616
1.13999999 1.34000003 -0.58999997 19 28 232 97.000000 1.000000 4.000000 1.000000 -60.708740 114.000000 133.000000 -0.467951 0.873988 -0.131026
1.13999999 1.34000003 -0.58999997 19 28 232 97.000000 1.000000 4.000000 1.000000 -60.708740 114.000000 133.000000 -0.467951 0.873988 -0.131026
1.12000000 1.35000002 -0.52999997 19 28 232 97.000000 1.000000 4.000000 1.000000 -60.708740 114.000000 133.000000 -0.583391 0.781465 -0.221286
1.16999996 1.34000003 -0.63999999 19 28 232 97.000000 1.000000 4.000000 1.000000 -60.708740 114.000000 133.000000 0.651605 -0.567418 0.503436
1.14999998 1.35000002 -0.61000001 19 28 232 97.000000 1.000000 4.000000 1.000000 -60.708740 114.000000 133.000000 -0.711758 0.346921 -0.610776
1.19000006 1.29999995 -0.05000000 19 28 232 97.000000 1.000000 4.000000 1.000000 -60.708740 114.000000 133.000000 0.026681 0.756901 0.652985
1.25000000 1.24000001 -0.17000000 19 28 232 97.000000 1.000000 4.000000 1.000000 -60.708740 114.000000 133.000000 -0.101133 0.497119 0.861768
1.22000003 1.14999998 -0.05000000 19 28 232 97.000000 1.000000 4.000000 1.000000 -60.708740 114.000000 133.000000 0.259421 0.815545 0.517288
1.25999999 1.16999996 -0.03000000 19 28 232 97.000000 1.000000 4.000000 1.000000 -60.708740 114.000000 133.000000 -0.011815 0.431890 0.901849
1.13999999 1.27999997 -0.03000000 19 28 232 97.000000 1.000000 4.000000 1.000000 -60.708740 114.000000 133.000000 0.147717 0.807219 0.571469
1.13999999 1.28999996 -0.04000000 19 28 232 97.000000 1.000000 4.000000 1.000000 -60.708740 114.000000 133.000000 -0.377938 0.567725 0.731335
1.13999999 1.27999997 -0.09000000 19 28 232 97.000000 1.000000 4.000000 1.000000 -60.708740 114.000000 133.000000 0.289962 -0.896652 -0.334571
1.15999997 1.25000000 -0.06000000 19 28 232 97.000000 1.000000 4.000000 1.000000 -60.708740 114.000000 133.000000 0.185990 0.739350 0.647124
1.14999998 1.24000001 -0.05000000 19 28 232 97.000000 1.000000 4.000000 1.000000 -60.708740 114.000000 133.000000 -0.056555 0.484163 0.873148
1.15999997 1.24000001 -0.05000000 19 28 232 97.000000 1.000000 4.000000 1.000000 -60.708740 114.000000 133.000000 0.362513 0.787863 0.497852
1.15999997 1.25000000 -0.10000000 19 28 232 97.000000 1.000000 4.000000 1.000000 -60.708740 114.000000 133.000000 0.085070 0.803115 0.589720
1.13000000 1.25999999 -0.04000000 19 28 232 97.000000 1.000000 4.000000 1.000000 -60.708740 114.000000 133.000000 0.231744 0.785440 0.573915
1.12000000 1.25999999 -0.05000000 19 28 232 97.000000 1.000000 4.000000 1.000000 -60.708740 114.000000 133.000000 -0.105377 0.841570 0.529770
1.14999998 1.28999996 -0.17000000 19 28 232 97.000000 1.000000 4.000000 1.000000 -60.708740 114.000000 133.000000 -0.143037 0.984430 0.102169
1.12000000 1.27999997 -0.18000001 19 28 232 97.000000 1.000000 4.000000 1.000000 -60.708740 114.000000 133.000000 -0.114115 0.706920 0.698028
1.24000001 1.26999998 -0.23999999 19 28 232 97.000000 1.000000 4.000000 1.000000 -60.708740 114.000000 133.000000 -0.040982 0.918783 0.392631
1.23000002 1.26999998 -0.23000000 19 28 232 97.000000 1.000000 4.000000 1.000000 -60.708740 114.000000 133.000000 -0.132038 0.967851 0.214081
1.24000001 1.26999998 -0.23000000 19 28 232 97.000000 1.000000 4.000000 1.000000 -60.708740 114.000000 133.000000 -0.198723 0.916415 0.347408
1.23000002 1.25999999 -0.25999999 19 28 232 97.000000 1.000000 4.000000 1.000000 -60.708740 114.000000 133.000000 -0.528759 0.779478 0.335899
1.17999995 1.26999998 -0.25999999 19 28 232 97.000000 1.000000 4.000000 1.000000 -60.708740 114.000000 133.000000 -0.438077 0.846742 0.301855
1.24000001 1.29999995 -0.28999999 19 28 232 97.000000 1.000000 4.000000 1.000000 -60.708740 114.000000 133.000000 -0.121860 0.906249 0.404800
1.24000001 1.25999999 -0.30000001 19 28 232 97.000000 1.000000 4.000000 1.000000 -60.708740 114.000000 133.000000 -0.187402 0.796839 0.574394
1.20000005 1.26999998 -0.28999999 19 28 232 97.000000 1.000000 4.000000 1.000000 -60.708740 114.000000 133.000000 -0.251998 0.943269 0.216195
1.21000004 1.26999998 -0.31999999 19 28 232 97.000000 1.000000 4.000000 1.000000 -60.708740 114.000000 133.000000 -0.063763 0.820417 0.568199
1.17999995 1.25000000 -0.31000000 19 28 232 97.000000 1.000000 4.000000 1.000000 -60.708740 114.000000 133.000000 -0.601112 0.790160 0.119632
1.21000004 1.22000003 -0.22000000 19 28 232 97.000000 1.000000 4.000000 1.000000 -60.708740 114.000000 133.000000 0.149525 0.653984 0.741584
1.25999999 1.19000006 -0.27000001 19 28 232 97.000000 1.000000 4.000000 1.000000 -60.708740 114.000000 133.000000 -0.387792 0.812288 0.435667
1.23000002 1.22000003 -0.22000000 19 28 232 97.000000 1.000000 4.000000 1.000000 -60.708740 114.000000 133.000000 -0.023774 0.773365 0.633516
1.23000002 1.22000003 -0.28999999 19 28 232 97.000000 1.000000 4.000000 1.000000 -60.708740 114.000000 133.000000 -0.102951 0.884251 0.455523
1.15999997 1.26999998 -0.25999999 19 28 232 97.000000 1.000000 4.000000 1.000000 -60.708740 114.000000 133.000000 -0.166843 0.971765 0.166843
