//X Y Z R G B PointSourceId ScanDirectionFlag NumberOfReturns ReturnNumber GpsTime Intensity Classification Nx Ny Nz
-6.71999979 19.73999977 -0.10000000 197 47 133 0.000000 0.000000 0.000000 0.000000 -60.708740 0.000000 134.000000 -0.313497 0.911328 -0.266837
-6.73999977 19.75000000 -0.07000000 197 47 133 0.000000 0.000000 0.000000 0.000000 -60.708740 0.000000 134.000000 -0.043160 0.839534 -0.541590
-6.73999977 19.72999954 -0.07000000 197 47 133 0.000000 0.000000 0.000000 0.000000 -60.708740 0.000000 134.000000 -0.601625 0.625218 -0.497141
-6.73000002 19.69000053 -0.04000000 197 47 133 0.000000 0.000000 0.000000 0.000000 -60.708740 0.000000 134.000000 -0.461099 0.877668 -0.130717
-6.75000000 19.70999908 -0.08000000 197 47 133 0.000000 0.000000 0.000000 0.000000 -60.708740 0.000000 134.000000 -0.408550 0.907120 -0.101099
-6.75000000 19.70999908 -0.09000000 197 47 133 0.000000 0.000000 0.000000 0.000000 -60.708740 0.000000 134.000000 -0.106749 0.872498 -0.476814
-6.76000023 19.72999954 -0.05000000 197 47 133 0.000000 0.000000 0.000000 0.000000 -60.708740 0.000000 134.000000 0.314833 -0.631280 0.708778
-6.76000023 19.73999977 -0.05000000 197 47 133 0.000000 0.000000 0.000000 0.000000 -60.708740 0.000000 134.000000 0.373661 -0.686417 0.623866
-6.78000021 19.69000053 -0.04000000 197 47 133 0.000000 0.000000 0.000000 0.000000 -60.708740 0.000000 134.000000 -0.753896 0.573861 -0.319883
-6.76999998 19.70000076 -0.05000000 197 47 133 0.000000 0.000000 0.000000 0.000000 -60.708740 0.000000 134.000000 0.842523 -0.538618 -0.006784
-6.76999998 19.70000076 -0.04000000 197 47 133 0.000000 0.000000 0.000000 0.000000 -60.708740 0.000000 134.000000 0.877954 -0.430834 0.208755
-6.76999998 19.70999908 -0.03000000 197 47 133 0.000000 0.000000 0.000000 0.000000 -60.708740 0.000000 134.000000 0.840419 -0.517295 0.161562
-6.76999998 19.71999931 -0.06000000 197 47 133 0.000000 0.000000 0.000000 0.000000 -60.708740 0.000000 134.000000 0.387309 -0.707044 0.591676
-6.76999998 19.70000076 -0.07000000 197 47 133 0.000000 0.000000 0.000000 0.000000 -60.708740 0.000000 134.000000 0.867818 -0.374983 0.326006
-6.76999998 19.69000053 -0.07000000 197 47 133 0.000000 0.000000 0.000000 0.000000 -60.708740 0.000000 134.000000 -0.424190 0.811564 -0.401780
-6.73000002 19.70000076 -0.12000000 197 47 133 0.000000 0.000000 0.000000 0.000000 -60.708740 0.000000 134.000000 -0.448519 0.868727 -0.210104
-6.71999979 19.70000076 -0.16000000 197 47 133 0.000000 0.000000 0.000000 0.000000 -60.708740 0.000000 134.000000 -0.044085 0.909756 -0.412797
-6.71999979 19.69000053 -0.14000000 197 47 133 0.000000 0.000000 0.000000 0.000000 -60.708740 0.000000 134.000000 -0.191287 0.785044 -0.589165
-6.76000023 19.69000053 -0.11000000 197 47 133 0.000000 0.000000 0.000000 0.000000 -60.708740 0.000000 134.000000 -0.527188 0.638352 -0.560874
-6.75000000 19.65999985 -0.07000000 197 47 133 0.000000 0.000000 0.000000 0.000000 -60.708740 0.000000 134.000000 -0.627744 0.677172 -0.383896
-6.75000000 19.65999985 -0.08000000 197 47 133 0.000000 0.000000 0.000000 0.000000 -60.708740 0.000000 134.000000 0.711560 -0.696949 0.089128
-6.73000002 19.68000031 -0.07000000 197 47 133 0.000000 0.000000 0.000000 0.000000 -60.708740 0.000000 134.000000 -0.372841 0.808089 -0.456050
-6.75000000 19.65999985 -0.08000000 197 47 133 0.000000 0.000000 0.000000 0.000000 -60.708740 0.000000 134.000000 0.711560 -0.696949 0.089128
-6.78000021 19.65999985 -0.06000000 197 47 133 0.000000 0.000000 0.000000 0.000000 -60.708740 0.000000 134.000000 0.983699 -0.178750 -0.019605
-6.78000021 19.65999985 -0.05000000 197 47 133 0.000000 0.000000 0.000000 0.000000 -60.708740 0.000000 134.000000 0.969630 0.018023 0.243910
-6.78000021 19.65999985 -0.06000000 197 47 133 0.000000 0.000000 0.000000 0.000000 -60.708740 0.000000 134.000000 0.983699 -0.178750 -0.019605
-6.78000021 19.67000008 -0.04000000 197 47 133 0.000000 0.000000 0.000000 0.000000 -60.708740 0.000000 134.000000 0.887737 -0.285932 0.360784
-6.76000023 19.65999985 -0.10000000 197 47 133 0.000000 0.000000 0.000000 0.000000 -60.708740 0.000000 134.000000 -0.537712 0.840965 -0.060370
-6.78000021 19.61000061 -0.04000000 197 47 133 0.000000 0.000000 0.000000 0.000000 -60.708740 0.000000 134.000000 0.975784 -0.126190 0.178665
-6.76999998 19.62000084 -0.06000000 197 47 133 0.000000 0.000000 0.000000 0.000000 -60.708740 0.000000 134.000000 0.978035 -0.041796 0.204205
-6.78000021 19.63999939 -0.05000000 197 47 133 0.000000 0.000000 0.000000 0.000000 -60.708740 0.000000 134.000000 0.985847 0.086603 0.143547
-6.76999998 19.61000061 -0.05000000 197 47 133 0.000000 0.000000 0.000000 0.000000 -60.708740 0.000000 134.000000 0.961087 -0.185889 0.204346
-6.76999998 19.62999916 -0.04000000 197 47 133 0.000000 0.000000 0.000000 0.000000 -60.708740 0.000000 134.000000 0.863045 -0.503557 0.039791
-6.78000021 19.63999939 -0.08000000 197 47 133 0.000000 0.000000 0.000000 0.000000 -60.708740 0.000000 134.000000 0.996558 -0.068466 -0.046731
-6.78999996 19.61000061 -0.10000000 197 47 133 0.000000 0.000000 0.000000 0.000000 -60.708740 0.000000 134.000000 0.795537 -0.604720 0.037883
-6.78999996 19.61000061 -0.10000000 197 47 133 0.000000 0.000000 0.000000 0.000000 -60.708740 0.000000 134.000000 0.795537 -0.604720 0.037883
-6.76999998 19.62000084 -0.07000000 197 47 133 0.000000 0.000000 0.000000 0.000000 -60.708740 0.000000 134.000000 0.963397 0.093150 0.251376
-6.73999977 19.68000031 -0.14000000 197 47 133 0.000000 0.000000 0.000000 0.000000 -60.708740 0.000000 134.000000 -0.409174 0.803906 -0.431638
-6.73999977 19.67000008 -0.11000000 197 47 133 0.000000 0.000000 0.000000 0.000000 -60.708740 0.000000 134.000000 -0.411724 0.752913 -0.513425
-6.73000002 19.68000031 -0.14000000 197 47 133 0.000000 0.000000 0.000000 0.000000 -60.708740 0.000000 134.000000 -0.565134 0.763652 -0.312185
-6.71999979 19.68000031 -0.11000000 197 47 133 0.000000 0.000000 0.000000 0.000000 -60.708740 0.000000 134.000000 0.354150 -0.608747 0.709933
-6.71999979 19.65999985 -0.18000001 197 47 133 0.000000 0.000000 0.000000 0.000000 -60.708740 0.000000 134.000000 -0.402396 0.822287 -0.402396
-6.73000002 19.65999985 -0.18000001 197 47 133 0.000000 0.000000 0.000000 0.000000 -60.708740 0.000000 134.000000 0.237341 -0.693161 0.680586
-6.75000000 19.64999962 -0.17000000 197 47 133 0.000000 0.000000 0.000000 0.000000 -60.708740 0.000000 134.000000 0.604892 -0.651809 0.457439
-6.73999977 19.65999985 -0.17000000 197 47 133 0.000000 0.000000 0.000000 0.000000 -60.708740 0.000000 134.000000 -0.539221 0.797041 -0.271969
-6.75000000 19.64999962 -0.17000000 197 47 133 0.000000 0.000000 0.000000 0.000000 -60.708740 0.000000 134.000000 0.604892 -0.651809 0.457439
-6.75000000 19.63999939 -0.18000001 197 47 133 0.000000 0.000000 0.000000 0.000000 -60.708740 0.000000 134.000000 0.672491 -0.642895 0.366664
-6.76999998 19.68000031 -0.13000000 197 47 133 0.000000 0.000000 0.000000 0.000000 -60.708740 0.000000 134.000000 -0.385953 0.854056 -0.348753
-6.78000021 19.67000008 -0.13000000 197 47 133 0.000000 0.000000 0.000000 0.000000 -60.708740 0.000000 134.000000 -0.646541 0.716437 -0.262111
-6.76000023 19.68000031 -0.14000000 197 47 133 0.000000 0.000000 0.000000 0.000000 -60.708740 0.000000 134.000000 -0.171953 0.829862 -0.530812
-6.78999996 19.65999985 -0.15000001 197 47 133 0.000000 0.000000 0.000000 0.000000 -60.708740 0.000000 134.000000 0.888274 -0.444843 0.114388
-6.76999998 19.67000008 -0.15000001 197 47 133 0.000000 0.000000 0.000000 0.000000 -60.708740 0.000000 134.000000 -0.210012 0.720263 -0.661148
-6.76000023 19.64999962 -0.16000000 197 47 133 0.000000 0.000000 0.000000 0.000000 -60.708740 0.000000 134.000000 -0.440766 0.795962 -0.414934
-6.78999996 19.64999962 -0.15000001 197 47 133 0.000000 0.000000 0.000000 0.000000 -60.708740 0.000000 134.000000 0.869568 -0.386645 0.307176
-6.78999996 19.65999985 -0.15000001 197 47 133 0.000000 0.000000 0.000000 0.000000 -60.708740 0.000000 134.000000 0.888274 -0.444843 0.114388
-6.78000021 19.63999939 -0.14000000 197 47 133 0.000000 0.000000 0.000000 0.000000 -60.708740 0.000000 134.000000 -0.668633 0.742452 0.041168
-6.76000023 19.63999939 -0.13000000 197 47 133 0.000000 0.000000 0.000000 0.000000 -60.708740 0.000000 134.000000 -0.383614 0.874882 -0.295671
-6.78999996 19.61000061 -0.11000000 197 47 133 0.000000 0.000000 0.000000 0.000000 -60.708740 0.000000 134.000000 0.907108 -0.405482 -0.112866
-6.76000023 19.63999939 -0.14000000 197 47 133 0.000000 0.000000 0.000000 0.000000 -60.708740 0.000000 134.000000 -0.524421 0.612105 -0.591870
-6.76000023 19.63999939 -0.18000001 197 47 133 0.000000 0.000000 0.000000 0.000000 -60.708740 0.000000 134.000000 -0.425290 0.807248 -0.409241
-6.76999998 19.62000084 -0.15000001 197 47 133 0.000000 0.000000 0.000000 0.000000 -60.708740 0.000000 134.000000 -0.661550 0.533616 -0.526883
-6.78000021 19.63999939 -0.15000001 197 47 133 0.000000 0.000000 0.000000 0.000000 -60.708740 0.000000 134.000000 -0.633977 0.753134 -0.175680
-6.76000023 19.62999916 -0.15000001 197 47 133 0.000000 0.000000 0.000000 0.000000 -60.708740 0.000000 134.000000 -0.609086 0.742672 -0.278303
-6.67999983 19.69000053 -0.19000000 197 47 133 0.000000 0.000000 0.000000 0.000000 -60.708740 0.000000 134.000000 0.119793 0.894921 -0.429844
-6.63999987 19.61000061 -0.22000000 197 47 133 0.000000 0.000000 0.000000 0.000000 -60.708740 0.000000 134.000000 0.730118 0.407086 -0.548825
-6.65000010 19.62999916 -0.19000000 197 47 133 0.000000 0.000000 0.000000 0.000000 -60.708740 0.000000 134.000000 0.574173 0.648259 -0.500086
-6.65999985 19.62000084 -0.20999999 197 47 133 0.000000 0.000000 0.000000 0.000000 -60.708740 0.000000 134.000000 0.652924 0.694841 -0.301474
-6.65000010 19.62000084 -0.23000000 197 47 133 0.000000 0.000000 0.000000 0.000000 -60.708740 0.000000 134.000000 0.503271 0.604262 -0.617727
-6.65999985 19.61000061 -0.23000000 197 47 133 0.000000 0.000000 0.000000 0.000000 -60.708740 0.000000 134.000000 0.501420 0.751308 -0.429084
-6.65000010 19.61000061 -0.23999999 197 47 133 0.000000 0.000000 0.000000 0.000000 -60.708740 0.000000 134.000000 0.638469 0.664865 -0.387701
-6.63999987 19.61000061 -0.23000000 197 47 133 0.000000 0.000000 0.000000 0.000000 -60.708740 0.000000 134.000000 0.355830 0.660827 -0.660827
-6.67999983 19.68000031 -0.19000000 197 47 133 0.000000 0.000000 0.000000 0.000000 -60.708740 0.000000 134.000000 -0.169923 0.855526 -0.489083
-6.69000006 19.64999962 -0.19000000 197 47 133 0.000000 0.000000 0.000000 0.000000 -60.708740 0.000000 134.000000 0.308070 0.685495 -0.659689
-6.71000004 19.67000008 -0.19000000 197 47 133 0.000000 0.000000 0.000000 0.000000 -60.708740 0.000000 134.000000 -0.307691 0.832484 -0.460756
-6.69000006 19.68000031 -0.19000000 197 47 133 0.000000 0.000000 0.000000 0.000000 -60.708740 0.000000 134.000000 0.152856 -0.658339 0.737037
-6.67000008 19.67000008 -0.20000000 197 47 133 0.000000 0.000000 0.000000 0.000000 -60.708740 0.000000 134.000000 0.343081 0.733316 -0.586978
-6.69999981 19.65999985 -0.25000000 197 47 133 0.000000 0.000000 0.000000 0.000000 -60.708740 0.000000 134.000000 -0.295041 -0.512772 0.806235
-6.67000008 19.62000084 -0.23000000 197 47 133 0.000000 0.000000 0.000000 0.000000 -60.708740 0.000000 134.000000 -0.519414 -0.529500 0.670700
-6.69999981 19.62000084 -0.27000001 197 47 133 0.000000 0.000000 0.000000 0.000000 -60.708740 0.000000 134.000000 0.274465 0.750417 -0.601285
-6.69999981 19.61000061 -0.27000001 197 47 133 0.000000 0.000000 0.000000 0.000000 -60.708740 0.000000 134.000000 -0.228259 0.878722 -0.419220
-6.69000006 19.63999939 -0.23999999 197 47 133 0.000000 0.000000 0.000000 0.000000 -60.708740 0.000000 134.000000 0.136487 -0.691433 0.709431
-6.67000008 19.62999916 -0.23999999 197 47 133 0.000000 0.000000 0.000000 0.000000 -60.708740 0.000000 134.000000 -0.473149 -0.417867 0.775575
-6.67000008 19.62000084 -0.23000000 197 47 133 0.000000 0.000000 0.000000 0.000000 -60.708740 0.000000 134.000000 -0.519414 -0.529500 0.670700
-6.67999983 19.62999916 -0.25000000 197 47 133 0.000000 0.000000 0.000000 0.000000 -60.708740 0.000000 134.000000 -0.243670 -0.544766 0.802405
-6.73000002 19.64999962 -0.20000000 197 47 133 0.000000 0.000000 0.000000 0.000000 -60.708740 0.000000 134.000000 0.190598 -0.499757 0.844935
-6.73000002 19.64999962 -0.20000000 197 47 133 0.000000 0.000000 0.000000 0.000000 -60.708740 0.000000 134.000000 0.190598 -0.499757 0.844935
-6.73999977 19.64999962 -0.19000000 197 47 133 0.000000 0.000000 0.000000 0.000000 -60.708740 0.000000 134.000000 -0.317055 0.855276 -0.409852
-6.73999977 19.61000061 -0.20999999 197 47 133 0.000000 0.000000 0.000000 0.000000 -60.708740 0.000000 134.000000 -0.427044 0.892650 -0.144252
-6.73000002 19.62000084 -0.25999999 197 47 133 0.000000 0.000000 0.000000 0.000000 -60.708740 0.000000 134.000000 0.088542 -0.605280 0.791073
-6.75000000 19.62999916 -0.25000000 197 47 133 0.000000 0.000000 0.000000 0.000000 -60.708740 0.000000 134.000000 -0.483171 0.772748 -0.411590
-6.73999977 19.62999916 -0.25000000 197 47 133 0.000000 0.000000 0.000000 0.000000 -60.708740 0.000000 134.000000 0.066438 0.832596 -0.549881
-6.73000002 19.62000084 -0.25999999 197 47 133 0.000000 0.000000 0.000000 0.000000 -60.708740 0.000000 134.000000 0.088542 -0.605280 0.791073
-6.75000000 19.62000084 -0.25999999 197 47 133 0.000000 0.000000 0.000000 0.000000 -60.708740 0.000000 134.000000 0.046651 0.795894 -0.603636
-6.73999977 19.62000084 -0.25000000 197 47 133 0.000000 0.000000 0.000000 0.000000 -60.708740 0.000000 134.000000 -0.023840 -0.719414 0.694172
-6.71999979 19.62000084 -0.25999999 197 47 133 0.000000 0.000000 0.000000 0.000000 -60.708740 0.000000 134.000000 -0.054467 -0.532096 0.844930
-6.73000002 19.61000061 -0.27000001 197 47 133 0.000000 0.000000 0.000000 0.000000 -60.708740 0.000000 134.000000 0.037455 0.839279 -0.542410
-6.75000000 19.62000084 -0.25999999 197 47 133 0.000000 0.000000 0.000000 0.000000 -60.708740 0.000000 134.000000 0.046651 0.795894 -0.603636
-6.73000002 19.62000084 -0.25999999 197 47 133 0.000000 0.000000 0.000000 0.000000 -60.708740 0.000000 134.000000 0.088542 -0.605280 0.791073
-6.75000000 19.62000084 -0.25999999 197 47 133 0.000000 0.000000 0.000000 0.000000 -60.708740 0.000000 134.000000 0.046651 0.795894 -0.603636
-6.76000023 19.64999962 -0.19000000 197 47 133 0.000000 0.000000 0.000000 0.000000 -60.708740 0.000000 134.000000 -0.428995 0.877288 -0.215240
-6.76999998 19.62999916 -0.22000000 197 47 133 0.000000 0.000000 0.000000 0.000000 -60.708740 0.000000 134.000000 0.609843 -0.596329 0.521999
-6.78999996 19.61000061 -0.22000000 197 47 133 0.000000 0.000000 0.000000 0.000000 -60.708740 0.000000 134.000000 0.816108 -0.569681 0.097121
-6.78000021 19.61000061 -0.20000000 197 47 133 0.000000 0.000000 0.000000 0.000000 -60.708740 0.000000 134.000000 0.715838 -0.646000 0.265066
-6.76999998 19.62000084 -0.22000000 197 47 133 0.000000 0.000000 0.000000 0.000000 -60.708740 0.000000 134.000000 0.467140 -0.477044 0.744453
-6.78999996 19.62000084 -0.20999999 197 47 133 0.000000 0.000000 0.000000 0.000000 -60.708740 0.000000 134.000000 0.743136 -0.630964 0.222785
-6.76999998 19.63999939 -0.22000000 197 47 133 0.000000 0.000000 0.000000 0.000000 -60.708740 0.000000 134.000000 -0.321160 0.731084 -0.601974
-6.78000021 19.63999939 -0.22000000 197 47 133 0.000000 0.000000 0.000000 0.000000 -60.708740 0.000000 134.000000 -0.461200 0.612138 -0.642325
-6.76000023 19.63999939 -0.22000000 197 47 133 0.000000 0.000000 0.000000 0.000000 -60.708740 0.000000 134.000000 -0.261376 0.742942 -0.616214
-6.78000021 19.62000084 -0.22000000 197 47 133 0.000000 0.000000 0.000000 0.000000 -60.708740 0.000000 134.000000 0.657743 -0.711372 0.247639
-6.76000023 19.62999916 -0.25000000 197 47 133 0.000000 0.000000 0.000000 0.000000 -60.708740 0.000000 134.000000 -0.657559 0.593979 -0.463471
-6.76000023 19.62000084 -0.25000000 197 47 133 0.000000 0.000000 0.000000 0.000000 -60.708740 0.000000 134.000000 -0.531895 0.698633 -0.478539
-6.78000021 19.62000084 -0.23000000 197 47 133 0.000000 0.000000 0.000000 0.000000 -60.708740 0.000000 134.000000 0.626876 -0.717120 0.304575
-6.73999977 19.61000061 -0.28999999 197 47 133 0.000000 0.000000 0.000000 0.000000 -60.708740 0.000000 134.000000 -0.196075 -0.677770 0.708648
-6.63000011 19.55999947 -0.04000000 197 47 133 0.000000 0.000000 0.000000 0.000000 -60.708740 0.000000 134.000000 -0.713064 0.386998 -0.584613
-6.63999987 19.57999992 -0.03000000 197 47 133 0.000000 0.000000 0.000000 0.000000 -60.708740 0.000000 134.000000 0.716449 -0.696587 0.038305
-6.63000011 19.52000046 -0.06000000 197 47 133 0.000000 0.000000 0.000000 0.000000 -60.708740 0.000000 134.000000 0.551802 -0.619301 0.558552
-6.65000010 19.52000046 -0.05000000 197 47 133 0.000000 0.000000 0.000000 0.000000 -60.708740 0.000000 134.000000 -0.212059 0.825352 -0.523283
-6.65999985 19.52000046 -0.03000000 197 47 133 0.000000 0.000000 0.000000 0.000000 -60.708740 0.000000 134.000000 -0.173777 0.848093 -0.500539
-6.65000010 19.52000046 -0.06000000 197 47 133 0.000000 0.000000 0.000000 0.000000 -60.708740 0.000000 134.000000 0.388442 -0.558897 0.732630
-6.63000011 19.52000046 -0.08000000 197 47 133 0.000000 0.000000 0.000000 0.000000 -60.708740 0.000000 134.000000 0.852902 -0.520062 0.045765
-6.63999987 19.52000046 -0.07000000 197 47 133 0.000000 0.000000 0.000000 0.000000 -60.708740 0.000000 134.000000 -0.437580 0.738107 -0.513538
-6.71000004 19.54999924 -0.03000000 197 47 133 0.000000 0.000000 0.000000 0.000000 -60.708740 0.000000 134.000000 -0.041223 -0.700797 0.712169
-6.69999981 19.54000092 -0.07000000 197 47 133 0.000000 0.000000 0.000000 0.000000 -60.708740 0.000000 134.000000 -0.432537 0.812404 -0.391039
-6.63000011 19.57999992 -0.18000001 197 47 133 0.000000 0.000000 0.000000 0.000000 -60.708740 0.000000 134.000000 0.863684 0.421941 -0.275709
-6.65000010 19.48999977 -0.09000000 197 47 133 0.000000 0.000000 0.000000 0.000000 -60.708740 0.000000 134.000000 0.745922 -0.623947 0.233003
-6.65000010 19.47999954 -0.10000000 197 47 133 0.000000 0.000000 0.000000 0.000000 -60.708740 0.000000 134.000000 0.799397 -0.475794 0.366858
-6.69000006 19.51000023 -0.06000000 197 47 133 0.000000 0.000000 0.000000 0.000000 -60.708740 0.000000 134.000000 -0.029622 0.717991 -0.695422
-6.67999983 19.51000023 -0.06000000 197 47 133 0.000000 0.000000 0.000000 0.000000 -60.708740 0.000000 134.000000 0.006795 0.833075 -0.553118
-6.67000008 19.51000023 -0.08000000 197 47 133 0.000000 0.000000 0.000000 0.000000 -60.708740 0.000000 134.000000 -0.681400 0.618705 -0.391021
-6.67999983 19.48999977 -0.09000000 197 47 133 0.000000 0.000000 0.000000 0.000000 -60.708740 0.000000 134.000000 0.001331 0.874156 -0.485642
-6.69000006 19.48999977 -0.09000000 197 47 133 0.000000 0.000000 0.000000 0.000000 -60.708740 0.000000 134.000000 0.051899 0.828982 -0.556862
-6.71000004 19.47999954 -0.10000000 197 47 133 0.000000 0.000000 0.000000 0.000000 -60.708740 0.000000 134.000000 -0.017785 0.835896 -0.548600
-6.71000004 19.51000023 -0.10000000 197 47 133 0.000000 0.000000 0.000000 0.000000 -60.708740 0.000000 134.000000 0.044034 -0.680390 0.731526
-6.67999983 19.50000000 -0.08000000 197 47 133 0.000000 0.000000 0.000000 0.000000 -60.708740 0.000000 134.000000 -0.362226 0.706422 -0.608080
-6.67999983 19.48999977 -0.10000000 197 47 133 0.000000 0.000000 0.000000 0.000000 -60.708740 0.000000 134.000000 -0.314308 0.850025 -0.422690
-6.63999987 19.51000023 -0.13000000 197 47 133 0.000000 0.000000 0.000000 0.000000 -60.708740 0.000000 134.000000 0.712614 -0.701544 0.004151
-6.65000010 19.47999954 -0.11000000 197 47 133 0.000000 0.000000 0.000000 0.000000 -60.708740 0.000000 134.000000 0.764611 -0.629944 0.136164
-6.63000011 19.48999977 -0.15000001 197 47 133 0.000000 0.000000 0.000000 0.000000 -60.708740 0.000000 134.000000 -0.632890 0.665939 -0.394937
-6.65000010 19.46999931 -0.13000000 197 47 133 0.000000 0.000000 0.000000 0.000000 -60.708740 0.000000 134.000000 -0.633354 0.613194 -0.472076
-6.63999987 19.45999908 -0.17000000 197 47 133 0.000000 0.000000 0.000000 0.000000 -60.708740 0.000000 134.000000 -0.702588 0.647924 -0.294219
-6.67000008 19.48999977 -0.12000000 197 47 133 0.000000 0.000000 0.000000 0.000000 -60.708740 0.000000 134.000000 -0.449492 0.636641 -0.626615
-6.71000004 19.47999954 -0.12000000 197 47 133 0.000000 0.000000 0.000000 0.000000 -60.708740 0.000000 134.000000 -0.365335 0.869771 -0.331705
-6.69000006 19.48999977 -0.16000000 197 47 133 0.000000 0.000000 0.000000 0.000000 -60.708740 0.000000 134.000000 -0.239040 0.851103 -0.467422
-6.69999981 19.48999977 -0.15000001 197 47 133 0.000000 0.000000 0.000000 0.000000 -60.708740 0.000000 134.000000 -0.253818 0.861767 -0.439243
-6.71000004 19.46999931 -0.12000000 197 47 133 0.000000 0.000000 0.000000 0.000000 -60.708740 0.000000 134.000000 0.182626 -0.692139 0.698278
-6.69000006 19.45999908 -0.18000001 197 47 133 0.000000 0.000000 0.000000 0.000000 -60.708740 0.000000 134.000000 0.167680 -0.787039 0.593678
-6.71000004 19.45000076 -0.15000001 197 47 133 0.000000 0.000000 0.000000 0.000000 -60.708740 0.000000 134.000000 0.232707 -0.598167 0.766840
-6.71000004 19.45000076 -0.16000000 197 47 133 0.000000 0.000000 0.000000 0.000000 -60.708740 0.000000 134.000000 -0.195222 0.757831 -0.622559
-6.73000002 19.55999947 -0.05000000 197 47 133 0.000000 0.000000 0.000000 0.000000 -60.708740 0.000000 134.000000 0.518847 0.459172 -0.721082
-6.71999979 19.53000069 -0.05000000 197 47 133 0.000000 0.000000 0.000000 0.000000 -60.708740 0.000000 134.000000 0.380462 0.752759 -0.537218
-6.71999979 19.52000046 -0.07000000 197 47 133 0.000000 0.000000 0.000000 0.000000 -60.708740 0.000000 134.000000 -0.225159 -0.594730 0.771751
-6.73000002 19.53000069 -0.07000000 197 47 133 0.000000 0.000000 0.000000 0.000000 -60.708740 0.000000 134.000000 -0.070205 -0.606058 0.792316
-6.73999977 19.54000092 -0.07000000 197 47 133 0.000000 0.000000 0.000000 0.000000 -60.708740 0.000000 134.000000 0.387194 0.782489 -0.487638
-6.71999979 19.52000046 -0.08000000 197 47 133 0.000000 0.000000 0.000000 0.000000 -60.708740 0.000000 134.000000 -0.052854 -0.755669 0.652818
-6.73000002 19.52000046 -0.08000000 197 47 133 0.000000 0.000000 0.000000 0.000000 -60.708740 0.000000 134.000000 -0.067928 0.721192 -0.689396
-6.76999998 19.57999992 -0.03000000 197 47 133 0.000000 0.000000 0.000000 0.000000 -60.708740 0.000000 134.000000 0.651548 0.434921 -0.621554
-6.78000021 19.57999992 -0.05000000 197 47 133 0.000000 0.000000 0.000000 0.000000 -60.708740 0.000000 134.000000 0.965194 0.232623 0.119525
-6.76999998 19.57999992 -0.03000000 197 47 133 0.000000 0.000000 0.000000 0.000000 -60.708740 0.000000 134.000000 0.651548 0.434921 -0.621554
-6.78000021 19.56999969 -0.05000000 197 47 133 0.000000 0.000000 0.000000 0.000000 -60.708740 0.000000 134.000000 0.732125 0.527196 -0.431343
-6.78000021 19.56999969 -0.05000000 197 47 133 0.000000 0.000000 0.000000 0.000000 -60.708740 0.000000 134.000000 0.732125 0.527196 -0.431343
-6.76000023 19.60000038 -0.03000000 197 47 133 0.000000 0.000000 0.000000 0.000000 -60.708740 0.000000 134.000000 0.765443 0.322545 -0.556832
-6.78000021 19.56999969 -0.10000000 197 47 133 0.000000 0.000000 0.000000 0.000000 -60.708740 0.000000 134.000000 0.922921 -0.054446 -0.381120
-6.78000021 19.56999969 -0.08000000 197 47 133 0.000000 0.000000 0.000000 0.000000 -60.708740 0.000000 134.000000 0.793345 0.540989 -0.279169
-6.78000021 19.56999969 -0.07000000 197 47 133 0.000000 0.000000 0.000000 0.000000 -60.708740 0.000000 134.000000 0.851539 0.431179 -0.298271
-6.78000021 19.55999947 -0.08000000 197 47 133 0.000000 0.000000 0.000000 0.000000 -60.708740 0.000000 134.000000 0.904835 -0.017122 -0.425417
-6.78999996 19.57999992 -0.08000000 197 47 133 0.000000 0.000000 0.000000 0.000000 -60.708740 0.000000 134.000000 0.918565 0.394787 -0.019544
-6.78000021 19.55999947 -0.08000000 197 47 133 0.000000 0.000000 0.000000 0.000000 -60.708740 0.000000 134.000000 0.904835 -0.017122 -0.425417
-6.76000023 19.54999924 -0.09000000 197 47 133 0.000000 0.000000 0.000000 0.000000 -60.708740 0.000000 134.000000 0.830846 0.453903 -0.321973
-6.78999996 19.54000092 -0.08000000 197 47 133 0.000000 0.000000 0.000000 0.000000 -60.708740 0.000000 134.000000 0.618940 0.406542 -0.672039
-6.78999996 19.55999947 -0.11000000 197 47 133 0.000000 0.000000 0.000000 0.000000 -60.708740 0.000000 134.000000 0.962998 -0.109578 -0.246228
-6.78999996 19.56999969 -0.12000000 197 47 133 0.000000 0.000000 0.000000 0.000000 -60.708740 0.000000 134.000000 0.935570 0.253880 -0.245464
-6.78999996 19.59000015 -0.12000000 197 47 133 0.000000 0.000000 0.000000 0.000000 -60.708740 0.000000 134.000000 0.915402 -0.271284 -0.297397
-6.78999996 19.56999969 -0.12000000 197 47 133 0.000000 0.000000 0.000000 0.000000 -60.708740 0.000000 134.000000 0.935570 0.253880 -0.245464
-6.78999996 19.60000038 -0.18000001 197 47 133 0.000000 0.000000 0.000000 0.000000 -60.708740 0.000000 134.000000 -0.701451 0.712607 0.012551
-6.78000021 19.53000069 -0.12000000 197 47 133 0.000000 0.000000 0.000000 0.000000 -60.708740 0.000000 134.000000 0.784072 0.221149 -0.579935
-6.78000021 19.53000069 -0.11000000 197 47 133 0.000000 0.000000 0.000000 0.000000 -60.708740 0.000000 134.000000 0.861382 0.472945 -0.185323
-6.78000021 19.54000092 -0.12000000 197 47 133 0.000000 0.000000 0.000000 0.000000 -60.708740 0.000000 134.000000 0.799524 0.128574 -0.586712
-6.78000021 19.53000069 -0.12000000 197 47 133 0.000000 0.000000 0.000000 0.000000 -60.708740 0.000000 134.000000 0.784072 0.221149 -0.579935
-6.78999996 19.54999924 -0.18000001 197 47 133 0.000000 0.000000 0.000000 0.000000 -60.708740 0.000000 134.000000 0.912925 -0.275188 0.301396
-6.78999996 19.53000069 -0.17000000 197 47 133 0.000000 0.000000 0.000000 0.000000 -60.708740 0.000000 134.000000 0.931264 0.364074 0.014052
-6.75000000 19.51000023 -0.06000000 197 47 133 0.000000 0.000000 0.000000 0.000000 -60.708740 0.000000 134.000000 0.630115 0.555785 -0.542271
-6.71999979 19.51000023 -0.09000000 197 47 133 0.000000 0.000000 0.000000 0.000000 -60.708740 0.000000 134.000000 0.052707 0.762109 -0.645300
-6.73000002 19.50000000 -0.11000000 197 47 133 0.000000 0.000000 0.000000 0.000000 -60.708740 0.000000 134.000000 0.115503 0.814367 -0.568741
-6.73000002 19.47999954 -0.12000000 197 47 133 0.000000 0.000000 0.000000 0.000000 -60.708740 0.000000 134.000000 0.132772 0.759337 -0.637008
-6.75000000 19.50000000 -0.11000000 197 47 133 0.000000 0.000000 0.000000 0.000000 -60.708740 0.000000 134.000000 0.399869 0.732269 -0.551259
-6.73999977 19.47999954 -0.11000000 197 47 133 0.000000 0.000000 0.000000 0.000000 -60.708740 0.000000 134.000000 -0.092208 -0.692288 0.715706
-6.73999977 19.50000000 -0.11000000 197 47 133 0.000000 0.000000 0.000000 0.000000 -60.708740 0.000000 134.000000 0.557522 0.814611 -0.159933
-6.75000000 19.47999954 -0.17000000 197 47 133 0.000000 0.000000 0.000000 0.000000 -60.708740 0.000000 134.000000 0.663796 0.562966 -0.492386
-6.71999979 19.47999954 -0.15000001 197 47 133 0.000000 0.000000 0.000000 0.000000 -60.708740 0.000000 134.000000 -0.067761 -0.679053 0.730955
-6.73000002 19.45000076 -0.16000000 197 47 133 0.000000 0.000000 0.000000 0.000000 -60.708740 0.000000 134.000000 0.487185 0.713319 -0.503813
-6.71999979 19.45999908 -0.15000001 197 47 133 0.000000 0.000000 0.000000 0.000000 -60.708740 0.000000 134.000000 0.126175 -0.624938 0.770411
-6.73000002 19.45999908 -0.15000001 197 47 133 0.000000 0.000000 0.000000 0.000000 -60.708740 0.000000 134.000000 0.439025 0.768702 -0.465138
-6.76999998 19.50000000 -0.13000000 197 47 133 0.000000 0.000000 0.000000 0.000000 -60.708740 0.000000 134.000000 -0.578801 -0.320840 0.749701
-6.78999996 19.50000000 -0.17000000 197 47 133 0.000000 0.000000 0.000000 0.000000 -60.708740 0.000000 134.000000 0.837434 0.026127 -0.545914
-6.78000021 19.48999977 -0.16000000 197 47 133 0.000000 0.000000 0.000000 0.000000 -60.708740 0.000000 134.000000 -0.744929 -0.310521 0.590473
-6.78999996 19.48999977 -0.16000000 197 47 133 0.000000 0.000000 0.000000 0.000000 -60.708740 0.000000 134.000000 0.783297 0.334783 -0.523800
-6.78999996 19.45000076 -0.18000001 197 47 133 0.000000 0.000000 0.000000 0.000000 -60.708740 0.000000 134.000000 0.901048 0.334759 -0.275771
-6.78000021 19.45000076 -0.16000000 197 47 133 0.000000 0.000000 0.000000 0.000000 -60.708740 0.000000 134.000000 0.431630 0.729306 -0.530856
-6.78999996 19.45999908 -0.18000001 197 47 133 0.000000 0.000000 0.000000 0.000000 -60.708740 0.000000 134.000000 0.661536 0.473961 -0.581147
-6.63999987 19.60000038 -0.20999999 197 47 133 0.000000 0.000000 0.000000 0.000000 -60.708740 0.000000 134.000000 0.873300 0.429909 -0.229185
-6.63000011 19.60000038 -0.20999999 197 47 133 0.000000 0.000000 0.000000 0.000000 -60.708740 0.000000 134.000000 0.799480 0.154496 -0.580485
-6.63000011 19.60000038 -0.20000000 197 47 133 0.000000 0.000000 0.000000 0.000000 -60.708740 0.000000 134.000000 0.735669 0.367019 -0.569287
-6.63999987 19.60000038 -0.22000000 197 47 133 0.000000 0.000000 0.000000 0.000000 -60.708740 0.000000 134.000000 0.853914 0.492813 -0.167231
-6.63999987 19.56999969 -0.27000001 197 47 133 0.000000 0.000000 0.000000 0.000000 -60.708740 0.000000 134.000000 -0.506429 -0.503086 0.700310
-6.63999987 19.60000038 -0.27000001 197 47 133 0.000000 0.000000 0.000000 0.000000 -60.708740 0.000000 134.000000 0.725658 0.421510 -0.543830
-6.69000006 19.59000015 -0.25999999 197 47 133 0.000000 0.000000 0.000000 0.000000 -60.708740 0.000000 134.000000 -0.210609 -0.498492 0.840922
-6.65999985 19.60000038 -0.30000001 197 47 133 0.000000 0.000000 0.000000 0.000000 -60.708740 0.000000 134.000000 0.461414 0.707945 -0.534707
-6.65000010 19.56999969 -0.28000000 197 47 133 0.000000 0.000000 0.000000 0.000000 -60.708740 0.000000 134.000000 0.527188 0.638352 -0.560874
-6.65999985 19.56999969 -0.34000000 197 47 133 0.000000 0.000000 0.000000 0.000000 -60.708740 0.000000 134.000000 -0.421191 -0.469977 0.775706
-6.63000011 19.54000092 -0.28999999 197 47 133 0.000000 0.000000 0.000000 0.000000 -60.708740 0.000000 134.000000 0.831973 0.133527 -0.538508
-6.63000011 19.54000092 -0.30000001 197 47 133 0.000000 0.000000 0.000000 0.000000 -60.708740 0.000000 134.000000 0.549945 0.664307 -0.506218
-6.63000011 19.54999924 -0.28999999 197 47 133 0.000000 0.000000 0.000000 0.000000 -60.708740 0.000000 134.000000 0.753644 0.474516 -0.454813
-6.63000011 19.53000069 -0.31000000 197 47 133 0.000000 0.000000 0.000000 0.000000 -60.708740 0.000000 134.000000 0.635056 0.567676 -0.523879
-6.63999987 19.54000092 -0.31999999 197 47 133 0.000000 0.000000 0.000000 0.000000 -60.708740 0.000000 134.000000 0.734813 0.409325 -0.540835
-6.65999985 19.53000069 -0.33000001 197 47 133 0.000000 0.000000 0.000000 0.000000 -60.708740 0.000000 134.000000 0.613974 0.650779 -0.446679
-6.67999983 19.56999969 -0.31000000 197 47 133 0.000000 0.000000 0.000000 0.000000 -60.708740 0.000000 134.000000 -0.328823 -0.457835 0.825992
-6.71000004 19.56999969 -0.28999999 197 47 133 0.000000 0.000000 0.000000 0.000000 -60.708740 0.000000 134.000000 0.009723 0.715358 -0.698690
-6.67000008 19.56999969 -0.31000000 197 47 133 0.000000 0.000000 0.000000 0.000000 -60.708740 0.000000 134.000000 0.579915 0.499232 -0.643790
-6.69000006 19.55999947 -0.28999999 197 47 133 0.000000 0.000000 0.000000 0.000000 -60.708740 0.000000 134.000000 -0.261576 -0.737168 0.623026
-6.69999981 19.55999947 -0.33000001 197 47 133 0.000000 0.000000 0.000000 0.000000 -60.708740 0.000000 134.000000 -0.153042 -0.680357 0.716723
-6.71000004 19.60000038 -0.34000000 197 47 133 0.000000 0.000000 0.000000 0.000000 -60.708740 0.000000 134.000000 -0.048464 0.859887 -0.508178
-6.69000006 19.59000015 -0.33000001 197 47 133 0.000000 0.000000 0.000000 0.000000 -60.708740 0.000000 134.000000 0.549800 0.573484 -0.607318
-6.69000006 19.54000092 -0.34000000 197 47 133 0.000000 0.000000 0.000000 0.000000 -60.708740 0.000000 134.000000 -0.111914 0.832811 -0.542127
-6.71000004 19.54999924 -0.34000000 197 47 133 0.000000 0.000000 0.000000 0.000000 -60.708740 0.000000 134.000000 -0.097283 -0.588055 0.802949
-6.67999983 19.52000046 -0.34000000 197 47 133 0.000000 0.000000 0.000000 0.000000 -60.708740 0.000000 134.000000 0.663257 0.512135 -0.545718
-6.67000008 19.54000092 -0.34999999 197 47 133 0.000000 0.000000 0.000000 0.000000 -60.708740 0.000000 134.000000 0.639226 0.694528 -0.330185
-6.67999983 19.54999924 -0.34000000 197 47 133 0.000000 0.000000 0.000000 0.000000 -60.708740 0.000000 134.000000 -0.420134 -0.525580 0.739766
-6.69999981 19.54000092 -0.34000000 197 47 133 0.000000 0.000000 0.000000 0.000000 -60.708740 0.000000 134.000000 -0.009398 0.868618 -0.495394
-6.65000010 19.44000053 -0.20000000 197 47 133 0.000000 0.000000 0.000000 0.000000 -60.708740 0.000000 134.000000 0.944156 -0.173528 0.280104
-6.65000010 19.44000053 -0.20000000 197 47 133 0.000000 0.000000 0.000000 0.000000 -60.708740 0.000000 134.000000 0.944156 -0.173528 0.280104
-6.63000011 19.47999954 -0.33000001 197 47 133 0.000000 0.000000 0.000000 0.000000 -60.708740 0.000000 134.000000 0.846453 0.350740 -0.400623
-6.65000010 19.51000023 -0.34000000 197 47 133 0.000000 0.000000 0.000000 0.000000 -60.708740 0.000000 134.000000 -0.376847 -0.650020 0.659894
-6.63000011 19.50000000 -0.34999999 197 47 133 0.000000 0.000000 0.000000 0.000000 -60.708740 0.000000 134.000000 0.678139 0.493953 -0.544186
-6.63000011 19.47999954 -0.33000001 197 47 133 0.000000 0.000000 0.000000 0.000000 -60.708740 0.000000 134.000000 0.846453 0.350740 -0.400623
-6.65000010 19.51000023 -0.34000000 197 47 133 0.000000 0.000000 0.000000 0.000000 -60.708740 0.000000 134.000000 -0.376847 -0.650020 0.659894
-6.63000011 19.46999931 -0.28999999 197 47 133 0.000000 0.000000 0.000000 0.000000 -60.708740 0.000000 134.000000 0.974175 0.191826 0.119108
-6.63000011 19.46999931 -0.28999999 197 47 133 0.000000 0.000000 0.000000 0.000000 -60.708740 0.000000 134.000000 0.974175 0.191826 0.119108
-6.63000011 19.44000053 -0.33000001 197 47 133 0.000000 0.000000 0.000000 0.000000 -60.708740 0.000000 134.000000 0.977080 -0.130692 -0.168033
-6.63000011 19.46999931 -0.34000000 197 47 133 0.000000 0.000000 0.000000 0.000000 -60.708740 0.000000 134.000000 0.955865 0.275153 -0.103020
-6.63000011 19.45999908 -0.34000000 197 47 133 0.000000 0.000000 0.000000 0.000000 -60.708740 0.000000 134.000000 0.970610 0.206810 -0.123071
-6.63000011 19.44000053 -0.33000001 197 47 133 0.000000 0.000000 0.000000 0.000000 -60.708740 0.000000 134.000000 0.977080 -0.130692 -0.168033
-6.75000000 19.60000038 -0.20999999 197 47 133 0.000000 0.000000 0.000000 0.000000 -60.708740 0.000000 134.000000 0.549566 -0.686540 0.476068
-6.73000002 19.59000015 -0.25000000 197 47 133 0.000000 0.000000 0.000000 0.000000 -60.708740 0.000000 134.000000 -0.404459 0.810518 -0.423643
-6.71999979 19.60000038 -0.23000000 197 47 133 0.000000 0.000000 0.000000 0.000000 -60.708740 0.000000 134.000000 -0.347089 0.870015 -0.350147
-6.75000000 19.60000038 -0.27000001 197 47 133 0.000000 0.000000 0.000000 0.000000 -60.708740 0.000000 134.000000 -0.461678 0.796274 -0.390898
-6.76999998 19.56999969 -0.20000000 197 47 133 0.000000 0.000000 0.000000 0.000000 -60.708740 0.000000 134.000000 0.870651 -0.469483 0.146804
-6.76000023 19.60000038 -0.27000001 197 47 133 0.000000 0.000000 0.000000 0.000000 -60.708740 0.000000 134.000000 -0.607468 0.752629 -0.254032
-6.78999996 19.56999969 -0.23999999 197 47 133 0.000000 0.000000 0.000000 0.000000 -60.708740 0.000000 134.000000 0.893962 -0.284104 0.346578
-6.78999996 19.57999992 -0.23999999 197 47 133 0.000000 0.000000 0.000000 0.000000 -60.708740 0.000000 134.000000 0.812863 -0.334335 0.476943
-6.78999996 19.56999969 -0.25000000 197 47 133 0.000000 0.000000 0.000000 0.000000 -60.708740 0.000000 134.000000 0.599625 -0.559087 0.572600
-6.78999996 19.57999992 -0.23999999 197 47 133 0.000000 0.000000 0.000000 0.000000 -60.708740 0.000000 134.000000 0.812863 -0.334335 0.476943
-6.78999996 19.54000092 -0.25000000 197 47 133 0.000000 0.000000 0.000000 0.000000 -60.708740 0.000000 134.000000 0.906438 -0.361125 0.218995
-6.75000000 19.60000038 -0.31999999 197 47 133 0.000000 0.000000 0.000000 0.000000 -60.708740 0.000000 134.000000 0.088433 -0.610330 0.787196
-6.75000000 19.55999947 -0.33000001 197 47 133 0.000000 0.000000 0.000000 0.000000 -60.708740 0.000000 134.000000 -0.168513 0.760584 -0.626989
-6.75000000 19.57999992 -0.33000001 197 47 133 0.000000 0.000000 0.000000 0.000000 -60.708740 0.000000 134.000000 0.087315 0.837361 -0.539632
-6.73999977 19.57999992 -0.34999999 197 47 133 0.000000 0.000000 0.000000 0.000000 -60.708740 0.000000 134.000000 -0.379613 0.836409 -0.395365
-6.73000002 19.54000092 -0.34999999 197 47 133 0.000000 0.000000 0.000000 0.000000 -60.708740 0.000000 134.000000 0.258793 0.703346 -0.662066
-6.75000000 19.54000092 -0.34000000 197 47 133 0.000000 0.000000 0.000000 0.000000 -60.708740 0.000000 134.000000 -0.073991 -0.694940 0.715251
-6.71999979 19.54999924 -0.34000000 197 47 133 0.000000 0.000000 0.000000 0.000000 -60.708740 0.000000 134.000000 -0.128359 -0.568025 0.812940
-6.78999996 19.55999947 -0.31000000 197 47 133 0.000000 0.000000 0.000000 0.000000 -60.708740 0.000000 134.000000 -0.233265 0.753025 -0.615257
-6.78999996 19.55999947 -0.30000001 197 47 133 0.000000 0.000000 0.000000 0.000000 -60.708740 0.000000 134.000000 0.520089 -0.460271 0.719485
-6.76999998 19.57999992 -0.31000000 197 47 133 0.000000 0.000000 0.000000 0.000000 -60.708740 0.000000 134.000000 0.384536 -0.498112 0.777185
-6.78999996 19.55999947 -0.31000000 197 47 133 0.000000 0.000000 0.000000 0.000000 -60.708740 0.000000 134.000000 -0.233265 0.753025 -0.615257
-6.76999998 19.57999992 -0.30000001 197 47 133 0.000000 0.000000 0.000000 0.000000 -60.708740 0.000000 134.000000 -0.493240 0.687192 -0.533368
-6.76000023 19.60000038 -0.31000000 197 47 133 0.000000 0.000000 0.000000 0.000000 -60.708740 0.000000 134.000000 -0.581672 0.700990 -0.412639
-6.78999996 19.54999924 -0.28000000 197 47 133 0.000000 0.000000 0.000000 0.000000 -60.708740 0.000000 134.000000 -0.343226 0.768632 -0.539815
-6.78999996 19.53000069 -0.31000000 197 47 133 0.000000 0.000000 0.000000 0.000000 -60.708740 0.000000 134.000000 0.867550 -0.357768 0.345484
-6.76000023 19.54999924 -0.33000001 197 47 133 0.000000 0.000000 0.000000 0.000000 -60.708740 0.000000 134.000000 0.490302 -0.759230 0.427989
-6.76999998 19.54000092 -0.34000000 197 47 133 0.000000 0.000000 0.000000 0.000000 -60.708740 0.000000 134.000000 -0.554189 0.752462 -0.355916
-6.78000021 19.52000046 -0.34000000 197 47 133 0.000000 0.000000 0.000000 0.000000 -60.708740 0.000000 134.000000 0.149239 -0.758257 0.634645
-6.76999998 19.54999924 -0.34000000 197 47 133 0.000000 0.000000 0.000000 0.000000 -60.708740 0.000000 134.000000 0.188714 -0.633648 0.750252
-6.76999998 19.54000092 -0.34000000 197 47 133 0.000000 0.000000 0.000000 0.000000 -60.708740 0.000000 134.000000 -0.554189 0.752462 -0.355916
-6.73000002 19.45000076 -0.20000000 197 47 133 0.000000 0.000000 0.000000 0.000000 -60.708740 0.000000 134.000000 -0.076883 -0.709352 0.700649
-6.78999996 19.51000023 -0.25999999 197 47 133 0.000000 0.000000 0.000000 0.000000 -60.708740 0.000000 134.000000 0.877786 -0.316852 0.359301
-6.78000021 19.46999931 -0.19000000 197 47 133 0.000000 0.000000 0.000000 0.000000 -60.708740 0.000000 134.000000 0.820213 0.166442 -0.547309
-6.76999998 19.47999954 -0.34999999 197 47 133 0.000000 0.000000 0.000000 0.000000 -60.708740 0.000000 134.000000 -0.313531 0.820853 -0.477387
-6.78000021 19.51000023 -0.34999999 197 47 133 0.000000 0.000000 0.000000 0.000000 -60.708740 0.000000 134.000000 0.583396 -0.499333 0.640559
-6.61000013 19.45000076 -0.37000000 197 47 133 0.000000 0.000000 0.000000 0.000000 -60.708740 0.000000 134.000000 0.824463 0.432012 -0.365549
-6.61999989 19.44000053 -0.37000000 197 47 133 0.000000 0.000000 0.000000 0.000000 -60.708740 0.000000 134.000000 0.947296 -0.124258 -0.295279
-6.65999985 19.48999977 -0.38999999 197 47 133 0.000000 0.000000 0.000000 0.000000 -60.708740 0.000000 134.000000 0.732525 0.620811 -0.279285
-6.63000011 19.48999977 -0.36000001 197 47 133 0.000000 0.000000 0.000000 0.000000 -60.708740 0.000000 134.000000 0.974046 0.192296 -0.119399
-6.63999987 19.47999954 -0.36000001 197 47 133 0.000000 0.000000 0.000000 0.000000 -60.708740 0.000000 134.000000 0.870936 0.350517 -0.344395
-6.65000010 19.47999954 -0.37000000 197 47 133 0.000000 0.000000 0.000000 0.000000 -60.708740 0.000000 134.000000 0.540243 0.684085 -0.490066
-6.63999987 19.50000000 -0.36000001 197 47 133 0.000000 0.000000 0.000000 0.000000 -60.708740 0.000000 134.000000 0.595101 0.520924 -0.611959
-6.65000010 19.51000023 -0.40000001 197 47 133 0.000000 0.000000 0.000000 0.000000 -60.708740 0.000000 134.000000 0.344054 0.644082 -0.683216
-6.63000011 19.46999931 -0.36000001 197 47 133 0.000000 0.000000 0.000000 0.000000 -60.708740 0.000000 134.000000 0.886992 0.172753 -0.428253
-6.65000010 19.45999908 -0.38999999 197 47 133 0.000000 0.000000 0.000000 0.000000 -60.708740 0.000000 134.000000 0.763872 0.554812 -0.329671
-6.63000011 19.46999931 -0.36000001 197 47 133 0.000000 0.000000 0.000000 0.000000 -60.708740 0.000000 134.000000 0.886992 0.172753 -0.428253
-6.63999987 19.44000053 -0.38000000 197 47 133 0.000000 0.000000 0.000000 0.000000 -60.708740 0.000000 134.000000 0.947409 -0.098826 -0.304383
-6.65000010 19.45999908 -0.38000000 197 47 133 0.000000 0.000000 0.000000 0.000000 -60.708740 0.000000 134.000000 0.729136 0.409831 -0.548087
-6.65000010 19.45999908 -0.38999999 197 47 133 0.000000 0.000000 0.000000 0.000000 -60.708740 0.000000 134.000000 0.763872 0.554812 -0.329671
-6.63999987 19.46999931 -0.40000001 197 47 133 0.000000 0.000000 0.000000 0.000000 -60.708740 0.000000 134.000000 0.822054 0.468618 -0.323457
-6.65000010 19.45000076 -0.40000001 197 47 133 0.000000 0.000000 0.000000 0.000000 -60.708740 0.000000 134.000000 0.568852 0.548596 -0.612740
-6.65000010 19.44000053 -0.41999999 197 47 133 0.000000 0.000000 0.000000 0.000000 -60.708740 0.000000 134.000000 0.848620 0.478203 -0.226198
-6.65999985 19.45000076 -0.41000000 197 47 133 0.000000 0.000000 0.000000 0.000000 -60.708740 0.000000 134.000000 0.862835 0.144048 -0.484526
-6.65999985 19.45000076 -0.41000000 197 47 133 0.000000 0.000000 0.000000 0.000000 -60.708740 0.000000 134.000000 0.862835 0.144048 -0.484526
-6.63999987 19.45999908 -0.41999999 197 47 133 0.000000 0.000000 0.000000 0.000000 -60.708740 0.000000 134.000000 0.703002 0.193133 -0.684462
-6.67000008 19.50000000 -0.36000001 197 47 133 0.000000 0.000000 0.000000 0.000000 -60.708740 0.000000 134.000000 0.670975 0.570580 -0.473531
-6.69000006 19.51000023 -0.37000000 197 47 133 0.000000 0.000000 0.000000 0.000000 -60.708740 0.000000 134.000000 0.510902 0.639049 -0.574975
-6.69999981 19.50000000 -0.38999999 197 47 133 0.000000 0.000000 0.000000 0.000000 -60.708740 0.000000 134.000000 -0.055059 0.814592 -0.577415
-6.67000008 19.47999954 -0.37000000 197 47 133 0.000000 0.000000 0.000000 0.000000 -60.708740 0.000000 134.000000 0.324849 0.586667 -0.741819
-6.69000006 19.51000023 -0.37000000 197 47 133 0.000000 0.000000 0.000000 0.000000 -60.708740 0.000000 134.000000 0.510902 0.639049 -0.574975
-6.67999983 19.50000000 -0.37000000 197 47 133 0.000000 0.000000 0.000000 0.000000 -60.708740 0.000000 134.000000 0.705719 0.478821 -0.522199
-6.67999983 19.48999977 -0.37000000 197 47 133 0.000000 0.000000 0.000000 0.000000 -60.708740 0.000000 134.000000 0.718383 0.462884 -0.519293
-6.67999983 19.47999954 -0.43000001 197 47 133 0.000000 0.000000 0.000000 0.000000 -60.708740 0.000000 134.000000 0.442206 0.622425 -0.645787
-6.69999981 19.50000000 -0.41000000 197 47 133 0.000000 0.000000 0.000000 0.000000 -60.708740 0.000000 134.000000 -0.318384 -0.628687 0.709495
-6.69999981 19.50000000 -0.41000000 197 47 133 0.000000 0.000000 0.000000 0.000000 -60.708740 0.000000 134.000000 -0.318384 -0.628687 0.709495
-6.67999983 19.46999931 -0.38999999 197 47 133 0.000000 0.000000 0.000000 0.000000 -60.708740 0.000000 134.000000 0.767790 0.538261 -0.347526
-6.67000008 19.46999931 -0.41999999 197 47 133 0.000000 0.000000 0.000000 0.000000 -60.708740 0.000000 134.000000 0.529740 0.654186 -0.539830
-6.67000008 19.46999931 -0.43000001 197 47 133 0.000000 0.000000 0.000000 0.000000 -60.708740 0.000000 134.000000 -0.411143 -0.569655 0.711656
-6.67999983 19.47999954 -0.44000000 197 47 133 0.000000 0.000000 0.000000 0.000000 -60.708740 0.000000 134.000000 0.609140 0.632633 -0.478251
-6.69999981 19.47999954 -0.44000000 197 47 133 0.000000 0.000000 0.000000 0.000000 -60.708740 0.000000 134.000000 0.541279 0.764253 -0.350619
-6.69000006 19.45999908 -0.44999999 197 47 133 0.000000 0.000000 0.000000 0.000000 -60.708740 0.000000 134.000000 -0.424687 -0.431146 0.796087
-6.67999983 19.44000053 -0.44999999 197 47 133 0.000000 0.000000 0.000000 0.000000 -60.708740 0.000000 134.000000 0.654905 0.560626 -0.506752
-6.71000004 19.45000076 -0.47000000 197 47 133 0.000000 0.000000 0.000000 0.000000 -60.708740 0.000000 134.000000 0.365759 0.680673 -0.634748
-6.69999981 19.44000053 -0.50000000 197 47 133 0.000000 0.000000 0.000000 0.000000 -60.708740 0.000000 134.000000 0.681103 0.611502 -0.402696
-6.75000000 19.52000046 -0.37000000 197 47 133 0.000000 0.000000 0.000000 0.000000 -60.708740 0.000000 134.000000 0.242890 -0.590770 0.769412
-6.75000000 19.52000046 -0.38999999 197 47 133 0.000000 0.000000 0.000000 0.000000 -60.708740 0.000000 134.000000 -0.175733 -0.661672 0.728909
-6.73999977 19.54000092 -0.38999999 197 47 133 0.000000 0.000000 0.000000 0.000000 -60.708740 0.000000 134.000000 0.261913 -0.636528 0.725420
-6.76000023 19.53000069 -0.36000001 197 47 133 0.000000 0.000000 0.000000 0.000000 -60.708740 0.000000 134.000000 -0.417664 0.627328 -0.657280
-6.78999996 19.52000046 -0.36000001 197 47 133 0.000000 0.000000 0.000000 0.000000 -60.708740 0.000000 134.000000 -0.483843 0.792474 -0.371322
-6.78999996 19.52000046 -0.36000001 197 47 133 0.000000 0.000000 0.000000 0.000000 -60.708740 0.000000 134.000000 -0.483843 0.792474 -0.371322
-6.76999998 19.54000092 -0.36000001 197 47 133 0.000000 0.000000 0.000000 0.000000 -60.708740 0.000000 134.000000 -0.401674 0.705822 -0.583501
-6.76999998 19.52000046 -0.37000000 197 47 133 0.000000 0.000000 0.000000 0.000000 -60.708740 0.000000 134.000000 -0.362913 0.681487 -0.635507
-6.76999998 19.52000046 -0.36000001 197 47 133 0.000000 0.000000 0.000000 0.000000 -60.708740 0.000000 134.000000 -0.363815 0.777756 -0.512575
-6.76000023 19.54999924 -0.37000000 197 47 133 0.000000 0.000000 0.000000 0.000000 -60.708740 0.000000 134.000000 0.344567 -0.548395 0.761929
-6.73000002 19.51000023 -0.38999999 197 47 133 0.000000 0.000000 0.000000 0.000000 -60.708740 0.000000 134.000000 -0.012420 -0.597522 0.801756
-6.71999979 19.48999977 -0.38999999 197 47 133 0.000000 0.000000 0.000000 0.000000 -60.708740 0.000000 134.000000 -0.191461 0.770441 -0.608082
-6.71999979 19.50000000 -0.41999999 197 47 133 0.000000 0.000000 0.000000 0.000000 -60.708740 0.000000 134.000000 0.154514 0.790572 -0.592554
-6.71999979 19.50000000 -0.41999999 197 47 133 0.000000 0.000000 0.000000 0.000000 -60.708740 0.000000 134.000000 0.154514 0.790572 -0.592554
-6.73999977 19.48999977 -0.41999999 197 47 133 0.000000 0.000000 0.000000 0.000000 -60.708740 0.000000 134.000000 -0.182813 0.854616 -0.486016
-6.75000000 19.47999954 -0.43000001 197 47 133 0.000000 0.000000 0.000000 0.000000 -60.708740 0.000000 134.000000 -0.454593 0.791089 -0.409296
-6.71999979 19.50000000 -0.41999999 197 47 133 0.000000 0.000000 0.000000 0.000000 -60.708740 0.000000 134.000000 0.154514 0.790572 -0.592554
-6.78999996 19.51000023 -0.38999999 197 47 133 0.000000 0.000000 0.000000 0.000000 -60.708740 0.000000 134.000000 -0.448641 0.692141 -0.565387
-6.76999998 19.50000000 -0.38000000 197 47 133 0.000000 0.000000 0.000000 0.000000 -60.708740 0.000000 134.000000 -0.097813 0.778120 -0.620453
-6.76999998 19.48999977 -0.41999999 197 47 133 0.000000 0.000000 0.000000 0.000000 -60.708740 0.000000 134.000000 -0.366341 0.753849 -0.545441
