//X Y Z R G B PointSourceId ScanDirectionFlag NumberOfReturns ReturnNumber GpsTime Intensity Classification Nx Ny Nz
17.78000069 12.44999981 -1.10000002 244 185 41 97.000000 1.000000 4.000000 1.000000 -60.708740 114.000000 144.000000 0.932385 0.313583 -0.179787
17.78000069 12.39000034 -1.08000004 244 185 41 97.000000 1.000000 4.000000 1.000000 -60.708740 114.000000 144.000000 0.688834 0.098405 0.718209
17.75000000 12.43999958 -1.04999995 244 185 41 97.000000 1.000000 4.000000 1.000000 -60.708740 114.000000 144.000000 -0.493662 0.310707 0.812255
17.70999908 12.89000034 -0.95999998 244 185 41 97.000000 1.000000 4.000000 1.000000 -60.708740 114.000000 144.000000 0.120343 0.018769 0.992555
17.70999908 12.89000034 -0.95999998 244 185 41 97.000000 1.000000 4.000000 1.000000 -60.708740 114.000000 144.000000 0.120343 0.018769 0.992555
17.69000053 12.89999962 -0.94999999 244 185 41 97.000000 1.000000 4.000000 1.000000 -60.708740 114.000000 144.000000 0.344341 0.400432 0.849166
17.70999908 12.88000011 -0.95999998 244 185 41 97.000000 1.000000 4.000000 1.000000 -60.708740 114.000000 144.000000 0.144543 0.014566 0.989391
17.70000076 12.85000038 -0.95999998 244 185 41 97.000000 1.000000 4.000000 1.000000 -60.708740 114.000000 144.000000 -0.007200 -0.048346 0.998805
17.70000076 12.88000011 -0.99000001 244 185 41 97.000000 1.000000 4.000000 1.000000 -60.708740 114.000000 144.000000 0.359645 0.314120 0.878626
17.69000053 12.81000042 -1.01999998 244 185 41 97.000000 1.000000 4.000000 1.000000 -60.708740 114.000000 144.000000 0.330376 0.111923 0.937190
17.70000076 12.77000046 -1.00000000 244 185 41 97.000000 1.000000 4.000000 1.000000 -60.708740 114.000000 144.000000 0.004065 0.548741 0.835983
17.68000031 12.90999985 -1.09000003 244 185 41 97.000000 1.000000 4.000000 1.000000 -60.708740 114.000000 144.000000 0.711779 0.142958 0.687702
17.70000076 12.89000034 -1.12000000 244 185 41 97.000000 1.000000 4.000000 1.000000 -60.708740 114.000000 144.000000 0.643838 0.001379 0.765161
17.70999908 12.89000034 -1.16999996 244 185 41 97.000000 1.000000 4.000000 1.000000 -60.708740 114.000000 144.000000 0.988091 0.146427 0.047272
17.68000031 12.88000011 -1.03999996 244 185 41 97.000000 1.000000 4.000000 1.000000 -60.708740 114.000000 144.000000 0.017330 0.457249 0.889170
17.67000008 12.85000038 -1.02999997 244 185 41 97.000000 1.000000 4.000000 1.000000 -60.708740 114.000000 144.000000 0.360442 0.345104 0.866594
17.68000031 12.86999989 -1.07000005 244 185 41 97.000000 1.000000 4.000000 1.000000 -60.708740 114.000000 144.000000 0.372991 0.492477 0.786349
17.70999908 12.85000038 -1.11000001 244 185 41 97.000000 1.000000 4.000000 1.000000 -60.708740 114.000000 144.000000 0.906753 0.259281 0.332525
17.70999908 12.82999992 -1.07000005 244 185 41 97.000000 1.000000 4.000000 1.000000 -60.708740 114.000000 144.000000 0.497660 -0.017533 0.867195
17.69000053 12.84000015 -1.11000001 244 185 41 97.000000 1.000000 4.000000 1.000000 -60.708740 114.000000 144.000000 0.815222 0.209541 0.539913
17.68000031 12.84000015 -1.07000005 244 185 41 97.000000 1.000000 4.000000 1.000000 -60.708740 114.000000 144.000000 0.568774 0.031985 0.821872
17.70999908 12.81000042 -1.11000001 244 185 41 97.000000 1.000000 4.000000 1.000000 -60.708740 114.000000 144.000000 0.889225 0.263640 0.373862
17.68000031 12.88000011 -1.12000000 244 185 41 97.000000 1.000000 4.000000 1.000000 -60.708740 114.000000 144.000000 0.707482 0.481088 0.517710
17.68000031 12.85999966 -1.12000000 244 185 41 97.000000 1.000000 4.000000 1.000000 -60.708740 114.000000 144.000000 0.331593 0.412545 0.848441
17.70000076 12.86999989 -1.12000000 244 185 41 97.000000 1.000000 4.000000 1.000000 -60.708740 114.000000 144.000000 0.922394 0.164262 0.349583
17.69000053 12.88000011 -1.13999999 244 185 41 97.000000 1.000000 4.000000 1.000000 -60.708740 114.000000 144.000000 0.721597 0.502630 0.476088
17.70999908 12.85999966 -1.13000000 244 185 41 97.000000 1.000000 4.000000 1.000000 -60.708740 114.000000 144.000000 0.888676 0.145002 0.435006
17.70999908 12.86999989 -1.13999999 244 185 41 97.000000 1.000000 4.000000 1.000000 -60.708740 114.000000 144.000000 0.763369 0.354942 0.539707
17.70999908 12.88000011 -1.17999995 244 185 41 97.000000 1.000000 4.000000 1.000000 -60.708740 114.000000 144.000000 0.956333 0.288538 0.046620
17.70000076 12.84000015 -1.12000000 244 185 41 97.000000 1.000000 4.000000 1.000000 -60.708740 114.000000 144.000000 0.840318 0.203668 0.502380
17.69000053 12.81999969 -1.13000000 244 185 41 97.000000 1.000000 4.000000 1.000000 -60.708740 114.000000 144.000000 0.794637 0.506841 0.334163
17.70999908 12.81999969 -1.14999998 244 185 41 97.000000 1.000000 4.000000 1.000000 -60.708740 114.000000 144.000000 0.762527 0.556177 0.330482
17.70999908 12.82999992 -1.13000000 244 185 41 97.000000 1.000000 4.000000 1.000000 -60.708740 114.000000 144.000000 0.932574 0.214562 0.290290
17.70999908 12.81999969 -1.12000000 244 185 41 97.000000 1.000000 4.000000 1.000000 -60.708740 114.000000 144.000000 0.821445 0.205742 0.531882
17.70000076 12.84000015 -1.14999998 244 185 41 97.000000 1.000000 4.000000 1.000000 -60.708740 114.000000 144.000000 0.967731 0.108091 0.227627
17.70999908 12.84000015 -1.13000000 244 185 41 97.000000 1.000000 4.000000 1.000000 -60.708740 114.000000 144.000000 0.940218 0.277509 0.197432
17.70000076 12.77999973 -1.04999995 244 185 41 97.000000 1.000000 4.000000 1.000000 -60.708740 114.000000 144.000000 0.383564 0.227787 0.894982
17.70000076 12.78999996 -1.10000002 244 185 41 97.000000 1.000000 4.000000 1.000000 -60.708740 114.000000 144.000000 0.744757 0.412658 0.524453
17.70999908 12.78999996 -1.11000001 244 185 41 97.000000 1.000000 4.000000 1.000000 -60.708740 114.000000 144.000000 0.894263 0.290152 0.340742
17.70999908 12.77000046 -1.09000003 244 185 41 97.000000 1.000000 4.000000 1.000000 -60.708740 114.000000 144.000000 0.744734 0.001382 0.667359
17.70000076 12.78999996 -1.10000002 244 185 41 97.000000 1.000000 4.000000 1.000000 -60.708740 114.000000 144.000000 0.744757 0.412658 0.524453
17.70999908 12.77999973 -1.10000002 244 185 41 97.000000 1.000000 4.000000 1.000000 -60.708740 114.000000 144.000000 0.563566 0.600799 0.566951
17.70000076 12.52999973 -1.05999994 244 185 41 97.000000 1.000000 4.000000 1.000000 -60.708740 114.000000 144.000000 -0.164268 -0.062634 0.984425
17.70999908 12.52999973 -1.03999996 244 185 41 97.000000 1.000000 4.000000 1.000000 -60.708740 114.000000 144.000000 -0.148456 -0.271500 0.950920
17.70000076 12.52000046 -1.03999996 244 185 41 97.000000 1.000000 4.000000 1.000000 -60.708740 114.000000 144.000000 -0.169785 -0.122691 0.977814
17.70999908 12.50000000 -1.05999994 244 185 41 97.000000 1.000000 4.000000 1.000000 -60.708740 114.000000 144.000000 -0.531506 -0.246383 0.810430
17.65999985 12.51000023 -1.05999994 244 185 41 97.000000 1.000000 4.000000 1.000000 -60.708740 114.000000 144.000000 0.837144 0.146168 -0.527091
18.09000015 12.09000015 -0.81000000 244 185 41 97.000000 1.000000 4.000000 1.000000 -60.708740 114.000000 144.000000 0.804587 -0.023623 0.593365
18.12000084 12.06000042 -0.83999997 244 185 41 97.000000 1.000000 4.000000 1.000000 -60.708740 114.000000 144.000000 0.923443 0.051670 0.380241
18.12999916 12.02999973 -0.85000002 244 185 41 97.000000 1.000000 4.000000 1.000000 -60.708740 114.000000 144.000000 0.950976 0.207560 0.229265
18.12999916 11.97999954 -0.83999997 244 185 41 97.000000 1.000000 4.000000 1.000000 -60.708740 114.000000 144.000000 0.952852 0.203509 0.225072
18.07999992 12.02000046 -0.81999999 244 185 41 97.000000 1.000000 4.000000 1.000000 -60.708740 114.000000 144.000000 0.844129 0.259850 0.468961
18.12999916 11.92000008 -0.85000002 244 185 41 97.000000 1.000000 4.000000 1.000000 -60.708740 114.000000 144.000000 0.906550 0.323663 0.270940
18.10000038 11.92000008 -0.81999999 244 185 41 97.000000 1.000000 4.000000 1.000000 -60.708740 114.000000 144.000000 0.859078 0.277171 0.430304
18.05999947 11.90999985 -0.80000001 244 185 41 97.000000 1.000000 4.000000 1.000000 -60.708740 114.000000 144.000000 0.588902 -0.091157 0.803048
18.13999939 11.81999969 -0.83999997 244 185 41 97.000000 1.000000 4.000000 1.000000 -60.708740 114.000000 144.000000 0.680147 0.600325 0.420726
18.10000038 11.84000015 -0.81000000 244 185 41 97.000000 1.000000 4.000000 1.000000 -60.708740 114.000000 144.000000 0.721412 -0.061918 0.689733
18.09000015 11.80000019 -0.81000000 244 185 41 97.000000 1.000000 4.000000 1.000000 -60.708740 114.000000 144.000000 0.795403 0.257842 0.548500
18.07999992 11.86999989 -0.80000001 244 185 41 97.000000 1.000000 4.000000 1.000000 -60.708740 114.000000 144.000000 0.753919 0.236677 0.612853
18.07999992 11.86999989 -0.81000000 244 185 41 97.000000 1.000000 4.000000 1.000000 -60.708740 114.000000 144.000000 0.634839 0.516965 0.574218
18.07999992 11.81000042 -0.81000000 244 185 41 97.000000 1.000000 4.000000 1.000000 -60.708740 114.000000 144.000000 0.698427 0.429674 0.572346
18.14999962 11.77999973 -0.87000000 244 185 41 97.000000 1.000000 4.000000 1.000000 -60.708740 114.000000 144.000000 0.706721 0.655900 0.265219
18.03000069 12.31000042 -0.79000002 244 185 41 97.000000 1.000000 4.000000 1.000000 -60.708740 114.000000 144.000000 0.477986 0.524619 0.704488
18.00000000 12.38000011 -0.79000002 244 185 41 97.000000 1.000000 4.000000 1.000000 -60.708740 114.000000 144.000000 0.820182 0.327124 0.469352
18.00000000 12.36999989 -0.77999997 244 185 41 97.000000 1.000000 4.000000 1.000000 -60.708740 114.000000 144.000000 0.718999 0.159609 0.676436
17.97999954 12.35999966 -0.79000002 244 185 41 97.000000 1.000000 4.000000 1.000000 -60.708740 114.000000 144.000000 0.544191 0.308002 0.780379
17.98999977 12.32999992 -0.77999997 244 185 41 97.000000 1.000000 4.000000 1.000000 -60.708740 114.000000 144.000000 0.776877 0.263161 0.572021
18.01000023 12.28999996 -0.76999998 244 185 41 97.000000 1.000000 4.000000 1.000000 -60.708740 114.000000 144.000000 0.663758 0.311692 0.679907
18.02000046 12.27999973 -0.76999998 244 185 41 97.000000 1.000000 4.000000 1.000000 -60.708740 114.000000 144.000000 0.602193 0.387713 0.697884
17.96999931 12.27999973 -0.74000001 244 185 41 97.000000 1.000000 4.000000 1.000000 -60.708740 114.000000 144.000000 0.501247 0.544834 0.672241
17.98999977 12.27000046 -0.79000002 244 185 41 97.000000 1.000000 4.000000 1.000000 -60.708740 114.000000 144.000000 0.788763 0.269219 0.552607
18.00000000 12.26000023 -0.79000002 244 185 41 97.000000 1.000000 4.000000 1.000000 -60.708740 114.000000 144.000000 0.421584 0.510166 0.749665
17.98999977 12.22000027 -0.77999997 244 185 41 97.000000 1.000000 4.000000 1.000000 -60.708740 114.000000 144.000000 0.532843 0.247003 0.809362
17.98999977 12.22000027 -0.77999997 244 185 41 97.000000 1.000000 4.000000 1.000000 -60.708740 114.000000 144.000000 0.532843 0.247003 0.809362
18.00000000 12.22000027 -0.79000002 244 185 41 97.000000 1.000000 4.000000 1.000000 -60.708740 114.000000 144.000000 0.702525 0.365182 0.610820
17.89999962 12.38000011 -0.83999997 244 185 41 97.000000 1.000000 4.000000 1.000000 -60.708740 114.000000 144.000000 0.126482 0.333204 0.934332
17.88999939 12.38000011 -0.82999998 244 185 41 97.000000 1.000000 4.000000 1.000000 -60.708740 114.000000 144.000000 0.302039 0.510777 0.804909
17.90999985 12.30000019 -0.81999999 244 185 41 97.000000 1.000000 4.000000 1.000000 -60.708740 114.000000 144.000000 0.219652 0.646494 0.730616
17.95000076 12.27999973 -0.79000002 244 185 41 97.000000 1.000000 4.000000 1.000000 -60.708740 114.000000 144.000000 0.404484 -0.038459 0.913736
17.95999908 12.22999954 -0.79000002 244 185 41 97.000000 1.000000 4.000000 1.000000 -60.708740 114.000000 144.000000 0.354003 0.048333 0.933994
17.95999908 12.22000027 -0.79000002 244 185 41 97.000000 1.000000 4.000000 1.000000 -60.708740 114.000000 144.000000 0.042986 0.533864 0.844477
17.95999908 12.22000027 -0.79000002 244 185 41 97.000000 1.000000 4.000000 1.000000 -60.708740 114.000000 144.000000 0.042986 0.533864 0.844477
17.88999939 12.26000023 -0.80000001 244 185 41 97.000000 1.000000 4.000000 1.000000 -60.708740 114.000000 144.000000 0.249582 -0.018086 0.968185
17.88999939 12.28999996 -0.80000001 244 185 41 97.000000 1.000000 4.000000 1.000000 -60.708740 114.000000 144.000000 0.121389 -0.025614 0.992274
17.88999939 12.22999954 -0.81000000 244 185 41 97.000000 1.000000 4.000000 1.000000 -60.708740 114.000000 144.000000 0.045425 -0.036973 0.998283
17.87999916 12.22000027 -0.83999997 244 185 41 97.000000 1.000000 4.000000 1.000000 -60.708740 114.000000 144.000000 0.433234 -0.075644 0.898101
17.87999916 12.27000046 -0.86000001 244 185 41 97.000000 1.000000 4.000000 1.000000 -60.708740 114.000000 144.000000 -0.076024 0.287344 0.954806
17.97999954 12.21000004 -0.76999998 244 185 41 97.000000 1.000000 4.000000 1.000000 -60.708740 114.000000 144.000000 0.422899 0.329269 0.844238
18.01000023 12.18000031 -0.77999997 244 185 41 97.000000 1.000000 4.000000 1.000000 -60.708740 114.000000 144.000000 0.540303 0.075160 0.838107
17.93000031 12.19999981 -0.79000002 244 185 41 97.000000 1.000000 4.000000 1.000000 -60.708740 114.000000 144.000000 0.385659 0.472795 0.792295
17.95999908 12.18999958 -0.79000002 244 185 41 97.000000 1.000000 4.000000 1.000000 -60.708740 114.000000 144.000000 0.278457 0.490023 0.826038
17.87999916 12.14000034 -0.83999997 244 185 41 97.000000 1.000000 4.000000 1.000000 -60.708740 114.000000 144.000000 -0.168596 -0.093395 0.981251
17.87999916 12.14000034 -0.83999997 244 185 41 97.000000 1.000000 4.000000 1.000000 -60.708740 114.000000 144.000000 -0.168596 -0.093395 0.981251
17.95999908 12.09000015 -0.80000001 244 185 41 97.000000 1.000000 4.000000 1.000000 -60.708740 114.000000 144.000000 0.365472 0.101897 0.925228
17.95999908 12.09000015 -0.80000001 244 185 41 97.000000 1.000000 4.000000 1.000000 -60.708740 114.000000 144.000000 0.365472 0.101897 0.925228
17.95000076 12.11999989 -0.79000002 244 185 41 97.000000 1.000000 4.000000 1.000000 -60.708740 114.000000 144.000000 0.413758 0.254273 0.874157
17.90999985 12.13000011 -0.80000001 244 185 41 97.000000 1.000000 4.000000 1.000000 -60.708740 114.000000 144.000000 0.500795 0.170894 0.848528
17.90999985 12.11999989 -0.79000002 244 185 41 97.000000 1.000000 4.000000 1.000000 -60.708740 114.000000 144.000000 0.075723 0.349387 0.933914
17.92000008 12.11999989 -0.80000001 244 185 41 97.000000 1.000000 4.000000 1.000000 -60.708740 114.000000 144.000000 0.248125 0.350899 0.902942
17.92000008 12.11999989 -0.80000001 244 185 41 97.000000 1.000000 4.000000 1.000000 -60.708740 114.000000 144.000000 0.248125 0.350899 0.902942
17.87999916 12.10999966 -0.82999998 244 185 41 97.000000 1.000000 4.000000 1.000000 -60.708740 114.000000 144.000000 -0.069570 0.261838 0.962601
17.87999916 12.10999966 -0.82999998 244 185 41 97.000000 1.000000 4.000000 1.000000 -60.708740 114.000000 144.000000 -0.069570 0.261838 0.962601
17.89999962 12.07999992 -0.81000000 244 185 41 97.000000 1.000000 4.000000 1.000000 -60.708740 114.000000 144.000000 0.212751 0.178394 0.960683
17.88999939 12.06000042 -0.83999997 244 185 41 97.000000 1.000000 4.000000 1.000000 -60.708740 114.000000 144.000000 -0.232391 0.333430 0.913684
17.88999939 12.06999969 -0.85000002 244 185 41 97.000000 1.000000 4.000000 1.000000 -60.708740 114.000000 144.000000 -0.077800 0.211170 0.974348
17.84000015 12.36999989 -0.83999997 244 185 41 97.000000 1.000000 4.000000 1.000000 -60.708740 114.000000 144.000000 0.325263 0.396174 0.858633
17.84000015 12.26000023 -0.85000002 244 185 41 97.000000 1.000000 4.000000 1.000000 -60.708740 114.000000 144.000000 -0.284831 0.239485 0.928180
17.84000015 12.26000023 -0.85000002 244 185 41 97.000000 1.000000 4.000000 1.000000 -60.708740 114.000000 144.000000 -0.284831 0.239485 0.928180
17.87000084 12.26000023 -0.85000002 244 185 41 97.000000 1.000000 4.000000 1.000000 -60.708740 114.000000 144.000000 0.084270 0.538473 0.838418
17.80999947 12.38000011 -0.94000000 244 185 41 97.000000 1.000000 4.000000 1.000000 -60.708740 114.000000 144.000000 0.150676 0.170934 0.973693
17.82999992 12.30000019 -0.86000001 244 185 41 97.000000 1.000000 4.000000 1.000000 -60.708740 114.000000 144.000000 -0.059638 0.280427 0.958021
17.80999947 12.31000042 -0.89999998 244 185 41 97.000000 1.000000 4.000000 1.000000 -60.708740 114.000000 144.000000 -0.277163 0.436417 0.855991
17.79999924 12.35999966 -0.95999998 244 185 41 97.000000 1.000000 4.000000 1.000000 -60.708740 114.000000 144.000000 -0.074197 0.488578 0.869360
17.79999924 12.38000011 -1.00999999 244 185 41 97.000000 1.000000 4.000000 1.000000 -60.708740 114.000000 144.000000 0.245898 0.360749 0.899664
17.81999969 12.26000023 -0.88999999 244 185 41 97.000000 1.000000 4.000000 1.000000 -60.708740 114.000000 144.000000 -0.357949 0.122059 0.925729
17.82999992 12.28999996 -0.86000001 244 185 41 97.000000 1.000000 4.000000 1.000000 -60.708740 114.000000 144.000000 -0.028888 0.532372 0.846017
17.79999924 12.22999954 -1.00000000 244 185 41 97.000000 1.000000 4.000000 1.000000 -60.708740 114.000000 144.000000 -0.358190 0.186944 0.914741
17.79000092 12.36999989 -0.91000003 244 185 41 97.000000 1.000000 4.000000 1.000000 -60.708740 114.000000 144.000000 -0.265699 0.456143 0.849316
17.79000092 12.35999966 -0.95999998 244 185 41 97.000000 1.000000 4.000000 1.000000 -60.708740 114.000000 144.000000 0.137633 0.557930 0.818396
17.79000092 12.35999966 -0.95999998 244 185 41 97.000000 1.000000 4.000000 1.000000 -60.708740 114.000000 144.000000 0.137633 0.557930 0.818396
17.79000092 12.35999966 -0.95999998 244 185 41 97.000000 1.000000 4.000000 1.000000 -60.708740 114.000000 144.000000 0.137633 0.557930 0.818396
17.78000069 12.38000011 -1.00999999 244 185 41 97.000000 1.000000 4.000000 1.000000 -60.708740 114.000000 144.000000 0.327519 0.288987 0.899565
17.78000069 12.38000011 -1.00999999 244 185 41 97.000000 1.000000 4.000000 1.000000 -60.708740 114.000000 144.000000 0.327519 0.288987 0.899565
17.79000092 12.38000011 -1.00999999 244 185 41 97.000000 1.000000 4.000000 1.000000 -60.708740 114.000000 144.000000 0.416632 0.432718 0.799483
17.78000069 12.35000038 -1.00999999 244 185 41 97.000000 1.000000 4.000000 1.000000 -60.708740 114.000000 144.000000 -0.230061 0.257947 0.938369
17.75000000 12.32999992 -1.01999998 244 185 41 97.000000 1.000000 4.000000 1.000000 -60.708740 114.000000 144.000000 0.640633 0.297035 -0.708068
17.78000069 12.28999996 -1.01999998 244 185 41 97.000000 1.000000 4.000000 1.000000 -60.708740 114.000000 144.000000 -0.584971 -0.148113 0.797416
17.78000069 12.26000023 -1.00999999 244 185 41 97.000000 1.000000 4.000000 1.000000 -60.708740 114.000000 144.000000 -0.431562 0.236081 0.870643
17.78000069 12.22999954 -0.99000001 244 185 41 97.000000 1.000000 4.000000 1.000000 -60.708740 114.000000 144.000000 -0.443515 0.006580 0.896243
17.87000084 12.18000031 -0.85000002 244 185 41 97.000000 1.000000 4.000000 1.000000 -60.708740 114.000000 144.000000 0.174469 0.289865 0.941031
17.86000061 12.10999966 -0.81999999 244 185 41 97.000000 1.000000 4.000000 1.000000 -60.708740 114.000000 144.000000 0.315201 0.297443 0.901208
17.87000084 12.10999966 -0.85000002 244 185 41 97.000000 1.000000 4.000000 1.000000 -60.708740 114.000000 144.000000 -0.272903 -0.139780 0.951833
17.87000084 12.13000011 -0.82999998 244 185 41 97.000000 1.000000 4.000000 1.000000 -60.708740 114.000000 144.000000 -0.209556 0.137561 0.968072
17.86000061 12.14000034 -0.86000001 244 185 41 97.000000 1.000000 4.000000 1.000000 -60.708740 114.000000 144.000000 -0.271226 0.128336 0.953922
17.84000015 12.15999985 -0.87000000 244 185 41 97.000000 1.000000 4.000000 1.000000 -60.708740 114.000000 144.000000 -0.376355 0.373232 0.847971
17.81999969 12.21000004 -0.92000002 244 185 41 97.000000 1.000000 4.000000 1.000000 -60.708740 114.000000 144.000000 -0.490324 -0.022963 0.871237
17.79999924 12.18999958 -0.94000000 244 185 41 97.000000 1.000000 4.000000 1.000000 -60.708740 114.000000 144.000000 -0.459958 0.339831 0.820337
17.82999992 12.15999985 -0.87000000 244 185 41 97.000000 1.000000 4.000000 1.000000 -60.708740 114.000000 144.000000 -0.382591 0.285809 0.878599
17.82999992 12.14999962 -0.87000000 244 185 41 97.000000 1.000000 4.000000 1.000000 -60.708740 114.000000 144.000000 -0.049702 -0.144482 0.988258
17.82999992 12.17000008 -0.88000000 244 185 41 97.000000 1.000000 4.000000 1.000000 -60.708740 114.000000 144.000000 -0.399211 0.405573 0.822278
17.81999969 12.17000008 -0.88000000 244 185 41 97.000000 1.000000 4.000000 1.000000 -60.708740 114.000000 144.000000 -0.330166 0.502427 0.799098
17.82999992 12.14999962 -0.87000000 244 185 41 97.000000 1.000000 4.000000 1.000000 -60.708740 114.000000 144.000000 -0.049702 -0.144482 0.988258
17.81999969 12.14000034 -0.87000000 244 185 41 97.000000 1.000000 4.000000 1.000000 -60.708740 114.000000 144.000000 -0.455389 -0.105741 0.883991
17.82999992 12.17000008 -0.88000000 244 185 41 97.000000 1.000000 4.000000 1.000000 -60.708740 114.000000 144.000000 -0.399211 0.405573 0.822278
17.79999924 12.18999958 -0.95999998 244 185 41 97.000000 1.000000 4.000000 1.000000 -60.708740 114.000000 144.000000 -0.512744 0.060076 0.856437
17.79999924 12.14000034 -0.97000003 244 185 41 97.000000 1.000000 4.000000 1.000000 -60.708740 114.000000 144.000000 0.801999 -0.170670 -0.572425
17.80999947 12.14999962 -0.99000001 244 185 41 97.000000 1.000000 4.000000 1.000000 -60.708740 114.000000 144.000000 0.785206 0.258601 -0.562652
17.79999924 12.14999962 -1.01999998 244 185 41 97.000000 1.000000 4.000000 1.000000 -60.708740 114.000000 144.000000 0.891128 -0.241687 -0.384030
17.79999924 12.14999962 -1.01999998 244 185 41 97.000000 1.000000 4.000000 1.000000 -60.708740 114.000000 144.000000 0.891128 -0.241687 -0.384030
17.79999924 12.14000034 -1.00999999 244 185 41 97.000000 1.000000 4.000000 1.000000 -60.708740 114.000000 144.000000 0.950441 -0.117977 -0.287651
17.86000061 12.11999989 -0.86000001 244 185 41 97.000000 1.000000 4.000000 1.000000 -60.708740 114.000000 144.000000 -0.295434 0.087199 0.951375
17.84000015 12.11999989 -0.86000001 244 185 41 97.000000 1.000000 4.000000 1.000000 -60.708740 114.000000 144.000000 -0.419085 -0.072350 0.905060
17.87000084 12.06000042 -0.87000000 244 185 41 97.000000 1.000000 4.000000 1.000000 -60.708740 114.000000 144.000000 0.060301 0.525879 0.848419
17.86000061 12.06000042 -0.87000000 244 185 41 97.000000 1.000000 4.000000 1.000000 -60.708740 114.000000 144.000000 0.052675 0.430857 0.900882
17.87000084 12.06000042 -0.87000000 244 185 41 97.000000 1.000000 4.000000 1.000000 -60.708740 114.000000 144.000000 0.060301 0.525879 0.848419
17.80999947 12.13000011 -0.89999998 244 185 41 97.000000 1.000000 4.000000 1.000000 -60.708740 114.000000 144.000000 -0.505023 0.095314 0.857827
17.81999969 12.10000038 -0.93000001 244 185 41 97.000000 1.000000 4.000000 1.000000 -60.708740 114.000000 144.000000 -0.496507 -0.160591 0.853048
17.81999969 12.09000015 -0.91000003 244 185 41 97.000000 1.000000 4.000000 1.000000 -60.708740 114.000000 144.000000 -0.582978 0.109582 0.805064
17.82999992 12.06999969 -0.86000001 244 185 41 97.000000 1.000000 4.000000 1.000000 -60.708740 114.000000 144.000000 -0.084249 0.429531 0.899114
17.82999992 12.06000042 -0.93000001 244 185 41 97.000000 1.000000 4.000000 1.000000 -60.708740 114.000000 144.000000 0.692358 0.156046 -0.704478
17.81999969 12.06999969 -0.91000003 244 185 41 97.000000 1.000000 4.000000 1.000000 -60.708740 114.000000 144.000000 -0.522045 -0.320890 0.790252
17.79999924 12.06000042 -0.94000000 244 185 41 97.000000 1.000000 4.000000 1.000000 -60.708740 114.000000 144.000000 -0.671885 -0.061865 0.738067
17.79999924 12.06000042 -0.94000000 244 185 41 97.000000 1.000000 4.000000 1.000000 -60.708740 114.000000 144.000000 -0.671885 -0.061865 0.738067
17.81999969 12.06999969 -0.93000001 244 185 41 97.000000 1.000000 4.000000 1.000000 -60.708740 114.000000 144.000000 -0.200800 -0.227753 0.952789
17.80999947 12.13000011 -1.00000000 244 185 41 97.000000 1.000000 4.000000 1.000000 -60.708740 114.000000 144.000000 -0.623749 -0.049729 0.780041
17.79999924 12.10999966 -1.01999998 244 185 41 97.000000 1.000000 4.000000 1.000000 -60.708740 114.000000 144.000000 0.933691 0.214175 -0.286967
17.79999924 12.11999989 -1.01999998 244 185 41 97.000000 1.000000 4.000000 1.000000 -60.708740 114.000000 144.000000 0.954837 0.296923 -0.011088
17.79999924 12.13000011 -1.00000000 244 185 41 97.000000 1.000000 4.000000 1.000000 -60.708740 114.000000 144.000000 0.730233 0.325448 -0.600702
17.81999969 12.05000019 -1.01999998 244 185 41 97.000000 1.000000 4.000000 1.000000 -60.708740 114.000000 144.000000 0.991743 0.127431 -0.014405
17.79999924 12.06999969 -1.00000000 244 185 41 97.000000 1.000000 4.000000 1.000000 -60.708740 114.000000 144.000000 0.861529 0.169360 -0.478627
17.81999969 12.05000019 -1.01999998 244 185 41 97.000000 1.000000 4.000000 1.000000 -60.708740 114.000000 144.000000 0.991743 0.127431 -0.014405
17.79000092 12.19999981 -0.94000000 244 185 41 97.000000 1.000000 4.000000 1.000000 -60.708740 114.000000 144.000000 -0.243440 0.160963 0.956466
17.79000092 12.18999958 -0.94000000 244 185 41 97.000000 1.000000 4.000000 1.000000 -60.708740 114.000000 144.000000 -0.524571 -0.229212 0.819931
17.79000092 12.19999981 -0.95999998 244 185 41 97.000000 1.000000 4.000000 1.000000 -60.708740 114.000000 144.000000 -0.652286 -0.095278 0.751961
17.78000069 12.18000031 -1.00999999 244 185 41 97.000000 1.000000 4.000000 1.000000 -60.708740 114.000000 144.000000 0.709203 0.332693 -0.621567
17.79000092 12.17000008 -0.95999998 244 185 41 97.000000 1.000000 4.000000 1.000000 -60.708740 114.000000 144.000000 -0.689222 -0.223489 0.689222
17.79000092 12.15999985 -0.95999998 244 185 41 97.000000 1.000000 4.000000 1.000000 -60.708740 114.000000 144.000000 0.790035 0.012452 -0.612935
17.78000069 12.15999985 -0.97000003 244 185 41 97.000000 1.000000 4.000000 1.000000 -60.708740 114.000000 144.000000 -0.489226 -0.017520 0.871981
17.78000069 12.06999969 -0.94000000 244 185 41 97.000000 1.000000 4.000000 1.000000 -60.708740 114.000000 144.000000 -0.405757 -0.035685 0.913284
17.79000092 12.10000038 -0.98000002 244 185 41 97.000000 1.000000 4.000000 1.000000 -60.708740 114.000000 144.000000 0.640705 0.402303 -0.653949
17.78000069 12.07999992 -1.01999998 244 185 41 97.000000 1.000000 4.000000 1.000000 -60.708740 114.000000 144.000000 0.842582 0.322393 -0.431414
17.79000092 12.10999966 -0.97000003 244 185 41 97.000000 1.000000 4.000000 1.000000 -60.708740 114.000000 144.000000 0.799923 0.373511 -0.469694
17.79000092 12.05000019 -1.01999998 244 185 41 97.000000 1.000000 4.000000 1.000000 -60.708740 114.000000 144.000000 0.973672 0.219229 0.062462
17.81999969 12.31000042 -1.17999995 244 185 41 97.000000 1.000000 4.000000 1.000000 -60.708740 114.000000 144.000000 -0.027793 0.116732 0.992774
17.80999947 12.30000019 -1.16999996 244 185 41 97.000000 1.000000 4.000000 1.000000 -60.708740 114.000000 144.000000 0.052803 0.318104 0.946584
17.79999924 12.22999954 -1.07000005 244 185 41 97.000000 1.000000 4.000000 1.000000 -60.708740 114.000000 144.000000 0.836742 0.297612 0.459663
17.79999924 12.25000000 -1.07000005 244 185 41 97.000000 1.000000 4.000000 1.000000 -60.708740 114.000000 144.000000 0.686113 0.666831 0.290835
17.79999924 12.27999973 -1.16999996 244 185 41 97.000000 1.000000 4.000000 1.000000 -60.708740 114.000000 144.000000 -0.082382 0.307296 0.948041
17.78000069 12.38000011 -1.05999994 244 185 41 97.000000 1.000000 4.000000 1.000000 -60.708740 114.000000 144.000000 0.254117 0.448889 0.856693
17.78000069 12.38000011 -1.05999994 244 185 41 97.000000 1.000000 4.000000 1.000000 -60.708740 114.000000 144.000000 0.254117 0.448889 0.856693
17.78000069 12.38000011 -1.05999994 244 185 41 97.000000 1.000000 4.000000 1.000000 -60.708740 114.000000 144.000000 0.254117 0.448889 0.856693
17.77000046 12.35000038 -1.08000004 244 185 41 97.000000 1.000000 4.000000 1.000000 -60.708740 114.000000 144.000000 0.822907 0.378949 -0.423345
17.77000046 12.35000038 -1.08000004 244 185 41 97.000000 1.000000 4.000000 1.000000 -60.708740 114.000000 144.000000 0.822907 0.378949 -0.423345
17.77000046 12.31999969 -1.08000004 244 185 41 97.000000 1.000000 4.000000 1.000000 -60.708740 114.000000 144.000000 0.923771 0.341669 -0.172943
17.79000092 12.32999992 -1.08000004 244 185 41 97.000000 1.000000 4.000000 1.000000 -60.708740 114.000000 144.000000 0.851335 0.501391 -0.154387
17.77000046 12.30000019 -1.08000004 244 185 41 97.000000 1.000000 4.000000 1.000000 -60.708740 114.000000 144.000000 0.973365 0.224810 -0.044962
17.79000092 12.30000019 -1.08000004 244 185 41 97.000000 1.000000 4.000000 1.000000 -60.708740 114.000000 144.000000 0.967160 0.198093 0.159251
17.77000046 12.34000015 -1.08000004 244 185 41 97.000000 1.000000 4.000000 1.000000 -60.708740 114.000000 144.000000 0.985164 -0.089344 -0.146524
17.72999954 12.35999966 -1.08000004 244 185 41 97.000000 1.000000 4.000000 1.000000 -60.708740 114.000000 144.000000 0.986198 -0.105877 -0.127290
17.73999977 12.30000019 -1.11000001 244 185 41 97.000000 1.000000 4.000000 1.000000 -60.708740 114.000000 144.000000 0.589819 0.420350 0.689507
17.73999977 12.30000019 -1.11000001 244 185 41 97.000000 1.000000 4.000000 1.000000 -60.708740 114.000000 144.000000 0.589819 0.420350 0.689507
17.79000092 12.32999992 -1.13999999 244 185 41 97.000000 1.000000 4.000000 1.000000 -60.708740 114.000000 144.000000 -0.160743 -0.215631 0.963153
17.79000092 12.27000046 -1.05999994 244 185 41 97.000000 1.000000 4.000000 1.000000 -60.708740 114.000000 144.000000 0.946925 0.321433 -0.003723
17.79000092 12.27999973 -1.09000003 244 185 41 97.000000 1.000000 4.000000 1.000000 -60.708740 114.000000 144.000000 0.525288 0.623251 0.579337
17.79000092 12.27000046 -1.07000005 244 185 41 97.000000 1.000000 4.000000 1.000000 -60.708740 114.000000 144.000000 0.981413 0.113381 -0.154832
17.71999931 12.27999973 -1.09000003 244 185 41 97.000000 1.000000 4.000000 1.000000 -60.708740 114.000000 144.000000 0.844633 0.354403 0.401240
17.77000046 12.27000046 -1.16999996 244 185 41 97.000000 1.000000 4.000000 1.000000 -60.708740 114.000000 144.000000 0.159265 0.325455 0.932048
17.77000046 12.28999996 -1.16999996 244 185 41 97.000000 1.000000 4.000000 1.000000 -60.708740 114.000000 144.000000 -0.076229 0.367772 0.926786
17.76000023 12.28999996 -1.16999996 244 185 41 97.000000 1.000000 4.000000 1.000000 -60.708740 114.000000 144.000000 0.163970 0.243955 0.955824
17.79000092 12.25000000 -1.14999998 244 185 41 97.000000 1.000000 4.000000 1.000000 -60.708740 114.000000 144.000000 0.057472 0.531263 0.845255
17.72999954 12.27000046 -1.13999999 244 185 41 97.000000 1.000000 4.000000 1.000000 -60.708740 114.000000 144.000000 0.867574 0.354707 0.348565
17.75000000 12.26000023 -1.14999998 244 185 41 97.000000 1.000000 4.000000 1.000000 -60.708740 114.000000 144.000000 0.160826 0.494282 0.854296
17.73999977 12.27999973 -1.15999997 244 185 41 97.000000 1.000000 4.000000 1.000000 -60.708740 114.000000 144.000000 0.782522 0.339040 0.522217
17.75000000 12.28999996 -1.16999996 244 185 41 97.000000 1.000000 4.000000 1.000000 -60.708740 114.000000 144.000000 0.355295 0.034884 0.934103
17.73999977 12.27999973 -1.15999997 244 185 41 97.000000 1.000000 4.000000 1.000000 -60.708740 114.000000 144.000000 0.782522 0.339040 0.522217
17.73999977 12.27999973 -1.15999997 244 185 41 97.000000 1.000000 4.000000 1.000000 -60.708740 114.000000 144.000000 0.782522 0.339040 0.522217
17.73999977 12.25000000 -1.13000000 244 185 41 97.000000 1.000000 4.000000 1.000000 -60.708740 114.000000 144.000000 0.870871 0.062503 0.487521
17.75000000 12.25000000 -1.13000000 244 185 41 97.000000 1.000000 4.000000 1.000000 -60.708740 114.000000 144.000000 0.548658 0.413553 0.726601
17.79999924 12.18999958 -1.04999995 244 185 41 97.000000 1.000000 4.000000 1.000000 -60.708740 114.000000 144.000000 0.971124 0.219286 -0.093980
17.81999969 12.18000031 -1.05999994 244 185 41 97.000000 1.000000 4.000000 1.000000 -60.708740 114.000000 144.000000 0.663451 0.569393 0.485411
17.79999924 12.19999981 -1.03999996 244 185 41 97.000000 1.000000 4.000000 1.000000 -60.708740 114.000000 144.000000 0.996990 0.007401 -0.077179
17.79999924 12.18000031 -1.08000004 244 185 41 97.000000 1.000000 4.000000 1.000000 -60.708740 114.000000 144.000000 0.832692 0.031867 0.552819
17.79999924 12.14000034 -1.02999997 244 185 41 97.000000 1.000000 4.000000 1.000000 -60.708740 114.000000 144.000000 0.915502 0.135578 -0.378780
17.79999924 12.15999985 -1.08000004 244 185 41 97.000000 1.000000 4.000000 1.000000 -60.708740 114.000000 144.000000 0.524935 0.139689 0.839602
17.79999924 12.14999962 -1.07000005 244 185 41 97.000000 1.000000 4.000000 1.000000 -60.708740 114.000000 144.000000 0.619586 0.481900 0.619586
17.79999924 12.15999985 -1.07000005 244 185 41 97.000000 1.000000 4.000000 1.000000 -60.708740 114.000000 144.000000 0.753311 0.159150 0.638117
17.86000061 12.06999969 -1.11000001 244 185 41 97.000000 1.000000 4.000000 1.000000 -60.708740 114.000000 144.000000 0.478116 0.212663 0.852162
17.79999924 12.11999989 -1.03999996 244 185 41 97.000000 1.000000 4.000000 1.000000 -60.708740 114.000000 144.000000 0.905129 0.256722 0.338873
17.81999969 12.11999989 -1.05999994 244 185 41 97.000000 1.000000 4.000000 1.000000 -60.708740 114.000000 144.000000 0.932207 0.215125 0.291051
17.79999924 12.10000038 -1.03999996 244 185 41 97.000000 1.000000 4.000000 1.000000 -60.708740 114.000000 144.000000 0.933130 0.135653 0.332967
17.79999924 12.13000011 -1.02999997 244 185 41 97.000000 1.000000 4.000000 1.000000 -60.708740 114.000000 144.000000 0.977641 0.179214 -0.110000
17.80999947 12.13000011 -1.07000005 244 185 41 97.000000 1.000000 4.000000 1.000000 -60.708740 114.000000 144.000000 0.750195 0.369402 0.548407
17.82999992 12.07999992 -1.03999996 244 185 41 97.000000 1.000000 4.000000 1.000000 -60.708740 114.000000 144.000000 0.975145 -0.015366 0.221033
17.81999969 12.06000042 -1.02999997 244 185 41 97.000000 1.000000 4.000000 1.000000 -60.708740 114.000000 144.000000 0.863205 0.438429 -0.250314
17.82999992 12.05000019 -1.03999996 244 185 41 97.000000 1.000000 4.000000 1.000000 -60.708740 114.000000 144.000000 0.929121 0.062295 0.364491
17.81999969 12.06000042 -1.02999997 244 185 41 97.000000 1.000000 4.000000 1.000000 -60.708740 114.000000 144.000000 0.863205 0.438429 -0.250314
17.80999947 12.06999969 -1.03999996 244 185 41 97.000000 1.000000 4.000000 1.000000 -60.708740 114.000000 144.000000 0.828338 0.505609 0.241278
17.81999969 12.06000042 -1.04999995 244 185 41 97.000000 1.000000 4.000000 1.000000 -60.708740 114.000000 144.000000 0.830421 0.195126 0.521849
17.81999969 12.06000042 -1.04999995 244 185 41 97.000000 1.000000 4.000000 1.000000 -60.708740 114.000000 144.000000 0.830421 0.195126 0.521849
17.82999992 12.06999969 -1.05999994 244 185 41 97.000000 1.000000 4.000000 1.000000 -60.708740 114.000000 144.000000 0.946143 0.239617 0.217709
17.80999947 12.06999969 -1.03999996 244 185 41 97.000000 1.000000 4.000000 1.000000 -60.708740 114.000000 144.000000 0.828338 0.505609 0.241278
17.79000092 12.14000034 -1.04999995 244 185 41 97.000000 1.000000 4.000000 1.000000 -60.708740 114.000000 144.000000 0.998322 -0.053538 0.022045
17.79000092 12.14000034 -1.03999996 244 185 41 97.000000 1.000000 4.000000 1.000000 -60.708740 114.000000 144.000000 0.997995 0.047827 -0.041450
17.79000092 12.14000034 -1.04999995 244 185 41 97.000000 1.000000 4.000000 1.000000 -60.708740 114.000000 144.000000 0.998322 -0.053538 0.022045
17.79000092 12.15999985 -1.05999994 244 185 41 97.000000 1.000000 4.000000 1.000000 -60.708740 114.000000 144.000000 0.931430 0.277597 0.235324
17.75000000 12.21000004 -1.10000002 244 185 41 97.000000 1.000000 4.000000 1.000000 -60.708740 114.000000 144.000000 0.723713 0.346407 0.596860
17.73999977 12.21000004 -1.11000001 244 185 41 97.000000 1.000000 4.000000 1.000000 -60.708740 114.000000 144.000000 0.619132 0.538155 0.571896
17.77000046 12.19999981 -1.14999998 244 185 41 97.000000 1.000000 4.000000 1.000000 -60.708740 114.000000 144.000000 0.696874 0.029564 0.716584
17.79000092 12.10999966 -1.03999996 244 185 41 97.000000 1.000000 4.000000 1.000000 -60.708740 114.000000 144.000000 0.906061 0.332271 0.262011
17.79000092 12.11999989 -1.04999995 244 185 41 97.000000 1.000000 4.000000 1.000000 -60.708740 114.000000 144.000000 0.794398 0.401227 0.456013
17.79000092 12.10000038 -1.02999997 244 185 41 97.000000 1.000000 4.000000 1.000000 -60.708740 114.000000 144.000000 0.997747 0.058441 0.032939
18.00000000 11.97999954 -0.76999998 244 185 41 97.000000 1.000000 4.000000 1.000000 -60.708740 114.000000 144.000000 0.555207 0.063573 0.829279
18.00000000 12.01000023 -0.79000002 244 185 41 97.000000 1.000000 4.000000 1.000000 -60.708740 114.000000 144.000000 0.495662 0.479085 0.724429
18.00000000 12.00000000 -0.79000002 244 185 41 97.000000 1.000000 4.000000 1.000000 -60.708740 114.000000 144.000000 0.483843 0.371322 0.792474
18.00000000 12.00000000 -0.79000002 244 185 41 97.000000 1.000000 4.000000 1.000000 -60.708740 114.000000 144.000000 0.483843 0.371322 0.792474
18.01000023 11.90999985 -0.79000002 244 185 41 97.000000 1.000000 4.000000 1.000000 -60.708740 114.000000 144.000000 0.332496 0.341605 0.879064
18.01000023 11.90999985 -0.79000002 244 185 41 97.000000 1.000000 4.000000 1.000000 -60.708740 114.000000 144.000000 0.332496 0.341605 0.879064
18.04000092 11.88000011 -0.77999997 244 185 41 97.000000 1.000000 4.000000 1.000000 -60.708740 114.000000 144.000000 0.460235 -0.097114 0.882469
17.98999977 11.93000031 -0.80000001 244 185 41 97.000000 1.000000 4.000000 1.000000 -60.708740 114.000000 144.000000 0.122261 0.487607 0.864460
17.98999977 11.93000031 -0.80000001 244 185 41 97.000000 1.000000 4.000000 1.000000 -60.708740 114.000000 144.000000 0.122261 0.487607 0.864460
17.97999954 11.94999981 -0.81999999 244 185 41 97.000000 1.000000 4.000000 1.000000 -60.708740 114.000000 144.000000 0.398974 0.043741 0.915918
17.96999931 11.90999985 -0.80000001 244 185 41 97.000000 1.000000 4.000000 1.000000 -60.708740 114.000000 144.000000 -0.034673 0.342878 0.938740
17.96999931 11.90999985 -0.80000001 244 185 41 97.000000 1.000000 4.000000 1.000000 -60.708740 114.000000 144.000000 -0.034673 0.342878 0.938740
18.00000000 11.89999962 -0.77999997 244 185 41 97.000000 1.000000 4.000000 1.000000 -60.708740 114.000000 144.000000 0.487890 -0.009357 0.872855
17.93000031 12.01000023 -0.81000000 244 185 41 97.000000 1.000000 4.000000 1.000000 -60.708740 114.000000 144.000000 0.007158 -0.041927 0.999095
17.87999916 12.02000046 -0.79000002 244 185 41 97.000000 1.000000 4.000000 1.000000 -60.708740 114.000000 144.000000 -0.273672 0.372373 0.886816
17.88999939 11.97999954 -0.81000000 244 185 41 97.000000 1.000000 4.000000 1.000000 -60.708740 114.000000 144.000000 -0.166331 0.376733 0.911266
17.89999962 11.97999954 -0.81000000 244 185 41 97.000000 1.000000 4.000000 1.000000 -60.708740 114.000000 144.000000 -0.206958 -0.056883 0.976695
17.95999908 11.93999958 -0.79000002 244 185 41 97.000000 1.000000 4.000000 1.000000 -60.708740 114.000000 144.000000 0.211911 0.529016 0.821728
17.95000076 11.96000004 -0.81000000 244 185 41 97.000000 1.000000 4.000000 1.000000 -60.708740 114.000000 144.000000 -0.028247 0.264051 0.964095
17.93000031 11.92000008 -0.81000000 244 185 41 97.000000 1.000000 4.000000 1.000000 -60.708740 114.000000 144.000000 -0.056900 0.092602 0.994076
17.92000008 11.90999985 -0.81000000 244 185 41 97.000000 1.000000 4.000000 1.000000 -60.708740 114.000000 144.000000 0.009556 0.563777 0.825872
17.87999916 11.89999962 -0.82999998 244 185 41 97.000000 1.000000 4.000000 1.000000 -60.708740 114.000000 144.000000 -0.294859 0.001223 0.955540
17.90999985 11.90999985 -0.82999998 244 185 41 97.000000 1.000000 4.000000 1.000000 -60.708740 114.000000 144.000000 -0.320731 0.170779 0.931647
17.87999916 11.88000011 -0.85000002 244 185 41 97.000000 1.000000 4.000000 1.000000 -60.708740 114.000000 144.000000 -0.436081 0.011857 0.899829
17.87999916 11.90999985 -0.88999999 244 185 41 97.000000 1.000000 4.000000 1.000000 -60.708740 114.000000 144.000000 -0.159169 -0.200579 0.966661
17.89999962 11.97999954 -0.87000000 244 185 41 97.000000 1.000000 4.000000 1.000000 -60.708740 114.000000 144.000000 -0.250215 0.182589 0.950817
18.01000023 11.86999989 -0.77999997 244 185 41 97.000000 1.000000 4.000000 1.000000 -60.708740 114.000000 144.000000 0.330726 0.171643 0.927987
18.02000046 11.85999966 -0.79000002 244 185 41 97.000000 1.000000 4.000000 1.000000 -60.708740 114.000000 144.000000 0.505480 -0.025887 0.862450
17.98999977 11.84000015 -0.80000001 244 185 41 97.000000 1.000000 4.000000 1.000000 -60.708740 114.000000 144.000000 0.142660 0.001106 0.989771
18.00000000 11.85999966 -0.80000001 244 185 41 97.000000 1.000000 4.000000 1.000000 -60.708740 114.000000 144.000000 0.215667 -0.123785 0.968589
17.98999977 11.84000015 -0.80000001 244 185 41 97.000000 1.000000 4.000000 1.000000 -60.708740 114.000000 144.000000 0.142660 0.001106 0.989771
17.96999931 11.85999966 -0.82999998 244 185 41 97.000000 1.000000 4.000000 1.000000 -60.708740 114.000000 144.000000 -0.166004 0.417176 0.893536
18.00000000 11.81000042 -0.77999997 244 185 41 97.000000 1.000000 4.000000 1.000000 -60.708740 114.000000 144.000000 0.386161 -0.003849 0.922424
17.97999954 11.82999992 -0.79000002 244 185 41 97.000000 1.000000 4.000000 1.000000 -60.708740 114.000000 144.000000 0.228822 -0.013042 0.973381
17.96999931 11.81000042 -0.81999999 244 185 41 97.000000 1.000000 4.000000 1.000000 -60.708740 114.000000 144.000000 0.098148 -0.124164 0.987396
18.03000069 11.76000023 -0.81000000 244 185 41 97.000000 1.000000 4.000000 1.000000 -60.708740 114.000000 144.000000 0.304102 -0.124588 0.944457
18.03000069 11.72000027 -0.79000002 244 185 41 97.000000 1.000000 4.000000 1.000000 -60.708740 114.000000 144.000000 0.231178 0.384315 0.893789
18.04000092 11.73999977 -0.81999999 244 185 41 97.000000 1.000000 4.000000 1.000000 -60.708740 114.000000 144.000000 0.554839 0.054782 0.830152
17.96999931 11.77000046 -0.81000000 244 185 41 97.000000 1.000000 4.000000 1.000000 -60.708740 114.000000 144.000000 -0.085262 0.313502 0.945752
17.96999931 11.78999996 -0.81000000 244 185 41 97.000000 1.000000 4.000000 1.000000 -60.708740 114.000000 144.000000 0.191268 -0.001145 0.981537
17.97999954 11.78999996 -0.82999998 244 185 41 97.000000 1.000000 4.000000 1.000000 -60.708740 114.000000 144.000000 0.219803 0.185168 0.957810
17.97999954 11.76000023 -0.81999999 244 185 41 97.000000 1.000000 4.000000 1.000000 -60.708740 114.000000 144.000000 0.321775 -0.066439 0.944482
17.97999954 11.78999996 -0.82999998 244 185 41 97.000000 1.000000 4.000000 1.000000 -60.708740 114.000000 144.000000 0.219803 0.185168 0.957810
17.98999977 11.72000027 -0.81999999 244 185 41 97.000000 1.000000 4.000000 1.000000 -60.708740 114.000000 144.000000 0.303096 0.090535 0.948650
17.97999954 11.72999954 -0.81999999 244 185 41 97.000000 1.000000 4.000000 1.000000 -60.708740 114.000000 144.000000 0.302512 0.282052 0.910458
17.98999977 11.73999977 -0.81999999 244 185 41 97.000000 1.000000 4.000000 1.000000 -60.708740 114.000000 144.000000 -0.136153 -0.044622 0.989682
17.93000031 11.85999966 -0.82999998 244 185 41 97.000000 1.000000 4.000000 1.000000 -60.708740 114.000000 144.000000 0.203658 0.402921 0.892288
17.93000031 11.84000015 -0.82999998 244 185 41 97.000000 1.000000 4.000000 1.000000 -60.708740 114.000000 144.000000 -0.192465 0.164048 0.967494
17.95000076 11.84000015 -0.83999997 244 185 41 97.000000 1.000000 4.000000 1.000000 -60.708740 114.000000 144.000000 -0.353669 0.285024 0.890887
17.95000076 11.81000042 -0.80000001 244 185 41 97.000000 1.000000 4.000000 1.000000 -60.708740 114.000000 144.000000 0.017260 0.178352 0.983815
17.94000053 11.81000042 -0.79000002 244 185 41 97.000000 1.000000 4.000000 1.000000 -60.708740 114.000000 144.000000 -0.190626 0.329006 0.924888
17.95000076 11.80000019 -0.81999999 244 185 41 97.000000 1.000000 4.000000 1.000000 -60.708740 114.000000 144.000000 -0.338301 0.172660 0.925063
17.95000076 11.80000019 -0.81999999 244 185 41 97.000000 1.000000 4.000000 1.000000 -60.708740 114.000000 144.000000 -0.338301 0.172660 0.925063
17.95999908 11.80000019 -0.81999999 244 185 41 97.000000 1.000000 4.000000 1.000000 -60.708740 114.000000 144.000000 -0.173752 0.153460 0.972759
17.89999962 11.86999989 -0.83999997 244 185 41 97.000000 1.000000 4.000000 1.000000 -60.708740 114.000000 144.000000 -0.433506 0.205657 0.877370
17.90999985 11.85999966 -0.83999997 244 185 41 97.000000 1.000000 4.000000 1.000000 -60.708740 114.000000 144.000000 -0.206644 0.177688 0.962146
17.89999962 11.85000038 -0.83999997 244 185 41 97.000000 1.000000 4.000000 1.000000 -60.708740 114.000000 144.000000 -0.337271 -0.089317 0.937161
17.89999962 11.81000042 -0.85000002 244 185 41 97.000000 1.000000 4.000000 1.000000 -60.708740 114.000000 144.000000 -0.557406 -0.319665 0.766233
17.89999962 11.80000019 -0.85000002 244 185 41 97.000000 1.000000 4.000000 1.000000 -60.708740 114.000000 144.000000 -0.288951 -0.303619 0.907922
17.93000031 11.77000046 -0.81000000 244 185 41 97.000000 1.000000 4.000000 1.000000 -60.708740 114.000000 144.000000 -0.256315 0.150070 0.954872
17.95999908 11.78999996 -0.81000000 244 185 41 97.000000 1.000000 4.000000 1.000000 -60.708740 114.000000 144.000000 0.234953 -0.052895 0.970566
17.95999908 11.78999996 -0.81999999 244 185 41 97.000000 1.000000 4.000000 1.000000 -60.708740 114.000000 144.000000 0.003395 -0.168617 0.985676
17.95000076 11.77999973 -0.81999999 244 185 41 97.000000 1.000000 4.000000 1.000000 -60.708740 114.000000 144.000000 -0.253843 -0.204446 0.945392
17.95999908 11.77999973 -0.81999999 244 185 41 97.000000 1.000000 4.000000 1.000000 -60.708740 114.000000 144.000000 -0.146124 -0.042572 0.988350
17.95999908 11.77999973 -0.81999999 244 185 41 97.000000 1.000000 4.000000 1.000000 -60.708740 114.000000 144.000000 -0.146124 -0.042572 0.988350
17.95999908 11.75000000 -0.79000002 244 185 41 97.000000 1.000000 4.000000 1.000000 -60.708740 114.000000 144.000000 0.005153 -0.050502 0.998711
17.95000076 11.75000000 -0.81999999 244 185 41 97.000000 1.000000 4.000000 1.000000 -60.708740 114.000000 144.000000 -0.230328 -0.263830 0.936666
17.89999962 11.77999973 -0.85000002 244 185 41 97.000000 1.000000 4.000000 1.000000 -60.708740 114.000000 144.000000 -0.239806 0.035301 0.970179
17.88999939 11.78999996 -0.85000002 244 185 41 97.000000 1.000000 4.000000 1.000000 -60.708740 114.000000 144.000000 -0.139254 -0.144183 0.979704
17.89999962 11.77999973 -0.82999998 244 185 41 97.000000 1.000000 4.000000 1.000000 -60.708740 114.000000 144.000000 -0.219601 -0.230513 0.947966
17.87999916 11.85000038 -0.87000000 244 185 41 97.000000 1.000000 4.000000 1.000000 -60.708740 114.000000 144.000000 -0.548361 0.300406 0.780421
17.87999916 11.84000015 -0.86000001 244 185 41 97.000000 1.000000 4.000000 1.000000 -60.708740 114.000000 144.000000 -0.294167 0.079049 0.952479
17.89999962 11.84000015 -0.87000000 244 185 41 97.000000 1.000000 4.000000 1.000000 -60.708740 114.000000 144.000000 -0.055745 -0.024191 0.998152
17.93000031 11.72999954 -0.86000001 244 185 41 97.000000 1.000000 4.000000 1.000000 -60.708740 114.000000 144.000000 -0.634410 0.329374 0.699311
17.89999962 11.76000023 -0.86000001 244 185 41 97.000000 1.000000 4.000000 1.000000 -60.708740 114.000000 144.000000 -0.355581 -0.113077 0.927780
17.90999985 11.77000046 -0.86000001 244 185 41 97.000000 1.000000 4.000000 1.000000 -60.708740 114.000000 144.000000 -0.497257 0.045456 0.866412
17.92000008 11.77999973 -0.86000001 244 185 41 97.000000 1.000000 4.000000 1.000000 -60.708740 114.000000 144.000000 -0.149918 -0.016908 0.988554
17.87999916 11.77999973 -0.88999999 244 185 41 97.000000 1.000000 4.000000 1.000000 -60.708740 114.000000 144.000000 -0.475096 -0.270820 0.837222
17.87999916 11.75000000 -0.88000000 244 185 41 97.000000 1.000000 4.000000 1.000000 -60.708740 114.000000 144.000000 0.767621 0.148717 -0.623411
17.87999916 11.72999954 -0.88999999 244 185 41 97.000000 1.000000 4.000000 1.000000 -60.708740 114.000000 144.000000 -0.721653 -0.199343 0.662932
