//X Y Z R G B PointSourceId ScanDirectionFlag NumberOfReturns ReturnNumber GpsTime Intensity Classification Nx Ny Nz
0.81999999 19.45999908 -0.73000002 138 122 125 97.000000 1.000000 4.000000 1.000000 -60.708740 114.000000 105.000000 0.053962 0.979702 0.193062
0.75999999 19.46999931 -0.70999998 138 122 125 97.000000 1.000000 4.000000 1.000000 -60.708740 114.000000 105.000000 0.198383 0.945399 -0.258582
0.79000002 19.45999908 -0.72000003 138 122 125 97.000000 1.000000 4.000000 1.000000 -60.708740 114.000000 105.000000 -0.157035 0.912501 -0.377733
0.75999999 19.44000053 -0.74000001 138 122 125 97.000000 1.000000 4.000000 1.000000 -60.708740 114.000000 105.000000 0.341822 0.939696 0.011352
0.75999999 19.44000053 -0.75000000 138 122 125 97.000000 1.000000 4.000000 1.000000 -60.708740 114.000000 105.000000 0.319886 0.940921 0.111090
0.79000002 19.45000076 -0.75000000 138 122 125 97.000000 1.000000 4.000000 1.000000 -60.708740 114.000000 105.000000 -0.332891 0.922179 -0.196901
0.79000002 19.45000076 -0.74000001 138 122 125 97.000000 1.000000 4.000000 1.000000 -60.708740 114.000000 105.000000 0.068606 0.918779 -0.388766
0.75999999 19.44000053 -0.75999999 138 122 125 97.000000 1.000000 4.000000 1.000000 -60.708740 114.000000 105.000000 -0.063479 0.997970 -0.005203
0.81000000 19.50000000 -0.77999997 138 122 125 97.000000 1.000000 4.000000 1.000000 -60.708740 114.000000 105.000000 -0.052503 0.948900 0.311178
0.85000002 19.50000000 -0.89999998 138 122 125 97.000000 1.000000 4.000000 1.000000 -60.708740 114.000000 105.000000 0.842932 -0.515207 0.155005
0.80000001 19.54999924 -0.89999998 138 122 125 97.000000 1.000000 4.000000 1.000000 -60.708740 114.000000 105.000000 0.477180 0.865345 -0.153223
0.81999999 19.54000092 -0.98000002 138 122 125 97.000000 1.000000 4.000000 1.000000 -60.708740 114.000000 105.000000 -0.460432 0.876119 0.142893
0.80000001 19.55999947 -0.97000003 138 122 125 97.000000 1.000000 4.000000 1.000000 -60.708740 114.000000 105.000000 0.957659 0.033712 -0.285924
0.79000002 19.54999924 -1.01999998 138 122 125 97.000000 1.000000 4.000000 1.000000 -60.708740 114.000000 105.000000 0.751322 0.584717 -0.305975
0.79000002 19.54999924 -1.00000000 138 122 125 97.000000 1.000000 4.000000 1.000000 -60.708740 114.000000 105.000000 0.921753 0.333763 0.197417
0.79000002 19.54999924 -1.00000000 138 122 125 97.000000 1.000000 4.000000 1.000000 -60.708740 114.000000 105.000000 0.921753 0.333763 0.197417
0.83999997 19.45000076 -0.86000001 138 122 125 97.000000 1.000000 4.000000 1.000000 -60.708740 114.000000 105.000000 -0.432749 0.897297 -0.087103
0.82999998 19.44000053 -0.88000000 138 122 125 97.000000 1.000000 4.000000 1.000000 -60.708740 114.000000 105.000000 -0.436105 0.882420 0.176484
0.81999999 19.48999977 -1.00000000 138 122 125 97.000000 1.000000 4.000000 1.000000 -60.708740 114.000000 105.000000 0.059494 0.993440 -0.097660
0.81999999 19.46999931 -0.95999998 138 122 125 97.000000 1.000000 4.000000 1.000000 -60.708740 114.000000 105.000000 -0.348296 0.925551 -0.148477
0.83999997 19.48999977 -1.00999999 138 122 125 97.000000 1.000000 4.000000 1.000000 -60.708740 114.000000 105.000000 -0.403425 0.888126 -0.220184
0.74000001 19.62000084 -0.75000000 138 122 125 97.000000 1.000000 4.000000 1.000000 -60.708740 114.000000 105.000000 -0.717546 0.641178 0.272063
0.69000000 19.62999916 -0.73000002 138 122 125 97.000000 1.000000 4.000000 1.000000 -60.708740 114.000000 105.000000 0.915570 -0.383680 0.120506
0.70999998 19.62000084 -0.69999999 138 122 125 97.000000 1.000000 4.000000 1.000000 -60.708740 114.000000 105.000000 0.937111 -0.346070 -0.045365
0.69000000 19.56999969 -0.69999999 138 122 125 97.000000 1.000000 4.000000 1.000000 -60.708740 114.000000 105.000000 0.854525 0.502233 -0.132473
0.69999999 19.55999947 -0.69999999 138 122 125 97.000000 1.000000 4.000000 1.000000 -60.708740 114.000000 105.000000 0.966452 0.182912 -0.180318
0.69999999 19.56999969 -0.70999998 138 122 125 97.000000 1.000000 4.000000 1.000000 -60.708740 114.000000 105.000000 0.963176 0.117650 0.241764
0.69999999 19.56999969 -0.70999998 138 122 125 97.000000 1.000000 4.000000 1.000000 -60.708740 114.000000 105.000000 0.963176 0.117650 0.241764
0.69000000 19.57999992 -0.69999999 138 122 125 97.000000 1.000000 4.000000 1.000000 -60.708740 114.000000 105.000000 0.941511 -0.253005 0.222589
0.69000000 19.59000015 -0.70999998 138 122 125 97.000000 1.000000 4.000000 1.000000 -60.708740 114.000000 105.000000 0.915545 -0.334885 -0.222778
0.69000000 19.55999947 -0.74000001 138 122 125 97.000000 1.000000 4.000000 1.000000 -60.708740 114.000000 105.000000 0.975203 0.090457 -0.201980
0.69000000 19.52000046 -0.72000003 138 122 125 97.000000 1.000000 4.000000 1.000000 -60.708740 114.000000 105.000000 0.949627 0.194273 -0.245898
0.69000000 19.52000046 -0.72000003 138 122 125 97.000000 1.000000 4.000000 1.000000 -60.708740 114.000000 105.000000 0.949627 0.194273 -0.245898
0.69000000 19.52000046 -0.73000002 138 122 125 97.000000 1.000000 4.000000 1.000000 -60.708740 114.000000 105.000000 0.930982 0.364409 0.021890
0.68000001 19.52000046 -0.76999998 138 122 125 97.000000 1.000000 4.000000 1.000000 -60.708740 114.000000 105.000000 0.879187 0.361662 0.310212
0.69000000 19.53000069 -0.74000001 138 122 125 97.000000 1.000000 4.000000 1.000000 -60.708740 114.000000 105.000000 0.985371 0.169019 -0.021846
0.68000001 19.54000092 -0.74000001 138 122 125 97.000000 1.000000 4.000000 1.000000 -60.708740 114.000000 105.000000 0.998091 -0.026349 0.055859
0.69999999 19.56999969 -0.77999997 138 122 125 97.000000 1.000000 4.000000 1.000000 -60.708740 114.000000 105.000000 0.964294 -0.179251 0.194952
0.69000000 19.55999947 -0.82999998 138 122 125 97.000000 1.000000 4.000000 1.000000 -60.708740 114.000000 105.000000 0.940762 0.211983 0.264633
0.68000001 19.52000046 -0.81000000 138 122 125 97.000000 1.000000 4.000000 1.000000 -60.708740 114.000000 105.000000 0.973002 0.106716 0.204644
0.68000001 19.52000046 -0.81000000 138 122 125 97.000000 1.000000 4.000000 1.000000 -60.708740 114.000000 105.000000 0.973002 0.106716 0.204644
0.68000001 19.52000046 -0.83999997 138 122 125 97.000000 1.000000 4.000000 1.000000 -60.708740 114.000000 105.000000 0.819284 0.562254 0.112451
0.74000001 19.44000053 -0.72000003 138 122 125 97.000000 1.000000 4.000000 1.000000 -60.708740 114.000000 105.000000 0.681980 0.715247 -0.152727
0.74000001 19.44000053 -0.72000003 138 122 125 97.000000 1.000000 4.000000 1.000000 -60.708740 114.000000 105.000000 0.681980 0.715247 -0.152727
0.75000000 19.44000053 -0.75000000 138 122 125 97.000000 1.000000 4.000000 1.000000 -60.708740 114.000000 105.000000 0.439661 0.891964 -0.105350
0.74000001 19.44000053 -0.76999998 138 122 125 97.000000 1.000000 4.000000 1.000000 -60.708740 114.000000 105.000000 0.241095 0.970376 -0.015593
0.72000003 19.44000053 -0.75999999 138 122 125 97.000000 1.000000 4.000000 1.000000 -60.708740 114.000000 105.000000 0.440259 0.897706 -0.017187
0.74000001 19.45000076 -0.75000000 138 122 125 97.000000 1.000000 4.000000 1.000000 -60.708740 114.000000 105.000000 0.058811 0.964749 -0.256516
0.73000002 19.45000076 -0.74000001 138 122 125 97.000000 1.000000 4.000000 1.000000 -60.708740 114.000000 105.000000 0.115865 0.988952 -0.092458
0.72000003 19.45000076 -0.74000001 138 122 125 97.000000 1.000000 4.000000 1.000000 -60.708740 114.000000 105.000000 0.299604 0.910504 -0.284989
0.73000002 19.44000053 -0.76999998 138 122 125 97.000000 1.000000 4.000000 1.000000 -60.708740 114.000000 105.000000 0.045790 0.997801 -0.047920
0.75000000 19.45000076 -0.75000000 138 122 125 97.000000 1.000000 4.000000 1.000000 -60.708740 114.000000 105.000000 0.525791 0.836822 -0.152553
0.73000002 19.44000053 -0.76999998 138 122 125 97.000000 1.000000 4.000000 1.000000 -60.708740 114.000000 105.000000 0.045790 0.997801 -0.047920
0.69000000 19.51000023 -0.72000003 138 122 125 97.000000 1.000000 4.000000 1.000000 -60.708740 114.000000 105.000000 0.955747 0.293981 0.011070
0.69999999 19.47999954 -0.69999999 138 122 125 97.000000 1.000000 4.000000 1.000000 -60.708740 114.000000 105.000000 0.919289 0.391720 -0.038249
0.70999998 19.47999954 -0.70999998 138 122 125 97.000000 1.000000 4.000000 1.000000 -60.708740 114.000000 105.000000 0.796119 0.545865 -0.261202
0.70999998 19.50000000 -0.75000000 138 122 125 97.000000 1.000000 4.000000 1.000000 -60.708740 114.000000 105.000000 0.733998 0.598491 0.321023
0.68000001 19.51000023 -0.76999998 138 122 125 97.000000 1.000000 4.000000 1.000000 -60.708740 114.000000 105.000000 0.583603 0.802269 -0.125585
0.68000001 19.48999977 -0.75000000 138 122 125 97.000000 1.000000 4.000000 1.000000 -60.708740 114.000000 105.000000 0.642170 0.735463 -0.216130
0.68000001 19.47999954 -0.75999999 138 122 125 97.000000 1.000000 4.000000 1.000000 -60.708740 114.000000 105.000000 0.837609 0.476650 0.266863
0.69000000 19.45999908 -0.73000002 138 122 125 97.000000 1.000000 4.000000 1.000000 -60.708740 114.000000 105.000000 0.421787 0.845131 -0.328403
0.69000000 19.45000076 -0.75000000 138 122 125 97.000000 1.000000 4.000000 1.000000 -60.708740 114.000000 105.000000 0.711215 0.589667 -0.382709
0.69000000 19.44000053 -0.76999998 138 122 125 97.000000 1.000000 4.000000 1.000000 -60.708740 114.000000 105.000000 0.859272 0.508322 -0.057099
0.69999999 19.46999931 -0.75999999 138 122 125 97.000000 1.000000 4.000000 1.000000 -60.708740 114.000000 105.000000 0.805352 0.590967 0.046544
0.72000003 19.44000053 -0.81000000 138 122 125 97.000000 1.000000 4.000000 1.000000 -60.708740 114.000000 105.000000 0.631351 0.748668 -0.202218
0.73000002 19.44000053 -0.77999997 138 122 125 97.000000 1.000000 4.000000 1.000000 -60.708740 114.000000 105.000000 0.109784 0.990369 -0.084360
0.72000003 19.44000053 -0.80000001 138 122 125 97.000000 1.000000 4.000000 1.000000 -60.708740 114.000000 105.000000 0.534988 0.841506 -0.075210
0.73000002 19.44000053 -0.77999997 138 122 125 97.000000 1.000000 4.000000 1.000000 -60.708740 114.000000 105.000000 0.109784 0.990369 -0.084360
0.74000001 19.44000053 -0.77999997 138 122 125 97.000000 1.000000 4.000000 1.000000 -60.708740 114.000000 105.000000 0.195753 0.962998 -0.185243
0.70999998 19.47999954 -0.77999997 138 122 125 97.000000 1.000000 4.000000 1.000000 -60.708740 114.000000 105.000000 0.479602 0.860332 -0.172657
0.68000001 19.47999954 -0.80000001 138 122 125 97.000000 1.000000 4.000000 1.000000 -60.708740 114.000000 105.000000 0.960065 0.255931 -0.113025
0.69000000 19.47999954 -0.81000000 138 122 125 97.000000 1.000000 4.000000 1.000000 -60.708740 114.000000 105.000000 0.906811 0.421439 -0.009133
0.69000000 19.47999954 -0.85000002 138 122 125 97.000000 1.000000 4.000000 1.000000 -60.708740 114.000000 105.000000 0.848095 0.529549 -0.017697
0.68000001 19.51000023 -0.83999997 138 122 125 97.000000 1.000000 4.000000 1.000000 -60.708740 114.000000 105.000000 0.973166 0.223450 0.054947
0.69999999 19.45000076 -0.77999997 138 122 125 97.000000 1.000000 4.000000 1.000000 -60.708740 114.000000 105.000000 0.798639 0.579051 0.163939
0.69999999 19.45999908 -0.81000000 138 122 125 97.000000 1.000000 4.000000 1.000000 -60.708740 114.000000 105.000000 0.821671 0.520648 -0.231911
0.70999998 19.44000053 -0.79000002 138 122 125 97.000000 1.000000 4.000000 1.000000 -60.708740 114.000000 105.000000 0.475520 0.834871 0.277258
0.69999999 19.45000076 -0.80000001 138 122 125 97.000000 1.000000 4.000000 1.000000 -60.708740 114.000000 105.000000 0.608965 0.793167 -0.006873
0.70999998 19.44000053 -0.77999997 138 122 125 97.000000 1.000000 4.000000 1.000000 -60.708740 114.000000 105.000000 0.289572 0.956466 -0.036353
0.69999999 19.44000053 -0.85000002 138 122 125 97.000000 1.000000 4.000000 1.000000 -60.708740 114.000000 105.000000 0.715462 0.638634 -0.283304
0.69000000 19.46999931 -0.82999998 138 122 125 97.000000 1.000000 4.000000 1.000000 -60.708740 114.000000 105.000000 0.628303 0.777297 -0.032329
0.69999999 19.46999931 -0.81999999 138 122 125 97.000000 1.000000 4.000000 1.000000 -60.708740 114.000000 105.000000 0.842745 0.481787 -0.240129
0.69999999 19.45999908 -0.82999998 138 122 125 97.000000 1.000000 4.000000 1.000000 -60.708740 114.000000 105.000000 0.824688 0.514470 -0.234967
0.69999999 19.44000053 -0.85000002 138 122 125 97.000000 1.000000 4.000000 1.000000 -60.708740 114.000000 105.000000 0.715462 0.638634 -0.283304
0.67000002 19.54000092 -0.75000000 138 122 125 97.000000 1.000000 4.000000 1.000000 -60.708740 114.000000 105.000000 0.884082 0.459499 0.085196
0.67000002 19.55999947 -0.79000002 138 122 125 97.000000 1.000000 4.000000 1.000000 -60.708740 114.000000 105.000000 0.958330 -0.070184 0.276908
0.67000002 19.53000069 -0.81000000 138 122 125 97.000000 1.000000 4.000000 1.000000 -60.708740 114.000000 105.000000 0.993650 0.066243 -0.090944
0.64999998 19.52000046 -0.77999997 138 122 125 97.000000 1.000000 4.000000 1.000000 -60.708740 114.000000 105.000000 0.817851 0.529378 -0.225561
0.67000002 19.54000092 -0.81999999 138 122 125 97.000000 1.000000 4.000000 1.000000 -60.708740 114.000000 105.000000 0.995790 -0.062580 0.066972
0.66000003 19.50000000 -0.74000001 138 122 125 97.000000 1.000000 4.000000 1.000000 -60.708740 114.000000 105.000000 0.881367 0.472113 0.017387
0.72000003 19.57999992 -0.86000001 138 122 125 97.000000 1.000000 4.000000 1.000000 -60.708740 114.000000 105.000000 0.939001 -0.183388 0.290939
0.69000000 19.56999969 -0.89999998 138 122 125 97.000000 1.000000 4.000000 1.000000 -60.708740 114.000000 105.000000 0.953403 -0.016117 -0.301270
0.69999999 19.54999924 -0.88999999 138 122 125 97.000000 1.000000 4.000000 1.000000 -60.708740 114.000000 105.000000 0.966693 0.095272 -0.237545
0.68000001 19.52000046 -0.88000000 138 122 125 97.000000 1.000000 4.000000 1.000000 -60.708740 114.000000 105.000000 0.999807 0.018977 0.004994
0.69999999 19.54999924 -0.88999999 138 122 125 97.000000 1.000000 4.000000 1.000000 -60.708740 114.000000 105.000000 0.966693 0.095272 -0.237545
0.68000001 19.54999924 -0.94999999 138 122 125 97.000000 1.000000 4.000000 1.000000 -60.708740 114.000000 105.000000 0.954859 -0.175437 -0.239719
0.68000001 19.52000046 -1.01999998 138 122 125 97.000000 1.000000 4.000000 1.000000 -60.708740 114.000000 105.000000 0.978227 0.112539 0.174374
0.68000001 19.51000023 -0.88999999 138 122 125 97.000000 1.000000 4.000000 1.000000 -60.708740 114.000000 105.000000 0.979686 0.146645 0.136786
0.68000001 19.51000023 -0.87000000 138 122 125 97.000000 1.000000 4.000000 1.000000 -60.708740 114.000000 105.000000 0.998522 0.045054 -0.030385
0.68000001 19.50000000 -0.88000000 138 122 125 97.000000 1.000000 4.000000 1.000000 -60.708740 114.000000 105.000000 0.986956 0.155835 -0.040402
0.68000001 19.48999977 -0.86000001 138 122 125 97.000000 1.000000 4.000000 1.000000 -60.708740 114.000000 105.000000 0.983869 0.170852 -0.053023
0.68000001 19.48999977 -0.91000003 138 122 125 97.000000 1.000000 4.000000 1.000000 -60.708740 114.000000 105.000000 0.960907 0.264154 -0.082947
0.68000001 19.47999954 -0.93000001 138 122 125 97.000000 1.000000 4.000000 1.000000 -60.708740 114.000000 105.000000 0.963943 0.257638 -0.066609
0.68000001 19.48999977 -0.91000003 138 122 125 97.000000 1.000000 4.000000 1.000000 -60.708740 114.000000 105.000000 0.960907 0.264154 -0.082947
0.68000001 19.47999954 -0.93000001 138 122 125 97.000000 1.000000 4.000000 1.000000 -60.708740 114.000000 105.000000 0.963943 0.257638 -0.066609
0.69000000 19.45999908 -0.88000000 138 122 125 97.000000 1.000000 4.000000 1.000000 -60.708740 114.000000 105.000000 0.837627 0.546160 0.009534
0.68000001 19.46999931 -0.88000000 138 122 125 97.000000 1.000000 4.000000 1.000000 -60.708740 114.000000 105.000000 0.926425 0.357159 -0.119053
0.69000000 19.44000053 -0.87000000 138 122 125 97.000000 1.000000 4.000000 1.000000 -60.708740 114.000000 105.000000 0.738900 0.665158 0.107664
0.68000001 19.45999908 -0.89999998 138 122 125 97.000000 1.000000 4.000000 1.000000 -60.708740 114.000000 105.000000 0.835878 0.544523 -0.069303
0.68000001 19.46999931 -0.87000000 138 122 125 97.000000 1.000000 4.000000 1.000000 -60.708740 114.000000 105.000000 0.861865 0.474543 -0.178878
0.68000001 19.46999931 -0.87000000 138 122 125 97.000000 1.000000 4.000000 1.000000 -60.708740 114.000000 105.000000 0.861865 0.474543 -0.178878
0.70999998 19.45000076 -0.92000002 138 122 125 97.000000 1.000000 4.000000 1.000000 -60.708740 114.000000 105.000000 0.833129 0.491254 -0.254097
0.69000000 19.45000076 -0.92000002 138 122 125 97.000000 1.000000 4.000000 1.000000 -60.708740 114.000000 105.000000 0.888217 0.459331 0.009266
0.69000000 19.45000076 -0.93000001 138 122 125 97.000000 1.000000 4.000000 1.000000 -60.708740 114.000000 105.000000 0.773836 0.609643 -0.171795
0.69999999 19.45000076 -0.94000000 138 122 125 97.000000 1.000000 4.000000 1.000000 -60.708740 114.000000 105.000000 0.619243 0.716252 -0.321748
0.68000001 19.45999908 -0.93000001 138 122 125 97.000000 1.000000 4.000000 1.000000 -60.708740 114.000000 105.000000 0.933825 0.332239 -0.132622
0.68000001 19.45000076 -0.94000000 138 122 125 97.000000 1.000000 4.000000 1.000000 -60.708740 114.000000 105.000000 0.809733 0.525781 -0.260550
0.70999998 19.44000053 -0.93000001 138 122 125 97.000000 1.000000 4.000000 1.000000 -60.708740 114.000000 105.000000 0.833904 0.544970 -0.087252
0.69000000 19.45000076 -0.93000001 138 122 125 97.000000 1.000000 4.000000 1.000000 -60.708740 114.000000 105.000000 0.773836 0.609643 -0.171795
0.68000001 19.47999954 -0.98000002 138 122 125 97.000000 1.000000 4.000000 1.000000 -60.708740 114.000000 105.000000 0.973356 0.168344 -0.155686
0.68000001 19.47999954 -0.94999999 138 122 125 97.000000 1.000000 4.000000 1.000000 -60.708740 114.000000 105.000000 0.949964 0.237831 -0.202496
0.69000000 19.44000053 -0.95999998 138 122 125 97.000000 1.000000 4.000000 1.000000 -60.708740 114.000000 105.000000 0.916608 0.392832 -0.074247
0.68000001 19.44000053 -0.94999999 138 122 125 97.000000 1.000000 4.000000 1.000000 -60.708740 114.000000 105.000000 0.758419 0.597590 -0.260165
0.69000000 19.45999908 -0.94999999 138 122 125 97.000000 1.000000 4.000000 1.000000 -60.708740 114.000000 105.000000 0.933270 0.330276 -0.141155
0.69000000 19.44000053 -0.95999998 138 122 125 97.000000 1.000000 4.000000 1.000000 -60.708740 114.000000 105.000000 0.916608 0.392832 -0.074247
0.68000001 19.45000076 -0.94999999 138 122 125 97.000000 1.000000 4.000000 1.000000 -60.708740 114.000000 105.000000 0.926105 0.310593 -0.214153
0.69000000 19.44000053 -0.98000002 138 122 125 97.000000 1.000000 4.000000 1.000000 -60.708740 114.000000 105.000000 0.929276 0.368883 0.019280
0.68000001 19.45000076 -0.95999998 138 122 125 97.000000 1.000000 4.000000 1.000000 -60.708740 114.000000 105.000000 0.925476 0.362262 -0.110729
0.68000001 19.45999908 -1.00000000 138 122 125 97.000000 1.000000 4.000000 1.000000 -60.708740 114.000000 105.000000 0.856294 0.476715 -0.198756
0.68000001 19.45999908 -1.00000000 138 122 125 97.000000 1.000000 4.000000 1.000000 -60.708740 114.000000 105.000000 0.856294 0.476715 -0.198756
0.68000001 19.45999908 -0.99000001 138 122 125 97.000000 1.000000 4.000000 1.000000 -60.708740 114.000000 105.000000 0.957346 0.285568 -0.044030
0.66000003 19.53000069 -0.89999998 138 122 125 97.000000 1.000000 4.000000 1.000000 -60.708740 114.000000 105.000000 0.991076 -0.107050 -0.079424
0.67000002 19.53000069 -0.89999998 138 122 125 97.000000 1.000000 4.000000 1.000000 -60.708740 114.000000 105.000000 0.917534 0.082673 -0.388969
0.67000002 19.52000046 -0.87000000 138 122 125 97.000000 1.000000 4.000000 1.000000 -60.708740 114.000000 105.000000 0.756149 0.648336 -0.088873
0.66000003 19.52000046 -0.91000003 138 122 125 97.000000 1.000000 4.000000 1.000000 -60.708740 114.000000 105.000000 0.958543 0.239305 0.154689
0.67000002 19.52000046 -0.91000003 138 122 125 97.000000 1.000000 4.000000 1.000000 -60.708740 114.000000 105.000000 0.935426 0.341250 -0.092338
0.67000002 19.52000046 -1.00999999 138 122 125 97.000000 1.000000 4.000000 1.000000 -60.708740 114.000000 105.000000 0.998543 -0.043050 0.032550
0.66000003 19.51000023 -0.88999999 138 122 125 97.000000 1.000000 4.000000 1.000000 -60.708740 114.000000 105.000000 0.959919 0.118525 0.253981
0.66000003 19.50000000 -0.88000000 138 122 125 97.000000 1.000000 4.000000 1.000000 -60.708740 114.000000 105.000000 0.833469 0.515813 0.198157
0.67000002 19.48999977 -0.89999998 138 122 125 97.000000 1.000000 4.000000 1.000000 -60.708740 114.000000 105.000000 0.975958 0.156604 -0.151593
0.67000002 19.48999977 -0.89999998 138 122 125 97.000000 1.000000 4.000000 1.000000 -60.708740 114.000000 105.000000 0.975958 0.156604 -0.151593
0.67000002 19.48999977 -0.94000000 138 122 125 97.000000 1.000000 4.000000 1.000000 -60.708740 114.000000 105.000000 0.801999 0.572425 0.170670
0.67000002 19.46999931 -0.88999999 138 122 125 97.000000 1.000000 4.000000 1.000000 -60.708740 114.000000 105.000000 0.908347 0.397314 -0.130566
0.67000002 19.45999908 -0.93000001 138 122 125 97.000000 1.000000 4.000000 1.000000 -60.708740 114.000000 105.000000 0.525112 0.845616 -0.095865
0.67000002 19.47999954 -0.98000002 138 122 125 97.000000 1.000000 4.000000 1.000000 -60.708740 114.000000 105.000000 0.961302 0.263562 0.080215
0.66000003 19.46999931 -0.94999999 138 122 125 97.000000 1.000000 4.000000 1.000000 -60.708740 114.000000 105.000000 0.760024 0.638063 -0.123448
0.67000002 19.45000076 -0.98000002 138 122 125 97.000000 1.000000 4.000000 1.000000 -60.708740 114.000000 105.000000 0.886939 0.389061 0.248939
0.67000002 19.46999931 -1.00999999 138 122 125 97.000000 1.000000 4.000000 1.000000 -60.708740 114.000000 105.000000 0.854180 0.455258 0.251229
0.67000002 19.45999908 -1.00000000 138 122 125 97.000000 1.000000 4.000000 1.000000 -60.708740 114.000000 105.000000 0.898476 0.423226 -0.116704
0.67000002 19.45999908 -1.01999998 138 122 125 97.000000 1.000000 4.000000 1.000000 -60.708740 114.000000 105.000000 0.967846 0.237871 0.081807
0.80000001 19.54000092 -1.05999994 138 122 125 97.000000 1.000000 4.000000 1.000000 -60.708740 114.000000 105.000000 0.498492 0.840922 -0.210609
0.80000001 19.52000046 -1.11000001 138 122 125 97.000000 1.000000 4.000000 1.000000 -60.708740 114.000000 105.000000 0.518439 0.828590 -0.211328
0.79000002 19.52000046 -1.11000001 138 122 125 97.000000 1.000000 4.000000 1.000000 -60.708740 114.000000 105.000000 0.584826 0.756927 -0.291616
0.80000001 19.54000092 -1.08000004 138 122 125 97.000000 1.000000 4.000000 1.000000 -60.708740 114.000000 105.000000 0.672032 0.612296 -0.416494
0.79000002 19.54000092 -1.10000002 138 122 125 97.000000 1.000000 4.000000 1.000000 -60.708740 114.000000 105.000000 0.875347 0.405281 -0.263659
0.79000002 19.53000069 -1.11000001 138 122 125 97.000000 1.000000 4.000000 1.000000 -60.708740 114.000000 105.000000 0.555611 0.756473 -0.345029
0.79000002 19.52000046 -1.13000000 138 122 125 97.000000 1.000000 4.000000 1.000000 -60.708740 114.000000 105.000000 0.846489 0.527112 -0.074898
0.81999999 19.46999931 -1.10000002 138 122 125 97.000000 1.000000 4.000000 1.000000 -60.708740 114.000000 105.000000 -0.252372 0.967624 0.003588
0.82999998 19.46999931 -1.10000002 138 122 125 97.000000 1.000000 4.000000 1.000000 -60.708740 114.000000 105.000000 -0.217934 0.955969 0.196542
0.82999998 19.46999931 -1.11000001 138 122 125 97.000000 1.000000 4.000000 1.000000 -60.708740 114.000000 105.000000 -0.244984 0.968968 0.032908
0.83999997 19.46999931 -1.07000005 138 122 125 97.000000 1.000000 4.000000 1.000000 -60.708740 114.000000 105.000000 -0.510920 0.773679 -0.374675
0.81999999 19.46999931 -1.09000003 138 122 125 97.000000 1.000000 4.000000 1.000000 -60.708740 114.000000 105.000000 -0.322186 0.946656 0.006220
0.80000001 19.51000023 -1.09000003 138 122 125 97.000000 1.000000 4.000000 1.000000 -60.708740 114.000000 105.000000 0.258648 0.917551 0.301997
0.80000001 19.51000023 -1.10000002 138 122 125 97.000000 1.000000 4.000000 1.000000 -60.708740 114.000000 105.000000 0.607080 0.774445 -0.178016
0.80000001 19.51000023 -1.14999998 138 122 125 97.000000 1.000000 4.000000 1.000000 -60.708740 114.000000 105.000000 0.647044 0.741883 -0.175910
0.79000002 19.51000023 -1.15999997 138 122 125 97.000000 1.000000 4.000000 1.000000 -60.708740 114.000000 105.000000 0.544026 0.799672 -0.254087
0.77999997 19.51000023 -1.15999997 138 122 125 97.000000 1.000000 4.000000 1.000000 -60.708740 114.000000 105.000000 0.419500 0.901717 -0.104527
0.79000002 19.51000023 -1.16999996 138 122 125 97.000000 1.000000 4.000000 1.000000 -60.708740 114.000000 105.000000 0.521909 0.847923 -0.092943
0.79000002 19.51000023 -1.15999997 138 122 125 97.000000 1.000000 4.000000 1.000000 -60.708740 114.000000 105.000000 0.544026 0.799672 -0.254087
0.79000002 19.51000023 -1.17999995 138 122 125 97.000000 1.000000 4.000000 1.000000 -60.708740 114.000000 105.000000 0.557376 0.796473 -0.234440
0.79000002 19.48999977 -1.15999997 138 122 125 97.000000 1.000000 4.000000 1.000000 -60.708740 114.000000 105.000000 0.565363 0.758649 -0.323755
0.76999998 19.52000046 -1.20000005 138 122 125 97.000000 1.000000 4.000000 1.000000 -60.708740 114.000000 105.000000 0.757036 0.641026 -0.126421
0.79000002 19.48999977 -1.22000003 138 122 125 97.000000 1.000000 4.000000 1.000000 -60.708740 114.000000 105.000000 0.726430 0.682931 0.076848
0.79000002 19.48999977 -1.21000004 138 122 125 97.000000 1.000000 4.000000 1.000000 -60.708740 114.000000 105.000000 0.716449 0.696587 -0.038305
0.77999997 19.51000023 -1.22000003 138 122 125 97.000000 1.000000 4.000000 1.000000 -60.708740 114.000000 105.000000 0.666766 0.745045 -0.018172
0.77999997 19.50000000 -1.22000003 138 122 125 97.000000 1.000000 4.000000 1.000000 -60.708740 114.000000 105.000000 0.585689 0.807995 0.064127
0.77999997 19.50000000 -1.21000004 138 122 125 97.000000 1.000000 4.000000 1.000000 -60.708740 114.000000 105.000000 0.612029 0.790480 0.023700
0.77999997 19.50000000 -1.20000005 138 122 125 97.000000 1.000000 4.000000 1.000000 -60.708740 114.000000 105.000000 0.723384 0.555309 -0.410302
0.76999998 19.47999954 -1.26999998 138 122 125 97.000000 1.000000 4.000000 1.000000 -60.708740 114.000000 105.000000 0.538846 0.778688 -0.321389
0.77999997 19.46999931 -1.26999998 138 122 125 97.000000 1.000000 4.000000 1.000000 -60.708740 114.000000 105.000000 0.628500 0.756952 -0.178916
0.75999999 19.47999954 -1.29999995 138 122 125 97.000000 1.000000 4.000000 1.000000 -60.708740 114.000000 105.000000 0.599727 0.799168 -0.040731
0.75999999 19.47999954 -1.27999997 138 122 125 97.000000 1.000000 4.000000 1.000000 -60.708740 114.000000 105.000000 0.557870 0.807163 -0.193050
0.77999997 19.46999931 -1.28999996 138 122 125 97.000000 1.000000 4.000000 1.000000 -60.708740 114.000000 105.000000 0.671241 0.705664 -0.226876
0.77999997 19.46999931 -1.27999997 138 122 125 97.000000 1.000000 4.000000 1.000000 -60.708740 114.000000 105.000000 0.596989 0.782314 -0.177730
0.75999999 19.46999931 -1.29999995 138 122 125 97.000000 1.000000 4.000000 1.000000 -60.708740 114.000000 105.000000 0.442216 0.829352 -0.341498
0.75999999 19.44000053 -1.34000003 138 122 125 97.000000 1.000000 4.000000 1.000000 -60.708740 114.000000 105.000000 0.766700 0.594231 -0.243023
0.69999999 19.55999947 -1.02999997 138 122 125 97.000000 1.000000 4.000000 1.000000 -60.708740 114.000000 105.000000 0.987116 0.054775 -0.150340
0.69999999 19.54999924 -1.02999997 138 122 125 97.000000 1.000000 4.000000 1.000000 -60.708740 114.000000 105.000000 0.944112 -0.116178 -0.308472
0.68000001 19.50000000 -1.05999994 138 122 125 97.000000 1.000000 4.000000 1.000000 -60.708740 114.000000 105.000000 0.962998 0.195753 -0.185243
0.74000001 19.50000000 -1.14999998 138 122 125 97.000000 1.000000 4.000000 1.000000 -60.708740 114.000000 105.000000 0.612853 0.753919 -0.236677
0.67000002 19.44000053 -1.05999994 138 122 125 97.000000 1.000000 4.000000 1.000000 -60.708740 114.000000 105.000000 0.930829 0.363219 -0.040358
0.67000002 19.46999931 -1.02999997 138 122 125 97.000000 1.000000 4.000000 1.000000 -60.708740 114.000000 105.000000 0.852514 0.364920 -0.374237
0.64999998 19.44000053 -1.03999996 138 122 125 97.000000 1.000000 4.000000 1.000000 -60.708740 114.000000 105.000000 0.843795 0.519146 0.136002
0.67000002 19.46999931 -1.05999994 138 122 125 97.000000 1.000000 4.000000 1.000000 -60.708740 114.000000 105.000000 0.969081 0.233830 0.078777
0.67000002 19.46999931 -1.07000005 138 122 125 97.000000 1.000000 4.000000 1.000000 -60.708740 114.000000 105.000000 0.939450 0.192317 -0.283634
0.67000002 19.46999931 -1.07000005 138 122 125 97.000000 1.000000 4.000000 1.000000 -60.708740 114.000000 105.000000 0.939450 0.192317 -0.283634
0.67000002 19.50000000 -1.16999996 138 122 125 97.000000 1.000000 4.000000 1.000000 -60.708740 114.000000 105.000000 0.989124 -0.120000 0.085048
0.64999998 19.45000076 -1.17999995 138 122 125 97.000000 1.000000 4.000000 1.000000 -60.708740 114.000000 105.000000 0.859300 0.438044 0.264048
0.72000003 19.48999977 -1.32000005 138 122 125 97.000000 1.000000 4.000000 1.000000 -60.708740 114.000000 105.000000 0.794739 0.603545 -0.064207
0.72000003 19.48999977 -1.30999994 138 122 125 97.000000 1.000000 4.000000 1.000000 -60.708740 114.000000 105.000000 0.858729 0.496702 0.125986
0.72000003 19.48999977 -1.30999994 138 122 125 97.000000 1.000000 4.000000 1.000000 -60.708740 114.000000 105.000000 0.858729 0.496702 0.125986
0.72000003 19.48999977 -1.30999994 138 122 125 97.000000 1.000000 4.000000 1.000000 -60.708740 114.000000 105.000000 0.858729 0.496702 0.125986
0.75000000 19.45000076 -1.35000002 138 122 125 97.000000 1.000000 4.000000 1.000000 -60.708740 114.000000 105.000000 0.401284 0.913961 0.060394
0.74000001 19.45999908 -1.33000004 138 122 125 97.000000 1.000000 4.000000 1.000000 -60.708740 114.000000 105.000000 0.690220 0.687090 -0.226943
0.63999999 19.47999954 -1.33000004 138 122 125 97.000000 1.000000 4.000000 1.000000 -60.708740 114.000000 105.000000 0.889838 0.325624 0.319621
0.66000003 19.45999908 -1.28999996 138 122 125 97.000000 1.000000 4.000000 1.000000 -60.708740 114.000000 105.000000 0.855103 0.457169 -0.244532
0.64999998 19.46999931 -1.33000004 138 122 125 97.000000 1.000000 4.000000 1.000000 -60.708740 114.000000 105.000000 0.860467 0.344496 -0.375392
0.63000000 19.45999908 -1.27999997 138 122 125 97.000000 1.000000 4.000000 1.000000 -60.708740 114.000000 105.000000 0.908982 0.376476 -0.178934
0.79000002 19.42000008 -0.73000002 138 122 125 97.000000 1.000000 4.000000 1.000000 -60.708740 114.000000 105.000000 0.242130 0.964679 -0.103770
0.76999998 19.43000031 -0.75000000 138 122 125 97.000000 1.000000 4.000000 1.000000 -60.708740 114.000000 105.000000 0.039639 0.990984 0.127979
0.79000002 19.40999985 -0.75000000 138 122 125 97.000000 1.000000 4.000000 1.000000 -60.708740 114.000000 105.000000 0.097300 0.969211 -0.226191
0.76999998 19.42000008 -0.79000002 138 122 125 97.000000 1.000000 4.000000 1.000000 -60.708740 114.000000 105.000000 0.334738 0.911473 0.239099
0.75999999 19.43000031 -0.80000001 138 122 125 97.000000 1.000000 4.000000 1.000000 -60.708740 114.000000 105.000000 0.137379 0.985543 -0.099152
0.76999998 19.43000031 -0.81000000 138 122 125 97.000000 1.000000 4.000000 1.000000 -60.708740 114.000000 105.000000 -0.197869 0.979976 -0.022246
0.75999999 19.43000031 -0.77999997 138 122 125 97.000000 1.000000 4.000000 1.000000 -60.708740 114.000000 105.000000 -0.136532 0.963529 -0.230155
0.75999999 19.40999985 -0.88000000 138 122 125 97.000000 1.000000 4.000000 1.000000 -60.708740 114.000000 105.000000 0.057701 0.950135 -0.306454
0.77999997 19.39999962 -0.86000001 138 122 125 97.000000 1.000000 4.000000 1.000000 -60.708740 114.000000 105.000000 0.314308 0.850025 -0.422690
0.75999999 19.40999985 -0.94000000 138 122 125 97.000000 1.000000 4.000000 1.000000 -60.708740 114.000000 105.000000 0.459374 0.888122 -0.014647
0.80000001 19.38999939 -0.87000000 138 122 125 97.000000 1.000000 4.000000 1.000000 -60.708740 114.000000 105.000000 0.323363 0.934313 -0.149985
0.76999998 19.38999939 -0.89999998 138 122 125 97.000000 1.000000 4.000000 1.000000 -60.708740 114.000000 105.000000 0.301420 0.953472 0.006151
0.80000001 19.38999939 -0.88999999 138 122 125 97.000000 1.000000 4.000000 1.000000 -60.708740 114.000000 105.000000 0.005836 0.976906 -0.213589
0.79000002 19.38999939 -0.93000001 138 122 125 97.000000 1.000000 4.000000 1.000000 -60.708740 114.000000 105.000000 0.392588 0.892513 -0.222025
0.76999998 19.38999939 -0.91000003 138 122 125 97.000000 1.000000 4.000000 1.000000 -60.708740 114.000000 105.000000 0.110888 0.853979 -0.508355
0.77999997 19.38999939 -0.94000000 138 122 125 97.000000 1.000000 4.000000 1.000000 -60.708740 114.000000 105.000000 0.070754 0.993931 -0.084231
0.79000002 19.38999939 -0.93000001 138 122 125 97.000000 1.000000 4.000000 1.000000 -60.708740 114.000000 105.000000 0.392588 0.892513 -0.222025
0.81000000 19.39999962 -1.00000000 138 122 125 97.000000 1.000000 4.000000 1.000000 -60.708740 114.000000 105.000000 0.083997 0.969099 -0.231932
0.79000002 19.37999916 -0.94999999 138 122 125 97.000000 1.000000 4.000000 1.000000 -60.708740 114.000000 105.000000 0.489083 0.855526 -0.169923
0.77999997 19.37000084 -1.01999998 138 122 125 97.000000 1.000000 4.000000 1.000000 -60.708740 114.000000 105.000000 -0.117062 0.940534 -0.318893
0.80000001 19.37000084 -0.99000001 138 122 125 97.000000 1.000000 4.000000 1.000000 -60.708740 114.000000 105.000000 0.123365 0.916231 -0.381185
0.77999997 19.37999916 -1.00999999 138 122 125 97.000000 1.000000 4.000000 1.000000 -60.708740 114.000000 105.000000 -0.173627 0.932028 -0.318084
0.77999997 19.30999947 -1.00000000 138 122 125 97.000000 1.000000 4.000000 1.000000 -60.708740 114.000000 105.000000 -0.217582 0.941008 -0.259158
0.76999998 19.32999992 -0.95999998 138 122 125 97.000000 1.000000 4.000000 1.000000 -60.708740 114.000000 105.000000 -0.138099 0.989518 -0.042229
0.73000002 19.40999985 -0.75999999 138 122 125 97.000000 1.000000 4.000000 1.000000 -60.708740 114.000000 105.000000 0.079115 0.996852 -0.005274
0.72000003 19.42000008 -0.74000001 138 122 125 97.000000 1.000000 4.000000 1.000000 -60.708740 114.000000 105.000000 0.694645 0.678893 -0.237849
0.75000000 19.43000031 -0.74000001 138 122 125 97.000000 1.000000 4.000000 1.000000 -60.708740 114.000000 105.000000 0.047128 0.975188 0.216306
0.75000000 19.42000008 -0.69999999 138 122 125 97.000000 1.000000 4.000000 1.000000 -60.708740 114.000000 105.000000 0.633186 0.761919 -0.136217
0.73000002 19.43000031 -0.70999998 138 122 125 97.000000 1.000000 4.000000 1.000000 -60.708740 114.000000 105.000000 0.250704 0.956389 0.149892
0.73000002 19.43000031 -0.79000002 138 122 125 97.000000 1.000000 4.000000 1.000000 -60.708740 114.000000 105.000000 0.696442 0.644734 -0.315096
0.72000003 19.42000008 -0.85000002 138 122 125 97.000000 1.000000 4.000000 1.000000 -60.708740 114.000000 105.000000 0.546997 0.833993 -0.072459
0.70999998 19.43000031 -0.82999998 138 122 125 97.000000 1.000000 4.000000 1.000000 -60.708740 114.000000 105.000000 0.742832 0.595228 -0.306438
0.69999999 19.37000084 -0.81000000 138 122 125 97.000000 1.000000 4.000000 1.000000 -60.708740 114.000000 105.000000 0.616669 0.786006 0.043745
0.68000001 19.38999939 -0.83999997 138 122 125 97.000000 1.000000 4.000000 1.000000 -60.708740 114.000000 105.000000 0.761640 0.647880 -0.012486
0.74000001 19.40999985 -0.88999999 138 122 125 97.000000 1.000000 4.000000 1.000000 -60.708740 114.000000 105.000000 0.042613 0.998806 -0.023905
0.72000003 19.40999985 -0.89999998 138 122 125 97.000000 1.000000 4.000000 1.000000 -60.708740 114.000000 105.000000 0.681320 0.731685 -0.020985
0.73000002 19.42000008 -0.86000001 138 122 125 97.000000 1.000000 4.000000 1.000000 -60.708740 114.000000 105.000000 0.286603 0.942087 -0.174156
0.75000000 19.40999985 -0.89999998 138 122 125 97.000000 1.000000 4.000000 1.000000 -60.708740 114.000000 105.000000 0.145298 0.974129 -0.173094
0.72000003 19.40999985 -0.88000000 138 122 125 97.000000 1.000000 4.000000 1.000000 -60.708740 114.000000 105.000000 0.439664 0.896914 0.047348
0.73000002 19.42000008 -0.86000001 138 122 125 97.000000 1.000000 4.000000 1.000000 -60.708740 114.000000 105.000000 0.286603 0.942087 -0.174156
0.72000003 19.42000008 -0.86000001 138 122 125 97.000000 1.000000 4.000000 1.000000 -60.708740 114.000000 105.000000 0.432900 0.879098 -0.199459
0.73000002 19.40999985 -0.92000002 138 122 125 97.000000 1.000000 4.000000 1.000000 -60.708740 114.000000 105.000000 0.428263 0.901392 0.063900
0.75000000 19.39999962 -0.91000003 138 122 125 97.000000 1.000000 4.000000 1.000000 -60.708740 114.000000 105.000000 0.222405 0.916883 -0.331455
0.75000000 19.38999939 -0.86000001 138 122 125 97.000000 1.000000 4.000000 1.000000 -60.708740 114.000000 105.000000 0.151294 0.980336 0.126693
0.72000003 19.37000084 -0.93000001 138 122 125 97.000000 1.000000 4.000000 1.000000 -60.708740 114.000000 105.000000 0.007854 0.988432 -0.151462
0.72000003 19.37000084 -0.94000000 138 122 125 97.000000 1.000000 4.000000 1.000000 -60.708740 114.000000 105.000000 0.327756 0.903901 0.274845
0.72000003 19.37000084 -0.93000001 138 122 125 97.000000 1.000000 4.000000 1.000000 -60.708740 114.000000 105.000000 0.007854 0.988432 -0.151462
0.75000000 19.38999939 -0.92000002 138 122 125 97.000000 1.000000 4.000000 1.000000 -60.708740 114.000000 105.000000 0.265485 0.866239 -0.423259
0.70999998 19.43000031 -0.87000000 138 122 125 97.000000 1.000000 4.000000 1.000000 -60.708740 114.000000 105.000000 0.761478 0.648154 0.006910
0.70999998 19.42000008 -0.89999998 138 122 125 97.000000 1.000000 4.000000 1.000000 -60.708740 114.000000 105.000000 0.431802 0.874063 -0.222624
0.69999999 19.43000031 -0.86000001 138 122 125 97.000000 1.000000 4.000000 1.000000 -60.708740 114.000000 105.000000 0.644843 0.734966 -0.209768
0.69999999 19.43000031 -0.87000000 138 122 125 97.000000 1.000000 4.000000 1.000000 -60.708740 114.000000 105.000000 0.624219 0.729586 -0.279382
0.69000000 19.43000031 -0.88999999 138 122 125 97.000000 1.000000 4.000000 1.000000 -60.708740 114.000000 105.000000 0.872159 0.465829 -0.149472
0.70999998 19.42000008 -0.87000000 138 122 125 97.000000 1.000000 4.000000 1.000000 -60.708740 114.000000 105.000000 0.753444 0.583879 -0.302337
0.70999998 19.42000008 -0.88999999 138 122 125 97.000000 1.000000 4.000000 1.000000 -60.708740 114.000000 105.000000 0.506082 0.860200 -0.062737
0.70999998 19.43000031 -0.88999999 138 122 125 97.000000 1.000000 4.000000 1.000000 -60.708740 114.000000 105.000000 0.502852 0.832992 -0.230792
0.70999998 19.42000008 -0.89999998 138 122 125 97.000000 1.000000 4.000000 1.000000 -60.708740 114.000000 105.000000 0.431802 0.874063 -0.222624
0.69999999 19.43000031 -0.88999999 138 122 125 97.000000 1.000000 4.000000 1.000000 -60.708740 114.000000 105.000000 0.352320 0.889045 -0.292351
0.70999998 19.39999962 -0.92000002 138 122 125 97.000000 1.000000 4.000000 1.000000 -60.708740 114.000000 105.000000 0.472229 0.812489 -0.341850
0.69000000 19.40999985 -0.92000002 138 122 125 97.000000 1.000000 4.000000 1.000000 -60.708740 114.000000 105.000000 0.561516 0.779795 0.276803
0.69999999 19.37999916 -0.86000001 138 122 125 97.000000 1.000000 4.000000 1.000000 -60.708740 114.000000 105.000000 0.270423 0.934571 0.231191
0.73000002 19.40999985 -0.98000002 138 122 125 97.000000 1.000000 4.000000 1.000000 -60.708740 114.000000 105.000000 0.632304 0.761468 -0.142681
0.73000002 19.39999962 -1.00999999 138 122 125 97.000000 1.000000 4.000000 1.000000 -60.708740 114.000000 105.000000 0.548180 0.832949 -0.075464
0.72000003 19.40999985 -0.99000001 138 122 125 97.000000 1.000000 4.000000 1.000000 -60.708740 114.000000 105.000000 0.324996 0.881269 -0.343136
0.75000000 19.37999916 -0.98000002 138 122 125 97.000000 1.000000 4.000000 1.000000 -60.708740 114.000000 105.000000 0.038200 0.964851 -0.260005
0.74000001 19.38999939 -0.94999999 138 122 125 97.000000 1.000000 4.000000 1.000000 -60.708740 114.000000 105.000000 0.474429 0.879528 -0.036704
0.72000003 19.37000084 -0.95999998 138 122 125 97.000000 1.000000 4.000000 1.000000 -60.708740 114.000000 105.000000 0.309454 0.933913 0.179012
0.72000003 19.38999939 -0.98000002 138 122 125 97.000000 1.000000 4.000000 1.000000 -60.708740 114.000000 105.000000 0.687465 0.717161 -0.114330
0.75000000 19.37999916 -0.97000003 138 122 125 97.000000 1.000000 4.000000 1.000000 -60.708740 114.000000 105.000000 0.150802 0.983231 -0.102546
0.74000001 19.38999939 -0.95999998 138 122 125 97.000000 1.000000 4.000000 1.000000 -60.708740 114.000000 105.000000 0.469172 0.858899 -0.205356
0.72000003 19.37999916 -1.01999998 138 122 125 97.000000 1.000000 4.000000 1.000000 -60.708740 114.000000 105.000000 0.483769 0.875072 -0.014741
0.69999999 19.40999985 -0.98000002 138 122 125 97.000000 1.000000 4.000000 1.000000 -60.708740 114.000000 105.000000 0.755431 0.604030 -0.253913
0.70999998 19.40999985 -0.95999998 138 122 125 97.000000 1.000000 4.000000 1.000000 -60.708740 114.000000 105.000000 0.502829 0.859767 -0.089235
0.69999999 19.43000031 -0.95999998 138 122 125 97.000000 1.000000 4.000000 1.000000 -60.708740 114.000000 105.000000 0.791785 0.569529 -0.220712
0.69000000 19.43000031 -0.97000003 138 122 125 97.000000 1.000000 4.000000 1.000000 -60.708740 114.000000 105.000000 0.867825 0.492925 -0.062483
0.69999999 19.42000008 -0.98000002 138 122 125 97.000000 1.000000 4.000000 1.000000 -60.708740 114.000000 105.000000 0.815806 0.524778 -0.243039
0.69000000 19.43000031 -1.01999998 138 122 125 97.000000 1.000000 4.000000 1.000000 -60.708740 114.000000 105.000000 0.834976 0.543805 -0.084211
0.69000000 19.42000008 -1.00000000 138 122 125 97.000000 1.000000 4.000000 1.000000 -60.708740 114.000000 105.000000 0.906345 0.422438 -0.009155
0.68000001 19.43000031 -1.01999998 138 122 125 97.000000 1.000000 4.000000 1.000000 -60.708740 114.000000 105.000000 0.688052 0.615452 -0.384451
0.69999999 19.42000008 -1.01999998 138 122 125 97.000000 1.000000 4.000000 1.000000 -60.708740 114.000000 105.000000 0.827377 0.560391 0.037545
0.69999999 19.40999985 -1.00000000 138 122 125 97.000000 1.000000 4.000000 1.000000 -60.708740 114.000000 105.000000 0.676454 0.735768 -0.032481
0.70999998 19.37999916 -0.95999998 138 122 125 97.000000 1.000000 4.000000 1.000000 -60.708740 114.000000 105.000000 0.394536 0.880581 0.262524
0.69999999 19.34000015 -1.01999998 138 122 125 97.000000 1.000000 4.000000 1.000000 -60.708740 114.000000 105.000000 0.217785 0.975911 0.012949
0.75000000 19.31999969 -0.95999998 138 122 125 97.000000 1.000000 4.000000 1.000000 -60.708740 114.000000 105.000000 0.058032 0.947855 -0.313373
0.75000000 19.31999969 -0.99000001 138 122 125 97.000000 1.000000 4.000000 1.000000 -60.708740 114.000000 105.000000 0.358066 0.927161 -0.110279
0.81999999 19.43000031 -1.09000003 138 122 125 97.000000 1.000000 4.000000 1.000000 -60.708740 114.000000 105.000000 -0.406907 0.878379 -0.250751
0.80000001 19.37999916 -1.03999996 138 122 125 97.000000 1.000000 4.000000 1.000000 -60.708740 114.000000 105.000000 0.021530 0.943541 -0.330556
0.79000002 19.37999916 -1.02999997 138 122 125 97.000000 1.000000 4.000000 1.000000 -60.708740 114.000000 105.000000 -0.170930 0.932474 -0.318236
0.77999997 19.30999947 -1.04999995 138 122 125 97.000000 1.000000 4.000000 1.000000 -60.708740 114.000000 105.000000 -0.261285 0.957169 -0.124734
0.76999998 19.29999924 -1.03999996 138 122 125 97.000000 1.000000 4.000000 1.000000 -60.708740 114.000000 105.000000 -0.205704 0.959508 -0.192432
0.76999998 19.29999924 -1.04999995 138 122 125 97.000000 1.000000 4.000000 1.000000 -60.708740 114.000000 105.000000 -0.114933 0.983582 0.139129
0.75999999 19.29999924 -1.02999997 138 122 125 97.000000 1.000000 4.000000 1.000000 -60.708740 114.000000 105.000000 0.291737 0.831527 -0.472707
0.76999998 19.29999924 -1.05999994 138 122 125 97.000000 1.000000 4.000000 1.000000 -60.708740 114.000000 105.000000 -0.058980 0.962503 0.264782
0.75000000 19.39999962 -1.02999997 138 122 125 97.000000 1.000000 4.000000 1.000000 -60.708740 114.000000 105.000000 0.061026 0.998136 0.001034
0.74000001 19.37000084 -1.03999996 138 122 125 97.000000 1.000000 4.000000 1.000000 -60.708740 114.000000 105.000000 0.237634 0.877302 -0.416980
0.73000002 19.37000084 -1.02999997 138 122 125 97.000000 1.000000 4.000000 1.000000 -60.708740 114.000000 105.000000 0.606072 0.794503 -0.037967
0.70999998 19.37999916 -1.04999995 138 122 125 97.000000 1.000000 4.000000 1.000000 -60.708740 114.000000 105.000000 0.743583 0.642394 0.185512
0.69999999 19.38999939 -1.02999997 138 122 125 97.000000 1.000000 4.000000 1.000000 -60.708740 114.000000 105.000000 0.563861 0.674291 -0.476856
0.70999998 19.37999916 -1.03999996 138 122 125 97.000000 1.000000 4.000000 1.000000 -60.708740 114.000000 105.000000 0.478234 0.751041 -0.455226
0.75000000 19.29999924 -1.05999994 138 122 125 97.000000 1.000000 4.000000 1.000000 -60.708740 114.000000 105.000000 0.314992 0.944977 -0.088303
0.75000000 19.29999924 -1.05999994 138 122 125 97.000000 1.000000 4.000000 1.000000 -60.708740 114.000000 105.000000 0.314992 0.944977 -0.088303
0.67000002 19.42000008 -1.10000002 138 122 125 97.000000 1.000000 4.000000 1.000000 -60.708740 114.000000 105.000000 0.514077 0.842969 -0.158520
0.67000002 19.42000008 -1.10000002 138 122 125 97.000000 1.000000 4.000000 1.000000 -60.708740 114.000000 105.000000 0.514077 0.842969 -0.158520
0.63999999 19.40999985 -1.05999994 138 122 125 97.000000 1.000000 4.000000 1.000000 -60.708740 114.000000 105.000000 0.704341 0.666524 0.244234
0.67000002 19.43000031 -1.08000004 138 122 125 97.000000 1.000000 4.000000 1.000000 -60.708740 114.000000 105.000000 0.848845 0.372246 -0.375361
0.64999998 19.42000008 -1.11000001 138 122 125 97.000000 1.000000 4.000000 1.000000 -60.708740 114.000000 105.000000 0.967036 0.235088 -0.097847
0.66000003 19.43000031 -1.09000003 138 122 125 97.000000 1.000000 4.000000 1.000000 -60.708740 114.000000 105.000000 0.916587 0.319001 -0.241055
0.66000003 19.43000031 -1.13000000 138 122 125 97.000000 1.000000 4.000000 1.000000 -60.708740 114.000000 105.000000 0.931267 0.326151 -0.162382
0.63999999 19.39999962 -1.20000005 138 122 125 97.000000 1.000000 4.000000 1.000000 -60.708740 114.000000 105.000000 0.885960 0.380978 -0.264443
0.62000000 19.40999985 -1.26999998 138 122 125 97.000000 1.000000 4.000000 1.000000 -60.708740 114.000000 105.000000 0.713080 0.659560 0.237693
0.64999998 19.38999939 -1.22000003 138 122 125 97.000000 1.000000 4.000000 1.000000 -60.708740 114.000000 105.000000 0.780992 0.589980 -0.204876
0.64999998 19.39999962 -1.24000001 138 122 125 97.000000 1.000000 4.000000 1.000000 -60.708740 114.000000 105.000000 0.628811 0.721613 0.289605
0.62000000 19.42000008 -1.32000005 138 122 125 97.000000 1.000000 4.000000 1.000000 -60.708740 114.000000 105.000000 0.957484 0.227719 -0.177114
0.62000000 19.42000008 -1.33000004 138 122 125 97.000000 1.000000 4.000000 1.000000 -60.708740 114.000000 105.000000 0.908593 0.359681 -0.212342
0.62000000 19.42000008 -1.33000004 138 122 125 97.000000 1.000000 4.000000 1.000000 -60.708740 114.000000 105.000000 0.908593 0.359681 -0.212342
0.62000000 19.42000008 -1.33000004 138 122 125 97.000000 1.000000 4.000000 1.000000 -60.708740 114.000000 105.000000 0.908593 0.359681 -0.212342
0.62000000 19.38999939 -1.30999994 138 122 125 97.000000 1.000000 4.000000 1.000000 -60.708740 114.000000 105.000000 0.933196 0.359312 0.006348
0.72000003 19.17000008 -1.21000004 138 122 125 97.000000 1.000000 4.000000 1.000000 -60.708740 114.000000 133.000000 0.542035 0.828560 -0.140309
0.69000000 19.18000031 -1.20000005 138 122 125 97.000000 1.000000 4.000000 1.000000 -60.708740 114.000000 133.000000 -0.056912 0.994279 -0.090389
0.73000002 19.45000076 -1.37000000 138 122 125 97.000000 1.000000 4.000000 1.000000 -60.708740 114.000000 105.000000 0.502538 0.845517 -0.180437
0.75000000 19.44000053 -1.38999999 138 122 125 97.000000 1.000000 4.000000 1.000000 -60.708740 114.000000 105.000000 0.621705 0.730383 -0.282884
0.75999999 19.43000031 -1.38999999 138 122 125 97.000000 1.000000 4.000000 1.000000 -60.708740 114.000000 105.000000 0.499747 0.718905 -0.483144
