//X Y Z R G B PointSourceId ScanDirectionFlag NumberOfReturns ReturnNumber GpsTime Intensity Classification Nx Ny Nz
0.60000002 -9.00000000 -0.31999999 75 39 198 0.000000 0.000000 0.000000 0.000000 -60.708740 0.000000 143.000000 0.740252 -0.637827 -0.212609
0.63000000 -8.97999954 -0.33000001 75 39 198 0.000000 0.000000 0.000000 0.000000 -60.708740 0.000000 143.000000 -0.199926 0.683470 0.702067
0.62000000 -8.98999977 -0.31999999 75 39 198 0.000000 0.000000 0.000000 0.000000 -60.708740 0.000000 143.000000 -0.607133 0.794158 0.026518
0.67000002 -9.05000019 -0.20999999 75 39 198 0.000000 0.000000 0.000000 0.000000 -60.708740 0.000000 143.000000 0.778794 -0.476381 -0.408094
0.67000002 -9.05000019 -0.20999999 75 39 198 0.000000 0.000000 0.000000 0.000000 -60.708740 0.000000 143.000000 0.778794 -0.476381 -0.408094
0.66000003 -9.10000038 -0.22000000 75 39 198 0.000000 0.000000 0.000000 0.000000 -60.708740 0.000000 143.000000 -0.663369 0.603214 0.442803
0.66000003 -9.10000038 -0.22000000 75 39 198 0.000000 0.000000 0.000000 0.000000 -60.708740 0.000000 143.000000 -0.663369 0.603214 0.442803
0.63999999 -9.10000038 -0.23999999 75 39 198 0.000000 0.000000 0.000000 0.000000 -60.708740 0.000000 143.000000 -0.659061 0.742373 0.120505
0.67000002 -9.10000038 -0.25999999 75 39 198 0.000000 0.000000 0.000000 0.000000 -60.708740 0.000000 143.000000 -0.203142 0.947543 0.246770
0.63999999 -9.10000038 -0.25999999 75 39 198 0.000000 0.000000 0.000000 0.000000 -60.708740 0.000000 143.000000 -0.006557 0.900868 0.434043
0.62000000 -9.02999973 -0.23000000 75 39 198 0.000000 0.000000 0.000000 0.000000 -60.708740 0.000000 143.000000 0.546492 -0.590482 -0.593866
0.62000000 -9.07999992 -0.20999999 75 39 198 0.000000 0.000000 0.000000 0.000000 -60.708740 0.000000 143.000000 -0.548585 0.829391 0.105664
0.64999998 -9.07999992 -0.31999999 75 39 198 0.000000 0.000000 0.000000 0.000000 -60.708740 0.000000 143.000000 0.657568 -0.717205 -0.230698
0.62000000 -9.02999973 -0.30000001 75 39 198 0.000000 0.000000 0.000000 0.000000 -60.708740 0.000000 143.000000 -0.196030 0.671441 0.714660
0.60000002 -9.03999996 -0.30000001 75 39 198 0.000000 0.000000 0.000000 0.000000 -60.708740 0.000000 143.000000 0.555754 -0.589538 -0.586160
0.60000002 -9.02999973 -0.31000000 75 39 198 0.000000 0.000000 0.000000 0.000000 -60.708740 0.000000 143.000000 -0.672558 0.521610 0.524965
0.60000002 -9.02000046 -0.33000001 75 39 198 0.000000 0.000000 0.000000 0.000000 -60.708740 0.000000 143.000000 -0.233539 0.866354 0.441464
0.63000000 -9.09000015 -0.30000001 75 39 198 0.000000 0.000000 0.000000 0.000000 -60.708740 0.000000 143.000000 -0.098776 0.900110 0.424318
0.62000000 -9.07999992 -0.28000000 75 39 198 0.000000 0.000000 0.000000 0.000000 -60.708740 0.000000 143.000000 -0.199686 0.912233 0.357710
0.63000000 -9.07999992 -0.28000000 75 39 198 0.000000 0.000000 0.000000 0.000000 -60.708740 0.000000 143.000000 -0.049909 0.948266 0.313529
0.72000003 -9.01000023 -0.37000000 75 39 198 0.000000 0.000000 0.000000 0.000000 -60.708740 0.000000 143.000000 -0.643626 0.643626 0.414116
0.74000001 -9.00000000 -0.37000000 75 39 198 0.000000 0.000000 0.000000 0.000000 -60.708740 0.000000 143.000000 -0.290670 0.779885 0.554338
0.69999999 -8.96000004 -0.44000000 75 39 198 0.000000 0.000000 0.000000 0.000000 -60.708740 0.000000 143.000000 0.783266 -0.602859 -0.151842
0.69999999 -8.93999958 -0.44999999 75 39 198 0.000000 0.000000 0.000000 0.000000 -60.708740 0.000000 143.000000 0.635017 -0.624964 -0.454062
0.72000003 -9.10000038 -0.40000001 75 39 198 0.000000 0.000000 0.000000 0.000000 -60.708740 0.000000 143.000000 0.744119 -0.617729 -0.254359
0.70999998 -9.03999996 -0.40000001 75 39 198 0.000000 0.000000 0.000000 0.000000 -60.708740 0.000000 143.000000 0.789021 -0.580658 -0.200702
0.69999999 -9.03999996 -0.41999999 75 39 198 0.000000 0.000000 0.000000 0.000000 -60.708740 0.000000 143.000000 -0.457790 0.886710 0.064613
0.69999999 -9.02000046 -0.40000001 75 39 198 0.000000 0.000000 0.000000 0.000000 -60.708740 0.000000 143.000000 0.698501 -0.535129 -0.475114
0.69999999 -9.03999996 -0.41000000 75 39 198 0.000000 0.000000 0.000000 0.000000 -60.708740 0.000000 143.000000 0.770354 -0.368148 -0.520597
0.70999998 -9.06999969 -0.36000001 75 39 198 0.000000 0.000000 0.000000 0.000000 -60.708740 0.000000 143.000000 -0.508190 0.853702 0.113731
0.68000001 -9.09000015 -0.38999999 75 39 198 0.000000 0.000000 0.000000 0.000000 -60.708740 0.000000 143.000000 0.551019 -0.674957 -0.490725
0.69000000 -9.09000015 -0.38000000 75 39 198 0.000000 0.000000 0.000000 0.000000 -60.708740 0.000000 143.000000 -0.383825 0.782227 0.490714
0.68000001 -9.10000038 -0.38000000 75 39 198 0.000000 0.000000 0.000000 0.000000 -60.708740 0.000000 143.000000 -0.443065 0.893031 0.078675
0.69000000 -9.09000015 -0.38000000 75 39 198 0.000000 0.000000 0.000000 0.000000 -60.708740 0.000000 143.000000 -0.383825 0.782227 0.490714
0.69000000 -9.06000042 -0.38000000 75 39 198 0.000000 0.000000 0.000000 0.000000 -60.708740 0.000000 143.000000 0.547455 -0.520504 -0.655262
0.68000001 -9.10000038 -0.38000000 75 39 198 0.000000 0.000000 0.000000 0.000000 -60.708740 0.000000 143.000000 -0.443065 0.893031 0.078675
0.70999998 -9.06999969 -0.37000000 75 39 198 0.000000 0.000000 0.000000 0.000000 -60.708740 0.000000 143.000000 0.726052 -0.637471 -0.257836
0.69999999 -9.10000038 -0.43000001 75 39 198 0.000000 0.000000 0.000000 0.000000 -60.708740 0.000000 143.000000 -0.569967 0.736548 0.364191
0.68000001 -9.07999992 -0.41999999 75 39 198 0.000000 0.000000 0.000000 0.000000 -60.708740 0.000000 143.000000 0.799529 -0.499506 -0.333536
0.69999999 -9.10000038 -0.47999999 75 39 198 0.000000 0.000000 0.000000 0.000000 -60.708740 0.000000 143.000000 -0.385504 0.914355 0.123862
0.68000001 -9.09000015 -0.51999998 75 39 198 0.000000 0.000000 0.000000 0.000000 -60.708740 0.000000 143.000000 -0.237369 0.639796 0.730970
0.68000001 -9.10000038 -0.49000001 75 39 198 0.000000 0.000000 0.000000 0.000000 -60.708740 0.000000 143.000000 0.672576 -0.595806 -0.438927
0.68000001 -9.09000015 -0.51999998 75 39 198 0.000000 0.000000 0.000000 0.000000 -60.708740 0.000000 143.000000 -0.237369 0.639796 0.730970
0.63999999 -8.94999981 -0.37000000 75 39 198 0.000000 0.000000 0.000000 0.000000 -60.708740 0.000000 143.000000 -0.347089 0.862323 0.368685
0.62000000 -8.96000004 -0.41999999 75 39 198 0.000000 0.000000 0.000000 0.000000 -60.708740 0.000000 143.000000 -0.587711 0.718677 0.371617
0.62000000 -8.96000004 -0.41999999 75 39 198 0.000000 0.000000 0.000000 0.000000 -60.708740 0.000000 143.000000 -0.587711 0.718677 0.371617
0.62000000 -8.97999954 -0.37000000 75 39 198 0.000000 0.000000 0.000000 0.000000 -60.708740 0.000000 143.000000 0.782126 -0.596123 -0.181429
0.62000000 -8.97999954 -0.37000000 75 39 198 0.000000 0.000000 0.000000 0.000000 -60.708740 0.000000 143.000000 0.782126 -0.596123 -0.181429
0.61000001 -8.97999954 -0.36000001 75 39 198 0.000000 0.000000 0.000000 0.000000 -60.708740 0.000000 143.000000 -0.190430 0.952151 0.239051
0.61000001 -8.97999954 -0.36000001 75 39 198 0.000000 0.000000 0.000000 0.000000 -60.708740 0.000000 143.000000 -0.190430 0.952151 0.239051
0.61000001 -8.98999977 -0.36000001 75 39 198 0.000000 0.000000 0.000000 0.000000 -60.708740 0.000000 143.000000 -0.582177 0.757628 0.295076
0.61000001 -8.98999977 -0.38999999 75 39 198 0.000000 0.000000 0.000000 0.000000 -60.708740 0.000000 143.000000 -0.656543 0.749711 0.082978
0.61000001 -8.98999977 -0.38999999 75 39 198 0.000000 0.000000 0.000000 0.000000 -60.708740 0.000000 143.000000 -0.656543 0.749711 0.082978
0.60000002 -9.00000000 -0.40000001 75 39 198 0.000000 0.000000 0.000000 0.000000 -60.708740 0.000000 143.000000 0.746498 -0.628056 -0.219742
0.64999998 -8.97000027 -0.50000000 75 39 198 0.000000 0.000000 0.000000 0.000000 -60.708740 0.000000 143.000000 -0.399166 0.858437 0.322107
0.66000003 -8.98999977 -0.47999999 75 39 198 0.000000 0.000000 0.000000 0.000000 -60.708740 0.000000 143.000000 -0.647613 0.761815 0.015320
0.63999999 -9.00000000 -0.44999999 75 39 198 0.000000 0.000000 0.000000 0.000000 -60.708740 0.000000 143.000000 -0.204227 0.793876 0.572758
0.63999999 -8.97999954 -0.50000000 75 39 198 0.000000 0.000000 0.000000 0.000000 -60.708740 0.000000 143.000000 0.700141 -0.450684 -0.553793
0.63000000 -8.94999981 -0.44000000 75 39 198 0.000000 0.000000 0.000000 0.000000 -60.708740 0.000000 143.000000 0.697128 -0.711743 -0.086228
0.62000000 -8.96000004 -0.50999999 75 39 198 0.000000 0.000000 0.000000 0.000000 -60.708740 0.000000 143.000000 -0.129035 0.793490 0.594747
0.61000001 -9.00000000 -0.46000001 75 39 198 0.000000 0.000000 0.000000 0.000000 -60.708740 0.000000 143.000000 -0.588770 0.707513 0.390864
0.60000002 -8.97999954 -0.50000000 75 39 198 0.000000 0.000000 0.000000 0.000000 -60.708740 0.000000 143.000000 -0.485223 0.871733 0.068126
0.61000001 -8.97999954 -0.49000001 75 39 198 0.000000 0.000000 0.000000 0.000000 -60.708740 0.000000 143.000000 -0.428958 0.900400 0.072635
0.63999999 -9.10000038 -0.37000000 75 39 198 0.000000 0.000000 0.000000 0.000000 -60.708740 0.000000 143.000000 -0.560892 0.793950 0.234612
0.67000002 -9.10000038 -0.36000001 75 39 198 0.000000 0.000000 0.000000 0.000000 -60.708740 0.000000 143.000000 -0.209477 0.851473 0.480743
0.67000002 -9.10000038 -0.36000001 75 39 198 0.000000 0.000000 0.000000 0.000000 -60.708740 0.000000 143.000000 -0.209477 0.851473 0.480743
0.67000002 -9.10000038 -0.38999999 75 39 198 0.000000 0.000000 0.000000 0.000000 -60.708740 0.000000 143.000000 -0.285581 0.946072 0.152942
0.66000003 -9.10000038 -0.38999999 75 39 198 0.000000 0.000000 0.000000 0.000000 -60.708740 0.000000 143.000000 -0.632640 0.769348 0.088715
0.67000002 -9.10000038 -0.36000001 75 39 198 0.000000 0.000000 0.000000 0.000000 -60.708740 0.000000 143.000000 -0.209477 0.851473 0.480743
0.67000002 -9.10000038 -0.38000000 75 39 198 0.000000 0.000000 0.000000 0.000000 -60.708740 0.000000 143.000000 -0.293752 0.939180 0.177906
0.66000003 -9.10000038 -0.41000000 75 39 198 0.000000 0.000000 0.000000 0.000000 -60.708740 0.000000 143.000000 0.752693 -0.593562 -0.284846
0.67000002 -9.07999992 -0.41999999 75 39 198 0.000000 0.000000 0.000000 0.000000 -60.708740 0.000000 143.000000 -0.715874 0.652662 0.248106
0.62000000 -9.10000038 -0.40000001 75 39 198 0.000000 0.000000 0.000000 0.000000 -60.708740 0.000000 143.000000 -0.629798 0.731327 0.261755
0.66000003 -9.07999992 -0.44000000 75 39 198 0.000000 0.000000 0.000000 0.000000 -60.708740 0.000000 143.000000 -0.464199 0.836800 0.290318
0.67000002 -9.10000038 -0.44000000 75 39 198 0.000000 0.000000 0.000000 0.000000 -60.708740 0.000000 143.000000 -0.667106 0.583508 0.463128
0.67000002 -9.06999969 -0.47999999 75 39 198 0.000000 0.000000 0.000000 0.000000 -60.708740 0.000000 143.000000 0.780790 -0.593646 -0.194814
0.67000002 -9.07999992 -0.44000000 75 39 198 0.000000 0.000000 0.000000 0.000000 -60.708740 0.000000 143.000000 -0.519527 0.693260 0.499481
0.66000003 -9.06999969 -0.50999999 75 39 198 0.000000 0.000000 0.000000 0.000000 -60.708740 0.000000 143.000000 -0.266260 0.841874 0.469418
0.67000002 -9.10000038 -0.50999999 75 39 198 0.000000 0.000000 0.000000 0.000000 -60.708740 0.000000 143.000000 0.745885 -0.577616 -0.331684
0.63000000 -9.02000046 -0.44999999 75 39 198 0.000000 0.000000 0.000000 0.000000 -60.708740 0.000000 143.000000 -0.435018 0.638359 0.635026
0.62000000 -9.10000038 -0.47000000 75 39 198 0.000000 0.000000 0.000000 0.000000 -60.708740 0.000000 143.000000 -0.494627 0.842530 0.213279
0.68000001 -9.01000023 -0.56000000 75 39 198 0.000000 0.000000 0.000000 0.000000 -60.708740 0.000000 143.000000 0.802979 -0.561320 -0.200362
0.68000001 -9.02000046 -0.52999997 75 39 198 0.000000 0.000000 0.000000 0.000000 -60.708740 0.000000 143.000000 -0.497977 0.458271 0.736211
0.68000001 -9.09000015 -0.69000000 75 39 198 0.000000 0.000000 0.000000 0.000000 -60.708740 0.000000 143.000000 -0.149149 0.745743 0.649324
0.66000003 -9.10000038 -0.55000001 75 39 198 0.000000 0.000000 0.000000 0.000000 -60.708740 0.000000 143.000000 -0.316068 0.942869 0.105356
0.66000003 -9.10000038 -0.55000001 75 39 198 0.000000 0.000000 0.000000 0.000000 -60.708740 0.000000 143.000000 -0.316068 0.942869 0.105356
0.67000002 -9.09000015 -0.55000001 75 39 198 0.000000 0.000000 0.000000 0.000000 -60.708740 0.000000 143.000000 -0.473764 0.816015 0.331160
0.66000003 -9.10000038 -0.57999998 75 39 198 0.000000 0.000000 0.000000 0.000000 -60.708740 0.000000 143.000000 -0.519655 0.667648 0.533109
0.64999998 -9.05000019 -0.62000000 75 39 198 0.000000 0.000000 0.000000 0.000000 -60.708740 0.000000 143.000000 -0.440047 0.818138 0.370148
0.66000003 -9.06000042 -0.61000001 75 39 198 0.000000 0.000000 0.000000 0.000000 -60.708740 0.000000 143.000000 -0.435519 0.841380 0.320005
0.67000002 -9.07999992 -0.63999999 75 39 198 0.000000 0.000000 0.000000 0.000000 -60.708740 0.000000 143.000000 -0.478585 0.869502 0.122161
0.64999998 -9.06000042 -0.62000000 75 39 198 0.000000 0.000000 0.000000 0.000000 -60.708740 0.000000 143.000000 -0.419669 0.873935 0.245183
0.64999998 -9.06999969 -0.68000001 75 39 198 0.000000 0.000000 0.000000 0.000000 -60.708740 0.000000 143.000000 -0.578828 0.815309 0.015124
0.63999999 -9.10000038 -0.64999998 75 39 198 0.000000 0.000000 0.000000 0.000000 -60.708740 0.000000 143.000000 -0.534725 0.701305 0.471424
0.67000002 -9.10000038 -0.69000000 75 39 198 0.000000 0.000000 0.000000 0.000000 -60.708740 0.000000 143.000000 -0.448325 0.726253 0.521116
0.63000000 -9.03999996 -0.63000000 75 39 198 0.000000 0.000000 0.000000 0.000000 -60.708740 0.000000 143.000000 -0.169147 0.748209 0.641540
0.62000000 -9.05000019 -0.61000001 75 39 198 0.000000 0.000000 0.000000 0.000000 -60.708740 0.000000 143.000000 0.724793 -0.563728 -0.396089
0.63000000 -9.02000046 -0.66000003 75 39 198 0.000000 0.000000 0.000000 0.000000 -60.708740 0.000000 143.000000 -0.526725 0.850035 0.001347
0.63000000 -9.02000046 -0.64999998 75 39 198 0.000000 0.000000 0.000000 0.000000 -60.708740 0.000000 143.000000 -0.560092 0.775879 0.290360
0.56000000 -8.69999981 -0.08000000 75 39 198 0.000000 0.000000 0.000000 0.000000 -60.708740 0.000000 143.000000 0.761545 -0.158971 -0.628313
0.56000000 -8.72999954 -0.07000000 75 39 198 0.000000 0.000000 0.000000 0.000000 -60.708740 0.000000 143.000000 0.724921 -0.427687 -0.539975
0.55000001 -8.76000023 -0.10000000 75 39 198 0.000000 0.000000 0.000000 0.000000 -60.708740 0.000000 143.000000 -0.513109 0.803608 0.301550
0.50999999 -8.72000027 -0.17000000 75 39 198 0.000000 0.000000 0.000000 0.000000 -60.708740 0.000000 143.000000 0.502241 -0.742658 -0.442960
0.51999998 -8.72000027 -0.16000000 75 39 198 0.000000 0.000000 0.000000 0.000000 -60.708740 0.000000 143.000000 0.686064 -0.319514 -0.653626
0.51999998 -8.73999977 -0.12000000 75 39 198 0.000000 0.000000 0.000000 0.000000 -60.708740 0.000000 143.000000 -0.564322 0.743213 0.359409
0.52999997 -8.75000000 -0.15000001 75 39 198 0.000000 0.000000 0.000000 0.000000 -60.708740 0.000000 143.000000 0.699677 -0.261784 -0.664772
0.52999997 -8.73999977 -0.16000000 75 39 198 0.000000 0.000000 0.000000 0.000000 -60.708740 0.000000 143.000000 0.743676 -0.666891 -0.046924
0.54000002 -8.75000000 -0.18000001 75 39 198 0.000000 0.000000 0.000000 0.000000 -60.708740 0.000000 143.000000 -0.670708 0.699115 0.247768
0.51999998 -8.75000000 -0.15000001 75 39 198 0.000000 0.000000 0.000000 0.000000 -60.708740 0.000000 143.000000 -0.568022 0.441425 0.694619
0.49000001 -8.75000000 -0.18000001 75 39 198 0.000000 0.000000 0.000000 0.000000 -60.708740 0.000000 143.000000 -0.585068 0.746243 0.317516
0.52999997 -8.68000031 -0.34000000 75 39 198 0.000000 0.000000 0.000000 0.000000 -60.708740 0.000000 143.000000 0.963509 -0.168647 -0.207867
0.56000000 -8.72000027 -0.20000000 75 39 198 0.000000 0.000000 0.000000 0.000000 -60.708740 0.000000 143.000000 0.719684 -0.333037 -0.609214
0.58999997 -8.69999981 -0.27000001 75 39 198 0.000000 0.000000 0.000000 0.000000 -60.708740 0.000000 143.000000 0.726556 -0.236955 -0.644956
0.56999999 -8.72999954 -0.20000000 75 39 198 0.000000 0.000000 0.000000 0.000000 -60.708740 0.000000 143.000000 -0.551087 0.744049 0.377748
0.58999997 -8.75000000 -0.25999999 75 39 198 0.000000 0.000000 0.000000 0.000000 -60.708740 0.000000 143.000000 0.562344 -0.606250 -0.562344
0.50999999 -8.71000004 -0.25999999 75 39 198 0.000000 0.000000 0.000000 0.000000 -60.708740 0.000000 143.000000 0.579748 -0.423598 -0.696030
0.54000002 -8.71000004 -0.25000000 75 39 198 0.000000 0.000000 0.000000 0.000000 -60.708740 0.000000 143.000000 0.771898 -0.122970 -0.623741
0.51999998 -8.69999981 -0.25999999 75 39 198 0.000000 0.000000 0.000000 0.000000 -60.708740 0.000000 143.000000 0.628536 -0.381081 -0.678027
0.50999999 -8.71000004 -0.27000001 75 39 198 0.000000 0.000000 0.000000 0.000000 -60.708740 0.000000 143.000000 0.637018 -0.325803 -0.698613
0.50999999 -8.71000004 -0.27000001 75 39 198 0.000000 0.000000 0.000000 0.000000 -60.708740 0.000000 143.000000 0.637018 -0.325803 -0.698613
0.52999997 -8.73999977 -0.25999999 75 39 198 0.000000 0.000000 0.000000 0.000000 -60.708740 0.000000 143.000000 -0.513804 0.517151 0.684514
0.50000000 -8.68000031 -0.20999999 75 39 198 0.000000 0.000000 0.000000 0.000000 -60.708740 0.000000 143.000000 0.623026 -0.261576 -0.737168
0.50000000 -8.71000004 -0.20000000 75 39 198 0.000000 0.000000 0.000000 0.000000 -60.708740 0.000000 143.000000 0.643608 -0.495730 -0.583113
0.50000000 -8.72000027 -0.23000000 75 39 198 0.000000 0.000000 0.000000 0.000000 -60.708740 0.000000 143.000000 -0.464940 0.824283 0.323094
0.47999999 -8.72999954 -0.22000000 75 39 198 0.000000 0.000000 0.000000 0.000000 -60.708740 0.000000 143.000000 -0.554658 0.792146 0.254674
0.47000000 -8.75000000 -0.25999999 75 39 198 0.000000 0.000000 0.000000 0.000000 -60.708740 0.000000 143.000000 0.182189 -0.742536 -0.644552
0.49000001 -8.71000004 -0.28999999 75 39 198 0.000000 0.000000 0.000000 0.000000 -60.708740 0.000000 143.000000 -0.589660 0.778475 0.215125
0.49000001 -8.71000004 -0.28999999 75 39 198 0.000000 0.000000 0.000000 0.000000 -60.708740 0.000000 143.000000 -0.589660 0.778475 0.215125
0.50000000 -8.69999981 -0.34999999 75 39 198 0.000000 0.000000 0.000000 0.000000 -60.708740 0.000000 143.000000 -0.378990 0.866920 0.323753
0.47999999 -8.69999981 -0.31999999 75 39 198 0.000000 0.000000 0.000000 0.000000 -60.708740 0.000000 143.000000 -0.402205 0.806012 0.434253
0.50000000 -8.76000023 -0.31000000 75 39 198 0.000000 0.000000 0.000000 0.000000 -60.708740 0.000000 143.000000 -0.247912 0.889218 0.384487
0.49000001 -8.75000000 -0.34000000 75 39 198 0.000000 0.000000 0.000000 0.000000 -60.708740 0.000000 143.000000 -0.320375 0.885921 0.335416
0.47999999 -8.72999954 -0.33000001 75 39 198 0.000000 0.000000 0.000000 0.000000 -60.708740 0.000000 143.000000 -0.215514 0.878404 0.426568
0.46000001 -8.72000027 -0.30000001 75 39 198 0.000000 0.000000 0.000000 0.000000 -60.708740 0.000000 143.000000 0.431282 -0.819595 -0.377173
0.44000000 -8.76000023 -0.31999999 75 39 198 0.000000 0.000000 0.000000 0.000000 -60.708740 0.000000 143.000000 0.713178 -0.642977 -0.279208
0.43000001 -8.57999992 -0.47000000 75 39 198 0.000000 0.000000 0.000000 0.000000 -60.708740 0.000000 143.000000 0.796604 -0.455432 -0.397497
0.46000001 -8.59000015 -0.66000003 75 39 198 0.000000 0.000000 0.000000 0.000000 -60.708740 0.000000 143.000000 0.796150 -0.164046 -0.582438
0.56000000 -8.68000031 -0.38999999 75 39 198 0.000000 0.000000 0.000000 0.000000 -60.708740 0.000000 143.000000 0.929837 -0.209600 -0.302443
0.51999998 -8.63000011 -0.38000000 75 39 198 0.000000 0.000000 0.000000 0.000000 -60.708740 0.000000 143.000000 0.864625 -0.246819 -0.437612
0.51999998 -8.61999989 -0.38000000 75 39 198 0.000000 0.000000 0.000000 0.000000 -60.708740 0.000000 143.000000 0.888557 0.111599 -0.444985
0.56000000 -8.68000031 -0.50999999 75 39 198 0.000000 0.000000 0.000000 0.000000 -60.708740 0.000000 143.000000 0.863022 -0.256328 -0.435303
0.55000001 -8.68000031 -0.51999998 75 39 198 0.000000 0.000000 0.000000 0.000000 -60.708740 0.000000 143.000000 0.729219 -0.451421 -0.514256
0.56000000 -8.68000031 -0.50999999 75 39 198 0.000000 0.000000 0.000000 0.000000 -60.708740 0.000000 143.000000 0.863022 -0.256328 -0.435303
0.51999998 -8.64999962 -0.47999999 75 39 198 0.000000 0.000000 0.000000 0.000000 -60.708740 0.000000 143.000000 0.714645 -0.364682 -0.596900
0.52999997 -8.67000008 -0.44999999 75 39 198 0.000000 0.000000 0.000000 0.000000 -60.708740 0.000000 143.000000 0.679835 -0.466030 -0.566251
0.50999999 -8.65999985 -0.49000001 75 39 198 0.000000 0.000000 0.000000 0.000000 -60.708740 0.000000 143.000000 0.779701 -0.444381 -0.441125
0.55000001 -8.73999977 -0.38000000 75 39 198 0.000000 0.000000 0.000000 0.000000 -60.708740 0.000000 143.000000 0.682454 -0.413458 -0.602751
0.51999998 -8.68999958 -0.36000001 75 39 198 0.000000 0.000000 0.000000 0.000000 -60.708740 0.000000 143.000000 0.572964 -0.683214 -0.452692
0.56000000 -8.76000023 -0.51999998 75 39 198 0.000000 0.000000 0.000000 0.000000 -60.708740 0.000000 143.000000 0.795736 -0.353838 -0.491531
0.51999998 -8.69999981 -0.49000001 75 39 198 0.000000 0.000000 0.000000 0.000000 -60.708740 0.000000 143.000000 -0.551953 0.692025 0.465241
0.50000000 -8.68000031 -0.38999999 75 39 198 0.000000 0.000000 0.000000 0.000000 -60.708740 0.000000 143.000000 -0.497175 0.621890 0.605037
0.44999999 -8.60000038 -0.40000001 75 39 198 0.000000 0.000000 0.000000 0.000000 -60.708740 0.000000 143.000000 0.961991 -0.272948 -0.008492
0.47999999 -8.61999989 -0.46000001 75 39 198 0.000000 0.000000 0.000000 0.000000 -60.708740 0.000000 143.000000 0.764813 -0.246562 -0.595204
0.47999999 -8.68000031 -0.47000000 75 39 198 0.000000 0.000000 0.000000 0.000000 -60.708740 0.000000 143.000000 -0.451687 0.771293 0.448426
0.47999999 -8.67000008 -0.47999999 75 39 198 0.000000 0.000000 0.000000 0.000000 -60.708740 0.000000 143.000000 -0.455701 0.786531 0.416780
0.49000001 -8.68999958 -0.38999999 75 39 198 0.000000 0.000000 0.000000 0.000000 -60.708740 0.000000 143.000000 -0.431638 0.803906 0.409174
0.49000001 -8.68999958 -0.38999999 75 39 198 0.000000 0.000000 0.000000 0.000000 -60.708740 0.000000 143.000000 -0.431638 0.803906 0.409174
0.47000000 -8.69999981 -0.41999999 75 39 198 0.000000 0.000000 0.000000 0.000000 -60.708740 0.000000 143.000000 -0.383310 0.855076 0.349169
0.47000000 -8.72000027 -0.43000001 75 39 198 0.000000 0.000000 0.000000 0.000000 -60.708740 0.000000 143.000000 -0.528278 0.708260 0.468285
0.44000000 -8.76000023 -0.36000001 75 39 198 0.000000 0.000000 0.000000 0.000000 -60.708740 0.000000 143.000000 -0.029489 0.937233 0.347456
0.44999999 -8.73999977 -0.38000000 75 39 198 0.000000 0.000000 0.000000 0.000000 -60.708740 0.000000 143.000000 -0.461241 0.615547 0.639029
0.43000001 -8.72999954 -0.38999999 75 39 198 0.000000 0.000000 0.000000 0.000000 -60.708740 0.000000 143.000000 -0.561244 0.827458 0.017839
0.44000000 -8.75000000 -0.40000001 75 39 198 0.000000 0.000000 0.000000 0.000000 -60.708740 0.000000 143.000000 -0.471243 0.868079 0.156108
0.44000000 -8.72999954 -0.41999999 75 39 198 0.000000 0.000000 0.000000 0.000000 -60.708740 0.000000 143.000000 -0.503023 0.766744 0.398837
0.47999999 -8.69999981 -0.44999999 75 39 198 0.000000 0.000000 0.000000 0.000000 -60.708740 0.000000 143.000000 0.515556 -0.777374 -0.360404
0.47999999 -8.69999981 -0.44999999 75 39 198 0.000000 0.000000 0.000000 0.000000 -60.708740 0.000000 143.000000 0.515556 -0.777374 -0.360404
0.47000000 -8.68999958 -0.46000001 75 39 198 0.000000 0.000000 0.000000 0.000000 -60.708740 0.000000 143.000000 -0.515261 0.679742 0.521975
0.44000000 -8.68999958 -0.50000000 75 39 198 0.000000 0.000000 0.000000 0.000000 -60.708740 0.000000 143.000000 -0.431791 0.888132 0.157409
0.43000001 -8.73999977 -0.44999999 75 39 198 0.000000 0.000000 0.000000 0.000000 -60.708740 0.000000 143.000000 -0.218724 0.774066 0.594123
0.44999999 -8.76000023 -0.44000000 75 39 198 0.000000 0.000000 0.000000 0.000000 -60.708740 0.000000 143.000000 -0.082154 0.925245 0.370367
0.43000001 -8.75000000 -0.44000000 75 39 198 0.000000 0.000000 0.000000 0.000000 -60.708740 0.000000 143.000000 -0.391216 0.545083 0.741509
0.43000001 -8.75000000 -0.44000000 75 39 198 0.000000 0.000000 0.000000 0.000000 -60.708740 0.000000 143.000000 -0.391216 0.545083 0.741509
0.56000000 -8.68000031 -0.57999998 75 39 198 0.000000 0.000000 0.000000 0.000000 -60.708740 0.000000 143.000000 0.543883 -0.520309 -0.658384
0.52999997 -8.64999962 -0.55000001 75 39 198 0.000000 0.000000 0.000000 0.000000 -60.708740 0.000000 143.000000 0.840124 -0.458108 -0.290394
0.50999999 -8.67000008 -0.57999998 75 39 198 0.000000 0.000000 0.000000 0.000000 -60.708740 0.000000 143.000000 0.849179 -0.295434 -0.437737
0.55000001 -8.68000031 -0.68000001 75 39 198 0.000000 0.000000 0.000000 0.000000 -60.708740 0.000000 143.000000 -0.569695 0.650360 0.502474
0.51999998 -8.67000008 -0.63000000 75 39 198 0.000000 0.000000 0.000000 0.000000 -60.708740 0.000000 143.000000 0.852221 -0.483774 -0.199201
0.51999998 -8.67000008 -0.63999999 75 39 198 0.000000 0.000000 0.000000 0.000000 -60.708740 0.000000 143.000000 0.826481 -0.530338 -0.188867
0.56999999 -8.71000004 -0.58999997 75 39 198 0.000000 0.000000 0.000000 0.000000 -60.708740 0.000000 143.000000 0.863867 -0.408234 -0.295091
0.56000000 -8.76000023 -0.56000000 75 39 198 0.000000 0.000000 0.000000 0.000000 -60.708740 0.000000 143.000000 0.887100 -0.361745 -0.286694
0.58999997 -8.75000000 -0.60000002 75 39 198 0.000000 0.000000 0.000000 0.000000 -60.708740 0.000000 143.000000 0.905605 -0.410374 -0.107115
0.52999997 -8.69999981 -0.56999999 75 39 198 0.000000 0.000000 0.000000 0.000000 -60.708740 0.000000 143.000000 0.613958 -0.559835 -0.556453
0.52999997 -8.72999954 -0.58999997 75 39 198 0.000000 0.000000 0.000000 0.000000 -60.708740 0.000000 143.000000 0.846062 -0.370641 -0.383152
0.56999999 -8.69999981 -0.61000001 75 39 198 0.000000 0.000000 0.000000 0.000000 -60.708740 0.000000 143.000000 0.922059 -0.361891 -0.137269
0.56000000 -8.76000023 -0.64999998 75 39 198 0.000000 0.000000 0.000000 0.000000 -60.708740 0.000000 143.000000 0.554603 -0.541117 -0.632146
0.52999997 -8.71000004 -0.69000000 75 39 198 0.000000 0.000000 0.000000 0.000000 -60.708740 0.000000 143.000000 -0.486363 0.775903 0.401778
0.52999997 -8.71000004 -0.68000001 75 39 198 0.000000 0.000000 0.000000 0.000000 -60.708740 0.000000 143.000000 0.860536 -0.505127 -0.065765
0.52999997 -8.75000000 -0.63000000 75 39 198 0.000000 0.000000 0.000000 0.000000 -60.708740 0.000000 143.000000 0.858813 -0.328415 -0.393173
0.47999999 -8.67000008 -0.54000002 75 39 198 0.000000 0.000000 0.000000 0.000000 -60.708740 0.000000 143.000000 0.858215 -0.296307 -0.419128
0.47999999 -8.65999985 -0.54000002 75 39 198 0.000000 0.000000 0.000000 0.000000 -60.708740 0.000000 143.000000 -0.528835 0.579522 0.620071
0.44000000 -8.68000031 -0.60000002 75 39 198 0.000000 0.000000 0.000000 0.000000 -60.708740 0.000000 143.000000 0.733763 -0.488623 -0.472059
0.43000001 -8.68000031 -0.60000002 75 39 198 0.000000 0.000000 0.000000 0.000000 -60.708740 0.000000 143.000000 0.724429 -0.479085 -0.495662
0.47999999 -8.65999985 -0.61000001 75 39 198 0.000000 0.000000 0.000000 0.000000 -60.708740 0.000000 143.000000 -0.435787 0.785713 0.439027
0.47000000 -8.65999985 -0.62000000 75 39 198 0.000000 0.000000 0.000000 0.000000 -60.708740 0.000000 143.000000 -0.339330 0.874953 0.345416
0.50000000 -8.64999962 -0.64999998 75 39 198 0.000000 0.000000 0.000000 0.000000 -60.708740 0.000000 143.000000 0.872139 -0.274534 -0.404976
0.44000000 -8.68000031 -0.62000000 75 39 198 0.000000 0.000000 0.000000 0.000000 -60.708740 0.000000 143.000000 -0.368486 0.910461 0.187827
0.44000000 -8.65999985 -0.69000000 75 39 198 0.000000 0.000000 0.000000 0.000000 -60.708740 0.000000 143.000000 0.618332 -0.631737 -0.467519
0.47000000 -8.68999958 -0.56000000 75 39 198 0.000000 0.000000 0.000000 0.000000 -60.708740 0.000000 143.000000 -0.560626 0.506752 0.654905
0.46000001 -8.69999981 -0.57999998 75 39 198 0.000000 0.000000 0.000000 0.000000 -60.708740 0.000000 143.000000 0.439570 -0.708288 -0.552365
0.44000000 -8.68999958 -0.57999998 75 39 198 0.000000 0.000000 0.000000 0.000000 -60.708740 0.000000 143.000000 -0.438716 0.815214 0.378093
0.44000000 -8.69999981 -0.60000002 75 39 198 0.000000 0.000000 0.000000 0.000000 -60.708740 0.000000 143.000000 -0.203094 0.727109 0.655793
0.41999999 -8.64000034 -0.41999999 75 39 198 0.000000 0.000000 0.000000 0.000000 -60.708740 0.000000 143.000000 -0.406306 0.882563 0.236640
0.41000000 -8.61999989 -0.47999999 75 39 198 0.000000 0.000000 0.000000 0.000000 -60.708740 0.000000 143.000000 0.597346 -0.637730 -0.486290
0.40000001 -8.61999989 -0.50999999 75 39 198 0.000000 0.000000 0.000000 0.000000 -60.708740 0.000000 143.000000 -0.325194 0.810606 0.486998
0.41000000 -8.64000034 -0.49000001 75 39 198 0.000000 0.000000 0.000000 0.000000 -60.708740 0.000000 143.000000 -0.318015 0.784650 0.532156
0.41000000 -8.61999989 -0.51999998 75 39 198 0.000000 0.000000 0.000000 0.000000 -60.708740 0.000000 143.000000 -0.371772 0.715702 0.591232
0.40000001 -8.60999966 -0.50999999 75 39 198 0.000000 0.000000 0.000000 0.000000 -60.708740 0.000000 143.000000 0.851660 -0.321118 -0.414195
0.41999999 -8.73999977 -0.44999999 75 39 198 0.000000 0.000000 0.000000 0.000000 -60.708740 0.000000 143.000000 0.585658 -0.538401 -0.605912
0.41000000 -8.64000034 -0.58999997 75 39 198 0.000000 0.000000 0.000000 0.000000 -60.708740 0.000000 143.000000 0.789415 -0.364964 -0.493585
0.40000001 -8.63000011 -0.56999999 75 39 198 0.000000 0.000000 0.000000 0.000000 -60.708740 0.000000 143.000000 -0.266091 0.776230 0.571544
0.40000001 -8.63000011 -0.56999999 75 39 198 0.000000 0.000000 0.000000 0.000000 -60.708740 0.000000 143.000000 -0.266091 0.776230 0.571544
0.40000001 -8.60000038 -0.57999998 75 39 198 0.000000 0.000000 0.000000 0.000000 -60.708740 0.000000 143.000000 0.845065 -0.305464 -0.438814
0.40000001 -8.67000008 -0.58999997 75 39 198 0.000000 0.000000 0.000000 0.000000 -60.708740 0.000000 143.000000 -0.384104 0.661055 0.644570
0.41000000 -8.67000008 -0.57999998 75 39 198 0.000000 0.000000 0.000000 0.000000 -60.708740 0.000000 143.000000 -0.581689 0.467698 0.665505
0.36000001 -8.60000038 -0.55000001 75 39 198 0.000000 0.000000 0.000000 0.000000 -60.708740 0.000000 143.000000 -0.248233 0.662481 0.706752
0.37000000 -8.64000034 -0.52999997 75 39 198 0.000000 0.000000 0.000000 0.000000 -60.708740 0.000000 143.000000 -0.329699 0.842217 0.426578
0.37000000 -8.61999989 -0.54000002 75 39 198 0.000000 0.000000 0.000000 0.000000 -60.708740 0.000000 143.000000 0.655017 -0.557354 -0.510206
0.38000000 -8.60000038 -0.54000002 75 39 198 0.000000 0.000000 0.000000 0.000000 -60.708740 0.000000 143.000000 0.664608 -0.533369 -0.523273
0.37000000 -8.60999966 -0.60000002 75 39 198 0.000000 0.000000 0.000000 0.000000 -60.708740 0.000000 143.000000 -0.290722 0.947191 0.135313
0.38000000 -8.67000008 -0.58999997 75 39 198 0.000000 0.000000 0.000000 0.000000 -60.708740 0.000000 143.000000 -0.236795 0.838714 0.490395
0.41999999 -8.64000034 -0.69000000 75 39 198 0.000000 0.000000 0.000000 0.000000 -60.708740 0.000000 143.000000 -0.359394 0.752939 0.551288
0.38999999 -8.65999985 -0.61000001 75 39 198 0.000000 0.000000 0.000000 0.000000 -60.708740 0.000000 143.000000 -0.097813 0.778120 0.620453
0.40000001 -8.64999962 -0.62000000 75 39 198 0.000000 0.000000 0.000000 0.000000 -60.708740 0.000000 143.000000 -0.248196 0.659220 0.709808
0.41000000 -8.67000008 -0.64999998 75 39 198 0.000000 0.000000 0.000000 0.000000 -60.708740 0.000000 143.000000 -0.531262 0.578486 0.618963
0.34000000 -8.63000011 -0.64999998 75 39 198 0.000000 0.000000 0.000000 0.000000 -60.708740 0.000000 143.000000 -0.201314 0.785278 0.585501
0.36000001 -8.68000031 -0.63999999 75 39 198 0.000000 0.000000 0.000000 0.000000 -60.708740 0.000000 143.000000 -0.272733 0.931249 0.241644
0.37000000 -8.65999985 -0.66000003 75 39 198 0.000000 0.000000 0.000000 0.000000 -60.708740 0.000000 143.000000 -0.216231 0.907010 0.361353
0.41999999 -8.71000004 -0.56000000 75 39 198 0.000000 0.000000 0.000000 0.000000 -60.708740 0.000000 143.000000 -0.362237 0.838947 0.406144
0.40000001 -8.71000004 -0.52999997 75 39 198 0.000000 0.000000 0.000000 0.000000 -60.708740 0.000000 143.000000 0.397768 -0.599128 -0.694857
0.41000000 -8.69999981 -0.63000000 75 39 198 0.000000 0.000000 0.000000 0.000000 -60.708740 0.000000 143.000000 0.557106 -0.480149 -0.677562
0.41000000 -8.75000000 -0.61000001 75 39 198 0.000000 0.000000 0.000000 0.000000 -60.708740 0.000000 143.000000 -0.191199 0.933663 0.302847
0.34000000 -8.68999958 -0.63999999 75 39 198 0.000000 0.000000 0.000000 0.000000 -60.708740 0.000000 143.000000 -0.340522 0.889557 0.304520
0.31000000 -8.64999962 -0.63999999 75 39 198 0.000000 0.000000 0.000000 0.000000 -60.708740 0.000000 143.000000 -0.308765 0.942474 0.128090
0.31999999 -8.65999985 -0.67000002 75 39 198 0.000000 0.000000 0.000000 0.000000 -60.708740 0.000000 143.000000 -0.530611 0.638417 0.557562
0.28000000 -8.64999962 -0.68000001 75 39 198 0.000000 0.000000 0.000000 0.000000 -60.708740 0.000000 143.000000 -0.105973 0.966528 0.233652
0.33000001 -8.71000004 -0.69000000 75 39 198 0.000000 0.000000 0.000000 0.000000 -60.708740 0.000000 143.000000 -0.434214 0.897376 0.078572
0.31999999 -8.71000004 -0.69000000 75 39 198 0.000000 0.000000 0.000000 0.000000 -60.708740 0.000000 143.000000 -0.231839 0.827557 0.511274
0.25999999 -8.68999958 -0.68000001 75 39 198 0.000000 0.000000 0.000000 0.000000 -60.708740 0.000000 143.000000 -0.149332 0.731575 0.665205
0.58999997 -8.81999969 -0.03000000 75 39 198 0.000000 0.000000 0.000000 0.000000 -60.708740 0.000000 143.000000 0.764717 -0.354065 -0.538373
0.56000000 -8.85000038 -0.04000000 75 39 198 0.000000 0.000000 0.000000 0.000000 -60.708740 0.000000 143.000000 -0.629992 0.768678 0.110654
0.56000000 -8.85000038 -0.04000000 75 39 198 0.000000 0.000000 0.000000 0.000000 -60.708740 0.000000 143.000000 -0.629992 0.768678 0.110654
0.55000001 -8.85000038 -0.06000000 75 39 198 0.000000 0.000000 0.000000 0.000000 -60.708740 0.000000 143.000000 -0.387147 0.914443 0.117948
0.51999998 -8.78999996 -0.06000000 75 39 198 0.000000 0.000000 0.000000 0.000000 -60.708740 0.000000 143.000000 -0.259178 0.817886 0.513701
0.51999998 -8.77000046 -0.08000000 75 39 198 0.000000 0.000000 0.000000 0.000000 -60.708740 0.000000 143.000000 0.713849 -0.680364 -0.165905
0.54000002 -8.81999969 -0.04000000 75 39 198 0.000000 0.000000 0.000000 0.000000 -60.708740 0.000000 143.000000 -0.608872 0.783681 0.122959
0.51999998 -8.84000015 -0.09000000 75 39 198 0.000000 0.000000 0.000000 0.000000 -60.708740 0.000000 143.000000 0.733371 -0.649999 -0.199168
0.58999997 -8.84000015 -0.11000000 75 39 198 0.000000 0.000000 0.000000 0.000000 -60.708740 0.000000 143.000000 0.456053 -0.589695 -0.666539
0.57999998 -8.85000038 -0.15000001 75 39 198 0.000000 0.000000 0.000000 0.000000 -60.708740 0.000000 143.000000 -0.263313 0.764711 0.588118
0.57999998 -8.85000038 -0.15000001 75 39 198 0.000000 0.000000 0.000000 0.000000 -60.708740 0.000000 143.000000 -0.263313 0.764711 0.588118
0.52999997 -8.77999973 -0.16000000 75 39 198 0.000000 0.000000 0.000000 0.000000 -60.708740 0.000000 143.000000 0.665056 -0.428370 -0.611718
0.50999999 -8.81000042 -0.14000000 75 39 198 0.000000 0.000000 0.000000 0.000000 -60.708740 0.000000 143.000000 -0.148969 0.938915 0.310238
0.51999998 -8.81000042 -0.16000000 75 39 198 0.000000 0.000000 0.000000 0.000000 -60.708740 0.000000 143.000000 0.715033 -0.452909 -0.532542
0.55000001 -8.85999966 -0.05000000 75 39 198 0.000000 0.000000 0.000000 0.000000 -60.708740 0.000000 143.000000 0.805445 -0.497247 -0.322496
0.58999997 -8.89000034 -0.08000000 75 39 198 0.000000 0.000000 0.000000 0.000000 -60.708740 0.000000 143.000000 -0.625507 0.780158 0.009666
0.57999998 -8.86999989 -0.17000000 75 39 198 0.000000 0.000000 0.000000 0.000000 -60.708740 0.000000 143.000000 0.818340 -0.553013 -0.156513
0.57999998 -8.86999989 -0.17000000 75 39 198 0.000000 0.000000 0.000000 0.000000 -60.708740 0.000000 143.000000 0.818340 -0.553013 -0.156513
0.58999997 -8.85999966 -0.17000000 75 39 198 0.000000 0.000000 0.000000 0.000000 -60.708740 0.000000 143.000000 -0.226143 0.810732 0.539975
0.50999999 -8.85999966 -0.14000000 75 39 198 0.000000 0.000000 0.000000 0.000000 -60.708740 0.000000 143.000000 -0.286072 0.944987 0.158628
0.50000000 -8.81000042 -0.15000001 75 39 198 0.000000 0.000000 0.000000 0.000000 -60.708740 0.000000 143.000000 0.681717 -0.477370 -0.554419
0.56999999 -8.85000038 -0.25000000 75 39 198 0.000000 0.000000 0.000000 0.000000 -60.708740 0.000000 143.000000 -0.199039 0.857513 0.474400
0.52999997 -8.80000019 -0.22000000 75 39 198 0.000000 0.000000 0.000000 0.000000 -60.708740 0.000000 143.000000 -0.605280 0.787894 0.113398
0.52999997 -8.81000042 -0.20999999 75 39 198 0.000000 0.000000 0.000000 0.000000 -60.708740 0.000000 143.000000 -0.770948 0.428667 0.471045
0.52999997 -8.85000038 -0.25999999 75 39 198 0.000000 0.000000 0.000000 0.000000 -60.708740 0.000000 143.000000 0.733653 -0.430300 -0.525922
0.57999998 -8.77999973 -0.31000000 75 39 198 0.000000 0.000000 0.000000 0.000000 -60.708740 0.000000 143.000000 -0.619280 0.548409 0.561908
0.57999998 -8.81999969 -0.28000000 75 39 198 0.000000 0.000000 0.000000 0.000000 -60.708740 0.000000 143.000000 0.586053 -0.521874 -0.619831
0.56000000 -8.81999969 -0.30000001 75 39 198 0.000000 0.000000 0.000000 0.000000 -60.708740 0.000000 143.000000 0.720809 -0.692816 -0.020994
0.58999997 -8.81000042 -0.34999999 75 39 198 0.000000 0.000000 0.000000 0.000000 -60.708740 0.000000 143.000000 -0.543070 0.509444 0.667489
0.52999997 -8.85000038 -0.28999999 75 39 198 0.000000 0.000000 0.000000 0.000000 -60.708740 0.000000 143.000000 -0.237764 0.666054 0.706994
0.50999999 -8.84000015 -0.31000000 75 39 198 0.000000 0.000000 0.000000 0.000000 -60.708740 0.000000 143.000000 -0.383215 0.780982 0.493167
0.50999999 -8.84000015 -0.30000001 75 39 198 0.000000 0.000000 0.000000 0.000000 -60.708740 0.000000 143.000000 -0.213962 0.958178 0.190041
0.52999997 -8.85000038 -0.28999999 75 39 198 0.000000 0.000000 0.000000 0.000000 -60.708740 0.000000 143.000000 -0.237764 0.666054 0.706994
0.51999998 -8.85000038 -0.34999999 75 39 198 0.000000 0.000000 0.000000 0.000000 -60.708740 0.000000 143.000000 -0.511390 0.616031 0.599154
0.52999997 -8.84000015 -0.34999999 75 39 198 0.000000 0.000000 0.000000 0.000000 -60.708740 0.000000 143.000000 -0.322310 0.937011 0.134636
0.54000002 -8.82999992 -0.34999999 75 39 198 0.000000 0.000000 0.000000 0.000000 -60.708740 0.000000 143.000000 0.828847 -0.527995 -0.185024
0.54000002 -8.84000015 -0.34999999 75 39 198 0.000000 0.000000 0.000000 0.000000 -60.708740 0.000000 143.000000 -0.241687 0.891128 0.384030
0.51999998 -8.85000038 -0.34000000 75 39 198 0.000000 0.000000 0.000000 0.000000 -60.708740 0.000000 143.000000 -0.397057 0.798937 0.451713
0.58999997 -8.85999966 -0.22000000 75 39 198 0.000000 0.000000 0.000000 0.000000 -60.708740 0.000000 143.000000 0.820884 -0.360427 -0.442992
0.56999999 -8.85999966 -0.20000000 75 39 198 0.000000 0.000000 0.000000 0.000000 -60.708740 0.000000 143.000000 0.572850 -0.433374 -0.695723
0.58999997 -8.86999989 -0.20999999 75 39 198 0.000000 0.000000 0.000000 0.000000 -60.708740 0.000000 143.000000 0.672704 -0.672704 -0.308121
0.57999998 -8.89000034 -0.20000000 75 39 198 0.000000 0.000000 0.000000 0.000000 -60.708740 0.000000 143.000000 -0.460207 0.610820 0.644289
0.58999997 -8.88000011 -0.25000000 75 39 198 0.000000 0.000000 0.000000 0.000000 -60.708740 0.000000 143.000000 -0.472526 0.699606 0.535975
0.56999999 -8.86999989 -0.27000001 75 39 198 0.000000 0.000000 0.000000 0.000000 -60.708740 0.000000 143.000000 -0.398518 0.795423 0.456602
0.57999998 -8.88000011 -0.25000000 75 39 198 0.000000 0.000000 0.000000 0.000000 -60.708740 0.000000 143.000000 -0.676744 0.569802 0.466201
0.52999997 -8.86999989 -0.19000000 75 39 198 0.000000 0.000000 0.000000 0.000000 -60.708740 0.000000 143.000000 -0.441244 0.883935 0.154797
0.52999997 -8.86999989 -0.27000001 75 39 198 0.000000 0.000000 0.000000 0.000000 -60.708740 0.000000 143.000000 -0.137047 0.875659 0.463075
0.56000000 -8.85999966 -0.28999999 75 39 198 0.000000 0.000000 0.000000 0.000000 -60.708740 0.000000 143.000000 -0.196409 0.913231 0.356977
0.52999997 -8.85999966 -0.28000000 75 39 198 0.000000 0.000000 0.000000 0.000000 -60.708740 0.000000 143.000000 -0.126892 0.741944 0.658345
0.50000000 -8.78999996 -0.28000000 75 39 198 0.000000 0.000000 0.000000 0.000000 -60.708740 0.000000 143.000000 0.776331 -0.614783 -0.139111
0.46000001 -8.81999969 -0.28999999 75 39 198 0.000000 0.000000 0.000000 0.000000 -60.708740 0.000000 143.000000 -0.205183 0.828330 0.521316
0.46000001 -8.81999969 -0.28000000 75 39 198 0.000000 0.000000 0.000000 0.000000 -60.708740 0.000000 143.000000 -0.085315 0.790969 0.605879
0.44999999 -8.81000042 -0.28999999 75 39 198 0.000000 0.000000 0.000000 0.000000 -60.708740 0.000000 143.000000 -0.648923 0.735241 0.195756
0.58999997 -9.01000023 -0.22000000 75 39 198 0.000000 0.000000 0.000000 0.000000 -60.708740 0.000000 143.000000 -0.119635 0.896558 0.426463
0.58999997 -8.97999954 -0.31000000 75 39 198 0.000000 0.000000 0.000000 0.000000 -60.708740 0.000000 143.000000 -0.521476 0.776563 0.353570
0.56999999 -9.01000023 -0.33000001 75 39 198 0.000000 0.000000 0.000000 0.000000 -60.708740 0.000000 143.000000 -0.244826 0.853089 0.460759
0.58999997 -9.02000046 -0.34000000 75 39 198 0.000000 0.000000 0.000000 0.000000 -60.708740 0.000000 143.000000 -0.378995 0.880296 0.285379
0.56000000 -9.03999996 -0.34999999 75 39 198 0.000000 0.000000 0.000000 0.000000 -60.708740 0.000000 143.000000 -0.395264 0.915987 0.068800
0.58999997 -8.78999996 -0.38000000 75 39 198 0.000000 0.000000 0.000000 0.000000 -60.708740 0.000000 143.000000 -0.572726 0.779849 0.252627
0.58999997 -8.78999996 -0.36000001 75 39 198 0.000000 0.000000 0.000000 0.000000 -60.708740 0.000000 143.000000 -0.505644 0.746113 0.433174
0.56000000 -8.82999992 -0.38999999 75 39 198 0.000000 0.000000 0.000000 0.000000 -60.708740 0.000000 143.000000 -0.325525 0.808255 0.490670
0.56000000 -8.82999992 -0.38000000 75 39 198 0.000000 0.000000 0.000000 0.000000 -60.708740 0.000000 143.000000 -0.569592 0.426779 0.702442
0.57999998 -8.81999969 -0.38999999 75 39 198 0.000000 0.000000 0.000000 0.000000 -60.708740 0.000000 143.000000 -0.474021 0.787878 0.393130
0.56999999 -8.81999969 -0.37000000 75 39 198 0.000000 0.000000 0.000000 0.000000 -60.708740 0.000000 143.000000 -0.711699 0.555756 0.429674
0.56000000 -8.81999969 -0.41000000 75 39 198 0.000000 0.000000 0.000000 0.000000 -60.708740 0.000000 143.000000 -0.332773 0.914766 0.229052
0.56999999 -8.81999969 -0.41000000 75 39 198 0.000000 0.000000 0.000000 0.000000 -60.708740 0.000000 143.000000 -0.572763 0.623450 0.532214
0.54000002 -8.84000015 -0.38999999 75 39 198 0.000000 0.000000 0.000000 0.000000 -60.708740 0.000000 143.000000 -0.174217 0.929620 0.324740
0.54000002 -8.82999992 -0.36000001 75 39 198 0.000000 0.000000 0.000000 0.000000 -60.708740 0.000000 143.000000 0.736655 -0.519119 -0.433423
0.54000002 -8.82999992 -0.36000001 75 39 198 0.000000 0.000000 0.000000 0.000000 -60.708740 0.000000 143.000000 0.736655 -0.519119 -0.433423
0.50999999 -8.82999992 -0.38000000 75 39 198 0.000000 0.000000 0.000000 0.000000 -60.708740 0.000000 143.000000 -0.087163 0.841625 0.532982
0.54000002 -8.82999992 -0.36000001 75 39 198 0.000000 0.000000 0.000000 0.000000 -60.708740 0.000000 143.000000 0.736655 -0.519119 -0.433423
0.52999997 -8.84000015 -0.36000001 75 39 198 0.000000 0.000000 0.000000 0.000000 -60.708740 0.000000 143.000000 -0.409574 0.908186 0.086298
0.54000002 -8.84000015 -0.40000001 75 39 198 0.000000 0.000000 0.000000 0.000000 -60.708740 0.000000 143.000000 -0.625257 0.768514 0.135796
0.54000002 -8.84000015 -0.43000001 75 39 198 0.000000 0.000000 0.000000 0.000000 -60.708740 0.000000 143.000000 0.712113 -0.648389 -0.269233
0.57999998 -8.77999973 -0.44000000 75 39 198 0.000000 0.000000 0.000000 0.000000 -60.708740 0.000000 143.000000 0.628932 -0.541252 -0.558114
0.55000001 -8.77999973 -0.46000001 75 39 198 0.000000 0.000000 0.000000 0.000000 -60.708740 0.000000 143.000000 -0.309417 0.821447 0.479047
0.56000000 -8.78999996 -0.46000001 75 39 198 0.000000 0.000000 0.000000 0.000000 -60.708740 0.000000 143.000000 -0.459742 0.823112 0.333352
0.55000001 -8.78999996 -0.44999999 75 39 198 0.000000 0.000000 0.000000 0.000000 -60.708740 0.000000 143.000000 0.501027 -0.541244 -0.675298
0.55000001 -8.81000042 -0.46000001 75 39 198 0.000000 0.000000 0.000000 0.000000 -60.708740 0.000000 143.000000 -0.325912 0.823440 0.464464
0.56000000 -8.81000042 -0.47999999 75 39 198 0.000000 0.000000 0.000000 0.000000 -60.708740 0.000000 143.000000 -0.624012 0.756518 0.195678
0.55000001 -8.81000042 -0.44000000 75 39 198 0.000000 0.000000 0.000000 0.000000 -60.708740 0.000000 143.000000 -0.550024 0.824298 0.134188
0.57999998 -8.85000038 -0.49000001 75 39 198 0.000000 0.000000 0.000000 0.000000 -60.708740 0.000000 143.000000 0.619675 -0.688710 -0.376407
0.56000000 -8.81000042 -0.51999998 75 39 198 0.000000 0.000000 0.000000 0.000000 -60.708740 0.000000 143.000000 0.473167 -0.499730 -0.725522
0.54000002 -8.78999996 -0.46000001 75 39 198 0.000000 0.000000 0.000000 0.000000 -60.708740 0.000000 143.000000 -0.609786 0.745998 0.267672
0.54000002 -8.81999969 -0.47000000 75 39 198 0.000000 0.000000 0.000000 0.000000 -60.708740 0.000000 143.000000 -0.681103 0.611502 0.402696
0.51999998 -8.81999969 -0.44999999 75 39 198 0.000000 0.000000 0.000000 0.000000 -60.708740 0.000000 143.000000 -0.218007 0.861504 0.458567
0.50999999 -8.81999969 -0.49000001 75 39 198 0.000000 0.000000 0.000000 0.000000 -60.708740 0.000000 143.000000 -0.138778 0.944498 0.297766
0.47000000 -8.78999996 -0.37000000 75 39 198 0.000000 0.000000 0.000000 0.000000 -60.708740 0.000000 143.000000 -0.045085 0.941626 0.333627
0.47000000 -8.78999996 -0.37000000 75 39 198 0.000000 0.000000 0.000000 0.000000 -60.708740 0.000000 143.000000 -0.045085 0.941626 0.333627
0.47000000 -8.78999996 -0.37000000 75 39 198 0.000000 0.000000 0.000000 0.000000 -60.708740 0.000000 143.000000 -0.045085 0.941626 0.333627
0.50000000 -8.85000038 -0.41000000 75 39 198 0.000000 0.000000 0.000000 0.000000 -60.708740 0.000000 143.000000 0.725182 -0.536866 -0.431145
0.46000001 -8.78999996 -0.37000000 75 39 198 0.000000 0.000000 0.000000 0.000000 -60.708740 0.000000 143.000000 -0.601424 0.668063 0.438156
0.44999999 -8.78999996 -0.41999999 75 39 198 0.000000 0.000000 0.000000 0.000000 -60.708740 0.000000 143.000000 -0.538615 0.805595 0.246801
0.44999999 -8.80000019 -0.41000000 75 39 198 0.000000 0.000000 0.000000 0.000000 -60.708740 0.000000 143.000000 -0.240518 0.649240 0.721553
0.49000001 -8.80000019 -0.51999998 75 39 198 0.000000 0.000000 0.000000 0.000000 -60.708740 0.000000 143.000000 -0.183120 0.918438 0.350625
0.47000000 -8.81000042 -0.49000001 75 39 198 0.000000 0.000000 0.000000 0.000000 -60.708740 0.000000 143.000000 -0.431561 0.790386 0.434793
0.50000000 -8.84000015 -0.50000000 75 39 198 0.000000 0.000000 0.000000 0.000000 -60.708740 0.000000 143.000000 0.620170 -0.576235 -0.532299
0.47000000 -8.81999969 -0.49000001 75 39 198 0.000000 0.000000 0.000000 0.000000 -60.708740 0.000000 143.000000 -0.195259 0.963189 0.184775
0.44999999 -8.77999973 -0.46000001 75 39 198 0.000000 0.000000 0.000000 0.000000 -60.708740 0.000000 143.000000 -0.347230 0.702612 0.621102
0.44999999 -8.77999973 -0.47000000 75 39 198 0.000000 0.000000 0.000000 0.000000 -60.708740 0.000000 143.000000 -0.219459 0.846051 0.485836
0.44999999 -8.77999973 -0.46000001 75 39 198 0.000000 0.000000 0.000000 0.000000 -60.708740 0.000000 143.000000 -0.347230 0.702612 0.621102
0.44999999 -8.77999973 -0.47000000 75 39 198 0.000000 0.000000 0.000000 0.000000 -60.708740 0.000000 143.000000 -0.219459 0.846051 0.485836
0.44000000 -8.81000042 -0.44999999 75 39 198 0.000000 0.000000 0.000000 0.000000 -60.708740 0.000000 143.000000 -0.461261 0.826491 0.322725
