//X Y Z R G B PointSourceId ScanDirectionFlag NumberOfReturns ReturnNumber GpsTime Intensity Classification Nx Ny Nz
17.65999985 -3.72000003 0.12000000 12 34 232 97.000000 1.000000 4.000000 1.000000 -60.708740 114.000000 18.000000 0.724684 -0.449404 -0.522369
17.67000008 -3.66000009 0.06000000 12 34 232 97.000000 1.000000 4.000000 1.000000 -60.708740 114.000000 18.000000 0.922507 -0.022057 -0.385351
17.67000008 -3.65000010 0.06000000 12 34 232 97.000000 1.000000 4.000000 1.000000 -60.708740 114.000000 18.000000 0.952609 0.089918 -0.290604
17.68000031 -3.71000004 0.06000000 12 34 232 97.000000 1.000000 4.000000 1.000000 -60.708740 114.000000 18.000000 0.992323 -0.123630 0.003282
17.60000038 -3.58999991 -0.01000000 12 34 232 97.000000 1.000000 4.000000 1.000000 -60.708740 114.000000 18.000000 0.908316 -0.166833 -0.383574
17.60000038 -3.61999989 0.04000000 12 34 232 97.000000 1.000000 4.000000 1.000000 -60.708740 114.000000 18.000000 0.906415 -0.371529 -0.200944
17.57999992 -3.56999993 0.00000000 12 34 232 97.000000 1.000000 4.000000 1.000000 -60.708740 114.000000 18.000000 0.980010 -0.195528 0.036736
17.57999992 -3.64000010 0.03000000 12 34 232 97.000000 1.000000 4.000000 1.000000 -60.708740 114.000000 18.000000 0.854839 -0.434326 -0.283923
17.55999947 -3.64000010 -0.01000000 12 34 232 97.000000 1.000000 4.000000 1.000000 -60.708740 114.000000 18.000000 0.898239 -0.424597 0.113506
17.61000061 -3.67000008 0.08000000 12 34 232 97.000000 1.000000 4.000000 1.000000 -60.708740 114.000000 18.000000 0.845472 -0.501298 -0.184059
17.61000061 -3.71000004 0.13000000 12 34 232 97.000000 1.000000 4.000000 1.000000 -60.708740 114.000000 18.000000 0.884756 0.017348 -0.465731
17.57999992 -3.73000002 0.13000000 12 34 232 97.000000 1.000000 4.000000 1.000000 -60.708740 114.000000 18.000000 0.937011 -0.134636 -0.322310
17.57999992 -3.71000004 0.08000000 12 34 232 97.000000 1.000000 4.000000 1.000000 -60.708740 114.000000 18.000000 0.852386 -0.430046 -0.297487
17.61000061 -3.66000009 0.06000000 12 34 232 97.000000 1.000000 4.000000 1.000000 -60.708740 114.000000 18.000000 0.736415 -0.556001 -0.385429
17.59000015 -3.72000003 0.03000000 12 34 232 97.000000 1.000000 4.000000 1.000000 -60.708740 114.000000 18.000000 0.740619 -0.466804 -0.483299
17.57999992 -3.65000010 0.06000000 12 34 232 97.000000 1.000000 4.000000 1.000000 -60.708740 114.000000 18.000000 0.946077 -0.306513 0.104825
17.57999992 -3.67000008 0.04000000 12 34 232 97.000000 1.000000 4.000000 1.000000 -60.708740 114.000000 18.000000 0.815966 -0.354699 -0.456496
17.57999992 -3.68000007 -0.01000000 12 34 232 97.000000 1.000000 4.000000 1.000000 -60.708740 114.000000 18.000000 -0.744862 0.384709 0.545141
17.56999969 -3.70000005 0.00000000 12 34 232 97.000000 1.000000 4.000000 1.000000 -60.708740 114.000000 18.000000 -0.533074 0.746304 0.398575
17.55999947 -3.70000005 -0.02000000 12 34 232 97.000000 1.000000 4.000000 1.000000 -60.708740 114.000000 18.000000 -0.565886 0.780261 0.266392
17.36000061 -3.29999995 0.56999999 12 34 232 97.000000 1.000000 4.000000 1.000000 -60.708740 114.000000 18.000000 -0.403077 0.897171 0.180590
17.36000061 -3.29999995 0.56999999 12 34 232 97.000000 1.000000 4.000000 1.000000 -60.708740 114.000000 18.000000 -0.403077 0.897171 0.180590
17.37000084 -3.31999993 0.64999998 12 34 232 97.000000 1.000000 4.000000 1.000000 -60.708740 114.000000 18.000000 0.208808 0.824562 0.525830
17.36000061 -3.31999993 0.63999999 12 34 232 97.000000 1.000000 4.000000 1.000000 -60.708740 114.000000 18.000000 -0.331008 0.936279 0.117541
17.35000038 -3.31999993 0.64999998 12 34 232 97.000000 1.000000 4.000000 1.000000 -60.708740 114.000000 18.000000 -0.066547 0.943402 0.324906
17.37000084 -3.31999993 0.58999997 12 34 232 97.000000 1.000000 4.000000 1.000000 -60.708740 114.000000 18.000000 0.101544 0.962738 0.250646
17.35000038 -3.35999990 0.61000001 12 34 232 97.000000 1.000000 4.000000 1.000000 -60.708740 114.000000 18.000000 0.195488 0.938618 0.284220
17.35000038 -3.35999990 0.64999998 12 34 232 97.000000 1.000000 4.000000 1.000000 -60.708740 114.000000 18.000000 -0.048648 0.852031 0.521226
17.35000038 -3.35999990 0.60000002 12 34 232 97.000000 1.000000 4.000000 1.000000 -60.708740 114.000000 18.000000 -0.537190 0.749453 0.386972
17.34000015 -3.29999995 0.44999999 12 34 232 97.000000 1.000000 4.000000 1.000000 -60.708740 114.000000 18.000000 -0.177549 0.845968 0.502806
17.35000038 -3.28999996 0.47999999 12 34 232 97.000000 1.000000 4.000000 1.000000 -60.708740 114.000000 18.000000 -0.406630 0.893420 0.190927
17.37000084 -3.28999996 0.44000000 12 34 232 97.000000 1.000000 4.000000 1.000000 -60.708740 114.000000 18.000000 -0.013704 0.950569 0.310212
17.37000084 -3.27999997 0.44000000 12 34 232 97.000000 1.000000 4.000000 1.000000 -60.708740 114.000000 18.000000 -0.268223 0.907267 0.323919
17.36000061 -3.24000001 0.34999999 12 34 232 97.000000 1.000000 4.000000 1.000000 -60.708740 114.000000 18.000000 0.020041 0.885810 0.463614
17.36000061 -3.29999995 0.33000001 12 34 232 97.000000 1.000000 4.000000 1.000000 -60.708740 114.000000 18.000000 -0.172392 0.961973 0.211871
17.35000038 -3.28999996 0.34000000 12 34 232 97.000000 1.000000 4.000000 1.000000 -60.708740 114.000000 18.000000 -0.310682 0.940186 0.139739
17.29999924 -3.31999993 0.46000001 12 34 232 97.000000 1.000000 4.000000 1.000000 -60.708740 114.000000 18.000000 -0.441923 0.890861 0.105220
17.31999969 -3.31999993 0.43000001 12 34 232 97.000000 1.000000 4.000000 1.000000 -60.708740 114.000000 18.000000 0.133715 0.878495 0.458658
17.36000061 -3.22000003 0.17000000 12 34 232 97.000000 1.000000 4.000000 1.000000 -60.708740 114.000000 18.000000 0.075584 0.828572 0.554758
17.35000038 -3.21000004 0.16000000 12 34 232 97.000000 1.000000 4.000000 1.000000 -60.708740 114.000000 18.000000 0.158613 0.973248 0.166226
17.36000061 -3.21000004 0.16000000 12 34 232 97.000000 1.000000 4.000000 1.000000 -60.708740 114.000000 18.000000 -0.331289 0.888934 0.316298
17.37000084 -3.22000003 0.17000000 12 34 232 97.000000 1.000000 4.000000 1.000000 -60.708740 114.000000 18.000000 0.314160 0.894834 0.317137
17.34000015 -3.20000005 0.19000000 12 34 232 97.000000 1.000000 4.000000 1.000000 -60.708740 114.000000 18.000000 0.279174 0.825046 0.491285
17.29999924 -3.21000004 0.08000000 12 34 232 97.000000 1.000000 4.000000 1.000000 -60.708740 114.000000 18.000000 0.163456 0.908247 0.385188
17.32999992 -3.20000005 0.07000000 12 34 232 97.000000 1.000000 4.000000 1.000000 -60.708740 114.000000 18.000000 -0.478571 0.838653 0.260059
17.37000084 -3.19000006 0.05000000 12 34 232 97.000000 1.000000 4.000000 1.000000 -60.708740 114.000000 18.000000 0.367799 0.798236 0.477014
17.35000038 -3.22000003 -0.01000000 12 34 232 97.000000 1.000000 4.000000 1.000000 -60.708740 114.000000 18.000000 -0.067921 0.724010 0.686437
17.30999947 -3.27999997 0.23999999 12 34 232 97.000000 1.000000 4.000000 1.000000 -60.708740 114.000000 18.000000 -0.288309 0.590954 0.753426
17.36000061 -3.25000000 0.20999999 12 34 232 97.000000 1.000000 4.000000 1.000000 -60.708740 114.000000 18.000000 0.062019 0.883424 0.464452
17.37000084 -3.24000001 0.05000000 12 34 232 97.000000 1.000000 4.000000 1.000000 -60.708740 114.000000 18.000000 -0.029416 -0.785832 -0.617740
17.35000038 -3.23000002 0.07000000 12 34 232 97.000000 1.000000 4.000000 1.000000 -60.708740 114.000000 18.000000 -0.037665 0.970797 0.236928
17.32999992 -3.23000002 0.13000000 12 34 232 97.000000 1.000000 4.000000 1.000000 -60.708740 114.000000 18.000000 -0.467169 0.787236 0.402509
17.37000084 -3.73000002 0.02000000 12 34 232 97.000000 1.000000 4.000000 1.000000 -60.708740 114.000000 18.000000 -0.028534 0.870967 0.490513
17.76000023 -4.05000019 0.69999999 12 34 232 97.000000 1.000000 4.000000 1.000000 -60.708740 114.000000 18.000000 0.729586 -0.589843 -0.346106
17.76000023 -4.05000019 0.69000000 12 34 232 97.000000 1.000000 4.000000 1.000000 -60.708740 114.000000 18.000000 0.993340 -0.113305 0.020901
17.71999931 -3.88000011 0.49000001 12 34 232 97.000000 1.000000 4.000000 1.000000 -60.708740 114.000000 18.000000 0.848145 -0.482279 -0.219218
17.72999954 -3.79999995 0.31999999 12 34 232 97.000000 1.000000 4.000000 1.000000 -60.708740 114.000000 18.000000 0.975511 -0.034797 -0.217180
17.72999954 -3.80999994 0.36000001 12 34 232 97.000000 1.000000 4.000000 1.000000 -60.708740 114.000000 18.000000 0.817025 -0.409309 -0.406124
17.73999977 -3.83999991 0.43000001 12 34 232 97.000000 1.000000 4.000000 1.000000 -60.708740 114.000000 18.000000 0.996784 0.061824 0.050978
17.73999977 -3.83999991 0.41999999 12 34 232 97.000000 1.000000 4.000000 1.000000 -60.708740 114.000000 18.000000 0.951088 -0.218438 0.218438
17.75000000 -3.83999991 0.40000001 12 34 232 97.000000 1.000000 4.000000 1.000000 -60.708740 114.000000 18.000000 0.801987 -0.582589 -0.131935
17.71999931 -3.81999993 0.41999999 12 34 232 97.000000 1.000000 4.000000 1.000000 -60.708740 114.000000 18.000000 0.946804 0.234303 -0.220601
17.72999954 -3.85999990 0.41000000 12 34 232 97.000000 1.000000 4.000000 1.000000 -60.708740 114.000000 18.000000 0.893690 -0.446167 -0.047465
17.72999954 -3.85999990 0.37000000 12 34 232 97.000000 1.000000 4.000000 1.000000 -60.708740 114.000000 18.000000 0.935084 0.064443 -0.348519
17.71999931 -3.81999993 0.34000000 12 34 232 97.000000 1.000000 4.000000 1.000000 -60.708740 114.000000 18.000000 0.837859 -0.543135 -0.054735
17.75000000 -3.82999992 0.38000000 12 34 232 97.000000 1.000000 4.000000 1.000000 -60.708740 114.000000 18.000000 0.884772 -0.058985 -0.462276
17.73999977 -3.84999990 0.38999999 12 34 232 97.000000 1.000000 4.000000 1.000000 -60.708740 114.000000 18.000000 0.743447 -0.606538 -0.281778
17.78000069 -3.94000006 0.58999997 12 34 232 97.000000 1.000000 4.000000 1.000000 -60.708740 114.000000 18.000000 0.987455 0.123874 -0.097920
17.76000023 -3.98000002 0.63000000 12 34 232 97.000000 1.000000 4.000000 1.000000 -60.708740 114.000000 18.000000 0.937129 -0.161005 -0.309624
17.78000069 -3.95000005 0.58999997 12 34 232 97.000000 1.000000 4.000000 1.000000 -60.708740 114.000000 18.000000 0.996402 -0.062071 -0.057715
17.73999977 -3.90000010 0.58999997 12 34 232 97.000000 1.000000 4.000000 1.000000 -60.708740 114.000000 18.000000 0.927829 -0.346040 0.139243
17.72999954 -3.92000008 0.60000002 12 34 232 97.000000 1.000000 4.000000 1.000000 -60.708740 114.000000 18.000000 0.896765 -0.375493 -0.234131
17.73999977 -3.97000003 0.56999999 12 34 232 97.000000 1.000000 4.000000 1.000000 -60.708740 114.000000 18.000000 0.935177 -0.315399 -0.161142
17.76000023 -3.92000008 0.55000001 12 34 232 97.000000 1.000000 4.000000 1.000000 -60.708740 114.000000 18.000000 0.999643 0.023248 -0.013140
17.76000023 -3.90000010 0.49000001 12 34 232 97.000000 1.000000 4.000000 1.000000 -60.708740 114.000000 18.000000 0.999004 -0.025935 0.036309
17.76000023 -3.95000005 0.51999998 12 34 232 97.000000 1.000000 4.000000 1.000000 -60.708740 114.000000 18.000000 0.864074 -0.226913 -0.449318
17.75000000 -3.93000007 0.50999999 12 34 232 97.000000 1.000000 4.000000 1.000000 -60.708740 114.000000 18.000000 0.850867 -0.284648 -0.441589
17.73999977 -3.97000003 0.56000000 12 34 232 97.000000 1.000000 4.000000 1.000000 -60.708740 114.000000 18.000000 0.975705 -0.216690 -0.032324
17.73999977 -3.95000005 0.49000001 12 34 232 97.000000 1.000000 4.000000 1.000000 -60.708740 114.000000 18.000000 0.640892 -0.576971 -0.506322
17.72999954 -3.91000009 0.44999999 12 34 232 97.000000 1.000000 4.000000 1.000000 -60.708740 114.000000 18.000000 0.818737 -0.499383 -0.283349
17.72999954 -3.90000010 0.46000001 12 34 232 97.000000 1.000000 4.000000 1.000000 -60.708740 114.000000 18.000000 0.998348 -0.015648 0.055290
17.76000023 -3.90000010 0.47999999 12 34 232 97.000000 1.000000 4.000000 1.000000 -60.708740 114.000000 18.000000 0.909317 -0.041272 -0.414052
17.71999931 -3.92000008 0.44999999 12 34 232 97.000000 1.000000 4.000000 1.000000 -60.708740 114.000000 18.000000 -0.677541 0.437821 0.590975
17.71999931 -3.78999996 0.27000001 12 34 232 97.000000 1.000000 4.000000 1.000000 -60.708740 114.000000 18.000000 0.743400 -0.509336 -0.433513
17.71999931 -3.75000000 0.25000000 12 34 232 97.000000 1.000000 4.000000 1.000000 -60.708740 114.000000 18.000000 0.889841 -0.428335 -0.157200
17.67000008 -3.95000005 0.67000002 12 34 232 97.000000 1.000000 4.000000 1.000000 -60.708740 114.000000 18.000000 0.907425 -0.413458 -0.075050
17.39999962 -4.05999994 0.68000001 12 34 232 97.000000 1.000000 4.000000 1.000000 -60.708740 114.000000 18.000000 0.506166 0.801298 0.318932
17.37000084 -4.05999994 0.67000002 12 34 232 97.000000 1.000000 4.000000 1.000000 -60.708740 114.000000 18.000000 0.590500 0.660758 0.463367
17.36000061 -4.03999996 0.70999998 12 34 232 97.000000 1.000000 4.000000 1.000000 -60.708740 114.000000 18.000000 0.740651 0.480021 0.470124
17.35000038 -4.13000011 0.70999998 12 34 232 97.000000 1.000000 4.000000 1.000000 -60.708740 114.000000 18.000000 0.525232 0.822302 0.218974
17.31999969 -4.11999989 0.67000002 12 34 232 97.000000 1.000000 4.000000 1.000000 -60.708740 114.000000 18.000000 0.726072 0.675172 0.130244
17.70999908 -3.89000010 0.55000001 12 34 232 97.000000 1.000000 4.000000 1.000000 -60.708740 114.000000 18.000000 0.832034 -0.554231 -0.023379
17.63999939 -3.86999989 0.51999998 12 34 232 97.000000 1.000000 4.000000 1.000000 -60.708740 114.000000 18.000000 0.987860 -0.073651 0.136781
17.69000053 -3.76999998 0.38999999 12 34 232 97.000000 1.000000 4.000000 1.000000 -60.708740 114.000000 18.000000 0.829283 -0.380680 -0.409113
17.68000031 -3.75999999 0.34999999 12 34 232 97.000000 1.000000 4.000000 1.000000 -60.708740 114.000000 18.000000 0.815263 -0.276970 -0.508561
17.67000008 -3.77999997 0.37000000 12 34 232 97.000000 1.000000 4.000000 1.000000 -60.708740 114.000000 18.000000 0.859475 0.071506 -0.506151
17.62999916 -3.80999994 0.36000001 12 34 232 97.000000 1.000000 4.000000 1.000000 -60.708740 114.000000 18.000000 0.920124 -0.292309 -0.260630
17.68000031 -3.88000011 0.47999999 12 34 232 97.000000 1.000000 4.000000 1.000000 -60.708740 114.000000 18.000000 0.986444 -0.140921 -0.084079
17.64999962 -3.88000011 0.47000000 12 34 232 97.000000 1.000000 4.000000 1.000000 -60.708740 114.000000 18.000000 0.959356 -0.025995 -0.280998
17.65999985 -3.88000011 0.47999999 12 34 232 97.000000 1.000000 4.000000 1.000000 -60.708740 114.000000 18.000000 0.924178 -0.068210 -0.375823
17.64999962 -3.89000010 0.40000001 12 34 232 97.000000 1.000000 4.000000 1.000000 -60.708740 114.000000 18.000000 0.958304 -0.243860 -0.148952
17.64999962 -3.88000011 0.44000000 12 34 232 97.000000 1.000000 4.000000 1.000000 -60.708740 114.000000 18.000000 0.811563 -0.579688 -0.072998
17.70999908 -3.84999990 0.36000001 12 34 232 97.000000 1.000000 4.000000 1.000000 -60.708740 114.000000 18.000000 0.903768 -0.416591 -0.098266
17.69000053 -3.84999990 0.34000000 12 34 232 97.000000 1.000000 4.000000 1.000000 -60.708740 114.000000 18.000000 0.806012 -0.402205 -0.434253
17.69000053 -3.89000010 0.38000000 12 34 232 97.000000 1.000000 4.000000 1.000000 -60.708740 114.000000 18.000000 0.666345 -0.511927 -0.542139
17.70999908 -3.88000011 0.38999999 12 34 232 97.000000 1.000000 4.000000 1.000000 -60.708740 114.000000 18.000000 0.645458 -0.668451 -0.369537
17.70000076 -3.85999990 0.38000000 12 34 232 97.000000 1.000000 4.000000 1.000000 -60.708740 114.000000 18.000000 0.779228 -0.572270 -0.255562
17.70000076 -3.85999990 0.36000001 12 34 232 97.000000 1.000000 4.000000 1.000000 -60.708740 114.000000 18.000000 0.956333 0.046620 -0.288538
17.68000031 -3.85999990 0.33000001 12 34 232 97.000000 1.000000 4.000000 1.000000 -60.708740 114.000000 18.000000 0.875664 -0.383957 -0.292900
17.70999908 -3.85999990 0.34000000 12 34 232 97.000000 1.000000 4.000000 1.000000 -60.708740 114.000000 18.000000 0.829419 -0.546629 0.115157
17.68000031 -3.86999989 0.34000000 12 34 232 97.000000 1.000000 4.000000 1.000000 -60.708740 114.000000 18.000000 0.884879 -0.395435 -0.246214
17.68000031 -3.85999990 0.34000000 12 34 232 97.000000 1.000000 4.000000 1.000000 -60.708740 114.000000 18.000000 0.846726 -0.483194 -0.222663
17.65999985 -3.83999991 0.38999999 12 34 232 97.000000 1.000000 4.000000 1.000000 -60.708740 114.000000 18.000000 0.987189 0.035709 -0.155508
17.62999916 -3.89000010 0.36000001 12 34 232 97.000000 1.000000 4.000000 1.000000 -60.708740 114.000000 18.000000 0.791623 -0.241064 -0.561446
17.62000084 -3.88000011 0.44999999 12 34 232 97.000000 1.000000 4.000000 1.000000 -60.708740 114.000000 18.000000 0.724560 -0.614827 -0.311448
17.60000038 -3.86999989 0.47000000 12 34 232 97.000000 1.000000 4.000000 1.000000 -60.708740 114.000000 18.000000 0.810074 -0.530202 -0.250330
17.54999924 -3.89000010 0.40000001 12 34 232 97.000000 1.000000 4.000000 1.000000 -60.708740 114.000000 18.000000 0.669089 -0.592336 -0.448840
17.62000084 -3.86999989 0.40000001 12 34 232 97.000000 1.000000 4.000000 1.000000 -60.708740 114.000000 18.000000 0.892290 -0.449520 -0.041847
17.62000084 -3.86999989 0.38000000 12 34 232 97.000000 1.000000 4.000000 1.000000 -60.708740 114.000000 18.000000 0.870124 -0.434311 -0.232935
17.62000084 -3.85999990 0.38999999 12 34 232 97.000000 1.000000 4.000000 1.000000 -60.708740 114.000000 18.000000 0.931373 -0.363557 0.019270
17.68000031 -3.92000008 0.56999999 12 34 232 97.000000 1.000000 4.000000 1.000000 -60.708740 114.000000 18.000000 0.928444 -0.358133 0.098656
17.70999908 -3.92000008 0.60000002 12 34 232 97.000000 1.000000 4.000000 1.000000 -60.708740 114.000000 18.000000 0.937517 0.111641 -0.329543
17.67000008 -3.91000009 0.56999999 12 34 232 97.000000 1.000000 4.000000 1.000000 -60.708740 114.000000 18.000000 0.910451 -0.178660 -0.373042
17.68000031 -3.96000004 0.56999999 12 34 232 97.000000 1.000000 4.000000 1.000000 -60.708740 114.000000 18.000000 0.783297 -0.523800 -0.334783
17.67000008 -3.98000002 0.57999998 12 34 232 97.000000 1.000000 4.000000 1.000000 -60.708740 114.000000 18.000000 0.757381 -0.603070 -0.250361
17.68000031 -3.95000005 0.60000002 12 34 232 97.000000 1.000000 4.000000 1.000000 -60.708740 114.000000 18.000000 0.875469 -0.199980 -0.439957
17.63999939 -3.94000006 0.57999998 12 34 232 97.000000 1.000000 4.000000 1.000000 -60.708740 114.000000 18.000000 0.745022 -0.521351 -0.416094
17.63999939 -3.95000005 0.60000002 12 34 232 97.000000 1.000000 4.000000 1.000000 -60.708740 114.000000 18.000000 0.868658 -0.242381 -0.432071
17.68000031 -3.92000008 0.55000001 12 34 232 97.000000 1.000000 4.000000 1.000000 -60.708740 114.000000 18.000000 0.836949 -0.520669 -0.168583
17.69000053 -3.91000009 0.52999997 12 34 232 97.000000 1.000000 4.000000 1.000000 -60.708740 114.000000 18.000000 0.933053 -0.308228 -0.185495
17.68000031 -3.93000007 0.50000000 12 34 232 97.000000 1.000000 4.000000 1.000000 -60.708740 114.000000 18.000000 0.718553 -0.383119 -0.580433
17.65999985 -3.92000008 0.52999997 12 34 232 97.000000 1.000000 4.000000 1.000000 -60.708740 114.000000 18.000000 0.988231 -0.111631 -0.104581
17.64999962 -3.91000009 0.49000001 12 34 232 97.000000 1.000000 4.000000 1.000000 -60.708740 114.000000 18.000000 0.800536 -0.548717 -0.240938
17.62999916 -3.95000005 0.56000000 12 34 232 97.000000 1.000000 4.000000 1.000000 -60.708740 114.000000 18.000000 0.938608 -0.344872 -0.008843
17.70999908 -3.99000001 0.56999999 12 34 232 97.000000 1.000000 4.000000 1.000000 -60.708740 114.000000 18.000000 0.992715 -0.109300 -0.050706
17.67000008 -3.99000001 0.64999998 12 34 232 97.000000 1.000000 4.000000 1.000000 -60.708740 114.000000 18.000000 0.916883 -0.331455 -0.222405
17.60000038 -3.93000007 0.49000001 12 34 232 97.000000 1.000000 4.000000 1.000000 -60.708740 114.000000 18.000000 0.587381 -0.583995 -0.560297
17.57999992 -3.95000005 0.50000000 12 34 232 97.000000 1.000000 4.000000 1.000000 -60.708740 114.000000 18.000000 0.883805 -0.420508 -0.205090
17.59000015 -3.95000005 0.51999998 12 34 232 97.000000 1.000000 4.000000 1.000000 -60.708740 114.000000 18.000000 -0.621098 0.654401 0.431272
17.70000076 -3.90000010 0.40000001 12 34 232 97.000000 1.000000 4.000000 1.000000 -60.708740 114.000000 18.000000 0.725959 -0.585662 -0.360533
17.60000038 -3.94000006 0.44999999 12 34 232 97.000000 1.000000 4.000000 1.000000 -60.708740 114.000000 18.000000 0.740692 -0.599301 -0.303667
17.61000061 -3.97000003 0.41999999 12 34 232 97.000000 1.000000 4.000000 1.000000 -60.708740 114.000000 18.000000 -0.331064 0.744491 0.579766
17.62000084 -3.95000005 0.41000000 12 34 232 97.000000 1.000000 4.000000 1.000000 -60.708740 114.000000 18.000000 0.771432 -0.484388 -0.412627
17.59000015 -3.91000009 0.38999999 12 34 232 97.000000 1.000000 4.000000 1.000000 -60.708740 114.000000 18.000000 0.634235 -0.587130 -0.503014
17.39999962 -3.85999990 0.31999999 12 34 232 97.000000 1.000000 4.000000 1.000000 -60.708740 114.000000 18.000000 0.271286 0.804448 0.528458
17.37999916 -3.88000011 0.33000001 12 34 232 97.000000 1.000000 4.000000 1.000000 -60.708740 114.000000 18.000000 -0.126783 0.884631 0.448726
17.40999985 -3.89000010 0.34999999 12 34 232 97.000000 1.000000 4.000000 1.000000 -60.708740 114.000000 18.000000 0.310393 0.814583 0.490011
17.39999962 -3.89000010 0.36000001 12 34 232 97.000000 1.000000 4.000000 1.000000 -60.708740 114.000000 18.000000 0.222664 0.761417 0.608822
17.37999916 -3.98000002 0.58999997 12 34 232 97.000000 1.000000 4.000000 1.000000 -60.708740 114.000000 18.000000 0.293365 0.713373 0.636425
17.39999962 -3.96000004 0.54000002 12 34 232 97.000000 1.000000 4.000000 1.000000 -60.708740 114.000000 18.000000 0.436273 0.783345 0.442760
17.38999939 -3.93000007 0.49000001 12 34 232 97.000000 1.000000 4.000000 1.000000 -60.708740 114.000000 18.000000 -0.043544 0.982691 0.180062
17.37999916 -4.00000000 0.56999999 12 34 232 97.000000 1.000000 4.000000 1.000000 -60.708740 114.000000 18.000000 0.049411 0.989374 0.136743
17.38999939 -4.00000000 0.56999999 12 34 232 97.000000 1.000000 4.000000 1.000000 -60.708740 114.000000 18.000000 0.349887 0.936044 0.037442
17.40999985 -4.01999998 0.55000001 12 34 232 97.000000 1.000000 4.000000 1.000000 -60.708740 114.000000 18.000000 -0.241081 0.859704 0.450321
17.37999916 -4.03999996 0.50999999 12 34 232 97.000000 1.000000 4.000000 1.000000 -60.708740 114.000000 18.000000 0.181815 0.867687 0.462668
17.38999939 -4.03999996 0.50000000 12 34 232 97.000000 1.000000 4.000000 1.000000 -60.708740 114.000000 18.000000 -0.027775 0.908651 0.416631
17.42000008 -3.97000003 0.46000001 12 34 232 97.000000 1.000000 4.000000 1.000000 -60.708740 114.000000 18.000000 0.238041 0.785691 0.570987
17.42000008 -3.97000003 0.43000001 12 34 232 97.000000 1.000000 4.000000 1.000000 -60.708740 114.000000 18.000000 0.278995 0.722200 0.632921
17.38999939 -3.90000010 0.31999999 12 34 232 97.000000 1.000000 4.000000 1.000000 -60.708740 114.000000 18.000000 0.452939 0.815290 0.360762
17.39999962 -4.01999998 0.47999999 12 34 232 97.000000 1.000000 4.000000 1.000000 -60.708740 114.000000 18.000000 0.041118 0.730201 0.681994
17.37999916 -4.03000021 0.44999999 12 34 232 97.000000 1.000000 4.000000 1.000000 -60.708740 114.000000 18.000000 0.264351 0.799309 0.539651
17.38999939 -4.03000021 0.44000000 12 34 232 97.000000 1.000000 4.000000 1.000000 -60.708740 114.000000 18.000000 0.163837 0.922811 0.348680
17.38999939 -4.00000000 0.37000000 12 34 232 97.000000 1.000000 4.000000 1.000000 -60.708740 114.000000 18.000000 -0.194756 0.834884 0.514820
17.68000031 -3.75000000 0.30000001 12 34 232 97.000000 1.000000 4.000000 1.000000 -60.708740 114.000000 18.000000 0.876437 -0.244204 -0.414997
17.67000008 -3.76999998 0.27000001 12 34 232 97.000000 1.000000 4.000000 1.000000 -60.708740 114.000000 18.000000 0.997248 0.041865 0.061187
17.70000076 -3.78999996 0.31000000 12 34 232 97.000000 1.000000 4.000000 1.000000 -60.708740 114.000000 18.000000 0.939874 -0.335949 0.061438
17.67000008 -3.77999997 0.31000000 12 34 232 97.000000 1.000000 4.000000 1.000000 -60.708740 114.000000 18.000000 0.839253 -0.142570 -0.524717
17.70000076 -3.78999996 0.25000000 12 34 232 97.000000 1.000000 4.000000 1.000000 -60.708740 114.000000 18.000000 0.750403 -0.341976 -0.565639
17.65999985 -3.75000000 0.28000000 12 34 232 97.000000 1.000000 4.000000 1.000000 -60.708740 114.000000 18.000000 0.981247 -0.182863 -0.060954
17.65999985 -3.74000001 0.28000000 12 34 232 97.000000 1.000000 4.000000 1.000000 -60.708740 114.000000 18.000000 0.942347 -0.236625 0.236625
17.64999962 -3.74000001 0.28999999 12 34 232 97.000000 1.000000 4.000000 1.000000 -60.708740 114.000000 18.000000 0.971491 -0.091273 -0.218804
17.62999916 -3.75999999 0.27000001 12 34 232 97.000000 1.000000 4.000000 1.000000 -60.708740 114.000000 18.000000 0.981400 0.046281 -0.186312
17.62999916 -3.78999996 0.28999999 12 34 232 97.000000 1.000000 4.000000 1.000000 -60.708740 114.000000 18.000000 -0.672135 0.548100 0.497816
17.67000008 -3.74000001 0.20999999 12 34 232 97.000000 1.000000 4.000000 1.000000 -60.708740 114.000000 18.000000 0.934017 -0.340990 -0.106475
17.67000008 -3.74000001 0.16000000 12 34 232 97.000000 1.000000 4.000000 1.000000 -60.708740 114.000000 18.000000 0.988078 -0.118946 0.097748
17.68000031 -3.78999996 0.22000000 12 34 232 97.000000 1.000000 4.000000 1.000000 -60.708740 114.000000 18.000000 0.921549 -0.342935 -0.182052
17.67000008 -3.78999996 0.20999999 12 34 232 97.000000 1.000000 4.000000 1.000000 -60.708740 114.000000 18.000000 0.658384 -0.520309 -0.543883
17.64999962 -3.80999994 0.22000000 12 34 232 97.000000 1.000000 4.000000 1.000000 -60.708740 114.000000 18.000000 0.648065 -0.705670 -0.286429
17.65999985 -3.78999996 0.17000000 12 34 232 97.000000 1.000000 4.000000 1.000000 -60.708740 114.000000 18.000000 0.976505 -0.029808 -0.213424
17.62000084 -3.76999998 0.25999999 12 34 232 97.000000 1.000000 4.000000 1.000000 -60.708740 114.000000 18.000000 0.909146 -0.267053 -0.319587
17.61000061 -3.75000000 0.16000000 12 34 232 97.000000 1.000000 4.000000 1.000000 -60.708740 114.000000 18.000000 0.930758 -0.301830 -0.206367
17.59000015 -3.79999995 0.20999999 12 34 232 97.000000 1.000000 4.000000 1.000000 -60.708740 114.000000 18.000000 0.587939 -0.441371 -0.677879
17.60000038 -3.80999994 0.23000000 12 34 232 97.000000 1.000000 4.000000 1.000000 -60.708740 114.000000 18.000000 -0.742499 0.573527 0.346066
17.61000061 -3.79999995 0.19000000 12 34 232 97.000000 1.000000 4.000000 1.000000 -60.708740 114.000000 18.000000 0.777424 -0.322190 -0.540190
17.60000038 -3.77999997 0.15000001 12 34 232 97.000000 1.000000 4.000000 1.000000 -60.708740 114.000000 18.000000 -0.679322 0.732990 0.035308
17.61000061 -3.79999995 0.18000001 12 34 232 97.000000 1.000000 4.000000 1.000000 -60.708740 114.000000 18.000000 0.768247 -0.360672 -0.528878
17.61000061 -3.86999989 0.28000000 12 34 232 97.000000 1.000000 4.000000 1.000000 -60.708740 114.000000 18.000000 0.881881 -0.465244 -0.076383
17.61000061 -3.88000011 0.28999999 12 34 232 97.000000 1.000000 4.000000 1.000000 -60.708740 114.000000 18.000000 0.868882 -0.249331 -0.427641
17.57999992 -3.78999996 0.14000000 12 34 232 97.000000 1.000000 4.000000 1.000000 -60.708740 114.000000 18.000000 0.871023 -0.373731 -0.318816
17.56999969 -3.75999999 0.10000000 12 34 232 97.000000 1.000000 4.000000 1.000000 -60.708740 114.000000 18.000000 -0.620166 0.745769 0.243356
17.60000038 -3.74000001 0.05000000 12 34 232 97.000000 1.000000 4.000000 1.000000 -60.708740 114.000000 18.000000 0.938103 -0.174947 -0.298926
17.47999954 -3.82999992 0.15000001 12 34 232 97.000000 1.000000 4.000000 1.000000 -60.708740 114.000000 18.000000 -0.533712 0.842331 0.075031
17.37999916 -3.79999995 0.16000000 12 34 232 97.000000 1.000000 4.000000 1.000000 -60.708740 114.000000 18.000000 0.131707 -0.800602 -0.584543
17.39999962 -3.86999989 0.28000000 12 34 232 97.000000 1.000000 4.000000 1.000000 -60.708740 114.000000 18.000000 -0.170050 0.935966 0.308302
17.43000031 -3.83999991 0.25000000 12 34 232 97.000000 1.000000 4.000000 1.000000 -60.708740 114.000000 18.000000 -0.164651 0.900571 0.402322
17.37999916 -3.84999990 0.28999999 12 34 232 97.000000 1.000000 4.000000 1.000000 -60.708740 114.000000 18.000000 0.247797 0.636065 0.730765
17.45000076 -3.88000011 0.20000000 12 34 232 97.000000 1.000000 4.000000 1.000000 -60.708740 114.000000 18.000000 -0.152393 0.948074 0.279163
17.40999985 -3.81999993 0.18000001 12 34 232 97.000000 1.000000 4.000000 1.000000 -60.708740 114.000000 18.000000 -0.070945 0.722485 0.687737
17.54000092 -3.78999996 0.13000000 12 34 232 97.000000 1.000000 4.000000 1.000000 -60.708740 114.000000 18.000000 -0.327597 0.873083 0.361118
17.45999908 -3.83999991 0.07000000 12 34 232 97.000000 1.000000 4.000000 1.000000 -60.708740 114.000000 18.000000 -0.029839 0.927615 0.372343
17.45999908 -3.83999991 0.10000000 12 34 232 97.000000 1.000000 4.000000 1.000000 -60.708740 114.000000 18.000000 -0.266301 0.814477 0.515472
17.38999939 -3.79999995 0.11000000 12 34 232 97.000000 1.000000 4.000000 1.000000 -60.708740 114.000000 18.000000 -0.029480 0.773496 0.633115
17.37999916 -3.77999997 0.14000000 12 34 232 97.000000 1.000000 4.000000 1.000000 -60.708740 114.000000 18.000000 -0.041250 0.958748 0.281249
17.38999939 -3.77999997 0.09000000 12 34 232 97.000000 1.000000 4.000000 1.000000 -60.708740 114.000000 18.000000 -0.155759 0.933174 0.323923
17.43000031 -3.75999999 -0.02000000 12 34 232 97.000000 1.000000 4.000000 1.000000 -60.708740 114.000000 18.000000 -0.205401 0.954512 0.216141
17.39999962 -3.74000001 0.03000000 12 34 232 97.000000 1.000000 4.000000 1.000000 -60.708740 114.000000 18.000000 -0.042077 0.990518 0.130780
17.38999939 -3.75000000 0.05000000 12 34 232 97.000000 1.000000 4.000000 1.000000 -60.708740 114.000000 18.000000 -0.141237 0.801336 0.581303
17.40999985 -3.74000001 0.04000000 12 34 232 97.000000 1.000000 4.000000 1.000000 -60.708740 114.000000 18.000000 -0.054241 0.989039 0.137334
17.37999916 -3.75000000 0.01000000 12 34 232 97.000000 1.000000 4.000000 1.000000 -60.708740 114.000000 18.000000 0.172577 0.685725 0.707106
17.42000008 -3.86999989 0.11000000 12 34 232 97.000000 1.000000 4.000000 1.000000 -60.708740 114.000000 18.000000 0.429456 -0.832169 -0.350801
17.39999962 -3.86999989 0.14000000 12 34 232 97.000000 1.000000 4.000000 1.000000 -60.708740 114.000000 18.000000 0.271487 0.932620 0.237727
17.40999985 -3.86999989 0.11000000 12 34 232 97.000000 1.000000 4.000000 1.000000 -60.708740 114.000000 18.000000 -0.353323 0.892997 0.278782
17.39999962 -3.82999992 0.04000000 12 34 232 97.000000 1.000000 4.000000 1.000000 -60.708740 114.000000 18.000000 -0.405897 0.832325 0.377468
17.38999939 -3.81999993 0.01000000 12 34 232 97.000000 1.000000 4.000000 1.000000 -60.708740 114.000000 18.000000 0.012537 0.739693 0.672828
17.45000076 -3.93000007 0.28000000 12 34 232 97.000000 1.000000 4.000000 1.000000 -60.708740 114.000000 18.000000 0.037758 0.930924 0.363256
17.40999985 -3.92000008 0.20999999 12 34 232 97.000000 1.000000 4.000000 1.000000 -60.708740 114.000000 18.000000 -0.354193 0.909337 0.218299
17.38999939 -3.95000005 0.23000000 12 34 232 97.000000 1.000000 4.000000 1.000000 -60.708740 114.000000 18.000000 0.328198 0.732382 0.596576
17.56999969 -4.09999990 0.50999999 12 34 232 97.000000 1.000000 4.000000 1.000000 -60.708740 114.000000 18.000000 -0.624266 0.779978 0.043883
17.59000015 -4.09000015 0.47999999 12 34 232 97.000000 1.000000 4.000000 1.000000 -60.708740 114.000000 18.000000 0.589390 -0.548859 -0.592768
17.38999939 -4.09000015 0.61000001 12 34 232 97.000000 1.000000 4.000000 1.000000 -60.708740 114.000000 18.000000 -0.063734 0.904479 0.421729
17.38999939 -4.09000015 0.61000001 12 34 232 97.000000 1.000000 4.000000 1.000000 -60.708740 114.000000 18.000000 -0.063734 0.904479 0.421729
17.37999916 -4.07000017 0.50999999 12 34 232 97.000000 1.000000 4.000000 1.000000 -60.708740 114.000000 18.000000 0.024913 0.913906 0.405161
17.51000023 -4.26999998 0.54000002 12 34 232 97.000000 1.000000 4.000000 1.000000 -60.708740 114.000000 18.000000 -0.229675 0.629654 0.742149
17.51000023 -4.30999994 0.54000002 12 34 232 97.000000 1.000000 4.000000 1.000000 -60.708740 114.000000 18.000000 -0.272063 0.641178 0.717546
17.51000023 -4.34000015 0.56999999 12 34 232 97.000000 1.000000 4.000000 1.000000 -60.708740 114.000000 18.000000 -0.082382 0.614252 0.784798
17.46999931 -4.40000010 0.56000000 12 34 232 97.000000 1.000000 4.000000 1.000000 -60.708740 114.000000 18.000000 -0.067604 0.758027 0.648710
17.50000000 -4.36000013 0.56000000 12 34 232 97.000000 1.000000 4.000000 1.000000 -60.708740 114.000000 18.000000 0.191146 0.869788 0.454898
17.52000046 -4.38999987 0.55000001 12 34 232 97.000000 1.000000 4.000000 1.000000 -60.708740 114.000000 18.000000 -0.510996 0.818525 0.262487
17.32999992 -3.84999990 0.34999999 12 34 232 97.000000 1.000000 4.000000 1.000000 -60.708740 114.000000 18.000000 0.759556 0.642023 0.104310
17.37000084 -3.96000004 0.50999999 12 34 232 97.000000 1.000000 4.000000 1.000000 -60.708740 114.000000 18.000000 0.279171 0.879767 0.384804
17.36000061 -3.98000002 0.51999998 12 34 232 97.000000 1.000000 4.000000 1.000000 -60.708740 114.000000 18.000000 0.275170 0.925314 0.260913
17.36000061 -3.93000007 0.55000001 12 34 232 97.000000 1.000000 4.000000 1.000000 -60.708740 114.000000 18.000000 0.244300 0.695073 0.676159
17.35000038 -4.01000023 0.57999998 12 34 232 97.000000 1.000000 4.000000 1.000000 -60.708740 114.000000 18.000000 0.361546 0.590580 0.721457
17.34000015 -4.05999994 0.57999998 12 34 232 97.000000 1.000000 4.000000 1.000000 -60.708740 114.000000 18.000000 0.537654 0.766925 0.350363
17.34000015 -4.05999994 0.57999998 12 34 232 97.000000 1.000000 4.000000 1.000000 -60.708740 114.000000 18.000000 0.537654 0.766925 0.350363
17.32999992 -4.05000019 0.56999999 12 34 232 97.000000 1.000000 4.000000 1.000000 -60.708740 114.000000 18.000000 0.583750 0.792990 0.174367
17.32999992 -4.03000021 0.56999999 12 34 232 97.000000 1.000000 4.000000 1.000000 -60.708740 114.000000 18.000000 0.318465 0.942071 0.105267
17.34000015 -4.01999998 0.50999999 12 34 232 97.000000 1.000000 4.000000 1.000000 -60.708740 114.000000 18.000000 0.106778 0.984997 0.135572
17.37000084 -4.03999996 0.52999997 12 34 232 97.000000 1.000000 4.000000 1.000000 -60.708740 114.000000 18.000000 0.627930 0.696432 0.347400
17.37000084 -4.05000019 0.52999997 12 34 232 97.000000 1.000000 4.000000 1.000000 -60.708740 114.000000 18.000000 0.082966 0.688476 0.720498
17.36000061 -4.03000021 0.51999998 12 34 232 97.000000 1.000000 4.000000 1.000000 -60.708740 114.000000 18.000000 0.616214 0.742942 0.261376
17.32999992 -3.97000003 0.41000000 12 34 232 97.000000 1.000000 4.000000 1.000000 -60.708740 114.000000 18.000000 0.551648 0.772308 0.314999
17.35000038 -3.94000006 0.34999999 12 34 232 97.000000 1.000000 4.000000 1.000000 -60.708740 114.000000 18.000000 0.064772 0.683701 0.726882
17.35000038 -3.97000003 0.31999999 12 34 232 97.000000 1.000000 4.000000 1.000000 -60.708740 114.000000 18.000000 0.490902 0.805461 0.332034
17.29999924 -3.94000006 0.37000000 12 34 232 97.000000 1.000000 4.000000 1.000000 -60.708740 114.000000 18.000000 0.217287 0.947044 0.236419
17.36000061 -4.00000000 0.44999999 12 34 232 97.000000 1.000000 4.000000 1.000000 -60.708740 114.000000 18.000000 0.122419 0.954342 0.272481
17.37000084 -4.01999998 0.41000000 12 34 232 97.000000 1.000000 4.000000 1.000000 -60.708740 114.000000 18.000000 0.140980 0.966163 0.215996
17.35000038 -4.00000000 0.41000000 12 34 232 97.000000 1.000000 4.000000 1.000000 -60.708740 114.000000 18.000000 0.095142 0.933995 0.344386
17.37000084 -3.89000010 0.19000000 12 34 232 97.000000 1.000000 4.000000 1.000000 -60.708740 114.000000 18.000000 -0.092586 0.856064 0.508510
17.36000061 -3.82999992 0.17000000 12 34 232 97.000000 1.000000 4.000000 1.000000 -60.708740 114.000000 18.000000 0.407597 0.901826 0.143440
17.37000084 -3.89000010 0.13000000 12 34 232 97.000000 1.000000 4.000000 1.000000 -60.708740 114.000000 18.000000 -0.179275 0.694117 0.697182
17.35000038 -3.85999990 0.10000000 12 34 232 97.000000 1.000000 4.000000 1.000000 -60.708740 114.000000 18.000000 -0.009623 0.801445 0.597991
17.29999924 -3.83999991 -0.02000000 12 34 232 97.000000 1.000000 4.000000 1.000000 -60.708740 114.000000 18.000000 0.331315 0.830642 0.447510
17.34000015 -3.97000003 0.28999999 12 34 232 97.000000 1.000000 4.000000 1.000000 -60.708740 114.000000 18.000000 0.501450 0.682576 0.531637
17.26000023 -3.99000001 -0.02000000 12 34 232 97.000000 1.000000 4.000000 1.000000 -60.708740 114.000000 18.000000 0.159325 0.687372 0.708615
17.07999992 -3.98000002 0.19000000 12 34 232 97.000000 1.000000 4.000000 1.000000 -60.708740 114.000000 18.000000 0.694689 0.422782 0.581947
17.20000076 -3.98000002 0.03000000 12 34 232 97.000000 1.000000 4.000000 1.000000 -60.708740 114.000000 18.000000 0.709116 0.691050 0.140017
17.06999969 -4.03000021 0.05000000 12 34 232 97.000000 1.000000 4.000000 1.000000 -60.708740 114.000000 18.000000 0.809458 0.421559 0.408736
17.10000038 -4.05000019 0.03000000 12 34 232 97.000000 1.000000 4.000000 1.000000 -60.708740 114.000000 18.000000 0.682683 0.525012 0.508238
17.37000084 -4.11000013 0.62000000 12 34 232 97.000000 1.000000 4.000000 1.000000 -60.708740 114.000000 18.000000 -0.079662 0.760410 0.644538
17.37000084 -4.07999992 0.56000000 12 34 232 97.000000 1.000000 4.000000 1.000000 -60.708740 114.000000 18.000000 0.183034 0.809282 0.558177
17.37000084 -4.07999992 0.54000002 12 34 232 97.000000 1.000000 4.000000 1.000000 -60.708740 114.000000 18.000000 0.001139 0.983039 0.183394
17.05999947 -4.11000013 0.18000001 12 34 232 97.000000 1.000000 4.000000 1.000000 -60.708740 114.000000 18.000000 0.848925 0.528371 0.012225
17.09000015 -4.15999985 0.16000000 12 34 232 97.000000 1.000000 4.000000 1.000000 -60.708740 114.000000 18.000000 0.428569 0.903292 0.019780
17.01000023 -4.13999987 0.20999999 12 34 232 97.000000 1.000000 4.000000 1.000000 -60.708740 114.000000 18.000000 0.587014 0.788276 0.184490
17.87999916 -3.03999996 -0.33000001 12 34 232 97.000000 1.000000 4.000000 1.000000 -60.708740 114.000000 18.000000 0.775298 0.588854 0.228394
17.92000008 -3.19000006 -0.28000000 12 34 232 97.000000 1.000000 4.000000 1.000000 -60.708740 114.000000 18.000000 0.847889 0.435570 0.302264
17.89999962 -3.15000010 -0.25999999 12 34 232 97.000000 1.000000 4.000000 1.000000 -60.708740 114.000000 18.000000 0.909207 0.416342 -0.001297
17.88999939 -3.35999990 -0.07000000 12 34 232 97.000000 1.000000 4.000000 1.000000 -60.708740 114.000000 18.000000 0.980288 -0.196990 0.015153
17.87000084 -3.18000007 -0.28000000 12 34 232 97.000000 1.000000 4.000000 1.000000 -60.708740 114.000000 18.000000 0.963780 0.248923 -0.095740
17.87000084 -3.32999992 -0.05000000 12 34 232 97.000000 1.000000 4.000000 1.000000 -60.708740 114.000000 18.000000 0.900369 0.081102 0.427503
17.85000038 -3.34999990 -0.06000000 12 34 232 97.000000 1.000000 4.000000 1.000000 -60.708740 114.000000 18.000000 0.986603 0.096167 -0.131784
17.85000038 -3.35999990 -0.06000000 12 34 232 97.000000 1.000000 4.000000 1.000000 -60.708740 114.000000 18.000000 0.987850 -0.088096 0.128033
17.86000061 -3.38000011 -0.04000000 12 34 232 97.000000 1.000000 4.000000 1.000000 -60.708740 114.000000 18.000000 0.984913 0.050478 0.165522
17.86000061 -3.36999989 -0.09000000 12 34 232 97.000000 1.000000 4.000000 1.000000 -60.708740 114.000000 18.000000 0.974976 0.077653 -0.208307
17.86000061 -3.39000010 -0.10000000 12 34 232 97.000000 1.000000 4.000000 1.000000 -60.708740 114.000000 18.000000 0.959783 -0.054090 -0.275482
17.86000061 -3.38000011 -0.08000000 12 34 232 97.000000 1.000000 4.000000 1.000000 -60.708740 114.000000 18.000000 0.981430 -0.175040 0.078466
17.82999992 -3.34999990 -0.06000000 12 34 232 97.000000 1.000000 4.000000 1.000000 -60.708740 114.000000 18.000000 0.857403 0.297089 0.420235
17.81999969 -3.38000011 -0.05000000 12 34 232 97.000000 1.000000 4.000000 1.000000 -60.708740 114.000000 18.000000 0.941834 0.313049 -0.122264
17.86000061 -3.34999990 -0.11000000 12 34 232 97.000000 1.000000 4.000000 1.000000 -60.708740 114.000000 18.000000 0.980251 -0.196983 0.017484
17.79999924 -3.32999992 -0.18000001 12 34 232 97.000000 1.000000 4.000000 1.000000 -60.708740 114.000000 18.000000 0.922921 0.054446 0.381120
17.79999924 -3.38000011 -0.11000000 12 34 232 97.000000 1.000000 4.000000 1.000000 -60.708740 114.000000 18.000000 0.915781 0.401063 0.022209
17.81999969 -3.36999989 -0.17000000 12 34 232 97.000000 1.000000 4.000000 1.000000 -60.708740 114.000000 18.000000 0.933019 0.347700 -0.092631
17.78000069 -3.30999994 -0.18000001 12 34 232 97.000000 1.000000 4.000000 1.000000 -60.708740 114.000000 18.000000 0.986983 -0.160143 0.014765
17.76000023 -3.28999996 -0.14000000 12 34 232 97.000000 1.000000 4.000000 1.000000 -60.708740 114.000000 18.000000 0.978431 0.164515 -0.124932
17.77000046 -3.36999989 -0.10000000 12 34 232 97.000000 1.000000 4.000000 1.000000 -60.708740 114.000000 18.000000 0.991515 0.093062 -0.090764
17.76000023 -3.34999990 -0.17000000 12 34 232 97.000000 1.000000 4.000000 1.000000 -60.708740 114.000000 18.000000 0.891180 0.452939 0.025386
17.73999977 -3.31999993 -0.18000001 12 34 232 97.000000 1.000000 4.000000 1.000000 -60.708740 114.000000 18.000000 0.928776 0.323601 -0.180712
17.81999969 -3.26999998 -0.31000000 12 34 232 97.000000 1.000000 4.000000 1.000000 -60.708740 114.000000 18.000000 0.966330 -0.013270 -0.256964
17.84000015 -3.33999991 -0.20000000 12 34 232 97.000000 1.000000 4.000000 1.000000 -60.708740 114.000000 18.000000 0.940822 0.191470 0.279629
17.85000038 -3.34999990 -0.22000000 12 34 232 97.000000 1.000000 4.000000 1.000000 -60.708740 114.000000 18.000000 0.992776 -0.119572 -0.009873
17.76000023 -3.24000001 -0.27000001 12 34 232 97.000000 1.000000 4.000000 1.000000 -60.708740 114.000000 18.000000 0.948432 0.301236 -0.098658
17.72999954 -3.24000001 -0.27000001 12 34 232 97.000000 1.000000 4.000000 1.000000 -60.708740 114.000000 18.000000 0.892454 0.377406 -0.247164
17.73999977 -3.28999996 -0.23999999 12 34 232 97.000000 1.000000 4.000000 1.000000 -60.708740 114.000000 18.000000 0.958677 0.146373 -0.243955
17.77000046 -3.27999997 -0.31000000 12 34 232 97.000000 1.000000 4.000000 1.000000 -60.708740 114.000000 18.000000 0.953742 0.070791 -0.292172
17.72999954 -3.25999999 -0.34999999 12 34 232 97.000000 1.000000 4.000000 1.000000 -60.708740 114.000000 18.000000 0.812938 0.581467 -0.032071
17.73999977 -3.25999999 -0.31999999 12 34 232 97.000000 1.000000 4.000000 1.000000 -60.708740 114.000000 18.000000 0.869269 0.348014 -0.351080
17.72999954 -3.35999990 -0.22000000 12 34 232 97.000000 1.000000 4.000000 1.000000 -60.708740 114.000000 18.000000 0.987870 -0.049799 -0.147080
17.72999954 -3.36999989 -0.22000000 12 34 232 97.000000 1.000000 4.000000 1.000000 -60.708740 114.000000 18.000000 0.938875 0.240630 -0.246194
17.72999954 -3.25000000 -0.37000000 12 34 232 97.000000 1.000000 4.000000 1.000000 -60.708740 114.000000 18.000000 0.845571 0.529364 -0.069170
17.72999954 -3.28999996 -0.36000001 12 34 232 97.000000 1.000000 4.000000 1.000000 -60.708740 114.000000 18.000000 0.898003 0.436095 -0.058418
17.79000092 -3.32999992 -0.38000000 12 34 232 97.000000 1.000000 4.000000 1.000000 -60.708740 114.000000 18.000000 0.954851 0.265456 -0.133389
17.71999931 -3.23000002 -0.54000002 12 34 232 97.000000 1.000000 4.000000 1.000000 -60.708740 114.000000 18.000000 0.958232 0.192710 0.211316
17.85000038 -3.42000008 -0.08000000 12 34 232 97.000000 1.000000 4.000000 1.000000 -60.708740 114.000000 18.000000 0.961162 0.270131 -0.056539
17.79999924 -3.40000010 -0.03000000 12 34 232 97.000000 1.000000 4.000000 1.000000 -60.708740 114.000000 18.000000 0.970055 -0.133845 0.202679
17.45999908 -2.54999995 -0.62000000 12 34 232 97.000000 1.000000 4.000000 1.000000 -60.708740 114.000000 18.000000 0.225938 0.916704 0.329553
17.40999985 -2.81999993 -0.51999998 12 34 232 97.000000 1.000000 4.000000 1.000000 -60.708740 114.000000 18.000000 0.049865 0.762220 0.645394
17.37999916 -2.73000002 -0.57999998 12 34 232 97.000000 1.000000 4.000000 1.000000 -60.708740 114.000000 18.000000 -0.012520 0.755354 0.655197
17.42000008 -2.76999998 -0.52999997 12 34 232 97.000000 1.000000 4.000000 1.000000 -60.708740 114.000000 18.000000 0.460308 0.789792 0.405394
17.39999962 -2.80999994 -0.52999997 12 34 232 97.000000 1.000000 4.000000 1.000000 -60.708740 114.000000 18.000000 0.141901 0.781204 0.607935
17.39999962 -2.80999994 -0.61000001 12 34 232 97.000000 1.000000 4.000000 1.000000 -60.708740 114.000000 18.000000 0.010851 0.965756 0.259223
17.34000015 -2.55999994 -0.61000001 12 34 232 97.000000 1.000000 4.000000 1.000000 -60.708740 114.000000 18.000000 0.056181 0.965060 0.255934
17.20999908 -2.67000008 -0.58999997 12 34 232 97.000000 1.000000 4.000000 1.000000 -60.708740 114.000000 18.000000 -0.004146 0.742118 0.670256
17.15999985 -2.66000009 -0.57999998 12 34 232 97.000000 1.000000 4.000000 1.000000 -60.708740 114.000000 18.000000 -0.365889 0.671070 0.644818
17.10000038 -2.72000003 -0.57999998 12 34 232 97.000000 1.000000 4.000000 1.000000 -60.708740 114.000000 18.000000 -0.476472 0.693810 0.540002
17.12000084 -2.64000010 -0.55000001 12 34 232 97.000000 1.000000 4.000000 1.000000 -60.708740 114.000000 18.000000 -0.252562 0.816566 0.519069
17.26000023 -3.03999996 -0.34000000 12 34 232 97.000000 1.000000 4.000000 1.000000 -60.708740 114.000000 18.000000 -0.292576 0.846767 0.444282
17.23999977 -3.04999995 -0.34999999 12 34 232 97.000000 1.000000 4.000000 1.000000 -60.708740 114.000000 18.000000 0.020215 0.871937 0.489201
17.20000076 -2.94000006 -0.34999999 12 34 232 97.000000 1.000000 4.000000 1.000000 -60.708740 114.000000 18.000000 -0.427364 0.888049 0.169497
17.15999985 -3.04999995 -0.33000001 12 34 232 97.000000 1.000000 4.000000 1.000000 -60.708740 114.000000 18.000000 -0.371102 0.872014 0.319178
17.13999939 -3.04999995 -0.31000000 12 34 232 97.000000 1.000000 4.000000 1.000000 -60.708740 114.000000 18.000000 0.700075 -0.486210 -0.522968
17.36000061 -2.73000002 -0.56000000 12 34 232 97.000000 1.000000 4.000000 1.000000 -60.708740 114.000000 18.000000 -0.101664 0.898260 0.427544
17.36000061 -2.75999999 -0.56999999 12 34 232 97.000000 1.000000 4.000000 1.000000 -60.708740 114.000000 18.000000 -0.042503 0.867880 0.494952
17.35000038 -2.77999997 -0.54000002 12 34 232 97.000000 1.000000 4.000000 1.000000 -60.708740 114.000000 18.000000 -0.064455 0.774894 0.628796
17.31999969 -2.88000011 -0.60000002 12 34 232 97.000000 1.000000 4.000000 1.000000 -60.708740 114.000000 18.000000 -0.151644 0.965594 0.211264
17.34000015 -2.82999992 -0.60000002 12 34 232 97.000000 1.000000 4.000000 1.000000 -60.708740 114.000000 18.000000 -0.110880 0.728854 0.675631
17.32999992 -2.88000011 -0.56999999 12 34 232 97.000000 1.000000 4.000000 1.000000 -60.708740 114.000000 18.000000 -0.117834 0.833565 0.539708
17.32999992 -2.88000011 -0.56999999 12 34 232 97.000000 1.000000 4.000000 1.000000 -60.708740 114.000000 18.000000 -0.117834 0.833565 0.539708
17.32999992 -2.82999992 -0.57999998 12 34 232 97.000000 1.000000 4.000000 1.000000 -60.708740 114.000000 18.000000 -0.194616 0.954292 0.226829
17.22999954 -2.77999997 -0.56999999 12 34 232 97.000000 1.000000 4.000000 1.000000 -60.708740 114.000000 18.000000 -0.528099 0.794527 0.299732
17.21999931 -2.76999998 -0.60000002 12 34 232 97.000000 1.000000 4.000000 1.000000 -60.708740 114.000000 18.000000 -0.171020 0.594787 0.785481
17.28000069 -2.77999997 -0.58999997 12 34 232 97.000000 1.000000 4.000000 1.000000 -60.708740 114.000000 18.000000 -0.351688 0.890444 0.288833
17.22999954 -2.84999990 -0.52999997 12 34 232 97.000000 1.000000 4.000000 1.000000 -60.708740 114.000000 18.000000 0.095249 0.754666 0.649159
17.29999924 -3.03999996 -0.36000001 12 34 232 97.000000 1.000000 4.000000 1.000000 -60.708740 114.000000 18.000000 -0.466891 0.712799 0.523384
17.20999908 -2.98000002 -0.38999999 12 34 232 97.000000 1.000000 4.000000 1.000000 -60.708740 114.000000 18.000000 -0.270248 0.958152 0.094393
17.29000092 -3.02999997 -0.51999998 12 34 232 97.000000 1.000000 4.000000 1.000000 -60.708740 114.000000 18.000000 -0.285808 0.935500 0.207734
