//X Y Z R G B PointSourceId ScanDirectionFlag NumberOfReturns ReturnNumber GpsTime Intensity Classification Nx Ny Nz
-0.19000000 3.00000000 -0.07000000 198 182 65 97.000000 1.000000 4.000000 1.000000 -60.708740 114.000000 231.000000 0.033712 0.285924 0.957659
-0.19000000 3.00999999 -0.08000000 198 182 65 97.000000 1.000000 4.000000 1.000000 -60.708740 114.000000 231.000000 -0.151796 -0.010120 0.988360
-0.18000001 3.00999999 -0.08000000 198 182 65 97.000000 1.000000 4.000000 1.000000 -60.708740 114.000000 231.000000 0.300416 0.312255 0.901248
-0.17000000 3.00999999 -0.08000000 198 182 65 97.000000 1.000000 4.000000 1.000000 -60.708740 114.000000 231.000000 -0.154567 0.305031 0.939715
-0.23000000 3.04999995 -0.08000000 198 182 65 97.000000 1.000000 4.000000 1.000000 -60.708740 114.000000 231.000000 -0.114327 0.197246 0.973665
-0.20999999 3.00000000 -0.09000000 198 182 65 97.000000 1.000000 4.000000 1.000000 -60.708740 114.000000 231.000000 0.028796 0.527929 0.848800
-0.23999999 3.00999999 -0.10000000 198 182 65 97.000000 1.000000 4.000000 1.000000 -60.708740 114.000000 231.000000 0.230670 0.447771 0.863882
-0.20999999 3.00999999 -0.09000000 198 182 65 97.000000 1.000000 4.000000 1.000000 -60.708740 114.000000 231.000000 -0.242661 0.079211 0.966872
-0.17000000 3.03999996 -0.14000000 198 182 65 97.000000 1.000000 4.000000 1.000000 -60.708740 114.000000 231.000000 0.224162 0.197316 0.954368
-0.17000000 3.00999999 -0.11000000 198 182 65 97.000000 1.000000 4.000000 1.000000 -60.708740 114.000000 231.000000 -0.170094 -0.101567 0.980180
-0.12000000 3.15000010 -0.20000000 198 182 65 97.000000 1.000000 4.000000 1.000000 -60.708740 114.000000 231.000000 0.544425 0.213169 -0.811270
-0.12000000 3.15000010 -0.34000000 198 182 65 97.000000 1.000000 4.000000 1.000000 -60.708740 114.000000 231.000000 0.153771 -0.176646 0.972189
-0.12000000 3.15000010 -0.34999999 198 182 65 97.000000 1.000000 4.000000 1.000000 -60.708740 114.000000 231.000000 0.167409 -0.496300 0.851857
-0.10000000 3.15000010 -0.34999999 198 182 65 97.000000 1.000000 4.000000 1.000000 -60.708740 114.000000 231.000000 0.189851 -0.260874 0.946521
-0.10000000 3.15000010 -0.34999999 198 182 65 97.000000 1.000000 4.000000 1.000000 -60.708740 114.000000 231.000000 0.189851 -0.260874 0.946521
-0.16000000 3.14000010 -0.31000000 198 182 65 97.000000 1.000000 4.000000 1.000000 -60.708740 114.000000 231.000000 -0.168068 0.199336 0.965411
-0.14000000 3.15000010 -0.31000000 198 182 65 97.000000 1.000000 4.000000 1.000000 -60.708740 114.000000 231.000000 -0.293876 0.104109 0.950157
-0.16000000 3.08999991 -0.34999999 198 182 65 97.000000 1.000000 4.000000 1.000000 -60.708740 114.000000 231.000000 0.221275 0.102419 0.969818
-0.18000001 3.10999990 -0.25999999 198 182 65 97.000000 1.000000 4.000000 1.000000 -60.708740 114.000000 231.000000 -0.112570 0.292682 0.949561
-0.23000000 3.14000010 -0.23999999 198 182 65 97.000000 1.000000 4.000000 1.000000 -60.708740 114.000000 231.000000 -0.274322 -0.251580 0.928146
-0.23000000 3.10999990 -0.25000000 198 182 65 97.000000 1.000000 4.000000 1.000000 -60.708740 114.000000 231.000000 -0.054234 0.376994 0.924627
-0.20999999 3.09999990 -0.25000000 198 182 65 97.000000 1.000000 4.000000 1.000000 -60.708740 114.000000 231.000000 0.274860 0.219051 0.936199
-0.20999999 3.09999990 -0.25000000 198 182 65 97.000000 1.000000 4.000000 1.000000 -60.708740 114.000000 231.000000 0.274860 0.219051 0.936199
-0.18000001 3.13000011 -0.31000000 198 182 65 97.000000 1.000000 4.000000 1.000000 -60.708740 114.000000 231.000000 -0.267822 -0.008483 0.963431
-0.22000000 3.11999989 -0.28999999 198 182 65 97.000000 1.000000 4.000000 1.000000 -60.708740 114.000000 231.000000 -0.170661 0.251289 0.952748
-0.20999999 3.15000010 -0.34000000 198 182 65 97.000000 1.000000 4.000000 1.000000 -60.708740 114.000000 231.000000 0.278718 -0.222695 0.934197
-0.20999999 3.11999989 -0.34999999 198 182 65 97.000000 1.000000 4.000000 1.000000 -60.708740 114.000000 231.000000 -0.335074 -0.018966 0.942001
-0.23999999 3.08999991 -0.30000001 198 182 65 97.000000 1.000000 4.000000 1.000000 -60.708740 114.000000 231.000000 0.100562 0.333867 0.937241
-0.23999999 3.07999992 -0.31999999 198 182 65 97.000000 1.000000 4.000000 1.000000 -60.708740 114.000000 231.000000 0.089763 -0.190593 0.977557
-0.19000000 3.02999997 -0.33000001 198 182 65 97.000000 1.000000 4.000000 1.000000 -60.708740 114.000000 231.000000 0.157026 0.177453 0.971521
-0.28999999 3.27999997 -0.05000000 198 182 65 97.000000 1.000000 4.000000 1.000000 -60.708740 114.000000 231.000000 -0.050231 -0.325857 0.944084
-0.28999999 3.27999997 -0.05000000 198 182 65 97.000000 1.000000 4.000000 1.000000 -60.708740 114.000000 231.000000 -0.050231 -0.325857 0.944084
-0.28000000 3.27999997 -0.05000000 198 182 65 97.000000 1.000000 4.000000 1.000000 -60.708740 114.000000 231.000000 -0.545156 -0.159813 0.822961
-0.28999999 3.29999995 -0.09000000 198 182 65 97.000000 1.000000 4.000000 1.000000 -60.708740 114.000000 231.000000 0.315806 0.694773 -0.646187
-0.25000000 3.24000001 -0.03000000 198 182 65 97.000000 1.000000 4.000000 1.000000 -60.708740 114.000000 231.000000 -0.142650 -0.147612 0.978704
-0.31999999 3.24000001 -0.03000000 198 182 65 97.000000 1.000000 4.000000 1.000000 -60.708740 114.000000 231.000000 -0.434798 -0.090294 0.895990
-0.33000001 3.26999998 -0.05000000 198 182 65 97.000000 1.000000 4.000000 1.000000 -60.708740 114.000000 231.000000 -0.583980 -0.383288 0.715581
-0.31999999 3.25999999 -0.10000000 198 182 65 97.000000 1.000000 4.000000 1.000000 -60.708740 114.000000 231.000000 -0.354111 -0.059238 0.933326
-0.31999999 3.26999998 -0.09000000 198 182 65 97.000000 1.000000 4.000000 1.000000 -60.708740 114.000000 231.000000 -0.529997 -0.215359 0.820197
-0.31000000 3.24000001 -0.07000000 198 182 65 97.000000 1.000000 4.000000 1.000000 -60.708740 114.000000 231.000000 -0.188526 -0.015036 0.981953
-0.31000000 3.25000000 -0.07000000 198 182 65 97.000000 1.000000 4.000000 1.000000 -60.708740 114.000000 231.000000 -0.159251 -0.198093 0.967160
-0.27000001 3.28999996 -0.18000001 198 182 65 97.000000 1.000000 4.000000 1.000000 -60.708740 114.000000 231.000000 -0.295333 -0.202954 0.933589
-0.28000000 3.25999999 -0.13000000 198 182 65 97.000000 1.000000 4.000000 1.000000 -60.708740 114.000000 231.000000 -0.123355 0.092810 0.988013
-0.25999999 3.24000001 -0.12000000 198 182 65 97.000000 1.000000 4.000000 1.000000 -60.708740 114.000000 231.000000 -0.084693 -0.300985 0.949861
-0.28000000 3.24000001 -0.14000000 198 182 65 97.000000 1.000000 4.000000 1.000000 -60.708740 114.000000 231.000000 -0.132544 -0.511241 0.849155
-0.28999999 3.25999999 -0.13000000 198 182 65 97.000000 1.000000 4.000000 1.000000 -60.708740 114.000000 231.000000 -0.202054 -0.259783 0.944292
-0.28999999 3.24000001 -0.15000001 198 182 65 97.000000 1.000000 4.000000 1.000000 -60.708740 114.000000 231.000000 0.045741 -0.525326 0.849670
-0.31999999 3.29999995 -0.12000000 198 182 65 97.000000 1.000000 4.000000 1.000000 -60.708740 114.000000 231.000000 -0.040374 -0.019669 0.998991
-0.30000001 3.30999994 -0.16000000 198 182 65 97.000000 1.000000 4.000000 1.000000 -60.708740 114.000000 231.000000 -0.346871 -0.048068 0.936680
-0.31000000 3.29999995 -0.17000000 198 182 65 97.000000 1.000000 4.000000 1.000000 -60.708740 114.000000 231.000000 -0.312380 -0.472494 0.824117
-0.30000001 3.30999994 -0.16000000 198 182 65 97.000000 1.000000 4.000000 1.000000 -60.708740 114.000000 231.000000 -0.346871 -0.048068 0.936680
-0.31000000 3.30999994 -0.16000000 198 182 65 97.000000 1.000000 4.000000 1.000000 -60.708740 114.000000 231.000000 -0.066656 -0.197544 0.978025
-0.30000001 3.30999994 -0.16000000 198 182 65 97.000000 1.000000 4.000000 1.000000 -60.708740 114.000000 231.000000 -0.346871 -0.048068 0.936680
-0.33000001 3.24000001 -0.13000000 198 182 65 97.000000 1.000000 4.000000 1.000000 -60.708740 114.000000 231.000000 -0.327941 -0.389526 0.860653
-0.30000001 3.24000001 -0.12000000 198 182 65 97.000000 1.000000 4.000000 1.000000 -60.708740 114.000000 231.000000 -0.093360 -0.538614 0.837365
-0.30000001 3.24000001 -0.12000000 198 182 65 97.000000 1.000000 4.000000 1.000000 -60.708740 114.000000 231.000000 -0.093360 -0.538614 0.837365
-0.33000001 3.25999999 -0.18000001 198 182 65 97.000000 1.000000 4.000000 1.000000 -60.708740 114.000000 231.000000 -0.099369 0.022931 0.994786
-0.28999999 3.23000002 -0.05000000 198 182 65 97.000000 1.000000 4.000000 1.000000 -60.708740 114.000000 231.000000 -0.337344 0.013898 0.941279
-0.28999999 3.23000002 -0.08000000 198 182 65 97.000000 1.000000 4.000000 1.000000 -60.708740 114.000000 231.000000 -0.051009 0.116755 0.991850
-0.28999999 3.17000008 -0.05000000 198 182 65 97.000000 1.000000 4.000000 1.000000 -60.708740 114.000000 231.000000 -0.152304 0.049993 0.987068
-0.25000000 3.18000007 -0.10000000 198 182 65 97.000000 1.000000 4.000000 1.000000 -60.708740 114.000000 231.000000 -0.051299 -0.126537 0.990635
-0.25000000 3.18000007 -0.08000000 198 182 65 97.000000 1.000000 4.000000 1.000000 -60.708740 114.000000 231.000000 -0.248947 -0.508718 0.824155
-0.28000000 3.18000007 -0.10000000 198 182 65 97.000000 1.000000 4.000000 1.000000 -60.708740 114.000000 231.000000 -0.210204 0.126123 0.969488
-0.31999999 3.23000002 -0.06000000 198 182 65 97.000000 1.000000 4.000000 1.000000 -60.708740 114.000000 231.000000 -0.216202 0.124092 0.968431
-0.30000001 3.23000002 -0.10000000 198 182 65 97.000000 1.000000 4.000000 1.000000 -60.708740 114.000000 231.000000 -0.253388 -0.242189 0.936557
-0.30000001 3.17000008 -0.09000000 198 182 65 97.000000 1.000000 4.000000 1.000000 -60.708740 114.000000 231.000000 -0.220701 -0.378553 0.898882
-0.27000001 3.20000005 -0.14000000 198 182 65 97.000000 1.000000 4.000000 1.000000 -60.708740 114.000000 231.000000 -0.376154 0.105323 0.920552
-0.28999999 3.19000006 -0.11000000 198 182 65 97.000000 1.000000 4.000000 1.000000 -60.708740 114.000000 231.000000 -0.315131 -0.430007 0.846042
-0.27000001 3.17000008 -0.12000000 198 182 65 97.000000 1.000000 4.000000 1.000000 -60.708740 114.000000 231.000000 -0.037417 0.060937 0.997440
-0.28999999 3.19000006 -0.14000000 198 182 65 97.000000 1.000000 4.000000 1.000000 -60.708740 114.000000 231.000000 -0.165604 0.109176 0.980131
-0.27000001 3.17000008 -0.12000000 198 182 65 97.000000 1.000000 4.000000 1.000000 -60.708740 114.000000 231.000000 -0.037417 0.060937 0.997440
-0.33000001 3.20000005 -0.13000000 198 182 65 97.000000 1.000000 4.000000 1.000000 -60.708740 114.000000 231.000000 -0.184536 0.105272 0.977172
-0.30000001 3.20000005 -0.14000000 198 182 65 97.000000 1.000000 4.000000 1.000000 -60.708740 114.000000 231.000000 -0.286382 -0.364350 0.886135
-0.33000001 3.22000003 -0.14000000 198 182 65 97.000000 1.000000 4.000000 1.000000 -60.708740 114.000000 231.000000 -0.093980 -0.219286 0.971124
-0.31999999 3.21000004 -0.12000000 198 182 65 97.000000 1.000000 4.000000 1.000000 -60.708740 114.000000 231.000000 -0.371922 -0.137903 0.917964
-0.34999999 3.27999997 -0.09000000 198 182 65 97.000000 1.000000 4.000000 1.000000 -60.708740 114.000000 231.000000 -0.066895 -0.570744 0.818399
-0.34000000 3.24000001 -0.06000000 198 182 65 97.000000 1.000000 4.000000 1.000000 -60.708740 114.000000 231.000000 -0.281358 -0.200970 0.938322
-0.36000001 3.26999998 -0.09000000 198 182 65 97.000000 1.000000 4.000000 1.000000 -60.708740 114.000000 231.000000 -0.493008 -0.059717 0.867973
-0.34999999 3.26999998 -0.12000000 198 182 65 97.000000 1.000000 4.000000 1.000000 -60.708740 114.000000 231.000000 0.069256 -0.327985 0.942141
-0.34000000 3.25000000 -0.13000000 198 182 65 97.000000 1.000000 4.000000 1.000000 -60.708740 114.000000 231.000000 -0.487533 -0.212824 0.846769
-0.37000000 3.22000003 -0.10000000 198 182 65 97.000000 1.000000 4.000000 1.000000 -60.708740 114.000000 231.000000 -0.199934 -0.300600 0.932559
-0.34000000 3.23000002 -0.06000000 198 182 65 97.000000 1.000000 4.000000 1.000000 -60.708740 114.000000 231.000000 0.116302 -0.262658 0.957854
-0.40000001 3.16000009 -0.06000000 198 182 65 97.000000 1.000000 4.000000 1.000000 -60.708740 114.000000 231.000000 0.119177 0.263236 0.957342
-0.34000000 3.21000004 -0.13000000 198 182 65 97.000000 1.000000 4.000000 1.000000 -60.708740 114.000000 231.000000 0.132117 0.154342 0.979144
-0.34999999 3.20000005 -0.13000000 198 182 65 97.000000 1.000000 4.000000 1.000000 -60.708740 114.000000 231.000000 -0.026611 0.067061 0.997394
-0.34000000 3.18000007 -0.13000000 198 182 65 97.000000 1.000000 4.000000 1.000000 -60.708740 114.000000 231.000000 -0.337580 -0.249897 0.907519
-0.37000000 3.16000009 -0.14000000 198 182 65 97.000000 1.000000 4.000000 1.000000 -60.708740 114.000000 231.000000 -0.162892 0.372528 0.913613
-0.28000000 3.28999996 -0.22000000 198 182 65 97.000000 1.000000 4.000000 1.000000 -60.708740 114.000000 231.000000 -0.079613 0.011677 0.996757
-0.25000000 3.29999995 -0.20000000 198 182 65 97.000000 1.000000 4.000000 1.000000 -60.708740 114.000000 231.000000 -0.524562 -0.438514 0.729753
-0.28999999 3.30999994 -0.19000000 198 182 65 97.000000 1.000000 4.000000 1.000000 -60.708740 114.000000 231.000000 -0.315539 -0.321521 0.892782
-0.25000000 3.30999994 -0.25000000 198 182 65 97.000000 1.000000 4.000000 1.000000 -60.708740 114.000000 231.000000 0.240908 0.492557 -0.836272
-0.27000001 3.29999995 -0.25000000 198 182 65 97.000000 1.000000 4.000000 1.000000 -60.708740 114.000000 231.000000 0.550216 0.179386 -0.815526
-0.28999999 3.25999999 -0.22000000 198 182 65 97.000000 1.000000 4.000000 1.000000 -60.708740 114.000000 231.000000 0.539069 0.172682 -0.824370
-0.28000000 3.25999999 -0.23999999 198 182 65 97.000000 1.000000 4.000000 1.000000 -60.708740 114.000000 231.000000 -0.179355 0.089068 0.979744
-0.30000001 3.29999995 -0.27000001 198 182 65 97.000000 1.000000 4.000000 1.000000 -60.708740 114.000000 231.000000 -0.287241 -0.503849 0.814634
-0.33000001 3.30999994 -0.25000000 198 182 65 97.000000 1.000000 4.000000 1.000000 -60.708740 114.000000 231.000000 0.209691 -0.365875 0.906733
-0.31999999 3.29999995 -0.25999999 198 182 65 97.000000 1.000000 4.000000 1.000000 -60.708740 114.000000 231.000000 -0.322234 -0.082860 0.943027
-0.33000001 3.25999999 -0.25000000 198 182 65 97.000000 1.000000 4.000000 1.000000 -60.708740 114.000000 231.000000 -0.219685 -0.164435 0.961613
-0.33000001 3.24000001 -0.25000000 198 182 65 97.000000 1.000000 4.000000 1.000000 -60.708740 114.000000 231.000000 -0.323076 -0.308188 0.894786
-0.31000000 3.24000001 -0.25000000 198 182 65 97.000000 1.000000 4.000000 1.000000 -60.708740 114.000000 231.000000 -0.005786 -0.197893 0.980207
-0.31000000 3.25999999 -0.25000000 198 182 65 97.000000 1.000000 4.000000 1.000000 -60.708740 114.000000 231.000000 -0.318509 -0.492818 0.809742
-0.31000000 3.25999999 -0.25000000 198 182 65 97.000000 1.000000 4.000000 1.000000 -60.708740 114.000000 231.000000 -0.318509 -0.492818 0.809742
-0.31999999 3.26999998 -0.25000000 198 182 65 97.000000 1.000000 4.000000 1.000000 -60.708740 114.000000 231.000000 -0.195544 0.103377 0.975231
-0.25999999 3.30999994 -0.31000000 198 182 65 97.000000 1.000000 4.000000 1.000000 -60.708740 114.000000 231.000000 -0.552607 -0.269219 0.788763
-0.27000001 3.30999994 -0.28000000 198 182 65 97.000000 1.000000 4.000000 1.000000 -60.708740 114.000000 231.000000 0.212266 -0.293798 0.932001
-0.28000000 3.27999997 -0.34999999 198 182 65 97.000000 1.000000 4.000000 1.000000 -60.708740 114.000000 231.000000 -0.105113 -0.367214 0.924178
-0.28999999 3.29999995 -0.34000000 198 182 65 97.000000 1.000000 4.000000 1.000000 -60.708740 114.000000 231.000000 -0.353394 0.078680 0.932160
-0.28999999 3.25999999 -0.28000000 198 182 65 97.000000 1.000000 4.000000 1.000000 -60.708740 114.000000 231.000000 0.084198 -0.535154 0.840548
-0.28000000 3.26999998 -0.34999999 198 182 65 97.000000 1.000000 4.000000 1.000000 -60.708740 114.000000 231.000000 -0.354770 -0.186646 0.916134
-0.25000000 3.26999998 -0.34999999 198 182 65 97.000000 1.000000 4.000000 1.000000 -60.708740 114.000000 231.000000 -0.347196 -0.461343 0.816466
-0.28999999 3.26999998 -0.33000001 198 182 65 97.000000 1.000000 4.000000 1.000000 -60.708740 114.000000 231.000000 0.060249 -0.298682 0.952449
-0.28000000 3.25999999 -0.34999999 198 182 65 97.000000 1.000000 4.000000 1.000000 -60.708740 114.000000 231.000000 -0.093619 0.100554 0.990517
-0.33000001 3.27999997 -0.28999999 198 182 65 97.000000 1.000000 4.000000 1.000000 -60.708740 114.000000 231.000000 -0.214999 0.137754 0.966850
-0.33000001 3.26999998 -0.28000000 198 182 65 97.000000 1.000000 4.000000 1.000000 -60.708740 114.000000 231.000000 -0.154593 0.089880 0.983881
-0.28999999 3.21000004 -0.25999999 198 182 65 97.000000 1.000000 4.000000 1.000000 -60.708740 114.000000 231.000000 -0.081373 -0.137980 0.987087
-0.28999999 3.22000003 -0.25999999 198 182 65 97.000000 1.000000 4.000000 1.000000 -60.708740 114.000000 231.000000 0.084135 -0.348561 0.933502
-0.31000000 3.22000003 -0.25999999 198 182 65 97.000000 1.000000 4.000000 1.000000 -60.708740 114.000000 231.000000 -0.325661 -0.244607 0.913298
-0.30000001 3.23000002 -0.25999999 198 182 65 97.000000 1.000000 4.000000 1.000000 -60.708740 114.000000 231.000000 -0.244604 0.101171 0.964330
-0.31000000 3.23000002 -0.25999999 198 182 65 97.000000 1.000000 4.000000 1.000000 -60.708740 114.000000 231.000000 0.325234 -0.091596 0.941187
-0.27000001 3.21000004 -0.28000000 198 182 65 97.000000 1.000000 4.000000 1.000000 -60.708740 114.000000 231.000000 0.187143 0.146404 0.971362
-0.28000000 3.21000004 -0.28000000 198 182 65 97.000000 1.000000 4.000000 1.000000 -60.708740 114.000000 231.000000 -0.230390 0.075966 0.970129
-0.28999999 3.21000004 -0.28000000 198 182 65 97.000000 1.000000 4.000000 1.000000 -60.708740 114.000000 231.000000 0.015557 0.046672 0.998789
-0.28999999 3.22000003 -0.28999999 198 182 65 97.000000 1.000000 4.000000 1.000000 -60.708740 114.000000 231.000000 -0.443506 0.009212 0.896224
-0.27000001 3.23000002 -0.28000000 198 182 65 97.000000 1.000000 4.000000 1.000000 -60.708740 114.000000 231.000000 0.254711 -0.277479 0.926352
-0.27000001 3.23000002 -0.28000000 198 182 65 97.000000 1.000000 4.000000 1.000000 -60.708740 114.000000 231.000000 0.254711 -0.277479 0.926352
-0.28999999 3.20000005 -0.28000000 198 182 65 97.000000 1.000000 4.000000 1.000000 -60.708740 114.000000 231.000000 -0.057959 0.064520 0.996232
-0.27000001 3.21000004 -0.34999999 198 182 65 97.000000 1.000000 4.000000 1.000000 -60.708740 114.000000 231.000000 0.161261 0.057677 0.985225
-0.28000000 3.17000008 -0.34999999 198 182 65 97.000000 1.000000 4.000000 1.000000 -60.708740 114.000000 231.000000 0.097229 -0.463598 0.880695
-0.25999999 3.17000008 -0.34999999 198 182 65 97.000000 1.000000 4.000000 1.000000 -60.708740 114.000000 231.000000 0.320229 -0.099656 0.942084
-0.28999999 3.18000007 -0.33000001 198 182 65 97.000000 1.000000 4.000000 1.000000 -60.708740 114.000000 231.000000 0.202674 0.173907 0.963680
-0.30000001 3.21000004 -0.28000000 198 182 65 97.000000 1.000000 4.000000 1.000000 -60.708740 114.000000 231.000000 0.325964 -0.037070 0.944655
-0.31000000 3.22000003 -0.28000000 198 182 65 97.000000 1.000000 4.000000 1.000000 -60.708740 114.000000 231.000000 -0.242098 0.035281 0.969610
-0.34999999 3.26999998 -0.25999999 198 182 65 97.000000 1.000000 4.000000 1.000000 -60.708740 114.000000 231.000000 -0.099697 0.111426 0.988759
-0.28999999 3.15000010 -0.09000000 198 182 65 97.000000 1.000000 4.000000 1.000000 -60.708740 114.000000 231.000000 -0.137483 0.244851 0.959764
-0.28999999 3.10999990 -0.09000000 198 182 65 97.000000 1.000000 4.000000 1.000000 -60.708740 114.000000 231.000000 0.069032 0.252280 0.965189
-0.25999999 3.15000010 -0.09000000 198 182 65 97.000000 1.000000 4.000000 1.000000 -60.708740 114.000000 231.000000 -0.146800 -0.411895 0.899329
-0.25000000 3.09999990 -0.05000000 198 182 65 97.000000 1.000000 4.000000 1.000000 -60.708740 114.000000 231.000000 -0.287877 -0.043999 0.956656
-0.28999999 3.08999991 -0.08000000 198 182 65 97.000000 1.000000 4.000000 1.000000 -60.708740 114.000000 231.000000 -0.243432 -0.068660 0.967485
-0.28999999 3.08999991 -0.08000000 198 182 65 97.000000 1.000000 4.000000 1.000000 -60.708740 114.000000 231.000000 -0.243432 -0.068660 0.967485
-0.28000000 3.08999991 -0.08000000 198 182 65 97.000000 1.000000 4.000000 1.000000 -60.708740 114.000000 231.000000 0.386277 0.269041 0.882274
-0.28000000 3.09999990 -0.08000000 198 182 65 97.000000 1.000000 4.000000 1.000000 -60.708740 114.000000 231.000000 0.311176 0.320110 0.894818
-0.28000000 3.07999992 -0.08000000 198 182 65 97.000000 1.000000 4.000000 1.000000 -60.708740 114.000000 231.000000 -0.126177 -0.145777 0.981238
-0.31000000 3.10999990 -0.08000000 198 182 65 97.000000 1.000000 4.000000 1.000000 -60.708740 114.000000 231.000000 0.225960 0.250912 0.941268
-0.30000001 3.14000010 -0.09000000 198 182 65 97.000000 1.000000 4.000000 1.000000 -60.708740 114.000000 231.000000 -0.046521 0.196821 0.979335
-0.33000001 3.07999992 -0.07000000 198 182 65 97.000000 1.000000 4.000000 1.000000 -60.708740 114.000000 231.000000 0.068817 -0.138800 0.987927
-0.33000001 3.06999993 -0.07000000 198 182 65 97.000000 1.000000 4.000000 1.000000 -60.708740 114.000000 231.000000 0.055431 -0.059779 0.996671
-0.30000001 3.06999993 -0.10000000 198 182 65 97.000000 1.000000 4.000000 1.000000 -60.708740 114.000000 231.000000 0.299229 0.530380 0.793195
-0.30000001 3.08999991 -0.08000000 198 182 65 97.000000 1.000000 4.000000 1.000000 -60.708740 114.000000 231.000000 -0.172665 0.080899 0.981653
-0.28000000 3.08999991 -0.14000000 198 182 65 97.000000 1.000000 4.000000 1.000000 -60.708740 114.000000 231.000000 -0.302310 0.222829 0.926799
-0.31000000 3.08999991 -0.12000000 198 182 65 97.000000 1.000000 4.000000 1.000000 -60.708740 114.000000 231.000000 -0.129476 -0.184786 0.974213
-0.25999999 3.02999997 -0.07000000 198 182 65 97.000000 1.000000 4.000000 1.000000 -60.708740 114.000000 231.000000 0.134677 0.035084 0.990268
-0.28999999 3.01999998 -0.08000000 198 182 65 97.000000 1.000000 4.000000 1.000000 -60.708740 114.000000 231.000000 0.207071 0.180692 0.961495
-0.30000001 3.02999997 -0.09000000 198 182 65 97.000000 1.000000 4.000000 1.000000 -60.708740 114.000000 231.000000 0.563186 0.298345 0.770592
-0.31000000 3.03999996 -0.08000000 198 182 65 97.000000 1.000000 4.000000 1.000000 -60.708740 114.000000 231.000000 0.449751 0.357576 0.818452
-0.27000001 3.05999994 -0.13000000 198 182 65 97.000000 1.000000 4.000000 1.000000 -60.708740 114.000000 231.000000 -0.193451 0.359676 0.912803
-0.27000001 3.05999994 -0.13000000 198 182 65 97.000000 1.000000 4.000000 1.000000 -60.708740 114.000000 231.000000 -0.193451 0.359676 0.912803
-0.27000001 3.04999995 -0.12000000 198 182 65 97.000000 1.000000 4.000000 1.000000 -60.708740 114.000000 231.000000 -0.051982 0.398528 0.915682
-0.25999999 3.04999995 -0.12000000 198 182 65 97.000000 1.000000 4.000000 1.000000 -60.708740 114.000000 231.000000 0.225462 0.431513 0.873478
-0.30000001 3.05999994 -0.13000000 198 182 65 97.000000 1.000000 4.000000 1.000000 -60.708740 114.000000 231.000000 0.053997 0.367440 0.928478
-0.30000001 3.04999995 -0.16000000 198 182 65 97.000000 1.000000 4.000000 1.000000 -60.708740 114.000000 231.000000 -0.242743 0.125915 0.961884
-0.34999999 3.11999989 -0.07000000 198 182 65 97.000000 1.000000 4.000000 1.000000 -60.708740 114.000000 231.000000 0.317495 0.384982 0.866594
-0.34999999 3.08999991 -0.03000000 198 182 65 97.000000 1.000000 4.000000 1.000000 -60.708740 114.000000 231.000000 0.083406 0.501852 0.860923
-0.34000000 3.09999990 -0.06000000 198 182 65 97.000000 1.000000 4.000000 1.000000 -60.708740 114.000000 231.000000 -0.249939 0.244354 0.936922
-0.34000000 3.07999992 -0.03000000 198 182 65 97.000000 1.000000 4.000000 1.000000 -60.708740 114.000000 231.000000 0.171801 0.328237 0.928841
-0.34999999 3.07999992 -0.03000000 198 182 65 97.000000 1.000000 4.000000 1.000000 -60.708740 114.000000 231.000000 -0.111987 0.240707 0.964116
-0.34999999 3.08999991 -0.10000000 198 182 65 97.000000 1.000000 4.000000 1.000000 -60.708740 114.000000 231.000000 0.052439 0.094837 0.994111
-0.34000000 3.11999989 -0.15000001 198 182 65 97.000000 1.000000 4.000000 1.000000 -60.708740 114.000000 231.000000 -0.238316 0.352356 0.905014
-0.36000001 3.07999992 -0.14000000 198 182 65 97.000000 1.000000 4.000000 1.000000 -60.708740 114.000000 231.000000 0.304208 0.493353 0.814899
-0.34999999 3.07999992 -0.18000001 198 182 65 97.000000 1.000000 4.000000 1.000000 -60.708740 114.000000 231.000000 -0.055206 0.055206 0.996948
-0.34000000 3.04999995 -0.06000000 198 182 65 97.000000 1.000000 4.000000 1.000000 -60.708740 114.000000 231.000000 0.210183 0.699052 0.683483
-0.34000000 3.05999994 -0.07000000 198 182 65 97.000000 1.000000 4.000000 1.000000 -60.708740 114.000000 231.000000 0.208574 0.349541 0.913410
-0.37000000 3.05999994 -0.10000000 198 182 65 97.000000 1.000000 4.000000 1.000000 -60.708740 114.000000 231.000000 0.358025 0.370424 0.857090
-0.28000000 3.09999990 -0.27000001 198 182 65 97.000000 1.000000 4.000000 1.000000 -60.708740 114.000000 231.000000 -0.253575 0.135327 0.957803
-0.33000001 3.08999991 -0.20999999 198 182 65 97.000000 1.000000 4.000000 1.000000 -60.708740 114.000000 231.000000 -0.084311 -0.186951 0.978745
-0.25000000 3.10999990 -0.30000001 198 182 65 97.000000 1.000000 4.000000 1.000000 -60.708740 114.000000 231.000000 0.250093 -0.287250 0.924630
-0.28999999 3.10999990 -0.30000001 198 182 65 97.000000 1.000000 4.000000 1.000000 -60.708740 114.000000 231.000000 0.300843 0.251902 0.919803
-0.25999999 3.10999990 -0.30000001 198 182 65 97.000000 1.000000 4.000000 1.000000 -60.708740 114.000000 231.000000 -0.214727 -0.024913 0.976356
-0.28999999 3.13000011 -0.28999999 198 182 65 97.000000 1.000000 4.000000 1.000000 -60.708740 114.000000 231.000000 -0.082484 -0.158991 0.983828
-0.25999999 3.06999993 -0.31000000 198 182 65 97.000000 1.000000 4.000000 1.000000 -60.708740 114.000000 231.000000 -0.148842 0.129160 0.980389
-0.25999999 3.06999993 -0.31000000 198 182 65 97.000000 1.000000 4.000000 1.000000 -60.708740 114.000000 231.000000 -0.148842 0.129160 0.980389
-0.27000001 3.06999993 -0.31000000 198 182 65 97.000000 1.000000 4.000000 1.000000 -60.708740 114.000000 231.000000 -0.010796 -0.250698 0.968005
-0.25999999 3.09999990 -0.30000001 198 182 65 97.000000 1.000000 4.000000 1.000000 -60.708740 114.000000 231.000000 0.034905 -0.225074 0.973716
-0.27000001 3.06999993 -0.31000000 198 182 65 97.000000 1.000000 4.000000 1.000000 -60.708740 114.000000 231.000000 -0.010796 -0.250698 0.968005
-0.25000000 3.09999990 -0.30000001 198 182 65 97.000000 1.000000 4.000000 1.000000 -60.708740 114.000000 231.000000 0.304518 -0.071270 0.949837
-0.25000000 3.06999993 -0.28999999 198 182 65 97.000000 1.000000 4.000000 1.000000 -60.708740 114.000000 231.000000 -0.105007 0.146045 0.983689
-0.28999999 3.08999991 -0.30000001 198 182 65 97.000000 1.000000 4.000000 1.000000 -60.708740 114.000000 231.000000 -0.065344 -0.290845 0.954536
-0.28000000 3.07999992 -0.31000000 198 182 65 97.000000 1.000000 4.000000 1.000000 -60.708740 114.000000 231.000000 0.174217 -0.324740 0.929620
-0.28000000 3.07999992 -0.34000000 198 182 65 97.000000 1.000000 4.000000 1.000000 -60.708740 114.000000 231.000000 -0.237703 0.318378 0.917678
-0.30000001 3.15000010 -0.30000001 198 182 65 97.000000 1.000000 4.000000 1.000000 -60.708740 114.000000 231.000000 -0.091101 0.215896 0.972157
-0.31999999 3.13000011 -0.28000000 198 182 65 97.000000 1.000000 4.000000 1.000000 -60.708740 114.000000 231.000000 0.193705 -0.296828 0.935078
-0.30000001 3.13000011 -0.30000001 198 182 65 97.000000 1.000000 4.000000 1.000000 -60.708740 114.000000 231.000000 0.422898 -0.084028 0.902273
-0.31000000 3.15000010 -0.30000001 198 182 65 97.000000 1.000000 4.000000 1.000000 -60.708740 114.000000 231.000000 0.089375 0.187320 0.978225
-0.33000001 3.08999991 -0.28999999 198 182 65 97.000000 1.000000 4.000000 1.000000 -60.708740 114.000000 231.000000 0.060800 -0.319521 0.945627
-0.31999999 3.08999991 -0.28999999 198 182 65 97.000000 1.000000 4.000000 1.000000 -60.708740 114.000000 231.000000 -0.040128 0.015434 0.999075
-0.33000001 3.08999991 -0.28999999 198 182 65 97.000000 1.000000 4.000000 1.000000 -60.708740 114.000000 231.000000 0.060800 -0.319521 0.945627
-0.30000001 3.09999990 -0.30000001 198 182 65 97.000000 1.000000 4.000000 1.000000 -60.708740 114.000000 231.000000 -0.283807 -0.179607 0.941910
-0.30000001 3.07999992 -0.28999999 198 182 65 97.000000 1.000000 4.000000 1.000000 -60.708740 114.000000 231.000000 0.096564 0.371296 0.923480
-0.31000000 3.08999991 -0.28999999 198 182 65 97.000000 1.000000 4.000000 1.000000 -60.708740 114.000000 231.000000 0.119264 0.075264 0.990006
-0.31000000 3.07999992 -0.28999999 198 182 65 97.000000 1.000000 4.000000 1.000000 -60.708740 114.000000 231.000000 0.152898 0.037937 0.987514
-0.31999999 3.03999996 -0.20999999 198 182 65 97.000000 1.000000 4.000000 1.000000 -60.708740 114.000000 231.000000 -0.156882 0.010158 0.987565
-0.31000000 3.05999994 -0.27000001 198 182 65 97.000000 1.000000 4.000000 1.000000 -60.708740 114.000000 231.000000 0.068364 0.489710 0.869201
-0.25000000 3.05999994 -0.31000000 198 182 65 97.000000 1.000000 4.000000 1.000000 -60.708740 114.000000 231.000000 -0.010040 0.143913 0.989539
-0.27000001 3.05999994 -0.31000000 198 182 65 97.000000 1.000000 4.000000 1.000000 -60.708740 114.000000 231.000000 -0.068047 0.005234 0.997668
-0.28999999 3.05999994 -0.31000000 198 182 65 97.000000 1.000000 4.000000 1.000000 -60.708740 114.000000 231.000000 0.157898 -0.162951 0.973917
-0.28999999 3.04999995 -0.31000000 198 182 65 97.000000 1.000000 4.000000 1.000000 -60.708740 114.000000 231.000000 0.088151 -0.061371 0.994215
-0.28999999 3.03999996 -0.34000000 198 182 65 97.000000 1.000000 4.000000 1.000000 -60.708740 114.000000 231.000000 0.463449 -0.053317 0.884518
-0.27000001 3.02999997 -0.34000000 198 182 65 97.000000 1.000000 4.000000 1.000000 -60.708740 114.000000 231.000000 -0.115012 0.036849 0.992680
-0.25999999 3.02999997 -0.34999999 198 182 65 97.000000 1.000000 4.000000 1.000000 -60.708740 114.000000 231.000000 0.320731 0.170779 0.931647
-0.28999999 3.00000000 -0.34000000 198 182 65 97.000000 1.000000 4.000000 1.000000 -60.708740 114.000000 231.000000 0.180128 0.060838 0.981760
-0.33000001 3.02999997 -0.31999999 198 182 65 97.000000 1.000000 4.000000 1.000000 -60.708740 114.000000 231.000000 0.428867 0.003911 0.903359
-0.31999999 3.05999994 -0.31999999 198 182 65 97.000000 1.000000 4.000000 1.000000 -60.708740 114.000000 231.000000 -0.075001 -0.158335 0.984533
-0.33000001 3.05999994 -0.31999999 198 182 65 97.000000 1.000000 4.000000 1.000000 -60.708740 114.000000 231.000000 -0.052025 0.142201 0.988470
-0.31999999 3.05999994 -0.31999999 198 182 65 97.000000 1.000000 4.000000 1.000000 -60.708740 114.000000 231.000000 -0.075001 -0.158335 0.984533
-0.30000001 3.04999995 -0.34000000 198 182 65 97.000000 1.000000 4.000000 1.000000 -60.708740 114.000000 231.000000 -0.027562 0.402937 0.914812
-0.31000000 3.00000000 -0.30000001 198 182 65 97.000000 1.000000 4.000000 1.000000 -60.708740 114.000000 231.000000 0.297487 0.423881 0.855469
-0.33000001 2.99000001 -0.30000001 198 182 65 97.000000 1.000000 4.000000 1.000000 -60.708740 114.000000 231.000000 0.090989 0.168633 0.981470
-0.33000001 3.00999999 -0.31999999 198 182 65 97.000000 1.000000 4.000000 1.000000 -60.708740 114.000000 231.000000 0.491902 0.056811 0.868795
-0.30000001 3.00999999 -0.34000000 198 182 65 97.000000 1.000000 4.000000 1.000000 -60.708740 114.000000 231.000000 0.021087 0.291492 0.956341
-0.34999999 3.07999992 -0.22000000 198 182 65 97.000000 1.000000 4.000000 1.000000 -60.708740 114.000000 231.000000 0.096785 0.180094 0.978876
-0.36000001 3.06999993 -0.22000000 198 182 65 97.000000 1.000000 4.000000 1.000000 -60.708740 114.000000 231.000000 -0.233950 0.177802 0.955853
-0.34999999 3.07999992 -0.22000000 198 182 65 97.000000 1.000000 4.000000 1.000000 -60.708740 114.000000 231.000000 0.096785 0.180094 0.978876
-0.34000000 3.09999990 -0.25999999 198 182 65 97.000000 1.000000 4.000000 1.000000 -60.708740 114.000000 231.000000 -0.030446 -0.047244 0.998419
-0.36000001 3.06999993 -0.25000000 198 182 65 97.000000 1.000000 4.000000 1.000000 -60.708740 114.000000 231.000000 0.070557 0.366100 0.927897
-0.41000000 3.11999989 -0.23000000 198 182 65 97.000000 1.000000 4.000000 1.000000 -60.708740 114.000000 231.000000 -0.175513 0.378138 0.908959
-0.40000001 3.09999990 -0.23999999 198 182 65 97.000000 1.000000 4.000000 1.000000 -60.708740 114.000000 231.000000 0.433738 0.176708 0.883541
-0.34999999 3.08999991 -0.31000000 198 182 65 97.000000 1.000000 4.000000 1.000000 -60.708740 114.000000 231.000000 0.307492 0.275431 0.910816
-0.37000000 3.04999995 -0.22000000 198 182 65 97.000000 1.000000 4.000000 1.000000 -60.708740 114.000000 231.000000 -0.029911 0.373242 0.927252
-0.36000001 3.00000000 -0.25000000 198 182 65 97.000000 1.000000 4.000000 1.000000 -60.708740 114.000000 231.000000 0.120706 0.334994 0.934457
-0.38000000 3.05999994 -0.22000000 198 182 65 97.000000 1.000000 4.000000 1.000000 -60.708740 114.000000 231.000000 0.131573 0.121916 0.983781
-0.38999999 3.01999998 -0.23000000 198 182 65 97.000000 1.000000 4.000000 1.000000 -60.708740 114.000000 231.000000 0.345109 0.385346 0.855808
-0.38000000 3.00000000 -0.25000000 198 182 65 97.000000 1.000000 4.000000 1.000000 -60.708740 114.000000 231.000000 -0.038303 0.023810 0.998982
-0.38000000 3.00000000 -0.25000000 198 182 65 97.000000 1.000000 4.000000 1.000000 -60.708740 114.000000 231.000000 -0.038303 0.023810 0.998982
-0.38999999 3.00999999 -0.25000000 198 182 65 97.000000 1.000000 4.000000 1.000000 -60.708740 114.000000 231.000000 -0.104652 0.176061 0.978801
-0.38000000 3.01999998 -0.23000000 198 182 65 97.000000 1.000000 4.000000 1.000000 -60.708740 114.000000 231.000000 0.196426 0.394307 0.897741
-0.38999999 3.01999998 -0.23000000 198 182 65 97.000000 1.000000 4.000000 1.000000 -60.708740 114.000000 231.000000 0.345109 0.385346 0.855808
-0.34999999 3.04999995 -0.28000000 198 182 65 97.000000 1.000000 4.000000 1.000000 -60.708740 114.000000 231.000000 0.089583 0.414837 0.905475
-0.36000001 3.05999994 -0.28999999 198 182 65 97.000000 1.000000 4.000000 1.000000 -60.708740 114.000000 231.000000 0.134410 0.319055 0.938157
-0.34000000 3.01999998 -0.30000001 198 182 65 97.000000 1.000000 4.000000 1.000000 -60.708740 114.000000 231.000000 0.026353 0.161554 0.986512
-0.11000000 3.30999994 -0.38999999 198 182 65 97.000000 1.000000 4.000000 1.000000 -60.708740 114.000000 231.000000 -0.221472 -0.141172 0.964894
-0.10000000 3.28999996 -0.36000001 198 182 65 97.000000 1.000000 4.000000 1.000000 -60.708740 114.000000 231.000000 -0.290556 -0.563646 0.773227
-0.14000000 3.30999994 -0.38999999 198 182 65 97.000000 1.000000 4.000000 1.000000 -60.708740 114.000000 231.000000 0.140189 -0.538621 0.830804
-0.13000000 3.29999995 -0.38999999 198 182 65 97.000000 1.000000 4.000000 1.000000 -60.708740 114.000000 231.000000 -0.329985 -0.245672 0.911458
-0.13000000 3.25999999 -0.37000000 198 182 65 97.000000 1.000000 4.000000 1.000000 -60.708740 114.000000 231.000000 -0.280570 -0.509415 0.813497
-0.13000000 3.25000000 -0.40000001 198 182 65 97.000000 1.000000 4.000000 1.000000 -60.708740 114.000000 231.000000 -0.024594 -0.371502 0.928107
-0.16000000 3.24000001 -0.40000001 198 182 65 97.000000 1.000000 4.000000 1.000000 -60.708740 114.000000 231.000000 -0.025560 -0.472179 0.881132
-0.14000000 3.26999998 -0.43000001 198 182 65 97.000000 1.000000 4.000000 1.000000 -60.708740 114.000000 231.000000 0.251383 -0.276948 0.927419
-0.12000000 3.29999995 -0.47000000 198 182 65 97.000000 1.000000 4.000000 1.000000 -60.708740 114.000000 231.000000 -0.305064 0.101688 0.946887
-0.12000000 3.29999995 -0.47000000 198 182 65 97.000000 1.000000 4.000000 1.000000 -60.708740 114.000000 231.000000 -0.305064 0.101688 0.946887
-0.10000000 3.28999996 -0.44000000 198 182 65 97.000000 1.000000 4.000000 1.000000 -60.708740 114.000000 231.000000 -0.063201 0.037492 0.997296
-0.16000000 3.25999999 -0.47000000 198 182 65 97.000000 1.000000 4.000000 1.000000 -60.708740 114.000000 231.000000 -0.205981 -0.114996 0.971776
-0.14000000 3.24000001 -0.46000001 198 182 65 97.000000 1.000000 4.000000 1.000000 -60.708740 114.000000 231.000000 -0.467405 -0.322619 0.823073
-0.11000000 3.23000002 -0.38000000 198 182 65 97.000000 1.000000 4.000000 1.000000 -60.708740 114.000000 231.000000 -0.530380 -0.299229 0.793195
-0.11000000 3.22000003 -0.40000001 198 182 65 97.000000 1.000000 4.000000 1.000000 -60.708740 114.000000 231.000000 0.104536 -0.254242 0.961474
-0.09000000 3.16000009 -0.37000000 198 182 65 97.000000 1.000000 4.000000 1.000000 -60.708740 114.000000 231.000000 0.108715 -0.023061 0.993805
-0.09000000 3.19000006 -0.38000000 198 182 65 97.000000 1.000000 4.000000 1.000000 -60.708740 114.000000 231.000000 0.118800 -0.005450 0.992903
-0.09000000 3.19000006 -0.38000000 198 182 65 97.000000 1.000000 4.000000 1.000000 -60.708740 114.000000 231.000000 0.118800 -0.005450 0.992903
-0.14000000 3.17000008 -0.40000001 198 182 65 97.000000 1.000000 4.000000 1.000000 -60.708740 114.000000 231.000000 -0.051739 -0.200941 0.978236
-0.16000000 3.16000009 -0.41000000 198 182 65 97.000000 1.000000 4.000000 1.000000 -60.708740 114.000000 231.000000 -0.253153 -0.365665 0.895658
-0.15000001 3.17000008 -0.43000001 198 182 65 97.000000 1.000000 4.000000 1.000000 -60.708740 114.000000 231.000000 -0.226829 -0.194616 0.954292
-0.15000001 3.18000007 -0.41999999 198 182 65 97.000000 1.000000 4.000000 1.000000 -60.708740 114.000000 231.000000 -0.333109 -0.306222 0.891777
-0.15000001 3.18000007 -0.43000001 198 182 65 97.000000 1.000000 4.000000 1.000000 -60.708740 114.000000 231.000000 -0.401852 -0.358070 0.842794
-0.10000000 3.20000005 -0.47999999 198 182 65 97.000000 1.000000 4.000000 1.000000 -60.708740 114.000000 231.000000 0.007516 -0.095566 0.995395
-0.10000000 3.20000005 -0.44999999 198 182 65 97.000000 1.000000 4.000000 1.000000 -60.708740 114.000000 231.000000 -0.247586 -0.149611 0.957245
-0.09000000 3.20000005 -0.47999999 198 182 65 97.000000 1.000000 4.000000 1.000000 -60.708740 114.000000 231.000000 0.116109 0.094998 0.988683
-0.11000000 3.20000005 -0.47999999 198 182 65 97.000000 1.000000 4.000000 1.000000 -60.708740 114.000000 231.000000 -0.502033 -0.241037 0.830580
-0.10000000 3.21000004 -0.47999999 198 182 65 97.000000 1.000000 4.000000 1.000000 -60.708740 114.000000 231.000000 0.111327 0.130480 0.985181
-0.11000000 3.22000003 -0.44000000 198 182 65 97.000000 1.000000 4.000000 1.000000 -60.708740 114.000000 231.000000 -0.235445 -0.084357 0.968220
-0.12000000 3.22000003 -0.44999999 198 182 65 97.000000 1.000000 4.000000 1.000000 -60.708740 114.000000 231.000000 0.284647 -0.201336 0.937251
-0.12000000 3.21000004 -0.47999999 198 182 65 97.000000 1.000000 4.000000 1.000000 -60.708740 114.000000 231.000000 0.021191 -0.128261 0.991514
-0.12000000 3.21000004 -0.44000000 198 182 65 97.000000 1.000000 4.000000 1.000000 -60.708740 114.000000 231.000000 -0.000999 -0.020974 0.999780
-0.12000000 3.20000005 -0.44999999 198 182 65 97.000000 1.000000 4.000000 1.000000 -60.708740 114.000000 231.000000 0.126596 -0.330783 0.935177
-0.10000000 3.22000003 -0.44000000 198 182 65 97.000000 1.000000 4.000000 1.000000 -60.708740 114.000000 231.000000 -0.407229 -0.197046 0.891817
-0.12000000 3.16000009 -0.47000000 198 182 65 97.000000 1.000000 4.000000 1.000000 -60.708740 114.000000 231.000000 -0.199660 -0.173561 0.964372
-0.11000000 3.19000006 -0.44999999 198 182 65 97.000000 1.000000 4.000000 1.000000 -60.708740 114.000000 231.000000 -0.378228 0.016781 0.925561
-0.12000000 3.17000008 -0.47000000 198 182 65 97.000000 1.000000 4.000000 1.000000 -60.708740 114.000000 231.000000 -0.374646 0.120274 0.919334
-0.18000001 3.28999996 -0.36000001 198 182 65 97.000000 1.000000 4.000000 1.000000 -60.708740 114.000000 231.000000 -0.354587 -0.131073 0.925790
-0.19000000 3.25999999 -0.36000001 198 182 65 97.000000 1.000000 4.000000 1.000000 -60.708740 114.000000 231.000000 -0.185762 0.094726 0.978018
-0.19000000 3.25999999 -0.36000001 198 182 65 97.000000 1.000000 4.000000 1.000000 -60.708740 114.000000 231.000000 -0.185762 0.094726 0.978018
-0.17000000 3.29999995 -0.49000001 198 182 65 97.000000 1.000000 4.000000 1.000000 -60.708740 114.000000 231.000000 -0.406810 -0.165311 0.898431
-0.19000000 3.26999998 -0.50000000 198 182 65 97.000000 1.000000 4.000000 1.000000 -60.708740 114.000000 231.000000 -0.387071 0.006430 0.922027
-0.17000000 3.24000001 -0.50000000 198 182 65 97.000000 1.000000 4.000000 1.000000 -60.708740 114.000000 231.000000 0.301198 -0.257964 0.918006
-0.23999999 3.28999996 -0.44999999 198 182 65 97.000000 1.000000 4.000000 1.000000 -60.708740 114.000000 231.000000 0.123808 -0.522907 0.843351
-0.22000000 3.25999999 -0.47999999 198 182 65 97.000000 1.000000 4.000000 1.000000 -60.708740 114.000000 231.000000 -0.066260 -0.531493 0.844467
-0.20999999 3.25000000 -0.47000000 198 182 65 97.000000 1.000000 4.000000 1.000000 -60.708740 114.000000 231.000000 -0.449590 -0.342319 0.825037
-0.23000000 3.24000001 -0.47999999 198 182 65 97.000000 1.000000 4.000000 1.000000 -60.708740 114.000000 231.000000 0.001055 0.081212 0.996696
-0.20999999 3.25000000 -0.50000000 198 182 65 97.000000 1.000000 4.000000 1.000000 -60.708740 114.000000 231.000000 -0.169693 0.241847 0.955361
-0.22000000 3.24000001 -0.49000001 198 182 65 97.000000 1.000000 4.000000 1.000000 -60.708740 114.000000 231.000000 0.185634 0.058684 0.980865
-0.22000000 3.26999998 -0.50999999 198 182 65 97.000000 1.000000 4.000000 1.000000 -60.708740 114.000000 231.000000 -0.036715 -0.307646 0.950792
-0.17000000 3.20000005 -0.41999999 198 182 65 97.000000 1.000000 4.000000 1.000000 -60.708740 114.000000 231.000000 0.158703 -0.407481 0.899318
-0.18000001 3.18000007 -0.38000000 198 182 65 97.000000 1.000000 4.000000 1.000000 -60.708740 114.000000 231.000000 0.294404 -0.168426 0.940723
-0.19000000 3.16000009 -0.36000001 198 182 65 97.000000 1.000000 4.000000 1.000000 -60.708740 114.000000 231.000000 -0.214703 -0.319922 0.922796
-0.18000001 3.19000006 -0.41999999 198 182 65 97.000000 1.000000 4.000000 1.000000 -60.708740 114.000000 231.000000 0.196850 -0.150532 0.968809
-0.23000000 3.22000003 -0.38000000 198 182 65 97.000000 1.000000 4.000000 1.000000 -60.708740 114.000000 231.000000 -0.015084 -0.558113 0.829628
-0.17000000 3.18000007 -0.47000000 198 182 65 97.000000 1.000000 4.000000 1.000000 -60.708740 114.000000 231.000000 -0.239416 -0.196132 0.950901
-0.23999999 3.22000003 -0.49000001 198 182 65 97.000000 1.000000 4.000000 1.000000 -60.708740 114.000000 231.000000 -0.022939 -0.487118 0.873035
-0.16000000 3.15000010 -0.37000000 198 182 65 97.000000 1.000000 4.000000 1.000000 -60.708740 114.000000 231.000000 -0.377545 0.073897 0.923038
-0.15000001 3.13000011 -0.36000001 198 182 65 97.000000 1.000000 4.000000 1.000000 -60.708740 114.000000 231.000000 -0.124478 -0.156521 0.979799
-0.16000000 3.15000010 -0.37000000 198 182 65 97.000000 1.000000 4.000000 1.000000 -60.708740 114.000000 231.000000 -0.377545 0.073897 0.923038
-0.16000000 3.11999989 -0.36000001 198 182 65 97.000000 1.000000 4.000000 1.000000 -60.708740 114.000000 231.000000 0.041389 -0.287217 0.956971
-0.15000001 3.15000010 -0.41000000 198 182 65 97.000000 1.000000 4.000000 1.000000 -60.708740 114.000000 231.000000 -0.452490 -0.254430 0.854703
-0.15000001 3.14000010 -0.41000000 198 182 65 97.000000 1.000000 4.000000 1.000000 -60.708740 114.000000 231.000000 -0.143107 0.061664 0.987784
-0.13000000 3.14000010 -0.40000001 198 182 65 97.000000 1.000000 4.000000 1.000000 -60.708740 114.000000 231.000000 -0.360941 -0.423987 0.830636
-0.15000001 3.09999990 -0.38999999 198 182 65 97.000000 1.000000 4.000000 1.000000 -60.708740 114.000000 231.000000 -0.397265 -0.212559 0.892748
-0.16000000 3.09999990 -0.38999999 198 182 65 97.000000 1.000000 4.000000 1.000000 -60.708740 114.000000 231.000000 -0.160747 -0.391199 0.906159
-0.16000000 3.08999991 -0.41999999 198 182 65 97.000000 1.000000 4.000000 1.000000 -60.708740 114.000000 231.000000 -0.293956 -0.314636 0.902548
-0.16000000 3.07999992 -0.41999999 198 182 65 97.000000 1.000000 4.000000 1.000000 -60.708740 114.000000 231.000000 0.086377 -0.338865 0.936862
-0.11000000 3.13000011 -0.47000000 198 182 65 97.000000 1.000000 4.000000 1.000000 -60.708740 114.000000 231.000000 -0.471618 -0.232018 0.850732
-0.10000000 3.11999989 -0.44999999 198 182 65 97.000000 1.000000 4.000000 1.000000 -60.708740 114.000000 231.000000 0.003067 0.046010 0.998936
-0.12000000 3.11999989 -0.47000000 198 182 65 97.000000 1.000000 4.000000 1.000000 -60.708740 114.000000 231.000000 -0.216817 0.047239 0.975069
-0.09000000 3.10999990 -0.44999999 198 182 65 97.000000 1.000000 4.000000 1.000000 -60.708740 114.000000 231.000000 -0.232041 0.055248 0.971136
-0.11000000 3.10999990 -0.47000000 198 182 65 97.000000 1.000000 4.000000 1.000000 -60.708740 114.000000 231.000000 -0.077321 -0.204961 0.975711
-0.09000000 3.10999990 -0.44999999 198 182 65 97.000000 1.000000 4.000000 1.000000 -60.708740 114.000000 231.000000 -0.232041 0.055248 0.971136
-0.09000000 3.10999990 -0.44999999 198 182 65 97.000000 1.000000 4.000000 1.000000 -60.708740 114.000000 231.000000 -0.232041 0.055248 0.971136
-0.12000000 3.15000010 -0.47000000 198 182 65 97.000000 1.000000 4.000000 1.000000 -60.708740 114.000000 231.000000 -0.365448 0.006367 0.930810
-0.11000000 3.09999990 -0.47000000 198 182 65 97.000000 1.000000 4.000000 1.000000 -60.708740 114.000000 231.000000 -0.281022 0.064851 0.957508
-0.12000000 3.09999990 -0.44999999 198 182 65 97.000000 1.000000 4.000000 1.000000 -60.708740 114.000000 231.000000 -0.036190 -0.435626 0.899400
-0.15000001 3.10999990 -0.47999999 198 182 65 97.000000 1.000000 4.000000 1.000000 -60.708740 114.000000 231.000000 -0.059558 0.150646 0.986792
-0.15000001 3.13000011 -0.44999999 198 182 65 97.000000 1.000000 4.000000 1.000000 -60.708740 114.000000 231.000000 -0.202709 -0.218818 0.954478
-0.16000000 3.13000011 -0.44999999 198 182 65 97.000000 1.000000 4.000000 1.000000 -60.708740 114.000000 231.000000 0.248202 0.063610 0.966617
-0.15000001 3.11999989 -0.51999998 198 182 65 97.000000 1.000000 4.000000 1.000000 -60.708740 114.000000 231.000000 -0.008611 -0.293988 0.955770
-0.13000000 3.13000011 -0.51999998 198 182 65 97.000000 1.000000 4.000000 1.000000 -60.708740 114.000000 231.000000 0.277207 0.048919 0.959564
-0.13000000 3.07999992 -0.44000000 198 182 65 97.000000 1.000000 4.000000 1.000000 -60.708740 114.000000 231.000000 0.200016 0.268988 0.942146
-0.14000000 3.06999993 -0.44000000 198 182 65 97.000000 1.000000 4.000000 1.000000 -60.708740 114.000000 231.000000 0.300244 0.121432 0.946101
-0.16000000 3.08999991 -0.47999999 198 182 65 97.000000 1.000000 4.000000 1.000000 -60.708740 114.000000 231.000000 0.259976 0.243113 0.934510
-0.14000000 3.05999994 -0.44000000 198 182 65 97.000000 1.000000 4.000000 1.000000 -60.708740 114.000000 231.000000 0.035654 0.259411 0.965109
-0.20000000 3.13000011 -0.38000000 198 182 65 97.000000 1.000000 4.000000 1.000000 -60.708740 114.000000 231.000000 0.164122 -0.389611 0.906238
-0.17000000 3.15000010 -0.37000000 198 182 65 97.000000 1.000000 4.000000 1.000000 -60.708740 114.000000 231.000000 0.114579 -0.379630 0.918015
-0.18000001 3.13000011 -0.36000001 198 182 65 97.000000 1.000000 4.000000 1.000000 -60.708740 114.000000 231.000000 0.323436 -0.183420 0.928303
-0.17000000 3.15000010 -0.37000000 198 182 65 97.000000 1.000000 4.000000 1.000000 -60.708740 114.000000 231.000000 0.114579 -0.379630 0.918015
-0.18000001 3.09999990 -0.38000000 198 182 65 97.000000 1.000000 4.000000 1.000000 -60.708740 114.000000 231.000000 0.000978 0.000978 0.999999
-0.17000000 3.07999992 -0.41999999 198 182 65 97.000000 1.000000 4.000000 1.000000 -60.708740 114.000000 231.000000 0.324868 0.105615 0.939844
-0.20999999 3.15000010 -0.37000000 198 182 65 97.000000 1.000000 4.000000 1.000000 -60.708740 114.000000 231.000000 0.107431 0.143644 0.983781
