//X Y Z R G B PointSourceId ScanDirectionFlag NumberOfReturns ReturnNumber GpsTime Intensity Classification Nx Ny Nz
-6.71999979 6.21000004 0.00000000 101 223 93 97.000000 1.000000 4.000000 1.000000 -60.708740 114.000000 228.000000 -0.326993 0.934461 0.140922
-6.73999977 6.17000008 -0.02000000 101 223 93 97.000000 1.000000 4.000000 1.000000 -60.708740 114.000000 228.000000 -0.703149 0.700163 0.123909
-6.48000002 5.98000002 0.15000001 101 223 93 97.000000 1.000000 4.000000 1.000000 -60.708740 114.000000 228.000000 -0.350896 0.876480 -0.329629
-6.51999998 6.00000000 0.00000000 101 223 93 97.000000 1.000000 4.000000 1.000000 -60.708740 114.000000 228.000000 0.858289 -0.488565 -0.156986
-6.53999996 5.98999977 -0.01000000 101 223 93 97.000000 1.000000 4.000000 1.000000 -60.708740 114.000000 228.000000 0.880146 -0.310551 -0.359027
-6.48999977 5.90000010 0.05000000 101 223 93 97.000000 1.000000 4.000000 1.000000 -60.708740 114.000000 228.000000 0.232300 0.949578 0.210565
-6.80000019 6.32999992 0.22000000 101 223 93 97.000000 1.000000 4.000000 1.000000 -60.708740 114.000000 228.000000 0.764813 -0.595204 0.246562
-6.61999989 5.46000004 0.38000000 101 223 93 97.000000 1.000000 4.000000 1.000000 -60.708740 114.000000 228.000000 0.096017 0.973883 -0.205750
-6.65000010 5.53000021 0.38000000 101 223 93 97.000000 1.000000 4.000000 1.000000 -60.708740 114.000000 228.000000 0.624776 0.772477 -0.113730
-6.65999985 5.51999998 0.37000000 101 223 93 97.000000 1.000000 4.000000 1.000000 -60.708740 114.000000 228.000000 0.415064 0.887327 -0.200932
-6.65000010 5.53000021 0.38000000 101 223 93 97.000000 1.000000 4.000000 1.000000 -60.708740 114.000000 228.000000 0.624776 0.772477 -0.113730
-6.65999985 5.53999996 0.33000001 101 223 93 97.000000 1.000000 4.000000 1.000000 -60.708740 114.000000 228.000000 0.594187 0.799478 0.088188
-6.69999981 5.55999994 0.38000000 101 223 93 97.000000 1.000000 4.000000 1.000000 -60.708740 114.000000 228.000000 0.642686 0.764697 -0.046818
-6.71000004 5.57999992 0.38000000 101 223 93 97.000000 1.000000 4.000000 1.000000 -60.708740 114.000000 228.000000 0.386577 0.918290 -0.085454
-6.69999981 5.55999994 0.38000000 101 223 93 97.000000 1.000000 4.000000 1.000000 -60.708740 114.000000 228.000000 0.642686 0.764697 -0.046818
-6.71000004 5.57999992 0.37000000 101 223 93 97.000000 1.000000 4.000000 1.000000 -60.708740 114.000000 228.000000 0.346055 0.906753 0.240925
-6.69000006 5.55999994 0.37000000 101 223 93 97.000000 1.000000 4.000000 1.000000 -60.708740 114.000000 228.000000 0.392556 0.917750 -0.060290
-6.69000006 5.55000019 0.38000000 101 223 93 97.000000 1.000000 4.000000 1.000000 -60.708740 114.000000 228.000000 0.248354 0.967470 0.048188
-6.69000006 5.57999992 0.34000000 101 223 93 97.000000 1.000000 4.000000 1.000000 -60.708740 114.000000 228.000000 0.475526 0.849263 -0.229407
-6.69999981 5.57999992 0.33000001 101 223 93 97.000000 1.000000 4.000000 1.000000 -60.708740 114.000000 228.000000 0.364387 0.930926 0.024464
-6.73999977 5.61000013 0.36000001 101 223 93 97.000000 1.000000 4.000000 1.000000 -60.708740 114.000000 228.000000 0.695073 0.676159 -0.244300
-6.63999987 5.46999979 0.44000000 101 223 93 97.000000 1.000000 4.000000 1.000000 -60.708740 114.000000 228.000000 0.614064 0.767198 0.185291
-6.63000011 5.46000004 0.40000001 101 223 93 97.000000 1.000000 4.000000 1.000000 -60.708740 114.000000 228.000000 0.187273 0.974071 -0.126943
-6.57000017 5.53000021 0.27000001 101 223 93 97.000000 1.000000 4.000000 1.000000 -60.708740 114.000000 228.000000 0.138155 0.948308 0.285700
-6.61999989 5.53999996 0.25999999 101 223 93 97.000000 1.000000 4.000000 1.000000 -60.708740 114.000000 228.000000 0.485227 0.848014 0.213137
-6.61000013 5.53999996 0.28999999 101 223 93 97.000000 1.000000 4.000000 1.000000 -60.708740 114.000000 228.000000 0.453150 0.885125 0.105876
-6.61000013 5.51999998 0.19000000 101 223 93 97.000000 1.000000 4.000000 1.000000 -60.708740 114.000000 228.000000 0.597823 0.753226 -0.274333
-6.59999990 5.51000023 0.14000000 101 223 93 97.000000 1.000000 4.000000 1.000000 -60.708740 114.000000 228.000000 0.500586 0.814434 -0.293447
-6.59999990 5.51000023 0.14000000 101 223 93 97.000000 1.000000 4.000000 1.000000 -60.708740 114.000000 228.000000 0.500586 0.814434 -0.293447
-6.61000013 5.53999996 0.12000000 101 223 93 97.000000 1.000000 4.000000 1.000000 -60.708740 114.000000 228.000000 0.395314 0.911303 -0.115127
-6.61000013 5.51999998 0.04000000 101 223 93 97.000000 1.000000 4.000000 1.000000 -60.708740 114.000000 228.000000 0.302107 0.950405 -0.073906
-6.57999992 5.46000004 0.23000000 101 223 93 97.000000 1.000000 4.000000 1.000000 -60.708740 114.000000 228.000000 0.043873 0.980627 0.190908
-6.57000017 5.44000006 0.16000000 101 223 93 97.000000 1.000000 4.000000 1.000000 -60.708740 114.000000 228.000000 0.234923 0.954457 -0.183911
-6.61999989 5.46999979 0.22000000 101 223 93 97.000000 1.000000 4.000000 1.000000 -60.708740 114.000000 228.000000 0.138675 0.914696 -0.379606
-6.61999989 5.46000004 0.15000001 101 223 93 97.000000 1.000000 4.000000 1.000000 -60.708740 114.000000 228.000000 0.618307 0.777680 -0.113627
-6.59000015 5.48999977 0.03000000 101 223 93 97.000000 1.000000 4.000000 1.000000 -60.708740 114.000000 228.000000 0.460339 0.862199 -0.211426
-6.59999990 5.48999977 0.02000000 101 223 93 97.000000 1.000000 4.000000 1.000000 -60.708740 114.000000 228.000000 0.566618 0.822510 -0.049210
-6.59999990 5.48999977 0.02000000 101 223 93 97.000000 1.000000 4.000000 1.000000 -60.708740 114.000000 228.000000 0.566618 0.822510 -0.049210
-6.59000015 5.46000004 0.02000000 101 223 93 97.000000 1.000000 4.000000 1.000000 -60.708740 114.000000 228.000000 0.532871 0.833995 -0.143181
-6.65999985 5.61999989 0.28000000 101 223 93 97.000000 1.000000 4.000000 1.000000 -60.708740 114.000000 228.000000 0.405593 0.819139 -0.405593
-6.67000008 5.59000015 0.23999999 101 223 93 97.000000 1.000000 4.000000 1.000000 -60.708740 114.000000 228.000000 0.522360 0.840190 0.145672
-6.69999981 5.61999989 0.25999999 101 223 93 97.000000 1.000000 4.000000 1.000000 -60.708740 114.000000 228.000000 0.426536 0.883854 -0.192015
-6.67999983 5.59000015 0.23999999 101 223 93 97.000000 1.000000 4.000000 1.000000 -60.708740 114.000000 228.000000 0.420630 0.898939 -0.122391
-6.65000010 5.59999990 0.19000000 101 223 93 97.000000 1.000000 4.000000 1.000000 -60.708740 114.000000 228.000000 0.517288 0.815545 -0.259421
-6.65999985 5.61999989 0.20999999 101 223 93 97.000000 1.000000 4.000000 1.000000 -60.708740 114.000000 228.000000 0.232220 0.915900 -0.327416
-6.65000010 5.59000015 0.15000001 101 223 93 97.000000 1.000000 4.000000 1.000000 -60.708740 114.000000 228.000000 0.464504 0.847758 0.256014
-6.65000010 5.59999990 0.18000001 101 223 93 97.000000 1.000000 4.000000 1.000000 -60.708740 114.000000 228.000000 0.589520 0.805441 -0.061083
-6.65999985 5.59000015 0.15000001 101 223 93 97.000000 1.000000 4.000000 1.000000 -60.708740 114.000000 228.000000 0.440763 0.885833 0.145007
-6.65000010 5.59000015 0.16000000 101 223 93 97.000000 1.000000 4.000000 1.000000 -60.708740 114.000000 228.000000 0.270807 0.959902 -0.072469
-6.67999983 5.59999990 0.22000000 101 223 93 97.000000 1.000000 4.000000 1.000000 -60.708740 114.000000 228.000000 0.740044 0.626916 -0.243539
-6.69000006 5.61000013 0.17000000 101 223 93 97.000000 1.000000 4.000000 1.000000 -60.708740 114.000000 228.000000 0.528385 0.830746 -0.175130
-6.65999985 5.57000017 0.28000000 101 223 93 97.000000 1.000000 4.000000 1.000000 -60.708740 114.000000 228.000000 0.420897 0.897062 -0.134630
-6.65999985 5.57999992 0.28000000 101 223 93 97.000000 1.000000 4.000000 1.000000 -60.708740 114.000000 228.000000 0.169754 0.937099 -0.305006
-6.65999985 5.57000017 0.27000001 101 223 93 97.000000 1.000000 4.000000 1.000000 -60.708740 114.000000 228.000000 0.645808 0.759006 0.082721
-6.63000011 5.53999996 0.28000000 101 223 93 97.000000 1.000000 4.000000 1.000000 -60.708740 114.000000 228.000000 0.173481 0.934021 -0.312265
-6.63000011 5.53999996 0.27000001 101 223 93 97.000000 1.000000 4.000000 1.000000 -60.708740 114.000000 228.000000 0.460366 0.886981 -0.036451
-6.67999983 5.57000017 0.28000000 101 223 93 97.000000 1.000000 4.000000 1.000000 -60.708740 114.000000 228.000000 0.383573 0.922931 0.032728
-6.69000006 5.57999992 0.31000000 101 223 93 97.000000 1.000000 4.000000 1.000000 -60.708740 114.000000 228.000000 0.246269 0.948340 0.200009
-6.71000004 5.55999994 0.25999999 101 223 93 97.000000 1.000000 4.000000 1.000000 -60.708740 114.000000 228.000000 0.689650 0.704874 -0.165942
-6.63999987 5.55999994 0.23000000 101 223 93 97.000000 1.000000 4.000000 1.000000 -60.708740 114.000000 228.000000 0.588628 0.780203 0.211659
-6.65999985 5.57999992 0.20999999 101 223 93 97.000000 1.000000 4.000000 1.000000 -60.708740 114.000000 228.000000 0.429039 0.888414 0.163237
-6.63999987 5.57999992 0.15000001 101 223 93 97.000000 1.000000 4.000000 1.000000 -60.708740 114.000000 228.000000 0.668150 0.725985 -0.162852
-6.65000010 5.51000023 0.23000000 101 223 93 97.000000 1.000000 4.000000 1.000000 -60.708740 114.000000 228.000000 0.571137 0.817341 -0.075865
-6.78000021 5.63000011 0.28000000 101 223 93 97.000000 1.000000 4.000000 1.000000 -60.708740 114.000000 228.000000 0.485018 0.806243 -0.338718
-6.69000006 5.63000011 0.01000000 101 223 93 97.000000 1.000000 4.000000 1.000000 -60.708740 114.000000 228.000000 0.813695 0.580815 -0.023565
-6.75000000 5.65000010 0.07000000 101 223 93 97.000000 1.000000 4.000000 1.000000 -60.708740 114.000000 228.000000 0.630440 0.760458 0.155720
-6.76000023 5.65999985 0.06000000 101 223 93 97.000000 1.000000 4.000000 1.000000 -60.708740 114.000000 228.000000 0.785701 0.582741 0.207573
-6.78999996 5.61000013 0.06000000 101 223 93 97.000000 1.000000 4.000000 1.000000 -60.708740 114.000000 228.000000 0.520076 0.746481 -0.415076
-6.78000021 5.57999992 0.09000000 101 223 93 97.000000 1.000000 4.000000 1.000000 -60.708740 114.000000 228.000000 0.358426 0.916608 -0.177088
-6.65000010 5.46000004 0.30000001 101 223 93 97.000000 1.000000 4.000000 1.000000 -60.708740 114.000000 228.000000 0.160694 0.923643 -0.347938
-6.65000010 5.44999981 0.08000000 101 223 93 97.000000 1.000000 4.000000 1.000000 -60.708740 114.000000 228.000000 0.551648 0.772308 -0.314999
-6.82999992 5.59999990 0.40000001 101 223 93 97.000000 1.000000 4.000000 1.000000 -60.708740 114.000000 228.000000 0.767650 0.640856 -0.004135
-6.80999994 5.59999990 0.34000000 101 223 93 97.000000 1.000000 4.000000 1.000000 -60.708740 114.000000 228.000000 0.550538 0.809795 -0.202830
-6.82999992 5.61000013 0.16000000 101 223 93 97.000000 1.000000 4.000000 1.000000 -60.708740 114.000000 228.000000 0.920544 0.388499 -0.040825
-6.84999990 5.59999990 0.17000000 101 223 93 97.000000 1.000000 4.000000 1.000000 -60.708740 114.000000 228.000000 0.766546 0.635138 -0.094906
-6.15000010 6.07999992 -0.05000000 101 223 93 97.000000 1.000000 4.000000 1.000000 -60.708740 114.000000 228.000000 0.990268 0.035084 0.134677
-6.15000010 6.07999992 -0.05000000 101 223 93 97.000000 1.000000 4.000000 1.000000 -60.708740 114.000000 228.000000 0.990268 0.035084 0.134677
-6.15999985 6.03000021 -0.10000000 101 223 93 97.000000 1.000000 4.000000 1.000000 -60.708740 114.000000 228.000000 0.972099 0.156708 0.174545
-6.15999985 6.03000021 -0.10000000 101 223 93 97.000000 1.000000 4.000000 1.000000 -60.708740 114.000000 228.000000 0.972099 0.156708 0.174545
-6.15000010 6.01000023 -0.08000000 101 223 93 97.000000 1.000000 4.000000 1.000000 -60.708740 114.000000 228.000000 0.974011 0.095784 0.205251
-6.15000010 6.07999992 -0.14000000 101 223 93 97.000000 1.000000 4.000000 1.000000 -60.708740 114.000000 228.000000 0.975933 0.037213 0.214873
-6.15000010 6.05000019 -0.11000000 101 223 93 97.000000 1.000000 4.000000 1.000000 -60.708740 114.000000 228.000000 0.809894 0.586380 0.015177
-6.13000011 6.01000023 -0.12000000 101 223 93 97.000000 1.000000 4.000000 1.000000 -60.708740 114.000000 228.000000 0.976730 0.141319 0.161329
-6.19999981 6.03000021 -0.15000001 101 223 93 97.000000 1.000000 4.000000 1.000000 -60.708740 114.000000 228.000000 0.893172 0.358161 0.271964
-6.21000004 6.09999990 -0.17000000 101 223 93 97.000000 1.000000 4.000000 1.000000 -60.708740 114.000000 228.000000 0.933824 0.242935 0.262594
-6.21000004 6.07999992 -0.17000000 101 223 93 97.000000 1.000000 4.000000 1.000000 -60.708740 114.000000 228.000000 0.782905 0.602581 0.154778
-6.13000011 6.01999998 -0.19000000 101 223 93 97.000000 1.000000 4.000000 1.000000 -60.708740 114.000000 228.000000 0.875580 0.480952 -0.045218
-6.19999981 6.01000023 -0.23999999 101 223 93 97.000000 1.000000 4.000000 1.000000 -60.708740 114.000000 228.000000 0.988497 0.040183 0.145806
-6.21000004 6.09000015 -0.23999999 101 223 93 97.000000 1.000000 4.000000 1.000000 -60.708740 114.000000 228.000000 0.746410 0.639123 -0.185453
-6.23999977 6.09999990 -0.27000001 101 223 93 97.000000 1.000000 4.000000 1.000000 -60.708740 114.000000 228.000000 0.736712 0.647133 0.196148
-6.26999998 6.15999985 -0.25000000 101 223 93 97.000000 1.000000 4.000000 1.000000 -60.708740 114.000000 228.000000 0.524463 0.753201 -0.397023
-6.26999998 6.15999985 -0.25000000 101 223 93 97.000000 1.000000 4.000000 1.000000 -60.708740 114.000000 228.000000 0.524463 0.753201 -0.397023
-6.26000023 6.13000011 -0.27000001 101 223 93 97.000000 1.000000 4.000000 1.000000 -60.708740 114.000000 228.000000 0.616179 0.782241 -0.091771
-6.28999996 6.13999987 -0.33000001 101 223 93 97.000000 1.000000 4.000000 1.000000 -60.708740 114.000000 228.000000 0.627623 0.776308 -0.058616
-6.26999998 6.13999987 -0.33000001 101 223 93 97.000000 1.000000 4.000000 1.000000 -60.708740 114.000000 228.000000 0.656920 0.749730 -0.079758
-6.26000023 6.11000013 -0.33000001 101 223 93 97.000000 1.000000 4.000000 1.000000 -60.708740 114.000000 228.000000 0.626635 0.685845 -0.370060
-6.26000023 6.11000013 -0.33000001 101 223 93 97.000000 1.000000 4.000000 1.000000 -60.708740 114.000000 228.000000 0.626635 0.685845 -0.370060
-6.26000023 6.09999990 -0.33000001 101 223 93 97.000000 1.000000 4.000000 1.000000 -60.708740 114.000000 228.000000 0.929851 0.308075 0.201163
-6.23000002 6.03999996 -0.27000001 101 223 93 97.000000 1.000000 4.000000 1.000000 -60.708740 114.000000 228.000000 0.824833 0.540408 -0.166164
-6.23999977 6.05000019 -0.30000001 101 223 93 97.000000 1.000000 4.000000 1.000000 -60.708740 114.000000 228.000000 0.944935 0.218697 0.243455
-6.23999977 6.05000019 -0.28999999 101 223 93 97.000000 1.000000 4.000000 1.000000 -60.708740 114.000000 228.000000 0.831807 0.444993 -0.331779
-6.26999998 6.05999994 -0.34999999 101 223 93 97.000000 1.000000 4.000000 1.000000 -60.708740 114.000000 228.000000 0.725259 0.625996 -0.286581
-6.25000000 6.05999994 -0.33000001 101 223 93 97.000000 1.000000 4.000000 1.000000 -60.708740 114.000000 228.000000 0.907881 0.404584 -0.109836
-6.26000023 6.01000023 -0.34000000 101 223 93 97.000000 1.000000 4.000000 1.000000 -60.708740 114.000000 228.000000 0.921516 0.230022 -0.312887
-6.40999985 6.21999979 -0.16000000 101 223 93 97.000000 1.000000 4.000000 1.000000 -60.708740 114.000000 228.000000 0.481936 0.873073 0.074037
-6.40000010 6.19999981 -0.14000000 101 223 93 97.000000 1.000000 4.000000 1.000000 -60.708740 114.000000 228.000000 0.585559 0.765488 0.266737
-6.40000010 6.17999983 -0.12000000 101 223 93 97.000000 1.000000 4.000000 1.000000 -60.708740 114.000000 228.000000 0.481635 0.862259 0.156641
-6.40999985 6.21000004 -0.16000000 101 223 93 97.000000 1.000000 4.000000 1.000000 -60.708740 114.000000 228.000000 0.599149 0.787410 0.144931
-6.42000008 6.21999979 -0.18000001 101 223 93 97.000000 1.000000 4.000000 1.000000 -60.708740 114.000000 228.000000 0.500737 0.843584 -0.193979
-6.42000008 6.26999998 -0.27000001 101 223 93 97.000000 1.000000 4.000000 1.000000 -60.708740 114.000000 228.000000 0.625518 0.766522 -0.145504
-6.44000006 6.28000021 -0.30000001 101 223 93 97.000000 1.000000 4.000000 1.000000 -60.708740 114.000000 228.000000 0.619033 0.785217 -0.015233
-6.40000010 6.23000002 -0.23999999 101 223 93 97.000000 1.000000 4.000000 1.000000 -60.708740 114.000000 228.000000 0.652047 0.737561 0.175610
-6.42000008 6.23999977 -0.22000000 101 223 93 97.000000 1.000000 4.000000 1.000000 -60.708740 114.000000 228.000000 0.443690 0.805690 -0.392433
-6.44000006 6.25000000 -0.25000000 101 223 93 97.000000 1.000000 4.000000 1.000000 -60.708740 114.000000 228.000000 0.617798 0.775597 -0.129514
-6.28000021 6.09000015 -0.36000001 101 223 93 97.000000 1.000000 4.000000 1.000000 -60.708740 114.000000 228.000000 0.849262 0.504847 0.154545
-6.28000021 6.09000015 -0.44999999 101 223 93 97.000000 1.000000 4.000000 1.000000 -60.708740 114.000000 228.000000 0.707129 0.547401 -0.447571
-6.23000002 6.01000023 -0.36000001 101 223 93 97.000000 1.000000 4.000000 1.000000 -60.708740 114.000000 228.000000 0.932369 0.211711 -0.293030
-6.25000000 6.07000017 -0.36000001 101 223 93 97.000000 1.000000 4.000000 1.000000 -60.708740 114.000000 228.000000 0.824359 0.398678 -0.401855
-6.28999996 6.07000017 -0.38000000 101 223 93 97.000000 1.000000 4.000000 1.000000 -60.708740 114.000000 228.000000 0.844664 0.466181 -0.263092
-6.28999996 6.07000017 -0.41000000 101 223 93 97.000000 1.000000 4.000000 1.000000 -60.708740 114.000000 228.000000 0.737762 0.624017 -0.257506
-6.28999996 6.05999994 -0.40000001 101 223 93 97.000000 1.000000 4.000000 1.000000 -60.708740 114.000000 228.000000 0.943998 0.302995 -0.130624
-6.26000023 6.01000023 -0.37000000 101 223 93 97.000000 1.000000 4.000000 1.000000 -60.708740 114.000000 228.000000 0.999276 -0.017423 0.033822
-6.26999998 6.01999998 -0.37000000 101 223 93 97.000000 1.000000 4.000000 1.000000 -60.708740 114.000000 228.000000 0.870219 0.258795 -0.419218
-6.26000023 6.01000023 -0.37000000 101 223 93 97.000000 1.000000 4.000000 1.000000 -60.708740 114.000000 228.000000 0.999276 -0.017423 0.033822
-6.28999996 6.03000021 -0.38999999 101 223 93 97.000000 1.000000 4.000000 1.000000 -60.708740 114.000000 228.000000 0.968238 0.168894 0.184365
-6.28999996 6.03000021 -0.40000001 101 223 93 97.000000 1.000000 4.000000 1.000000 -60.708740 114.000000 228.000000 0.997599 0.064807 0.024435
-6.28000021 6.01999998 -0.40000001 101 223 93 97.000000 1.000000 4.000000 1.000000 -60.708740 114.000000 228.000000 0.841287 0.464637 -0.276313
-6.28999996 6.05999994 -0.51999998 101 223 93 97.000000 1.000000 4.000000 1.000000 -60.708740 114.000000 228.000000 0.982031 0.181682 -0.051061
-6.26000023 6.01000023 -0.44000000 101 223 93 97.000000 1.000000 4.000000 1.000000 -60.708740 114.000000 228.000000 0.861485 0.507781 0.001340
-6.40000010 6.17999983 -0.49000001 101 223 93 97.000000 1.000000 4.000000 1.000000 -60.708740 114.000000 228.000000 0.317963 0.864797 -0.388621
-6.40999985 6.19999981 -0.56000000 101 223 93 97.000000 1.000000 4.000000 1.000000 -60.708740 114.000000 228.000000 0.473077 0.878175 0.070753
-6.44999981 6.23000002 -0.58999997 101 223 93 97.000000 1.000000 4.000000 1.000000 -60.708740 114.000000 228.000000 0.157668 0.957930 -0.239814
-6.42999983 6.19000006 -0.63000000 101 223 93 97.000000 1.000000 4.000000 1.000000 -60.708740 114.000000 228.000000 0.577729 0.807057 0.122014
-6.44999981 6.19999981 -0.67000002 101 223 93 97.000000 1.000000 4.000000 1.000000 -60.708740 114.000000 228.000000 0.378976 0.791817 -0.478961
-6.32000017 6.13999987 -0.38000000 101 223 93 97.000000 1.000000 4.000000 1.000000 -60.708740 114.000000 228.000000 0.395580 0.892629 -0.216172
-6.32000017 6.13999987 -0.38999999 101 223 93 97.000000 1.000000 4.000000 1.000000 -60.708740 114.000000 228.000000 0.490316 0.842494 -0.223147
-6.30000019 6.13000011 -0.38000000 101 223 93 97.000000 1.000000 4.000000 1.000000 -60.708740 114.000000 228.000000 0.602146 0.797739 -0.032133
-6.30000019 6.13000011 -0.38000000 101 223 93 97.000000 1.000000 4.000000 1.000000 -60.708740 114.000000 228.000000 0.602146 0.797739 -0.032133
-6.30999994 6.09999990 -0.41999999 101 223 93 97.000000 1.000000 4.000000 1.000000 -60.708740 114.000000 228.000000 0.912036 0.410093 0.003881
-6.30999994 6.11000013 -0.41000000 101 223 93 97.000000 1.000000 4.000000 1.000000 -60.708740 114.000000 228.000000 0.914753 0.362772 0.177829
-6.32000017 6.11999989 -0.43000001 101 223 93 97.000000 1.000000 4.000000 1.000000 -60.708740 114.000000 228.000000 0.605132 0.684711 -0.406185
-6.30999994 6.11000013 -0.41999999 101 223 93 97.000000 1.000000 4.000000 1.000000 -60.708740 114.000000 228.000000 0.851940 0.522688 -0.031553
-6.32999992 6.13999987 -0.44999999 101 223 93 97.000000 1.000000 4.000000 1.000000 -60.708740 114.000000 228.000000 0.507291 0.857732 0.083371
-6.32999992 6.13000011 -0.44999999 101 223 93 97.000000 1.000000 4.000000 1.000000 -60.708740 114.000000 228.000000 0.638904 0.727246 -0.250829
-6.32999992 6.11000013 -0.47999999 101 223 93 97.000000 1.000000 4.000000 1.000000 -60.708740 114.000000 228.000000 0.708588 0.684102 -0.172938
-6.32000017 6.11999989 -0.44000000 101 223 93 97.000000 1.000000 4.000000 1.000000 -60.708740 114.000000 228.000000 0.712614 0.685380 -0.149785
-6.32000017 6.11000013 -0.44000000 101 223 93 97.000000 1.000000 4.000000 1.000000 -60.708740 114.000000 228.000000 0.692139 0.698278 -0.182626
-6.30000019 6.09000015 -0.47999999 101 223 93 97.000000 1.000000 4.000000 1.000000 -60.708740 114.000000 228.000000 0.593852 0.733011 -0.331716
-6.32999992 6.13000011 -0.49000001 101 223 93 97.000000 1.000000 4.000000 1.000000 -60.708740 114.000000 228.000000 0.554033 0.766011 -0.325996
-6.30999994 6.09999990 -0.50000000 101 223 93 97.000000 1.000000 4.000000 1.000000 -60.708740 114.000000 228.000000 0.606538 0.743447 -0.281778
-6.32000017 6.09999990 -0.49000001 101 223 93 97.000000 1.000000 4.000000 1.000000 -60.708740 114.000000 228.000000 0.572130 0.766558 -0.291643
-6.36999989 6.15000010 -0.50999999 101 223 93 97.000000 1.000000 4.000000 1.000000 -60.708740 114.000000 228.000000 0.407526 0.907608 -0.100845
-6.34000015 6.11000013 -0.47999999 101 223 93 97.000000 1.000000 4.000000 1.000000 -60.708740 114.000000 228.000000 0.698427 0.572346 -0.429674
-6.34000015 6.09999990 -0.50999999 101 223 93 97.000000 1.000000 4.000000 1.000000 -60.708740 114.000000 228.000000 0.781948 0.493776 -0.380451
-6.36000013 6.13000011 -0.50000000 101 223 93 97.000000 1.000000 4.000000 1.000000 -60.708740 114.000000 228.000000 0.379905 0.924128 0.040751
-6.32999992 6.07000017 -0.41999999 101 223 93 97.000000 1.000000 4.000000 1.000000 -60.708740 114.000000 228.000000 0.772885 0.548860 -0.318435
-6.32000017 6.07000017 -0.47000000 101 223 93 97.000000 1.000000 4.000000 1.000000 -60.708740 114.000000 228.000000 0.907171 0.398030 -0.136427
-6.32000017 6.07000017 -0.47999999 101 223 93 97.000000 1.000000 4.000000 1.000000 -60.708740 114.000000 228.000000 0.939296 0.257437 0.226823
-6.30999994 6.05000019 -0.47000000 101 223 93 97.000000 1.000000 4.000000 1.000000 -60.708740 114.000000 228.000000 0.942399 0.328865 0.061093
-6.30999994 6.03999996 -0.46000001 101 223 93 97.000000 1.000000 4.000000 1.000000 -60.708740 114.000000 228.000000 0.989527 0.113056 0.089745
-6.30000019 6.01999998 -0.46000001 101 223 93 97.000000 1.000000 4.000000 1.000000 -60.708740 114.000000 228.000000 0.832296 0.538717 0.130643
-6.30999994 6.01000023 -0.47999999 101 223 93 97.000000 1.000000 4.000000 1.000000 -60.708740 114.000000 228.000000 0.996033 0.085436 0.024874
-6.32000017 6.03999996 -0.50000000 101 223 93 97.000000 1.000000 4.000000 1.000000 -60.708740 114.000000 228.000000 0.847940 0.340732 -0.406078
-6.32000017 6.03999996 -0.50999999 101 223 93 97.000000 1.000000 4.000000 1.000000 -60.708740 114.000000 228.000000 0.882881 0.336551 -0.327496
-6.32000017 6.03999996 -0.50999999 101 223 93 97.000000 1.000000 4.000000 1.000000 -60.708740 114.000000 228.000000 0.882881 0.336551 -0.327496
-6.40999985 6.15000010 -0.51999998 101 223 93 97.000000 1.000000 4.000000 1.000000 -60.708740 114.000000 228.000000 0.724150 0.665973 0.179124
-6.40999985 6.17000008 -0.50999999 101 223 93 97.000000 1.000000 4.000000 1.000000 -60.708740 114.000000 228.000000 0.551924 0.827162 -0.105749
-6.32999992 6.09000015 -0.52999997 101 223 93 97.000000 1.000000 4.000000 1.000000 -60.708740 114.000000 228.000000 0.880464 0.473266 -0.028315
-6.36000013 6.11999989 -0.56000000 101 223 93 97.000000 1.000000 4.000000 1.000000 -60.708740 114.000000 228.000000 0.512110 0.858893 -0.006721
-6.36000013 6.11000013 -0.56000000 101 223 93 97.000000 1.000000 4.000000 1.000000 -60.708740 114.000000 228.000000 0.714566 0.681189 -0.159298
-6.34999990 6.11999989 -0.56000000 101 223 93 97.000000 1.000000 4.000000 1.000000 -60.708740 114.000000 228.000000 0.452122 0.820165 -0.350593
-6.36000013 6.11000013 -0.56000000 101 223 93 97.000000 1.000000 4.000000 1.000000 -60.708740 114.000000 228.000000 0.714566 0.681189 -0.159298
-6.36000013 6.09000015 -0.57999998 101 223 93 97.000000 1.000000 4.000000 1.000000 -60.708740 114.000000 228.000000 0.731304 0.550532 -0.402628
-6.36000013 6.11000013 -0.58999997 101 223 93 97.000000 1.000000 4.000000 1.000000 -60.708740 114.000000 228.000000 0.812544 0.576691 -0.084850
-6.36000013 6.11000013 -0.57999998 101 223 93 97.000000 1.000000 4.000000 1.000000 -60.708740 114.000000 228.000000 0.627208 0.778841 -0.004135
-6.36999989 6.11999989 -0.60000002 101 223 93 97.000000 1.000000 4.000000 1.000000 -60.708740 114.000000 228.000000 0.511862 0.854054 -0.092677
-6.36999989 6.11000013 -0.66000003 101 223 93 97.000000 1.000000 4.000000 1.000000 -60.708740 114.000000 228.000000 0.490495 0.851285 0.186358
-6.36999989 6.09999990 -0.68000001 101 223 93 97.000000 1.000000 4.000000 1.000000 -60.708740 114.000000 228.000000 0.616830 0.784927 0.058407
-6.36999989 6.09000015 -0.63000000 101 223 93 97.000000 1.000000 4.000000 1.000000 -60.708740 114.000000 228.000000 0.853391 0.497934 -0.154227
-6.36000013 6.09999990 -0.67000002 101 223 93 97.000000 1.000000 4.000000 1.000000 -60.708740 114.000000 228.000000 0.758352 0.643939 0.101211
-6.36999989 6.11000013 -0.64999998 101 223 93 97.000000 1.000000 4.000000 1.000000 -60.708740 114.000000 228.000000 0.585814 0.778496 0.225313
-6.32000017 6.05999994 -0.57999998 101 223 93 97.000000 1.000000 4.000000 1.000000 -60.708740 114.000000 228.000000 0.953883 0.296904 -0.044220
-6.32000017 6.05000019 -0.57999998 101 223 93 97.000000 1.000000 4.000000 1.000000 -60.708740 114.000000 228.000000 0.843603 0.464213 -0.269891
-6.30999994 6.01000023 -0.55000001 101 223 93 97.000000 1.000000 4.000000 1.000000 -60.708740 114.000000 228.000000 0.793113 0.599599 -0.107019
-6.32000017 6.01999998 -0.56000000 101 223 93 97.000000 1.000000 4.000000 1.000000 -60.708740 114.000000 228.000000 0.902781 0.376522 -0.207887
-6.32999992 6.03999996 -0.52999997 101 223 93 97.000000 1.000000 4.000000 1.000000 -60.708740 114.000000 228.000000 0.747070 0.651254 -0.133245
-6.30000019 6.01000023 -0.56999999 101 223 93 97.000000 1.000000 4.000000 1.000000 -60.708740 114.000000 228.000000 0.889848 0.456163 0.009255
-6.32999992 6.03000021 -0.58999997 101 223 93 97.000000 1.000000 4.000000 1.000000 -60.708740 114.000000 228.000000 0.936007 0.351796 -0.011430
-6.36000013 6.07000017 -0.54000002 101 223 93 97.000000 1.000000 4.000000 1.000000 -60.708740 114.000000 228.000000 0.896906 0.364968 -0.249715
-6.34999990 6.07999992 -0.54000002 101 223 93 97.000000 1.000000 4.000000 1.000000 -60.708740 114.000000 228.000000 0.906989 0.373466 0.194664
-6.36000013 6.07000017 -0.60000002 101 223 93 97.000000 1.000000 4.000000 1.000000 -60.708740 114.000000 228.000000 0.932189 0.331843 -0.144579
-6.34000015 6.07000017 -0.57999998 101 223 93 97.000000 1.000000 4.000000 1.000000 -60.708740 114.000000 228.000000 0.710201 0.626077 -0.321936
-6.34000015 6.07000017 -0.57999998 101 223 93 97.000000 1.000000 4.000000 1.000000 -60.708740 114.000000 228.000000 0.710201 0.626077 -0.321936
-6.34999990 6.07999992 -0.56999999 101 223 93 97.000000 1.000000 4.000000 1.000000 -60.708740 114.000000 228.000000 0.628826 0.715672 -0.303959
-6.34000015 6.03999996 -0.55000001 101 223 93 97.000000 1.000000 4.000000 1.000000 -60.708740 114.000000 228.000000 0.779126 0.377415 -0.500520
-6.32000017 6.01999998 -0.69000000 101 223 93 97.000000 1.000000 4.000000 1.000000 -60.708740 114.000000 228.000000 0.880570 0.472269 0.039469
-6.34999990 6.07999992 -0.62000000 101 223 93 97.000000 1.000000 4.000000 1.000000 -60.708740 114.000000 228.000000 0.693779 0.638537 -0.333079
-6.34000015 6.05999994 -0.64999998 101 223 93 97.000000 1.000000 4.000000 1.000000 -60.708740 114.000000 228.000000 0.756113 0.477286 -0.447763
-6.34000015 6.01999998 -0.61000001 101 223 93 97.000000 1.000000 4.000000 1.000000 -60.708740 114.000000 228.000000 0.802746 0.489946 -0.339930
-6.36000013 6.01999998 -0.67000002 101 223 93 97.000000 1.000000 4.000000 1.000000 -60.708740 114.000000 228.000000 0.931994 0.285362 0.223510
-6.38000011 6.15000010 -0.56000000 101 223 93 97.000000 1.000000 4.000000 1.000000 -60.708740 114.000000 228.000000 0.551934 0.698672 -0.455221
-6.38999987 6.15000010 -0.52999997 101 223 93 97.000000 1.000000 4.000000 1.000000 -60.708740 114.000000 228.000000 0.475690 0.865024 -0.159539
-6.38999987 6.15000010 -0.56000000 101 223 93 97.000000 1.000000 4.000000 1.000000 -60.708740 114.000000 228.000000 0.803115 0.589720 0.085070
-6.40999985 6.15999985 -0.57999998 101 223 93 97.000000 1.000000 4.000000 1.000000 -60.708740 114.000000 228.000000 0.396472 0.893891 -0.209209
-6.38999987 6.13999987 -0.57999998 101 223 93 97.000000 1.000000 4.000000 1.000000 -60.708740 114.000000 228.000000 0.643128 0.646451 -0.410472
-6.38999987 6.13999987 -0.57999998 101 223 93 97.000000 1.000000 4.000000 1.000000 -60.708740 114.000000 228.000000 0.643128 0.646451 -0.410472
-6.38999987 6.13999987 -0.56999999 101 223 93 97.000000 1.000000 4.000000 1.000000 -60.708740 114.000000 228.000000 0.768612 0.636440 -0.064650
-6.40999985 6.13999987 -0.60000002 101 223 93 97.000000 1.000000 4.000000 1.000000 -60.708740 114.000000 228.000000 0.762186 0.638349 0.107620
-6.38000011 6.11999989 -0.55000001 101 223 93 97.000000 1.000000 4.000000 1.000000 -60.708740 114.000000 228.000000 0.451821 0.891576 -0.030836
-6.38000011 6.13000011 -0.55000001 101 223 93 97.000000 1.000000 4.000000 1.000000 -60.708740 114.000000 228.000000 0.578744 0.811391 -0.081857
-6.38000011 6.13000011 -0.55000001 101 223 93 97.000000 1.000000 4.000000 1.000000 -60.708740 114.000000 228.000000 0.578744 0.811391 -0.081857
-6.38000011 6.11999989 -0.58999997 101 223 93 97.000000 1.000000 4.000000 1.000000 -60.708740 114.000000 228.000000 0.856594 0.493457 0.150819
-6.38999987 6.13000011 -0.58999997 101 223 93 97.000000 1.000000 4.000000 1.000000 -60.708740 114.000000 228.000000 0.620384 0.610296 -0.492608
-6.42000008 6.15999985 -0.55000001 101 223 93 97.000000 1.000000 4.000000 1.000000 -60.708740 114.000000 228.000000 0.576118 0.811210 0.100131
-6.42999983 6.15999985 -0.56000000 101 223 93 97.000000 1.000000 4.000000 1.000000 -60.708740 114.000000 228.000000 0.509962 0.806782 0.298399
-6.42000008 6.13999987 -0.57999998 101 223 93 97.000000 1.000000 4.000000 1.000000 -60.708740 114.000000 228.000000 0.625112 0.727432 -0.282979
-6.38999987 6.13999987 -0.61000001 101 223 93 97.000000 1.000000 4.000000 1.000000 -60.708740 114.000000 228.000000 0.638507 0.755692 -0.145730
-6.38999987 6.15000010 -0.61000001 101 223 93 97.000000 1.000000 4.000000 1.000000 -60.708740 114.000000 228.000000 0.474516 0.753644 -0.454813
-6.40000010 6.13999987 -0.67000002 101 223 93 97.000000 1.000000 4.000000 1.000000 -60.708740 114.000000 228.000000 0.737175 0.665979 0.114210
-6.38999987 6.11000013 -0.63000000 101 223 93 97.000000 1.000000 4.000000 1.000000 -60.708740 114.000000 228.000000 0.884348 0.464657 0.044967
-6.38999987 6.11000013 -0.66000003 101 223 93 97.000000 1.000000 4.000000 1.000000 -60.708740 114.000000 228.000000 0.661775 0.745764 0.076749
-6.38999987 6.13000011 -0.66000003 101 223 93 97.000000 1.000000 4.000000 1.000000 -60.708740 114.000000 228.000000 0.825711 0.533930 0.181987
-6.40000010 6.13000011 -0.68000001 101 223 93 97.000000 1.000000 4.000000 1.000000 -60.708740 114.000000 228.000000 0.533133 0.839431 -0.105471
-6.38999987 6.11999989 -0.67000002 101 223 93 97.000000 1.000000 4.000000 1.000000 -60.708740 114.000000 228.000000 0.829395 0.534565 0.162305
-6.38000011 6.11000013 -0.69000000 101 223 93 97.000000 1.000000 4.000000 1.000000 -60.708740 114.000000 228.000000 0.584646 0.793125 -0.170711
-6.42000008 6.15999985 -0.68000001 101 223 93 97.000000 1.000000 4.000000 1.000000 -60.708740 114.000000 228.000000 0.581547 0.710047 -0.397034
-6.42999983 6.15999985 -0.66000003 101 223 93 97.000000 1.000000 4.000000 1.000000 -60.708740 114.000000 228.000000 0.515207 0.842932 -0.155005
-6.13999987 5.94000006 -0.03000000 101 223 93 97.000000 1.000000 4.000000 1.000000 -60.708740 114.000000 228.000000 0.938193 0.263475 -0.224442
-6.19000006 5.98000002 -0.14000000 101 223 93 97.000000 1.000000 4.000000 1.000000 -60.708740 114.000000 228.000000 0.964378 0.263897 0.018242
-6.19000006 5.98000002 -0.11000000 101 223 93 97.000000 1.000000 4.000000 1.000000 -60.708740 114.000000 228.000000 0.954108 0.161464 0.252205
-6.19999981 5.86999989 -0.06000000 101 223 93 97.000000 1.000000 4.000000 1.000000 -60.708740 114.000000 228.000000 0.926702 -0.371474 -0.056845
-6.19000006 5.90999985 -0.17000000 101 223 93 97.000000 1.000000 4.000000 1.000000 -60.708740 114.000000 228.000000 0.898325 -0.355495 0.258139
-6.21999979 5.88000011 -0.06000000 101 223 93 97.000000 1.000000 4.000000 1.000000 -60.708740 114.000000 228.000000 0.870059 -0.466469 0.159389
-6.21000004 5.88000011 -0.08000000 101 223 93 97.000000 1.000000 4.000000 1.000000 -60.708740 114.000000 228.000000 0.926978 -0.375114 0.001272
-6.23999977 5.84999990 -0.03000000 101 223 93 97.000000 1.000000 4.000000 1.000000 -60.708740 114.000000 228.000000 0.904454 -0.377700 -0.198256
-6.23999977 5.84999990 -0.04000000 101 223 93 97.000000 1.000000 4.000000 1.000000 -60.708740 114.000000 228.000000 0.864126 -0.361978 -0.349655
-6.23999977 5.86999989 -0.06000000 101 223 93 97.000000 1.000000 4.000000 1.000000 -60.708740 114.000000 228.000000 0.887761 -0.213475 -0.407810
-6.23999977 5.86999989 -0.07000000 101 223 93 97.000000 1.000000 4.000000 1.000000 -60.708740 114.000000 228.000000 0.953765 -0.264713 -0.142333
-6.26000023 5.86999989 -0.04000000 101 223 93 97.000000 1.000000 4.000000 1.000000 -60.708740 114.000000 228.000000 0.993852 0.034347 -0.105257
-6.26000023 5.86000013 -0.04000000 101 223 93 97.000000 1.000000 4.000000 1.000000 -60.708740 114.000000 228.000000 0.766941 -0.591282 0.249373
-6.25000000 5.86999989 -0.18000001 101 223 93 97.000000 1.000000 4.000000 1.000000 -60.708740 114.000000 228.000000 0.900364 -0.405092 0.158888
-6.25000000 5.86999989 -0.18000001 101 223 93 97.000000 1.000000 4.000000 1.000000 -60.708740 114.000000 228.000000 0.900364 -0.405092 0.158888
-6.19000006 5.98999977 -0.20999999 101 223 93 97.000000 1.000000 4.000000 1.000000 -60.708740 114.000000 228.000000 0.911162 0.388893 -0.136183
-6.19999981 6.00000000 -0.23999999 101 223 93 97.000000 1.000000 4.000000 1.000000 -60.708740 114.000000 228.000000 0.962384 -0.109508 0.248648
-6.19999981 6.00000000 -0.23000000 101 223 93 97.000000 1.000000 4.000000 1.000000 -60.708740 114.000000 228.000000 0.934441 0.353185 0.045614
-6.19999981 6.00000000 -0.23999999 101 223 93 97.000000 1.000000 4.000000 1.000000 -60.708740 114.000000 228.000000 0.962384 -0.109508 0.248648
-6.19999981 5.94999981 -0.23999999 101 223 93 97.000000 1.000000 4.000000 1.000000 -60.708740 114.000000 228.000000 0.954478 0.270633 0.125416
-6.21999979 6.00000000 -0.27000001 101 223 93 97.000000 1.000000 4.000000 1.000000 -60.708740 114.000000 228.000000 0.870564 0.287149 -0.399578
-6.23999977 5.98999977 -0.30000001 101 223 93 97.000000 1.000000 4.000000 1.000000 -60.708740 114.000000 228.000000 0.886398 0.136039 -0.442483
-6.23000002 5.96999979 -0.28000000 101 223 93 97.000000 1.000000 4.000000 1.000000 -60.708740 114.000000 228.000000 0.987425 0.139719 -0.073969
-6.25000000 6.00000000 -0.33000001 101 223 93 97.000000 1.000000 4.000000 1.000000 -60.708740 114.000000 228.000000 0.844448 0.193488 -0.499469
-6.26000023 5.98000002 -0.34999999 101 223 93 97.000000 1.000000 4.000000 1.000000 -60.708740 114.000000 228.000000 0.955035 0.202827 -0.216260
-6.26000023 5.98000002 -0.34999999 101 223 93 97.000000 1.000000 4.000000 1.000000 -60.708740 114.000000 228.000000 0.955035 0.202827 -0.216260
-6.26000023 5.98000002 -0.34999999 101 223 93 97.000000 1.000000 4.000000 1.000000 -60.708740 114.000000 228.000000 0.955035 0.202827 -0.216260
-6.21999979 5.90999985 -0.19000000 101 223 93 97.000000 1.000000 4.000000 1.000000 -60.708740 114.000000 228.000000 0.970252 -0.104722 -0.218275
-6.23000002 5.90999985 -0.23000000 101 223 93 97.000000 1.000000 4.000000 1.000000 -60.708740 114.000000 228.000000 0.899318 -0.407481 0.158703
-6.28999996 5.90000010 -0.20999999 101 223 93 97.000000 1.000000 4.000000 1.000000 -60.708740 114.000000 228.000000 0.968711 0.091958 -0.230526
-6.28999996 5.90000010 -0.20000000 101 223 93 97.000000 1.000000 4.000000 1.000000 -60.708740 114.000000 228.000000 0.932619 -0.132840 -0.335524
-6.32999992 5.86000013 -0.03000000 101 223 93 97.000000 1.000000 4.000000 1.000000 -60.708740 114.000000 228.000000 -0.689620 0.707807 0.153080
-6.32000017 5.86999989 -0.03000000 101 223 93 97.000000 1.000000 4.000000 1.000000 -60.708740 114.000000 228.000000 0.780081 -0.576853 0.242310
-6.32999992 5.86000013 -0.04000000 101 223 93 97.000000 1.000000 4.000000 1.000000 -60.708740 114.000000 228.000000 0.703216 -0.584083 -0.405383
-6.32999992 5.86000013 -0.04000000 101 223 93 97.000000 1.000000 4.000000 1.000000 -60.708740 114.000000 228.000000 0.703216 -0.584083 -0.405383
-6.32000017 5.86999989 -0.13000000 101 223 93 97.000000 1.000000 4.000000 1.000000 -60.708740 114.000000 228.000000 0.838653 -0.478571 -0.260059
-6.32000017 5.86999989 -0.13000000 101 223 93 97.000000 1.000000 4.000000 1.000000 -60.708740 114.000000 228.000000 0.838653 -0.478571 -0.260059
-6.32000017 5.86999989 -0.13000000 101 223 93 97.000000 1.000000 4.000000 1.000000 -60.708740 114.000000 228.000000 0.838653 -0.478571 -0.260059
-6.36999989 5.88999987 -0.13000000 101 223 93 97.000000 1.000000 4.000000 1.000000 -60.708740 114.000000 228.000000 -0.712849 0.655947 -0.248154
-6.36000013 5.86999989 -0.12000000 101 223 93 97.000000 1.000000 4.000000 1.000000 -60.708740 114.000000 228.000000 -0.674886 0.735323 0.061877
-6.34000015 5.86000013 -0.11000000 101 223 93 97.000000 1.000000 4.000000 1.000000 -60.708740 114.000000 228.000000 0.941851 -0.295777 0.159474
-6.40000010 5.86000013 -0.06000000 101 223 93 97.000000 1.000000 4.000000 1.000000 -60.708740 114.000000 228.000000 -0.729461 0.600067 0.328338
-6.38000011 5.84000015 -0.07000000 101 223 93 97.000000 1.000000 4.000000 1.000000 -60.708740 114.000000 228.000000 -0.592238 0.765040 0.252919
-6.42000008 5.84999990 -0.08000000 101 223 93 97.000000 1.000000 4.000000 1.000000 -60.708740 114.000000 228.000000 -0.719247 0.663323 0.206609
-6.38000011 5.86000013 -0.16000000 101 223 93 97.000000 1.000000 4.000000 1.000000 -60.708740 114.000000 228.000000 -0.571538 0.818306 -0.060983
-6.42999983 5.84999990 -0.11000000 101 223 93 97.000000 1.000000 4.000000 1.000000 -60.708740 114.000000 228.000000 -0.394446 0.869608 0.296976
-6.44000006 5.86000013 -0.16000000 101 223 93 97.000000 1.000000 4.000000 1.000000 -60.708740 114.000000 228.000000 0.640012 -0.688868 0.340362
-6.32999992 5.90000010 -0.19000000 101 223 93 97.000000 1.000000 4.000000 1.000000 -60.708740 114.000000 228.000000 0.825135 -0.560978 -0.066749
-6.34000015 5.88000011 -0.22000000 101 223 93 97.000000 1.000000 4.000000 1.000000 -60.708740 114.000000 228.000000 0.949298 -0.137909 -0.282513
-6.34000015 5.88000011 -0.20999999 101 223 93 97.000000 1.000000 4.000000 1.000000 -60.708740 114.000000 228.000000 0.926734 -0.171928 -0.334072
-6.34000015 5.88000011 -0.20999999 101 223 93 97.000000 1.000000 4.000000 1.000000 -60.708740 114.000000 228.000000 0.926734 -0.171928 -0.334072
-6.34000015 5.88000011 -0.23999999 101 223 93 97.000000 1.000000 4.000000 1.000000 -60.708740 114.000000 228.000000 0.978290 -0.001158 -0.207235
-6.32999992 5.90000010 -0.31000000 101 223 93 97.000000 1.000000 4.000000 1.000000 -60.708740 114.000000 228.000000 0.860847 -0.494590 -0.119682
-6.40000010 5.86999989 -0.25000000 101 223 93 97.000000 1.000000 4.000000 1.000000 -60.708740 114.000000 228.000000 -0.606777 0.784805 -0.126103
-6.42999983 5.86999989 -0.25000000 101 223 93 97.000000 1.000000 4.000000 1.000000 -60.708740 114.000000 228.000000 -0.481926 0.821002 0.306110
-6.42999983 5.88000011 -0.30000001 101 223 93 97.000000 1.000000 4.000000 1.000000 -60.708740 114.000000 228.000000 -0.709660 0.704039 0.026700
-6.44999981 5.88999987 -0.33000001 101 223 93 97.000000 1.000000 4.000000 1.000000 -60.708740 114.000000 228.000000 0.855388 -0.513793 -0.065799
-6.26000023 6.00000000 -0.41000000 101 223 93 97.000000 1.000000 4.000000 1.000000 -60.708740 114.000000 228.000000 0.964634 0.165776 -0.204936
-6.26999998 5.96000004 -0.36000001 101 223 93 97.000000 1.000000 4.000000 1.000000 -60.708740 114.000000 228.000000 0.958545 0.041349 -0.281925
-6.32999992 6.00000000 -0.47999999 101 223 93 97.000000 1.000000 4.000000 1.000000 -60.708740 114.000000 228.000000 0.892680 0.445654 -0.067191
-6.32000017 6.00000000 -0.51999998 101 223 93 97.000000 1.000000 4.000000 1.000000 -60.708740 114.000000 228.000000 0.968711 0.230526 0.091958
-6.32000017 5.98000002 -0.51999998 101 223 93 97.000000 1.000000 4.000000 1.000000 -60.708740 114.000000 228.000000 0.920536 0.377761 0.099554
-6.32000017 5.98000002 -0.51999998 101 223 93 97.000000 1.000000 4.000000 1.000000 -60.708740 114.000000 228.000000 0.920536 0.377761 0.099554
-6.32999992 5.98000002 -0.50999999 101 223 93 97.000000 1.000000 4.000000 1.000000 -60.708740 114.000000 228.000000 0.923153 0.235425 0.303913
-6.36999989 5.90000010 -0.43000001 101 223 93 97.000000 1.000000 4.000000 1.000000 -60.708740 114.000000 228.000000 0.895433 -0.354906 -0.268778
-6.44000006 5.92999983 -0.47999999 101 223 93 97.000000 1.000000 4.000000 1.000000 -60.708740 114.000000 228.000000 0.928022 0.133360 -0.347836
-6.38999987 5.92999983 -0.44000000 101 223 93 97.000000 1.000000 4.000000 1.000000 -60.708740 114.000000 228.000000 0.997301 -0.046261 0.057019
-6.40999985 5.90000010 -0.38000000 101 223 93 97.000000 1.000000 4.000000 1.000000 -60.708740 114.000000 228.000000 0.746297 -0.658324 0.098236
-6.38999987 5.88999987 -0.38999999 101 223 93 97.000000 1.000000 4.000000 1.000000 -60.708740 114.000000 228.000000 0.964357 -0.221945 0.144069
-6.38999987 5.88000011 -0.41000000 101 223 93 97.000000 1.000000 4.000000 1.000000 -60.708740 114.000000 228.000000 0.933241 -0.235070 0.271667
-6.38999987 5.88000011 -0.41000000 101 223 93 97.000000 1.000000 4.000000 1.000000 -60.708740 114.000000 228.000000 0.933241 -0.235070 0.271667
-6.42999983 5.86000013 -0.44000000 101 223 93 97.000000 1.000000 4.000000 1.000000 -60.708740 114.000000 228.000000 0.859475 -0.506151 0.071506
-6.32000017 5.98000002 -0.52999997 101 223 93 97.000000 1.000000 4.000000 1.000000 -60.708740 114.000000 228.000000 0.887934 0.251358 -0.385218
-6.36000013 5.92999983 -0.58999997 101 223 93 97.000000 1.000000 4.000000 1.000000 -60.708740 114.000000 228.000000 0.951080 -0.063062 -0.302441
-6.36000013 5.98999977 -0.69000000 101 223 93 97.000000 1.000000 4.000000 1.000000 -60.708740 114.000000 228.000000 0.995304 0.090681 -0.033869
-6.38000011 5.94000006 -0.64999998 101 223 93 97.000000 1.000000 4.000000 1.000000 -60.708740 114.000000 228.000000 0.926630 0.288949 -0.240554
-6.42000008 5.94000006 -0.62000000 101 223 93 97.000000 1.000000 4.000000 1.000000 -60.708740 114.000000 228.000000 0.968405 -0.204484 -0.142753
-6.42000008 5.94000006 -0.68000001 101 223 93 97.000000 1.000000 4.000000 1.000000 -60.708740 114.000000 228.000000 0.974811 -0.010609 0.222780
-6.40000010 5.92000008 -0.56000000 101 223 93 97.000000 1.000000 4.000000 1.000000 -60.708740 114.000000 228.000000 0.925905 -0.376352 -0.032556
-6.44999981 5.92000008 -0.54000002 101 223 93 97.000000 1.000000 4.000000 1.000000 -60.708740 114.000000 228.000000 0.923404 -0.383568 0.014206
-6.42000008 5.88000011 -0.56000000 101 223 93 97.000000 1.000000 4.000000 1.000000 -60.708740 114.000000 228.000000 0.927584 -0.228002 -0.295977
-6.44999981 5.92000008 -0.61000001 101 223 93 97.000000 1.000000 4.000000 1.000000 -60.708740 114.000000 228.000000 0.992897 0.114522 0.032244
-6.44999981 5.90000010 -0.63000000 101 223 93 97.000000 1.000000 4.000000 1.000000 -60.708740 114.000000 228.000000 0.952305 -0.305084 -0.006176
-6.44999981 6.17999983 -0.73000002 101 223 93 97.000000 1.000000 4.000000 1.000000 -60.708740 114.000000 228.000000 0.542035 0.828560 -0.140309
-6.44999981 6.17999983 -0.73000002 101 223 93 97.000000 1.000000 4.000000 1.000000 -60.708740 114.000000 228.000000 0.542035 0.828560 -0.140309
-6.36999989 6.09999990 -0.75999999 101 223 93 97.000000 1.000000 4.000000 1.000000 -60.708740 114.000000 228.000000 0.583662 0.747667 -0.316753
-6.36999989 6.09000015 -0.75999999 101 223 93 97.000000 1.000000 4.000000 1.000000 -60.708740 114.000000 228.000000 0.940027 0.306975 0.148713
-6.36999989 6.09999990 -0.72000003 101 223 93 97.000000 1.000000 4.000000 1.000000 -60.708740 114.000000 228.000000 0.742452 0.668633 -0.041168
-6.36999989 6.09999990 -0.75000000 101 223 93 97.000000 1.000000 4.000000 1.000000 -60.708740 114.000000 228.000000 0.525290 0.779100 -0.342161
-6.36999989 6.09000015 -0.79000002 101 223 93 97.000000 1.000000 4.000000 1.000000 -60.708740 114.000000 228.000000 0.762245 0.625859 -0.165178
-6.36999989 6.09000015 -0.79000002 101 223 93 97.000000 1.000000 4.000000 1.000000 -60.708740 114.000000 228.000000 0.762245 0.625859 -0.165178
-6.32000017 6.05000019 -0.69999999 101 223 93 97.000000 1.000000 4.000000 1.000000 -60.708740 114.000000 228.000000 0.886184 0.420388 0.194814
-6.36000013 6.05999994 -0.74000001 101 223 93 97.000000 1.000000 4.000000 1.000000 -60.708740 114.000000 228.000000 0.760797 0.564566 -0.320082
-6.36000013 6.07999992 -0.76999998 101 223 93 97.000000 1.000000 4.000000 1.000000 -60.708740 114.000000 228.000000 0.887035 0.461471 0.014629
-6.36000013 6.03000021 -0.73000002 101 223 93 97.000000 1.000000 4.000000 1.000000 -60.708740 114.000000 228.000000 0.843611 0.525267 0.111420
-6.36999989 6.03999996 -0.75999999 101 223 93 97.000000 1.000000 4.000000 1.000000 -60.708740 114.000000 228.000000 0.829527 0.551586 -0.087394
-6.36000013 6.01999998 -0.76999998 101 223 93 97.000000 1.000000 4.000000 1.000000 -60.708740 114.000000 228.000000 0.938235 0.335747 -0.083605
-6.36999989 6.03999996 -0.75999999 101 223 93 97.000000 1.000000 4.000000 1.000000 -60.708740 114.000000 228.000000 0.829527 0.551586 -0.087394
-6.36000013 6.07000017 -0.77999997 101 223 93 97.000000 1.000000 4.000000 1.000000 -60.708740 114.000000 228.000000 0.768819 0.515255 -0.378721
-6.34999990 6.05999994 -0.83999997 101 223 93 97.000000 1.000000 4.000000 1.000000 -60.708740 114.000000 228.000000 0.872769 0.414528 0.257761
-6.34999990 6.05000019 -0.82999998 101 223 93 97.000000 1.000000 4.000000 1.000000 -60.708740 114.000000 228.000000 0.804889 0.532946 0.261003
-6.36999989 6.03000021 -0.77999997 101 223 93 97.000000 1.000000 4.000000 1.000000 -60.708740 114.000000 228.000000 0.732924 0.680275 0.006927
-6.40000010 6.15000010 -0.69999999 101 223 93 97.000000 1.000000 4.000000 1.000000 -60.708740 114.000000 228.000000 0.279835 0.949298 -0.143265
-6.38999987 6.13999987 -0.69999999 101 223 93 97.000000 1.000000 4.000000 1.000000 -60.708740 114.000000 228.000000 0.755517 0.637892 0.149294
-6.40999985 6.11000013 -0.72000003 101 223 93 97.000000 1.000000 4.000000 1.000000 -60.708740 114.000000 228.000000 0.577373 0.777654 -0.248787
-6.38999987 6.11999989 -0.72000003 101 223 93 97.000000 1.000000 4.000000 1.000000 -60.708740 114.000000 228.000000 0.564436 0.811657 -0.150417
