//X Y Z R G B PointSourceId ScanDirectionFlag NumberOfReturns ReturnNumber GpsTime Intensity Classification Nx Ny Nz
-0.56999999 17.19000053 -0.67000002 102 196 106 0.000000 0.000000 0.000000 0.000000 -60.708740 0.000000 131.000000 -0.077520 0.983905 -0.161003
-0.57999998 17.18000031 -0.69000000 102 196 106 0.000000 0.000000 0.000000 0.000000 -60.708740 0.000000 131.000000 -0.081531 0.979586 -0.183748
-0.57999998 17.19000053 -0.67000002 102 196 106 0.000000 0.000000 0.000000 0.000000 -60.708740 0.000000 131.000000 -0.008869 0.936344 -0.350971
-0.57999998 17.19000053 -0.68000001 102 196 106 0.000000 0.000000 0.000000 0.000000 -60.708740 0.000000 131.000000 -0.172256 0.981740 0.080707
-0.56000000 17.15999985 -0.54000002 102 196 106 0.000000 0.000000 0.000000 0.000000 -60.708740 0.000000 131.000000 -0.241231 0.955593 0.169261
-0.54000002 17.15999985 -0.54000002 102 196 106 0.000000 0.000000 0.000000 0.000000 -60.708740 0.000000 131.000000 -0.335951 0.940921 0.042477
-0.54000002 17.15999985 -0.66000003 102 196 106 0.000000 0.000000 0.000000 0.000000 -60.708740 0.000000 131.000000 -0.355099 0.880947 0.312789
-0.66000003 17.26000023 -0.36000001 102 196 106 0.000000 0.000000 0.000000 0.000000 -60.708740 0.000000 131.000000 0.063624 0.989067 -0.133032
-0.63999999 17.26000023 -0.43000001 102 196 106 0.000000 0.000000 0.000000 0.000000 -60.708740 0.000000 131.000000 0.174658 0.984330 -0.024290
-0.66000003 17.26000023 -0.36000001 102 196 106 0.000000 0.000000 0.000000 0.000000 -60.708740 0.000000 131.000000 0.063624 0.989067 -0.133032
-0.64999998 17.26000023 -0.41999999 102 196 106 0.000000 0.000000 0.000000 0.000000 -60.708740 0.000000 131.000000 0.331557 0.872437 -0.359059
-0.58999997 17.27000046 -0.46000001 102 196 106 0.000000 0.000000 0.000000 0.000000 -60.708740 0.000000 131.000000 0.129225 0.918471 -0.373780
-0.75000000 17.38999939 -0.44999999 102 196 106 0.000000 0.000000 0.000000 0.000000 -60.708740 0.000000 131.000000 0.850754 0.120294 -0.511612
-0.75000000 17.38999939 -0.44999999 102 196 106 0.000000 0.000000 0.000000 0.000000 -60.708740 0.000000 131.000000 0.850754 0.120294 -0.511612
-0.72000003 17.34000015 -0.44000000 102 196 106 0.000000 0.000000 0.000000 0.000000 -60.708740 0.000000 131.000000 0.411521 0.834079 -0.367373
-0.74000001 17.35000038 -0.47999999 102 196 106 0.000000 0.000000 0.000000 0.000000 -60.708740 0.000000 131.000000 0.650978 0.550051 -0.523137
-0.74000001 17.35000038 -0.47999999 102 196 106 0.000000 0.000000 0.000000 0.000000 -60.708740 0.000000 131.000000 0.650978 0.550051 -0.523137
-0.75000000 17.34000015 -0.50999999 102 196 106 0.000000 0.000000 0.000000 0.000000 -60.708740 0.000000 131.000000 0.669037 0.602300 -0.435458
-0.75000000 17.35000038 -0.49000001 102 196 106 0.000000 0.000000 0.000000 0.000000 -60.708740 0.000000 131.000000 0.802485 0.302317 -0.514414
-0.67000002 17.26000023 -0.38999999 102 196 106 0.000000 0.000000 0.000000 0.000000 -60.708740 0.000000 131.000000 0.470913 0.645201 -0.601629
-0.70999998 17.32999992 -0.47000000 102 196 106 0.000000 0.000000 0.000000 0.000000 -60.708740 0.000000 131.000000 0.454818 0.839784 -0.296486
-0.69999999 17.29999924 -0.44000000 102 196 106 0.000000 0.000000 0.000000 0.000000 -60.708740 0.000000 131.000000 0.681175 0.493726 -0.540588
-0.70999998 17.28000069 -0.44999999 102 196 106 0.000000 0.000000 0.000000 0.000000 -60.708740 0.000000 131.000000 0.394014 0.914822 0.088619
-0.68000001 17.26000023 -0.44000000 102 196 106 0.000000 0.000000 0.000000 0.000000 -60.708740 0.000000 131.000000 0.188070 0.979176 0.076441
-0.67000002 17.29000092 -0.47999999 102 196 106 0.000000 0.000000 0.000000 0.000000 -60.708740 0.000000 131.000000 0.223450 0.973166 -0.054947
-0.70999998 17.28000069 -0.49000001 102 196 106 0.000000 0.000000 0.000000 0.000000 -60.708740 0.000000 131.000000 0.566432 0.617158 -0.546142
-0.74000001 17.32999992 -0.47999999 102 196 106 0.000000 0.000000 0.000000 0.000000 -60.708740 0.000000 131.000000 0.762288 0.440979 -0.473766
-0.74000001 17.30999947 -0.50999999 102 196 106 0.000000 0.000000 0.000000 0.000000 -60.708740 0.000000 131.000000 0.443080 0.650408 -0.616968
-0.75000000 17.32999992 -0.51999998 102 196 106 0.000000 0.000000 0.000000 0.000000 -60.708740 0.000000 131.000000 0.676744 0.466201 -0.569802
-0.72000003 17.27000046 -0.50999999 102 196 106 0.000000 0.000000 0.000000 0.000000 -60.708740 0.000000 131.000000 0.413218 0.870330 -0.267910
-0.72000003 17.28000069 -0.49000001 102 196 106 0.000000 0.000000 0.000000 0.000000 -60.708740 0.000000 131.000000 0.767091 0.475956 -0.430160
-0.72000003 17.28000069 -0.49000001 102 196 106 0.000000 0.000000 0.000000 0.000000 -60.708740 0.000000 131.000000 0.767091 0.475956 -0.430160
-0.74000001 17.27000046 -0.50000000 102 196 106 0.000000 0.000000 0.000000 0.000000 -60.708740 0.000000 131.000000 0.221874 0.936337 -0.272110
-0.63999999 17.27000046 -0.55000001 102 196 106 0.000000 0.000000 0.000000 0.000000 -60.708740 0.000000 131.000000 0.206508 0.968405 0.139809
-0.69999999 17.27000046 -0.58999997 102 196 106 0.000000 0.000000 0.000000 0.000000 -60.708740 0.000000 131.000000 0.054456 0.994649 -0.087796
-0.69000000 17.27000046 -0.56999999 102 196 106 0.000000 0.000000 0.000000 0.000000 -60.708740 0.000000 131.000000 0.186949 0.981778 -0.034098
-0.70999998 17.26000023 -0.56999999 102 196 106 0.000000 0.000000 0.000000 0.000000 -60.708740 0.000000 131.000000 0.349541 0.913410 -0.208574
-0.72000003 17.29999924 -0.66000003 102 196 106 0.000000 0.000000 0.000000 0.000000 -60.708740 0.000000 131.000000 0.477605 0.658593 -0.581506
-0.74000001 17.29000092 -0.63999999 102 196 106 0.000000 0.000000 0.000000 0.000000 -60.708740 0.000000 131.000000 0.488779 0.788822 -0.372633
-0.73000002 17.26000023 -0.66000003 102 196 106 0.000000 0.000000 0.000000 0.000000 -60.708740 0.000000 131.000000 0.247324 0.965199 0.084978
-0.73000002 17.26000023 -0.69000000 102 196 106 0.000000 0.000000 0.000000 0.000000 -60.708740 0.000000 131.000000 0.491288 0.665670 -0.561711
-0.72000003 17.29000092 -0.68000001 102 196 106 0.000000 0.000000 0.000000 0.000000 -60.708740 0.000000 131.000000 0.449158 0.888520 -0.093749
-0.72000003 17.27000046 -0.69000000 102 196 106 0.000000 0.000000 0.000000 0.000000 -60.708740 0.000000 131.000000 0.261951 0.944944 -0.196120
-0.72000003 17.27000046 -0.68000001 102 196 106 0.000000 0.000000 0.000000 0.000000 -60.708740 0.000000 131.000000 0.125915 0.961884 -0.242743
-0.72000003 17.26000023 -0.68000001 102 196 106 0.000000 0.000000 0.000000 0.000000 -60.708740 0.000000 131.000000 0.357781 0.895196 -0.265738
-0.60000002 17.21999931 -0.37000000 102 196 106 0.000000 0.000000 0.000000 0.000000 -60.708740 0.000000 131.000000 -0.085094 0.885819 -0.456162
-0.63999999 17.25000000 -0.38000000 102 196 106 0.000000 0.000000 0.000000 0.000000 -60.708740 0.000000 131.000000 0.408505 0.743183 -0.529908
-0.66000003 17.23999977 -0.38999999 102 196 106 0.000000 0.000000 0.000000 0.000000 -60.708740 0.000000 131.000000 0.136448 0.989531 -0.047011
-0.64999998 17.21999931 -0.36000001 102 196 106 0.000000 0.000000 0.000000 0.000000 -60.708740 0.000000 131.000000 0.395653 0.730562 -0.556541
-0.64999998 17.23999977 -0.38000000 102 196 106 0.000000 0.000000 0.000000 0.000000 -60.708740 0.000000 131.000000 0.025286 0.971714 -0.234801
-0.66000003 17.23999977 -0.38000000 102 196 106 0.000000 0.000000 0.000000 0.000000 -60.708740 0.000000 131.000000 0.076336 0.992368 -0.096844
-0.63999999 17.22999954 -0.38000000 102 196 106 0.000000 0.000000 0.000000 0.000000 -60.708740 0.000000 131.000000 0.357576 0.818452 -0.449751
-0.64999998 17.25000000 -0.43000001 102 196 106 0.000000 0.000000 0.000000 0.000000 -60.708740 0.000000 131.000000 0.394819 0.813615 -0.426788
-0.63000000 17.23999977 -0.43000001 102 196 106 0.000000 0.000000 0.000000 0.000000 -60.708740 0.000000 131.000000 0.084567 0.993376 0.077801
-0.66000003 17.23999977 -0.40000001 102 196 106 0.000000 0.000000 0.000000 0.000000 -60.708740 0.000000 131.000000 0.198856 0.977199 -0.074418
-0.62000000 17.21999931 -0.50999999 102 196 106 0.000000 0.000000 0.000000 0.000000 -60.708740 0.000000 131.000000 0.253871 0.878784 -0.404090
-0.63000000 17.22999954 -0.47999999 102 196 106 0.000000 0.000000 0.000000 0.000000 -60.708740 0.000000 131.000000 0.130658 0.928359 -0.347963
-0.66000003 17.23999977 -0.51999998 102 196 106 0.000000 0.000000 0.000000 0.000000 -60.708740 0.000000 131.000000 0.258038 0.792882 -0.552046
-0.68000001 17.25000000 -0.46000001 102 196 106 0.000000 0.000000 0.000000 0.000000 -60.708740 0.000000 131.000000 0.224659 0.968446 0.107887
-0.69000000 17.22999954 -0.44999999 102 196 106 0.000000 0.000000 0.000000 0.000000 -60.708740 0.000000 131.000000 0.302861 0.945940 0.116074
-0.67000002 17.25000000 -0.51999998 102 196 106 0.000000 0.000000 0.000000 0.000000 -60.708740 0.000000 131.000000 0.399635 0.832442 -0.383839
-0.72000003 17.25000000 -0.50999999 102 196 106 0.000000 0.000000 0.000000 0.000000 -60.708740 0.000000 131.000000 0.442206 0.645787 -0.622425
-0.60000002 17.20999908 -0.55000001 102 196 106 0.000000 0.000000 0.000000 0.000000 -60.708740 0.000000 131.000000 -0.006778 0.844534 -0.535459
-0.61000001 17.22999954 -0.52999997 102 196 106 0.000000 0.000000 0.000000 0.000000 -60.708740 0.000000 131.000000 0.042436 0.973595 -0.224303
-0.58999997 17.18000031 -0.56000000 102 196 106 0.000000 0.000000 0.000000 0.000000 -60.708740 0.000000 131.000000 -0.027302 0.994891 0.097196
-0.58999997 17.18000031 -0.56000000 102 196 106 0.000000 0.000000 0.000000 0.000000 -60.708740 0.000000 131.000000 -0.027302 0.994891 0.097196
-0.66000003 17.21999931 -0.55000001 102 196 106 0.000000 0.000000 0.000000 0.000000 -60.708740 0.000000 131.000000 0.036257 0.983614 -0.176606
-0.63999999 17.23999977 -0.54000002 102 196 106 0.000000 0.000000 0.000000 0.000000 -60.708740 0.000000 131.000000 0.064057 0.900880 -0.429315
-0.63000000 17.22999954 -0.60000002 102 196 106 0.000000 0.000000 0.000000 0.000000 -60.708740 0.000000 131.000000 -0.208110 0.934399 -0.289119
-0.63000000 17.22999954 -0.60000002 102 196 106 0.000000 0.000000 0.000000 0.000000 -60.708740 0.000000 131.000000 -0.208110 0.934399 -0.289119
-0.66000003 17.25000000 -0.56999999 102 196 106 0.000000 0.000000 0.000000 0.000000 -60.708740 0.000000 131.000000 0.084188 0.996404 0.009591
-0.64999998 17.22999954 -0.60000002 102 196 106 0.000000 0.000000 0.000000 0.000000 -60.708740 0.000000 131.000000 0.378093 0.815214 -0.438716
-0.64999998 17.22999954 -0.60000002 102 196 106 0.000000 0.000000 0.000000 0.000000 -60.708740 0.000000 131.000000 0.378093 0.815214 -0.438716
-0.66000003 17.21999931 -0.58999997 102 196 106 0.000000 0.000000 0.000000 0.000000 -60.708740 0.000000 131.000000 0.065765 0.860536 -0.505127
-0.63999999 17.22999954 -0.56999999 102 196 106 0.000000 0.000000 0.000000 0.000000 -60.708740 0.000000 131.000000 -0.082016 0.885499 -0.457346
-0.66000003 17.21999931 -0.60000002 102 196 106 0.000000 0.000000 0.000000 0.000000 -60.708740 0.000000 131.000000 0.129625 0.989969 0.056209
-0.61000001 17.20999908 -0.68000001 102 196 106 0.000000 0.000000 0.000000 0.000000 -60.708740 0.000000 131.000000 -0.310895 0.915334 -0.255946
-0.60000002 17.25000000 -0.67000002 102 196 106 0.000000 0.000000 0.000000 0.000000 -60.708740 0.000000 131.000000 -0.365450 0.926436 -0.090351
-0.60000002 17.20000076 -0.64999998 102 196 106 0.000000 0.000000 0.000000 0.000000 -60.708740 0.000000 131.000000 -0.020063 0.997856 0.062300
-0.66000003 17.22999954 -0.62000000 102 196 106 0.000000 0.000000 0.000000 0.000000 -60.708740 0.000000 131.000000 0.166913 0.972175 0.164365
-0.63999999 17.20999908 -0.63999999 102 196 106 0.000000 0.000000 0.000000 0.000000 -60.708740 0.000000 131.000000 0.169675 0.983640 0.060513
-0.63000000 17.21999931 -0.67000002 102 196 106 0.000000 0.000000 0.000000 0.000000 -60.708740 0.000000 131.000000 0.164630 0.971192 0.172288
-0.64999998 17.20999908 -0.66000003 102 196 106 0.000000 0.000000 0.000000 0.000000 -60.708740 0.000000 131.000000 0.041735 0.952311 -0.302261
-0.63999999 17.21999931 -0.68000001 102 196 106 0.000000 0.000000 0.000000 0.000000 -60.708740 0.000000 131.000000 -0.182513 0.962460 -0.200896
-0.66000003 17.22999954 -0.69000000 102 196 106 0.000000 0.000000 0.000000 0.000000 -60.708740 0.000000 131.000000 0.288817 0.955515 0.059799
-0.63999999 17.21999931 -0.68000001 102 196 106 0.000000 0.000000 0.000000 0.000000 -60.708740 0.000000 131.000000 -0.182513 0.962460 -0.200896
-0.66000003 17.22999954 -0.69000000 102 196 106 0.000000 0.000000 0.000000 0.000000 -60.708740 0.000000 131.000000 0.288817 0.955515 0.059799
-0.63999999 17.20999908 -0.69000000 102 196 106 0.000000 0.000000 0.000000 0.000000 -60.708740 0.000000 131.000000 0.182609 0.962965 0.198373
-0.66000003 17.22999954 -0.64999998 102 196 106 0.000000 0.000000 0.000000 0.000000 -60.708740 0.000000 131.000000 0.112534 0.816969 -0.565594
-0.67000002 17.22999954 -0.54000002 102 196 106 0.000000 0.000000 0.000000 0.000000 -60.708740 0.000000 131.000000 -0.006339 0.934369 -0.356252
-0.69999999 17.23999977 -0.54000002 102 196 106 0.000000 0.000000 0.000000 0.000000 -60.708740 0.000000 131.000000 0.193378 0.808532 -0.555771
-0.70999998 17.23999977 -0.52999997 102 196 106 0.000000 0.000000 0.000000 0.000000 -60.708740 0.000000 131.000000 0.159582 0.892799 -0.421240
-0.67000002 17.22999954 -0.52999997 102 196 106 0.000000 0.000000 0.000000 0.000000 -60.708740 0.000000 131.000000 0.142233 0.953091 -0.267184
-0.69999999 17.25000000 -0.60000002 102 196 106 0.000000 0.000000 0.000000 0.000000 -60.708740 0.000000 131.000000 0.130324 0.833195 -0.537403
-0.69000000 17.25000000 -0.60000002 102 196 106 0.000000 0.000000 0.000000 0.000000 -60.708740 0.000000 131.000000 0.224152 0.970490 0.088909
-0.68000001 17.22999954 -0.63999999 102 196 106 0.000000 0.000000 0.000000 0.000000 -60.708740 0.000000 131.000000 0.298516 0.941893 0.154029
-0.69999999 17.22999954 -0.62000000 102 196 106 0.000000 0.000000 0.000000 0.000000 -60.708740 0.000000 131.000000 0.290535 0.952383 0.092502
-0.69000000 17.25000000 -0.62000000 102 196 106 0.000000 0.000000 0.000000 0.000000 -60.708740 0.000000 131.000000 0.425225 0.872988 -0.238907
-0.69999999 17.21999931 -0.64999998 102 196 106 0.000000 0.000000 0.000000 0.000000 -60.708740 0.000000 131.000000 0.274195 0.756017 -0.594353
-0.69999999 17.25000000 -0.67000002 102 196 106 0.000000 0.000000 0.000000 0.000000 -60.708740 0.000000 131.000000 0.031258 0.873858 -0.485175
-0.69999999 17.25000000 -0.66000003 102 196 106 0.000000 0.000000 0.000000 0.000000 -60.708740 0.000000 131.000000 0.176715 0.972566 0.151288
-0.76999998 17.60000038 -0.05000000 102 196 106 0.000000 0.000000 0.000000 0.000000 -60.708740 0.000000 131.000000 0.936913 0.201861 -0.285389
-0.83999997 17.62999916 -0.23000000 102 196 106 0.000000 0.000000 0.000000 0.000000 -60.708740 0.000000 131.000000 0.883903 -0.166911 -0.436871
-0.77999997 17.55999947 -0.04000000 102 196 106 0.000000 0.000000 0.000000 0.000000 -60.708740 0.000000 131.000000 0.815719 0.192917 -0.545331
-0.75999999 17.54000092 -0.14000000 102 196 106 0.000000 0.000000 0.000000 0.000000 -60.708740 0.000000 131.000000 0.768989 -0.235532 -0.594290
-0.75999999 17.48999977 -0.06000000 102 196 106 0.000000 0.000000 0.000000 0.000000 -60.708740 0.000000 131.000000 0.792480 0.203868 -0.574816
-0.76999998 17.47999954 -0.07000000 102 196 106 0.000000 0.000000 0.000000 0.000000 -60.708740 0.000000 131.000000 0.846816 0.285357 -0.448859
-0.79000002 17.48999977 -0.11000000 102 196 106 0.000000 0.000000 0.000000 0.000000 -60.708740 0.000000 131.000000 0.854543 0.122904 -0.504629
-0.75999999 17.46999931 -0.18000001 102 196 106 0.000000 0.000000 0.000000 0.000000 -60.708740 0.000000 131.000000 0.876719 -0.073873 -0.475296
-0.76999998 17.45000076 -0.11000000 102 196 106 0.000000 0.000000 0.000000 0.000000 -60.708740 0.000000 131.000000 0.827125 0.031866 -0.561115
-0.75999999 17.45000076 -0.14000000 102 196 106 0.000000 0.000000 0.000000 0.000000 -60.708740 0.000000 131.000000 0.838288 0.397911 -0.372747
-0.75999999 17.44000053 -0.18000001 102 196 106 0.000000 0.000000 0.000000 0.000000 -60.708740 0.000000 131.000000 0.833023 0.093517 -0.545277
-0.75999999 17.52000046 -0.28000000 102 196 106 0.000000 0.000000 0.000000 0.000000 -60.708740 0.000000 131.000000 0.817196 0.009582 -0.576280
-0.75999999 17.45000076 -0.28000000 102 196 106 0.000000 0.000000 0.000000 0.000000 -60.708740 0.000000 131.000000 0.909888 0.083463 -0.406371
-0.75999999 17.63999939 -0.56999999 102 196 106 0.000000 0.000000 0.000000 0.000000 -60.708740 0.000000 131.000000 -0.494408 0.732518 0.467951
-0.75999999 17.59000015 -0.55000001 102 196 106 0.000000 0.000000 0.000000 0.000000 -60.708740 0.000000 131.000000 0.729436 -0.672752 0.123810
-0.75999999 17.59000015 -0.52999997 102 196 106 0.000000 0.000000 0.000000 0.000000 -60.708740 0.000000 131.000000 -0.642587 0.691391 0.330241
-0.76999998 17.62999916 -0.57999998 102 196 106 0.000000 0.000000 0.000000 0.000000 -60.708740 0.000000 131.000000 -0.561893 0.827118 -0.012304
-0.75999999 17.59000015 -0.54000002 102 196 106 0.000000 0.000000 0.000000 0.000000 -60.708740 0.000000 131.000000 -0.545264 0.775522 0.318204
-0.75999999 17.60000038 -0.54000002 102 196 106 0.000000 0.000000 0.000000 0.000000 -60.708740 0.000000 131.000000 0.625695 -0.618986 -0.474723
-0.76999998 17.62999916 -0.57999998 102 196 106 0.000000 0.000000 0.000000 0.000000 -60.708740 0.000000 131.000000 -0.561893 0.827118 -0.012304
-0.81000000 17.60000038 -0.55000001 102 196 106 0.000000 0.000000 0.000000 0.000000 -60.708740 0.000000 131.000000 -0.523979 0.796258 0.302356
-0.76999998 17.60000038 -0.62000000 102 196 106 0.000000 0.000000 0.000000 0.000000 -60.708740 0.000000 131.000000 -0.528504 0.838872 0.130296
-0.75999999 17.54999924 -0.44999999 102 196 106 0.000000 0.000000 0.000000 0.000000 -60.708740 0.000000 131.000000 0.704018 -0.412472 -0.578123
-0.77999997 17.46999931 -0.49000001 102 196 106 0.000000 0.000000 0.000000 0.000000 -60.708740 0.000000 131.000000 0.824722 0.049174 -0.563396
-0.76999998 17.46999931 -0.51999998 102 196 106 0.000000 0.000000 0.000000 0.000000 -60.708740 0.000000 131.000000 0.760658 0.067582 -0.645625
-0.75999999 17.46999931 -0.51999998 102 196 106 0.000000 0.000000 0.000000 0.000000 -60.708740 0.000000 131.000000 0.908982 0.178934 -0.376476
-0.75999999 17.44000053 -0.46000001 102 196 106 0.000000 0.000000 0.000000 0.000000 -60.708740 0.000000 131.000000 0.845690 0.460585 -0.269573
-0.76999998 17.55999947 -0.52999997 102 196 106 0.000000 0.000000 0.000000 0.000000 -60.708740 0.000000 131.000000 0.786423 -0.413480 -0.458882
-0.76999998 17.55999947 -0.52999997 102 196 106 0.000000 0.000000 0.000000 0.000000 -60.708740 0.000000 131.000000 0.786423 -0.413480 -0.458882
-0.75999999 17.55999947 -0.57999998 102 196 106 0.000000 0.000000 0.000000 0.000000 -60.708740 0.000000 131.000000 0.681928 -0.598968 -0.419776
-0.75999999 17.54999924 -0.57999998 102 196 106 0.000000 0.000000 0.000000 0.000000 -60.708740 0.000000 131.000000 0.857820 -0.397225 -0.326126
-0.75999999 17.54999924 -0.57999998 102 196 106 0.000000 0.000000 0.000000 0.000000 -60.708740 0.000000 131.000000 0.857820 -0.397225 -0.326126
-0.76999998 17.51000023 -0.58999997 102 196 106 0.000000 0.000000 0.000000 0.000000 -60.708740 0.000000 131.000000 0.852919 -0.509442 -0.114011
-0.75999999 17.54000092 -0.56999999 102 196 106 0.000000 0.000000 0.000000 0.000000 -60.708740 0.000000 131.000000 0.819617 -0.313059 -0.479814
-0.75999999 17.56999969 -0.62000000 102 196 106 0.000000 0.000000 0.000000 0.000000 -60.708740 0.000000 131.000000 0.744083 -0.662540 0.085912
-0.75999999 17.55999947 -0.63000000 102 196 106 0.000000 0.000000 0.000000 0.000000 -60.708740 0.000000 131.000000 0.790747 -0.610968 -0.037922
-0.76999998 17.46999931 -0.60000002 102 196 106 0.000000 0.000000 0.000000 0.000000 -60.708740 0.000000 131.000000 0.770791 -0.339534 -0.539071
-0.76999998 17.44000053 -0.54000002 102 196 106 0.000000 0.000000 0.000000 0.000000 -60.708740 0.000000 131.000000 0.826038 0.490023 -0.278457
-0.76999998 17.42000008 -0.56000000 102 196 106 0.000000 0.000000 0.000000 0.000000 -60.708740 0.000000 131.000000 0.932281 -0.150101 -0.329122
-0.76999998 17.45999908 -0.55000001 102 196 106 0.000000 0.000000 0.000000 0.000000 -60.708740 0.000000 131.000000 0.906901 -0.279835 -0.314998
-0.77999997 17.48999977 -0.61000001 102 196 106 0.000000 0.000000 0.000000 0.000000 -60.708740 0.000000 131.000000 0.832487 -0.290981 -0.471483
-0.79000002 17.47999954 -0.63000000 102 196 106 0.000000 0.000000 0.000000 0.000000 -60.708740 0.000000 131.000000 0.845065 -0.305464 -0.438814
-0.76999998 17.47999954 -0.61000001 102 196 106 0.000000 0.000000 0.000000 0.000000 -60.708740 0.000000 131.000000 0.924432 -0.087720 -0.371122
-0.77999997 17.44000053 -0.63999999 102 196 106 0.000000 0.000000 0.000000 0.000000 -60.708740 0.000000 131.000000 0.827412 0.393931 -0.400259
-0.75999999 17.43000031 -0.64999998 102 196 106 0.000000 0.000000 0.000000 0.000000 -60.708740 0.000000 131.000000 0.863837 0.056850 -0.500554
-0.77999997 17.44000053 -0.67000002 102 196 106 0.000000 0.000000 0.000000 0.000000 -60.708740 0.000000 131.000000 0.846213 -0.305879 -0.436304
-0.75999999 17.40999985 -0.04000000 102 196 106 0.000000 0.000000 0.000000 0.000000 -60.708740 0.000000 131.000000 0.636067 0.571954 -0.517964
-0.75999999 17.40999985 -0.03000000 102 196 106 0.000000 0.000000 0.000000 0.000000 -60.708740 0.000000 131.000000 0.684652 0.642168 -0.344777
-0.80000001 17.40999985 -0.06000000 102 196 106 0.000000 0.000000 0.000000 0.000000 -60.708740 0.000000 131.000000 0.804897 0.267257 -0.529825
-0.76999998 17.37000084 -0.43000001 102 196 106 0.000000 0.000000 0.000000 0.000000 -60.708740 0.000000 131.000000 0.670428 0.722351 -0.169516
-0.75999999 17.35000038 -0.50000000 102 196 106 0.000000 0.000000 0.000000 0.000000 -60.708740 0.000000 131.000000 0.553358 0.742708 -0.377067
-0.76999998 17.40999985 -0.56000000 102 196 106 0.000000 0.000000 0.000000 0.000000 -60.708740 0.000000 131.000000 0.691454 0.629338 -0.354718
-0.75999999 17.37999916 -0.52999997 102 196 106 0.000000 0.000000 0.000000 0.000000 -60.708740 0.000000 131.000000 0.733763 0.488623 -0.472059
-0.76999998 17.37000084 -0.56000000 102 196 106 0.000000 0.000000 0.000000 0.000000 -60.708740 0.000000 131.000000 0.756982 0.348503 -0.552742
-0.75999999 17.35000038 -0.60000002 102 196 106 0.000000 0.000000 0.000000 0.000000 -60.708740 0.000000 131.000000 0.514483 0.811601 -0.276789
-0.76999998 17.40999985 -0.63999999 102 196 106 0.000000 0.000000 0.000000 0.000000 -60.708740 0.000000 131.000000 0.795418 0.377623 -0.474037
-0.79000002 17.40999985 -0.63999999 102 196 106 0.000000 0.000000 0.000000 0.000000 -60.708740 0.000000 131.000000 0.953825 -0.173057 -0.245499
-0.76999998 17.35000038 -0.68000001 102 196 106 0.000000 0.000000 0.000000 0.000000 -60.708740 0.000000 131.000000 0.658511 0.746508 -0.095330
-0.76999998 17.35000038 -0.68000001 102 196 106 0.000000 0.000000 0.000000 0.000000 -60.708740 0.000000 131.000000 0.658511 0.746508 -0.095330
-0.75999999 17.28000069 -0.63999999 102 196 106 0.000000 0.000000 0.000000 0.000000 -60.708740 0.000000 131.000000 0.384104 0.661055 -0.644570
-0.75999999 17.31999969 -0.69000000 102 196 106 0.000000 0.000000 0.000000 0.000000 -60.708740 0.000000 131.000000 0.501896 0.798254 -0.333004
-0.67000002 17.75000000 -0.69999999 102 196 106 0.000000 0.000000 0.000000 0.000000 -60.708740 0.000000 131.000000 -0.031306 0.996398 0.078805
-0.68000001 17.72999954 -0.73000002 102 196 106 0.000000 0.000000 0.000000 0.000000 -60.708740 0.000000 131.000000 -0.203092 0.963050 -0.176887
-0.72000003 17.68000031 -0.72000003 102 196 106 0.000000 0.000000 0.000000 0.000000 -60.708740 0.000000 131.000000 -0.238295 0.914187 -0.327837
-0.68000001 17.72999954 -0.81000000 102 196 106 0.000000 0.000000 0.000000 0.000000 -60.708740 0.000000 131.000000 -0.164106 0.975866 0.144062
-0.70999998 17.70999908 -0.77999997 102 196 106 0.000000 0.000000 0.000000 0.000000 -60.708740 0.000000 131.000000 -0.407481 0.899318 -0.158703
-0.69999999 17.70999908 -0.77999997 102 196 106 0.000000 0.000000 0.000000 0.000000 -60.708740 0.000000 131.000000 -0.371603 0.928370 0.006385
-0.70999998 17.68000031 -0.80000001 102 196 106 0.000000 0.000000 0.000000 0.000000 -60.708740 0.000000 131.000000 -0.335162 0.888254 -0.314120
-0.70999998 17.70999908 -0.81000000 102 196 106 0.000000 0.000000 0.000000 0.000000 -60.708740 0.000000 131.000000 -0.300181 0.936511 -0.181215
-0.75000000 17.63999939 -0.69999999 102 196 106 0.000000 0.000000 0.000000 0.000000 -60.708740 0.000000 131.000000 -0.650248 0.673178 0.352149
-0.74000001 17.63999939 -0.69999999 102 196 106 0.000000 0.000000 0.000000 0.000000 -60.708740 0.000000 131.000000 -0.594441 0.750622 0.288455
-0.74000001 17.63999939 -0.70999998 102 196 106 0.000000 0.000000 0.000000 0.000000 -60.708740 0.000000 131.000000 -0.584429 0.806656 -0.088025
-0.74000001 17.63999939 -0.76999998 102 196 106 0.000000 0.000000 0.000000 0.000000 -60.708740 0.000000 131.000000 -0.347700 0.933019 -0.092631
-0.74000001 17.63999939 -0.76999998 102 196 106 0.000000 0.000000 0.000000 0.000000 -60.708740 0.000000 131.000000 -0.347700 0.933019 -0.092631
-0.74000001 17.61000061 -0.70999998 102 196 106 0.000000 0.000000 0.000000 0.000000 -60.708740 0.000000 131.000000 -0.692088 0.639978 0.333831
-0.75000000 17.61000061 -0.70999998 102 196 106 0.000000 0.000000 0.000000 0.000000 -60.708740 0.000000 131.000000 -0.540913 0.835169 0.099528
-0.74000001 17.67000008 -0.79000002 102 196 106 0.000000 0.000000 0.000000 0.000000 -60.708740 0.000000 131.000000 -0.450811 0.892258 0.025417
-0.75000000 17.62999916 -0.81999999 102 196 106 0.000000 0.000000 0.000000 0.000000 -60.708740 0.000000 131.000000 -0.572215 0.810516 -0.125034
-0.75000000 17.60000038 -0.80000001 102 196 106 0.000000 0.000000 0.000000 0.000000 -60.708740 0.000000 131.000000 -0.463515 0.884644 0.050590
-0.75000000 17.61000061 -0.85000002 102 196 106 0.000000 0.000000 0.000000 0.000000 -60.708740 0.000000 131.000000 -0.642481 0.766300 -0.001376
-0.69000000 17.75000000 -0.93000001 102 196 106 0.000000 0.000000 0.000000 0.000000 -60.708740 0.000000 131.000000 -0.116598 0.923181 -0.366254
-0.69000000 17.75000000 -0.92000002 102 196 106 0.000000 0.000000 0.000000 0.000000 -60.708740 0.000000 131.000000 -0.051255 0.980995 0.187140
-0.70999998 17.68000031 -0.89999998 102 196 106 0.000000 0.000000 0.000000 0.000000 -60.708740 0.000000 131.000000 -0.415813 0.866658 -0.275686
-0.74000001 17.68000031 -0.91000003 102 196 106 0.000000 0.000000 0.000000 0.000000 -60.708740 0.000000 131.000000 0.055248 0.971136 -0.232041
-0.72000003 17.70000076 -0.94999999 102 196 106 0.000000 0.000000 0.000000 0.000000 -60.708740 0.000000 131.000000 -0.436168 0.876771 -0.202559
-0.73000002 17.68000031 -1.01999998 102 196 106 0.000000 0.000000 0.000000 0.000000 -60.708740 0.000000 131.000000 -0.297503 0.950175 -0.093052
-0.74000001 17.65999985 -0.89999998 102 196 106 0.000000 0.000000 0.000000 0.000000 -60.708740 0.000000 131.000000 -0.097074 0.995277 -0.001067
-0.75000000 17.60000038 -0.87000000 102 196 106 0.000000 0.000000 0.000000 0.000000 -60.708740 0.000000 131.000000 -0.146036 0.980526 0.131309
-0.75000000 17.60000038 -0.87000000 102 196 106 0.000000 0.000000 0.000000 0.000000 -60.708740 0.000000 131.000000 -0.146036 0.980526 0.131309
-0.74000001 17.65999985 -0.97000003 102 196 106 0.000000 0.000000 0.000000 0.000000 -60.708740 0.000000 131.000000 -0.329665 0.920494 0.209787
-0.74000001 17.64999962 -1.00999999 102 196 106 0.000000 0.000000 0.000000 0.000000 -60.708740 0.000000 131.000000 -0.243868 0.969407 0.027905
-0.74000001 17.65999985 -0.97000003 102 196 106 0.000000 0.000000 0.000000 0.000000 -60.708740 0.000000 131.000000 -0.329665 0.920494 0.209787
-0.74000001 17.64999962 -1.00999999 102 196 106 0.000000 0.000000 0.000000 0.000000 -60.708740 0.000000 131.000000 -0.243868 0.969407 0.027905
-0.75000000 17.64999962 -1.00999999 102 196 106 0.000000 0.000000 0.000000 0.000000 -60.708740 0.000000 131.000000 -0.518010 0.855192 0.017675
-0.74000001 17.44000053 -0.70999998 102 196 106 0.000000 0.000000 0.000000 0.000000 -60.708740 0.000000 131.000000 0.835820 0.307769 -0.454624
-0.75000000 17.67000008 -1.05999994 102 196 106 0.000000 0.000000 0.000000 0.000000 -60.708740 0.000000 131.000000 -0.266887 0.950868 0.156913
-0.73000002 17.68000031 -1.32000005 102 196 106 0.000000 0.000000 0.000000 0.000000 -60.708740 0.000000 131.000000 -0.085223 0.995003 0.052019
-0.44999999 17.14999962 -0.72000003 102 196 106 0.000000 0.000000 0.000000 0.000000 -60.708740 0.000000 131.000000 -0.527991 0.847307 0.057421
-0.41999999 17.12999916 -0.69999999 102 196 106 0.000000 0.000000 0.000000 0.000000 -60.708740 0.000000 131.000000 -0.551270 0.814067 -0.182750
-0.41999999 17.12999916 -0.79000002 102 196 106 0.000000 0.000000 0.000000 0.000000 -60.708740 0.000000 131.000000 -0.634102 0.726277 0.265401
-0.41999999 17.15999985 -0.82999998 102 196 106 0.000000 0.000000 0.000000 0.000000 -60.708740 0.000000 131.000000 -0.443649 0.808818 0.385991
-0.46000001 17.13999939 -0.80000001 102 196 106 0.000000 0.000000 0.000000 0.000000 -60.708740 0.000000 131.000000 -0.382080 0.904015 -0.191761
-0.52999997 17.18000031 -0.74000001 102 196 106 0.000000 0.000000 0.000000 0.000000 -60.708740 0.000000 131.000000 -0.491959 0.827174 -0.271586
-0.56999999 17.18000031 -0.70999998 102 196 106 0.000000 0.000000 0.000000 0.000000 -60.708740 0.000000 131.000000 -0.364582 0.891366 -0.269344
-0.56000000 17.17000008 -0.74000001 102 196 106 0.000000 0.000000 0.000000 0.000000 -60.708740 0.000000 131.000000 -0.157789 0.977795 -0.137910
-0.55000001 17.19000053 -0.76999998 102 196 106 0.000000 0.000000 0.000000 0.000000 -60.708740 0.000000 131.000000 -0.574928 0.812430 -0.097028
-0.55000001 17.19000053 -0.76999998 102 196 106 0.000000 0.000000 0.000000 0.000000 -60.708740 0.000000 131.000000 -0.574928 0.812430 -0.097028
-0.54000002 17.17000008 -0.77999997 102 196 106 0.000000 0.000000 0.000000 0.000000 -60.708740 0.000000 131.000000 -0.488539 0.796079 0.357194
-0.56999999 17.18000031 -0.77999997 102 196 106 0.000000 0.000000 0.000000 0.000000 -60.708740 0.000000 131.000000 -0.313981 0.949389 0.008687
-0.55000001 17.15999985 -0.76999998 102 196 106 0.000000 0.000000 0.000000 0.000000 -60.708740 0.000000 131.000000 -0.219803 0.957810 -0.185168
-0.51999998 17.15999985 -0.74000001 102 196 106 0.000000 0.000000 0.000000 0.000000 -60.708740 0.000000 131.000000 -0.613850 0.781665 -0.110405
-0.50999999 17.12999916 -0.85000002 102 196 106 0.000000 0.000000 0.000000 0.000000 -60.708740 0.000000 131.000000 -0.505696 0.853452 -0.126062
-0.55000001 17.15999985 -0.77999997 102 196 106 0.000000 0.000000 0.000000 0.000000 -60.708740 0.000000 131.000000 -0.046731 0.996558 0.068466
-0.49000001 17.20000076 -0.89999998 102 196 106 0.000000 0.000000 0.000000 0.000000 -60.708740 0.000000 131.000000 -0.410046 0.898671 0.155732
-0.47000000 17.13999939 -0.86000001 102 196 106 0.000000 0.000000 0.000000 0.000000 -60.708740 0.000000 131.000000 -0.310895 0.915334 -0.255946
-0.46000001 17.14999962 -0.88000000 102 196 106 0.000000 0.000000 0.000000 0.000000 -60.708740 0.000000 131.000000 -0.551215 0.834309 -0.009527
-0.46000001 17.14999962 -0.86000001 102 196 106 0.000000 0.000000 0.000000 0.000000 -60.708740 0.000000 131.000000 -0.667796 0.674264 -0.315303
-0.50000000 17.12999916 -0.98000002 102 196 106 0.000000 0.000000 0.000000 0.000000 -60.708740 0.000000 131.000000 -0.354104 0.929353 0.104467
-0.50000000 17.12999916 -0.98000002 102 196 106 0.000000 0.000000 0.000000 0.000000 -60.708740 0.000000 131.000000 -0.354104 0.929353 0.104467
-0.52999997 17.14999962 -0.95999998 102 196 106 0.000000 0.000000 0.000000 0.000000 -60.708740 0.000000 131.000000 0.719094 -0.689922 -0.083141
-0.52999997 17.13999939 -0.98000002 102 196 106 0.000000 0.000000 0.000000 0.000000 -60.708740 0.000000 131.000000 -0.177764 0.983001 0.045913
-0.50999999 17.12999916 -1.00000000 102 196 106 0.000000 0.000000 0.000000 0.000000 -60.708740 0.000000 131.000000 -0.342417 0.896806 -0.280159
-0.55000001 17.14999962 -1.00000000 102 196 106 0.000000 0.000000 0.000000 0.000000 -60.708740 0.000000 131.000000 0.668659 -0.738585 0.085950
-0.73000002 17.28000069 -0.70999998 102 196 106 0.000000 0.000000 0.000000 0.000000 -60.708740 0.000000 131.000000 0.498295 0.867007 -0.001336
-0.75000000 17.29000092 -0.76999998 102 196 106 0.000000 0.000000 0.000000 0.000000 -60.708740 0.000000 131.000000 0.719943 0.537889 -0.438586
-0.73000002 17.26000023 -0.81000000 102 196 106 0.000000 0.000000 0.000000 0.000000 -60.708740 0.000000 131.000000 0.440533 0.825802 -0.352111
-0.74000001 17.26000023 -0.81999999 102 196 106 0.000000 0.000000 0.000000 0.000000 -60.708740 0.000000 131.000000 0.555233 0.769645 -0.315219
-0.73000002 17.26000023 -0.81000000 102 196 106 0.000000 0.000000 0.000000 0.000000 -60.708740 0.000000 131.000000 0.440533 0.825802 -0.352111
-0.74000001 17.26000023 -0.92000002 102 196 106 0.000000 0.000000 0.000000 0.000000 -60.708740 0.000000 131.000000 0.452956 0.849100 -0.271773
-0.74000001 17.26000023 -0.91000003 102 196 106 0.000000 0.000000 0.000000 0.000000 -60.708740 0.000000 131.000000 0.379023 0.924605 0.038033
-0.74000001 17.26000023 -0.91000003 102 196 106 0.000000 0.000000 0.000000 0.000000 -60.708740 0.000000 131.000000 0.379023 0.924605 0.038033
-0.62000000 17.19000053 -0.72000003 102 196 106 0.000000 0.000000 0.000000 0.000000 -60.708740 0.000000 131.000000 -0.116232 0.992950 0.023246
-0.58999997 17.17000008 -0.74000001 102 196 106 0.000000 0.000000 0.000000 0.000000 -60.708740 0.000000 131.000000 -0.032014 0.978211 -0.205128
-0.62000000 17.19000053 -0.75000000 102 196 106 0.000000 0.000000 0.000000 0.000000 -60.708740 0.000000 131.000000 -0.023465 0.959611 -0.280350
-0.64999998 17.20999908 -0.73000002 102 196 106 0.000000 0.000000 0.000000 0.000000 -60.708740 0.000000 131.000000 0.032966 0.968235 0.247858
-0.64999998 17.21999931 -0.74000001 102 196 106 0.000000 0.000000 0.000000 0.000000 -60.708740 0.000000 131.000000 0.061453 0.964430 0.257098
-0.61000001 17.18000031 -0.79000002 102 196 106 0.000000 0.000000 0.000000 0.000000 -60.708740 0.000000 131.000000 0.061824 0.996784 -0.050978
-0.61000001 17.20000076 -0.80000001 102 196 106 0.000000 0.000000 0.000000 0.000000 -60.708740 0.000000 131.000000 0.027562 0.914812 -0.402937
-0.60000002 17.18000031 -0.80000001 102 196 106 0.000000 0.000000 0.000000 0.000000 -60.708740 0.000000 131.000000 -0.003483 0.978655 -0.205483
-0.60000002 17.18000031 -0.80000001 102 196 106 0.000000 0.000000 0.000000 0.000000 -60.708740 0.000000 131.000000 -0.003483 0.978655 -0.205483
-0.62000000 17.19000053 -0.81999999 102 196 106 0.000000 0.000000 0.000000 0.000000 -60.708740 0.000000 131.000000 0.015929 0.997185 0.073276
-0.63000000 17.19000053 -0.81999999 102 196 106 0.000000 0.000000 0.000000 0.000000 -60.708740 0.000000 131.000000 -0.326056 0.901448 0.284745
-0.63000000 17.20000076 -0.85000002 102 196 106 0.000000 0.000000 0.000000 0.000000 -60.708740 0.000000 131.000000 0.016710 0.929319 -0.368900
-0.69000000 17.20999908 -0.73000002 102 196 106 0.000000 0.000000 0.000000 0.000000 -60.708740 0.000000 131.000000 0.066656 0.978025 0.197544
-0.68000001 17.23999977 -0.70999998 102 196 106 0.000000 0.000000 0.000000 0.000000 -60.708740 0.000000 131.000000 0.089016 0.986302 0.138866
-0.70999998 17.23999977 -0.76999998 102 196 106 0.000000 0.000000 0.000000 0.000000 -60.708740 0.000000 131.000000 0.283579 0.955956 -0.075707
-0.68000001 17.20999908 -0.76999998 102 196 106 0.000000 0.000000 0.000000 0.000000 -60.708740 0.000000 131.000000 -0.298550 0.953595 0.039051
-0.73000002 17.25000000 -0.73000002 102 196 106 0.000000 0.000000 0.000000 0.000000 -60.708740 0.000000 131.000000 0.337085 0.849704 -0.405434
-0.72000003 17.21999931 -0.75000000 102 196 106 0.000000 0.000000 0.000000 0.000000 -60.708740 0.000000 131.000000 0.085820 0.914054 -0.396408
-0.69000000 17.22999954 -0.81000000 102 196 106 0.000000 0.000000 0.000000 0.000000 -60.708740 0.000000 131.000000 -0.035572 0.987997 -0.150322
-0.68000001 17.20999908 -0.85000002 102 196 106 0.000000 0.000000 0.000000 0.000000 -60.708740 0.000000 131.000000 0.300985 0.949861 0.084693
-0.69000000 17.20999908 -0.82999998 102 196 106 0.000000 0.000000 0.000000 0.000000 -60.708740 0.000000 131.000000 0.072353 0.996742 -0.035637
-0.69000000 17.22999954 -0.81999999 102 196 106 0.000000 0.000000 0.000000 0.000000 -60.708740 0.000000 131.000000 0.223163 0.971196 -0.083530
-0.67000002 17.20000076 -0.83999997 102 196 106 0.000000 0.000000 0.000000 0.000000 -60.708740 0.000000 131.000000 0.017048 0.999814 -0.009025
-0.74000001 17.25000000 -0.79000002 102 196 106 0.000000 0.000000 0.000000 0.000000 -60.708740 0.000000 131.000000 0.273682 0.942070 -0.193915
-0.72000003 17.25000000 -0.85000002 102 196 106 0.000000 0.000000 0.000000 0.000000 -60.708740 0.000000 131.000000 0.301575 0.937775 0.172132
-0.74000001 17.25000000 -0.82999998 102 196 106 0.000000 0.000000 0.000000 0.000000 -60.708740 0.000000 131.000000 0.598441 0.684643 -0.416091
-0.72000003 17.25000000 -0.83999997 102 196 106 0.000000 0.000000 0.000000 0.000000 -60.708740 0.000000 131.000000 0.220256 0.957111 -0.188218
-0.60000002 17.17000008 -0.88999999 102 196 106 0.000000 0.000000 0.000000 0.000000 -60.708740 0.000000 131.000000 -0.237799 0.971308 0.003549
-0.62000000 17.17000008 -0.87000000 102 196 106 0.000000 0.000000 0.000000 0.000000 -60.708740 0.000000 131.000000 -0.242348 0.928292 -0.282031
-0.61000001 17.17000008 -0.88000000 102 196 106 0.000000 0.000000 0.000000 0.000000 -60.708740 0.000000 131.000000 -0.122368 0.901588 -0.414927
-0.62000000 17.17000008 -0.91000003 102 196 106 0.000000 0.000000 0.000000 0.000000 -60.708740 0.000000 131.000000 -0.010234 0.985877 0.167156
-0.58999997 17.18000031 -0.92000002 102 196 106 0.000000 0.000000 0.000000 0.000000 -60.708740 0.000000 131.000000 -0.090306 0.995543 0.027201
-0.63000000 17.17000008 -0.89999998 102 196 106 0.000000 0.000000 0.000000 0.000000 -60.708740 0.000000 131.000000 0.155351 0.987671 0.019277
-0.63000000 17.19000053 -0.87000000 102 196 106 0.000000 0.000000 0.000000 0.000000 -60.708740 0.000000 131.000000 -0.318837 0.946183 0.055506
-0.64999998 17.19000053 -0.89999998 102 196 106 0.000000 0.000000 0.000000 0.000000 -60.708740 0.000000 131.000000 0.164852 0.975267 0.147234
-0.60000002 17.18000031 -0.98000002 102 196 106 0.000000 0.000000 0.000000 0.000000 -60.708740 0.000000 131.000000 -0.155862 0.955152 0.251777
-0.61000001 17.18000031 -0.94999999 102 196 106 0.000000 0.000000 0.000000 0.000000 -60.708740 0.000000 131.000000 -0.197746 0.920444 -0.337164
-0.61000001 17.18000031 -1.00000000 102 196 106 0.000000 0.000000 0.000000 0.000000 -60.708740 0.000000 131.000000 -0.166265 0.979115 -0.117001
-0.61000001 17.18000031 -1.00000000 102 196 106 0.000000 0.000000 0.000000 0.000000 -60.708740 0.000000 131.000000 -0.166265 0.979115 -0.117001
-0.64999998 17.18000031 -0.98000002 102 196 106 0.000000 0.000000 0.000000 0.000000 -60.708740 0.000000 131.000000 -0.001244 0.944109 -0.329630
-0.63000000 17.19000053 -0.95999998 102 196 106 0.000000 0.000000 0.000000 0.000000 -60.708740 0.000000 131.000000 -0.431535 0.899825 0.063981
-0.64999998 17.18000031 -0.98000002 102 196 106 0.000000 0.000000 0.000000 0.000000 -60.708740 0.000000 131.000000 -0.001244 0.944109 -0.329630
-0.64999998 17.20000076 -0.95999998 102 196 106 0.000000 0.000000 0.000000 0.000000 -60.708740 0.000000 131.000000 0.052738 0.985616 -0.160558
-0.66000003 17.17000008 -0.97000003 102 196 106 0.000000 0.000000 0.000000 0.000000 -60.708740 0.000000 131.000000 -0.198831 0.956790 0.212175
-0.66000003 17.18000031 -1.00000000 102 196 106 0.000000 0.000000 0.000000 0.000000 -60.708740 0.000000 131.000000 0.091454 0.994974 -0.040769
-0.61000001 17.15999985 -0.97000003 102 196 106 0.000000 0.000000 0.000000 0.000000 -60.708740 0.000000 131.000000 -0.039630 0.976344 0.212562
-0.62000000 17.15999985 -0.98000002 102 196 106 0.000000 0.000000 0.000000 0.000000 -60.708740 0.000000 131.000000 0.028689 0.997752 0.060566
-0.61000001 17.15999985 -0.97000003 102 196 106 0.000000 0.000000 0.000000 0.000000 -60.708740 0.000000 131.000000 -0.039630 0.976344 0.212562
-0.62000000 17.15999985 -0.98000002 102 196 106 0.000000 0.000000 0.000000 0.000000 -60.708740 0.000000 131.000000 0.028689 0.997752 0.060566
-0.69000000 17.21999931 -0.89999998 102 196 106 0.000000 0.000000 0.000000 0.000000 -60.708740 0.000000 131.000000 -0.020336 0.860883 -0.508396
-0.70999998 17.21999931 -0.88999999 102 196 106 0.000000 0.000000 0.000000 0.000000 -60.708740 0.000000 131.000000 0.118030 0.985970 -0.118030
-0.72000003 17.23999977 -0.88999999 102 196 106 0.000000 0.000000 0.000000 0.000000 -60.708740 0.000000 131.000000 0.204961 0.975711 -0.077321
-0.74000001 17.23999977 -0.87000000 102 196 106 0.000000 0.000000 0.000000 0.000000 -60.708740 0.000000 131.000000 0.225723 0.821508 -0.523616
-0.74000001 17.25000000 -0.86000001 102 196 106 0.000000 0.000000 0.000000 0.000000 -60.708740 0.000000 131.000000 0.465725 0.730907 -0.498873
-0.75000000 17.23999977 -0.91000003 102 196 106 0.000000 0.000000 0.000000 0.000000 -60.708740 0.000000 131.000000 0.304770 0.943847 -0.127547
-0.75000000 17.23999977 -0.91000003 102 196 106 0.000000 0.000000 0.000000 0.000000 -60.708740 0.000000 131.000000 0.304770 0.943847 -0.127547
-0.73000002 17.20999908 -0.92000002 102 196 106 0.000000 0.000000 0.000000 0.000000 -60.708740 0.000000 131.000000 0.298664 0.932450 -0.203316
-0.75000000 17.25000000 -0.94000000 102 196 106 0.000000 0.000000 0.000000 0.000000 -60.708740 0.000000 131.000000 0.508965 0.812778 -0.283454
-0.70999998 17.22999954 -0.95999998 102 196 106 0.000000 0.000000 0.000000 0.000000 -60.708740 0.000000 131.000000 0.152930 0.932734 -0.326526
-0.69000000 17.21999931 -0.95999998 102 196 106 0.000000 0.000000 0.000000 0.000000 -60.708740 0.000000 131.000000 0.158997 0.933244 -0.322142
-0.70999998 17.22999954 -0.94999999 102 196 106 0.000000 0.000000 0.000000 0.000000 -60.708740 0.000000 131.000000 0.123375 0.970462 -0.207320
-0.69000000 17.20999908 -1.00999999 102 196 106 0.000000 0.000000 0.000000 0.000000 -60.708740 0.000000 131.000000 -0.481699 0.838741 -0.253931
-0.70999998 17.20000076 -0.94999999 102 196 106 0.000000 0.000000 0.000000 0.000000 -60.708740 0.000000 131.000000 0.262787 0.938526 -0.223856
-0.68000001 17.19000053 -0.97000003 102 196 106 0.000000 0.000000 0.000000 0.000000 -60.708740 0.000000 131.000000 -0.369766 0.928924 0.019326
-0.67000002 17.20000076 -0.95999998 102 196 106 0.000000 0.000000 0.000000 0.000000 -60.708740 0.000000 131.000000 0.003506 0.975822 0.218537
-0.67000002 17.20000076 -1.00999999 102 196 106 0.000000 0.000000 0.000000 0.000000 -60.708740 0.000000 131.000000 -0.526096 0.846575 -0.080829
-0.69999999 17.20000076 -1.00000000 102 196 106 0.000000 0.000000 0.000000 0.000000 -60.708740 0.000000 131.000000 -0.188004 0.866004 -0.463349
-0.74000001 17.23999977 -0.98000002 102 196 106 0.000000 0.000000 0.000000 0.000000 -60.708740 0.000000 131.000000 0.133679 0.990994 -0.007734
-0.72000003 17.21999931 -0.97000003 102 196 106 0.000000 0.000000 0.000000 0.000000 -60.708740 0.000000 131.000000 0.083889 0.970362 -0.226627
-0.75000000 17.23999977 -0.95999998 102 196 106 0.000000 0.000000 0.000000 0.000000 -60.708740 0.000000 131.000000 0.442341 0.822849 -0.356726
-0.72000003 17.25000000 -0.97000003 102 196 106 0.000000 0.000000 0.000000 0.000000 -60.708740 0.000000 131.000000 -0.084823 0.965972 0.244342
-0.72000003 17.22999954 -0.94999999 102 196 106 0.000000 0.000000 0.000000 0.000000 -60.708740 0.000000 131.000000 -0.288396 0.954912 -0.070497
-0.73000002 17.21999931 -0.95999998 102 196 106 0.000000 0.000000 0.000000 0.000000 -60.708740 0.000000 131.000000 -0.300720 0.953712 0.001227
-0.74000001 17.20999908 -0.98000002 102 196 106 0.000000 0.000000 0.000000 0.000000 -60.708740 0.000000 131.000000 0.475096 0.837222 -0.270820
-0.74000001 17.20999908 -1.00000000 102 196 106 0.000000 0.000000 0.000000 0.000000 -60.708740 0.000000 131.000000 0.258159 0.965974 0.015756
-0.73000002 17.19000053 -0.98000002 102 196 106 0.000000 0.000000 0.000000 0.000000 -60.708740 0.000000 131.000000 -0.003600 0.966129 0.258034
-0.44000000 17.15999985 -1.10000002 102 196 106 0.000000 0.000000 0.000000 0.000000 -60.708740 0.000000 131.000000 0.823180 -0.388592 -0.413969
-0.44000000 17.12000084 -1.02999997 102 196 106 0.000000 0.000000 0.000000 0.000000 -60.708740 0.000000 131.000000 -0.618804 0.713005 0.329704
-0.50000000 17.14999962 -1.04999995 102 196 106 0.000000 0.000000 0.000000 0.000000 -60.708740 0.000000 131.000000 0.895195 -0.445626 -0.006573
-0.50000000 17.12999916 -1.09000003 102 196 106 0.000000 0.000000 0.000000 0.000000 -60.708740 0.000000 131.000000 -0.550824 0.821040 0.149955
-0.50000000 17.12999916 -1.10000002 102 196 106 0.000000 0.000000 0.000000 0.000000 -60.708740 0.000000 131.000000 0.749497 -0.651543 -0.117248
-0.50000000 17.11000061 -1.05999994 102 196 106 0.000000 0.000000 0.000000 0.000000 -60.708740 0.000000 131.000000 -0.696887 0.699924 -0.156382
-0.49000001 17.12000084 -1.05999994 102 196 106 0.000000 0.000000 0.000000 0.000000 -60.708740 0.000000 131.000000 -0.447499 0.893653 -0.033596
-0.43000001 17.12000084 -1.13000000 102 196 106 0.000000 0.000000 0.000000 0.000000 -60.708740 0.000000 131.000000 0.701001 -0.639481 -0.315693
-0.47999999 17.11000061 -1.16999996 102 196 106 0.000000 0.000000 0.000000 0.000000 -60.708740 0.000000 131.000000 0.828004 -0.560642 0.009549
-0.50000000 17.12000084 -1.17999995 102 196 106 0.000000 0.000000 0.000000 0.000000 -60.708740 0.000000 131.000000 -0.565850 0.822670 -0.055033
-0.50000000 17.12000084 -1.15999997 102 196 106 0.000000 0.000000 0.000000 0.000000 -60.708740 0.000000 131.000000 -0.521909 0.847923 -0.092943
-0.47000000 17.11000061 -1.15999997 102 196 106 0.000000 0.000000 0.000000 0.000000 -60.708740 0.000000 131.000000 -0.574829 0.778447 0.252173
-0.52999997 17.12999916 -1.17999995 102 196 106 0.000000 0.000000 0.000000 0.000000 -60.708740 0.000000 131.000000 -0.538621 0.830804 0.140189
-0.52999997 17.12000084 -1.14999998 102 196 106 0.000000 0.000000 0.000000 0.000000 -60.708740 0.000000 131.000000 0.593027 -0.777867 -0.207945
-0.41999999 17.09000015 -1.24000001 102 196 106 0.000000 0.000000 0.000000 0.000000 -60.708740 0.000000 131.000000 -0.429236 0.866056 0.256328
-0.52999997 17.15999985 -1.25000000 102 196 106 0.000000 0.000000 0.000000 0.000000 -60.708740 0.000000 131.000000 0.824587 -0.480357 -0.298854
-0.54000002 17.11000061 -1.22000003 102 196 106 0.000000 0.000000 0.000000 0.000000 -60.708740 0.000000 131.000000 -0.634974 0.760475 0.135959
-0.54000002 17.12000084 -1.26999998 102 196 106 0.000000 0.000000 0.000000 0.000000 -60.708740 0.000000 131.000000 -0.472945 0.861382 0.185323
-0.55000001 17.13999939 -1.24000001 102 196 106 0.000000 0.000000 0.000000 0.000000 -60.708740 0.000000 131.000000 -0.423034 0.885591 -0.191756
-0.55000001 17.13999939 -1.24000001 102 196 106 0.000000 0.000000 0.000000 0.000000 -60.708740 0.000000 131.000000 -0.423034 0.885591 -0.191756
-0.57999998 17.12999916 -1.26999998 102 196 106 0.000000 0.000000 0.000000 0.000000 -60.708740 0.000000 131.000000 -0.545176 0.803009 -0.240747
-0.60000002 17.17000008 -1.04999995 102 196 106 0.000000 0.000000 0.000000 0.000000 -60.708740 0.000000 131.000000 0.800486 -0.589754 0.106829
-0.62000000 17.18000031 -1.02999997 102 196 106 0.000000 0.000000 0.000000 0.000000 -60.708740 0.000000 131.000000 -0.119341 0.973573 -0.194715
-0.63000000 17.17000008 -1.02999997 102 196 106 0.000000 0.000000 0.000000 0.000000 -60.708740 0.000000 131.000000 0.718218 -0.692206 0.070810
-0.66000003 17.18000031 -1.03999996 102 196 106 0.000000 0.000000 0.000000 0.000000 -60.708740 0.000000 131.000000 -0.213585 0.963096 0.163792
-0.64999998 17.17000008 -1.17999995 102 196 106 0.000000 0.000000 0.000000 0.000000 -60.708740 0.000000 131.000000 -0.242862 0.954003 -0.175773
