//X Y Z R G B PointSourceId ScanDirectionFlag NumberOfReturns ReturnNumber GpsTime Intensity Classification Nx Ny Nz
-6.03000021 -7.98000002 0.03000000 110 48 176 0.000000 0.000000 0.000000 0.000000 -60.708740 0.000000 191.000000 0.183633 0.982842 -0.017324
-5.98000002 -8.07999992 0.11000000 110 48 176 0.000000 0.000000 0.000000 0.000000 -60.708740 0.000000 191.000000 0.337327 0.928691 -0.154088
-5.98999977 -8.06999969 0.12000000 110 48 176 0.000000 0.000000 0.000000 0.000000 -60.708740 0.000000 191.000000 0.483769 0.875072 -0.014741
-5.98000002 -8.07999992 0.11000000 110 48 176 0.000000 0.000000 0.000000 0.000000 -60.708740 0.000000 191.000000 0.337327 0.928691 -0.154088
-5.98000002 -8.09000015 0.14000000 110 48 176 0.000000 0.000000 0.000000 0.000000 -60.708740 0.000000 191.000000 -0.239997 0.966338 0.092697
-5.96999979 -8.06000042 0.14000000 110 48 176 0.000000 0.000000 0.000000 0.000000 -60.708740 0.000000 191.000000 0.304120 0.866512 0.395814
-5.96000004 -8.07999992 0.10000000 110 48 176 0.000000 0.000000 0.000000 0.000000 -60.708740 0.000000 191.000000 -0.148174 0.980885 0.126131
-6.01000023 -8.02000046 0.11000000 110 48 176 0.000000 0.000000 0.000000 0.000000 -60.708740 0.000000 191.000000 -0.069470 0.997167 -0.028857
-6.01000023 -8.02000046 0.11000000 110 48 176 0.000000 0.000000 0.000000 0.000000 -60.708740 0.000000 191.000000 -0.069470 0.997167 -0.028857
-6.01999998 -8.03999996 0.08000000 110 48 176 0.000000 0.000000 0.000000 0.000000 -60.708740 0.000000 191.000000 -0.228379 0.971535 -0.062958
-6.01999998 -8.02000046 0.09000000 110 48 176 0.000000 0.000000 0.000000 0.000000 -60.708740 0.000000 191.000000 0.041329 0.993007 0.110582
-6.03000021 -8.03999996 0.07000000 110 48 176 0.000000 0.000000 0.000000 0.000000 -60.708740 0.000000 191.000000 0.024284 0.936839 0.348918
-6.03000021 -8.07999992 0.11000000 110 48 176 0.000000 0.000000 0.000000 0.000000 -60.708740 0.000000 191.000000 -0.252695 0.963798 -0.085078
-6.01000023 -8.06000042 0.13000000 110 48 176 0.000000 0.000000 0.000000 0.000000 -60.708740 0.000000 191.000000 0.168973 0.968695 0.181872
-6.01000023 -8.06000042 0.14000000 110 48 176 0.000000 0.000000 0.000000 0.000000 -60.708740 0.000000 191.000000 -0.172579 0.947148 0.270420
-6.01000023 -8.06000042 0.13000000 110 48 176 0.000000 0.000000 0.000000 0.000000 -60.708740 0.000000 191.000000 0.168973 0.968695 0.181872
-6.00000000 -8.09000015 0.08000000 110 48 176 0.000000 0.000000 0.000000 0.000000 -60.708740 0.000000 191.000000 -0.082232 0.990261 0.112345
-6.00000000 -8.06999969 0.09000000 110 48 176 0.000000 0.000000 0.000000 0.000000 -60.708740 0.000000 191.000000 0.285357 0.846816 0.448859
-5.96999979 -8.06000042 0.06000000 110 48 176 0.000000 0.000000 0.000000 0.000000 -60.708740 0.000000 191.000000 0.014765 0.986983 -0.160143
-5.96999979 -8.06999969 -0.01000000 110 48 176 0.000000 0.000000 0.000000 0.000000 -60.708740 0.000000 191.000000 0.264842 0.950472 0.162669
-5.98000002 -8.06999969 -0.02000000 110 48 176 0.000000 0.000000 0.000000 0.000000 -60.708740 0.000000 191.000000 -0.137659 0.987147 0.081184
-6.01999998 -8.03999996 0.06000000 110 48 176 0.000000 0.000000 0.000000 0.000000 -60.708740 0.000000 191.000000 -0.087815 0.982810 0.162398
-6.01999998 -8.09000015 -0.01000000 110 48 176 0.000000 0.000000 0.000000 0.000000 -60.708740 0.000000 191.000000 -0.060249 0.952449 0.298682
-6.05000019 -8.00000000 0.09000000 110 48 176 0.000000 0.000000 0.000000 0.000000 -60.708740 0.000000 191.000000 -0.012141 0.859328 0.511280
-5.90999985 -8.25000000 0.56999999 110 48 176 0.000000 0.000000 0.000000 0.000000 -60.708740 0.000000 191.000000 0.840575 0.534130 -0.090215
-5.90999985 -8.23999977 0.57999998 110 48 176 0.000000 0.000000 0.000000 0.000000 -60.708740 0.000000 191.000000 0.646603 0.760793 -0.055668
-5.94000006 -8.26000023 0.64999998 110 48 176 0.000000 0.000000 0.000000 0.000000 -60.708740 0.000000 191.000000 0.550754 0.817877 -0.166577
-5.94999981 -8.25000000 0.56999999 110 48 176 0.000000 0.000000 0.000000 0.000000 -60.708740 0.000000 191.000000 0.878379 0.406907 0.250751
-5.94999981 -8.25000000 0.56999999 110 48 176 0.000000 0.000000 0.000000 0.000000 -60.708740 0.000000 191.000000 0.878379 0.406907 0.250751
-5.92999983 -8.23999977 0.58999997 110 48 176 0.000000 0.000000 0.000000 0.000000 -60.708740 0.000000 191.000000 0.733159 0.532158 0.423420
-5.92999983 -8.23999977 0.52999997 110 48 176 0.000000 0.000000 0.000000 0.000000 -60.708740 0.000000 191.000000 0.757317 0.641265 -0.123492
-5.94999981 -8.23999977 0.43000001 110 48 176 0.000000 0.000000 0.000000 0.000000 -60.708740 0.000000 191.000000 0.666256 0.745136 0.029580
-5.92000008 -8.26000023 0.46000001 110 48 176 0.000000 0.000000 0.000000 0.000000 -60.708740 0.000000 191.000000 0.754036 0.577183 0.313512
-5.90999985 -8.28999996 0.62000000 110 48 176 0.000000 0.000000 0.000000 0.000000 -60.708740 0.000000 191.000000 0.781920 0.623028 0.020907
-5.94999981 -8.32999992 0.61000001 110 48 176 0.000000 0.000000 0.000000 0.000000 -60.708740 0.000000 191.000000 0.871687 0.486426 0.059591
-5.94999981 -8.27000046 0.55000001 110 48 176 0.000000 0.000000 0.000000 0.000000 -60.708740 0.000000 191.000000 0.829641 0.548751 0.102800
-5.94000006 -8.28999996 0.52999997 110 48 176 0.000000 0.000000 0.000000 0.000000 -60.708740 0.000000 191.000000 0.568594 0.819402 0.072677
-5.92000008 -8.27999973 0.50000000 110 48 176 0.000000 0.000000 0.000000 0.000000 -60.708740 0.000000 191.000000 0.788725 0.519951 0.327969
-5.92999983 -8.27000046 0.50000000 110 48 176 0.000000 0.000000 0.000000 0.000000 -60.708740 0.000000 191.000000 0.850032 0.343432 0.399375
-5.92000008 -8.28999996 0.50999999 110 48 176 0.000000 0.000000 0.000000 0.000000 -60.708740 0.000000 191.000000 0.691132 0.712030 -0.123896
-5.92999983 -8.27999973 0.50999999 110 48 176 0.000000 0.000000 0.000000 0.000000 -60.708740 0.000000 191.000000 0.611415 0.752874 0.243623
-5.92000008 -8.35999966 0.63999999 110 48 176 0.000000 0.000000 0.000000 0.000000 -60.708740 0.000000 191.000000 0.982545 -0.085596 0.165164
-5.92999983 -8.35999966 0.58999997 110 48 176 0.000000 0.000000 0.000000 0.000000 -60.708740 0.000000 191.000000 0.988460 -0.116082 0.097322
-5.94999981 -8.43000031 0.60000002 110 48 176 0.000000 0.000000 0.000000 0.000000 -60.708740 0.000000 191.000000 0.904847 -0.425734 -0.001302
-5.94999981 -8.42000008 0.58999997 110 48 176 0.000000 0.000000 0.000000 0.000000 -60.708740 0.000000 191.000000 0.961151 -0.085749 -0.262365
-5.94999981 -8.40999985 0.51999998 110 48 176 0.000000 0.000000 0.000000 0.000000 -60.708740 0.000000 191.000000 0.986477 0.091187 0.136188
-5.82000017 -8.30000019 0.36000001 110 48 176 0.000000 0.000000 0.000000 0.000000 -60.708740 0.000000 191.000000 0.998783 0.048445 0.009277
-5.82999992 -8.31999969 0.34000000 110 48 176 0.000000 0.000000 0.000000 0.000000 -60.708740 0.000000 191.000000 0.977803 0.112491 -0.176771
-5.90999985 -8.27999973 0.47000000 110 48 176 0.000000 0.000000 0.000000 0.000000 -60.708740 0.000000 191.000000 0.592854 0.797791 0.109788
-5.92000008 -8.30000019 0.41999999 110 48 176 0.000000 0.000000 0.000000 0.000000 -60.708740 0.000000 191.000000 0.656738 0.733281 0.176049
-5.94999981 -8.31000042 0.47000000 110 48 176 0.000000 0.000000 0.000000 0.000000 -60.708740 0.000000 191.000000 0.977468 0.181653 0.107509
-5.88999987 -8.30000019 0.37000000 110 48 176 0.000000 0.000000 0.000000 0.000000 -60.708740 0.000000 191.000000 0.908078 0.157741 0.387958
-5.88000011 -8.30000019 0.36000001 110 48 176 0.000000 0.000000 0.000000 0.000000 -60.708740 0.000000 191.000000 0.898666 0.344957 0.270932
-5.88000011 -8.30000019 0.36000001 110 48 176 0.000000 0.000000 0.000000 0.000000 -60.708740 0.000000 191.000000 0.898666 0.344957 0.270932
-5.90999985 -8.27000046 0.37000000 110 48 176 0.000000 0.000000 0.000000 0.000000 -60.708740 0.000000 191.000000 0.583805 0.690254 0.427459
-5.90999985 -8.30000019 0.34999999 110 48 176 0.000000 0.000000 0.000000 0.000000 -60.708740 0.000000 191.000000 0.992154 -0.012113 0.124432
-5.90999985 -8.31000042 0.34000000 110 48 176 0.000000 0.000000 0.000000 0.000000 -60.708740 0.000000 191.000000 0.835069 0.549857 0.017826
-5.94999981 -8.31000042 0.31999999 110 48 176 0.000000 0.000000 0.000000 0.000000 -60.708740 0.000000 191.000000 0.971663 0.050111 0.230999
-5.90999985 -8.35000038 0.36000001 110 48 176 0.000000 0.000000 0.000000 0.000000 -60.708740 0.000000 191.000000 0.996509 0.001057 -0.083483
-5.96000004 -8.17000008 0.56999999 110 48 176 0.000000 0.000000 0.000000 0.000000 -60.708740 0.000000 191.000000 0.623830 0.775770 0.094962
-6.01999998 -8.10000038 0.63000000 110 48 176 0.000000 0.000000 0.000000 0.000000 -60.708740 0.000000 191.000000 0.190162 0.973478 0.127194
-5.96999979 -8.21000004 0.54000002 110 48 176 0.000000 0.000000 0.000000 0.000000 -60.708740 0.000000 191.000000 0.436066 0.899798 -0.014492
-5.96000004 -8.21000004 0.55000001 110 48 176 0.000000 0.000000 0.000000 0.000000 -60.708740 0.000000 191.000000 0.583926 0.777011 0.235127
-5.96999979 -8.21000004 0.54000002 110 48 176 0.000000 0.000000 0.000000 0.000000 -60.708740 0.000000 191.000000 0.436066 0.899798 -0.014492
-5.96000004 -8.21000004 0.50000000 110 48 176 0.000000 0.000000 0.000000 0.000000 -60.708740 0.000000 191.000000 0.623352 0.773664 -0.113471
-6.03000021 -8.11999989 0.47000000 110 48 176 0.000000 0.000000 0.000000 0.000000 -60.708740 0.000000 191.000000 -0.076148 0.980250 0.182513
-6.00000000 -8.10000038 0.40000001 110 48 176 0.000000 0.000000 0.000000 0.000000 -60.708740 0.000000 191.000000 0.428958 0.900400 -0.072635
-6.03000021 -8.10000038 0.44000000 110 48 176 0.000000 0.000000 0.000000 0.000000 -60.708740 0.000000 191.000000 0.011816 0.995753 0.091304
-6.03000021 -8.11999989 0.47000000 110 48 176 0.000000 0.000000 0.000000 0.000000 -60.708740 0.000000 191.000000 -0.076148 0.980250 0.182513
-6.00000000 -8.22999954 0.38000000 110 48 176 0.000000 0.000000 0.000000 0.000000 -60.708740 0.000000 191.000000 0.134823 0.982628 0.127535
-5.96999979 -8.31000042 0.50999999 110 48 176 0.000000 0.000000 0.000000 0.000000 -60.708740 0.000000 191.000000 0.710685 0.534262 0.457701
-6.00000000 -8.32999992 0.56000000 110 48 176 0.000000 0.000000 0.000000 0.000000 -60.708740 0.000000 191.000000 0.543805 0.834976 -0.084211
-5.96000004 -8.35999966 0.61000001 110 48 176 0.000000 0.000000 0.000000 0.000000 -60.708740 0.000000 191.000000 0.942087 0.219959 0.253160
-5.96999979 -8.43000031 0.61000001 110 48 176 0.000000 0.000000 0.000000 0.000000 -60.708740 0.000000 191.000000 0.908249 -0.418083 0.017038
-5.96000004 -8.43000031 0.61000001 110 48 176 0.000000 0.000000 0.000000 0.000000 -60.708740 0.000000 191.000000 0.838554 -0.511533 -0.187512
-5.96999979 -8.43000031 0.61000001 110 48 176 0.000000 0.000000 0.000000 0.000000 -60.708740 0.000000 191.000000 0.908249 -0.418083 0.017038
-5.96000004 -8.40999985 0.60000002 110 48 176 0.000000 0.000000 0.000000 0.000000 -60.708740 0.000000 191.000000 0.980402 0.001152 0.197002
-6.01999998 -8.42000008 0.57999998 110 48 176 0.000000 0.000000 0.000000 0.000000 -60.708740 0.000000 191.000000 0.920487 -0.379344 0.093816
-5.98000002 -8.38000011 0.50999999 110 48 176 0.000000 0.000000 0.000000 0.000000 -60.708740 0.000000 191.000000 0.994244 0.086116 -0.063748
-5.96000004 -8.40999985 0.56000000 110 48 176 0.000000 0.000000 0.000000 0.000000 -60.708740 0.000000 191.000000 0.865181 -0.501457 0.001337
-6.03000021 -8.35999966 0.49000001 110 48 176 0.000000 0.000000 0.000000 0.000000 -60.708740 0.000000 191.000000 0.915817 0.217093 0.337860
-6.03000021 -8.43000031 0.54000002 110 48 176 0.000000 0.000000 0.000000 0.000000 -60.708740 0.000000 191.000000 0.780192 -0.605139 -0.158453
-6.01999998 -8.43000031 0.56000000 110 48 176 0.000000 0.000000 0.000000 0.000000 -60.708740 0.000000 191.000000 0.850180 -0.411879 0.327949
-6.01999998 -8.39999962 0.50999999 110 48 176 0.000000 0.000000 0.000000 0.000000 -60.708740 0.000000 191.000000 0.999190 -0.021610 -0.033958
-6.01999998 -8.40999985 0.50999999 110 48 176 0.000000 0.000000 0.000000 0.000000 -60.708740 0.000000 191.000000 0.988549 -0.145476 0.040092
-6.09000015 -8.40999985 0.58999997 110 48 176 0.000000 0.000000 0.000000 0.000000 -60.708740 0.000000 191.000000 0.642776 0.741427 0.192679
-6.11999989 -8.43000031 0.57999998 110 48 176 0.000000 0.000000 0.000000 0.000000 -60.708740 0.000000 191.000000 0.621578 0.754885 0.209260
-6.07999992 -8.35999966 0.55000001 110 48 176 0.000000 0.000000 0.000000 0.000000 -60.708740 0.000000 191.000000 -0.351243 0.830067 0.433147
-6.03999996 -8.36999989 0.55000001 110 48 176 0.000000 0.000000 0.000000 0.000000 -60.708740 0.000000 191.000000 0.668315 0.738510 -0.089206
-6.07999992 -8.38000011 0.52999997 110 48 176 0.000000 0.000000 0.000000 0.000000 -60.708740 0.000000 191.000000 0.876183 -0.413294 0.247976
-6.07999992 -8.39000034 0.50999999 110 48 176 0.000000 0.000000 0.000000 0.000000 -60.708740 0.000000 191.000000 0.911050 0.071961 0.405967
-6.05000019 -8.43000031 0.50999999 110 48 176 0.000000 0.000000 0.000000 0.000000 -60.708740 0.000000 191.000000 -0.184218 0.982879 -0.003433
-6.05999994 -8.43000031 0.49000001 110 48 176 0.000000 0.000000 0.000000 0.000000 -60.708740 0.000000 191.000000 -0.414258 0.898271 0.146627
-5.96999979 -8.27999973 0.47999999 110 48 176 0.000000 0.000000 0.000000 0.000000 -60.708740 0.000000 191.000000 0.325046 0.944057 0.055685
-5.96999979 -8.27999973 0.47999999 110 48 176 0.000000 0.000000 0.000000 0.000000 -60.708740 0.000000 191.000000 0.325046 0.944057 0.055685
-6.03000021 -8.30000019 0.41999999 110 48 176 0.000000 0.000000 0.000000 0.000000 -60.708740 0.000000 191.000000 0.459313 0.727936 0.509058
-6.01999998 -8.31000042 0.41000000 110 48 176 0.000000 0.000000 0.000000 0.000000 -60.708740 0.000000 191.000000 0.403232 0.765650 0.501183
-6.01999998 -8.34000015 0.43000001 110 48 176 0.000000 0.000000 0.000000 0.000000 -60.708740 0.000000 191.000000 0.951873 0.244382 0.184974
-5.96999979 -8.30000019 0.37000000 110 48 176 0.000000 0.000000 0.000000 0.000000 -60.708740 0.000000 191.000000 0.679987 0.726984 0.095462
-6.00000000 -8.34000015 0.38999999 110 48 176 0.000000 0.000000 0.000000 0.000000 -60.708740 0.000000 191.000000 0.952664 0.274272 -0.131173
-5.98999977 -8.43000031 0.47000000 110 48 176 0.000000 0.000000 0.000000 0.000000 -60.708740 0.000000 191.000000 0.869826 -0.400638 0.287911
-5.96999979 -8.39999962 0.46000001 110 48 176 0.000000 0.000000 0.000000 0.000000 -60.708740 0.000000 191.000000 0.956359 0.051935 0.287541
-5.98000002 -8.40999985 0.47000000 110 48 176 0.000000 0.000000 0.000000 0.000000 -60.708740 0.000000 191.000000 0.842803 -0.437759 0.313130
-5.98999977 -8.43000031 0.41000000 110 48 176 0.000000 0.000000 0.000000 0.000000 -60.708740 0.000000 191.000000 0.893777 -0.442069 0.075744
-6.01999998 -8.35000038 0.47000000 110 48 176 0.000000 0.000000 0.000000 0.000000 -60.708740 0.000000 191.000000 0.646523 0.636551 0.420489
-6.01999998 -8.35999966 0.47000000 110 48 176 0.000000 0.000000 0.000000 0.000000 -60.708740 0.000000 191.000000 0.800978 0.558071 0.216772
-6.03000021 -8.36999989 0.46000001 110 48 176 0.000000 0.000000 0.000000 0.000000 -60.708740 0.000000 191.000000 0.993839 -0.110184 0.012000
-6.00000000 -8.38000011 0.46000001 110 48 176 0.000000 0.000000 0.000000 0.000000 -60.708740 0.000000 191.000000 0.984458 -0.114192 -0.133425
-6.03000021 -8.35000038 0.46000001 110 48 176 0.000000 0.000000 0.000000 0.000000 -60.708740 0.000000 191.000000 0.917933 0.348672 0.189279
-6.00000000 -8.38000011 0.46000001 110 48 176 0.000000 0.000000 0.000000 0.000000 -60.708740 0.000000 191.000000 0.984458 -0.114192 -0.133425
-6.01999998 -8.36999989 0.44000000 110 48 176 0.000000 0.000000 0.000000 0.000000 -60.708740 0.000000 191.000000 0.890436 0.175763 0.419798
-6.01999998 -8.36999989 0.44000000 110 48 176 0.000000 0.000000 0.000000 0.000000 -60.708740 0.000000 191.000000 0.890436 0.175763 0.419798
-6.01000023 -8.40999985 0.47999999 110 48 176 0.000000 0.000000 0.000000 0.000000 -60.708740 0.000000 191.000000 0.920366 -0.297217 -0.254142
-6.01999998 -8.42000008 0.47000000 110 48 176 0.000000 0.000000 0.000000 0.000000 -60.708740 0.000000 191.000000 -0.464616 0.837551 0.287471
-6.00000000 -8.43000031 0.43000001 110 48 176 0.000000 0.000000 0.000000 0.000000 -60.708740 0.000000 191.000000 0.900351 -0.435148 0.003920
-6.01000023 -8.39000034 0.43000001 110 48 176 0.000000 0.000000 0.000000 0.000000 -60.708740 0.000000 191.000000 0.949085 -0.306866 0.071214
-5.98999977 -8.35999966 0.38000000 110 48 176 0.000000 0.000000 0.000000 0.000000 -60.708740 0.000000 191.000000 0.961391 0.013437 -0.274858
-5.96999979 -8.36999989 0.33000001 110 48 176 0.000000 0.000000 0.000000 0.000000 -60.708740 0.000000 191.000000 0.930350 -0.267635 0.250642
-5.98000002 -8.39999962 0.38000000 110 48 176 0.000000 0.000000 0.000000 0.000000 -60.708740 0.000000 191.000000 -0.619822 0.784741 0.001374
-5.96999979 -8.39000034 0.34999999 110 48 176 0.000000 0.000000 0.000000 0.000000 -60.708740 0.000000 191.000000 -0.702132 0.710677 0.044150
-6.01000023 -8.38000011 0.36000001 110 48 176 0.000000 0.000000 0.000000 0.000000 -60.708740 0.000000 191.000000 0.946332 -0.321372 -0.034297
-6.01000023 -8.38000011 0.31999999 110 48 176 0.000000 0.000000 0.000000 0.000000 -60.708740 0.000000 191.000000 0.930519 -0.365239 -0.027103
-6.01000023 -8.39000034 0.36000001 110 48 176 0.000000 0.000000 0.000000 0.000000 -60.708740 0.000000 191.000000 0.738521 -0.607157 -0.293166
-6.00000000 -8.42000008 0.37000000 110 48 176 0.000000 0.000000 0.000000 0.000000 -60.708740 0.000000 191.000000 0.764544 -0.591142 0.256950
-6.01999998 -8.39999962 0.36000001 110 48 176 0.000000 0.000000 0.000000 0.000000 -60.708740 0.000000 191.000000 -0.544238 0.836749 -0.060471
-6.01999998 -8.39000034 0.31999999 110 48 176 0.000000 0.000000 0.000000 0.000000 -60.708740 0.000000 191.000000 -0.406831 0.911677 -0.057735
-6.01999998 -8.39000034 0.31999999 110 48 176 0.000000 0.000000 0.000000 0.000000 -60.708740 0.000000 191.000000 -0.406831 0.911677 -0.057735
-6.01999998 -8.42000008 0.34000000 110 48 176 0.000000 0.000000 0.000000 0.000000 -60.708740 0.000000 191.000000 -0.346805 0.932461 -0.101208
-6.01999998 -8.39999962 0.34000000 110 48 176 0.000000 0.000000 0.000000 0.000000 -60.708740 0.000000 191.000000 0.834513 -0.550365 0.026208
-6.01999998 -8.39000034 0.33000001 110 48 176 0.000000 0.000000 0.000000 0.000000 -60.708740 0.000000 191.000000 -0.647074 0.757585 0.085792
-6.01999998 -8.39999962 0.34000000 110 48 176 0.000000 0.000000 0.000000 0.000000 -60.708740 0.000000 191.000000 0.834513 -0.550365 0.026208
-6.03999996 -8.30000019 0.43000001 110 48 176 0.000000 0.000000 0.000000 0.000000 -60.708740 0.000000 191.000000 0.077638 0.911222 0.404533
-6.03999996 -8.42000008 0.44999999 110 48 176 0.000000 0.000000 0.000000 0.000000 -60.708740 0.000000 191.000000 -0.556056 0.804214 0.209861
-6.05999994 -8.40999985 0.40000001 110 48 176 0.000000 0.000000 0.000000 0.000000 -60.708740 0.000000 191.000000 -0.120918 0.976067 -0.180753
-6.05000019 -8.39999962 0.40000001 110 48 176 0.000000 0.000000 0.000000 0.000000 -60.708740 0.000000 191.000000 0.123190 0.893482 0.431873
-6.05999994 -8.40999985 0.43000001 110 48 176 0.000000 0.000000 0.000000 0.000000 -60.708740 0.000000 191.000000 -0.004048 0.846091 0.533024
-6.07000017 -8.40999985 0.43000001 110 48 176 0.000000 0.000000 0.000000 0.000000 -60.708740 0.000000 191.000000 0.593441 0.758022 0.270609
-6.03999996 -8.43000031 0.40000001 110 48 176 0.000000 0.000000 0.000000 0.000000 -60.708740 0.000000 191.000000 -0.568024 0.778869 0.265917
-6.03999996 -8.39000034 0.37000000 110 48 176 0.000000 0.000000 0.000000 0.000000 -60.708740 0.000000 191.000000 -0.334072 0.926734 -0.171928
-6.05000019 -8.39999962 0.38000000 110 48 176 0.000000 0.000000 0.000000 0.000000 -60.708740 0.000000 191.000000 -0.384812 0.921697 0.048928
-6.03999996 -8.39000034 0.38999999 110 48 176 0.000000 0.000000 0.000000 0.000000 -60.708740 0.000000 191.000000 -0.324977 0.936858 0.129175
-6.07999992 -8.42000008 0.36000001 110 48 176 0.000000 0.000000 0.000000 0.000000 -60.708740 0.000000 191.000000 0.337673 0.879767 0.334645
-6.05000019 -8.40999985 0.33000001 110 48 176 0.000000 0.000000 0.000000 0.000000 -60.708740 0.000000 191.000000 -0.286506 0.906535 0.310014
-6.05000019 -8.40999985 0.33000001 110 48 176 0.000000 0.000000 0.000000 0.000000 -60.708740 0.000000 191.000000 -0.286506 0.906535 0.310014
-5.94000006 -8.25000000 0.28999999 110 48 176 0.000000 0.000000 0.000000 0.000000 -60.708740 0.000000 191.000000 0.726930 0.465301 0.505042
-5.94999981 -8.28999996 0.31000000 110 48 176 0.000000 0.000000 0.000000 0.000000 -60.708740 0.000000 191.000000 0.723555 0.690096 -0.015335
-5.92999983 -8.27999973 0.31000000 110 48 176 0.000000 0.000000 0.000000 0.000000 -60.708740 0.000000 191.000000 0.944988 0.321891 -0.058173
-5.94999981 -8.27000046 0.25000000 110 48 176 0.000000 0.000000 0.000000 0.000000 -60.708740 0.000000 191.000000 0.960797 0.269631 0.064559
-5.94000006 -8.30000019 0.25000000 110 48 176 0.000000 0.000000 0.000000 0.000000 -60.708740 0.000000 191.000000 0.955250 0.256416 0.147473
-5.94999981 -8.31000042 0.31000000 110 48 176 0.000000 0.000000 0.000000 0.000000 -60.708740 0.000000 191.000000 0.976536 0.110434 0.184884
-5.90999985 -8.30000019 0.18000001 110 48 176 0.000000 0.000000 0.000000 0.000000 -60.708740 0.000000 191.000000 0.858334 0.464493 0.217966
-5.90999985 -8.31999969 0.17000000 110 48 176 0.000000 0.000000 0.000000 0.000000 -60.708740 0.000000 191.000000 0.905098 0.284039 0.316416
-5.92999983 -8.28999996 0.20000000 110 48 176 0.000000 0.000000 0.000000 0.000000 -60.708740 0.000000 191.000000 0.875981 0.241082 0.417776
-5.92000008 -8.30000019 0.18000001 110 48 176 0.000000 0.000000 0.000000 0.000000 -60.708740 0.000000 191.000000 0.752347 0.506482 0.421249
-5.94999981 -8.31000042 0.20000000 110 48 176 0.000000 0.000000 0.000000 0.000000 -60.708740 0.000000 191.000000 0.763755 0.579564 0.284225
-5.94999981 -8.36999989 0.28000000 110 48 176 0.000000 0.000000 0.000000 0.000000 -60.708740 0.000000 191.000000 0.904703 -0.399092 -0.149127
-5.94000006 -8.30000019 0.08000000 110 48 176 0.000000 0.000000 0.000000 0.000000 -60.708740 0.000000 191.000000 0.975467 -0.092961 -0.199556
-5.94000006 -8.34000015 0.03000000 110 48 176 0.000000 0.000000 0.000000 0.000000 -60.708740 0.000000 191.000000 0.800388 -0.541393 0.257435
-5.94000006 -8.28999996 -0.01000000 110 48 176 0.000000 0.000000 0.000000 0.000000 -60.708740 0.000000 191.000000 0.976233 -0.108194 -0.187785
-5.90999985 -8.28999996 0.04000000 110 48 176 0.000000 0.000000 0.000000 0.000000 -60.708740 0.000000 191.000000 0.808404 0.528033 0.260122
-5.94000006 -8.32999992 0.04000000 110 48 176 0.000000 0.000000 0.000000 0.000000 -60.708740 0.000000 191.000000 0.810166 -0.483563 0.331359
-5.92999983 -8.31999969 0.02000000 110 48 176 0.000000 0.000000 0.000000 0.000000 -60.708740 0.000000 191.000000 0.930501 0.019252 0.365783
-5.94000006 -8.39000034 0.08000000 110 48 176 0.000000 0.000000 0.000000 0.000000 -60.708740 0.000000 191.000000 0.930473 -0.337727 0.141983
-5.94999981 -8.35000038 0.01000000 110 48 176 0.000000 0.000000 0.000000 0.000000 -60.708740 0.000000 191.000000 0.930924 -0.356609 0.078801
-5.94999981 -8.35000038 0.03000000 110 48 176 0.000000 0.000000 0.000000 0.000000 -60.708740 0.000000 191.000000 0.688446 -0.665979 0.287254
-5.94999981 -8.35999966 0.00000000 110 48 176 0.000000 0.000000 0.000000 0.000000 -60.708740 0.000000 191.000000 -0.572985 0.813783 -0.097190
-5.96000004 -8.14000034 0.17000000 110 48 176 0.000000 0.000000 0.000000 0.000000 -60.708740 0.000000 191.000000 0.628223 0.773310 -0.085601
-6.01000023 -8.10999966 0.17000000 110 48 176 0.000000 0.000000 0.000000 0.000000 -60.708740 0.000000 191.000000 -0.126092 0.951666 0.280058
-5.98999977 -8.22000027 0.31000000 110 48 176 0.000000 0.000000 0.000000 0.000000 -60.708740 0.000000 191.000000 -0.024235 0.984401 0.174261
-5.96999979 -8.22999954 0.31000000 110 48 176 0.000000 0.000000 0.000000 0.000000 -60.708740 0.000000 191.000000 0.506176 0.856054 0.104677
-5.98999977 -8.25000000 0.28000000 110 48 176 0.000000 0.000000 0.000000 0.000000 -60.708740 0.000000 191.000000 0.630513 0.637203 0.443199
-6.03000021 -8.25000000 0.30000001 110 48 176 0.000000 0.000000 0.000000 0.000000 -60.708740 0.000000 191.000000 0.143948 0.983444 0.110078
-6.03999996 -8.13000011 0.17000000 110 48 176 0.000000 0.000000 0.000000 0.000000 -60.708740 0.000000 191.000000 -0.398057 0.891588 0.215920
-6.05000019 -8.13000011 0.17000000 110 48 176 0.000000 0.000000 0.000000 0.000000 -60.708740 0.000000 191.000000 -0.392971 0.895507 0.208903
-6.03999996 -8.13000011 0.17000000 110 48 176 0.000000 0.000000 0.000000 0.000000 -60.708740 0.000000 191.000000 -0.398057 0.891588 0.215920
-6.01000023 -8.10999966 0.09000000 110 48 176 0.000000 0.000000 0.000000 0.000000 -60.708740 0.000000 191.000000 0.219286 0.971124 -0.093980
-5.96999979 -8.10999966 0.08000000 110 48 176 0.000000 0.000000 0.000000 0.000000 -60.708740 0.000000 191.000000 0.580215 0.800965 0.147664
-5.98999977 -8.10000038 0.10000000 110 48 176 0.000000 0.000000 0.000000 0.000000 -60.708740 0.000000 191.000000 0.423851 0.901546 0.086979
-5.98000002 -8.10000038 -0.02000000 110 48 176 0.000000 0.000000 0.000000 0.000000 -60.708740 0.000000 191.000000 0.226851 0.911740 0.342444
-5.96999979 -8.30000019 0.28999999 110 48 176 0.000000 0.000000 0.000000 0.000000 -60.708740 0.000000 191.000000 0.732475 0.670073 -0.120346
-5.98000002 -8.27999973 0.25999999 110 48 176 0.000000 0.000000 0.000000 0.000000 -60.708740 0.000000 191.000000 0.464621 0.879815 0.100268
-5.96000004 -8.30000019 0.23999999 110 48 176 0.000000 0.000000 0.000000 0.000000 -60.708740 0.000000 191.000000 0.886632 0.254814 0.385946
-5.98999977 -8.31999969 0.31000000 110 48 176 0.000000 0.000000 0.000000 0.000000 -60.708740 0.000000 191.000000 0.865392 0.500875 -0.014851
-6.01000023 -8.32999992 0.25000000 110 48 176 0.000000 0.000000 0.000000 0.000000 -60.708740 0.000000 191.000000 0.926436 0.365450 -0.090351
-5.98000002 -8.32999992 0.23000000 110 48 176 0.000000 0.000000 0.000000 0.000000 -60.708740 0.000000 191.000000 0.985088 -0.161239 0.060023
-5.96000004 -8.32999992 0.20000000 110 48 176 0.000000 0.000000 0.000000 0.000000 -60.708740 0.000000 191.000000 0.998817 0.005143 -0.048346
-5.98000002 -8.34000015 0.22000000 110 48 176 0.000000 0.000000 0.000000 0.000000 -60.708740 0.000000 191.000000 0.975176 -0.188542 0.116122
-5.96999979 -8.32999992 0.16000000 110 48 176 0.000000 0.000000 0.000000 0.000000 -60.708740 0.000000 191.000000 0.891337 -0.430646 0.141641
-5.98999977 -8.39999962 0.23999999 110 48 176 0.000000 0.000000 0.000000 0.000000 -60.708740 0.000000 191.000000 -0.550919 0.804002 -0.223762
-6.01999998 -8.35999966 0.28000000 110 48 176 0.000000 0.000000 0.000000 0.000000 -60.708740 0.000000 191.000000 0.870869 -0.376716 0.315709
-6.01000023 -8.35999966 0.28000000 110 48 176 0.000000 0.000000 0.000000 0.000000 -60.708740 0.000000 191.000000 0.879815 -0.464621 0.100268
-6.03000021 -8.35999966 0.23999999 110 48 176 0.000000 0.000000 0.000000 0.000000 -60.708740 0.000000 191.000000 -0.454999 0.889746 0.036454
-6.01999998 -8.43000031 0.31000000 110 48 176 0.000000 0.000000 0.000000 0.000000 -60.708740 0.000000 191.000000 -0.290719 0.949152 -0.120801
-6.01000023 -8.39000034 0.28000000 110 48 176 0.000000 0.000000 0.000000 0.000000 -60.708740 0.000000 191.000000 0.862806 -0.504557 0.031449
-6.01999998 -8.43000031 0.28000000 110 48 176 0.000000 0.000000 0.000000 0.000000 -60.708740 0.000000 191.000000 -0.389812 0.920784 -0.014246
-6.01000023 -8.39000034 0.28000000 110 48 176 0.000000 0.000000 0.000000 0.000000 -60.708740 0.000000 191.000000 0.862806 -0.504557 0.031449
-6.01999998 -8.39999962 0.28999999 110 48 176 0.000000 0.000000 0.000000 0.000000 -60.708740 0.000000 191.000000 -0.272173 0.865174 0.421183
-6.03000021 -8.39000034 0.27000001 110 48 176 0.000000 0.000000 0.000000 0.000000 -60.708740 0.000000 191.000000 0.066761 0.941200 0.331187
-5.98999977 -8.35999966 0.20000000 110 48 176 0.000000 0.000000 0.000000 0.000000 -60.708740 0.000000 191.000000 -0.610731 0.782268 -0.122738
-5.98999977 -8.40999985 0.15000001 110 48 176 0.000000 0.000000 0.000000 0.000000 -60.708740 0.000000 191.000000 -0.498295 0.867007 0.001336
-6.01999998 -8.35999966 0.22000000 110 48 176 0.000000 0.000000 0.000000 0.000000 -60.708740 0.000000 191.000000 -0.541542 0.811545 -0.219378
-6.01999998 -8.35999966 0.22000000 110 48 176 0.000000 0.000000 0.000000 0.000000 -60.708740 0.000000 191.000000 -0.541542 0.811545 -0.219378
-6.01999998 -8.35000038 0.20999999 110 48 176 0.000000 0.000000 0.000000 0.000000 -60.708740 0.000000 191.000000 -0.496178 0.862980 0.095255
-6.03000021 -8.38000011 0.20999999 110 48 176 0.000000 0.000000 0.000000 0.000000 -60.708740 0.000000 191.000000 0.085297 0.882329 0.462838
-6.01000023 -8.35000038 0.23000000 110 48 176 0.000000 0.000000 0.000000 0.000000 -60.708740 0.000000 191.000000 0.977725 -0.044388 -0.205142
-6.01000023 -8.36999989 0.18000001 110 48 176 0.000000 0.000000 0.000000 0.000000 -60.708740 0.000000 191.000000 -0.285395 0.943578 0.167960
-6.01999998 -8.36999989 0.16000000 110 48 176 0.000000 0.000000 0.000000 0.000000 -60.708740 0.000000 191.000000 -0.003649 0.959707 0.280979
-6.03000021 -8.36999989 0.16000000 110 48 176 0.000000 0.000000 0.000000 0.000000 -60.708740 0.000000 191.000000 0.151294 0.980336 0.126693
-6.01999998 -8.36999989 0.17000000 110 48 176 0.000000 0.000000 0.000000 0.000000 -60.708740 0.000000 191.000000 -0.084273 0.978295 0.189308
-6.01999998 -8.39999962 0.22000000 110 48 176 0.000000 0.000000 0.000000 0.000000 -60.708740 0.000000 191.000000 -0.119718 0.978727 -0.166618
-6.01999998 -8.39999962 0.23000000 110 48 176 0.000000 0.000000 0.000000 0.000000 -60.708740 0.000000 191.000000 -0.271023 0.938156 -0.215428
-6.03000021 -8.39999962 0.20999999 110 48 176 0.000000 0.000000 0.000000 0.000000 -60.708740 0.000000 191.000000 0.107086 0.978545 0.176015
-6.03000021 -8.40999985 0.20000000 110 48 176 0.000000 0.000000 0.000000 0.000000 -60.708740 0.000000 191.000000 -0.015648 0.998348 0.055290
-6.01000023 -8.39999962 0.20999999 110 48 176 0.000000 0.000000 0.000000 0.000000 -60.708740 0.000000 191.000000 -0.068864 0.947208 0.313137
-6.01000023 -8.43000031 0.18000001 110 48 176 0.000000 0.000000 0.000000 0.000000 -60.708740 0.000000 191.000000 -0.489460 0.867486 -0.088864
-6.03000021 -8.39999962 0.16000000 110 48 176 0.000000 0.000000 0.000000 0.000000 -60.708740 0.000000 191.000000 0.136743 0.989374 0.049411
-6.03999996 -8.36999989 0.30000001 110 48 176 0.000000 0.000000 0.000000 0.000000 -60.708740 0.000000 191.000000 -0.359645 0.878626 0.314120
-6.05999994 -8.36999989 0.25000000 110 48 176 0.000000 0.000000 0.000000 0.000000 -60.708740 0.000000 191.000000 0.701160 0.707015 -0.092219
-6.07999992 -8.40999985 0.28999999 110 48 176 0.000000 0.000000 0.000000 0.000000 -60.708740 0.000000 191.000000 0.765053 0.606766 0.215705
-6.05000019 -8.39999962 0.28999999 110 48 176 0.000000 0.000000 0.000000 0.000000 -60.708740 0.000000 191.000000 0.151969 0.924361 0.349947
-6.07999992 -8.40999985 0.30000001 110 48 176 0.000000 0.000000 0.000000 0.000000 -60.708740 0.000000 191.000000 0.447247 0.887439 0.111459
-6.05000019 -8.43000031 0.25999999 110 48 176 0.000000 0.000000 0.000000 0.000000 -60.708740 0.000000 191.000000 -0.209162 0.961620 0.177591
-6.05000019 -8.43000031 0.25999999 110 48 176 0.000000 0.000000 0.000000 0.000000 -60.708740 0.000000 191.000000 -0.209162 0.961620 0.177591
-6.07999992 -8.39999962 0.25999999 110 48 176 0.000000 0.000000 0.000000 0.000000 -60.708740 0.000000 191.000000 0.418842 0.907712 0.025104
-6.07999992 -8.43000031 0.25999999 110 48 176 0.000000 0.000000 0.000000 0.000000 -60.708740 0.000000 191.000000 0.046177 0.962221 0.268324
-6.07000017 -8.39999962 0.25999999 110 48 176 0.000000 0.000000 0.000000 0.000000 -60.708740 0.000000 191.000000 0.379344 0.920487 -0.093816
-6.05000019 -8.43000031 0.23999999 110 48 176 0.000000 0.000000 0.000000 0.000000 -60.708740 0.000000 191.000000 0.348065 0.903206 0.251135
-6.03999996 -8.35999966 0.18000001 110 48 176 0.000000 0.000000 0.000000 0.000000 -60.708740 0.000000 191.000000 0.041613 0.997651 -0.054417
-6.03999996 -8.42000008 0.20000000 110 48 176 0.000000 0.000000 0.000000 0.000000 -60.708740 0.000000 191.000000 0.111450 0.838048 0.534093
-6.05000019 -8.40999985 0.19000000 110 48 176 0.000000 0.000000 0.000000 0.000000 -60.708740 0.000000 191.000000 0.245020 0.791242 0.560268
-6.05999994 -8.42000008 0.23000000 110 48 176 0.000000 0.000000 0.000000 0.000000 -60.708740 0.000000 191.000000 0.454481 0.872192 0.180910
-6.05000019 -8.43000031 0.23000000 110 48 176 0.000000 0.000000 0.000000 0.000000 -60.708740 0.000000 191.000000 0.330276 0.933270 0.141155
-6.07000017 -8.42000008 0.22000000 110 48 176 0.000000 0.000000 0.000000 0.000000 -60.708740 0.000000 191.000000 -0.018338 0.995619 0.091688
-6.03999996 -8.40999985 0.18000001 110 48 176 0.000000 0.000000 0.000000 0.000000 -60.708740 0.000000 191.000000 -0.123747 0.991112 -0.048818
-6.03999996 -8.39999962 0.15000001 110 48 176 0.000000 0.000000 0.000000 0.000000 -60.708740 0.000000 191.000000 0.023623 0.999336 -0.027731
-6.05000019 -8.40999985 0.17000000 110 48 176 0.000000 0.000000 0.000000 0.000000 -60.708740 0.000000 191.000000 0.481712 0.876205 -0.014760
-6.03999996 -8.40999985 0.18000001 110 48 176 0.000000 0.000000 0.000000 0.000000 -60.708740 0.000000 191.000000 -0.123747 0.991112 -0.048818
-6.03999996 -8.39999962 0.15000001 110 48 176 0.000000 0.000000 0.000000 0.000000 -60.708740 0.000000 191.000000 0.023623 0.999336 -0.027731
-6.05000019 -8.40999985 0.17000000 110 48 176 0.000000 0.000000 0.000000 0.000000 -60.708740 0.000000 191.000000 0.481712 0.876205 -0.014760
-6.05000019 -8.40999985 0.18000001 110 48 176 0.000000 0.000000 0.000000 0.000000 -60.708740 0.000000 191.000000 0.212084 0.976545 -0.037145
-5.98000002 -8.34000015 0.10000000 110 48 176 0.000000 0.000000 0.000000 0.000000 -60.708740 0.000000 191.000000 0.828330 -0.555535 -0.072461
-5.98999977 -8.32999992 0.07000000 110 48 176 0.000000 0.000000 0.000000 0.000000 -60.708740 0.000000 191.000000 0.956990 -0.250167 0.146924
-5.98000002 -8.34000015 0.04000000 110 48 176 0.000000 0.000000 0.000000 0.000000 -60.708740 0.000000 191.000000 0.721048 -0.689258 0.070804
-5.96999979 -8.34000015 0.03000000 110 48 176 0.000000 0.000000 0.000000 0.000000 -60.708740 0.000000 191.000000 0.745250 -0.619203 0.247366
-5.96999979 -8.32999992 0.04000000 110 48 176 0.000000 0.000000 0.000000 0.000000 -60.708740 0.000000 191.000000 0.830482 -0.555966 0.034661
-5.96999979 -8.32999992 0.04000000 110 48 176 0.000000 0.000000 0.000000 0.000000 -60.708740 0.000000 191.000000 0.830482 -0.555966 0.034661
-5.96999979 -8.32999992 0.04000000 110 48 176 0.000000 0.000000 0.000000 0.000000 -60.708740 0.000000 191.000000 0.830482 -0.555966 0.034661
-5.96999979 -8.34000015 0.01000000 110 48 176 0.000000 0.000000 0.000000 0.000000 -60.708740 0.000000 191.000000 -0.656738 0.733281 0.176049
-5.96000004 -8.32999992 0.02000000 110 48 176 0.000000 0.000000 0.000000 0.000000 -60.708740 0.000000 191.000000 0.854943 -0.497128 0.148112
-6.00000000 -8.32999992 -0.01000000 110 48 176 0.000000 0.000000 0.000000 0.000000 -60.708740 0.000000 191.000000 -0.105223 0.957402 0.268904
-6.01000023 -8.31999969 -0.02000000 110 48 176 0.000000 0.000000 0.000000 0.000000 -60.708740 0.000000 191.000000 -0.083658 0.996481 -0.005295
-5.98000002 -8.35999966 0.11000000 110 48 176 0.000000 0.000000 0.000000 0.000000 -60.708740 0.000000 191.000000 0.900653 -0.420305 -0.110312
-5.98999977 -8.36999989 0.11000000 110 48 176 0.000000 0.000000 0.000000 0.000000 -60.708740 0.000000 191.000000 -0.595329 0.800910 0.064244
-5.98000002 -8.36999989 0.10000000 110 48 176 0.000000 0.000000 0.000000 0.000000 -60.708740 0.000000 191.000000 -0.437189 0.899323 0.009190
-5.98000002 -8.35999966 0.07000000 110 48 176 0.000000 0.000000 0.000000 0.000000 -60.708740 0.000000 191.000000 0.901368 -0.416339 -0.119154
-5.96999979 -8.35999966 0.09000000 110 48 176 0.000000 0.000000 0.000000 0.000000 -60.708740 0.000000 191.000000 -0.615445 0.787262 0.038025
-5.98999977 -8.39000034 0.13000000 110 48 176 0.000000 0.000000 0.000000 0.000000 -60.708740 0.000000 191.000000 -0.462269 0.880714 0.103198
-5.98000002 -8.39000034 0.13000000 110 48 176 0.000000 0.000000 0.000000 0.000000 -60.708740 0.000000 191.000000 -0.488195 0.736429 0.468336
-6.03000021 -8.36999989 0.12000000 110 48 176 0.000000 0.000000 0.000000 0.000000 -60.708740 0.000000 191.000000 -0.019972 0.890760 0.454035
-6.03000021 -8.35999966 0.11000000 110 48 176 0.000000 0.000000 0.000000 0.000000 -60.708740 0.000000 191.000000 0.279423 0.956735 -0.081123
-6.00000000 -8.35999966 0.14000000 110 48 176 0.000000 0.000000 0.000000 0.000000 -60.708740 0.000000 191.000000 -0.412797 0.909756 -0.044085
-6.01999998 -8.38000011 0.09000000 110 48 176 0.000000 0.000000 0.000000 0.000000 -60.708740 0.000000 191.000000 0.091861 0.956129 0.278170
-6.01000023 -8.35000038 0.09000000 110 48 176 0.000000 0.000000 0.000000 0.000000 -60.708740 0.000000 191.000000 -0.315485 0.948930 -0.001237
-6.03000021 -8.38000011 0.07000000 110 48 176 0.000000 0.000000 0.000000 0.000000 -60.708740 0.000000 191.000000 -0.097123 0.988779 -0.113505
-6.01000023 -8.38000011 0.09000000 110 48 176 0.000000 0.000000 0.000000 0.000000 -60.708740 0.000000 191.000000 -0.097263 0.993871 -0.052544
-6.03000021 -8.40999985 0.11000000 110 48 176 0.000000 0.000000 0.000000 0.000000 -60.708740 0.000000 191.000000 -0.031485 0.983026 -0.180746
-6.01999998 -8.39000034 0.11000000 110 48 176 0.000000 0.000000 0.000000 0.000000 -60.708740 0.000000 191.000000 -0.206531 0.977740 -0.037008
-6.03000021 -8.40999985 0.11000000 110 48 176 0.000000 0.000000 0.000000 0.000000 -60.708740 0.000000 191.000000 -0.031485 0.983026 -0.180746
-6.01999998 -8.40999985 0.11000000 110 48 176 0.000000 0.000000 0.000000 0.000000 -60.708740 0.000000 191.000000 0.131221 0.991323 -0.007719
-6.01999998 -8.39000034 0.11000000 110 48 176 0.000000 0.000000 0.000000 0.000000 -60.708740 0.000000 191.000000 -0.206531 0.977740 -0.037008
-6.01999998 -8.39999962 0.07000000 110 48 176 0.000000 0.000000 0.000000 0.000000 -60.708740 0.000000 191.000000 -0.260830 0.855705 0.446919
-6.01000023 -8.39999962 0.07000000 110 48 176 0.000000 0.000000 0.000000 0.000000 -60.708740 0.000000 191.000000 -0.422714 0.895242 0.140905
-5.98000002 -8.35999966 0.06000000 110 48 176 0.000000 0.000000 0.000000 0.000000 -60.708740 0.000000 191.000000 0.848158 -0.486599 -0.209403
-5.98000002 -8.35999966 0.06000000 110 48 176 0.000000 0.000000 0.000000 0.000000 -60.708740 0.000000 191.000000 0.848158 -0.486599 -0.209403
-5.98000002 -8.35999966 0.05000000 110 48 176 0.000000 0.000000 0.000000 0.000000 -60.708740 0.000000 191.000000 0.753421 -0.646427 -0.120369
-5.96000004 -8.35999966 0.00000000 110 48 176 0.000000 0.000000 0.000000 0.000000 -60.708740 0.000000 191.000000 -0.415225 0.904052 -0.101376
-5.96000004 -8.36999989 -0.02000000 110 48 176 0.000000 0.000000 0.000000 0.000000 -60.708740 0.000000 191.000000 -0.318893 0.940534 -0.117062
-5.96999979 -8.36999989 -0.01000000 110 48 176 0.000000 0.000000 0.000000 0.000000 -60.708740 0.000000 191.000000 0.644538 -0.760410 0.079662
-5.98999977 -8.35999966 0.00000000 110 48 176 0.000000 0.000000 0.000000 0.000000 -60.708740 0.000000 191.000000 -0.422738 0.785548 0.451893
-5.96000004 -8.35999966 0.02000000 110 48 176 0.000000 0.000000 0.000000 0.000000 -60.708740 0.000000 191.000000 -0.670520 0.705066 -0.230835
-5.98999977 -8.35999966 0.00000000 110 48 176 0.000000 0.000000 0.000000 0.000000 -60.708740 0.000000 191.000000 -0.422738 0.785548 0.451893
-5.96999979 -8.39000034 0.01000000 110 48 176 0.000000 0.000000 0.000000 0.000000 -60.708740 0.000000 191.000000 -0.353344 0.914116 0.198845
-6.01999998 -8.36999989 0.03000000 110 48 176 0.000000 0.000000 0.000000 0.000000 -60.708740 0.000000 191.000000 -0.110039 0.970110 -0.216283
-6.01000023 -8.35000038 0.06000000 110 48 176 0.000000 0.000000 0.000000 0.000000 -60.708740 0.000000 191.000000 -0.001158 0.978290 -0.207235
-6.00000000 -8.35999966 0.03000000 110 48 176 0.000000 0.000000 0.000000 0.000000 -60.708740 0.000000 191.000000 -0.648872 0.752337 -0.113811
-6.03000021 -8.36999989 0.02000000 110 48 176 0.000000 0.000000 0.000000 0.000000 -60.708740 0.000000 191.000000 -0.019298 0.930155 0.366659
-6.01999998 -8.38000011 -0.02000000 110 48 176 0.000000 0.000000 0.000000 0.000000 -60.708740 0.000000 191.000000 0.130672 0.987694 0.085938
-6.01999998 -8.38000011 -0.02000000 110 48 176 0.000000 0.000000 0.000000 0.000000 -60.708740 0.000000 191.000000 0.130672 0.987694 0.085938
-6.01000023 -8.35999966 0.02000000 110 48 176 0.000000 0.000000 0.000000 0.000000 -60.708740 0.000000 191.000000 -0.497119 0.861004 0.107446
-6.01999998 -8.39999962 0.06000000 110 48 176 0.000000 0.000000 0.000000 0.000000 -60.708740 0.000000 191.000000 0.267824 0.887260 0.375552
-6.01999998 -8.39000034 0.03000000 110 48 176 0.000000 0.000000 0.000000 0.000000 -60.708740 0.000000 191.000000 -0.222456 0.935992 0.272823
-6.03000021 -8.39000034 0.03000000 110 48 176 0.000000 0.000000 0.000000 0.000000 -60.708740 0.000000 191.000000 0.271196 0.907407 0.321037
-6.00000000 -8.40999985 0.01000000 110 48 176 0.000000 0.000000 0.000000 0.000000 -60.708740 0.000000 191.000000 -0.320731 0.931647 0.170779
-6.03000021 -8.39999962 -0.01000000 110 48 176 0.000000 0.000000 0.000000 0.000000 -60.708740 0.000000 191.000000 0.206455 0.871866 0.444102
-6.03000021 -8.39999962 -0.01000000 110 48 176 0.000000 0.000000 0.000000 0.000000 -60.708740 0.000000 191.000000 0.206455 0.871866 0.444102
-6.03999996 -8.36999989 0.13000000 110 48 176 0.000000 0.000000 0.000000 0.000000 -60.708740 0.000000 191.000000 0.261783 0.948117 -0.180400
-6.05999994 -8.35000038 0.12000000 110 48 176 0.000000 0.000000 0.000000 0.000000 -60.708740 0.000000 191.000000 0.913373 0.376925 -0.153876
-6.03999996 -8.35000038 0.09000000 110 48 176 0.000000 0.000000 0.000000 0.000000 -60.708740 0.000000 191.000000 0.157619 0.883536 0.441045
-6.05000019 -8.38000011 0.07000000 110 48 176 0.000000 0.000000 0.000000 0.000000 -60.708740 0.000000 191.000000 0.018159 0.967290 0.253021
-6.03999996 -8.38000011 0.08000000 110 48 176 0.000000 0.000000 0.000000 0.000000 -60.708740 0.000000 191.000000 -0.098084 0.993244 0.062007
-6.03999996 -8.40999985 0.13000000 110 48 176 0.000000 0.000000 0.000000 0.000000 -60.708740 0.000000 191.000000 0.255368 0.960545 0.110184
-6.03999996 -8.40999985 0.13000000 110 48 176 0.000000 0.000000 0.000000 0.000000 -60.708740 0.000000 191.000000 0.255368 0.960545 0.110184
-6.03999996 -8.39000034 0.09000000 110 48 176 0.000000 0.000000 0.000000 0.000000 -60.708740 0.000000 191.000000 0.429612 0.872697 0.232021
-6.03999996 -8.39000034 0.09000000 110 48 176 0.000000 0.000000 0.000000 0.000000 -60.708740 0.000000 191.000000 0.429612 0.872697 0.232021
-6.05999994 -8.35999966 0.03000000 110 48 176 0.000000 0.000000 0.000000 0.000000 -60.708740 0.000000 191.000000 0.798273 0.530607 0.284985
-6.05000019 -8.36999989 0.02000000 110 48 176 0.000000 0.000000 0.000000 0.000000 -60.708740 0.000000 191.000000 0.671844 0.715090 0.193059
-6.03999996 -8.42000008 0.04000000 110 48 176 0.000000 0.000000 0.000000 0.000000 -60.708740 0.000000 191.000000 0.375749 0.879767 0.291244
-6.05000019 -8.39999962 -0.01000000 110 48 176 0.000000 0.000000 0.000000 0.000000 -60.708740 0.000000 191.000000 0.133224 0.883861 0.448377
-6.11000013 -8.36999989 0.02000000 110 48 176 0.000000 0.000000 0.000000 0.000000 -60.708740 0.000000 191.000000 0.726382 0.665213 0.172802
-6.09000015 -8.43000031 0.06000000 110 48 176 0.000000 0.000000 0.000000 0.000000 -60.708740 0.000000 191.000000 0.193701 0.943778 0.267885
-6.11999989 -8.40999985 0.00000000 110 48 176 0.000000 0.000000 0.000000 0.000000 -60.708740 0.000000 191.000000 0.707153 0.470881 0.527453
-6.11999989 -8.42000008 -0.01000000 110 48 176 0.000000 0.000000 0.000000 0.000000 -60.708740 0.000000 191.000000 0.852880 0.451705 0.261836
-6.17000008 -8.43000031 0.61000001 110 48 176 0.000000 0.000000 0.000000 0.000000 -60.708740 0.000000 191.000000 0.984795 0.172022 0.024245
-6.17999983 -8.39999962 0.58999997 110 48 176 0.000000 0.000000 0.000000 0.000000 -60.708740 0.000000 191.000000 0.994924 -0.072257 -0.070034
-6.28000021 -8.43000031 0.56000000 110 48 176 0.000000 0.000000 0.000000 0.000000 -60.708740 0.000000 191.000000 0.921240 0.388506 0.019490
-6.28999996 -8.42000008 0.54000002 110 48 176 0.000000 0.000000 0.000000 0.000000 -60.708740 0.000000 191.000000 0.937035 0.292910 0.190183
-6.28999996 -8.42000008 0.51999998 110 48 176 0.000000 0.000000 0.000000 0.000000 -60.708740 0.000000 191.000000 0.890008 0.455072 0.028190
-6.32999992 -8.43000031 0.58999997 110 48 176 0.000000 0.000000 0.000000 0.000000 -60.708740 0.000000 191.000000 0.936420 0.350361 -0.019111
-6.38000011 -8.43000031 0.56999999 110 48 176 0.000000 0.000000 0.000000 0.000000 -60.708740 0.000000 191.000000 0.965887 -0.256506 0.035592
-6.26999998 -8.13000011 -0.01000000 110 48 176 0.000000 0.000000 0.000000 0.000000 -60.708740 0.000000 191.000000 0.841383 -0.533872 0.083996
-6.28000021 -8.19999981 0.14000000 110 48 176 0.000000 0.000000 0.000000 0.000000 -60.708740 0.000000 191.000000 0.682033 -0.728175 -0.067771
-6.28999996 -8.19999981 0.01000000 110 48 176 0.000000 0.000000 0.000000 0.000000 -60.708740 0.000000 191.000000 0.994707 0.049902 0.089823
-6.28999996 -8.22999954 0.02000000 110 48 176 0.000000 0.000000 0.000000 0.000000 -60.708740 0.000000 191.000000 0.832168 -0.518028 -0.197848
-6.19000006 -8.40999985 0.30000001 110 48 176 0.000000 0.000000 0.000000 0.000000 -60.708740 0.000000 191.000000 0.852221 0.199201 0.483774
-6.19000006 -8.39999962 0.27000001 110 48 176 0.000000 0.000000 0.000000 0.000000 -60.708740 0.000000 191.000000 0.922738 0.351453 0.158224
-6.19999981 -8.40999985 0.20999999 110 48 176 0.000000 0.000000 0.000000 0.000000 -60.708740 0.000000 191.000000 0.844549 0.249839 0.473622
-6.19999981 -8.39999962 0.23000000 110 48 176 0.000000 0.000000 0.000000 0.000000 -60.708740 0.000000 191.000000 0.988252 0.148066 0.037877
-6.19000006 -8.42000008 0.18000001 110 48 176 0.000000 0.000000 0.000000 0.000000 -60.708740 0.000000 191.000000 0.693267 0.661245 0.286593
-6.17999983 -8.42000008 0.17000000 110 48 176 0.000000 0.000000 0.000000 0.000000 -60.708740 0.000000 191.000000 0.780890 0.574322 0.245691
-6.23000002 -8.43000031 0.30000001 110 48 176 0.000000 0.000000 0.000000 0.000000 -60.708740 0.000000 191.000000 0.769480 0.340378 0.540410
-6.26000023 -8.43000031 0.31000000 110 48 176 0.000000 0.000000 0.000000 0.000000 -60.708740 0.000000 191.000000 0.930223 0.147896 0.335875
-6.23999977 -8.43000031 0.25000000 110 48 176 0.000000 0.000000 0.000000 0.000000 -60.708740 0.000000 191.000000 0.966149 0.254768 0.040615
-6.23000002 -8.43000031 0.27000001 110 48 176 0.000000 0.000000 0.000000 0.000000 -60.708740 0.000000 191.000000 0.990534 0.111853 0.079566
-6.23000002 -8.38000011 0.22000000 110 48 176 0.000000 0.000000 0.000000 0.000000 -60.708740 0.000000 191.000000 0.948682 0.188651 -0.253796
-6.21000004 -8.39999962 0.23000000 110 48 176 0.000000 0.000000 0.000000 0.000000 -60.708740 0.000000 191.000000 0.998646 0.026143 0.044965
-6.21000004 -8.43000031 0.19000000 110 48 176 0.000000 0.000000 0.000000 0.000000 -60.708740 0.000000 191.000000 0.987971 0.153130 0.021552
-6.17999983 -8.43000031 0.10000000 110 48 176 0.000000 0.000000 0.000000 0.000000 -60.708740 0.000000 191.000000 0.674853 0.737104 -0.035370
-6.19000006 -8.40999985 0.09000000 110 48 176 0.000000 0.000000 0.000000 0.000000 -60.708740 0.000000 191.000000 0.847456 0.318768 0.424506
-6.19000006 -8.42000008 0.09000000 110 48 176 0.000000 0.000000 0.000000 0.000000 -60.708740 0.000000 191.000000 0.713451 0.575045 0.400389
