//X Y Z R G B PointSourceId ScanDirectionFlag NumberOfReturns ReturnNumber GpsTime Intensity Classification Nx Ny Nz
14.97999954 15.82999992 -0.47000000 100 8 201 97.000000 1.000000 4.000000 1.000000 -60.708740 114.000000 141.000000 0.575853 0.602873 -0.552211
14.96000004 15.84000015 -0.44000000 100 8 201 97.000000 1.000000 4.000000 1.000000 -60.708740 114.000000 141.000000 -0.145378 0.977886 -0.150348
14.97999954 15.82999992 -0.47000000 100 8 201 97.000000 1.000000 4.000000 1.000000 -60.708740 114.000000 141.000000 0.575853 0.602873 -0.552211
14.96000004 15.84000015 -0.50000000 100 8 201 97.000000 1.000000 4.000000 1.000000 -60.708740 114.000000 141.000000 0.352432 0.934140 0.056337
14.97999954 15.82999992 -0.50999999 100 8 201 97.000000 1.000000 4.000000 1.000000 -60.708740 114.000000 141.000000 0.597578 0.712182 -0.368370
14.93999958 15.89999962 -0.40000001 100 8 201 97.000000 1.000000 4.000000 1.000000 -60.708740 114.000000 141.000000 -0.213964 0.925287 0.313152
14.93999958 15.86999989 -0.46000001 100 8 201 97.000000 1.000000 4.000000 1.000000 -60.708740 114.000000 141.000000 0.583522 -0.733060 0.349463
14.93999958 15.86999989 -0.44000000 100 8 201 97.000000 1.000000 4.000000 1.000000 -60.708740 114.000000 141.000000 -0.528103 0.846372 -0.069005
14.93000031 15.86999989 -0.46000001 100 8 201 97.000000 1.000000 4.000000 1.000000 -60.708740 114.000000 141.000000 -0.104536 0.961474 -0.254242
14.92000008 15.84000015 -0.46000001 100 8 201 97.000000 1.000000 4.000000 1.000000 -60.708740 114.000000 141.000000 0.781135 -0.612799 0.119607
14.92000008 15.84000015 -0.47999999 100 8 201 97.000000 1.000000 4.000000 1.000000 -60.708740 114.000000 141.000000 0.800991 -0.598314 -0.020823
14.89999962 15.89999962 -0.44999999 100 8 201 97.000000 1.000000 4.000000 1.000000 -60.708740 114.000000 141.000000 -0.261370 0.941763 -0.211585
14.86999989 15.85999966 -0.46000001 100 8 201 97.000000 1.000000 4.000000 1.000000 -60.708740 114.000000 141.000000 0.875414 -0.386881 -0.289782
14.86999989 15.85999966 -0.46000001 100 8 201 97.000000 1.000000 4.000000 1.000000 -60.708740 114.000000 141.000000 0.875414 -0.386881 -0.289782
15.02000046 15.86999989 -0.60000002 100 8 201 97.000000 1.000000 4.000000 1.000000 -60.708740 114.000000 141.000000 0.704663 0.695648 -0.139731
14.98999977 15.89999962 -0.60000002 100 8 201 97.000000 1.000000 4.000000 1.000000 -60.708740 114.000000 141.000000 0.168495 0.928812 -0.330028
15.02000046 15.88000011 -0.57999998 100 8 201 97.000000 1.000000 4.000000 1.000000 -60.708740 114.000000 141.000000 0.693499 0.716664 0.073838
14.97999954 15.82999992 -0.52999997 100 8 201 97.000000 1.000000 4.000000 1.000000 -60.708740 114.000000 141.000000 0.503269 0.847690 0.167756
14.96000004 15.82999992 -0.57999998 100 8 201 97.000000 1.000000 4.000000 1.000000 -60.708740 114.000000 141.000000 0.342301 0.885158 -0.315159
14.96000004 15.82999992 -0.57999998 100 8 201 97.000000 1.000000 4.000000 1.000000 -60.708740 114.000000 141.000000 0.342301 0.885158 -0.315159
15.02000046 15.89999962 -0.63999999 100 8 201 97.000000 1.000000 4.000000 1.000000 -60.708740 114.000000 141.000000 0.388613 0.835440 -0.388613
15.02000046 15.89999962 -0.63999999 100 8 201 97.000000 1.000000 4.000000 1.000000 -60.708740 114.000000 141.000000 0.388613 0.835440 -0.388613
14.98999977 15.89999962 -0.69000000 100 8 201 97.000000 1.000000 4.000000 1.000000 -60.708740 114.000000 141.000000 0.534680 0.796499 -0.282323
14.97000027 15.84000015 -0.62000000 100 8 201 97.000000 1.000000 4.000000 1.000000 -60.708740 114.000000 141.000000 0.318688 0.936916 -0.143615
14.96000004 15.84000015 -0.63999999 100 8 201 97.000000 1.000000 4.000000 1.000000 -60.708740 114.000000 141.000000 0.322121 0.939409 -0.117258
14.94999981 15.84000015 -0.69000000 100 8 201 97.000000 1.000000 4.000000 1.000000 -60.708740 114.000000 141.000000 0.234100 0.965822 0.111293
14.97999954 15.85000038 -0.68000001 100 8 201 97.000000 1.000000 4.000000 1.000000 -60.708740 114.000000 141.000000 0.431551 0.773535 -0.464121
15.01000023 15.76000023 -0.58999997 100 8 201 97.000000 1.000000 4.000000 1.000000 -60.708740 114.000000 141.000000 0.950885 -0.160050 -0.264957
14.96000004 15.78999996 -0.60000002 100 8 201 97.000000 1.000000 4.000000 1.000000 -60.708740 114.000000 141.000000 0.909737 0.148097 -0.387873
14.98999977 15.81999969 -0.62000000 100 8 201 97.000000 1.000000 4.000000 1.000000 -60.708740 114.000000 141.000000 0.850038 0.436590 -0.294659
14.97000027 15.81999969 -0.69000000 100 8 201 97.000000 1.000000 4.000000 1.000000 -60.708740 114.000000 141.000000 0.874832 0.330154 -0.354497
14.92000008 15.82999992 -0.58999997 100 8 201 97.000000 1.000000 4.000000 1.000000 -60.708740 114.000000 141.000000 -0.026195 0.998544 0.047151
14.93000031 15.82999992 -0.60000002 100 8 201 97.000000 1.000000 4.000000 1.000000 -60.708740 114.000000 141.000000 -0.038596 0.959910 0.277639
14.92000008 15.86999989 -0.63999999 100 8 201 97.000000 1.000000 4.000000 1.000000 -60.708740 114.000000 141.000000 0.147003 0.897719 -0.415320
14.92000008 15.84000015 -0.63999999 100 8 201 97.000000 1.000000 4.000000 1.000000 -60.708740 114.000000 141.000000 -0.433019 0.901361 0.006541
14.92000008 15.85000038 -0.68000001 100 8 201 97.000000 1.000000 4.000000 1.000000 -60.708740 114.000000 141.000000 -0.232078 0.853985 -0.465672
14.86999989 15.89999962 -0.64999998 100 8 201 97.000000 1.000000 4.000000 1.000000 -60.708740 114.000000 141.000000 -0.377978 0.827123 -0.415934
14.92000008 15.81999969 -0.66000003 100 8 201 97.000000 1.000000 4.000000 1.000000 -60.708740 114.000000 141.000000 -0.171026 0.981280 -0.088546
14.93999958 15.80000019 -0.68000001 100 8 201 97.000000 1.000000 4.000000 1.000000 -60.708740 114.000000 141.000000 0.694101 0.632040 -0.344601
14.81999969 16.04000092 -0.43000001 100 8 201 97.000000 1.000000 4.000000 1.000000 -60.708740 114.000000 141.000000 -0.443255 0.885075 0.142014
14.82999992 16.00000000 -0.36000001 100 8 201 97.000000 1.000000 4.000000 1.000000 -60.708740 114.000000 141.000000 0.760872 -0.647941 0.035291
14.78999996 16.04000092 -0.38999999 100 8 201 97.000000 1.000000 4.000000 1.000000 -60.708740 114.000000 141.000000 -0.454123 0.887415 0.079159
14.78999996 16.04000092 -0.38999999 100 8 201 97.000000 1.000000 4.000000 1.000000 -60.708740 114.000000 141.000000 -0.454123 0.887415 0.079159
14.78999996 16.04999924 -0.41000000 100 8 201 97.000000 1.000000 4.000000 1.000000 -60.708740 114.000000 141.000000 0.733470 -0.608282 -0.303339
14.78999996 16.04999924 -0.41000000 100 8 201 97.000000 1.000000 4.000000 1.000000 -60.708740 114.000000 141.000000 0.733470 -0.608282 -0.303339
14.81000042 16.03000069 -0.43000001 100 8 201 97.000000 1.000000 4.000000 1.000000 -60.708740 114.000000 141.000000 -0.527918 0.765075 -0.368731
14.80000019 16.03000069 -0.41999999 100 8 201 97.000000 1.000000 4.000000 1.000000 -60.708740 114.000000 141.000000 -0.613570 0.679723 -0.401880
14.80000019 16.03000069 -0.41999999 100 8 201 97.000000 1.000000 4.000000 1.000000 -60.708740 114.000000 141.000000 -0.613570 0.679723 -0.401880
14.84000015 16.03000069 -0.46000001 100 8 201 97.000000 1.000000 4.000000 1.000000 -60.708740 114.000000 141.000000 -0.685473 0.725710 0.058919
14.85000038 16.00000000 -0.49000001 100 8 201 97.000000 1.000000 4.000000 1.000000 -60.708740 114.000000 141.000000 0.732429 -0.638327 0.236824
14.78999996 16.04000092 -0.46000001 100 8 201 97.000000 1.000000 4.000000 1.000000 -60.708740 114.000000 141.000000 -0.307321 0.951586 0.006171
14.77999973 16.04000092 -0.44999999 100 8 201 97.000000 1.000000 4.000000 1.000000 -60.708740 114.000000 141.000000 -0.278130 0.953024 0.119952
14.77999973 16.04000092 -0.44999999 100 8 201 97.000000 1.000000 4.000000 1.000000 -60.708740 114.000000 141.000000 -0.278130 0.953024 0.119952
14.78999996 16.05999947 -0.50999999 100 8 201 97.000000 1.000000 4.000000 1.000000 -60.708740 114.000000 141.000000 -0.481710 0.872133 -0.085668
14.80000019 16.04999924 -0.50999999 100 8 201 97.000000 1.000000 4.000000 1.000000 -60.708740 114.000000 141.000000 -0.605409 0.737090 -0.300296
14.80000019 16.05999947 -0.50000000 100 8 201 97.000000 1.000000 4.000000 1.000000 -60.708740 114.000000 141.000000 -0.252954 0.967460 -0.005994
14.81000042 16.06999969 -0.50000000 100 8 201 97.000000 1.000000 4.000000 1.000000 -60.708740 114.000000 141.000000 -0.173923 0.984006 -0.038520
14.77999973 16.05999947 -0.51999998 100 8 201 97.000000 1.000000 4.000000 1.000000 -60.708740 114.000000 141.000000 -0.582589 0.801987 0.131935
14.77999973 16.01000023 -0.47000000 100 8 201 97.000000 1.000000 4.000000 1.000000 -60.708740 114.000000 141.000000 -0.442503 0.859156 0.256986
14.80000019 16.01000023 -0.46000001 100 8 201 97.000000 1.000000 4.000000 1.000000 -60.708740 114.000000 141.000000 -0.523920 0.843207 -0.120458
14.78999996 16.02000046 -0.44999999 100 8 201 97.000000 1.000000 4.000000 1.000000 -60.708740 114.000000 141.000000 0.784202 -0.539238 0.307000
14.85000038 15.92000008 -0.38999999 100 8 201 97.000000 1.000000 4.000000 1.000000 -60.708740 114.000000 141.000000 -0.584429 0.806656 -0.088025
14.80000019 15.93999958 -0.38999999 100 8 201 97.000000 1.000000 4.000000 1.000000 -60.708740 114.000000 141.000000 -0.756227 0.470796 0.454392
14.78999996 15.93999958 -0.37000000 100 8 201 97.000000 1.000000 4.000000 1.000000 -60.708740 114.000000 141.000000 -0.575664 0.806521 -0.134667
14.85000038 15.92000008 -0.44999999 100 8 201 97.000000 1.000000 4.000000 1.000000 -60.708740 114.000000 141.000000 -0.537150 0.830141 0.149455
14.84000015 15.90999985 -0.44000000 100 8 201 97.000000 1.000000 4.000000 1.000000 -60.708740 114.000000 141.000000 -0.545939 0.833876 0.081249
14.84000015 15.92000008 -0.47000000 100 8 201 97.000000 1.000000 4.000000 1.000000 -60.708740 114.000000 141.000000 -0.537962 0.840125 -0.069187
14.85000038 15.92000008 -0.50999999 100 8 201 97.000000 1.000000 4.000000 1.000000 -60.708740 114.000000 141.000000 -0.477406 0.858142 -0.188880
14.85000038 15.92000008 -0.50000000 100 8 201 97.000000 1.000000 4.000000 1.000000 -60.708740 114.000000 141.000000 -0.579987 0.812549 -0.058140
14.85000038 15.90999985 -0.50999999 100 8 201 97.000000 1.000000 4.000000 1.000000 -60.708740 114.000000 141.000000 -0.509394 0.830634 -0.224868
14.80000019 15.94999981 -0.47999999 100 8 201 97.000000 1.000000 4.000000 1.000000 -60.708740 114.000000 141.000000 -0.573393 0.789767 0.217920
14.81000042 15.94999981 -0.47000000 100 8 201 97.000000 1.000000 4.000000 1.000000 -60.708740 114.000000 141.000000 -0.636797 0.633454 0.439574
14.78999996 15.90999985 -0.46000001 100 8 201 97.000000 1.000000 4.000000 1.000000 -60.708740 114.000000 141.000000 0.924511 -0.369534 0.093399
14.78999996 15.90999985 -0.46000001 100 8 201 97.000000 1.000000 4.000000 1.000000 -60.708740 114.000000 141.000000 0.924511 -0.369534 0.093399
14.78999996 15.92000008 -0.46000001 100 8 201 97.000000 1.000000 4.000000 1.000000 -60.708740 114.000000 141.000000 0.902876 -0.400803 -0.155472
14.80000019 15.93999958 -0.44000000 100 8 201 97.000000 1.000000 4.000000 1.000000 -60.708740 114.000000 141.000000 -0.480198 0.870626 0.106869
14.76000023 16.04000092 -0.36000001 100 8 201 97.000000 1.000000 4.000000 1.000000 -60.708740 114.000000 141.000000 -0.704035 0.619093 -0.347934
14.76000023 16.04000092 -0.36000001 100 8 201 97.000000 1.000000 4.000000 1.000000 -60.708740 114.000000 141.000000 -0.704035 0.619093 -0.347934
14.77000046 16.04000092 -0.41999999 100 8 201 97.000000 1.000000 4.000000 1.000000 -60.708740 114.000000 141.000000 -0.429837 0.876035 0.218637
14.76000023 16.04000092 -0.41000000 100 8 201 97.000000 1.000000 4.000000 1.000000 -60.708740 114.000000 141.000000 -0.622453 0.781257 -0.046790
14.77000046 16.02000046 -0.38999999 100 8 201 97.000000 1.000000 4.000000 1.000000 -60.708740 114.000000 141.000000 -0.363427 0.930216 0.051168
14.76000023 16.00000000 -0.38000000 100 8 201 97.000000 1.000000 4.000000 1.000000 -60.708740 114.000000 141.000000 0.834162 -0.518533 0.187874
14.76000023 16.03000069 -0.38999999 100 8 201 97.000000 1.000000 4.000000 1.000000 -60.708740 114.000000 141.000000 0.748935 -0.662466 -0.015341
14.77000046 16.00000000 -0.37000000 100 8 201 97.000000 1.000000 4.000000 1.000000 -60.708740 114.000000 141.000000 -0.738120 0.645662 -0.195702
14.77000046 16.00000000 -0.37000000 100 8 201 97.000000 1.000000 4.000000 1.000000 -60.708740 114.000000 141.000000 -0.738120 0.645662 -0.195702
14.75000000 16.02000046 -0.38000000 100 8 201 97.000000 1.000000 4.000000 1.000000 -60.708740 114.000000 141.000000 -0.521950 0.762600 0.382113
14.75000000 16.00000000 -0.38999999 100 8 201 97.000000 1.000000 4.000000 1.000000 -60.708740 114.000000 141.000000 0.855581 -0.434702 0.281097
14.75000000 16.02000046 -0.38000000 100 8 201 97.000000 1.000000 4.000000 1.000000 -60.708740 114.000000 141.000000 -0.521950 0.762600 0.382113
14.75000000 16.01000023 -0.41999999 100 8 201 97.000000 1.000000 4.000000 1.000000 -60.708740 114.000000 141.000000 0.913246 -0.370696 0.169014
14.75000000 16.02000046 -0.43000001 100 8 201 97.000000 1.000000 4.000000 1.000000 -60.708740 114.000000 141.000000 0.847486 -0.509667 0.148347
14.76000023 16.01000023 -0.41000000 100 8 201 97.000000 1.000000 4.000000 1.000000 -60.708740 114.000000 141.000000 -0.584429 0.806656 0.088025
14.77000046 16.02000046 -0.40000001 100 8 201 97.000000 1.000000 4.000000 1.000000 -60.708740 114.000000 141.000000 0.782806 -0.612439 0.110151
14.75000000 16.00000000 -0.40000001 100 8 201 97.000000 1.000000 4.000000 1.000000 -60.708740 114.000000 141.000000 0.925830 -0.342124 0.160589
14.77000046 16.04000092 -0.51999998 100 8 201 97.000000 1.000000 4.000000 1.000000 -60.708740 114.000000 141.000000 0.835971 -0.543594 -0.075223
14.77000046 16.01000023 -0.44999999 100 8 201 97.000000 1.000000 4.000000 1.000000 -60.708740 114.000000 141.000000 -0.701367 0.616353 -0.358041
14.77000046 16.01000023 -0.47000000 100 8 201 97.000000 1.000000 4.000000 1.000000 -60.708740 114.000000 141.000000 0.683258 -0.627281 -0.373734
14.77000046 16.02000046 -0.49000001 100 8 201 97.000000 1.000000 4.000000 1.000000 -60.708740 114.000000 141.000000 0.708624 -0.702874 -0.061807
14.77000046 16.02000046 -0.49000001 100 8 201 97.000000 1.000000 4.000000 1.000000 -60.708740 114.000000 141.000000 0.708624 -0.702874 -0.061807
14.73999977 15.96000004 -0.37000000 100 8 201 97.000000 1.000000 4.000000 1.000000 -60.708740 114.000000 141.000000 -0.566314 0.777696 0.272904
14.75000000 15.94999981 -0.40000001 100 8 201 97.000000 1.000000 4.000000 1.000000 -60.708740 114.000000 141.000000 -0.625978 0.739506 0.247553
14.76000023 15.93000031 -0.38999999 100 8 201 97.000000 1.000000 4.000000 1.000000 -60.708740 114.000000 141.000000 0.845600 -0.292173 -0.446761
14.76000023 15.93999958 -0.41000000 100 8 201 97.000000 1.000000 4.000000 1.000000 -60.708740 114.000000 141.000000 0.975267 -0.191057 -0.111138
14.76000023 15.93999958 -0.41000000 100 8 201 97.000000 1.000000 4.000000 1.000000 -60.708740 114.000000 141.000000 0.975267 -0.191057 -0.111138
14.76000023 15.93000031 -0.41000000 100 8 201 97.000000 1.000000 4.000000 1.000000 -60.708740 114.000000 141.000000 0.797111 -0.603705 0.012433
14.72999954 15.98999977 -0.37000000 100 8 201 97.000000 1.000000 4.000000 1.000000 -60.708740 114.000000 141.000000 0.705519 -0.661126 -0.255255
14.72999954 15.97000027 -0.40000001 100 8 201 97.000000 1.000000 4.000000 1.000000 -60.708740 114.000000 141.000000 0.945619 -0.322863 -0.039560
14.77000046 15.97000027 -0.44000000 100 8 201 97.000000 1.000000 4.000000 1.000000 -60.708740 114.000000 141.000000 0.848027 -0.440233 -0.295033
14.73999977 15.96000004 -0.46000001 100 8 201 97.000000 1.000000 4.000000 1.000000 -60.708740 114.000000 141.000000 0.873818 -0.427166 0.232319
14.75000000 15.97999954 -0.47999999 100 8 201 97.000000 1.000000 4.000000 1.000000 -60.708740 114.000000 141.000000 0.843089 -0.467013 -0.266644
14.76000023 15.97999954 -0.44000000 100 8 201 97.000000 1.000000 4.000000 1.000000 -60.708740 114.000000 141.000000 -0.696904 0.705858 0.126845
14.77000046 15.98999977 -0.49000001 100 8 201 97.000000 1.000000 4.000000 1.000000 -60.708740 114.000000 141.000000 -0.753273 0.576599 -0.316407
14.76000023 15.94999981 -0.49000001 100 8 201 97.000000 1.000000 4.000000 1.000000 -60.708740 114.000000 141.000000 0.884909 -0.465672 0.009287
14.76000023 15.94999981 -0.50000000 100 8 201 97.000000 1.000000 4.000000 1.000000 -60.708740 114.000000 141.000000 0.915040 -0.394108 0.085913
14.75000000 15.93000031 -0.47999999 100 8 201 97.000000 1.000000 4.000000 1.000000 -60.708740 114.000000 141.000000 -0.592530 0.799260 -0.100453
14.73999977 15.93000031 -0.47999999 100 8 201 97.000000 1.000000 4.000000 1.000000 -60.708740 114.000000 141.000000 0.957658 -0.284913 -0.041419
14.81999969 16.04999924 -0.55000001 100 8 201 97.000000 1.000000 4.000000 1.000000 -60.708740 114.000000 141.000000 -0.705724 0.708486 0.001381
14.81999969 16.04999924 -0.55000001 100 8 201 97.000000 1.000000 4.000000 1.000000 -60.708740 114.000000 141.000000 -0.705724 0.708486 0.001381
14.81999969 16.05999947 -0.52999997 100 8 201 97.000000 1.000000 4.000000 1.000000 -60.708740 114.000000 141.000000 -0.364350 0.886135 0.286382
14.84000015 16.04999924 -0.60000002 100 8 201 97.000000 1.000000 4.000000 1.000000 -60.708740 114.000000 141.000000 -0.003401 0.985231 -0.171197
14.82999992 16.05999947 -0.56999999 100 8 201 97.000000 1.000000 4.000000 1.000000 -60.708740 114.000000 141.000000 -0.242862 0.954003 -0.175773
14.81999969 16.04999924 -0.58999997 100 8 201 97.000000 1.000000 4.000000 1.000000 -60.708740 114.000000 141.000000 -0.268439 0.959445 0.086055
14.82999992 16.04999924 -0.60000002 100 8 201 97.000000 1.000000 4.000000 1.000000 -60.708740 114.000000 141.000000 -0.006910 0.999972 -0.002961
14.84000015 16.04999924 -0.60000002 100 8 201 97.000000 1.000000 4.000000 1.000000 -60.708740 114.000000 141.000000 -0.003401 0.985231 -0.171197
14.84000015 16.04999924 -0.60000002 100 8 201 97.000000 1.000000 4.000000 1.000000 -60.708740 114.000000 141.000000 -0.003401 0.985231 -0.171197
14.82999992 16.05999947 -0.57999998 100 8 201 97.000000 1.000000 4.000000 1.000000 -60.708740 114.000000 141.000000 -0.139780 0.951833 -0.272903
14.82999992 16.01000023 -0.54000002 100 8 201 97.000000 1.000000 4.000000 1.000000 -60.708740 114.000000 141.000000 -0.656401 0.688657 0.308041
14.81000042 16.04000092 -0.54000002 100 8 201 97.000000 1.000000 4.000000 1.000000 -60.708740 114.000000 141.000000 -0.625556 0.772745 -0.107448
14.81000042 16.04000092 -0.54000002 100 8 201 97.000000 1.000000 4.000000 1.000000 -60.708740 114.000000 141.000000 -0.625556 0.772745 -0.107448
14.80000019 16.04999924 -0.58999997 100 8 201 97.000000 1.000000 4.000000 1.000000 -60.708740 114.000000 141.000000 -0.129656 0.991020 0.032696
14.81000042 16.04000092 -0.57999998 100 8 201 97.000000 1.000000 4.000000 1.000000 -60.708740 114.000000 141.000000 -0.382865 0.918053 0.102921
14.81000042 16.04999924 -0.60000002 100 8 201 97.000000 1.000000 4.000000 1.000000 -60.708740 114.000000 141.000000 -0.184383 0.981396 -0.053531
14.78999996 16.03000069 -0.56000000 100 8 201 97.000000 1.000000 4.000000 1.000000 -60.708740 114.000000 141.000000 -0.482352 0.859973 0.166684
14.78999996 16.01000023 -0.56000000 100 8 201 97.000000 1.000000 4.000000 1.000000 -60.708740 114.000000 141.000000 -0.385504 0.888595 0.248568
14.80000019 16.03000069 -0.56000000 100 8 201 97.000000 1.000000 4.000000 1.000000 -60.708740 114.000000 141.000000 0.816794 -0.564570 0.118780
14.78999996 16.03000069 -0.56000000 100 8 201 97.000000 1.000000 4.000000 1.000000 -60.708740 114.000000 141.000000 -0.482352 0.859973 0.166684
14.80000019 16.01000023 -0.56000000 100 8 201 97.000000 1.000000 4.000000 1.000000 -60.708740 114.000000 141.000000 0.755666 -0.647085 0.101245
14.80000019 16.02000046 -0.52999997 100 8 201 97.000000 1.000000 4.000000 1.000000 -60.708740 114.000000 141.000000 -0.328931 0.928005 0.174963
14.78999996 16.00000000 -0.57999998 100 8 201 97.000000 1.000000 4.000000 1.000000 -60.708740 114.000000 141.000000 -0.605566 0.793648 -0.058419
14.77999973 16.00000000 -0.57999998 100 8 201 97.000000 1.000000 4.000000 1.000000 -60.708740 114.000000 141.000000 -0.543165 0.748687 0.380052
14.78999996 16.00000000 -0.60000002 100 8 201 97.000000 1.000000 4.000000 1.000000 -60.708740 114.000000 141.000000 0.772977 -0.612634 0.164882
14.80000019 16.00000000 -0.58999997 100 8 201 97.000000 1.000000 4.000000 1.000000 -60.708740 114.000000 141.000000 -0.451658 0.829352 -0.328908
14.81000042 16.01000023 -0.60000002 100 8 201 97.000000 1.000000 4.000000 1.000000 -60.708740 114.000000 141.000000 -0.154716 0.979042 0.132437
14.77999973 16.00000000 -0.57999998 100 8 201 97.000000 1.000000 4.000000 1.000000 -60.708740 114.000000 141.000000 -0.543165 0.748687 0.380052
14.81999969 16.05999947 -0.62000000 100 8 201 97.000000 1.000000 4.000000 1.000000 -60.708740 114.000000 141.000000 -0.585898 0.809630 0.034958
14.82999992 16.05999947 -0.69000000 100 8 201 97.000000 1.000000 4.000000 1.000000 -60.708740 114.000000 141.000000 -0.047014 0.996041 0.075441
14.81999969 16.04000092 -0.67000002 100 8 201 97.000000 1.000000 4.000000 1.000000 -60.708740 114.000000 141.000000 -0.309234 0.882447 -0.354487
14.82999992 16.04000092 -0.69000000 100 8 201 97.000000 1.000000 4.000000 1.000000 -60.708740 114.000000 141.000000 -0.567818 0.783683 -0.251842
14.81999969 16.04000092 -0.67000002 100 8 201 97.000000 1.000000 4.000000 1.000000 -60.708740 114.000000 141.000000 -0.309234 0.882447 -0.354487
14.84000015 16.00000000 -0.68000001 100 8 201 97.000000 1.000000 4.000000 1.000000 -60.708740 114.000000 141.000000 -0.482854 0.861505 0.157038
14.81999969 16.03000069 -0.67000002 100 8 201 97.000000 1.000000 4.000000 1.000000 -60.708740 114.000000 141.000000 -0.655642 0.751166 -0.076709
14.80000019 16.04000092 -0.61000001 100 8 201 97.000000 1.000000 4.000000 1.000000 -60.708740 114.000000 141.000000 -0.494655 0.846477 -0.196960
14.81000042 16.05999947 -0.63999999 100 8 201 97.000000 1.000000 4.000000 1.000000 -60.708740 114.000000 141.000000 -0.580392 0.767003 0.273591
14.78999996 16.04000092 -0.62000000 100 8 201 97.000000 1.000000 4.000000 1.000000 -60.708740 114.000000 141.000000 -0.614677 0.788720 0.009669
14.78999996 16.05999947 -0.61000001 100 8 201 97.000000 1.000000 4.000000 1.000000 -60.708740 114.000000 141.000000 -0.609338 0.698029 -0.376115
14.80000019 16.04999924 -0.63000000 100 8 201 97.000000 1.000000 4.000000 1.000000 -60.708740 114.000000 141.000000 -0.056434 0.997711 0.037268
14.80000019 16.04999924 -0.63000000 100 8 201 97.000000 1.000000 4.000000 1.000000 -60.708740 114.000000 141.000000 -0.056434 0.997711 0.037268
14.80000019 16.06999969 -0.67000002 100 8 201 97.000000 1.000000 4.000000 1.000000 -60.708740 114.000000 141.000000 0.578388 -0.781057 0.235408
14.78999996 16.04000092 -0.64999998 100 8 201 97.000000 1.000000 4.000000 1.000000 -60.708740 114.000000 141.000000 -0.265829 0.958281 0.105035
14.78999996 16.04000092 -0.66000003 100 8 201 97.000000 1.000000 4.000000 1.000000 -60.708740 114.000000 141.000000 -0.112824 0.986914 0.115199
14.77999973 16.04000092 -0.68000001 100 8 201 97.000000 1.000000 4.000000 1.000000 -60.708740 114.000000 141.000000 -0.397475 0.885759 -0.239676
14.80000019 16.04999924 -0.66000003 100 8 201 97.000000 1.000000 4.000000 1.000000 -60.708740 114.000000 141.000000 -0.614253 0.788962 -0.015252
14.80000019 16.04000092 -0.64999998 100 8 201 97.000000 1.000000 4.000000 1.000000 -60.708740 114.000000 141.000000 -0.647156 0.753781 0.114030
14.80000019 16.04000092 -0.64999998 100 8 201 97.000000 1.000000 4.000000 1.000000 -60.708740 114.000000 141.000000 -0.647156 0.753781 0.114030
14.78999996 16.04000092 -0.66000003 100 8 201 97.000000 1.000000 4.000000 1.000000 -60.708740 114.000000 141.000000 -0.112824 0.986914 0.115199
14.77999973 16.04000092 -0.64999998 100 8 201 97.000000 1.000000 4.000000 1.000000 -60.708740 114.000000 141.000000 -0.370696 0.913246 -0.169014
14.77999973 16.00000000 -0.63000000 100 8 201 97.000000 1.000000 4.000000 1.000000 -60.708740 114.000000 141.000000 -0.247148 0.936929 -0.247148
14.81000042 16.02000046 -0.63999999 100 8 201 97.000000 1.000000 4.000000 1.000000 -60.708740 114.000000 141.000000 -0.511000 0.836592 -0.197466
14.81000042 16.03000069 -0.63000000 100 8 201 97.000000 1.000000 4.000000 1.000000 -60.708740 114.000000 141.000000 -0.618097 0.777416 -0.116539
14.77999973 16.00000000 -0.63000000 100 8 201 97.000000 1.000000 4.000000 1.000000 -60.708740 114.000000 141.000000 -0.247148 0.936929 -0.247148
14.77999973 16.01000023 -0.67000002 100 8 201 97.000000 1.000000 4.000000 1.000000 -60.708740 114.000000 141.000000 -0.233701 0.962220 0.139698
14.81000042 16.03000069 -0.67000002 100 8 201 97.000000 1.000000 4.000000 1.000000 -60.708740 114.000000 141.000000 -0.652145 0.735006 0.185670
14.84000015 15.90999985 -0.56000000 100 8 201 97.000000 1.000000 4.000000 1.000000 -60.708740 114.000000 141.000000 0.781889 -0.614656 -0.104154
14.85000038 15.92000008 -0.54000002 100 8 201 97.000000 1.000000 4.000000 1.000000 -60.708740 114.000000 141.000000 -0.351717 0.933045 -0.075652
14.85000038 15.92000008 -0.52999997 100 8 201 97.000000 1.000000 4.000000 1.000000 -60.708740 114.000000 141.000000 -0.405042 0.911684 0.069087
14.81999969 15.93000031 -0.60000002 100 8 201 97.000000 1.000000 4.000000 1.000000 -60.708740 114.000000 141.000000 -0.489875 0.849417 0.196250
14.85000038 15.92000008 -0.56999999 100 8 201 97.000000 1.000000 4.000000 1.000000 -60.708740 114.000000 141.000000 -0.269404 0.932334 -0.241194
14.77999973 15.97000027 -0.55000001 100 8 201 97.000000 1.000000 4.000000 1.000000 -60.708740 114.000000 141.000000 0.747104 -0.655381 0.110956
14.84000015 15.92000008 -0.61000001 100 8 201 97.000000 1.000000 4.000000 1.000000 -60.708740 114.000000 141.000000 -0.396282 0.916653 -0.052037
14.85000038 15.90999985 -0.63999999 100 8 201 97.000000 1.000000 4.000000 1.000000 -60.708740 114.000000 141.000000 -0.302261 0.909704 0.284739
14.77999973 15.98999977 -0.63999999 100 8 201 97.000000 1.000000 4.000000 1.000000 -60.708740 114.000000 141.000000 0.833786 -0.521304 0.181780
14.80000019 15.96000004 -0.63999999 100 8 201 97.000000 1.000000 4.000000 1.000000 -60.708740 114.000000 141.000000 -0.188183 0.981157 -0.043791
14.80000019 15.96000004 -0.63000000 100 8 201 97.000000 1.000000 4.000000 1.000000 -60.708740 114.000000 141.000000 0.836465 -0.530692 -0.136716
14.77999973 15.98999977 -0.63999999 100 8 201 97.000000 1.000000 4.000000 1.000000 -60.708740 114.000000 141.000000 0.833786 -0.521304 0.181780
14.80000019 15.93999958 -0.61000001 100 8 201 97.000000 1.000000 4.000000 1.000000 -60.708740 114.000000 141.000000 0.877335 -0.460924 -0.133539
14.78999996 15.93000031 -0.62000000 100 8 201 97.000000 1.000000 4.000000 1.000000 -60.708740 114.000000 141.000000 -0.409647 0.860718 0.302249
14.78999996 15.93000031 -0.61000001 100 8 201 97.000000 1.000000 4.000000 1.000000 -60.708740 114.000000 141.000000 0.854019 -0.517966 0.048603
14.80000019 15.93000031 -0.62000000 100 8 201 97.000000 1.000000 4.000000 1.000000 -60.708740 114.000000 141.000000 -0.445815 0.887384 -0.117469
14.81000042 15.90999985 -0.64999998 100 8 201 97.000000 1.000000 4.000000 1.000000 -60.708740 114.000000 141.000000 0.624352 -0.732382 0.271664
14.78999996 15.93000031 -0.64999998 100 8 201 97.000000 1.000000 4.000000 1.000000 -60.708740 114.000000 141.000000 -0.586461 0.809344 0.032039
14.75000000 16.00000000 -0.55000001 100 8 201 97.000000 1.000000 4.000000 1.000000 -60.708740 114.000000 141.000000 -0.545014 0.793176 0.271722
14.77000046 16.01000023 -0.55000001 100 8 201 97.000000 1.000000 4.000000 1.000000 -60.708740 114.000000 141.000000 -0.730984 0.587718 -0.346770
14.76000023 16.03000069 -0.52999997 100 8 201 97.000000 1.000000 4.000000 1.000000 -60.708740 114.000000 141.000000 0.752776 -0.658157 0.012523
14.77000046 16.02000046 -0.57999998 100 8 201 97.000000 1.000000 4.000000 1.000000 -60.708740 114.000000 141.000000 -0.678052 0.711877 0.182966
14.77000046 16.02000046 -0.57999998 100 8 201 97.000000 1.000000 4.000000 1.000000 -60.708740 114.000000 141.000000 -0.678052 0.711877 0.182966
14.77000046 16.03000069 -0.62000000 100 8 201 97.000000 1.000000 4.000000 1.000000 -60.708740 114.000000 141.000000 -0.626037 0.719380 -0.300949
14.77000046 16.01000023 -0.61000001 100 8 201 97.000000 1.000000 4.000000 1.000000 -60.708740 114.000000 141.000000 0.790747 -0.610968 0.037922
14.77000046 16.04000092 -0.61000001 100 8 201 97.000000 1.000000 4.000000 1.000000 -60.708740 114.000000 141.000000 -0.621567 0.709203 -0.332693
14.77000046 15.98999977 -0.52999997 100 8 201 97.000000 1.000000 4.000000 1.000000 -60.708740 114.000000 141.000000 0.850461 -0.503813 -0.151291
14.77000046 15.98999977 -0.66000003 100 8 201 97.000000 1.000000 4.000000 1.000000 -60.708740 114.000000 141.000000 -0.245906 0.958637 -0.143335
14.77000046 15.98999977 -0.63999999 100 8 201 97.000000 1.000000 4.000000 1.000000 -60.708740 114.000000 141.000000 0.838024 -0.525790 -0.145807
14.82999992 15.89000034 -0.41999999 100 8 201 97.000000 1.000000 4.000000 1.000000 -60.708740 114.000000 141.000000 0.867923 -0.459836 -0.187779
14.82999992 15.89999962 -0.43000001 100 8 201 97.000000 1.000000 4.000000 1.000000 -60.708740 114.000000 141.000000 -0.634605 0.769872 -0.067634
14.82999992 15.89000034 -0.41000000 100 8 201 97.000000 1.000000 4.000000 1.000000 -60.708740 114.000000 141.000000 0.792607 -0.533151 0.295843
14.78999996 15.88000011 -0.50000000 100 8 201 97.000000 1.000000 4.000000 1.000000 -60.708740 114.000000 141.000000 0.886041 -0.296350 -0.356522
14.68999958 15.94999981 -0.03000000 100 8 201 97.000000 1.000000 4.000000 1.000000 -60.708740 114.000000 141.000000 0.982556 -0.130277 0.132712
14.68999958 15.97000027 -0.08000000 100 8 201 97.000000 1.000000 4.000000 1.000000 -60.708740 114.000000 141.000000 0.912646 -0.266370 -0.310038
14.68999958 15.94999981 -0.04000000 100 8 201 97.000000 1.000000 4.000000 1.000000 -60.708740 114.000000 141.000000 0.963234 0.010932 -0.268442
14.98999977 16.12999916 -1.13999999 100 8 201 97.000000 1.000000 4.000000 1.000000 -60.708740 114.000000 141.000000 0.095280 0.976309 -0.194272
15.00000000 16.09000015 -1.12000000 100 8 201 97.000000 1.000000 4.000000 1.000000 -60.708740 114.000000 141.000000 0.130654 0.826496 -0.547572
14.97000027 16.12999916 -1.19000006 100 8 201 97.000000 1.000000 4.000000 1.000000 -60.708740 114.000000 141.000000 -0.006937 0.999952 -0.006937
14.97999954 16.12999916 -1.19000006 100 8 201 97.000000 1.000000 4.000000 1.000000 -60.708740 114.000000 141.000000 0.513244 0.715885 -0.473381
14.97000027 16.07999992 -1.13999999 100 8 201 97.000000 1.000000 4.000000 1.000000 -60.708740 114.000000 141.000000 0.457354 0.865547 -0.204096
14.94999981 16.10000038 -1.16999996 100 8 201 97.000000 1.000000 4.000000 1.000000 -60.708740 114.000000 141.000000 0.229407 0.849263 -0.475526
14.94999981 16.10000038 -1.16999996 100 8 201 97.000000 1.000000 4.000000 1.000000 -60.708740 114.000000 141.000000 0.229407 0.849263 -0.475526
14.89999962 16.11000061 -1.03999996 100 8 201 97.000000 1.000000 4.000000 1.000000 -60.708740 114.000000 141.000000 0.273446 0.961390 0.030933
14.93999958 16.12000084 -1.19000006 100 8 201 97.000000 1.000000 4.000000 1.000000 -60.708740 114.000000 141.000000 0.196404 0.979638 0.041661
14.93000031 16.12999916 -1.19000006 100 8 201 97.000000 1.000000 4.000000 1.000000 -60.708740 114.000000 141.000000 0.141501 0.983248 -0.114894
14.93000031 16.12999916 -1.17999995 100 8 201 97.000000 1.000000 4.000000 1.000000 -60.708740 114.000000 141.000000 0.332869 0.941619 0.050513
14.92000008 16.12999916 -1.19000006 100 8 201 97.000000 1.000000 4.000000 1.000000 -60.708740 114.000000 141.000000 -0.097208 0.978231 -0.183341
14.93999958 16.12999916 -1.16999996 100 8 201 97.000000 1.000000 4.000000 1.000000 -60.708740 114.000000 141.000000 0.146697 0.970749 0.190068
14.93999958 16.12999916 -1.17999995 100 8 201 97.000000 1.000000 4.000000 1.000000 -60.708740 114.000000 141.000000 0.293504 0.955448 -0.031224
14.90999985 16.07999992 -1.13000000 100 8 201 97.000000 1.000000 4.000000 1.000000 -60.708740 114.000000 141.000000 0.134773 0.987944 -0.076176
14.93999958 16.07999992 -1.16999996 100 8 201 97.000000 1.000000 4.000000 1.000000 -60.708740 114.000000 141.000000 0.502664 0.836761 -0.217163
14.93000031 16.10000038 -1.17999995 100 8 201 97.000000 1.000000 4.000000 1.000000 -60.708740 114.000000 141.000000 -0.123496 0.917197 -0.378812
14.89999962 16.10000038 -1.15999997 100 8 201 97.000000 1.000000 4.000000 1.000000 -60.708740 114.000000 141.000000 0.422853 0.900133 0.104667
14.93000031 16.12000084 -1.20000005 100 8 201 97.000000 1.000000 4.000000 1.000000 -60.708740 114.000000 141.000000 -0.025876 0.859361 -0.510714
14.85999966 16.04999924 -0.73000002 100 8 201 97.000000 1.000000 4.000000 1.000000 -60.708740 114.000000 141.000000 0.077065 0.977381 0.196944
14.86999989 16.05999947 -0.70999998 100 8 201 97.000000 1.000000 4.000000 1.000000 -60.708740 114.000000 141.000000 -0.454851 0.885909 0.090970
14.86999989 16.04999924 -0.72000003 100 8 201 97.000000 1.000000 4.000000 1.000000 -60.708740 114.000000 141.000000 -0.317863 0.900365 -0.297165
14.88000011 16.05999947 -0.72000003 100 8 201 97.000000 1.000000 4.000000 1.000000 -60.708740 114.000000 141.000000 -0.455987 0.882142 0.117903
14.85999966 16.04000092 -0.76999998 100 8 201 97.000000 1.000000 4.000000 1.000000 -60.708740 114.000000 141.000000 -0.108939 0.884242 -0.454147
14.88000011 16.05999947 -0.75999999 100 8 201 97.000000 1.000000 4.000000 1.000000 -60.708740 114.000000 141.000000 0.169045 0.957036 -0.235598
14.85999966 16.02000046 -0.70999998 100 8 201 97.000000 1.000000 4.000000 1.000000 -60.708740 114.000000 141.000000 -0.327837 0.914187 0.238295
14.89999962 16.01000023 -0.73000002 100 8 201 97.000000 1.000000 4.000000 1.000000 -60.708740 114.000000 141.000000 0.001233 0.950879 -0.309560
14.88000011 16.03000069 -0.74000001 100 8 201 97.000000 1.000000 4.000000 1.000000 -60.708740 114.000000 141.000000 0.049702 0.988258 -0.144482
14.88000011 16.05999947 -0.77999997 100 8 201 97.000000 1.000000 4.000000 1.000000 -60.708740 114.000000 141.000000 -0.253188 0.955750 -0.149792
14.85999966 16.04000092 -0.79000002 100 8 201 97.000000 1.000000 4.000000 1.000000 -60.708740 114.000000 141.000000 0.222449 0.973670 -0.049838
14.85999966 16.04000092 -0.81000000 100 8 201 97.000000 1.000000 4.000000 1.000000 -60.708740 114.000000 141.000000 -0.123944 0.947570 0.294533
14.85999966 16.04000092 -0.82999998 100 8 201 97.000000 1.000000 4.000000 1.000000 -60.708740 114.000000 141.000000 0.135932 0.964467 -0.226553
14.85999966 16.04999924 -0.83999997 100 8 201 97.000000 1.000000 4.000000 1.000000 -60.708740 114.000000 141.000000 0.034146 0.980816 0.191924
14.89000034 16.03000069 -0.80000001 100 8 201 97.000000 1.000000 4.000000 1.000000 -60.708740 114.000000 141.000000 0.211711 0.932369 -0.293030
14.89999962 16.03000069 -0.81000000 100 8 201 97.000000 1.000000 4.000000 1.000000 -60.708740 114.000000 141.000000 0.071058 0.968636 -0.238107
14.89000034 16.03000069 -0.81000000 100 8 201 97.000000 1.000000 4.000000 1.000000 -60.708740 114.000000 141.000000 0.044800 0.945924 -0.321281
14.88000011 16.02000046 -0.85000002 100 8 201 97.000000 1.000000 4.000000 1.000000 -60.708740 114.000000 141.000000 0.270307 0.917888 -0.290544
14.88000011 16.03000069 -0.82999998 100 8 201 97.000000 1.000000 4.000000 1.000000 -60.708740 114.000000 141.000000 0.302287 0.939687 -0.160034
14.88000011 16.02000046 -0.85000002 100 8 201 97.000000 1.000000 4.000000 1.000000 -60.708740 114.000000 141.000000 0.270307 0.917888 -0.290544
14.86999989 15.92000008 -0.70999998 100 8 201 97.000000 1.000000 4.000000 1.000000 -60.708740 114.000000 141.000000 -0.240899 0.969711 -0.040354
14.86999989 15.90999985 -0.81999999 100 8 201 97.000000 1.000000 4.000000 1.000000 -60.708740 114.000000 141.000000 -0.377346 0.909903 -0.172298
14.88000011 15.90999985 -0.81999999 100 8 201 97.000000 1.000000 4.000000 1.000000 -60.708740 114.000000 141.000000 -0.178665 0.975784 0.126190
15.02000046 15.90999985 -0.88999999 100 8 201 97.000000 1.000000 4.000000 1.000000 -60.708740 114.000000 141.000000 0.280111 0.920777 -0.271493
14.96000004 15.90999985 -0.99000001 100 8 201 97.000000 1.000000 4.000000 1.000000 -60.708740 114.000000 141.000000 0.338906 0.731323 -0.591869
14.93999958 16.00000000 -0.94000000 100 8 201 97.000000 1.000000 4.000000 1.000000 -60.708740 114.000000 141.000000 -0.028124 0.893268 -0.448643
14.88000011 16.04000092 -0.88000000 100 8 201 97.000000 1.000000 4.000000 1.000000 -60.708740 114.000000 141.000000 0.269499 0.956918 0.108060
14.88000011 16.04000092 -0.86000001 100 8 201 97.000000 1.000000 4.000000 1.000000 -60.708740 114.000000 141.000000 -0.301238 0.906652 -0.295360
14.89000034 16.04999924 -0.86000001 100 8 201 97.000000 1.000000 4.000000 1.000000 -60.708740 114.000000 141.000000 0.298550 0.953595 0.039051
14.89000034 16.04999924 -0.86000001 100 8 201 97.000000 1.000000 4.000000 1.000000 -60.708740 114.000000 141.000000 0.298550 0.953595 0.039051
14.89000034 16.04000092 -0.87000000 100 8 201 97.000000 1.000000 4.000000 1.000000 -60.708740 114.000000 141.000000 0.394540 0.900361 -0.183541
14.86999989 16.04000092 -0.93000001 100 8 201 97.000000 1.000000 4.000000 1.000000 -60.708740 114.000000 141.000000 0.313325 0.947710 0.060602
14.85999966 16.04000092 -0.93000001 100 8 201 97.000000 1.000000 4.000000 1.000000 -60.708740 114.000000 141.000000 0.113256 0.944689 -0.307790
14.86999989 16.04000092 -0.94000000 100 8 201 97.000000 1.000000 4.000000 1.000000 -60.708740 114.000000 141.000000 0.208264 0.966292 0.151347
14.85999966 16.03000069 -0.88999999 100 8 201 97.000000 1.000000 4.000000 1.000000 -60.708740 114.000000 141.000000 -0.209481 0.967726 0.140083
14.89999962 16.03000069 -0.88000000 100 8 201 97.000000 1.000000 4.000000 1.000000 -60.708740 114.000000 141.000000 0.382214 0.921336 -0.071078
14.89000034 16.03000069 -0.88999999 100 8 201 97.000000 1.000000 4.000000 1.000000 -60.708740 114.000000 141.000000 0.135345 0.890430 -0.434530
14.85999966 16.02000046 -0.86000001 100 8 201 97.000000 1.000000 4.000000 1.000000 -60.708740 114.000000 141.000000 -0.235969 0.967852 0.087069
14.89999962 16.02000046 -0.93000001 100 8 201 97.000000 1.000000 4.000000 1.000000 -60.708740 114.000000 141.000000 0.432549 0.841675 -0.323241
14.89000034 16.03000069 -0.92000002 100 8 201 97.000000 1.000000 4.000000 1.000000 -60.708740 114.000000 141.000000 -0.026256 0.953951 -0.298813
14.86999989 16.03000069 -0.93000001 100 8 201 97.000000 1.000000 4.000000 1.000000 -60.708740 114.000000 141.000000 0.161684 0.960902 0.224780
14.86999989 16.03000069 -0.93000001 100 8 201 97.000000 1.000000 4.000000 1.000000 -60.708740 114.000000 141.000000 0.161684 0.960902 0.224780
14.90999985 16.02000046 -0.98000002 100 8 201 97.000000 1.000000 4.000000 1.000000 -60.708740 114.000000 141.000000 0.347000 0.935448 0.067289
14.90999985 16.02000046 -0.98000002 100 8 201 97.000000 1.000000 4.000000 1.000000 -60.708740 114.000000 141.000000 0.347000 0.935448 0.067289
14.85999966 16.05999947 -0.94999999 100 8 201 97.000000 1.000000 4.000000 1.000000 -60.708740 114.000000 141.000000 -0.043806 0.959985 0.276606
14.86999989 16.04000092 -1.00000000 100 8 201 97.000000 1.000000 4.000000 1.000000 -60.708740 114.000000 141.000000 -0.104547 0.984185 -0.143001
14.88000011 16.04000092 -1.00000000 100 8 201 97.000000 1.000000 4.000000 1.000000 -60.708740 114.000000 141.000000 0.097344 0.940101 -0.326702
14.85999966 16.03000069 -0.95999998 100 8 201 97.000000 1.000000 4.000000 1.000000 -60.708740 114.000000 141.000000 -0.111638 0.990929 -0.074809
14.89000034 16.01000023 -0.95999998 100 8 201 97.000000 1.000000 4.000000 1.000000 -60.708740 114.000000 141.000000 0.463285 0.879816 -0.106258
14.85999966 16.03000069 -0.98000002 100 8 201 97.000000 1.000000 4.000000 1.000000 -60.708740 114.000000 141.000000 0.203310 0.974143 0.098537
14.85999966 16.03000069 -0.95999998 100 8 201 97.000000 1.000000 4.000000 1.000000 -60.708740 114.000000 141.000000 -0.111638 0.990929 -0.074809
14.85999966 16.03000069 -0.95999998 100 8 201 97.000000 1.000000 4.000000 1.000000 -60.708740 114.000000 141.000000 -0.111638 0.990929 -0.074809
14.85999966 16.03000069 -1.01999998 100 8 201 97.000000 1.000000 4.000000 1.000000 -60.708740 114.000000 141.000000 0.114483 0.987856 -0.105041
14.85999966 16.03000069 -1.01999998 100 8 201 97.000000 1.000000 4.000000 1.000000 -60.708740 114.000000 141.000000 0.114483 0.987856 -0.105041
14.85999966 16.03000069 -0.99000001 100 8 201 97.000000 1.000000 4.000000 1.000000 -60.708740 114.000000 141.000000 0.060392 0.995925 -0.066981
14.85999966 15.92000008 -0.87000000 100 8 201 97.000000 1.000000 4.000000 1.000000 -60.708740 114.000000 141.000000 -0.037328 0.938347 -0.343674
14.85999966 15.90999985 -0.88000000 100 8 201 97.000000 1.000000 4.000000 1.000000 -60.708740 114.000000 141.000000 0.083045 0.988357 0.127492
14.93000031 15.90999985 -0.95999998 100 8 201 97.000000 1.000000 4.000000 1.000000 -60.708740 114.000000 141.000000 0.555949 0.827492 0.078605
14.93000031 15.93000031 -1.00999999 100 8 201 97.000000 1.000000 4.000000 1.000000 -60.708740 114.000000 141.000000 0.561270 0.827495 -0.015095
14.98999977 15.88000011 -0.75000000 100 8 201 97.000000 1.000000 4.000000 1.000000 -60.708740 114.000000 141.000000 0.286334 0.783068 -0.552103
15.00000000 15.84000015 -0.73000002 100 8 201 97.000000 1.000000 4.000000 1.000000 -60.708740 114.000000 141.000000 0.726903 0.379040 -0.572662
15.00000000 15.85000038 -0.73000002 100 8 201 97.000000 1.000000 4.000000 1.000000 -60.708740 114.000000 141.000000 0.617193 0.549555 -0.563083
15.01000023 15.85000038 -0.70999998 100 8 201 97.000000 1.000000 4.000000 1.000000 -60.708740 114.000000 141.000000 0.913547 0.291928 -0.283214
15.00000000 15.85999966 -0.76999998 100 8 201 97.000000 1.000000 4.000000 1.000000 -60.708740 114.000000 141.000000 0.830120 0.557503 -0.009542
14.97999954 15.89999962 -0.69999999 100 8 201 97.000000 1.000000 4.000000 1.000000 -60.708740 114.000000 141.000000 0.409102 0.847760 -0.337548
14.97000027 15.86999989 -0.73000002 100 8 201 97.000000 1.000000 4.000000 1.000000 -60.708740 114.000000 141.000000 0.090271 0.983356 -0.157674
14.97999954 15.86999989 -0.76999998 100 8 201 97.000000 1.000000 4.000000 1.000000 -60.708740 114.000000 141.000000 0.523571 0.851981 0.001346
14.97000027 15.85999966 -0.73000002 100 8 201 97.000000 1.000000 4.000000 1.000000 -60.708740 114.000000 141.000000 0.350250 0.848384 -0.396950
14.96000004 15.82999992 -0.70999998 100 8 201 97.000000 1.000000 4.000000 1.000000 -60.708740 114.000000 141.000000 0.716044 0.679558 -0.159628
14.94999981 15.84000015 -0.69999999 100 8 201 97.000000 1.000000 4.000000 1.000000 -60.708740 114.000000 141.000000 0.684025 0.728971 -0.026687
14.98999977 15.82999992 -0.81000000 100 8 201 97.000000 1.000000 4.000000 1.000000 -60.708740 114.000000 141.000000 0.779143 0.353276 -0.517815
15.00000000 15.82999992 -0.85000002 100 8 201 97.000000 1.000000 4.000000 1.000000 -60.708740 114.000000 141.000000 0.529358 0.715214 -0.456343
14.98999977 15.84000015 -0.85000002 100 8 201 97.000000 1.000000 4.000000 1.000000 -60.708740 114.000000 141.000000 0.783368 0.614777 -0.091563
15.00000000 15.82999992 -0.85000002 100 8 201 97.000000 1.000000 4.000000 1.000000 -60.708740 114.000000 141.000000 0.529358 0.715214 -0.456343
14.97000027 15.85999966 -0.81999999 100 8 201 97.000000 1.000000 4.000000 1.000000 -60.708740 114.000000 141.000000 0.634647 0.627949 -0.450449
14.98999977 15.78999996 -0.70999998 100 8 201 97.000000 1.000000 4.000000 1.000000 -60.708740 114.000000 141.000000 0.870792 0.489564 -0.045254
15.01000023 15.78999996 -0.75000000 100 8 201 97.000000 1.000000 4.000000 1.000000 -60.708740 114.000000 141.000000 0.927948 0.216098 -0.303667
15.01000023 15.77000046 -0.75000000 100 8 201 97.000000 1.000000 4.000000 1.000000 -60.708740 114.000000 141.000000 0.955378 -0.275766 -0.105863
14.97999954 15.77000046 -0.75000000 100 8 201 97.000000 1.000000 4.000000 1.000000 -60.708740 114.000000 141.000000 0.941644 0.315672 0.116866
14.97999954 15.77000046 -0.74000001 100 8 201 97.000000 1.000000 4.000000 1.000000 -60.708740 114.000000 141.000000 0.964115 0.207435 0.165687
15.00000000 15.80000019 -0.81000000 100 8 201 97.000000 1.000000 4.000000 1.000000 -60.708740 114.000000 141.000000 0.940741 0.303596 -0.151118
15.00000000 15.80000019 -0.81000000 100 8 201 97.000000 1.000000 4.000000 1.000000 -60.708740 114.000000 141.000000 0.940741 0.303596 -0.151118
15.01000023 15.78999996 -0.83999997 100 8 201 97.000000 1.000000 4.000000 1.000000 -60.708740 114.000000 141.000000 0.718383 0.519293 -0.462884
14.98999977 15.81000042 -0.85000002 100 8 201 97.000000 1.000000 4.000000 1.000000 -60.708740 114.000000 141.000000 0.857455 0.514473 0.009452
14.98999977 15.81999969 -0.81999999 100 8 201 97.000000 1.000000 4.000000 1.000000 -60.708740 114.000000 141.000000 0.856983 0.508524 0.083574
14.98999977 15.81999969 -0.81999999 100 8 201 97.000000 1.000000 4.000000 1.000000 -60.708740 114.000000 141.000000 0.856983 0.508524 0.083574
14.93000031 15.85999966 -0.73000002 100 8 201 97.000000 1.000000 4.000000 1.000000 -60.708740 114.000000 141.000000 0.478147 0.819004 -0.317187
14.86999989 15.89000034 -0.76999998 100 8 201 97.000000 1.000000 4.000000 1.000000 -60.708740 114.000000 141.000000 0.044937 0.972831 -0.227115
14.93999958 15.85999966 -0.82999998 100 8 201 97.000000 1.000000 4.000000 1.000000 -60.708740 114.000000 141.000000 0.365373 0.842083 -0.396735
14.85999966 15.89999962 -0.85000002 100 8 201 97.000000 1.000000 4.000000 1.000000 -60.708740 114.000000 141.000000 0.037193 0.975427 -0.217161
14.89000034 15.89999962 -0.83999997 100 8 201 97.000000 1.000000 4.000000 1.000000 -60.708740 114.000000 141.000000 -0.050169 0.896264 -0.440674
14.89000034 15.89999962 -0.83999997 100 8 201 97.000000 1.000000 4.000000 1.000000 -60.708740 114.000000 141.000000 -0.050169 0.896264 -0.440674
14.93000031 15.85999966 -0.83999997 100 8 201 97.000000 1.000000 4.000000 1.000000 -60.708740 114.000000 141.000000 0.579360 0.800924 -0.151203
14.85999966 15.89999962 -0.81999999 100 8 201 97.000000 1.000000 4.000000 1.000000 -60.708740 114.000000 141.000000 0.096299 0.945845 -0.310005
14.85999966 15.89999962 -0.85000002 100 8 201 97.000000 1.000000 4.000000 1.000000 -60.708740 114.000000 141.000000 0.037193 0.975427 -0.217161
14.85999966 15.89999962 -0.81000000 100 8 201 97.000000 1.000000 4.000000 1.000000 -60.708740 114.000000 141.000000 -0.149985 0.934313 0.323363
14.85999966 15.89000034 -0.82999998 100 8 201 97.000000 1.000000 4.000000 1.000000 -60.708740 114.000000 141.000000 0.067411 0.974397 -0.214490
14.89000034 15.89999962 -0.79000002 100 8 201 97.000000 1.000000 4.000000 1.000000 -60.708740 114.000000 141.000000 -0.191967 0.979152 -0.066404
14.85999966 15.89999962 -0.81000000 100 8 201 97.000000 1.000000 4.000000 1.000000 -60.708740 114.000000 141.000000 -0.149985 0.934313 0.323363
14.89000034 15.89999962 -0.85000002 100 8 201 97.000000 1.000000 4.000000 1.000000 -60.708740 114.000000 141.000000 -0.240471 0.965700 -0.097970
15.01000023 15.86999989 -0.92000002 100 8 201 97.000000 1.000000 4.000000 1.000000 -60.708740 114.000000 141.000000 0.911381 0.321236 -0.257280
14.98999977 15.82999992 -0.88000000 100 8 201 97.000000 1.000000 4.000000 1.000000 -60.708740 114.000000 141.000000 0.764137 0.506709 -0.399176
14.98999977 15.82999992 -0.89999998 100 8 201 97.000000 1.000000 4.000000 1.000000 -60.708740 114.000000 141.000000 0.486045 0.823619 -0.292252
14.98999977 15.82999992 -0.86000001 100 8 201 97.000000 1.000000 4.000000 1.000000 -60.708740 114.000000 141.000000 0.895819 0.411124 -0.168777
15.01000023 15.85000038 -0.94000000 100 8 201 97.000000 1.000000 4.000000 1.000000 -60.708740 114.000000 141.000000 0.870967 0.490513 -0.028534
