//X Y Z R G B PointSourceId ScanDirectionFlag NumberOfReturns ReturnNumber GpsTime Intensity Classification Nx Ny Nz
-0.27000001 3.31999993 -0.14000000 72 44 197 97.000000 1.000000 4.000000 1.000000 -60.708740 114.000000 231.000000 -0.141739 0.069112 0.987488
-0.25000000 3.32999992 -0.18000001 72 44 197 97.000000 1.000000 4.000000 1.000000 -60.708740 114.000000 231.000000 -0.070134 -0.279262 0.957650
-0.28000000 3.33999991 -0.31000000 72 44 197 97.000000 1.000000 4.000000 1.000000 -60.708740 114.000000 231.000000 0.827125 0.031866 -0.561115
-0.40000001 3.48000002 -0.23999999 72 44 197 97.000000 1.000000 4.000000 1.000000 -60.708740 114.000000 231.000000 0.666450 -0.518723 -0.535510
-0.34999999 3.33999991 -0.27000001 72 44 197 97.000000 1.000000 4.000000 1.000000 -60.708740 114.000000 231.000000 0.723555 0.015335 -0.690096
-0.34000000 3.34999990 -0.31000000 72 44 197 97.000000 1.000000 4.000000 1.000000 -60.708740 114.000000 231.000000 0.709698 0.199458 -0.675682
-0.20000000 3.57999992 -0.36000001 72 44 197 97.000000 1.000000 4.000000 1.000000 -60.708740 114.000000 231.000000 0.820542 -0.466397 -0.330430
-0.20000000 3.59999990 -0.37000000 72 44 197 97.000000 1.000000 4.000000 1.000000 -60.708740 114.000000 231.000000 0.802700 -0.435935 -0.406980
-0.19000000 3.58999991 -0.41999999 72 44 197 97.000000 1.000000 4.000000 1.000000 -60.708740 114.000000 231.000000 0.841263 -0.539129 0.040192
-0.20999999 3.58999991 -0.37000000 72 44 197 97.000000 1.000000 4.000000 1.000000 -60.708740 114.000000 231.000000 0.962858 -0.144624 -0.228011
-0.20999999 3.59999990 -0.38999999 72 44 197 97.000000 1.000000 4.000000 1.000000 -60.708740 114.000000 231.000000 0.915682 -0.398528 0.051982
-0.20999999 3.60999990 -0.40000001 72 44 197 97.000000 1.000000 4.000000 1.000000 -60.708740 114.000000 231.000000 0.910403 -0.214976 -0.353485
-0.23999999 3.63000011 -0.44999999 72 44 197 97.000000 1.000000 4.000000 1.000000 -60.708740 114.000000 231.000000 0.791421 -0.441836 -0.422415
-0.19000000 3.51999998 -0.46000001 72 44 197 97.000000 1.000000 4.000000 1.000000 -60.708740 114.000000 231.000000 0.991012 -0.063012 -0.118005
-0.22000000 3.52999997 -0.51999998 72 44 197 97.000000 1.000000 4.000000 1.000000 -60.708740 114.000000 231.000000 0.763656 -0.439879 0.472584
-0.20000000 3.64000010 -0.68000001 72 44 197 97.000000 1.000000 4.000000 1.000000 -60.708740 114.000000 231.000000 0.574134 -0.305458 0.759648
-0.17000000 3.65000010 -0.68000001 72 44 197 97.000000 1.000000 4.000000 1.000000 -60.708740 114.000000 231.000000 0.580344 -0.174255 0.795510
-0.20000000 3.63000011 -0.66000003 72 44 197 97.000000 1.000000 4.000000 1.000000 -60.708740 114.000000 231.000000 0.709380 -0.283432 0.645327
-0.18000001 3.61999989 -0.69000000 72 44 197 97.000000 1.000000 4.000000 1.000000 -60.708740 114.000000 231.000000 0.788820 -0.413037 0.455151
-0.19000000 3.61999989 -0.68000001 72 44 197 97.000000 1.000000 4.000000 1.000000 -60.708740 114.000000 231.000000 0.722848 -0.480237 0.496854
-0.20000000 3.60999990 -0.67000002 72 44 197 97.000000 1.000000 4.000000 1.000000 -60.708740 114.000000 231.000000 -0.368323 0.826751 -0.425231
-0.22000000 3.64000010 -0.63999999 72 44 197 97.000000 1.000000 4.000000 1.000000 -60.708740 114.000000 231.000000 -0.511005 0.822857 -0.248555
-0.22000000 3.61999989 -0.63000000 72 44 197 97.000000 1.000000 4.000000 1.000000 -60.708740 114.000000 231.000000 -0.729219 0.514256 -0.451421
-0.23999999 3.57999992 -0.61000001 72 44 197 97.000000 1.000000 4.000000 1.000000 -60.708740 114.000000 231.000000 0.682709 -0.276601 0.676314
-0.20999999 3.58999991 -0.63000000 72 44 197 97.000000 1.000000 4.000000 1.000000 -60.708740 114.000000 231.000000 0.701001 -0.322169 0.636243
-0.23000000 3.57999992 -0.68000001 72 44 197 97.000000 1.000000 4.000000 1.000000 -60.708740 114.000000 231.000000 0.631313 -0.377469 0.677467
-0.20999999 3.58999991 -0.69000000 72 44 197 97.000000 1.000000 4.000000 1.000000 -60.708740 114.000000 231.000000 0.638178 -0.591031 0.493367
-0.23000000 3.57999992 -0.68000001 72 44 197 97.000000 1.000000 4.000000 1.000000 -60.708740 114.000000 231.000000 0.631313 -0.377469 0.677467
-0.23999999 3.57999992 -0.67000002 72 44 197 97.000000 1.000000 4.000000 1.000000 -60.708740 114.000000 231.000000 -0.632022 0.724358 -0.275415
-0.23000000 3.60999990 -0.64999998 72 44 197 97.000000 1.000000 4.000000 1.000000 -60.708740 114.000000 231.000000 0.815088 -0.527410 0.239732
-0.20000000 3.49000001 -0.56999999 72 44 197 97.000000 1.000000 4.000000 1.000000 -60.708740 114.000000 231.000000 0.801489 -0.492366 0.339398
-0.22000000 3.53999996 -0.55000001 72 44 197 97.000000 1.000000 4.000000 1.000000 -60.708740 114.000000 231.000000 0.927711 -0.353869 -0.118867
-0.20999999 3.55999994 -0.57999998 72 44 197 97.000000 1.000000 4.000000 1.000000 -60.708740 114.000000 231.000000 0.699427 -0.607267 0.376868
-0.23000000 3.53999996 -0.60000002 72 44 197 97.000000 1.000000 4.000000 1.000000 -60.708740 114.000000 231.000000 0.682499 -0.534932 0.498040
-0.20000000 3.55999994 -0.64999998 72 44 197 97.000000 1.000000 4.000000 1.000000 -60.708740 114.000000 231.000000 -0.549219 0.724045 -0.417274
-0.23000000 3.54999995 -0.63000000 72 44 197 97.000000 1.000000 4.000000 1.000000 -60.708740 114.000000 231.000000 0.750767 -0.534860 0.387651
-0.22000000 3.55999994 -0.63000000 72 44 197 97.000000 1.000000 4.000000 1.000000 -60.708740 114.000000 231.000000 0.873648 -0.215807 0.436080
-0.23000000 3.55999994 -0.62000000 72 44 197 97.000000 1.000000 4.000000 1.000000 -60.708740 114.000000 231.000000 0.696892 -0.447408 0.560507
-0.20999999 3.54999995 -0.68000001 72 44 197 97.000000 1.000000 4.000000 1.000000 -60.708740 114.000000 231.000000 0.819331 -0.329942 0.468866
-0.20999999 3.50999999 -0.63999999 72 44 197 97.000000 1.000000 4.000000 1.000000 -60.708740 114.000000 231.000000 0.605334 -0.662032 0.441910
-0.23999999 3.51999998 -0.61000001 72 44 197 97.000000 1.000000 4.000000 1.000000 -60.708740 114.000000 231.000000 0.795893 -0.184136 0.576756
-0.11000000 3.41000009 -0.47999999 72 44 197 97.000000 1.000000 4.000000 1.000000 -60.708740 114.000000 231.000000 0.911684 0.069087 -0.405042
-0.12000000 3.36999989 -0.38999999 72 44 197 97.000000 1.000000 4.000000 1.000000 -60.708740 114.000000 231.000000 0.016913 0.000995 0.999856
-0.11000000 3.39000010 -0.38000000 72 44 197 97.000000 1.000000 4.000000 1.000000 -60.708740 114.000000 231.000000 0.684602 0.169244 -0.708997
-0.11000000 3.36999989 -0.36000001 72 44 197 97.000000 1.000000 4.000000 1.000000 -60.708740 114.000000 231.000000 -0.411594 -0.137198 0.900981
-0.11000000 3.36999989 -0.41000000 72 44 197 97.000000 1.000000 4.000000 1.000000 -60.708740 114.000000 231.000000 -0.586712 -0.128574 0.799524
-0.10000000 3.33999991 -0.36000001 72 44 197 97.000000 1.000000 4.000000 1.000000 -60.708740 114.000000 231.000000 0.114005 -0.050794 0.992181
-0.10000000 3.33999991 -0.38999999 72 44 197 97.000000 1.000000 4.000000 1.000000 -60.708740 114.000000 231.000000 0.161261 -0.057677 0.985225
-0.12000000 3.34999990 -0.41000000 72 44 197 97.000000 1.000000 4.000000 1.000000 -60.708740 114.000000 231.000000 -0.417825 0.184891 0.889515
-0.14000000 3.38000011 -0.38999999 72 44 197 97.000000 1.000000 4.000000 1.000000 -60.708740 114.000000 231.000000 -0.122277 -0.058281 0.990783
-0.15000001 3.38000011 -0.36000001 72 44 197 97.000000 1.000000 4.000000 1.000000 -60.708740 114.000000 231.000000 -0.326954 0.332981 0.884434
-0.13000000 3.35999990 -0.38999999 72 44 197 97.000000 1.000000 4.000000 1.000000 -60.708740 114.000000 231.000000 -0.299484 0.031327 0.953587
-0.15000001 3.31999993 -0.38999999 72 44 197 97.000000 1.000000 4.000000 1.000000 -60.708740 114.000000 231.000000 -0.606177 -0.067353 0.792473
-0.16000000 3.32999992 -0.43000001 72 44 197 97.000000 1.000000 4.000000 1.000000 -60.708740 114.000000 231.000000 0.765925 0.029513 -0.642253
-0.13000000 3.34999990 -0.41999999 72 44 197 97.000000 1.000000 4.000000 1.000000 -60.708740 114.000000 231.000000 -0.607013 -0.239982 0.757590
-0.14000000 3.32999992 -0.41000000 72 44 197 97.000000 1.000000 4.000000 1.000000 -60.708740 114.000000 231.000000 -0.290535 0.092502 0.952383
-0.13000000 3.34999990 -0.41999999 72 44 197 97.000000 1.000000 4.000000 1.000000 -60.708740 114.000000 231.000000 -0.607013 -0.239982 0.757590
-0.15000001 3.32999992 -0.41000000 72 44 197 97.000000 1.000000 4.000000 1.000000 -60.708740 114.000000 231.000000 -0.518322 0.066019 0.852633
-0.15000001 3.34999990 -0.40000001 72 44 197 97.000000 1.000000 4.000000 1.000000 -60.708740 114.000000 231.000000 -0.306921 -0.272011 0.912036
-0.12000000 3.36999989 -0.50000000 72 44 197 97.000000 1.000000 4.000000 1.000000 -60.708740 114.000000 231.000000 0.906778 -0.001297 -0.421606
-0.12000000 3.35999990 -0.47999999 72 44 197 97.000000 1.000000 4.000000 1.000000 -60.708740 114.000000 231.000000 -0.378186 -0.001273 0.925729
-0.13000000 3.33999991 -0.46000001 72 44 197 97.000000 1.000000 4.000000 1.000000 -60.708740 114.000000 231.000000 -0.080103 0.208267 0.974786
-0.13000000 3.31999993 -0.44999999 72 44 197 97.000000 1.000000 4.000000 1.000000 -60.708740 114.000000 231.000000 -0.117559 0.141798 0.982890
-0.15000001 3.33999991 -0.47000000 72 44 197 97.000000 1.000000 4.000000 1.000000 -60.708740 114.000000 231.000000 -0.790623 0.107079 0.602868
-0.13000000 3.31999993 -0.44000000 72 44 197 97.000000 1.000000 4.000000 1.000000 -60.708740 114.000000 231.000000 -0.288940 -0.449634 0.845188
-0.15000001 3.31999993 -0.47000000 72 44 197 97.000000 1.000000 4.000000 1.000000 -60.708740 114.000000 231.000000 -0.432306 -0.150804 0.889027
-0.18000001 3.33999991 -0.38999999 72 44 197 97.000000 1.000000 4.000000 1.000000 -60.708740 114.000000 231.000000 0.707745 0.079930 -0.701932
-0.18000001 3.33999991 -0.38999999 72 44 197 97.000000 1.000000 4.000000 1.000000 -60.708740 114.000000 231.000000 0.707745 0.079930 -0.701932
-0.17000000 3.31999993 -0.43000001 72 44 197 97.000000 1.000000 4.000000 1.000000 -60.708740 114.000000 231.000000 -0.652470 0.009697 0.757752
-0.19000000 3.31999993 -0.50999999 72 44 197 97.000000 1.000000 4.000000 1.000000 -60.708740 114.000000 231.000000 0.699982 -0.061805 -0.711481
-0.23999999 3.33999991 -0.46000001 72 44 197 97.000000 1.000000 4.000000 1.000000 -60.708740 114.000000 231.000000 -0.648389 0.269233 0.712113
-0.23999999 3.35999990 -0.46000001 72 44 197 97.000000 1.000000 4.000000 1.000000 -60.708740 114.000000 231.000000 0.837349 -0.178255 -0.516790
-0.11000000 3.36999989 -0.55000001 72 44 197 97.000000 1.000000 4.000000 1.000000 -60.708740 114.000000 231.000000 -0.359155 0.755688 -0.547671
-0.09000000 3.40000010 -0.56999999 72 44 197 97.000000 1.000000 4.000000 1.000000 -60.708740 114.000000 231.000000 0.531499 -0.464853 0.708110
-0.12000000 3.31999993 -0.56000000 72 44 197 97.000000 1.000000 4.000000 1.000000 -60.708740 114.000000 231.000000 -0.003232 0.104516 0.994518
-0.09000000 3.34999990 -0.57999998 72 44 197 97.000000 1.000000 4.000000 1.000000 -60.708740 114.000000 231.000000 0.572842 0.360679 -0.736045
-0.09000000 3.32999992 -0.60000002 72 44 197 97.000000 1.000000 4.000000 1.000000 -60.708740 114.000000 231.000000 -0.606321 -0.018037 0.795016
-0.14000000 3.38000011 -0.55000001 72 44 197 97.000000 1.000000 4.000000 1.000000 -60.708740 114.000000 231.000000 0.738170 -0.327896 0.589567
-0.14000000 3.31999993 -0.52999997 72 44 197 97.000000 1.000000 4.000000 1.000000 -60.708740 114.000000 231.000000 0.901005 -0.217585 -0.375297
-0.14000000 3.31999993 -0.52999997 72 44 197 97.000000 1.000000 4.000000 1.000000 -60.708740 114.000000 231.000000 0.901005 -0.217585 -0.375297
-0.14000000 3.33999991 -0.54000002 72 44 197 97.000000 1.000000 4.000000 1.000000 -60.708740 114.000000 231.000000 -0.635092 0.732798 0.244266
-0.20000000 3.47000003 -0.69000000 72 44 197 97.000000 1.000000 4.000000 1.000000 -60.708740 114.000000 231.000000 0.689613 -0.433709 0.579940
-0.23999999 3.48000002 -0.62000000 72 44 197 97.000000 1.000000 4.000000 1.000000 -60.708740 114.000000 231.000000 0.841954 -0.326472 0.429568
-0.23000000 3.47000003 -0.64999998 72 44 197 97.000000 1.000000 4.000000 1.000000 -60.708740 114.000000 231.000000 -0.434933 0.827164 -0.355855
-0.19000000 3.36999989 -0.58999997 72 44 197 97.000000 1.000000 4.000000 1.000000 -60.708740 114.000000 231.000000 -0.340002 0.704406 -0.623066
-0.17000000 3.31999993 -0.54000002 72 44 197 97.000000 1.000000 4.000000 1.000000 -60.708740 114.000000 231.000000 0.952651 -0.222961 -0.206746
-0.17000000 3.34999990 -0.61000001 72 44 197 97.000000 1.000000 4.000000 1.000000 -60.708740 114.000000 231.000000 0.530876 -0.631995 0.564582
-0.19000000 3.34999990 -0.63999999 72 44 197 97.000000 1.000000 4.000000 1.000000 -60.708740 114.000000 231.000000 0.732494 -0.205966 0.648869
-0.20000000 3.33999991 -0.64999998 72 44 197 97.000000 1.000000 4.000000 1.000000 -60.708740 114.000000 231.000000 0.544515 -0.675199 0.497603
-0.28999999 3.61999989 -0.38000000 72 44 197 97.000000 1.000000 4.000000 1.000000 -60.708740 114.000000 231.000000 0.953544 -0.297587 0.046854
-0.28999999 3.61999989 -0.38000000 72 44 197 97.000000 1.000000 4.000000 1.000000 -60.708740 114.000000 231.000000 0.953544 -0.297587 0.046854
-0.27000001 3.63000011 -0.41999999 72 44 197 97.000000 1.000000 4.000000 1.000000 -60.708740 114.000000 231.000000 0.804363 -0.291208 -0.517878
-0.31999999 3.59999990 -0.36000001 72 44 197 97.000000 1.000000 4.000000 1.000000 -60.708740 114.000000 231.000000 0.971794 -0.093803 -0.216371
-0.30000001 3.58999991 -0.36000001 72 44 197 97.000000 1.000000 4.000000 1.000000 -60.708740 114.000000 231.000000 0.866480 -0.366529 -0.338924
-0.31999999 3.60999990 -0.38999999 72 44 197 97.000000 1.000000 4.000000 1.000000 -60.708740 114.000000 231.000000 0.752641 -0.338284 -0.564885
-0.28999999 3.65000010 -0.51999998 72 44 197 97.000000 1.000000 4.000000 1.000000 -60.708740 114.000000 231.000000 0.929088 -0.369856 0.001271
-0.28999999 3.58999991 -0.49000001 72 44 197 97.000000 1.000000 4.000000 1.000000 -60.708740 114.000000 231.000000 0.898324 -0.371974 -0.233770
-0.28000000 3.59999990 -0.49000001 72 44 197 97.000000 1.000000 4.000000 1.000000 -60.708740 114.000000 231.000000 0.967446 -0.252430 0.018117
-0.28000000 3.59999990 -0.49000001 72 44 197 97.000000 1.000000 4.000000 1.000000 -60.708740 114.000000 231.000000 0.967446 -0.252430 0.018117
-0.28999999 3.54999995 -0.36000001 72 44 197 97.000000 1.000000 4.000000 1.000000 -60.708740 114.000000 231.000000 0.766700 -0.243023 -0.594231
-0.33000001 3.50000000 -0.36000001 72 44 197 97.000000 1.000000 4.000000 1.000000 -60.708740 114.000000 231.000000 0.505820 -0.462701 -0.728049
-0.25000000 3.55999994 -0.47999999 72 44 197 97.000000 1.000000 4.000000 1.000000 -60.708740 114.000000 231.000000 0.928180 -0.239485 -0.284831
-0.28999999 3.56999993 -0.47000000 72 44 197 97.000000 1.000000 4.000000 1.000000 -60.708740 114.000000 231.000000 0.863762 -0.317582 -0.391224
-0.25000000 3.53999996 -0.47000000 72 44 197 97.000000 1.000000 4.000000 1.000000 -60.708740 114.000000 231.000000 0.900780 -0.143274 -0.409961
-0.25000000 3.55999994 -0.47999999 72 44 197 97.000000 1.000000 4.000000 1.000000 -60.708740 114.000000 231.000000 0.928180 -0.239485 -0.284831
-0.27000001 3.52999997 -0.46000001 72 44 197 97.000000 1.000000 4.000000 1.000000 -60.708740 114.000000 231.000000 0.956250 -0.246045 -0.158267
-0.25000000 3.55999994 -0.46000001 72 44 197 97.000000 1.000000 4.000000 1.000000 -60.708740 114.000000 231.000000 0.982060 -0.161053 0.098085
-0.25000000 3.53999996 -0.50999999 72 44 197 97.000000 1.000000 4.000000 1.000000 -60.708740 114.000000 231.000000 0.867582 -0.351640 0.351640
-0.27000001 3.55999994 -0.50000000 72 44 197 97.000000 1.000000 4.000000 1.000000 -60.708740 114.000000 231.000000 0.814780 -0.459008 0.354183
-0.27000001 3.55999994 -0.50999999 72 44 197 97.000000 1.000000 4.000000 1.000000 -60.708740 114.000000 231.000000 0.839897 -0.359507 0.406604
-0.30000001 3.53999996 -0.47999999 72 44 197 97.000000 1.000000 4.000000 1.000000 -60.708740 114.000000 231.000000 0.760451 -0.423563 -0.492249
-0.30000001 3.52999997 -0.47999999 72 44 197 97.000000 1.000000 4.000000 1.000000 -60.708740 114.000000 231.000000 0.891083 -0.304017 -0.336964
-0.34000000 3.65000010 -0.46000001 72 44 197 97.000000 1.000000 4.000000 1.000000 -60.708740 114.000000 231.000000 0.951265 -0.154295 -0.266998
-0.25999999 3.60999990 -0.52999997 72 44 197 97.000000 1.000000 4.000000 1.000000 -60.708740 114.000000 231.000000 0.862257 -0.371742 0.343977
-0.27000001 3.57999992 -0.55000001 72 44 197 97.000000 1.000000 4.000000 1.000000 -60.708740 114.000000 231.000000 0.737810 -0.493524 0.460512
-0.27000001 3.57999992 -0.57999998 72 44 197 97.000000 1.000000 4.000000 1.000000 -60.708740 114.000000 231.000000 0.957481 -0.265169 0.113644
-0.28000000 3.61999989 -0.63000000 72 44 197 97.000000 1.000000 4.000000 1.000000 -60.708740 114.000000 231.000000 0.811603 -0.344653 0.471714
-0.25000000 3.59999990 -0.63000000 72 44 197 97.000000 1.000000 4.000000 1.000000 -60.708740 114.000000 231.000000 0.733159 -0.423420 0.532158
-0.25000000 3.58999991 -0.63999999 72 44 197 97.000000 1.000000 4.000000 1.000000 -60.708740 114.000000 231.000000 0.815230 -0.229621 0.531672
-0.25000000 3.52999997 -0.56000000 72 44 197 97.000000 1.000000 4.000000 1.000000 -60.708740 114.000000 231.000000 0.920483 -0.372871 0.116952
-0.28000000 3.53999996 -0.54000002 72 44 197 97.000000 1.000000 4.000000 1.000000 -60.708740 114.000000 231.000000 0.910191 -0.206271 0.359172
-0.25999999 3.50000000 -0.63000000 72 44 197 97.000000 1.000000 4.000000 1.000000 -60.708740 114.000000 231.000000 0.758691 -0.499786 0.417854
-0.25000000 3.50000000 -0.63999999 72 44 197 97.000000 1.000000 4.000000 1.000000 -60.708740 114.000000 231.000000 0.738509 -0.339227 0.582692
-0.25999999 3.46000004 -0.44999999 72 44 197 97.000000 1.000000 4.000000 1.000000 -60.708740 114.000000 231.000000 -0.654053 0.519544 0.549808
-0.27000001 3.31999993 -0.37000000 72 44 197 97.000000 1.000000 4.000000 1.000000 -60.708740 114.000000 231.000000 0.850126 -0.251833 -0.462456
-0.28000000 3.32999992 -0.38000000 72 44 197 97.000000 1.000000 4.000000 1.000000 -60.708740 114.000000 231.000000 -0.709094 0.380048 0.593928
-0.27000001 3.31999993 -0.37000000 72 44 197 97.000000 1.000000 4.000000 1.000000 -60.708740 114.000000 231.000000 0.850126 -0.251833 -0.462456
-0.25000000 3.31999993 -0.41000000 72 44 197 97.000000 1.000000 4.000000 1.000000 -60.708740 114.000000 231.000000 0.649558 -0.348503 -0.675737
-0.31000000 3.31999993 -0.40000001 72 44 197 97.000000 1.000000 4.000000 1.000000 -60.708740 114.000000 231.000000 0.791436 0.177731 -0.584842
-0.28000000 3.36999989 -0.44999999 72 44 197 97.000000 1.000000 4.000000 1.000000 -60.708740 114.000000 231.000000 0.609151 -0.387941 -0.691691
-0.28999999 3.32999992 -0.44000000 72 44 197 97.000000 1.000000 4.000000 1.000000 -60.708740 114.000000 231.000000 0.651092 -0.279953 -0.705483
-0.25999999 3.32999992 -0.47000000 72 44 197 97.000000 1.000000 4.000000 1.000000 -60.708740 114.000000 231.000000 0.894384 -0.410228 -0.178297
-0.25000000 3.33999991 -0.47000000 72 44 197 97.000000 1.000000 4.000000 1.000000 -60.708740 114.000000 231.000000 0.704840 -0.494888 -0.508218
-0.25000000 3.33999991 -0.47000000 72 44 197 97.000000 1.000000 4.000000 1.000000 -60.708740 114.000000 231.000000 0.704840 -0.494888 -0.508218
-0.34999999 3.34999990 -0.38000000 72 44 197 97.000000 1.000000 4.000000 1.000000 -60.708740 114.000000 231.000000 -0.570454 0.594152 0.567068
-0.34999999 3.32999992 -0.43000001 72 44 197 97.000000 1.000000 4.000000 1.000000 -60.708740 114.000000 231.000000 0.833900 -0.093294 -0.543973
-0.34999999 3.39000010 -0.44000000 72 44 197 97.000000 1.000000 4.000000 1.000000 -60.708740 114.000000 231.000000 -0.543883 0.520309 0.658384
-0.25999999 3.45000005 -0.60000002 72 44 197 97.000000 1.000000 4.000000 1.000000 -60.708740 114.000000 231.000000 0.836592 -0.197466 0.511000
-0.28999999 3.39000010 -0.56999999 72 44 197 97.000000 1.000000 4.000000 1.000000 -60.708740 114.000000 231.000000 0.798153 -0.353491 0.487849
-0.28999999 3.38000011 -0.57999998 72 44 197 97.000000 1.000000 4.000000 1.000000 -60.708740 114.000000 231.000000 0.752939 -0.551288 0.359394
-0.28000000 3.40000010 -0.56999999 72 44 197 97.000000 1.000000 4.000000 1.000000 -60.708740 114.000000 231.000000 -0.686901 0.686901 -0.237350
-0.28999999 3.39000010 -0.56999999 72 44 197 97.000000 1.000000 4.000000 1.000000 -60.708740 114.000000 231.000000 0.798153 -0.353491 0.487849
-0.25999999 3.31999993 -0.52999997 72 44 197 97.000000 1.000000 4.000000 1.000000 -60.708740 114.000000 231.000000 0.834710 -0.550553 0.012295
-0.25000000 3.31999993 -0.54000002 72 44 197 97.000000 1.000000 4.000000 1.000000 -60.708740 114.000000 231.000000 0.867931 -0.496537 -0.012111
-0.25999999 3.31999993 -0.55000001 72 44 197 97.000000 1.000000 4.000000 1.000000 -60.708740 114.000000 231.000000 0.700056 -0.597931 -0.390384
-0.25000000 3.31999993 -0.58999997 72 44 197 97.000000 1.000000 4.000000 1.000000 -60.708740 114.000000 231.000000 0.810835 -0.348866 0.469934
-0.25000000 3.31999993 -0.60000002 72 44 197 97.000000 1.000000 4.000000 1.000000 -60.708740 114.000000 231.000000 0.854436 -0.280721 0.437189
-0.28000000 3.31999993 -0.58999997 72 44 197 97.000000 1.000000 4.000000 1.000000 -60.708740 114.000000 231.000000 0.919130 -0.389326 -0.060205
-0.30000001 3.34999990 -0.56999999 72 44 197 97.000000 1.000000 4.000000 1.000000 -60.708740 114.000000 231.000000 0.702042 -0.660651 -0.265852
-0.27000001 3.32999992 -0.66000003 72 44 197 97.000000 1.000000 4.000000 1.000000 -60.708740 114.000000 231.000000 0.575022 -0.471082 0.668903
-0.38999999 3.42000008 -0.69000000 72 44 197 97.000000 1.000000 4.000000 1.000000 -60.708740 114.000000 231.000000 0.410146 -0.616049 0.672506
-0.34000000 3.39000010 -0.57999998 72 44 197 97.000000 1.000000 4.000000 1.000000 -60.708740 114.000000 231.000000 0.854165 -0.421677 -0.304287
-0.11000000 3.28999996 -0.05000000 72 44 197 97.000000 1.000000 4.000000 1.000000 -60.708740 114.000000 231.000000 -0.113673 -0.228622 0.966856
-0.11000000 3.27999997 -0.03000000 72 44 197 97.000000 1.000000 4.000000 1.000000 -60.708740 114.000000 231.000000 -0.201095 -0.085126 0.975866
-0.11000000 3.27999997 -0.03000000 72 44 197 97.000000 1.000000 4.000000 1.000000 -60.708740 114.000000 231.000000 -0.201095 -0.085126 0.975866
-0.11000000 3.26999998 -0.07000000 72 44 197 97.000000 1.000000 4.000000 1.000000 -60.708740 114.000000 231.000000 -0.229460 -0.257273 0.938700
-0.15000001 3.27999997 -0.05000000 72 44 197 97.000000 1.000000 4.000000 1.000000 -60.708740 114.000000 231.000000 -0.044727 0.077454 0.995992
-0.13000000 3.27999997 -0.10000000 72 44 197 97.000000 1.000000 4.000000 1.000000 -60.708740 114.000000 231.000000 -0.385894 -0.414478 0.824193
-0.15000001 3.30999994 -0.07000000 72 44 197 97.000000 1.000000 4.000000 1.000000 -60.708740 114.000000 231.000000 -0.357933 0.053755 0.932199
-0.15000001 3.26999998 -0.05000000 72 44 197 97.000000 1.000000 4.000000 1.000000 -60.708740 114.000000 231.000000 -0.406872 -0.320237 0.855514
-0.10000000 3.28999996 -0.16000000 72 44 197 97.000000 1.000000 4.000000 1.000000 -60.708740 114.000000 231.000000 -0.224038 -0.567048 0.792631
-0.10000000 3.29999995 -0.16000000 72 44 197 97.000000 1.000000 4.000000 1.000000 -60.708740 114.000000 231.000000 0.266018 0.459766 -0.847260
-0.15000001 3.24000001 -0.18000001 72 44 197 97.000000 1.000000 4.000000 1.000000 -60.708740 114.000000 231.000000 0.047128 -0.216306 0.975188
-0.12000000 3.16000009 -0.07000000 72 44 197 97.000000 1.000000 4.000000 1.000000 -60.708740 114.000000 231.000000 0.210417 -0.109618 0.971447
-0.12000000 3.16000009 -0.09000000 72 44 197 97.000000 1.000000 4.000000 1.000000 -60.708740 114.000000 231.000000 0.200823 0.066941 0.977338
-0.15000001 3.16000009 -0.08000000 72 44 197 97.000000 1.000000 4.000000 1.000000 -60.708740 114.000000 231.000000 0.292836 -0.073532 0.953331
-0.13000000 3.17000008 -0.07000000 72 44 197 97.000000 1.000000 4.000000 1.000000 -60.708740 114.000000 231.000000 0.172722 -0.014870 0.984858
-0.15000001 3.19000006 -0.10000000 72 44 197 97.000000 1.000000 4.000000 1.000000 -60.708740 114.000000 231.000000 0.068492 -0.088703 0.993700
-0.16000000 3.19000006 -0.08000000 72 44 197 97.000000 1.000000 4.000000 1.000000 -60.708740 114.000000 231.000000 -0.007116 0.035582 0.999341
-0.14000000 3.22000003 -0.14000000 72 44 197 97.000000 1.000000 4.000000 1.000000 -60.708740 114.000000 231.000000 -0.097778 -0.191843 0.976543
-0.13000000 3.21000004 -0.17000000 72 44 197 97.000000 1.000000 4.000000 1.000000 -60.708740 114.000000 231.000000 -0.040686 -0.257679 0.965373
-0.16000000 3.16000009 -0.16000000 72 44 197 97.000000 1.000000 4.000000 1.000000 -60.708740 114.000000 231.000000 0.196850 -0.150532 0.968809
-0.16000000 3.17000008 -0.16000000 72 44 197 97.000000 1.000000 4.000000 1.000000 -60.708740 114.000000 231.000000 0.339256 -0.262887 0.903214
-0.16000000 3.16000009 -0.16000000 72 44 197 97.000000 1.000000 4.000000 1.000000 -60.708740 114.000000 231.000000 0.196850 -0.150532 0.968809
-0.16000000 3.16000009 -0.16000000 72 44 197 97.000000 1.000000 4.000000 1.000000 -60.708740 114.000000 231.000000 0.196850 -0.150532 0.968809
-0.17000000 3.27999997 -0.04000000 72 44 197 97.000000 1.000000 4.000000 1.000000 -60.708740 114.000000 231.000000 0.110682 0.067322 0.991573
-0.18000001 3.26999998 -0.06000000 72 44 197 97.000000 1.000000 4.000000 1.000000 -60.708740 114.000000 231.000000 -0.417307 0.038664 0.907943
-0.18000001 3.24000001 -0.08000000 72 44 197 97.000000 1.000000 4.000000 1.000000 -60.708740 114.000000 231.000000 -0.052451 -0.003085 0.998619
-0.18000001 3.24000001 -0.09000000 72 44 197 97.000000 1.000000 4.000000 1.000000 -60.708740 114.000000 231.000000 -0.008954 0.010944 0.999900
-0.22000000 3.28999996 -0.08000000 72 44 197 97.000000 1.000000 4.000000 1.000000 -60.708740 114.000000 231.000000 -0.117084 -0.105258 0.987528
-0.23999999 3.30999994 -0.08000000 72 44 197 97.000000 1.000000 4.000000 1.000000 -60.708740 114.000000 231.000000 -0.140158 0.207022 0.968245
-0.22000000 3.30999994 -0.08000000 72 44 197 97.000000 1.000000 4.000000 1.000000 -60.708740 114.000000 231.000000 -0.049838 0.222449 0.973670
-0.17000000 3.30999994 -0.15000001 72 44 197 97.000000 1.000000 4.000000 1.000000 -60.708740 114.000000 231.000000 -0.003110 0.059086 0.998248
-0.20000000 3.28999996 -0.16000000 72 44 197 97.000000 1.000000 4.000000 1.000000 -60.708740 114.000000 231.000000 -0.236210 -0.154395 0.959358
-0.18000001 3.24000001 -0.14000000 72 44 197 97.000000 1.000000 4.000000 1.000000 -60.708740 114.000000 231.000000 -0.042457 -0.077293 0.996104
-0.18000001 3.24000001 -0.18000001 72 44 197 97.000000 1.000000 4.000000 1.000000 -60.708740 114.000000 231.000000 -0.077722 0.121803 0.989507
-0.20000000 3.25000000 -0.16000000 72 44 197 97.000000 1.000000 4.000000 1.000000 -60.708740 114.000000 231.000000 -0.225836 0.025093 0.973842
-0.23999999 3.30999994 -0.17000000 72 44 197 97.000000 1.000000 4.000000 1.000000 -60.708740 114.000000 231.000000 -0.083846 -0.102223 0.991222
-0.23999999 3.30999994 -0.17000000 72 44 197 97.000000 1.000000 4.000000 1.000000 -60.708740 114.000000 231.000000 -0.083846 -0.102223 0.991222
-0.20999999 3.24000001 -0.14000000 72 44 197 97.000000 1.000000 4.000000 1.000000 -60.708740 114.000000 231.000000 0.068429 -0.128739 0.989315
-0.20999999 3.25000000 -0.16000000 72 44 197 97.000000 1.000000 4.000000 1.000000 -60.708740 114.000000 231.000000 0.167870 -0.088162 0.981859
-0.22000000 3.25999999 -0.16000000 72 44 197 97.000000 1.000000 4.000000 1.000000 -60.708740 114.000000 231.000000 -0.220022 -0.487083 0.845187
-0.20000000 3.16000009 -0.09000000 72 44 197 97.000000 1.000000 4.000000 1.000000 -60.708740 114.000000 231.000000 -0.112581 -0.404459 0.907600
-0.20000000 3.16000009 -0.09000000 72 44 197 97.000000 1.000000 4.000000 1.000000 -60.708740 114.000000 231.000000 -0.112581 -0.404459 0.907600
-0.23999999 3.22000003 -0.07000000 72 44 197 97.000000 1.000000 4.000000 1.000000 -60.708740 114.000000 231.000000 -0.175829 -0.194063 0.965103
-0.20999999 3.18000007 -0.09000000 72 44 197 97.000000 1.000000 4.000000 1.000000 -60.708740 114.000000 231.000000 -0.059649 0.055311 0.996686
-0.23000000 3.19000006 -0.10000000 72 44 197 97.000000 1.000000 4.000000 1.000000 -60.708740 114.000000 231.000000 -0.245715 -0.237386 0.939826
-0.19000000 3.23000002 -0.14000000 72 44 197 97.000000 1.000000 4.000000 1.000000 -60.708740 114.000000 231.000000 0.067384 -0.069593 0.995297
-0.20000000 3.23000002 -0.14000000 72 44 197 97.000000 1.000000 4.000000 1.000000 -60.708740 114.000000 231.000000 -0.054649 0.149995 0.987175
-0.18000001 3.21000004 -0.12000000 72 44 197 97.000000 1.000000 4.000000 1.000000 -60.708740 114.000000 231.000000 -0.233463 -0.174764 0.956532
-0.17000000 3.20000005 -0.16000000 72 44 197 97.000000 1.000000 4.000000 1.000000 -60.708740 114.000000 231.000000 -0.050404 0.101928 0.993514
-0.17000000 3.20000005 -0.16000000 72 44 197 97.000000 1.000000 4.000000 1.000000 -60.708740 114.000000 231.000000 -0.050404 0.101928 0.993514
-0.17000000 3.22000003 -0.15000001 72 44 197 97.000000 1.000000 4.000000 1.000000 -60.708740 114.000000 231.000000 0.272395 -0.361705 0.891611
-0.20000000 3.21000004 -0.16000000 72 44 197 97.000000 1.000000 4.000000 1.000000 -60.708740 114.000000 231.000000 0.032055 0.107220 0.993718
-0.23000000 3.22000003 -0.13000000 72 44 197 97.000000 1.000000 4.000000 1.000000 -60.708740 114.000000 231.000000 -0.070279 0.220700 0.972806
-0.23000000 3.21000004 -0.16000000 72 44 197 97.000000 1.000000 4.000000 1.000000 -60.708740 114.000000 231.000000 0.022607 -0.440171 0.897629
-0.23999999 3.21000004 -0.16000000 72 44 197 97.000000 1.000000 4.000000 1.000000 -60.708740 114.000000 231.000000 -0.029487 0.011185 0.999503
-0.20999999 3.17000008 -0.11000000 72 44 197 97.000000 1.000000 4.000000 1.000000 -60.708740 114.000000 231.000000 -0.041177 0.182356 0.982370
-0.20999999 3.17000008 -0.13000000 72 44 197 97.000000 1.000000 4.000000 1.000000 -60.708740 114.000000 231.000000 -0.155497 -0.320626 0.934355
-0.10000000 3.28999996 -0.25999999 72 44 197 97.000000 1.000000 4.000000 1.000000 -60.708740 114.000000 231.000000 0.213425 -0.227019 0.950217
-0.13000000 3.27999997 -0.20000000 72 44 197 97.000000 1.000000 4.000000 1.000000 -60.708740 114.000000 231.000000 -0.092998 0.125960 0.987667
-0.16000000 3.28999996 -0.25999999 72 44 197 97.000000 1.000000 4.000000 1.000000 -60.708740 114.000000 231.000000 -0.564128 -0.069628 0.822746
-0.14000000 3.25999999 -0.23000000 72 44 197 97.000000 1.000000 4.000000 1.000000 -60.708740 114.000000 231.000000 0.150591 -0.297113 0.942892
-0.12000000 3.30999994 -0.28000000 72 44 197 97.000000 1.000000 4.000000 1.000000 -60.708740 114.000000 231.000000 0.153969 0.062293 0.986110
-0.11000000 3.30999994 -0.28000000 72 44 197 97.000000 1.000000 4.000000 1.000000 -60.708740 114.000000 231.000000 0.124970 -0.016589 0.992022
-0.11000000 3.24000001 -0.31000000 72 44 197 97.000000 1.000000 4.000000 1.000000 -60.708740 114.000000 231.000000 -0.006654 -0.480426 0.877010
-0.12000000 3.25000000 -0.31999999 72 44 197 97.000000 1.000000 4.000000 1.000000 -60.708740 114.000000 231.000000 -0.123614 0.095360 0.987738
-0.13000000 3.30999994 -0.28000000 72 44 197 97.000000 1.000000 4.000000 1.000000 -60.708740 114.000000 231.000000 -0.102143 0.052755 0.993370
-0.13000000 3.30999994 -0.28000000 72 44 197 97.000000 1.000000 4.000000 1.000000 -60.708740 114.000000 231.000000 -0.102143 0.052755 0.993370
-0.09000000 3.16000009 -0.22000000 72 44 197 97.000000 1.000000 4.000000 1.000000 -60.708740 114.000000 231.000000 0.100359 -0.153561 0.983030
-0.09000000 3.16000009 -0.25000000 72 44 197 97.000000 1.000000 4.000000 1.000000 -60.708740 114.000000 231.000000 0.354183 -0.459008 0.814780
-0.09000000 3.17000008 -0.25000000 72 44 197 97.000000 1.000000 4.000000 1.000000 -60.708740 114.000000 231.000000 -0.218051 -0.422752 0.879622
-0.09000000 3.17000008 -0.25000000 72 44 197 97.000000 1.000000 4.000000 1.000000 -60.708740 114.000000 231.000000 -0.218051 -0.422752 0.879622
-0.13000000 3.23000002 -0.20000000 72 44 197 97.000000 1.000000 4.000000 1.000000 -60.708740 114.000000 231.000000 0.217494 -0.500389 0.838038
-0.15000001 3.21000004 -0.20000000 72 44 197 97.000000 1.000000 4.000000 1.000000 -60.708740 114.000000 231.000000 -0.058916 -0.458998 0.886482
-0.14000000 3.22000003 -0.23000000 72 44 197 97.000000 1.000000 4.000000 1.000000 -60.708740 114.000000 231.000000 -0.205300 -0.093318 0.974240
-0.15000001 3.16000009 -0.25000000 72 44 197 97.000000 1.000000 4.000000 1.000000 -60.708740 114.000000 231.000000 -0.175475 -0.191073 0.965764
-0.14000000 3.19000006 -0.25999999 72 44 197 97.000000 1.000000 4.000000 1.000000 -60.708740 114.000000 231.000000 0.142184 -0.169866 0.975156
-0.16000000 3.19000006 -0.23000000 72 44 197 97.000000 1.000000 4.000000 1.000000 -60.708740 114.000000 231.000000 -0.061146 -0.326543 0.943202
-0.14000000 3.17000008 -0.23000000 72 44 197 97.000000 1.000000 4.000000 1.000000 -60.708740 114.000000 231.000000 -0.238268 -0.017960 0.971033
-0.11000000 3.22000003 -0.28000000 72 44 197 97.000000 1.000000 4.000000 1.000000 -60.708740 114.000000 231.000000 -0.150246 -0.019204 0.988462
-0.10000000 3.22000003 -0.28000000 72 44 197 97.000000 1.000000 4.000000 1.000000 -60.708740 114.000000 231.000000 -0.170934 -0.150676 0.973693
-0.11000000 3.23000002 -0.31000000 72 44 197 97.000000 1.000000 4.000000 1.000000 -60.708740 114.000000 231.000000 0.003586 -0.254609 0.967037
-0.09000000 3.17000008 -0.28000000 72 44 197 97.000000 1.000000 4.000000 1.000000 -60.708740 114.000000 231.000000 -0.076097 -0.292780 0.953147
-0.09000000 3.19000006 -0.30000001 72 44 197 97.000000 1.000000 4.000000 1.000000 -60.708740 114.000000 231.000000 0.304277 -0.219362 0.926982
-0.09000000 3.17000008 -0.34000000 72 44 197 97.000000 1.000000 4.000000 1.000000 -60.708740 114.000000 231.000000 0.025803 -0.271545 0.962080
-0.12000000 3.16000009 -0.34000000 72 44 197 97.000000 1.000000 4.000000 1.000000 -60.708740 114.000000 231.000000 -0.020342 -0.078154 0.996734
-0.15000001 3.21000004 -0.28000000 72 44 197 97.000000 1.000000 4.000000 1.000000 -60.708740 114.000000 231.000000 0.026140 0.047052 0.998550
-0.15000001 3.17000008 -0.31999999 72 44 197 97.000000 1.000000 4.000000 1.000000 -60.708740 114.000000 231.000000 -0.019649 -0.407397 0.913040
-0.17000000 3.25999999 -0.23000000 72 44 197 97.000000 1.000000 4.000000 1.000000 -60.708740 114.000000 231.000000 -0.031764 -0.539996 0.841068
-0.17000000 3.25999999 -0.23000000 72 44 197 97.000000 1.000000 4.000000 1.000000 -60.708740 114.000000 231.000000 -0.031764 -0.539996 0.841068
-0.22000000 3.28999996 -0.22000000 72 44 197 97.000000 1.000000 4.000000 1.000000 -60.708740 114.000000 231.000000 -0.151594 0.179620 0.971986
-0.23999999 3.29999995 -0.22000000 72 44 197 97.000000 1.000000 4.000000 1.000000 -60.708740 114.000000 231.000000 0.039165 -0.115258 0.992563
-0.22000000 3.28999996 -0.25999999 72 44 197 97.000000 1.000000 4.000000 1.000000 -60.708740 114.000000 231.000000 -0.053997 -0.272495 0.960641
-0.23000000 3.30999994 -0.25000000 72 44 197 97.000000 1.000000 4.000000 1.000000 -60.708740 114.000000 231.000000 -0.090157 -0.299217 0.949916
-0.23999999 3.29999995 -0.25000000 72 44 197 97.000000 1.000000 4.000000 1.000000 -60.708740 114.000000 231.000000 -0.016530 0.117912 0.992886
-0.23000000 3.27999997 -0.25999999 72 44 197 97.000000 1.000000 4.000000 1.000000 -60.708740 114.000000 231.000000 -0.054306 0.039399 0.997747
-0.23000000 3.29999995 -0.25000000 72 44 197 97.000000 1.000000 4.000000 1.000000 -60.708740 114.000000 231.000000 -0.075755 -0.051601 0.995790
-0.17000000 3.28999996 -0.28999999 72 44 197 97.000000 1.000000 4.000000 1.000000 -60.708740 114.000000 231.000000 -0.012090 -0.121996 0.992457
-0.17000000 3.21000004 -0.23999999 72 44 197 97.000000 1.000000 4.000000 1.000000 -60.708740 114.000000 231.000000 0.201759 -0.520326 0.829791
-0.17000000 3.20000005 -0.23000000 72 44 197 97.000000 1.000000 4.000000 1.000000 -60.708740 114.000000 231.000000 -0.041757 -0.003055 0.999123
-0.18000001 3.21000004 -0.23000000 72 44 197 97.000000 1.000000 4.000000 1.000000 -60.708740 114.000000 231.000000 0.109295 -0.285747 0.952052
-0.17000000 3.17000008 -0.25000000 72 44 197 97.000000 1.000000 4.000000 1.000000 -60.708740 114.000000 231.000000 -0.221212 -0.262950 0.939107
-0.18000001 3.19000006 -0.23999999 72 44 197 97.000000 1.000000 4.000000 1.000000 -60.708740 114.000000 231.000000 0.106960 -0.140610 0.984271
-0.23000000 3.17000008 -0.23999999 72 44 197 97.000000 1.000000 4.000000 1.000000 -60.708740 114.000000 231.000000 0.129029 -0.370438 0.919852
-0.23000000 3.17000008 -0.23999999 72 44 197 97.000000 1.000000 4.000000 1.000000 -60.708740 114.000000 231.000000 0.129029 -0.370438 0.919852
-0.17000000 3.23000002 -0.34999999 72 44 197 97.000000 1.000000 4.000000 1.000000 -60.708740 114.000000 231.000000 0.254047 -0.378843 0.889909
-0.19000000 3.16000009 -0.30000001 72 44 197 97.000000 1.000000 4.000000 1.000000 -60.708740 114.000000 231.000000 -0.439694 -0.202822 0.874947
-0.17000000 3.19000006 -0.31000000 72 44 197 97.000000 1.000000 4.000000 1.000000 -60.708740 114.000000 231.000000 0.155303 0.610658 -0.776516
-0.19000000 3.16000009 -0.34000000 72 44 197 97.000000 1.000000 4.000000 1.000000 -60.708740 114.000000 231.000000 0.048055 -0.487412 0.871849
-0.20999999 3.20000005 -0.33000001 72 44 197 97.000000 1.000000 4.000000 1.000000 -60.708740 114.000000 231.000000 -0.310938 -0.534175 0.786114
-0.20999999 3.20000005 -0.33000001 72 44 197 97.000000 1.000000 4.000000 1.000000 -60.708740 114.000000 231.000000 -0.310938 -0.534175 0.786114
-0.22000000 3.19000006 -0.28999999 72 44 197 97.000000 1.000000 4.000000 1.000000 -60.708740 114.000000 231.000000 -0.098675 -0.208592 0.973012
-0.23999999 3.17000008 -0.34000000 72 44 197 97.000000 1.000000 4.000000 1.000000 -60.708740 114.000000 231.000000 0.140900 -0.218460 0.965620
-0.14000000 3.10999990 -0.09000000 72 44 197 97.000000 1.000000 4.000000 1.000000 -60.708740 114.000000 231.000000 0.063102 0.074173 0.995247
-0.11000000 3.11999989 -0.16000000 72 44 197 97.000000 1.000000 4.000000 1.000000 -60.708740 114.000000 231.000000 0.142194 -0.440945 0.886199
-0.11000000 3.10999990 -0.18000001 72 44 197 97.000000 1.000000 4.000000 1.000000 -60.708740 114.000000 231.000000 0.026780 -0.340494 0.939865
-0.10000000 3.13000011 -0.16000000 72 44 197 97.000000 1.000000 4.000000 1.000000 -60.708740 114.000000 231.000000 -0.028345 -0.049342 0.998380
-0.13000000 3.14000010 -0.17000000 72 44 197 97.000000 1.000000 4.000000 1.000000 -60.708740 114.000000 231.000000 0.005275 -0.077018 0.997016
-0.20000000 3.13000011 -0.09000000 72 44 197 97.000000 1.000000 4.000000 1.000000 -60.708740 114.000000 231.000000 0.083032 -0.493971 0.865505
-0.18000001 3.15000010 -0.10000000 72 44 197 97.000000 1.000000 4.000000 1.000000 -60.708740 114.000000 231.000000 -0.003939 -0.442477 0.896771
-0.20000000 3.13000011 -0.09000000 72 44 197 97.000000 1.000000 4.000000 1.000000 -60.708740 114.000000 231.000000 0.083032 -0.493971 0.865505
-0.18000001 3.13000011 -0.12000000 72 44 197 97.000000 1.000000 4.000000 1.000000 -60.708740 114.000000 231.000000 0.136743 -0.049411 0.989374
-0.18000001 3.15000010 -0.14000000 72 44 197 97.000000 1.000000 4.000000 1.000000 -60.708740 114.000000 231.000000 -0.184041 -0.297510 0.936812
-0.18000001 3.14000010 -0.18000001 72 44 197 97.000000 1.000000 4.000000 1.000000 -60.708740 114.000000 231.000000 0.234322 -0.183441 0.954695
-0.19000000 3.13000011 -0.18000001 72 44 197 97.000000 1.000000 4.000000 1.000000 -60.708740 114.000000 231.000000 0.178186 0.001135 0.983996
-0.17000000 3.14000010 -0.18000001 72 44 197 97.000000 1.000000 4.000000 1.000000 -60.708740 114.000000 231.000000 0.174654 -0.235983 0.955933
-0.20000000 3.15000010 -0.18000001 72 44 197 97.000000 1.000000 4.000000 1.000000 -60.708740 114.000000 231.000000 -0.060641 -0.411010 0.909612
-0.20999999 3.00999999 -0.12000000 72 44 197 97.000000 1.000000 4.000000 1.000000 -60.708740 114.000000 231.000000 0.089803 -0.517439 0.850995
-0.09000000 3.15000010 -0.19000000 72 44 197 97.000000 1.000000 4.000000 1.000000 -60.708740 114.000000 231.000000 0.033291 -0.267559 0.962966
-0.12000000 3.15000010 -0.23999999 72 44 197 97.000000 1.000000 4.000000 1.000000 -60.708740 114.000000 231.000000 -0.011740 -0.416132 0.909229
-0.09000000 3.07999992 -0.20000000 72 44 197 97.000000 1.000000 4.000000 1.000000 -60.708740 114.000000 231.000000 0.068272 -0.128444 0.989364
-0.12000000 3.08999991 -0.19000000 72 44 197 97.000000 1.000000 4.000000 1.000000 -60.708740 114.000000 231.000000 0.076544 -0.299689 0.950961
-0.11000000 3.06999993 -0.20999999 72 44 197 97.000000 1.000000 4.000000 1.000000 -60.708740 114.000000 231.000000 0.081609 -0.237293 0.968004
-0.14000000 3.13000011 -0.20999999 72 44 197 97.000000 1.000000 4.000000 1.000000 -60.708740 114.000000 231.000000 0.211623 -0.316725 0.924609
-0.14000000 3.14000010 -0.25999999 72 44 197 97.000000 1.000000 4.000000 1.000000 -60.708740 114.000000 231.000000 0.032095 -0.027954 0.999094
-0.15000001 3.09999990 -0.20999999 72 44 197 97.000000 1.000000 4.000000 1.000000 -60.708740 114.000000 231.000000 0.014526 -0.437102 0.899295
-0.12000000 3.15000010 -0.34000000 72 44 197 97.000000 1.000000 4.000000 1.000000 -60.708740 114.000000 231.000000 0.153771 -0.176646 0.972189
-0.12000000 3.15000010 -0.34999999 72 44 197 97.000000 1.000000 4.000000 1.000000 -60.708740 114.000000 231.000000 0.167409 -0.496300 0.851857
-0.09000000 3.14000010 -0.34999999 72 44 197 97.000000 1.000000 4.000000 1.000000 -60.708740 114.000000 231.000000 0.456052 -0.087863 0.885605
-0.10000000 3.15000010 -0.34999999 72 44 197 97.000000 1.000000 4.000000 1.000000 -60.708740 114.000000 231.000000 0.189851 -0.260874 0.946521
-0.12000000 3.15000010 -0.34999999 72 44 197 97.000000 1.000000 4.000000 1.000000 -60.708740 114.000000 231.000000 0.167409 -0.496300 0.851857
-0.13000000 3.15000010 -0.34999999 72 44 197 97.000000 1.000000 4.000000 1.000000 -60.708740 114.000000 231.000000 0.035093 -0.233550 0.971711
-0.19000000 3.13000011 -0.20000000 72 44 197 97.000000 1.000000 4.000000 1.000000 -60.708740 114.000000 231.000000 -0.324854 -0.447263 0.833322
-0.18000001 3.11999989 -0.20000000 72 44 197 97.000000 1.000000 4.000000 1.000000 -60.708740 114.000000 231.000000 -0.119827 0.014291 0.992692
-0.19000000 3.11999989 -0.25999999 72 44 197 97.000000 1.000000 4.000000 1.000000 -60.708740 114.000000 231.000000 0.250154 0.020544 0.967988
-0.19000000 3.10999990 -0.25999999 72 44 197 97.000000 1.000000 4.000000 1.000000 -60.708740 114.000000 231.000000 -0.134095 -0.030425 0.990501
-0.19000000 3.10999990 -0.25999999 72 44 197 97.000000 1.000000 4.000000 1.000000 -60.708740 114.000000 231.000000 -0.134095 -0.030425 0.990501
-0.20000000 3.06999993 -0.23000000 72 44 197 97.000000 1.000000 4.000000 1.000000 -60.708740 114.000000 231.000000 0.019398 0.025523 0.999486
-0.23000000 3.11999989 -0.25000000 72 44 197 97.000000 1.000000 4.000000 1.000000 -60.708740 114.000000 231.000000 -0.348911 -0.437323 0.828861
-0.19000000 3.14000010 -0.31000000 72 44 197 97.000000 1.000000 4.000000 1.000000 -60.708740 114.000000 231.000000 0.264305 -0.250171 0.931428
-0.18000001 3.10999990 -0.28999999 72 44 197 97.000000 1.000000 4.000000 1.000000 -60.708740 114.000000 231.000000 -0.128832 -0.367101 0.921216
-0.20000000 3.14000010 -0.34999999 72 44 197 97.000000 1.000000 4.000000 1.000000 -60.708740 114.000000 231.000000 -0.006701 -0.502609 0.864488
-0.19000000 3.15000010 -0.34000000 72 44 197 97.000000 1.000000 4.000000 1.000000 -60.708740 114.000000 231.000000 0.348565 -0.354707 0.867574
-0.17000000 3.14000010 -0.34999999 72 44 197 97.000000 1.000000 4.000000 1.000000 -60.708740 114.000000 231.000000 -0.337877 -0.359281 0.869918
-0.20000000 3.11999989 -0.34999999 72 44 197 97.000000 1.000000 4.000000 1.000000 -60.708740 114.000000 231.000000 -0.124178 -0.156144 0.979897
-0.22000000 3.10999990 -0.28999999 72 44 197 97.000000 1.000000 4.000000 1.000000 -60.708740 114.000000 231.000000 -0.276176 -0.359776 0.891228
-0.20999999 3.10999990 -0.28999999 72 44 197 97.000000 1.000000 4.000000 1.000000 -60.708740 114.000000 231.000000 0.052114 -0.089813 0.994594
-0.22000000 3.15000010 -0.34000000 72 44 197 97.000000 1.000000 4.000000 1.000000 -60.708740 114.000000 231.000000 -0.504627 -0.365975 0.781930
-0.20999999 3.15000010 -0.34000000 72 44 197 97.000000 1.000000 4.000000 1.000000 -60.708740 114.000000 231.000000 0.278718 -0.222695 0.934197
-0.20999999 3.11999989 -0.34999999 72 44 197 97.000000 1.000000 4.000000 1.000000 -60.708740 114.000000 231.000000 -0.335074 -0.018966 0.942001
-0.22000000 3.13000011 -0.31999999 72 44 197 97.000000 1.000000 4.000000 1.000000 -60.708740 114.000000 231.000000 -0.492813 -0.167231 0.853914
-0.23999999 3.07999992 -0.31999999 72 44 197 97.000000 1.000000 4.000000 1.000000 -60.708740 114.000000 231.000000 0.089763 -0.190593 0.977557
-0.19000000 3.05999994 -0.23999999 72 44 197 97.000000 1.000000 4.000000 1.000000 -60.708740 114.000000 231.000000 -0.375967 -0.401136 0.835307
-0.20999999 3.05999994 -0.33000001 72 44 197 97.000000 1.000000 4.000000 1.000000 -60.708740 114.000000 231.000000 0.187238 -0.330834 0.924927
-0.27000001 3.25000000 -0.09000000 72 44 197 97.000000 1.000000 4.000000 1.000000 -60.708740 114.000000 231.000000 -0.221631 -0.354900 0.908254
-0.31000000 3.25000000 -0.10000000 72 44 197 97.000000 1.000000 4.000000 1.000000 -60.708740 114.000000 231.000000 -0.046541 -0.285536 0.957237
-0.25999999 3.24000001 -0.12000000 72 44 197 97.000000 1.000000 4.000000 1.000000 -60.708740 114.000000 231.000000 -0.084693 -0.300985 0.949861
-0.31999999 3.29999995 -0.12000000 72 44 197 97.000000 1.000000 4.000000 1.000000 -60.708740 114.000000 231.000000 -0.040374 -0.019669 0.998991
-0.31000000 3.30999994 -0.16000000 72 44 197 97.000000 1.000000 4.000000 1.000000 -60.708740 114.000000 231.000000 -0.066656 -0.197544 0.978025
-0.31999999 3.29999995 -0.17000000 72 44 197 97.000000 1.000000 4.000000 1.000000 -60.708740 114.000000 231.000000 0.778432 -0.085526 -0.621876
-0.33000001 3.24000001 -0.13000000 72 44 197 97.000000 1.000000 4.000000 1.000000 -60.708740 114.000000 231.000000 -0.327941 -0.389526 0.860653
-0.31000000 3.25999999 -0.12000000 72 44 197 97.000000 1.000000 4.000000 1.000000 -60.708740 114.000000 231.000000 -0.010462 -0.198787 0.979987
-0.28999999 3.23000002 -0.08000000 72 44 197 97.000000 1.000000 4.000000 1.000000 -60.708740 114.000000 231.000000 -0.051009 0.116755 0.991850
-0.25000000 3.18000007 -0.10000000 72 44 197 97.000000 1.000000 4.000000 1.000000 -60.708740 114.000000 231.000000 -0.051299 -0.126537 0.990635
-0.30000001 3.17000008 -0.09000000 72 44 197 97.000000 1.000000 4.000000 1.000000 -60.708740 114.000000 231.000000 -0.220701 -0.378553 0.898882
-0.25000000 3.22000003 -0.13000000 72 44 197 97.000000 1.000000 4.000000 1.000000 -60.708740 114.000000 231.000000 -0.027921 -0.434765 0.900111
-0.27000001 3.17000008 -0.12000000 72 44 197 97.000000 1.000000 4.000000 1.000000 -60.708740 114.000000 231.000000 -0.037417 0.060937 0.997440
-0.27000001 3.17000008 -0.12000000 72 44 197 97.000000 1.000000 4.000000 1.000000 -60.708740 114.000000 231.000000 -0.037417 0.060937 0.997440
-0.25999999 3.16000009 -0.16000000 72 44 197 97.000000 1.000000 4.000000 1.000000 -60.708740 114.000000 231.000000 0.117991 -0.392842 0.912005
-0.33000001 3.21000004 -0.13000000 72 44 197 97.000000 1.000000 4.000000 1.000000 -60.708740 114.000000 231.000000 -0.581197 -0.305809 0.754116
-0.34000000 3.29999995 -0.18000001 72 44 197 97.000000 1.000000 4.000000 1.000000 -60.708740 114.000000 231.000000 0.754198 -0.058676 -0.654020
-0.28000000 3.26999998 -0.27000001 72 44 197 97.000000 1.000000 4.000000 1.000000 -60.708740 114.000000 231.000000 -0.453645 -0.386320 0.803096
