//X Y Z R G B PointSourceId ScanDirectionFlag NumberOfReturns ReturnNumber GpsTime Intensity Classification Nx Ny Nz
4.67000008 -11.34000015 0.00000000 23 246 121 0.000000 0.000000 0.000000 0.000000 -60.708740 0.000000 179.000000 0.839452 0.495140 -0.223956
4.67000008 -11.34000015 0.00000000 23 246 121 0.000000 0.000000 0.000000 0.000000 -60.708740 0.000000 179.000000 0.839452 0.495140 -0.223956
4.63999987 -11.31000042 0.02000000 23 246 121 0.000000 0.000000 0.000000 0.000000 -60.708740 0.000000 179.000000 0.925865 0.291555 0.240355
4.65999985 -11.31999969 -0.02000000 23 246 121 0.000000 0.000000 0.000000 0.000000 -60.708740 0.000000 179.000000 0.922059 0.361891 -0.137269
4.65000010 -11.34000015 0.05000000 23 246 121 0.000000 0.000000 0.000000 0.000000 -60.708740 0.000000 179.000000 0.926752 0.307031 0.216478
4.65999985 -11.32999992 -0.01000000 23 246 121 0.000000 0.000000 0.000000 0.000000 -60.708740 0.000000 179.000000 0.889428 0.445417 -0.102572
4.65000010 -11.43000031 0.09000000 23 246 121 0.000000 0.000000 0.000000 0.000000 -60.708740 0.000000 179.000000 0.414377 0.858021 0.303465
4.61999989 -11.47000027 0.13000000 23 246 121 0.000000 0.000000 0.000000 0.000000 -60.708740 0.000000 179.000000 0.839513 0.525978 0.136256
4.42999983 -11.40999985 0.38000000 23 246 121 0.000000 0.000000 0.000000 0.000000 -60.708740 0.000000 179.000000 0.881274 0.407086 0.240076
4.59999990 -11.26000023 0.18000001 23 246 121 0.000000 0.000000 0.000000 0.000000 -60.708740 0.000000 179.000000 0.848067 -0.529873 -0.004045
4.55999994 -11.32999992 0.28999999 23 246 121 0.000000 0.000000 0.000000 0.000000 -60.708740 0.000000 179.000000 0.909754 -0.121208 -0.397060
4.53000021 -11.32999992 0.20999999 23 246 121 0.000000 0.000000 0.000000 0.000000 -60.708740 0.000000 179.000000 0.975231 -0.103377 -0.195544
4.48000002 -11.32999992 0.20000000 23 246 121 0.000000 0.000000 0.000000 0.000000 -60.708740 0.000000 179.000000 0.991935 0.078761 0.099308
4.51000023 -11.38000011 0.15000001 23 246 121 0.000000 0.000000 0.000000 0.000000 -60.708740 0.000000 179.000000 0.889027 0.432306 0.150804
4.46000004 -11.39000034 0.16000000 23 246 121 0.000000 0.000000 0.000000 0.000000 -60.708740 0.000000 179.000000 0.821406 0.537015 0.192115
4.48999977 -11.42000008 0.17000000 23 246 121 0.000000 0.000000 0.000000 0.000000 -60.708740 0.000000 179.000000 0.840450 0.540389 0.040286
4.46000004 -11.43999958 0.18000001 23 246 121 0.000000 0.000000 0.000000 0.000000 -60.708740 0.000000 179.000000 0.909199 0.285497 0.303066
4.61000013 -11.28999996 0.14000000 23 246 121 0.000000 0.000000 0.000000 0.000000 -60.708740 0.000000 179.000000 0.960948 -0.230049 -0.153804
4.57999992 -11.31999969 0.13000000 23 246 121 0.000000 0.000000 0.000000 0.000000 -60.708740 0.000000 179.000000 0.968134 -0.177082 0.177082
4.55999994 -11.35999966 0.13000000 23 246 121 0.000000 0.000000 0.000000 0.000000 -60.708740 0.000000 179.000000 0.999444 -0.021439 0.025522
4.40000010 -11.40999985 0.25999999 23 246 121 0.000000 0.000000 0.000000 0.000000 -60.708740 0.000000 179.000000 0.913478 0.080321 -0.398881
4.44000006 -11.40999985 0.19000000 23 246 121 0.000000 0.000000 0.000000 0.000000 -60.708740 0.000000 179.000000 0.920341 0.390329 0.024804
4.53999996 -11.48999977 0.37000000 23 246 121 0.000000 0.000000 0.000000 0.000000 -60.708740 0.000000 179.000000 0.864927 0.357954 0.351809
4.55000019 -11.48999977 0.38999999 23 246 121 0.000000 0.000000 0.000000 0.000000 -60.708740 0.000000 179.000000 0.727522 0.611377 0.311334
4.48999977 -11.55000019 0.38000000 23 246 121 0.000000 0.000000 0.000000 0.000000 -60.708740 0.000000 179.000000 0.657071 0.747803 -0.095122
4.40000010 -11.50000000 0.50999999 23 246 121 0.000000 0.000000 0.000000 0.000000 -60.708740 0.000000 179.000000 0.999559 0.005043 -0.029250
4.38999987 -11.53999996 0.50000000 23 246 121 0.000000 0.000000 0.000000 0.000000 -60.708740 0.000000 179.000000 0.950626 0.291385 0.106797
4.59000015 -11.51000023 0.19000000 23 246 121 0.000000 0.000000 0.000000 0.000000 -60.708740 0.000000 179.000000 0.630426 0.766894 0.120152
4.50000000 -11.47000027 0.17000000 23 246 121 0.000000 0.000000 0.000000 0.000000 -60.708740 0.000000 179.000000 0.991338 0.131223 -0.005514
4.57999992 -11.47000027 0.14000000 23 246 121 0.000000 0.000000 0.000000 0.000000 -60.708740 0.000000 179.000000 0.874530 0.483113 -0.042426
4.38000011 -11.47999954 0.28999999 23 246 121 0.000000 0.000000 0.000000 0.000000 -60.708740 0.000000 179.000000 0.922711 0.383037 -0.043437
4.42999983 -11.48999977 0.20999999 23 246 121 0.000000 0.000000 0.000000 0.000000 -60.708740 0.000000 179.000000 0.992549 0.098688 0.071464
4.42999983 -11.50000000 0.20999999 23 246 121 0.000000 0.000000 0.000000 0.000000 -60.708740 0.000000 179.000000 0.706226 0.628297 0.326325
4.38999987 -11.47999954 0.23000000 23 246 121 0.000000 0.000000 0.000000 0.000000 -60.708740 0.000000 179.000000 0.751878 0.577996 0.317174
4.88000011 -10.82999992 -0.34000000 23 246 121 0.000000 0.000000 0.000000 0.000000 -60.708740 0.000000 179.000000 0.265696 0.905714 0.330285
4.90999985 -10.93999958 -0.22000000 23 246 121 0.000000 0.000000 0.000000 0.000000 -60.708740 0.000000 179.000000 0.493183 0.773141 0.398778
4.88999987 -10.89999962 -0.31000000 23 246 121 0.000000 0.000000 0.000000 0.000000 -60.708740 0.000000 179.000000 0.727246 0.638904 0.250829
4.84999990 -10.84000015 -0.34999999 23 246 121 0.000000 0.000000 0.000000 0.000000 -60.708740 0.000000 179.000000 0.185495 0.933053 0.308228
4.82000017 -11.10000038 -0.16000000 23 246 121 0.000000 0.000000 0.000000 0.000000 -60.708740 0.000000 179.000000 0.161614 0.985018 0.060163
4.82000017 -11.10000038 -0.16000000 23 246 121 0.000000 0.000000 0.000000 0.000000 -60.708740 0.000000 179.000000 0.161614 0.985018 0.060163
4.82999992 -11.18000031 -0.07000000 23 246 121 0.000000 0.000000 0.000000 0.000000 -60.708740 0.000000 179.000000 0.888405 0.454501 -0.064536
4.86999989 -11.18999958 -0.08000000 23 246 121 0.000000 0.000000 0.000000 0.000000 -60.708740 0.000000 179.000000 0.872894 0.390146 0.292989
4.84000015 -11.15999985 -0.09000000 23 246 121 0.000000 0.000000 0.000000 0.000000 -60.708740 0.000000 179.000000 0.437081 0.884328 0.164087
4.78999996 -11.14000034 -0.07000000 23 246 121 0.000000 0.000000 0.000000 0.000000 -60.708740 0.000000 179.000000 0.229351 0.973256 -0.013072
4.80000019 -11.13000011 -0.10000000 23 246 121 0.000000 0.000000 0.000000 0.000000 -60.708740 0.000000 179.000000 0.347777 0.935716 0.059056
4.80999994 -11.14000034 -0.07000000 23 246 121 0.000000 0.000000 0.000000 0.000000 -60.708740 0.000000 179.000000 0.672960 0.698176 0.244283
4.80999994 -11.17000008 -0.05000000 23 246 121 0.000000 0.000000 0.000000 0.000000 -60.708740 0.000000 179.000000 0.471812 0.877822 0.082602
4.84999990 -11.14999962 -0.16000000 23 246 121 0.000000 0.000000 0.000000 0.000000 -60.708740 0.000000 179.000000 0.735447 0.617393 0.279183
4.84000015 -11.19999981 -0.13000000 23 246 121 0.000000 0.000000 0.000000 0.000000 -60.708740 0.000000 179.000000 0.665730 0.703682 0.248265
4.84999990 -11.17000008 -0.13000000 23 246 121 0.000000 0.000000 0.000000 0.000000 -60.708740 0.000000 179.000000 0.934093 0.356514 -0.019167
4.82999992 -11.19999981 -0.16000000 23 246 121 0.000000 0.000000 0.000000 0.000000 -60.708740 0.000000 179.000000 0.928937 0.308706 -0.204394
4.82999992 -11.19999981 -0.16000000 23 246 121 0.000000 0.000000 0.000000 0.000000 -60.708740 0.000000 179.000000 0.928937 0.308706 -0.204394
4.80999994 -11.15999985 -0.17000000 23 246 121 0.000000 0.000000 0.000000 0.000000 -60.708740 0.000000 179.000000 0.595143 0.772288 0.222208
4.86999989 -11.23999977 -0.05000000 23 246 121 0.000000 0.000000 0.000000 0.000000 -60.708740 0.000000 179.000000 0.861144 0.506798 -0.039830
4.84999990 -11.21000004 -0.11000000 23 246 121 0.000000 0.000000 0.000000 0.000000 -60.708740 0.000000 179.000000 0.697859 0.625948 0.348112
4.86000013 -11.22000027 -0.11000000 23 246 121 0.000000 0.000000 0.000000 0.000000 -60.708740 0.000000 179.000000 0.856183 0.444116 -0.264028
4.84000015 -11.21000004 -0.16000000 23 246 121 0.000000 0.000000 0.000000 0.000000 -60.708740 0.000000 179.000000 0.971324 0.214872 -0.101782
4.86000013 -11.26000023 -0.16000000 23 246 121 0.000000 0.000000 0.000000 0.000000 -60.708740 0.000000 179.000000 0.983066 0.182816 0.012648
4.82000017 -11.27000046 -0.18000001 23 246 121 0.000000 0.000000 0.000000 0.000000 -60.708740 0.000000 179.000000 0.888190 -0.338143 0.311092
4.78999996 -11.18999958 -0.23000000 23 246 121 0.000000 0.000000 0.000000 0.000000 -60.708740 0.000000 179.000000 0.740951 0.671443 -0.012511
4.78999996 -11.18000031 -0.25999999 23 246 121 0.000000 0.000000 0.000000 0.000000 -60.708740 0.000000 179.000000 0.668552 0.742362 -0.044002
4.82000017 -11.18999958 -0.27000001 23 246 121 0.000000 0.000000 0.000000 0.000000 -60.708740 0.000000 179.000000 0.860765 0.444805 0.247451
4.80000019 -11.17000008 -0.23999999 23 246 121 0.000000 0.000000 0.000000 0.000000 -60.708740 0.000000 179.000000 0.646824 0.650132 0.398682
4.80000019 -11.18999958 -0.28000000 23 246 121 0.000000 0.000000 0.000000 0.000000 -60.708740 0.000000 179.000000 0.849354 0.498307 -0.174036
4.80999994 -11.17000008 -0.28999999 23 246 121 0.000000 0.000000 0.000000 0.000000 -60.708740 0.000000 179.000000 0.653503 0.716491 -0.244079
4.84999990 -11.22999954 -0.20000000 23 246 121 0.000000 0.000000 0.000000 0.000000 -60.708740 0.000000 179.000000 0.993903 0.027517 -0.106765
4.86000013 -11.22999954 -0.20999999 23 246 121 0.000000 0.000000 0.000000 0.000000 -60.708740 0.000000 179.000000 0.902407 0.380952 -0.201340
4.80000019 -11.27999973 -0.22000000 23 246 121 0.000000 0.000000 0.000000 0.000000 -60.708740 0.000000 179.000000 0.564083 -0.693872 -0.447606
4.82000017 -11.26000023 -0.22000000 23 246 121 0.000000 0.000000 0.000000 0.000000 -60.708740 0.000000 179.000000 0.956919 -0.067713 0.282349
4.80999994 -11.27000046 -0.28999999 23 246 121 0.000000 0.000000 0.000000 0.000000 -60.708740 0.000000 179.000000 0.985302 -0.170816 0.001131
4.86000013 -11.31000042 -0.08000000 23 246 121 0.000000 0.000000 0.000000 0.000000 -60.708740 0.000000 179.000000 0.972566 -0.176715 0.151288
4.80000019 -11.34000015 -0.03000000 23 246 121 0.000000 0.000000 0.000000 0.000000 -60.708740 0.000000 179.000000 -0.379620 0.865287 0.327364
4.78999996 -11.31000042 -0.25000000 23 246 121 0.000000 0.000000 0.000000 0.000000 -60.708740 0.000000 179.000000 0.731869 -0.620255 -0.282224
4.78000021 -11.15999985 -0.05000000 23 246 121 0.000000 0.000000 0.000000 0.000000 -60.708740 0.000000 179.000000 0.604826 0.794631 0.052409
4.78000021 -11.15999985 -0.07000000 23 246 121 0.000000 0.000000 0.000000 0.000000 -60.708740 0.000000 179.000000 0.267198 0.963605 0.008463
4.71000004 -11.18999958 -0.03000000 23 246 121 0.000000 0.000000 0.000000 0.000000 -60.708740 0.000000 179.000000 -0.676192 0.733863 -0.064880
4.78000021 -11.14999962 -0.11000000 23 246 121 0.000000 0.000000 0.000000 0.000000 -60.708740 0.000000 179.000000 -0.024734 0.922987 0.384035
4.76999998 -11.13000011 -0.17000000 23 246 121 0.000000 0.000000 0.000000 0.000000 -60.708740 0.000000 179.000000 0.003592 0.966288 0.257437
4.76999998 -11.17000008 -0.16000000 23 246 121 0.000000 0.000000 0.000000 0.000000 -60.708740 0.000000 179.000000 0.526385 0.844798 -0.096098
4.73000002 -11.14999962 -0.12000000 23 246 121 0.000000 0.000000 0.000000 0.000000 -60.708740 0.000000 179.000000 -0.433574 0.900500 -0.033352
4.71999979 -11.15999985 -0.12000000 23 246 121 0.000000 0.000000 0.000000 0.000000 -60.708740 0.000000 179.000000 -0.183808 0.898778 0.398010
4.71999979 -11.15999985 -0.15000001 23 246 121 0.000000 0.000000 0.000000 0.000000 -60.708740 0.000000 179.000000 -0.162180 0.952974 0.256003
4.71000004 -11.15999985 -0.18000001 23 246 121 0.000000 0.000000 0.000000 0.000000 -60.708740 0.000000 179.000000 -0.627367 0.778271 0.026548
4.69000006 -11.17000008 -0.09000000 23 246 121 0.000000 0.000000 0.000000 0.000000 -60.708740 0.000000 179.000000 -0.378969 0.826120 0.417024
4.69000006 -11.15999985 -0.15000001 23 246 121 0.000000 0.000000 0.000000 0.000000 -60.708740 0.000000 179.000000 -0.597145 0.770860 0.221797
4.69000006 -11.15999985 -0.15000001 23 246 121 0.000000 0.000000 0.000000 0.000000 -60.708740 0.000000 179.000000 -0.597145 0.770860 0.221797
4.69000006 -11.14999962 -0.17000000 23 246 121 0.000000 0.000000 0.000000 0.000000 -60.708740 0.000000 179.000000 -0.530310 0.780245 0.331644
4.67999983 -11.22999954 -0.05000000 23 246 121 0.000000 0.000000 0.000000 0.000000 -60.708740 0.000000 179.000000 0.862022 -0.433291 -0.263015
4.67000008 -11.23999977 -0.03000000 23 246 121 0.000000 0.000000 0.000000 0.000000 -60.708740 0.000000 179.000000 0.950699 -0.309384 -0.021294
4.67999983 -11.21000004 -0.10000000 23 246 121 0.000000 0.000000 0.000000 0.000000 -60.708740 0.000000 179.000000 0.758691 -0.473568 -0.447349
4.65000010 -11.26000023 -0.10000000 23 246 121 0.000000 0.000000 0.000000 0.000000 -60.708740 0.000000 179.000000 0.939273 -0.186199 0.288264
4.67999983 -11.21000004 -0.17000000 23 246 121 0.000000 0.000000 0.000000 0.000000 -60.708740 0.000000 179.000000 0.784723 -0.592732 0.181324
4.67000008 -11.27000046 -0.16000000 23 246 121 0.000000 0.000000 0.000000 0.000000 -60.708740 0.000000 179.000000 0.982978 0.166424 0.077824
4.63999987 -11.23999977 -0.16000000 23 246 121 0.000000 0.000000 0.000000 0.000000 -60.708740 0.000000 179.000000 0.901546 -0.345617 -0.260316
4.65999985 -11.26000023 -0.14000000 23 246 121 0.000000 0.000000 0.000000 0.000000 -60.708740 0.000000 179.000000 0.945338 -0.288064 -0.152823
4.63999987 -11.27000046 -0.11000000 23 246 121 0.000000 0.000000 0.000000 0.000000 -60.708740 0.000000 179.000000 0.944191 0.317364 -0.088230
4.65999985 -11.25000000 -0.15000001 23 246 121 0.000000 0.000000 0.000000 0.000000 -60.708740 0.000000 179.000000 0.933345 0.115144 -0.340014
4.75000000 -11.14000034 -0.27000001 23 246 121 0.000000 0.000000 0.000000 0.000000 -60.708740 0.000000 179.000000 -0.058847 0.888176 0.455720
4.75000000 -11.14000034 -0.27000001 23 246 121 0.000000 0.000000 0.000000 0.000000 -60.708740 0.000000 179.000000 -0.058847 0.888176 0.455720
4.78000021 -11.15999985 -0.20999999 23 246 121 0.000000 0.000000 0.000000 0.000000 -60.708740 0.000000 179.000000 0.649039 0.652342 0.391405
4.78000021 -11.18999958 -0.25999999 23 246 121 0.000000 0.000000 0.000000 0.000000 -60.708740 0.000000 179.000000 0.885909 0.454851 -0.090970
4.73000002 -11.14000034 -0.27000001 23 246 121 0.000000 0.000000 0.000000 0.000000 -60.708740 0.000000 179.000000 0.001197 0.965696 0.259673
4.78000021 -11.14999962 -0.30000001 23 246 121 0.000000 0.000000 0.000000 0.000000 -60.708740 0.000000 179.000000 0.597421 0.755888 0.267809
4.71999979 -11.14000034 -0.34000000 23 246 121 0.000000 0.000000 0.000000 0.000000 -60.708740 0.000000 179.000000 -0.326269 0.928398 0.177838
4.76999998 -11.14000034 -0.28999999 23 246 121 0.000000 0.000000 0.000000 0.000000 -60.708740 0.000000 179.000000 0.249641 0.916312 0.313133
4.67999983 -11.18000031 -0.20000000 23 246 121 0.000000 0.000000 0.000000 0.000000 -60.708740 0.000000 179.000000 -0.560869 0.826617 0.046156
4.67999983 -11.26000023 -0.19000000 23 246 121 0.000000 0.000000 0.000000 0.000000 -60.708740 0.000000 179.000000 0.991009 0.133681 0.005524
4.67000008 -11.27999973 -0.25000000 23 246 121 0.000000 0.000000 0.000000 0.000000 -60.708740 0.000000 179.000000 0.636413 0.707304 0.307734
4.67000008 -11.26000023 -0.23000000 23 246 121 0.000000 0.000000 0.000000 0.000000 -60.708740 0.000000 179.000000 0.778202 0.485767 0.398036
4.65999985 -11.23999977 -0.23999999 23 246 121 0.000000 0.000000 0.000000 0.000000 -60.708740 0.000000 179.000000 0.944617 0.127651 -0.302331
4.65000010 -11.23999977 -0.23999999 23 246 121 0.000000 0.000000 0.000000 0.000000 -60.708740 0.000000 179.000000 0.893194 0.385329 0.231788
4.61999989 -11.23999977 -0.23999999 23 246 121 0.000000 0.000000 0.000000 0.000000 -60.708740 0.000000 179.000000 0.938674 -0.183864 0.291694
4.65000010 -11.25000000 -0.25000000 23 246 121 0.000000 0.000000 0.000000 0.000000 -60.708740 0.000000 179.000000 0.989624 -0.091869 0.110475
4.65000010 -11.23999977 -0.28000000 23 246 121 0.000000 0.000000 0.000000 0.000000 -60.708740 0.000000 179.000000 0.992319 -0.105469 -0.064643
4.76000023 -11.31999969 -0.05000000 23 246 121 0.000000 0.000000 0.000000 0.000000 -60.708740 0.000000 179.000000 -0.496519 0.867900 0.014801
4.78000021 -11.31999969 -0.10000000 23 246 121 0.000000 0.000000 0.000000 0.000000 -60.708740 0.000000 179.000000 -0.228387 0.894394 0.384575
4.73000002 -11.31999969 -0.03000000 23 246 121 0.000000 0.000000 0.000000 0.000000 -60.708740 0.000000 179.000000 0.522463 0.833844 0.178146
4.73000002 -11.31999969 -0.03000000 23 246 121 0.000000 0.000000 0.000000 0.000000 -60.708740 0.000000 179.000000 0.522463 0.833844 0.178146
4.73000002 -11.31999969 -0.09000000 23 246 121 0.000000 0.000000 0.000000 0.000000 -60.708740 0.000000 179.000000 -0.048858 0.923026 0.381623
4.73000002 -11.31999969 -0.15000001 23 246 121 0.000000 0.000000 0.000000 0.000000 -60.708740 0.000000 179.000000 0.527595 0.793769 0.302614
4.73000002 -11.32999992 -0.11000000 23 246 121 0.000000 0.000000 0.000000 0.000000 -60.708740 0.000000 179.000000 0.245755 0.933868 0.259798
4.73000002 -11.32999992 -0.11000000 23 246 121 0.000000 0.000000 0.000000 0.000000 -60.708740 0.000000 179.000000 0.245755 0.933868 0.259798
4.71999979 -11.32999992 -0.18000001 23 246 121 0.000000 0.000000 0.000000 0.000000 -60.708740 0.000000 179.000000 -0.125784 0.921958 0.366295
4.67000008 -11.31999969 -0.08000000 23 246 121 0.000000 0.000000 0.000000 0.000000 -60.708740 0.000000 179.000000 0.640928 0.734494 0.222999
4.69999981 -11.32999992 -0.10000000 23 246 121 0.000000 0.000000 0.000000 0.000000 -60.708740 0.000000 179.000000 0.502351 0.760890 0.410717
4.65999985 -11.32999992 -0.04000000 23 246 121 0.000000 0.000000 0.000000 0.000000 -60.708740 0.000000 179.000000 0.786088 0.616123 -0.049573
4.76000023 -11.31000042 -0.20000000 23 246 121 0.000000 0.000000 0.000000 0.000000 -60.708740 0.000000 179.000000 -0.114627 0.915638 0.385314
4.78000021 -11.32999992 -0.20000000 23 246 121 0.000000 0.000000 0.000000 0.000000 -60.708740 0.000000 179.000000 -0.588118 0.764711 0.263313
4.73999977 -11.31000042 -0.27000001 23 246 121 0.000000 0.000000 0.000000 0.000000 -60.708740 0.000000 179.000000 0.141597 0.853962 0.500699
4.71999979 -11.31999969 -0.25999999 23 246 121 0.000000 0.000000 0.000000 0.000000 -60.708740 0.000000 179.000000 0.302093 0.798728 0.520359
4.75000000 -11.34000015 -0.34000000 23 246 121 0.000000 0.000000 0.000000 0.000000 -60.708740 0.000000 179.000000 0.199294 0.976908 0.077028
4.71000004 -11.30000019 -0.33000001 23 246 121 0.000000 0.000000 0.000000 0.000000 -60.708740 0.000000 179.000000 0.617292 0.786527 -0.018033
4.65000010 -11.28999996 -0.20999999 23 246 121 0.000000 0.000000 0.000000 0.000000 -60.708740 0.000000 179.000000 0.745082 0.576994 0.334560
4.78999996 -11.14999962 -0.43000001 23 246 121 0.000000 0.000000 0.000000 0.000000 -60.708740 0.000000 179.000000 0.893646 0.266161 0.361324
4.80000019 -11.18999958 -0.46000001 23 246 121 0.000000 0.000000 0.000000 0.000000 -60.708740 0.000000 179.000000 0.958009 0.171405 0.229869
4.78999996 -11.17000008 -0.44999999 23 246 121 0.000000 0.000000 0.000000 0.000000 -60.708740 0.000000 179.000000 0.790342 0.555587 0.258231
4.80999994 -11.27999973 -0.50999999 23 246 121 0.000000 0.000000 0.000000 0.000000 -60.708740 0.000000 179.000000 0.578292 -0.681618 -0.448302
4.80999994 -11.27999973 -0.50999999 23 246 121 0.000000 0.000000 0.000000 0.000000 -60.708740 0.000000 179.000000 0.578292 -0.681618 -0.448302
4.80000019 -11.17000008 -0.60000002 23 246 121 0.000000 0.000000 0.000000 0.000000 -60.708740 0.000000 179.000000 0.934211 0.146785 -0.325122
4.80999994 -11.26000023 -0.56000000 23 246 121 0.000000 0.000000 0.000000 0.000000 -60.708740 0.000000 179.000000 0.685668 -0.507964 -0.521376
4.78999996 -11.22000027 -0.68000001 23 246 121 0.000000 0.000000 0.000000 0.000000 -60.708740 0.000000 179.000000 0.688914 -0.585992 -0.426628
4.78999996 -11.27000046 -0.62000000 23 246 121 0.000000 0.000000 0.000000 0.000000 -60.708740 0.000000 179.000000 0.794850 -0.562438 -0.227764
4.82000017 -11.28999996 -0.47999999 23 246 121 0.000000 0.000000 0.000000 0.000000 -60.708740 0.000000 179.000000 0.638070 -0.570727 -0.516853
4.78999996 -11.31000042 -0.54000002 23 246 121 0.000000 0.000000 0.000000 0.000000 -60.708740 0.000000 179.000000 -0.405006 0.811614 0.421015
4.78000021 -11.17000008 -0.38999999 23 246 121 0.000000 0.000000 0.000000 0.000000 -60.708740 0.000000 179.000000 0.581545 0.801669 0.138321
4.75000000 -11.17000008 -0.41999999 23 246 121 0.000000 0.000000 0.000000 0.000000 -60.708740 0.000000 179.000000 0.375783 0.874799 0.305799
4.73999977 -11.17000008 -0.41000000 23 246 121 0.000000 0.000000 0.000000 0.000000 -60.708740 0.000000 179.000000 0.276385 0.915977 0.290855
4.73999977 -11.13000011 -0.43000001 23 246 121 0.000000 0.000000 0.000000 0.000000 -60.708740 0.000000 179.000000 0.437500 0.792667 0.424585
4.71999979 -11.14999962 -0.50000000 23 246 121 0.000000 0.000000 0.000000 0.000000 -60.708740 0.000000 179.000000 -0.266334 0.963467 0.028229
4.73000002 -11.14999962 -0.50999999 23 246 121 0.000000 0.000000 0.000000 0.000000 -60.708740 0.000000 179.000000 -0.254212 0.944021 0.210240
4.69000006 -11.11999989 -0.38000000 23 246 121 0.000000 0.000000 0.000000 0.000000 -60.708740 0.000000 179.000000 -0.412939 0.867021 0.278848
4.69000006 -11.11999989 -0.40000001 23 246 121 0.000000 0.000000 0.000000 0.000000 -60.708740 0.000000 179.000000 -0.596065 0.639720 0.485247
4.69999981 -11.14999962 -0.51999998 23 246 121 0.000000 0.000000 0.000000 0.000000 -60.708740 0.000000 179.000000 -0.683195 0.721727 -0.111149
4.69999981 -11.17000008 -0.51999998 23 246 121 0.000000 0.000000 0.000000 0.000000 -60.708740 0.000000 179.000000 0.970179 -0.188397 0.152512
4.63999987 -11.27999973 -0.40000001 23 246 121 0.000000 0.000000 0.000000 0.000000 -60.708740 0.000000 179.000000 0.782100 0.511187 0.356380
4.61999989 -11.27999973 -0.47999999 23 246 121 0.000000 0.000000 0.000000 0.000000 -60.708740 0.000000 179.000000 0.818708 0.457653 0.346803
4.78000021 -11.15999985 -0.60000002 23 246 121 0.000000 0.000000 0.000000 0.000000 -60.708740 0.000000 179.000000 0.933873 -0.050939 -0.353958
4.71999979 -11.14999962 -0.56999999 23 246 121 0.000000 0.000000 0.000000 0.000000 -60.708740 0.000000 179.000000 -0.406196 0.857181 0.316616
4.71999979 -11.14000034 -0.57999998 23 246 121 0.000000 0.000000 0.000000 0.000000 -60.708740 0.000000 179.000000 -0.231477 0.781430 0.579470
4.69999981 -11.18000031 -0.62000000 23 246 121 0.000000 0.000000 0.000000 0.000000 -60.708740 0.000000 179.000000 0.317170 0.923065 0.217610
4.61999989 -11.27000046 -0.57999998 23 246 121 0.000000 0.000000 0.000000 0.000000 -60.708740 0.000000 179.000000 0.564701 0.813703 -0.137840
4.63999987 -11.22000027 -0.56999999 23 246 121 0.000000 0.000000 0.000000 0.000000 -60.708740 0.000000 179.000000 0.830733 0.519019 0.201252
4.65000010 -11.22000027 -0.57999998 23 246 121 0.000000 0.000000 0.000000 0.000000 -60.708740 0.000000 179.000000 0.913514 0.394253 -0.100280
4.75000000 -11.31999969 -0.51999998 23 246 121 0.000000 0.000000 0.000000 0.000000 -60.708740 0.000000 179.000000 -0.154734 0.974952 -0.159766
4.78000021 -11.32999992 -0.44000000 23 246 121 0.000000 0.000000 0.000000 0.000000 -60.708740 0.000000 179.000000 -0.455574 0.824446 0.335769
4.73000002 -11.34000015 -0.47999999 23 246 121 0.000000 0.000000 0.000000 0.000000 -60.708740 0.000000 179.000000 -0.193156 0.851985 0.486634
4.67999983 -11.32999992 -0.43000001 23 246 121 0.000000 0.000000 0.000000 0.000000 -60.708740 0.000000 179.000000 0.109394 0.979631 0.168393
4.63999987 -11.28999996 -0.38999999 23 246 121 0.000000 0.000000 0.000000 0.000000 -60.708740 0.000000 179.000000 0.906477 0.373255 0.197436
4.63999987 -11.28999996 -0.38999999 23 246 121 0.000000 0.000000 0.000000 0.000000 -60.708740 0.000000 179.000000 0.906477 0.373255 0.197436
4.61999989 -11.28999996 -0.36000001 23 246 121 0.000000 0.000000 0.000000 0.000000 -60.708740 0.000000 179.000000 0.535378 0.835889 0.121080
4.65999985 -11.32999992 -0.38000000 23 246 121 0.000000 0.000000 0.000000 0.000000 -60.708740 0.000000 179.000000 0.576838 0.748111 0.328006
4.65999985 -11.32999992 -0.38000000 23 246 121 0.000000 0.000000 0.000000 0.000000 -60.708740 0.000000 179.000000 0.576838 0.748111 0.328006
4.63000011 -11.31000042 -0.46000001 23 246 121 0.000000 0.000000 0.000000 0.000000 -60.708740 0.000000 179.000000 0.588315 0.662063 0.464282
4.63999987 -11.30000019 -0.50000000 23 246 121 0.000000 0.000000 0.000000 0.000000 -60.708740 0.000000 179.000000 0.409529 0.911102 0.046689
4.78000021 -11.30000019 -0.55000001 23 246 121 0.000000 0.000000 0.000000 0.000000 -60.708740 0.000000 179.000000 -0.578231 0.802352 -0.147920
4.75000000 -11.35000038 -0.52999997 23 246 121 0.000000 0.000000 0.000000 0.000000 -60.708740 0.000000 179.000000 -0.040728 0.985607 -0.164074
4.71999979 -11.31999969 -0.55000001 23 246 121 0.000000 0.000000 0.000000 0.000000 -60.708740 0.000000 179.000000 -0.055148 0.971823 0.229169
4.71000004 -11.32999992 -0.55000001 23 246 121 0.000000 0.000000 0.000000 0.000000 -60.708740 0.000000 179.000000 -0.037889 0.969230 0.243224
4.75000000 -11.32999992 -0.69000000 23 246 121 0.000000 0.000000 0.000000 0.000000 -60.708740 0.000000 179.000000 -0.148765 0.959733 0.238288
4.67000008 -11.34000015 -0.58999997 23 246 121 0.000000 0.000000 0.000000 0.000000 -60.708740 0.000000 179.000000 0.560297 0.823966 0.084546
4.63999987 -11.31000042 -0.54000002 23 246 121 0.000000 0.000000 0.000000 0.000000 -60.708740 0.000000 179.000000 0.206338 0.953469 0.219824
4.63000011 -11.31000042 -0.54000002 23 246 121 0.000000 0.000000 0.000000 0.000000 -60.708740 0.000000 179.000000 0.725816 0.630104 0.275970
4.65999985 -11.35999966 -0.61000001 23 246 121 0.000000 0.000000 0.000000 0.000000 -60.708740 0.000000 179.000000 0.308760 0.805942 0.505099
4.67999983 -11.39000034 -0.64999998 23 246 121 0.000000 0.000000 0.000000 0.000000 -60.708740 0.000000 179.000000 -0.094919 0.968169 0.231601
4.63000011 -11.39000034 -0.69000000 23 246 121 0.000000 0.000000 0.000000 0.000000 -60.708740 0.000000 179.000000 0.681786 0.694324 0.230396
4.59000015 -11.23999977 -0.44999999 23 246 121 0.000000 0.000000 0.000000 0.000000 -60.708740 0.000000 179.000000 0.929263 0.313503 0.195412
4.61000013 -11.23999977 -0.51999998 23 246 121 0.000000 0.000000 0.000000 0.000000 -60.708740 0.000000 179.000000 0.892898 0.447129 0.053003
4.57000017 -11.22999954 -0.50999999 23 246 121 0.000000 0.000000 0.000000 0.000000 -60.708740 0.000000 179.000000 0.809894 0.586380 -0.015177
4.59999990 -11.27999973 -0.57999998 23 246 121 0.000000 0.000000 0.000000 0.000000 -60.708740 0.000000 179.000000 0.571862 0.669129 0.474595
4.61000013 -11.26000023 -0.54000002 23 246 121 0.000000 0.000000 0.000000 0.000000 -60.708740 0.000000 179.000000 0.913643 0.378690 0.147816
4.59999990 -11.23999977 -0.66000003 23 246 121 0.000000 0.000000 0.000000 0.000000 -60.708740 0.000000 179.000000 0.641366 0.750535 0.159204
4.61000013 -11.30000019 -0.41999999 23 246 121 0.000000 0.000000 0.000000 0.000000 -60.708740 0.000000 179.000000 0.932045 0.277780 0.232659
4.59000015 -11.30000019 -0.62000000 23 246 121 0.000000 0.000000 0.000000 0.000000 -60.708740 0.000000 179.000000 0.736769 0.673576 0.058884
4.59000015 -11.28999996 -0.66000003 23 246 121 0.000000 0.000000 0.000000 0.000000 -60.708740 0.000000 179.000000 0.806886 0.590235 0.023609
4.59000015 -11.34000015 -0.68000001 23 246 121 0.000000 0.000000 0.000000 0.000000 -60.708740 0.000000 179.000000 0.224956 0.972350 -0.062693
4.61000013 -11.39000034 -0.69000000 23 246 121 0.000000 0.000000 0.000000 0.000000 -60.708740 0.000000 179.000000 0.027793 0.992774 0.116732
4.71999979 -11.18999958 -0.79000002 23 246 121 0.000000 0.000000 0.000000 0.000000 -60.708740 0.000000 179.000000 -0.334430 0.882229 0.331403
4.76999998 -11.27000046 -0.76999998 23 246 121 0.000000 0.000000 0.000000 0.000000 -60.708740 0.000000 179.000000 -0.385802 0.922002 -0.032695
4.73000002 -11.22000027 -0.82999998 23 246 121 0.000000 0.000000 0.000000 0.000000 -60.708740 0.000000 179.000000 -0.222670 0.968295 -0.113243
4.75000000 -11.22999954 -0.80000001 23 246 121 0.000000 0.000000 0.000000 0.000000 -60.708740 0.000000 179.000000 -0.231726 0.972780 0.001176
4.67999983 -11.18999958 -0.70999998 23 246 121 0.000000 0.000000 0.000000 0.000000 -60.708740 0.000000 179.000000 0.339747 0.931917 0.126894
4.63000011 -11.21000004 -0.75999999 23 246 121 0.000000 0.000000 0.000000 0.000000 -60.708740 0.000000 179.000000 0.710392 0.701816 0.052886
4.71000004 -11.23999977 -0.88999999 23 246 121 0.000000 0.000000 0.000000 0.000000 -60.708740 0.000000 179.000000 0.397225 0.857820 0.326126
4.63999987 -11.19999981 -0.95999998 23 246 121 0.000000 0.000000 0.000000 0.000000 -60.708740 0.000000 179.000000 0.646869 0.751444 -0.129971
4.69000006 -11.22999954 -0.88000000 23 246 121 0.000000 0.000000 0.000000 0.000000 -60.708740 0.000000 179.000000 0.511984 0.788039 0.341858
4.67000008 -11.22000027 -0.88000000 23 246 121 0.000000 0.000000 0.000000 0.000000 -60.708740 0.000000 179.000000 0.455835 0.875261 0.161654
4.69000006 -11.25000000 -0.97000003 23 246 121 0.000000 0.000000 0.000000 0.000000 -60.708740 0.000000 179.000000 0.215945 0.972375 0.088625
4.75000000 -11.32999992 -0.70999998 23 246 121 0.000000 0.000000 0.000000 0.000000 -60.708740 0.000000 179.000000 -0.420212 0.906208 -0.046989
4.71999979 -11.38000011 -0.73000002 23 246 121 0.000000 0.000000 0.000000 0.000000 -60.708740 0.000000 179.000000 0.045276 0.994962 0.089447
4.65000010 -11.39000034 -0.74000001 23 246 121 0.000000 0.000000 0.000000 0.000000 -60.708740 0.000000 179.000000 0.394151 0.747416 0.534803
4.63000011 -11.39999962 -0.74000001 23 246 121 0.000000 0.000000 0.000000 0.000000 -60.708740 0.000000 179.000000 0.169246 0.892518 0.418052
4.65000010 -11.42000008 -0.75000000 23 246 121 0.000000 0.000000 0.000000 0.000000 -60.708740 0.000000 179.000000 -0.176425 0.959062 0.221526
4.63999987 -11.42000008 -0.75000000 23 246 121 0.000000 0.000000 0.000000 0.000000 -60.708740 0.000000 179.000000 0.478876 0.854171 0.202659
4.63999987 -11.40999985 -0.75999999 23 246 121 0.000000 0.000000 0.000000 0.000000 -60.708740 0.000000 179.000000 0.227338 0.948832 0.219171
4.61999989 -11.43000031 -0.81999999 23 246 121 0.000000 0.000000 0.000000 0.000000 -60.708740 0.000000 179.000000 0.054875 0.974342 0.218282
4.71000004 -11.40999985 -0.89999998 23 246 121 0.000000 0.000000 0.000000 0.000000 -60.708740 0.000000 179.000000 -0.230358 0.862714 0.450177
4.71999979 -11.38000011 -0.87000000 23 246 121 0.000000 0.000000 0.000000 0.000000 -60.708740 0.000000 179.000000 -0.148834 0.950663 0.272193
4.67999983 -11.43000031 -0.87000000 23 246 121 0.000000 0.000000 0.000000 0.000000 -60.708740 0.000000 179.000000 0.363057 0.928408 -0.079042
4.69000006 -11.40999985 -0.88000000 23 246 121 0.000000 0.000000 0.000000 0.000000 -60.708740 0.000000 179.000000 -0.219244 0.958029 0.184696
4.65000010 -11.42000008 -1.00000000 23 246 121 0.000000 0.000000 0.000000 0.000000 -60.708740 0.000000 179.000000 0.409277 0.911991 0.027636
4.57999992 -11.22999954 -0.80000001 23 246 121 0.000000 0.000000 0.000000 0.000000 -60.708740 0.000000 179.000000 0.870638 0.481478 -0.100841
4.61000013 -11.22999954 -0.80000001 23 246 121 0.000000 0.000000 0.000000 0.000000 -60.708740 0.000000 179.000000 0.401780 0.811564 0.424190
4.59999990 -11.21000004 -0.80000001 23 246 121 0.000000 0.000000 0.000000 0.000000 -60.708740 0.000000 179.000000 0.594451 0.776646 0.208444
4.59999990 -11.19999981 -0.94999999 23 246 121 0.000000 0.000000 0.000000 0.000000 -60.708740 0.000000 179.000000 0.678758 0.709541 -0.189313
4.55999994 -11.32999992 -0.75000000 23 246 121 0.000000 0.000000 0.000000 0.000000 -60.708740 0.000000 179.000000 0.776026 0.629553 -0.038027
4.53999996 -11.31999969 -0.79000002 23 246 121 0.000000 0.000000 0.000000 0.000000 -60.708740 0.000000 179.000000 0.879409 0.468366 0.085284
4.55000019 -11.35999966 -0.85000002 23 246 121 0.000000 0.000000 0.000000 0.000000 -60.708740 0.000000 179.000000 0.499469 0.844448 -0.193488
4.61000013 -11.43000031 -0.81000000 23 246 121 0.000000 0.000000 0.000000 0.000000 -60.708740 0.000000 179.000000 0.064643 0.992319 0.105469
4.55000019 -11.38000011 -0.79000002 23 246 121 0.000000 0.000000 0.000000 0.000000 -60.708740 0.000000 179.000000 0.706895 0.612207 0.354264
4.53999996 -11.39000034 -0.77999997 23 246 121 0.000000 0.000000 0.000000 0.000000 -60.708740 0.000000 179.000000 0.353534 0.770025 0.531107
4.55000019 -11.40999985 -0.85000002 23 246 121 0.000000 0.000000 0.000000 0.000000 -60.708740 0.000000 179.000000 0.286326 0.939205 0.189501
4.55999994 -11.40999985 -0.85000002 23 246 121 0.000000 0.000000 0.000000 0.000000 -60.708740 0.000000 179.000000 0.755223 0.629608 0.182295
4.59000015 -11.40999985 -0.86000001 23 246 121 0.000000 0.000000 0.000000 0.000000 -60.708740 0.000000 179.000000 0.590473 0.744929 0.310521
4.59000015 -11.42000008 -0.89999998 23 246 121 0.000000 0.000000 0.000000 0.000000 -60.708740 0.000000 179.000000 0.083742 0.987213 -0.135639
4.57999992 -11.43999958 -0.97000003 23 246 121 0.000000 0.000000 0.000000 0.000000 -60.708740 0.000000 179.000000 0.411984 0.790040 0.453990
4.57000017 -11.42000008 -0.94999999 23 246 121 0.000000 0.000000 0.000000 0.000000 -60.708740 0.000000 179.000000 0.200404 0.959549 -0.197749
4.51000023 -11.30000019 -0.86000001 23 246 121 0.000000 0.000000 0.000000 0.000000 -60.708740 0.000000 179.000000 0.639636 0.716201 0.279143
4.51000023 -11.28999996 -0.89999998 23 246 121 0.000000 0.000000 0.000000 0.000000 -60.708740 0.000000 179.000000 0.935739 0.352022 0.021761
4.51999998 -11.43999958 -0.95999998 23 246 121 0.000000 0.000000 0.000000 0.000000 -60.708740 0.000000 179.000000 0.469848 0.831989 0.295021
4.51999998 -11.43999958 -0.95999998 23 246 121 0.000000 0.000000 0.000000 0.000000 -60.708740 0.000000 179.000000 0.469848 0.831989 0.295021
5.05000019 -11.27999973 0.56999999 23 246 121 0.000000 0.000000 0.000000 0.000000 -60.708740 0.000000 179.000000 0.767263 0.639622 -0.046802
5.03999996 -11.26000023 0.62000000 23 246 121 0.000000 0.000000 0.000000 0.000000 -60.708740 0.000000 179.000000 0.745937 0.662254 0.070698
5.01000023 -11.11999989 0.64999998 23 246 121 0.000000 0.000000 0.000000 0.000000 -60.708740 0.000000 179.000000 0.731901 0.665502 -0.146380
4.98000002 -11.17000008 0.52999997 23 246 121 0.000000 0.000000 0.000000 0.000000 -60.708740 0.000000 179.000000 0.779010 0.612186 -0.135545
4.96999979 -11.17000008 0.54000002 23 246 121 0.000000 0.000000 0.000000 0.000000 -60.708740 0.000000 179.000000 0.415494 0.860119 0.295905
5.01000023 -11.25000000 0.61000001 23 246 121 0.000000 0.000000 0.000000 0.000000 -60.708740 0.000000 179.000000 0.542724 0.839505 0.026106
5.01000023 -11.25000000 0.61000001 23 246 121 0.000000 0.000000 0.000000 0.000000 -60.708740 0.000000 179.000000 0.542724 0.839505 0.026106
5.03000021 -11.55000019 0.50000000 23 246 121 0.000000 0.000000 0.000000 0.000000 -60.708740 0.000000 179.000000 0.814392 -0.542419 -0.206272
4.88000011 -11.06000042 0.47999999 23 246 121 0.000000 0.000000 0.000000 0.000000 -60.708740 0.000000 179.000000 0.481875 0.854844 -0.192452
4.88000011 -11.09000015 0.16000000 23 246 121 0.000000 0.000000 0.000000 0.000000 -60.708740 0.000000 179.000000 0.374437 0.926238 -0.043356
4.90999985 -11.07999992 0.04000000 23 246 121 0.000000 0.000000 0.000000 0.000000 -60.708740 0.000000 179.000000 0.351661 0.910265 0.218522
4.86999989 -11.09000015 0.06000000 23 246 121 0.000000 0.000000 0.000000 0.000000 -60.708740 0.000000 179.000000 0.784871 0.573499 0.234684
4.94000006 -11.18000031 0.57999998 23 246 121 0.000000 0.000000 0.000000 0.000000 -60.708740 0.000000 179.000000 0.626162 0.728133 -0.278825
4.88000011 -11.18000031 0.49000001 23 246 121 0.000000 0.000000 0.000000 0.000000 -60.708740 0.000000 179.000000 0.459279 0.888291 0.001316
4.94000006 -11.11999989 0.55000001 23 246 121 0.000000 0.000000 0.000000 0.000000 -60.708740 0.000000 179.000000 0.231366 0.951172 0.204306
4.94999981 -11.23999977 0.64999998 23 246 121 0.000000 0.000000 0.000000 0.000000 -60.708740 0.000000 179.000000 0.804454 0.569004 0.170550
4.92999983 -11.14999962 0.41000000 23 246 121 0.000000 0.000000 0.000000 0.000000 -60.708740 0.000000 179.000000 0.422541 0.837228 0.347143
4.90000010 -11.18999958 0.33000001 23 246 121 0.000000 0.000000 0.000000 0.000000 -60.708740 0.000000 179.000000 0.828859 0.537196 -0.156248
4.92999983 -11.21000004 0.47999999 23 246 121 0.000000 0.000000 0.000000 0.000000 -60.708740 0.000000 179.000000 0.608750 0.665456 0.431963
4.88999987 -11.22000027 0.44000000 23 246 121 0.000000 0.000000 0.000000 0.000000 -60.708740 0.000000 179.000000 0.364484 0.873846 0.321783
4.88999987 -11.22000027 0.41999999 23 246 121 0.000000 0.000000 0.000000 0.000000 -60.708740 0.000000 179.000000 0.719285 0.659995 -0.216878
4.92000008 -11.27999973 0.40000001 23 246 121 0.000000 0.000000 0.000000 0.000000 -60.708740 0.000000 179.000000 0.754457 0.599453 0.267302
4.88999987 -11.21000004 0.33000001 23 246 121 0.000000 0.000000 0.000000 0.000000 -60.708740 0.000000 179.000000 0.621361 0.757043 0.201981
4.80999994 -11.14000034 0.43000001 23 246 121 0.000000 0.000000 0.000000 0.000000 -60.708740 0.000000 179.000000 0.285584 0.939530 0.189010
4.86000013 -11.11999989 0.41999999 23 246 121 0.000000 0.000000 0.000000 0.000000 -60.708740 0.000000 179.000000 0.331008 0.936279 0.117541
4.84999990 -11.19999981 0.38000000 23 246 121 0.000000 0.000000 0.000000 0.000000 -60.708740 0.000000 179.000000 0.302098 0.946219 -0.115782
4.86000013 -11.21000004 0.40000001 23 246 121 0.000000 0.000000 0.000000 0.000000 -60.708740 0.000000 179.000000 0.790572 0.592554 0.154514
4.82000017 -11.21000004 0.34000000 23 246 121 0.000000 0.000000 0.000000 0.000000 -60.708740 0.000000 179.000000 0.573206 0.777362 0.259121
4.92999983 -11.32999992 0.56000000 23 246 121 0.000000 0.000000 0.000000 0.000000 -60.708740 0.000000 179.000000 0.818609 0.379898 0.430763
4.90000010 -11.34000015 0.50999999 23 246 121 0.000000 0.000000 0.000000 0.000000 -60.708740 0.000000 179.000000 0.798728 0.520359 0.302093
4.94000006 -11.40999985 0.56999999 23 246 121 0.000000 0.000000 0.000000 0.000000 -60.708740 0.000000 179.000000 0.907617 -0.393818 -0.145388
4.92999983 -11.38000011 0.61000001 23 246 121 0.000000 0.000000 0.000000 0.000000 -60.708740 0.000000 179.000000 0.985612 0.098919 0.137056
4.92000008 -11.30000019 0.46000001 23 246 121 0.000000 0.000000 0.000000 0.000000 -60.708740 0.000000 179.000000 0.718828 0.679646 0.146177
4.90999985 -11.28999996 0.47000000 23 246 121 0.000000 0.000000 0.000000 0.000000 -60.708740 0.000000 179.000000 0.777874 0.600598 -0.184917
4.90999985 -11.28999996 0.44999999 23 246 121 0.000000 0.000000 0.000000 0.000000 -60.708740 0.000000 179.000000 0.747316 0.576224 0.330885
4.92000008 -11.30000019 0.47000000 23 246 121 0.000000 0.000000 0.000000 0.000000 -60.708740 0.000000 179.000000 0.860155 0.459453 -0.221441
4.78000021 -11.14999962 0.37000000 23 246 121 0.000000 0.000000 0.000000 0.000000 -60.708740 0.000000 179.000000 -0.089407 0.968367 0.232962
4.63999987 -11.34000015 0.31999999 23 246 121 0.000000 0.000000 0.000000 0.000000 -60.708740 0.000000 179.000000 0.981019 0.001147 -0.193909
4.88000011 -11.19999981 0.25999999 23 246 121 0.000000 0.000000 0.000000 0.000000 -60.708740 0.000000 179.000000 0.874107 0.474596 0.103419
4.90000010 -11.18999958 0.31000000 23 246 121 0.000000 0.000000 0.000000 0.000000 -60.708740 0.000000 179.000000 0.552997 0.808930 -0.199566
4.92999983 -11.26000023 0.31000000 23 246 121 0.000000 0.000000 0.000000 0.000000 -60.708740 0.000000 179.000000 0.887134 0.408879 -0.214034
4.88000011 -11.25000000 0.18000001 23 246 121 0.000000 0.000000 0.000000 0.000000 -60.708740 0.000000 179.000000 0.730127 0.670157 -0.133432
4.80999994 -11.17000008 0.18000001 23 246 121 0.000000 0.000000 0.000000 0.000000 -60.708740 0.000000 179.000000 0.320679 0.946947 0.021379
4.84999990 -11.26000023 0.31000000 23 246 121 0.000000 0.000000 0.000000 0.000000 -60.708740 0.000000 179.000000 0.599292 0.800434 -0.012399
4.82999992 -11.27000046 0.27000001 23 246 121 0.000000 0.000000 0.000000 0.000000 -60.708740 0.000000 179.000000 0.734952 0.637794 0.230358
4.86999989 -11.23999977 0.18000001 23 246 121 0.000000 0.000000 0.000000 0.000000 -60.708740 0.000000 179.000000 0.878495 0.458658 -0.133715
4.90000010 -11.27000046 0.00000000 23 246 121 0.000000 0.000000 0.000000 0.000000 -60.708740 0.000000 179.000000 0.979098 -0.193893 0.061419
4.88000011 -11.22999954 0.03000000 23 246 121 0.000000 0.000000 0.000000 0.000000 -60.708740 0.000000 179.000000 0.995752 0.058186 0.071360
4.80000019 -11.18999958 0.08000000 23 246 121 0.000000 0.000000 0.000000 0.000000 -60.708740 0.000000 179.000000 0.418310 0.900001 -0.122535
4.80000019 -11.18999958 0.07000000 23 246 121 0.000000 0.000000 0.000000 0.000000 -60.708740 0.000000 179.000000 0.227785 0.973694 -0.005901
4.82000017 -11.17000008 0.05000000 23 246 121 0.000000 0.000000 0.000000 0.000000 -60.708740 0.000000 179.000000 0.710460 0.686223 0.156029
4.84000015 -11.35000038 0.16000000 23 246 121 0.000000 0.000000 0.000000 0.000000 -60.708740 0.000000 179.000000 0.873818 -0.427166 0.232319
4.80000019 -11.38000011 0.16000000 23 246 121 0.000000 0.000000 0.000000 0.000000 -60.708740 0.000000 179.000000 0.846815 -0.506907 -0.161087
4.92999983 -11.31999969 0.11000000 23 246 121 0.000000 0.000000 0.000000 0.000000 -60.708740 0.000000 179.000000 0.969836 0.163138 -0.181122
4.86999989 -11.28999996 0.14000000 23 246 121 0.000000 0.000000 0.000000 0.000000 -60.708740 0.000000 179.000000 0.911673 0.327156 -0.248638
4.86000013 -11.35000038 0.14000000 23 246 121 0.000000 0.000000 0.000000 0.000000 -60.708740 0.000000 179.000000 0.782100 -0.511187 -0.356380
4.86999989 -11.31000042 0.00000000 23 246 121 0.000000 0.000000 0.000000 0.000000 -60.708740 0.000000 179.000000 0.849890 -0.520717 -0.080874
4.78999996 -11.34000015 0.06000000 23 246 121 0.000000 0.000000 0.000000 0.000000 -60.708740 0.000000 179.000000 0.827090 -0.559377 0.054951
4.73000002 -11.19999981 0.20000000 23 246 121 0.000000 0.000000 0.000000 0.000000 -60.708740 0.000000 179.000000 -0.121213 0.975949 -0.181194
4.71000004 -11.27999973 0.25000000 23 246 121 0.000000 0.000000 0.000000 0.000000 -60.708740 0.000000 179.000000 0.757448 -0.502238 -0.417169
4.71999979 -11.25000000 0.23000000 23 246 121 0.000000 0.000000 0.000000 0.000000 -60.708740 0.000000 179.000000 -0.268225 0.850656 0.452150
4.65999985 -11.26000023 0.23999999 23 246 121 0.000000 0.000000 0.000000 0.000000 -60.708740 0.000000 179.000000 -0.544375 0.685075 0.484075
4.69999981 -11.25000000 0.23000000 23 246 121 0.000000 0.000000 0.000000 0.000000 -60.708740 0.000000 179.000000 -0.236009 0.942656 0.236009
4.63999987 -11.26000023 0.18000001 23 246 121 0.000000 0.000000 0.000000 0.000000 -60.708740 0.000000 179.000000 0.858872 -0.474835 -0.192018
4.69000006 -11.26000023 0.23000000 23 246 121 0.000000 0.000000 0.000000 0.000000 -60.708740 0.000000 179.000000 -0.493399 0.847326 0.196460
4.73000002 -11.18999958 0.08000000 23 246 121 0.000000 0.000000 0.000000 0.000000 -60.708740 0.000000 179.000000 -0.279285 0.847114 0.452103
4.73000002 -11.18000031 0.00000000 23 246 121 0.000000 0.000000 0.000000 0.000000 -60.708740 0.000000 179.000000 -0.269363 0.955254 0.122199
4.73000002 -11.18999958 -0.02000000 23 246 121 0.000000 0.000000 0.000000 0.000000 -60.708740 0.000000 179.000000 -0.355196 0.760671 0.543337
4.69999981 -11.22000027 0.06000000 23 246 121 0.000000 0.000000 0.000000 0.000000 -60.708740 0.000000 179.000000 -0.521646 0.781667 0.341879
4.65999985 -11.25000000 0.05000000 23 246 121 0.000000 0.000000 0.000000 0.000000 -60.708740 0.000000 179.000000 0.654660 -0.726190 -0.209926
4.67000008 -11.25000000 0.06000000 23 246 121 0.000000 0.000000 0.000000 0.000000 -60.708740 0.000000 179.000000 0.798431 -0.595563 -0.088393
4.67000008 -11.25000000 0.03000000 23 246 121 0.000000 0.000000 0.000000 0.000000 -60.708740 0.000000 179.000000 0.755307 -0.645928 -0.110857
4.76000023 -11.42000008 0.15000001 23 246 121 0.000000 0.000000 0.000000 0.000000 -60.708740 0.000000 179.000000 -0.210980 0.914246 0.345892
4.67999983 -11.44999981 0.18000001 23 246 121 0.000000 0.000000 0.000000 0.000000 -60.708740 0.000000 179.000000 0.664414 0.686937 0.294401
4.76999998 -11.32999992 0.03000000 23 246 121 0.000000 0.000000 0.000000 0.000000 -60.708740 0.000000 179.000000 -0.098935 0.962363 0.253118
4.75000000 -11.35999966 0.06000000 23 246 121 0.000000 0.000000 0.000000 0.000000 -60.708740 0.000000 179.000000 -0.261370 0.941763 0.211585
4.61999989 -11.28999996 0.11000000 23 246 121 0.000000 0.000000 0.000000 0.000000 -60.708740 0.000000 179.000000 0.982556 -0.130277 0.132712
4.69000006 -11.35000038 0.00000000 23 246 121 0.000000 0.000000 0.000000 0.000000 -60.708740 0.000000 179.000000 0.514815 0.704746 0.488158
4.65999985 -11.31000042 -0.02000000 23 246 121 0.000000 0.000000 0.000000 0.000000 -60.708740 0.000000 179.000000 0.883088 0.290351 -0.368580
4.65000010 -11.40999985 0.12000000 23 246 121 0.000000 0.000000 0.000000 0.000000 -60.708740 0.000000 179.000000 0.863826 0.471043 0.178672
4.94000006 -11.48999977 0.63999999 23 246 121 0.000000 0.000000 0.000000 0.000000 -60.708740 0.000000 179.000000 0.962964 -0.161149 -0.216176
4.61999989 -11.47000027 0.13000000 23 246 121 0.000000 0.000000 0.000000 0.000000 -60.708740 0.000000 179.000000 0.839513 0.525978 0.136256
4.57000017 -11.43000031 0.34999999 23 246 121 0.000000 0.000000 0.000000 0.000000 -60.708740 0.000000 179.000000 0.791542 0.492908 0.361252
4.55999994 -11.31000042 0.23999999 23 246 121 0.000000 0.000000 0.000000 0.000000 -60.708740 0.000000 179.000000 0.859704 -0.450321 -0.241081
4.53999996 -11.32999992 0.17000000 23 246 121 0.000000 0.000000 0.000000 0.000000 -60.708740 0.000000 179.000000 0.937968 0.120114 -0.325252
4.61000013 -11.43999958 0.15000001 23 246 121 0.000000 0.000000 0.000000 0.000000 -60.708740 0.000000 179.000000 0.816429 0.434474 0.380364
4.51000023 -11.38000011 0.16000000 23 246 121 0.000000 0.000000 0.000000 0.000000 -60.708740 0.000000 179.000000 0.859473 0.427438 0.280363
4.59999990 -11.31000042 0.07000000 23 246 121 0.000000 0.000000 0.000000 0.000000 -60.708740 0.000000 179.000000 0.934651 -0.333318 -0.123804
4.57999992 -11.31000042 0.13000000 23 246 121 0.000000 0.000000 0.000000 0.000000 -60.708740 0.000000 179.000000 0.976914 0.184487 0.107721
4.59999990 -11.38000011 0.07000000 23 246 121 0.000000 0.000000 0.000000 0.000000 -60.708740 0.000000 179.000000 0.936995 0.349324 0.003783
4.44000006 -11.39999962 0.25999999 23 246 121 0.000000 0.000000 0.000000 0.000000 -60.708740 0.000000 179.000000 0.915012 0.250074 0.316568
4.38000011 -11.40999985 0.23000000 23 246 121 0.000000 0.000000 0.000000 0.000000 -60.708740 0.000000 179.000000 0.892150 0.213117 -0.398308
4.38000011 -11.40999985 0.23000000 23 246 121 0.000000 0.000000 0.000000 0.000000 -60.708740 0.000000 179.000000 0.892150 0.213117 -0.398308
4.48999977 -11.56000042 0.33000001 23 246 121 0.000000 0.000000 0.000000 0.000000 -60.708740 0.000000 179.000000 0.764113 0.638944 -0.088783
4.51000023 -11.55000019 0.33000001 23 246 121 0.000000 0.000000 0.000000 0.000000 -60.708740 0.000000 179.000000 0.654939 0.744452 -0.129794
4.44999981 -11.52999973 0.37000000 23 246 121 0.000000 0.000000 0.000000 0.000000 -60.708740 0.000000 179.000000 0.820301 0.571891 0.006824
4.57999992 -11.48999977 0.17000000 23 246 121 0.000000 0.000000 0.000000 0.000000 -60.708740 0.000000 179.000000 0.769795 0.516978 0.374364
4.53999996 -11.56000042 0.30000001 23 246 121 0.000000 0.000000 0.000000 0.000000 -60.708740 0.000000 179.000000 0.409529 0.911102 0.046689
