//X Y Z R G B PointSourceId ScanDirectionFlag NumberOfReturns ReturnNumber GpsTime Intensity Classification Nx Ny Nz
-17.87999916 -8.06999969 0.00000000 62 55 197 97.000000 1.000000 4.000000 1.000000 -60.708740 114.000000 180.000000 0.780323 -0.562779 0.272719
-17.93000031 -8.03999996 0.06000000 62 55 197 97.000000 1.000000 4.000000 1.000000 -60.708740 114.000000 180.000000 0.949866 -0.240524 0.199757
-17.97999954 -7.92999983 0.07000000 62 55 197 97.000000 1.000000 4.000000 1.000000 -60.708740 114.000000 180.000000 -0.031556 0.950458 0.309246
-18.03000069 -7.92999983 0.01000000 62 55 197 97.000000 1.000000 4.000000 1.000000 -60.708740 114.000000 180.000000 -0.371921 0.925104 -0.076533
-17.95999908 -8.09000015 0.13000000 62 55 197 97.000000 1.000000 4.000000 1.000000 -60.708740 114.000000 180.000000 0.511041 -0.688649 0.514392
-18.12000084 -7.90999985 0.12000000 62 55 197 97.000000 1.000000 4.000000 1.000000 -60.708740 114.000000 180.000000 -0.541947 0.835202 0.093439
-18.05999947 -7.90000010 0.05000000 62 55 197 97.000000 1.000000 4.000000 1.000000 -60.708740 114.000000 180.000000 -0.369050 0.902932 -0.220263
-18.07999992 -7.92000008 0.06000000 62 55 197 97.000000 1.000000 4.000000 1.000000 -60.708740 114.000000 180.000000 0.625631 -0.504214 0.595277
-18.06999969 -7.90000010 0.06000000 62 55 197 97.000000 1.000000 4.000000 1.000000 -60.708740 114.000000 180.000000 -0.227189 0.968409 -0.102806
-18.05999947 -7.90999985 0.05000000 62 55 197 97.000000 1.000000 4.000000 1.000000 -60.708740 114.000000 180.000000 -0.480445 0.738003 -0.473841
-18.05999947 -7.96000004 0.30000001 62 55 197 97.000000 1.000000 4.000000 1.000000 -60.708740 114.000000 180.000000 0.025447 0.890628 0.454020
-18.07999992 -7.94000006 0.28000000 62 55 197 97.000000 1.000000 4.000000 1.000000 -60.708740 114.000000 180.000000 -0.222238 0.919064 0.325472
-18.05999947 -7.96000004 0.31000000 62 55 197 97.000000 1.000000 4.000000 1.000000 -60.708740 114.000000 180.000000 -0.083985 0.979824 -0.181359
-18.05999947 -7.96000004 0.28000000 62 55 197 97.000000 1.000000 4.000000 1.000000 -60.708740 114.000000 180.000000 0.115489 0.977307 -0.177579
-18.06999969 -7.96000004 0.28999999 62 55 197 97.000000 1.000000 4.000000 1.000000 -60.708740 114.000000 180.000000 0.372528 0.913613 0.162892
-18.07999992 -7.96000004 0.28000000 62 55 197 97.000000 1.000000 4.000000 1.000000 -60.708740 114.000000 180.000000 -0.170900 0.984711 0.033715
-18.07999992 -7.94000006 0.28000000 62 55 197 97.000000 1.000000 4.000000 1.000000 -60.708740 114.000000 180.000000 -0.222238 0.919064 0.325472
-18.07999992 -7.94999981 0.30000001 62 55 197 97.000000 1.000000 4.000000 1.000000 -60.708740 114.000000 180.000000 -0.043050 0.998543 0.032550
-18.04999924 -7.96000004 0.27000001 62 55 197 97.000000 1.000000 4.000000 1.000000 -60.708740 114.000000 180.000000 -0.063634 0.980921 0.183698
-18.07999992 -7.96999979 0.31000000 62 55 197 97.000000 1.000000 4.000000 1.000000 -60.708740 114.000000 180.000000 0.159458 0.952728 -0.258617
-18.06999969 -7.96999979 0.30000001 62 55 197 97.000000 1.000000 4.000000 1.000000 -60.708740 114.000000 180.000000 0.100150 0.881599 0.461252
-18.11000061 -7.94999981 0.28999999 62 55 197 97.000000 1.000000 4.000000 1.000000 -60.708740 114.000000 180.000000 -0.133268 0.987125 0.088452
-18.10000038 -7.94999981 0.30000001 62 55 197 97.000000 1.000000 4.000000 1.000000 -60.708740 114.000000 180.000000 0.173255 0.979323 -0.104445
-18.10000038 -7.94999981 0.28000000 62 55 197 97.000000 1.000000 4.000000 1.000000 -60.708740 114.000000 180.000000 -0.172722 0.984858 -0.014870
-18.09000015 -7.94999981 0.27000001 62 55 197 97.000000 1.000000 4.000000 1.000000 -60.708740 114.000000 180.000000 -0.085267 0.992505 -0.087541
-18.09000015 -7.94999981 0.25999999 62 55 197 97.000000 1.000000 4.000000 1.000000 -60.708740 114.000000 180.000000 -0.289705 0.954096 0.075967
-18.09000015 -7.94999981 0.25999999 62 55 197 97.000000 1.000000 4.000000 1.000000 -60.708740 114.000000 180.000000 -0.289705 0.954096 0.075967
-18.10000038 -7.94999981 0.27000001 62 55 197 97.000000 1.000000 4.000000 1.000000 -60.708740 114.000000 180.000000 -0.360674 0.932691 0.001266
-18.09000015 -7.94999981 0.27000001 62 55 197 97.000000 1.000000 4.000000 1.000000 -60.708740 114.000000 180.000000 -0.085267 0.992505 -0.087541
-18.10000038 -7.96000004 0.25000000 62 55 197 97.000000 1.000000 4.000000 1.000000 -60.708740 114.000000 180.000000 -0.153581 0.987309 -0.040416
-18.11000061 -7.96000004 0.27000001 62 55 197 97.000000 1.000000 4.000000 1.000000 -60.708740 114.000000 180.000000 -0.357909 0.924482 0.131279
-18.10000038 -7.94999981 0.27000001 62 55 197 97.000000 1.000000 4.000000 1.000000 -60.708740 114.000000 180.000000 -0.360674 0.932691 0.001266
-18.10000038 -7.96000004 0.25999999 62 55 197 97.000000 1.000000 4.000000 1.000000 -60.708740 114.000000 180.000000 -0.487900 0.872874 -0.006684
-18.12000084 -7.96999979 0.31000000 62 55 197 97.000000 1.000000 4.000000 1.000000 -60.708740 114.000000 180.000000 -0.629485 0.773532 0.073464
-18.09000015 -7.96999979 0.23999999 62 55 197 97.000000 1.000000 4.000000 1.000000 -60.708740 114.000000 180.000000 -0.694314 0.694314 -0.189358
-18.05999947 -7.94000006 0.20999999 62 55 197 97.000000 1.000000 4.000000 1.000000 -60.708740 114.000000 180.000000 -0.018124 0.996802 0.077825
-18.06999969 -7.94000006 0.23000000 62 55 197 97.000000 1.000000 4.000000 1.000000 -60.708740 114.000000 180.000000 -0.330726 0.927987 0.171643
-18.05999947 -7.94000006 0.22000000 62 55 197 97.000000 1.000000 4.000000 1.000000 -60.708740 114.000000 180.000000 -0.010097 0.988412 -0.151459
-18.05999947 -7.92999983 0.17000000 62 55 197 97.000000 1.000000 4.000000 1.000000 -60.708740 114.000000 180.000000 -0.394536 0.880581 0.262524
-18.05999947 -7.92999983 0.17000000 62 55 197 97.000000 1.000000 4.000000 1.000000 -60.708740 114.000000 180.000000 -0.394536 0.880581 0.262524
-18.05999947 -7.94000006 0.18000001 62 55 197 97.000000 1.000000 4.000000 1.000000 -60.708740 114.000000 180.000000 -0.233247 0.942648 0.238767
-18.06999969 -7.94000006 0.18000001 62 55 197 97.000000 1.000000 4.000000 1.000000 -60.708740 114.000000 180.000000 -0.305829 0.946613 0.101943
-18.04999924 -7.94000006 0.16000000 62 55 197 97.000000 1.000000 4.000000 1.000000 -60.708740 114.000000 180.000000 -0.392492 0.914902 0.094362
-18.05999947 -7.94000006 0.16000000 62 55 197 97.000000 1.000000 4.000000 1.000000 -60.708740 114.000000 180.000000 -0.394799 0.909021 -0.133473
-18.05999947 -7.94000006 0.18000001 62 55 197 97.000000 1.000000 4.000000 1.000000 -60.708740 114.000000 180.000000 -0.233247 0.942648 0.238767
-18.07999992 -7.96999979 0.22000000 62 55 197 97.000000 1.000000 4.000000 1.000000 -60.708740 114.000000 180.000000 -0.483786 0.875103 -0.012061
-18.09000015 -7.94999981 0.19000000 62 55 197 97.000000 1.000000 4.000000 1.000000 -60.708740 114.000000 180.000000 -0.349783 0.898810 -0.264182
-18.12000084 -7.96999979 0.15000001 62 55 197 97.000000 1.000000 4.000000 1.000000 -60.708740 114.000000 180.000000 0.615639 -0.605519 0.504318
-18.12000084 -7.96999979 0.15000001 62 55 197 97.000000 1.000000 4.000000 1.000000 -60.708740 114.000000 180.000000 0.615639 -0.605519 0.504318
-18.13999939 -7.96000004 0.27000001 62 55 197 97.000000 1.000000 4.000000 1.000000 -60.708740 114.000000 180.000000 -0.438839 0.754409 -0.488147
-18.12999916 -7.94000006 0.25000000 62 55 197 97.000000 1.000000 4.000000 1.000000 -60.708740 114.000000 180.000000 -0.269837 0.878855 -0.393450
-18.12999916 -7.96000004 0.25999999 62 55 197 97.000000 1.000000 4.000000 1.000000 -60.708740 114.000000 180.000000 -0.435358 0.899021 -0.047175
-18.15999985 -7.98000002 0.28999999 62 55 197 97.000000 1.000000 4.000000 1.000000 -60.708740 114.000000 180.000000 0.764835 -0.440558 0.470038
-18.14999962 -7.98999977 0.31000000 62 55 197 97.000000 1.000000 4.000000 1.000000 -60.708740 114.000000 180.000000 -0.674606 0.730700 -0.104807
-18.15999985 -7.98000002 0.28999999 62 55 197 97.000000 1.000000 4.000000 1.000000 -60.708740 114.000000 180.000000 0.764835 -0.440558 0.470038
-18.12999916 -7.96999979 0.25000000 62 55 197 97.000000 1.000000 4.000000 1.000000 -60.708740 114.000000 180.000000 -0.482739 0.600480 -0.637485
-18.13999939 -7.96999979 0.25999999 62 55 197 97.000000 1.000000 4.000000 1.000000 -60.708740 114.000000 180.000000 -0.464493 0.858334 -0.217966
-18.15999985 -8.01000023 0.23999999 62 55 197 97.000000 1.000000 4.000000 1.000000 -60.708740 114.000000 180.000000 0.837822 -0.518225 0.171746
-18.19000053 -8.00000000 0.30000001 62 55 197 97.000000 1.000000 4.000000 1.000000 -60.708740 114.000000 180.000000 0.775651 -0.126062 0.618445
-18.17000008 -7.98000002 0.31000000 62 55 197 97.000000 1.000000 4.000000 1.000000 -60.708740 114.000000 180.000000 0.633461 -0.351923 0.689114
-18.17000008 -7.98000002 0.27000001 62 55 197 97.000000 1.000000 4.000000 1.000000 -60.708740 114.000000 180.000000 0.864237 -0.501505 -0.039846
-18.18000031 -8.01000023 0.27000001 62 55 197 97.000000 1.000000 4.000000 1.000000 -60.708740 114.000000 180.000000 0.869041 -0.226641 0.439774
-18.19000053 -8.00000000 0.27000001 62 55 197 97.000000 1.000000 4.000000 1.000000 -60.708740 114.000000 180.000000 -0.668389 0.618633 -0.412975
-18.13999939 -7.96000004 0.23000000 62 55 197 97.000000 1.000000 4.000000 1.000000 -60.708740 114.000000 180.000000 -0.595204 0.764813 -0.246562
-18.14999962 -7.96999979 0.23000000 62 55 197 97.000000 1.000000 4.000000 1.000000 -60.708740 114.000000 180.000000 0.701570 -0.478268 0.528261
-18.13999939 -7.96999979 0.22000000 62 55 197 97.000000 1.000000 4.000000 1.000000 -60.708740 114.000000 180.000000 -0.765106 0.567041 -0.305084
-18.14999962 -7.96999979 0.23000000 62 55 197 97.000000 1.000000 4.000000 1.000000 -60.708740 114.000000 180.000000 0.701570 -0.478268 0.528261
-18.12999916 -7.96999979 0.18000001 62 55 197 97.000000 1.000000 4.000000 1.000000 -60.708740 114.000000 180.000000 -0.557943 0.799048 -0.224104
-18.15999985 -8.01000023 0.15000001 62 55 197 97.000000 1.000000 4.000000 1.000000 -60.708740 114.000000 180.000000 0.891817 -0.407229 0.197046
-18.20000076 -8.00000000 0.23000000 62 55 197 97.000000 1.000000 4.000000 1.000000 -60.708740 114.000000 180.000000 0.837733 -0.514029 0.184331
-18.19000053 -8.02000046 0.28000000 62 55 197 97.000000 1.000000 4.000000 1.000000 -60.708740 114.000000 180.000000 0.904662 -0.250725 0.344563
-18.19000053 -8.02999973 0.28000000 62 55 197 97.000000 1.000000 4.000000 1.000000 -60.708740 114.000000 180.000000 0.678724 -0.166249 0.715329
-18.19000053 -8.03999996 0.28000000 62 55 197 97.000000 1.000000 4.000000 1.000000 -60.708740 114.000000 180.000000 0.749604 -0.113845 0.652022
-18.19000053 -8.03999996 0.28000000 62 55 197 97.000000 1.000000 4.000000 1.000000 -60.708740 114.000000 180.000000 0.749604 -0.113845 0.652022
-18.18000031 -8.03999996 0.25000000 62 55 197 97.000000 1.000000 4.000000 1.000000 -60.708740 114.000000 180.000000 0.908666 -0.160687 0.385365
-18.18000031 -8.02999973 0.25000000 62 55 197 97.000000 1.000000 4.000000 1.000000 -60.708740 114.000000 180.000000 0.964982 -0.133056 0.226067
-18.15999985 -8.02000046 0.23000000 62 55 197 97.000000 1.000000 4.000000 1.000000 -60.708740 114.000000 180.000000 0.667564 -0.329721 0.667564
-18.14999962 -8.05000019 0.15000001 62 55 197 97.000000 1.000000 4.000000 1.000000 -60.708740 114.000000 180.000000 0.995250 -0.022842 0.094630
-18.14999962 -8.02000046 0.16000000 62 55 197 97.000000 1.000000 4.000000 1.000000 -60.708740 114.000000 180.000000 0.812992 -0.442434 0.378545
-18.15999985 -8.06000042 0.16000000 62 55 197 97.000000 1.000000 4.000000 1.000000 -60.708740 114.000000 180.000000 0.739460 0.098497 0.665955
-18.18000031 -8.02999973 0.22000000 62 55 197 97.000000 1.000000 4.000000 1.000000 -60.708740 114.000000 180.000000 0.844301 -0.171243 0.507772
-18.18000031 -8.02999973 0.22000000 62 55 197 97.000000 1.000000 4.000000 1.000000 -60.708740 114.000000 180.000000 0.844301 -0.171243 0.507772
-18.17000008 -8.03999996 0.18000001 62 55 197 97.000000 1.000000 4.000000 1.000000 -60.708740 114.000000 180.000000 0.750410 -0.123335 0.649364
-18.05999947 -7.92999983 0.14000000 62 55 197 97.000000 1.000000 4.000000 1.000000 -60.708740 114.000000 180.000000 -0.512508 0.849341 0.126312
-18.05999947 -7.92999983 0.14000000 62 55 197 97.000000 1.000000 4.000000 1.000000 -60.708740 114.000000 180.000000 -0.512508 0.849341 0.126312
-18.06999969 -7.96000004 0.10000000 62 55 197 97.000000 1.000000 4.000000 1.000000 -60.708740 114.000000 180.000000 -0.706293 0.453689 -0.543430
-18.12000084 -7.96000004 0.12000000 62 55 197 97.000000 1.000000 4.000000 1.000000 -60.708740 114.000000 180.000000 0.713412 -0.649856 0.262167
-18.11000061 -7.96000004 0.10000000 62 55 197 97.000000 1.000000 4.000000 1.000000 -60.708740 114.000000 180.000000 -0.681385 0.703115 -0.203329
-18.12000084 -7.96999979 0.07000000 62 55 197 97.000000 1.000000 4.000000 1.000000 -60.708740 114.000000 180.000000 0.786874 -0.473417 0.395861
-18.11000061 -7.96000004 0.04000000 62 55 197 97.000000 1.000000 4.000000 1.000000 -60.708740 114.000000 180.000000 0.830209 -0.556696 0.029009
-18.10000038 -7.96000004 0.06000000 62 55 197 97.000000 1.000000 4.000000 1.000000 -60.708740 114.000000 180.000000 0.797800 -0.470333 0.377229
-18.10000038 -7.96000004 0.03000000 62 55 197 97.000000 1.000000 4.000000 1.000000 -60.708740 114.000000 180.000000 0.747095 -0.470026 0.470026
-18.12000084 -7.98000002 0.03000000 62 55 197 97.000000 1.000000 4.000000 1.000000 -60.708740 114.000000 180.000000 0.632866 -0.322098 0.704084
-18.11000061 -7.98000002 0.04000000 62 55 197 97.000000 1.000000 4.000000 1.000000 -60.708740 114.000000 180.000000 0.870994 -0.453982 0.187803
-18.12000084 -8.01000023 0.01000000 62 55 197 97.000000 1.000000 4.000000 1.000000 -60.708740 114.000000 180.000000 0.836293 -0.373261 0.401610
-18.12000084 -8.00000000 0.02000000 62 55 197 97.000000 1.000000 4.000000 1.000000 -60.708740 114.000000 180.000000 0.796062 -0.434362 0.421444
-18.11000061 -7.98000002 0.01000000 62 55 197 97.000000 1.000000 4.000000 1.000000 -60.708740 114.000000 180.000000 0.886617 -0.411591 0.210959
-18.12000084 -8.02999973 0.06000000 62 55 197 97.000000 1.000000 4.000000 1.000000 -60.708740 114.000000 180.000000 0.972717 -0.166570 0.161484
-18.10000038 -8.09000015 -0.01000000 62 55 197 97.000000 1.000000 4.000000 1.000000 -60.708740 114.000000 180.000000 0.750940 0.195830 0.630666
-18.09000015 -8.07999992 -0.02000000 62 55 197 97.000000 1.000000 4.000000 1.000000 -60.708740 114.000000 180.000000 0.826809 0.127766 0.547779
-18.10000038 -8.09000015 -0.01000000 62 55 197 97.000000 1.000000 4.000000 1.000000 -60.708740 114.000000 180.000000 0.750940 0.195830 0.630666
-18.13999939 -7.98000002 0.13000000 62 55 197 97.000000 1.000000 4.000000 1.000000 -60.708740 114.000000 180.000000 0.862764 -0.505198 0.020316
-18.14999962 -7.98999977 0.14000000 62 55 197 97.000000 1.000000 4.000000 1.000000 -60.708740 114.000000 180.000000 0.764521 -0.295274 0.572992
-18.13999939 -7.98999977 0.13000000 62 55 197 97.000000 1.000000 4.000000 1.000000 -60.708740 114.000000 180.000000 0.869999 -0.353198 0.344024
-18.14999962 -8.01000023 0.13000000 62 55 197 97.000000 1.000000 4.000000 1.000000 -60.708740 114.000000 180.000000 0.923181 -0.356778 0.142989
-18.13999939 -7.98999977 0.14000000 62 55 197 97.000000 1.000000 4.000000 1.000000 -60.708740 114.000000 180.000000 0.793821 -0.498744 0.347998
-18.13999939 -8.01000023 0.08000000 62 55 197 97.000000 1.000000 4.000000 1.000000 -60.708740 114.000000 180.000000 0.696378 0.044147 0.716316
-18.13999939 -8.01000023 0.08000000 62 55 197 97.000000 1.000000 4.000000 1.000000 -60.708740 114.000000 180.000000 0.696378 0.044147 0.716316
-18.15999985 -8.03999996 0.10000000 62 55 197 97.000000 1.000000 4.000000 1.000000 -60.708740 114.000000 180.000000 0.748879 0.058708 0.660102
-18.13999939 -8.05000019 0.08000000 62 55 197 97.000000 1.000000 4.000000 1.000000 -60.708740 114.000000 180.000000 0.954099 -0.189210 0.232151
-18.15999985 -8.06000042 0.11000000 62 55 197 97.000000 1.000000 4.000000 1.000000 -60.708740 114.000000 180.000000 0.944451 -0.173081 0.279383
-18.17000008 -8.02000046 0.10000000 62 55 197 97.000000 1.000000 4.000000 1.000000 -60.708740 114.000000 180.000000 0.807825 -0.157369 0.568026
-18.13999939 -8.02000046 0.06000000 62 55 197 97.000000 1.000000 4.000000 1.000000 -60.708740 114.000000 180.000000 0.839905 -0.433247 0.326890
-18.12999916 -8.06999969 0.05000000 62 55 197 97.000000 1.000000 4.000000 1.000000 -60.708740 114.000000 180.000000 0.877635 0.003983 0.479313
-17.98999977 -8.11999989 0.40000001 62 55 197 97.000000 1.000000 4.000000 1.000000 -60.708740 114.000000 180.000000 0.935602 -0.310946 0.167220
-18.02000046 -8.13000011 0.47000000 62 55 197 97.000000 1.000000 4.000000 1.000000 -60.708740 114.000000 180.000000 -0.712528 0.701329 0.020998
-18.00000000 -8.10999966 0.44999999 62 55 197 97.000000 1.000000 4.000000 1.000000 -60.708740 114.000000 180.000000 0.925947 -0.278212 0.255384
-18.02000046 -8.13000011 0.47000000 62 55 197 97.000000 1.000000 4.000000 1.000000 -60.708740 114.000000 180.000000 -0.712528 0.701329 0.020998
-18.01000023 -8.13000011 0.47000000 62 55 197 97.000000 1.000000 4.000000 1.000000 -60.708740 114.000000 180.000000 -0.511309 0.622683 -0.592308
-18.00000000 -8.13000011 0.41999999 62 55 197 97.000000 1.000000 4.000000 1.000000 -60.708740 114.000000 180.000000 0.876119 -0.460432 0.142893
-18.00000000 -8.10000038 0.41000000 62 55 197 97.000000 1.000000 4.000000 1.000000 -60.708740 114.000000 180.000000 0.851609 -0.441974 0.281816
-18.03000069 -8.10999966 0.43000001 62 55 197 97.000000 1.000000 4.000000 1.000000 -60.708740 114.000000 180.000000 0.704203 -0.701238 0.111190
-18.01000023 -8.10999966 0.41999999 62 55 197 97.000000 1.000000 4.000000 1.000000 -60.708740 114.000000 180.000000 -0.580888 0.644870 -0.496701
-18.03000069 -8.14000034 0.44999999 62 55 197 97.000000 1.000000 4.000000 1.000000 -60.708740 114.000000 180.000000 0.844735 -0.516796 0.139081
-18.00000000 -8.14999962 0.46000001 62 55 197 97.000000 1.000000 4.000000 1.000000 -60.708740 114.000000 180.000000 0.619365 -0.511355 0.595738
-18.01000023 -8.17000008 0.44999999 62 55 197 97.000000 1.000000 4.000000 1.000000 -60.708740 114.000000 180.000000 0.858056 -0.505158 0.092494
-18.02000046 -8.14999962 0.40000001 62 55 197 97.000000 1.000000 4.000000 1.000000 -60.708740 114.000000 180.000000 0.798281 -0.600477 0.046625
-17.98999977 -8.11999989 0.36000001 62 55 197 97.000000 1.000000 4.000000 1.000000 -60.708740 114.000000 180.000000 0.817441 -0.540394 0.199413
-17.98999977 -8.10999966 0.38999999 62 55 197 97.000000 1.000000 4.000000 1.000000 -60.708740 114.000000 180.000000 0.944457 -0.304102 0.124588
-17.98999977 -8.11999989 0.38000000 62 55 197 97.000000 1.000000 4.000000 1.000000 -60.708740 114.000000 180.000000 0.884513 -0.367921 0.286829
-17.97999954 -8.10999966 0.38000000 62 55 197 97.000000 1.000000 4.000000 1.000000 -60.708740 114.000000 180.000000 -0.739204 0.518595 -0.429693
-17.97999954 -8.10999966 0.33000001 62 55 197 97.000000 1.000000 4.000000 1.000000 -60.708740 114.000000 180.000000 0.927607 -0.352134 0.124686
-17.98999977 -8.10000038 0.34000000 62 55 197 97.000000 1.000000 4.000000 1.000000 -60.708740 114.000000 180.000000 0.876575 -0.444895 0.183537
-17.97999954 -8.10999966 0.34999999 62 55 197 97.000000 1.000000 4.000000 1.000000 -60.708740 114.000000 180.000000 -0.697943 0.688657 -0.196538
-17.96999931 -8.10000038 0.34999999 62 55 197 97.000000 1.000000 4.000000 1.000000 -60.708740 114.000000 180.000000 0.708740 -0.429892 0.559357
-17.98999977 -8.13000011 0.34999999 62 55 197 97.000000 1.000000 4.000000 1.000000 -60.708740 114.000000 180.000000 0.857181 -0.406196 0.316616
-17.98999977 -8.11999989 0.33000001 62 55 197 97.000000 1.000000 4.000000 1.000000 -60.708740 114.000000 180.000000 0.899304 -0.387906 0.201944
-17.98999977 -8.11999989 0.34000000 62 55 197 97.000000 1.000000 4.000000 1.000000 -60.708740 114.000000 180.000000 0.805621 -0.558909 0.196456
-17.96999931 -8.14999962 0.31999999 62 55 197 97.000000 1.000000 4.000000 1.000000 -60.708740 114.000000 180.000000 -0.634007 0.772387 0.038125
-18.00000000 -8.11999989 0.38999999 62 55 197 97.000000 1.000000 4.000000 1.000000 -60.708740 114.000000 180.000000 0.705352 -0.702419 -0.095318
-18.00000000 -8.10000038 0.36000001 62 55 197 97.000000 1.000000 4.000000 1.000000 -60.708740 114.000000 180.000000 0.625804 -0.442235 0.642493
-18.01000023 -8.10999966 0.37000000 62 55 197 97.000000 1.000000 4.000000 1.000000 -60.708740 114.000000 180.000000 0.828130 -0.468073 0.308396
-18.03000069 -8.13000011 0.34999999 62 55 197 97.000000 1.000000 4.000000 1.000000 -60.708740 114.000000 180.000000 -0.345286 0.885078 -0.312114
-18.00000000 -8.13000011 0.31999999 62 55 197 97.000000 1.000000 4.000000 1.000000 -60.708740 114.000000 180.000000 0.732984 -0.680131 -0.012518
-18.00000000 -8.11999989 0.34000000 62 55 197 97.000000 1.000000 4.000000 1.000000 -60.708740 114.000000 180.000000 0.767140 -0.595275 0.239048
-18.00000000 -8.14000034 0.36000001 62 55 197 97.000000 1.000000 4.000000 1.000000 -60.708740 114.000000 180.000000 -0.541437 0.646014 -0.538064
-18.02000046 -8.15999985 0.38999999 62 55 197 97.000000 1.000000 4.000000 1.000000 -60.708740 114.000000 180.000000 -0.489321 0.866595 -0.097864
-18.04000092 -8.14999962 0.34000000 62 55 197 97.000000 1.000000 4.000000 1.000000 -60.708740 114.000000 180.000000 -0.622520 0.697680 -0.354559
-18.04000092 -8.18999958 0.40000001 62 55 197 97.000000 1.000000 4.000000 1.000000 -60.708740 114.000000 180.000000 -0.475631 0.868857 -0.137340
-18.03000069 -8.18000031 0.44999999 62 55 197 97.000000 1.000000 4.000000 1.000000 -60.708740 114.000000 180.000000 0.443953 -0.795887 0.411666
-18.00000000 -8.18000031 0.38000000 62 55 197 97.000000 1.000000 4.000000 1.000000 -60.708740 114.000000 180.000000 0.766062 -0.641453 -0.041064
-18.05999947 -8.14999962 0.44999999 62 55 197 97.000000 1.000000 4.000000 1.000000 -60.708740 114.000000 180.000000 -0.700729 0.706605 -0.098425
-18.05999947 -8.17000008 0.41000000 62 55 197 97.000000 1.000000 4.000000 1.000000 -60.708740 114.000000 180.000000 -0.166987 0.852667 -0.495049
-18.04999924 -8.14000034 0.31999999 62 55 197 97.000000 1.000000 4.000000 1.000000 -60.708740 114.000000 180.000000 0.048478 0.931571 -0.360312
-18.04999924 -8.14999962 0.34000000 62 55 197 97.000000 1.000000 4.000000 1.000000 -60.708740 114.000000 180.000000 -0.360261 0.922212 0.140488
-18.11000061 -8.17000008 0.38999999 62 55 197 97.000000 1.000000 4.000000 1.000000 -60.708740 114.000000 180.000000 -0.324589 0.899660 -0.291982
-18.09000015 -8.14999962 0.36000001 62 55 197 97.000000 1.000000 4.000000 1.000000 -60.708740 114.000000 180.000000 -0.480707 0.876583 -0.022891
-18.09000015 -8.14999962 0.31999999 62 55 197 97.000000 1.000000 4.000000 1.000000 -60.708740 114.000000 180.000000 -0.021226 0.990897 -0.132939
-18.09000015 -8.14999962 0.33000001 62 55 197 97.000000 1.000000 4.000000 1.000000 -60.708740 114.000000 180.000000 -0.278630 0.958028 0.067431
-18.10000038 -8.15999985 0.33000001 62 55 197 97.000000 1.000000 4.000000 1.000000 -60.708740 114.000000 180.000000 -0.253399 0.949907 0.182935
-18.04999924 -8.18999958 0.46000001 62 55 197 97.000000 1.000000 4.000000 1.000000 -60.708740 114.000000 180.000000 -0.360739 0.800038 -0.479382
-18.06999969 -8.18999958 0.41000000 62 55 197 97.000000 1.000000 4.000000 1.000000 -60.708740 114.000000 180.000000 -0.355313 0.914682 0.192640
-18.07999992 -8.21000004 0.40000001 62 55 197 97.000000 1.000000 4.000000 1.000000 -60.708740 114.000000 180.000000 -0.548304 0.799933 -0.243863
-18.05999947 -8.21000004 0.40000001 62 55 197 97.000000 1.000000 4.000000 1.000000 -60.708740 114.000000 180.000000 -0.460182 0.886226 0.053255
-18.07999992 -8.18000031 0.41000000 62 55 197 97.000000 1.000000 4.000000 1.000000 -60.708740 114.000000 180.000000 -0.115418 0.910831 -0.396316
-18.06999969 -8.18000031 0.44000000 62 55 197 97.000000 1.000000 4.000000 1.000000 -60.708740 114.000000 180.000000 -0.542762 0.836224 -0.078351
-18.09000015 -8.18999958 0.41000000 62 55 197 97.000000 1.000000 4.000000 1.000000 -60.708740 114.000000 180.000000 -0.240355 0.925865 0.291555
-18.11000061 -8.19999981 0.41000000 62 55 197 97.000000 1.000000 4.000000 1.000000 -60.708740 114.000000 180.000000 -0.166642 0.967559 0.189895
-18.11000061 -8.19999981 0.41000000 62 55 197 97.000000 1.000000 4.000000 1.000000 -60.708740 114.000000 180.000000 -0.166642 0.967559 0.189895
-18.05999947 -8.18000031 0.37000000 62 55 197 97.000000 1.000000 4.000000 1.000000 -60.708740 114.000000 180.000000 -0.345617 0.901546 -0.260316
-18.04999924 -8.19999981 0.37000000 62 55 197 97.000000 1.000000 4.000000 1.000000 -60.708740 114.000000 180.000000 -0.124408 0.931007 -0.343146
-18.07999992 -8.18000031 0.37000000 62 55 197 97.000000 1.000000 4.000000 1.000000 -60.708740 114.000000 180.000000 -0.070669 0.970772 -0.229365
-18.05999947 -8.18000031 0.38000000 62 55 197 97.000000 1.000000 4.000000 1.000000 -60.708740 114.000000 180.000000 -0.402508 0.903153 0.149340
-18.06999969 -8.18000031 0.34999999 62 55 197 97.000000 1.000000 4.000000 1.000000 -60.708740 114.000000 180.000000 -0.145055 0.929733 -0.338461
-18.09000015 -8.18999958 0.38000000 62 55 197 97.000000 1.000000 4.000000 1.000000 -60.708740 114.000000 180.000000 -0.302851 0.902643 0.305805
-18.12000084 -8.18000031 0.38000000 62 55 197 97.000000 1.000000 4.000000 1.000000 -60.708740 114.000000 180.000000 -0.159473 0.915911 0.368340
-18.10000038 -8.18999958 0.36000001 62 55 197 97.000000 1.000000 4.000000 1.000000 -60.708740 114.000000 180.000000 -0.141181 0.980898 -0.133815
-18.09000015 -8.18999958 0.38000000 62 55 197 97.000000 1.000000 4.000000 1.000000 -60.708740 114.000000 180.000000 -0.302851 0.902643 0.305805
-18.12000084 -8.18000031 0.34000000 62 55 197 97.000000 1.000000 4.000000 1.000000 -60.708740 114.000000 180.000000 -0.027461 0.975452 0.218492
-18.15999985 -8.15999985 0.41999999 62 55 197 97.000000 1.000000 4.000000 1.000000 -60.708740 114.000000 180.000000 0.071254 0.920929 0.383160
-18.18000031 -8.15999985 0.41000000 62 55 197 97.000000 1.000000 4.000000 1.000000 -60.708740 114.000000 180.000000 0.234806 0.953983 -0.186503
-18.15999985 -8.17000008 0.38000000 62 55 197 97.000000 1.000000 4.000000 1.000000 -60.708740 114.000000 180.000000 0.013164 0.970549 0.240543
-18.13999939 -8.17000008 0.33000001 62 55 197 97.000000 1.000000 4.000000 1.000000 -60.708740 114.000000 180.000000 0.074596 0.977089 -0.199331
-18.18000031 -8.13000011 0.36000001 62 55 197 97.000000 1.000000 4.000000 1.000000 -60.708740 114.000000 180.000000 0.185318 0.830163 0.525820
-18.20000076 -8.14000034 0.36000001 62 55 197 97.000000 1.000000 4.000000 1.000000 -60.708740 114.000000 180.000000 0.298728 0.765192 0.570300
-18.15999985 -8.18000031 0.43000001 62 55 197 97.000000 1.000000 4.000000 1.000000 -60.708740 114.000000 180.000000 -0.200160 0.967223 -0.156254
-18.13999939 -8.18999958 0.43000001 62 55 197 97.000000 1.000000 4.000000 1.000000 -60.708740 114.000000 180.000000 -0.176775 0.984235 0.005702
-18.14999962 -8.18999958 0.43000001 62 55 197 97.000000 1.000000 4.000000 1.000000 -60.708740 114.000000 180.000000 -0.091700 0.957033 0.275099
-18.13999939 -8.18999958 0.43000001 62 55 197 97.000000 1.000000 4.000000 1.000000 -60.708740 114.000000 180.000000 -0.176775 0.984235 0.005702
-18.18000031 -8.21000004 0.41999999 62 55 197 97.000000 1.000000 4.000000 1.000000 -60.708740 114.000000 180.000000 0.258117 0.942749 -0.211187
-18.14999962 -8.18000031 0.36000001 62 55 197 97.000000 1.000000 4.000000 1.000000 -60.708740 114.000000 180.000000 -0.114740 0.993323 0.012020
-18.18000031 -8.18000031 0.38999999 62 55 197 97.000000 1.000000 4.000000 1.000000 -60.708740 114.000000 180.000000 0.142201 0.988470 -0.052025
-17.95000076 -8.13000011 0.27000001 62 55 197 97.000000 1.000000 4.000000 1.000000 -60.708740 114.000000 180.000000 0.882946 -0.461699 0.085086
-17.95000076 -8.10999966 0.22000000 62 55 197 97.000000 1.000000 4.000000 1.000000 -60.708740 114.000000 180.000000 -0.616769 0.746117 -0.250809
-17.95000076 -8.11999989 0.20999999 62 55 197 97.000000 1.000000 4.000000 1.000000 -60.708740 114.000000 180.000000 0.709915 -0.467180 0.527033
-17.95000076 -8.10999966 0.16000000 62 55 197 97.000000 1.000000 4.000000 1.000000 -60.708740 114.000000 180.000000 0.802721 -0.579329 0.141481
-17.93000031 -8.10999966 0.15000001 62 55 197 97.000000 1.000000 4.000000 1.000000 -60.708740 114.000000 180.000000 0.722208 -0.691356 -0.021035
-17.95000076 -8.10999966 0.18000001 62 55 197 97.000000 1.000000 4.000000 1.000000 -60.708740 114.000000 180.000000 0.780431 -0.610318 0.135792
-17.97999954 -8.10999966 0.30000001 62 55 197 97.000000 1.000000 4.000000 1.000000 -60.708740 114.000000 180.000000 -0.567309 0.721880 -0.396294
-17.97999954 -8.10000038 0.31000000 62 55 197 97.000000 1.000000 4.000000 1.000000 -60.708740 114.000000 180.000000 -0.637075 0.769858 -0.038140
-17.97999954 -8.10999966 0.30000001 62 55 197 97.000000 1.000000 4.000000 1.000000 -60.708740 114.000000 180.000000 -0.567309 0.721880 -0.396294
-17.97999954 -8.13000011 0.28999999 62 55 197 97.000000 1.000000 4.000000 1.000000 -60.708740 114.000000 180.000000 -0.729026 0.557877 -0.396603
-17.96999931 -8.10000038 0.30000001 62 55 197 97.000000 1.000000 4.000000 1.000000 -60.708740 114.000000 180.000000 0.886261 -0.378118 0.267522
-17.96999931 -8.10000038 0.31000000 62 55 197 97.000000 1.000000 4.000000 1.000000 -60.708740 114.000000 180.000000 0.756648 -0.649997 -0.070621
-17.98999977 -8.10000038 0.28000000 62 55 197 97.000000 1.000000 4.000000 1.000000 -60.708740 114.000000 180.000000 -0.496901 0.684284 -0.533708
-17.96999931 -8.13000011 0.25999999 62 55 197 97.000000 1.000000 4.000000 1.000000 -60.708740 114.000000 180.000000 -0.620586 0.768560 0.155524
-17.97999954 -8.10999966 0.23999999 62 55 197 97.000000 1.000000 4.000000 1.000000 -60.708740 114.000000 180.000000 0.602931 -0.643238 0.471932
-17.97999954 -8.10000038 0.25999999 62 55 197 97.000000 1.000000 4.000000 1.000000 -60.708740 114.000000 180.000000 0.596244 -0.663050 0.452611
-17.95999908 -8.10000038 0.25999999 62 55 197 97.000000 1.000000 4.000000 1.000000 -60.708740 114.000000 180.000000 -0.686955 0.657861 -0.308726
-17.95999908 -8.10999966 0.23999999 62 55 197 97.000000 1.000000 4.000000 1.000000 -60.708740 114.000000 180.000000 0.691327 -0.668975 0.273018
-17.97999954 -8.14000034 0.28999999 62 55 197 97.000000 1.000000 4.000000 1.000000 -60.708740 114.000000 180.000000 0.785332 -0.533643 0.313814
-17.98999977 -8.14000034 0.27000001 62 55 197 97.000000 1.000000 4.000000 1.000000 -60.708740 114.000000 180.000000 -0.437036 0.875554 -0.205925
-18.00000000 -8.13000011 0.28000000 62 55 197 97.000000 1.000000 4.000000 1.000000 -60.708740 114.000000 180.000000 0.696509 -0.716368 0.041138
-18.01000023 -8.14999962 0.28999999 62 55 197 97.000000 1.000000 4.000000 1.000000 -60.708740 114.000000 180.000000 -0.614207 0.723829 -0.314358
-18.01000023 -8.14000034 0.30000001 62 55 197 97.000000 1.000000 4.000000 1.000000 -60.708740 114.000000 180.000000 0.666898 -0.689288 0.283072
-18.04000092 -8.17000008 0.31000000 62 55 197 97.000000 1.000000 4.000000 1.000000 -60.708740 114.000000 180.000000 -0.461610 0.851617 0.248325
-18.02000046 -8.15999985 0.28000000 62 55 197 97.000000 1.000000 4.000000 1.000000 -60.708740 114.000000 180.000000 -0.556576 0.820914 -0.127763
-18.00000000 -8.17000008 0.31000000 62 55 197 97.000000 1.000000 4.000000 1.000000 -60.708740 114.000000 180.000000 -0.563511 0.811636 -0.153957
-18.04000092 -8.14000034 0.27000001 62 55 197 97.000000 1.000000 4.000000 1.000000 -60.708740 114.000000 180.000000 -0.291892 0.955853 -0.033824
-18.03000069 -8.15999985 0.25000000 62 55 197 97.000000 1.000000 4.000000 1.000000 -60.708740 114.000000 180.000000 -0.268977 0.960991 0.064403
-18.02000046 -8.15999985 0.27000001 62 55 197 97.000000 1.000000 4.000000 1.000000 -60.708740 114.000000 180.000000 -0.474092 0.876860 -0.079715
-18.00000000 -8.14999962 0.25999999 62 55 197 97.000000 1.000000 4.000000 1.000000 -60.708740 114.000000 180.000000 -0.319224 0.771592 -0.550220
-17.96999931 -8.10999966 0.23000000 62 55 197 97.000000 1.000000 4.000000 1.000000 -60.708740 114.000000 180.000000 -0.549746 0.765776 -0.333717
-17.97999954 -8.11999989 0.23000000 62 55 197 97.000000 1.000000 4.000000 1.000000 -60.708740 114.000000 180.000000 0.623342 -0.646739 0.439515
-17.95999908 -8.10999966 0.23000000 62 55 197 97.000000 1.000000 4.000000 1.000000 -60.708740 114.000000 180.000000 0.742846 -0.648661 0.165583
-17.95999908 -8.10999966 0.22000000 62 55 197 97.000000 1.000000 4.000000 1.000000 -60.708740 114.000000 180.000000 0.759185 -0.645960 0.079838
-17.95999908 -8.10999966 0.23000000 62 55 197 97.000000 1.000000 4.000000 1.000000 -60.708740 114.000000 180.000000 0.742846 -0.648661 0.165583
-17.97999954 -8.11999989 0.23000000 62 55 197 97.000000 1.000000 4.000000 1.000000 -60.708740 114.000000 180.000000 0.623342 -0.646739 0.439515
-17.95999908 -8.10999966 0.16000000 62 55 197 97.000000 1.000000 4.000000 1.000000 -60.708740 114.000000 180.000000 -0.695172 0.717826 -0.038227
-17.97999954 -8.10999966 0.18000001 62 55 197 97.000000 1.000000 4.000000 1.000000 -60.708740 114.000000 180.000000 -0.161626 0.920566 -0.355577
-17.98999977 -8.14999962 0.20999999 62 55 197 97.000000 1.000000 4.000000 1.000000 -60.708740 114.000000 180.000000 -0.495890 0.841648 -0.213824
-17.96999931 -8.14000034 0.20000000 62 55 197 97.000000 1.000000 4.000000 1.000000 -60.708740 114.000000 180.000000 -0.653540 0.750469 -0.098398
-17.98999977 -8.14999962 0.20999999 62 55 197 97.000000 1.000000 4.000000 1.000000 -60.708740 114.000000 180.000000 -0.495890 0.841648 -0.213824
-17.96999931 -8.14000034 0.15000001 62 55 197 97.000000 1.000000 4.000000 1.000000 -60.708740 114.000000 180.000000 -0.552103 0.783068 -0.286334
-18.00000000 -8.14999962 0.22000000 62 55 197 97.000000 1.000000 4.000000 1.000000 -60.708740 114.000000 180.000000 -0.503800 0.802584 -0.319444
-18.03000069 -8.17000008 0.16000000 62 55 197 97.000000 1.000000 4.000000 1.000000 -60.708740 114.000000 180.000000 -0.200896 0.962460 -0.182513
-18.03000069 -8.17000008 0.16000000 62 55 197 97.000000 1.000000 4.000000 1.000000 -60.708740 114.000000 180.000000 -0.200896 0.962460 -0.182513
-18.03000069 -8.17000008 0.16000000 62 55 197 97.000000 1.000000 4.000000 1.000000 -60.708740 114.000000 180.000000 -0.200896 0.962460 -0.182513
-18.04000092 -8.18000031 0.20999999 62 55 197 97.000000 1.000000 4.000000 1.000000 -60.708740 114.000000 180.000000 -0.150624 0.985581 -0.077091
-18.03000069 -8.18000031 0.19000000 62 55 197 97.000000 1.000000 4.000000 1.000000 -60.708740 114.000000 180.000000 -0.174060 0.968289 -0.179217
-17.88999939 -8.10000038 0.09000000 62 55 197 97.000000 1.000000 4.000000 1.000000 -60.708740 114.000000 180.000000 0.838250 -0.520754 0.161716
-17.93000031 -8.11999989 0.09000000 62 55 197 97.000000 1.000000 4.000000 1.000000 -60.708740 114.000000 180.000000 -0.326874 0.867059 -0.375981
-17.95000076 -8.11999989 0.08000000 62 55 197 97.000000 1.000000 4.000000 1.000000 -60.708740 114.000000 180.000000 -0.541905 0.829746 -0.133641
-17.94000053 -8.11999989 0.07000000 62 55 197 97.000000 1.000000 4.000000 1.000000 -60.708740 114.000000 180.000000 -0.583603 0.802269 -0.125585
-17.94000053 -8.11999989 0.10000000 62 55 197 97.000000 1.000000 4.000000 1.000000 -60.708740 114.000000 180.000000 -0.635796 0.766738 0.088750
-17.94000053 -8.10999966 0.10000000 62 55 197 97.000000 1.000000 4.000000 1.000000 -60.708740 114.000000 180.000000 -0.424095 0.794976 -0.433770
-17.89999962 -8.10000038 0.05000000 62 55 197 97.000000 1.000000 4.000000 1.000000 -60.708740 114.000000 180.000000 0.740394 -0.644958 0.189331
-17.90999985 -8.10999966 0.01000000 62 55 197 97.000000 1.000000 4.000000 1.000000 -60.708740 114.000000 180.000000 -0.331639 0.896763 -0.292972
-17.89999962 -8.10999966 0.00000000 62 55 197 97.000000 1.000000 4.000000 1.000000 -60.708740 114.000000 180.000000 -0.374668 0.792753 -0.480797
-17.90999985 -8.10999966 0.01000000 62 55 197 97.000000 1.000000 4.000000 1.000000 -60.708740 114.000000 180.000000 -0.331639 0.896763 -0.292972
-17.95000076 -8.11999989 0.04000000 62 55 197 97.000000 1.000000 4.000000 1.000000 -60.708740 114.000000 180.000000 -0.268904 0.957402 -0.105223
-17.93000031 -8.10999966 0.01000000 62 55 197 97.000000 1.000000 4.000000 1.000000 -60.708740 114.000000 180.000000 -0.189332 0.929828 -0.315553
-17.94000053 -8.10000038 0.02000000 62 55 197 97.000000 1.000000 4.000000 1.000000 -60.708740 114.000000 180.000000 -0.280854 0.920338 0.272213
-17.92000008 -8.10999966 0.00000000 62 55 197 97.000000 1.000000 4.000000 1.000000 -60.708740 114.000000 180.000000 -0.462532 0.885729 -0.039336
-17.95999908 -8.13000011 0.12000000 62 55 197 97.000000 1.000000 4.000000 1.000000 -60.708740 114.000000 180.000000 -0.436744 0.868986 -0.232630
-17.95999908 -8.11999989 0.07000000 62 55 197 97.000000 1.000000 4.000000 1.000000 -60.708740 114.000000 180.000000 -0.398528 0.915682 -0.051982
-17.96999931 -8.11999989 0.05000000 62 55 197 97.000000 1.000000 4.000000 1.000000 -60.708740 114.000000 180.000000 -0.229716 0.971687 0.055279
-17.96999931 -8.11999989 0.05000000 62 55 197 97.000000 1.000000 4.000000 1.000000 -60.708740 114.000000 180.000000 -0.229716 0.971687 0.055279
-17.95999908 -8.13000011 0.05000000 62 55 197 97.000000 1.000000 4.000000 1.000000 -60.708740 114.000000 180.000000 -0.250093 0.924630 0.287250
-17.98999977 -8.14000034 -0.01000000 62 55 197 97.000000 1.000000 4.000000 1.000000 -60.708740 114.000000 180.000000 0.638778 0.632107 0.438639
-18.00000000 -8.13000011 -0.01000000 62 55 197 97.000000 1.000000 4.000000 1.000000 -60.708740 114.000000 180.000000 0.527943 0.608906 0.592039
-18.06999969 -8.14000034 0.28000000 62 55 197 97.000000 1.000000 4.000000 1.000000 -60.708740 114.000000 180.000000 -0.376126 0.925138 -0.051470
-18.06999969 -8.15999985 0.31000000 62 55 197 97.000000 1.000000 4.000000 1.000000 -60.708740 114.000000 180.000000 -0.208731 0.962261 0.174599
-18.04999924 -8.17000008 0.25999999 62 55 197 97.000000 1.000000 4.000000 1.000000 -60.708740 114.000000 180.000000 -0.093579 0.980754 -0.171359
-18.04999924 -8.17000008 0.25999999 62 55 197 97.000000 1.000000 4.000000 1.000000 -60.708740 114.000000 180.000000 -0.093579 0.980754 -0.171359
-18.11000061 -8.14999962 0.28000000 62 55 197 97.000000 1.000000 4.000000 1.000000 -60.708740 114.000000 180.000000 -0.019623 0.914443 0.404239
-18.11000061 -8.14999962 0.28000000 62 55 197 97.000000 1.000000 4.000000 1.000000 -60.708740 114.000000 180.000000 -0.019623 0.914443 0.404239
-18.10000038 -8.14999962 0.28999999 62 55 197 97.000000 1.000000 4.000000 1.000000 -60.708740 114.000000 180.000000 0.101343 0.986010 -0.132342
-18.07999992 -8.15999985 0.19000000 62 55 197 97.000000 1.000000 4.000000 1.000000 -60.708740 114.000000 180.000000 0.040760 0.994772 0.093639
-18.07999992 -8.15999985 0.19000000 62 55 197 97.000000 1.000000 4.000000 1.000000 -60.708740 114.000000 180.000000 0.040760 0.994772 0.093639
-18.07999992 -8.15999985 0.20999999 62 55 197 97.000000 1.000000 4.000000 1.000000 -60.708740 114.000000 180.000000 -0.030552 0.990111 0.136918
-18.04999924 -8.15999985 0.22000000 62 55 197 97.000000 1.000000 4.000000 1.000000 -60.708740 114.000000 180.000000 -0.244199 0.968119 -0.055782
-18.04999924 -8.15999985 0.22000000 62 55 197 97.000000 1.000000 4.000000 1.000000 -60.708740 114.000000 180.000000 -0.244199 0.968119 -0.055782
-18.05999947 -8.15999985 0.15000001 62 55 197 97.000000 1.000000 4.000000 1.000000 -60.708740 114.000000 180.000000 0.066363 0.988454 -0.136218
-18.05999947 -8.15999985 0.15000001 62 55 197 97.000000 1.000000 4.000000 1.000000 -60.708740 114.000000 180.000000 0.066363 0.988454 -0.136218
-18.12000084 -8.11999989 0.19000000 62 55 197 97.000000 1.000000 4.000000 1.000000 -60.708740 114.000000 180.000000 0.662725 0.449051 0.599290
-18.12000084 -8.10999966 0.16000000 62 55 197 97.000000 1.000000 4.000000 1.000000 -60.708740 114.000000 180.000000 0.919106 0.287130 0.269816
-18.10000038 -8.14999962 0.16000000 62 55 197 97.000000 1.000000 4.000000 1.000000 -60.708740 114.000000 180.000000 0.213169 0.811270 0.544425
-18.06999969 -8.18999958 0.28000000 62 55 197 97.000000 1.000000 4.000000 1.000000 -60.708740 114.000000 180.000000 -0.329803 0.943211 0.039782
-18.04999924 -8.18999958 0.31000000 62 55 197 97.000000 1.000000 4.000000 1.000000 -60.708740 114.000000 180.000000 0.019623 0.914443 -0.404239
-18.07999992 -8.18000031 0.18000001 62 55 197 97.000000 1.000000 4.000000 1.000000 -60.708740 114.000000 180.000000 0.022384 -0.907230 -0.420038
-18.04999924 -8.18000031 0.23000000 62 55 197 97.000000 1.000000 4.000000 1.000000 -60.708740 114.000000 180.000000 -0.198152 0.938106 0.284065
-18.04999924 -8.18000031 0.15000001 62 55 197 97.000000 1.000000 4.000000 1.000000 -60.708740 114.000000 180.000000 -0.030873 0.889938 0.455036
-18.15999985 -8.14999962 0.28000000 62 55 197 97.000000 1.000000 4.000000 1.000000 -60.708740 114.000000 180.000000 0.241002 0.965282 0.100736
-18.14999962 -8.14999962 0.31000000 62 55 197 97.000000 1.000000 4.000000 1.000000 -60.708740 114.000000 180.000000 0.289951 0.781125 0.552967
-18.14999962 -8.14999962 0.31000000 62 55 197 97.000000 1.000000 4.000000 1.000000 -60.708740 114.000000 180.000000 0.289951 0.781125 0.552967
-18.13999939 -8.14999962 0.25999999 62 55 197 97.000000 1.000000 4.000000 1.000000 -60.708740 114.000000 180.000000 0.296397 0.744998 0.597601
-18.17000008 -8.10999966 0.25000000 62 55 197 97.000000 1.000000 4.000000 1.000000 -60.708740 114.000000 180.000000 0.651174 0.405948 0.641232
-18.17000008 -8.10999966 0.25000000 62 55 197 97.000000 1.000000 4.000000 1.000000 -60.708740 114.000000 180.000000 0.651174 0.405948 0.641232
-18.14999962 -8.13000011 0.23000000 62 55 197 97.000000 1.000000 4.000000 1.000000 -60.708740 114.000000 180.000000 0.404675 0.715200 0.569848
-18.13999939 -8.13000011 0.16000000 62 55 197 97.000000 1.000000 4.000000 1.000000 -60.708740 114.000000 180.000000 0.565722 0.433001 0.701761
-18.15999985 -8.13000011 0.17000000 62 55 197 97.000000 1.000000 4.000000 1.000000 -60.708740 114.000000 180.000000 0.544352 0.547723 0.635358
-18.13999939 -8.14999962 0.22000000 62 55 197 97.000000 1.000000 4.000000 1.000000 -60.708740 114.000000 180.000000 0.314543 0.777575 0.544462
-18.05999947 -8.13000011 0.12000000 62 55 197 97.000000 1.000000 4.000000 1.000000 -60.708740 114.000000 180.000000 0.379440 0.704675 0.599549
-18.05999947 -8.13000011 0.12000000 62 55 197 97.000000 1.000000 4.000000 1.000000 -60.708740 114.000000 180.000000 0.379440 0.704675 0.599549
-18.10000038 -8.10000038 0.07000000 62 55 197 97.000000 1.000000 4.000000 1.000000 -60.708740 114.000000 180.000000 0.848383 0.123269 0.514831
-18.12000084 -8.14000034 0.13000000 62 55 197 97.000000 1.000000 4.000000 1.000000 -60.708740 114.000000 180.000000 0.488914 0.599802 0.633404
-18.07999992 -8.11999989 0.02000000 62 55 197 97.000000 1.000000 4.000000 1.000000 -60.708740 114.000000 180.000000 0.919144 0.284256 0.272713
-18.11000061 -8.10000038 0.00000000 62 55 197 97.000000 1.000000 4.000000 1.000000 -60.708740 114.000000 180.000000 0.949605 0.084903 0.301731
-18.10000038 -8.11999989 -0.02000000 62 55 197 97.000000 1.000000 4.000000 1.000000 -60.708740 114.000000 180.000000 0.810995 0.140849 0.567845
-18.12000084 -8.10000038 0.00000000 62 55 197 97.000000 1.000000 4.000000 1.000000 -60.708740 114.000000 180.000000 0.741780 0.188900 0.643490
-18.23999977 -8.02999973 0.41000000 62 55 197 97.000000 1.000000 4.000000 1.000000 -60.708740 114.000000 180.000000 0.718413 -0.095495 0.689030
-18.20999908 -8.02999973 0.40000001 62 55 197 97.000000 1.000000 4.000000 1.000000 -60.708740 114.000000 180.000000 0.951172 -0.231366 0.204306
-18.20999908 -8.02999973 0.40000001 62 55 197 97.000000 1.000000 4.000000 1.000000 -60.708740 114.000000 180.000000 0.951172 -0.231366 0.204306
-18.22999954 -8.05000019 0.41000000 62 55 197 97.000000 1.000000 4.000000 1.000000 -60.708740 114.000000 180.000000 0.910869 -0.074661 0.405886
-18.21999931 -8.05000019 0.41000000 62 55 197 97.000000 1.000000 4.000000 1.000000 -60.708740 114.000000 180.000000 0.934457 -0.120706 0.334994
-18.20999908 -8.02999973 0.40000001 62 55 197 97.000000 1.000000 4.000000 1.000000 -60.708740 114.000000 180.000000 0.951172 -0.231366 0.204306
-18.22999954 -8.05000019 0.41000000 62 55 197 97.000000 1.000000 4.000000 1.000000 -60.708740 114.000000 180.000000 0.910869 -0.074661 0.405886
-18.21999931 -8.03999996 0.37000000 62 55 197 97.000000 1.000000 4.000000 1.000000 -60.708740 114.000000 180.000000 0.898178 -0.119476 0.423086
-18.20999908 -8.02000046 0.31999999 62 55 197 97.000000 1.000000 4.000000 1.000000 -60.708740 114.000000 180.000000 0.829958 -0.485564 0.274584
-18.22999954 -8.06000042 0.37000000 62 55 197 97.000000 1.000000 4.000000 1.000000 -60.708740 114.000000 180.000000 0.849608 -0.113954 0.514957
-18.21999931 -8.06999969 0.31000000 62 55 197 97.000000 1.000000 4.000000 1.000000 -60.708740 114.000000 180.000000 0.835535 -0.012267 0.549300
-18.21999931 -8.06999969 0.31000000 62 55 197 97.000000 1.000000 4.000000 1.000000 -60.708740 114.000000 180.000000 0.835535 -0.012267 0.549300
-18.20999908 -8.06999969 0.28999999 62 55 197 97.000000 1.000000 4.000000 1.000000 -60.708740 114.000000 180.000000 0.989979 0.005555 0.141108
-18.20999908 -8.06000042 0.27000001 62 55 197 97.000000 1.000000 4.000000 1.000000 -60.708740 114.000000 180.000000 0.641228 0.308500 0.702605
-18.23999977 -8.11999989 0.38000000 62 55 197 97.000000 1.000000 4.000000 1.000000 -60.708740 114.000000 180.000000 0.391199 0.837385 0.381772
-18.23999977 -8.10000038 0.37000000 62 55 197 97.000000 1.000000 4.000000 1.000000 -60.708740 114.000000 180.000000 0.787860 0.201189 0.582065
-17.20000076 -8.30000019 -1.01999998 62 55 197 97.000000 1.000000 4.000000 1.000000 -60.708740 114.000000 180.000000 -0.616269 0.778834 0.116751
-17.17000008 -8.25000000 -1.10000002 62 55 197 97.000000 1.000000 4.000000 1.000000 -60.708740 114.000000 180.000000 0.818100 -0.463643 0.340216
-17.15999985 -8.22999954 -1.08000004 62 55 197 97.000000 1.000000 4.000000 1.000000 -60.708740 114.000000 180.000000 -0.417104 0.823106 -0.385385
-17.15999985 -8.23999977 -1.10000002 62 55 197 97.000000 1.000000 4.000000 1.000000 -60.708740 114.000000 180.000000 0.635214 -0.530749 0.561078
-17.10000038 -8.31000042 -1.15999997 62 55 197 97.000000 1.000000 4.000000 1.000000 -60.708740 114.000000 180.000000 -0.594807 0.787555 -0.161125
-17.11000061 -8.31000042 -1.15999997 62 55 197 97.000000 1.000000 4.000000 1.000000 -60.708740 114.000000 180.000000 -0.614951 0.677938 -0.402785
-17.13999939 -8.27999973 -1.08000004 62 55 197 97.000000 1.000000 4.000000 1.000000 -60.708740 114.000000 180.000000 -0.658391 0.752644 -0.006930
-17.14999962 -8.32999992 -1.11000001 62 55 197 97.000000 1.000000 4.000000 1.000000 -60.708740 114.000000 180.000000 0.446729 -0.647506 0.617389
-17.20000076 -8.27999973 -1.05999994 62 55 197 97.000000 1.000000 4.000000 1.000000 -60.708740 114.000000 180.000000 -0.363869 0.867451 -0.339304
-17.18000031 -8.28999996 -1.04999995 62 55 197 97.000000 1.000000 4.000000 1.000000 -60.708740 114.000000 180.000000 -0.260201 0.946804 -0.189361
-17.17000008 -8.32999992 -1.10000002 62 55 197 97.000000 1.000000 4.000000 1.000000 -60.708740 114.000000 180.000000 -0.537868 0.685321 -0.490951
-17.12000084 -8.31999969 -1.16999996 62 55 197 97.000000 1.000000 4.000000 1.000000 -60.708740 114.000000 180.000000 -0.716210 0.588374 -0.375314
-17.48999977 -7.92000008 -0.62000000 62 55 197 97.000000 1.000000 4.000000 1.000000 -60.708740 114.000000 180.000000 0.427241 0.603457 0.673279
-17.53000069 -7.96999979 -0.66000003 62 55 197 97.000000 1.000000 4.000000 1.000000 -60.708740 114.000000 180.000000 0.660758 0.590500 0.463367
