//X Y Z R G B PointSourceId ScanDirectionFlag NumberOfReturns ReturnNumber GpsTime Intensity Classification Nx Ny Nz
4.61999989 -11.43999958 0.13000000 178 39 147 0.000000 0.000000 0.000000 0.000000 -60.708740 0.000000 179.000000 -0.057938 0.823852 0.563837
4.67999983 -11.38000011 0.06000000 178 39 147 0.000000 0.000000 0.000000 0.000000 -60.708740 0.000000 179.000000 -0.029097 0.827194 0.561162
4.69000006 -11.38000011 0.06000000 178 39 147 0.000000 0.000000 0.000000 0.000000 -60.708740 0.000000 179.000000 -0.182958 0.931547 0.314240
4.69999981 -11.38000011 0.06000000 178 39 147 0.000000 0.000000 0.000000 0.000000 -60.708740 0.000000 179.000000 -0.206002 0.931915 0.298493
4.69000006 -11.36999989 0.00000000 178 39 147 0.000000 0.000000 0.000000 0.000000 -60.708740 0.000000 179.000000 0.196519 0.682402 0.704065
4.65000010 -11.36999989 0.06000000 178 39 147 0.000000 0.000000 0.000000 0.000000 -60.708740 0.000000 179.000000 -0.009643 0.610281 0.792126
4.65999985 -11.36999989 0.06000000 178 39 147 0.000000 0.000000 0.000000 0.000000 -60.708740 0.000000 179.000000 0.077851 0.908257 0.411106
4.61999989 -11.47000027 0.31999999 178 39 147 0.000000 0.000000 0.000000 0.000000 -60.708740 0.000000 179.000000 0.801111 -0.163829 0.575657
4.71000004 -11.46000004 0.25000000 178 39 147 0.000000 0.000000 0.000000 0.000000 -60.708740 0.000000 179.000000 0.507830 -0.598935 0.619181
4.71000004 -11.46000004 0.17000000 178 39 147 0.000000 0.000000 0.000000 0.000000 -60.708740 0.000000 179.000000 0.590645 -0.553412 0.587260
4.69000006 -11.46000004 0.25000000 178 39 147 0.000000 0.000000 0.000000 0.000000 -60.708740 0.000000 179.000000 0.774126 -0.477514 0.415583
4.63999987 -11.47000027 0.28000000 178 39 147 0.000000 0.000000 0.000000 0.000000 -60.708740 0.000000 179.000000 -0.491836 0.673127 -0.552266
4.63000011 -11.48999977 0.28999999 178 39 147 0.000000 0.000000 0.000000 0.000000 -60.708740 0.000000 179.000000 -0.614918 0.730516 -0.297023
4.63999987 -11.47000027 0.28000000 178 39 147 0.000000 0.000000 0.000000 0.000000 -60.708740 0.000000 179.000000 -0.491836 0.673127 -0.552266
4.65999985 -11.47000027 0.28000000 178 39 147 0.000000 0.000000 0.000000 0.000000 -60.708740 0.000000 179.000000 0.773139 -0.581814 0.252485
4.65999985 -11.46000004 0.28000000 178 39 147 0.000000 0.000000 0.000000 0.000000 -60.708740 0.000000 179.000000 -0.619301 0.551802 -0.558552
4.61999989 -11.47000027 0.30000001 178 39 147 0.000000 0.000000 0.000000 0.000000 -60.708740 0.000000 179.000000 -0.545142 0.714153 -0.439096
4.63000011 -11.47000027 0.31000000 178 39 147 0.000000 0.000000 0.000000 0.000000 -60.708740 0.000000 179.000000 0.790679 -0.299476 0.533986
4.63000011 -11.47000027 0.28999999 178 39 147 0.000000 0.000000 0.000000 0.000000 -60.708740 0.000000 179.000000 0.762926 -0.316413 0.563762
4.63000011 -11.48999977 0.28000000 178 39 147 0.000000 0.000000 0.000000 0.000000 -60.708740 0.000000 179.000000 -0.451860 0.774851 -0.442073
4.63000011 -11.47999954 0.28999999 178 39 147 0.000000 0.000000 0.000000 0.000000 -60.708740 0.000000 179.000000 0.775216 -0.280599 0.565955
4.63999987 -11.48999977 0.27000001 178 39 147 0.000000 0.000000 0.000000 0.000000 -60.708740 0.000000 179.000000 0.689941 -0.437240 0.576891
4.63999987 -11.47000027 0.27000001 178 39 147 0.000000 0.000000 0.000000 0.000000 -60.708740 0.000000 179.000000 -0.577758 0.725062 -0.374806
4.63000011 -11.48999977 0.25000000 178 39 147 0.000000 0.000000 0.000000 0.000000 -60.708740 0.000000 179.000000 -0.586050 0.792000 0.171120
4.65000010 -11.48999977 0.25000000 178 39 147 0.000000 0.000000 0.000000 0.000000 -60.708740 0.000000 179.000000 0.782111 -0.518730 0.345285
4.63999987 -11.46000004 0.25999999 178 39 147 0.000000 0.000000 0.000000 0.000000 -60.708740 0.000000 179.000000 -0.491697 0.711711 -0.501698
4.65000010 -11.48999977 0.23999999 178 39 147 0.000000 0.000000 0.000000 0.000000 -60.708740 0.000000 179.000000 -0.456637 0.877034 -0.149313
4.65000010 -11.48999977 0.25000000 178 39 147 0.000000 0.000000 0.000000 0.000000 -60.708740 0.000000 179.000000 0.782111 -0.518730 0.345285
4.63000011 -11.50000000 0.25999999 178 39 147 0.000000 0.000000 0.000000 0.000000 -60.708740 0.000000 179.000000 0.568687 -0.669340 0.478100
4.61999989 -11.50000000 0.23999999 178 39 147 0.000000 0.000000 0.000000 0.000000 -60.708740 0.000000 179.000000 -0.243096 0.968682 0.050594
4.61999989 -11.51000023 0.25999999 178 39 147 0.000000 0.000000 0.000000 0.000000 -60.708740 0.000000 179.000000 -0.338266 0.939047 -0.061384
4.67000008 -11.46000004 0.20999999 178 39 147 0.000000 0.000000 0.000000 0.000000 -60.708740 0.000000 179.000000 -0.514029 0.837733 -0.184331
4.67000008 -11.46000004 0.20999999 178 39 147 0.000000 0.000000 0.000000 0.000000 -60.708740 0.000000 179.000000 -0.514029 0.837733 -0.184331
4.67000008 -11.48999977 0.20000000 178 39 147 0.000000 0.000000 0.000000 0.000000 -60.708740 0.000000 179.000000 0.723009 -0.630438 0.282500
4.69000006 -11.47000027 0.15000001 178 39 147 0.000000 0.000000 0.000000 0.000000 -60.708740 0.000000 179.000000 -0.534202 0.795787 0.285223
4.69000006 -11.47000027 0.16000000 178 39 147 0.000000 0.000000 0.000000 0.000000 -60.708740 0.000000 179.000000 -0.271826 0.881557 -0.385963
4.67999983 -11.50000000 0.18000001 178 39 147 0.000000 0.000000 0.000000 0.000000 -60.708740 0.000000 179.000000 -0.263552 0.963882 -0.038357
4.65999985 -11.46000004 0.20999999 178 39 147 0.000000 0.000000 0.000000 0.000000 -60.708740 0.000000 179.000000 -0.491636 0.870237 0.031323
4.65999985 -11.47999954 0.23000000 178 39 147 0.000000 0.000000 0.000000 0.000000 -60.708740 0.000000 179.000000 -0.386441 0.787433 -0.480221
4.65999985 -11.51000023 0.19000000 178 39 147 0.000000 0.000000 0.000000 0.000000 -60.708740 0.000000 179.000000 -0.497468 0.826013 -0.265006
4.63999987 -11.50000000 0.23000000 178 39 147 0.000000 0.000000 0.000000 0.000000 -60.708740 0.000000 179.000000 -0.409961 0.900780 -0.143274
4.55999994 -11.35999966 0.33000001 178 39 147 0.000000 0.000000 0.000000 0.000000 -60.708740 0.000000 179.000000 0.551513 0.230183 0.801779
4.57999992 -11.39999962 0.36000001 178 39 147 0.000000 0.000000 0.000000 0.000000 -60.708740 0.000000 179.000000 0.769063 0.416372 0.484950
4.57999992 -11.39000034 0.34000000 178 39 147 0.000000 0.000000 0.000000 0.000000 -60.708740 0.000000 179.000000 0.690312 0.499766 0.523166
4.57999992 -11.42000008 0.36000001 178 39 147 0.000000 0.000000 0.000000 0.000000 -60.708740 0.000000 179.000000 0.921908 -0.105166 0.372861
4.61000013 -11.43000031 0.34000000 178 39 147 0.000000 0.000000 0.000000 0.000000 -60.708740 0.000000 179.000000 0.925344 -0.272328 0.263773
4.61000013 -11.43000031 0.34000000 178 39 147 0.000000 0.000000 0.000000 0.000000 -60.708740 0.000000 179.000000 0.925344 -0.272328 0.263773
4.61000013 -11.43000031 0.34000000 178 39 147 0.000000 0.000000 0.000000 0.000000 -60.708740 0.000000 179.000000 0.925344 -0.272328 0.263773
4.59000015 -11.40999985 0.34999999 178 39 147 0.000000 0.000000 0.000000 0.000000 -60.708740 0.000000 179.000000 0.517504 0.284706 0.806928
4.59999990 -11.43999958 0.34000000 178 39 147 0.000000 0.000000 0.000000 0.000000 -60.708740 0.000000 179.000000 0.693257 -0.365476 0.621145
4.59999990 -11.44999981 0.34000000 178 39 147 0.000000 0.000000 0.000000 0.000000 -60.708740 0.000000 179.000000 0.708733 -0.286373 0.644739
4.57999992 -11.40999985 0.34999999 178 39 147 0.000000 0.000000 0.000000 0.000000 -60.708740 0.000000 179.000000 0.546843 -0.325540 0.771354
4.59000015 -11.43999958 0.34999999 178 39 147 0.000000 0.000000 0.000000 0.000000 -60.708740 0.000000 179.000000 0.604914 -0.049583 0.794746
4.61000013 -11.43999958 0.34000000 178 39 147 0.000000 0.000000 0.000000 0.000000 -60.708740 0.000000 179.000000 0.854198 -0.264358 0.447728
4.55000019 -11.44999981 0.38000000 178 39 147 0.000000 0.000000 0.000000 0.000000 -60.708740 0.000000 179.000000 0.509755 -0.217597 0.832347
4.55000019 -11.40999985 0.38000000 178 39 147 0.000000 0.000000 0.000000 0.000000 -60.708740 0.000000 179.000000 0.513578 0.136076 0.847184
4.55000019 -11.43999958 0.34999999 178 39 147 0.000000 0.000000 0.000000 0.000000 -60.708740 0.000000 179.000000 0.552628 -0.183200 0.813044
4.53000021 -11.35000038 0.33000001 178 39 147 0.000000 0.000000 0.000000 0.000000 -60.708740 0.000000 179.000000 0.188051 0.831938 0.522030
4.53000021 -11.34000015 0.31999999 178 39 147 0.000000 0.000000 0.000000 0.000000 -60.708740 0.000000 179.000000 0.380048 0.709094 0.593928
4.51999998 -11.31000042 0.31999999 178 39 147 0.000000 0.000000 0.000000 0.000000 -60.708740 0.000000 179.000000 0.079003 0.578878 0.811578
4.50000000 -11.43000031 0.40000001 178 39 147 0.000000 0.000000 0.000000 0.000000 -60.708740 0.000000 179.000000 0.594028 -0.034943 0.803685
4.51000023 -11.42000008 0.40000001 178 39 147 0.000000 0.000000 0.000000 0.000000 -60.708740 0.000000 179.000000 0.636202 0.182429 0.749645
4.46999979 -11.42000008 0.41999999 178 39 147 0.000000 0.000000 0.000000 0.000000 -60.708740 0.000000 179.000000 0.408974 0.281264 0.868119
4.53000021 -11.43000031 0.41000000 178 39 147 0.000000 0.000000 0.000000 0.000000 -60.708740 0.000000 179.000000 0.875554 0.205925 0.437036
4.50000000 -11.44999981 0.40000001 178 39 147 0.000000 0.000000 0.000000 0.000000 -60.708740 0.000000 179.000000 0.520006 0.204667 0.829280
4.51000023 -11.44999981 0.41000000 178 39 147 0.000000 0.000000 0.000000 0.000000 -60.708740 0.000000 179.000000 0.625446 -0.413093 0.661945
4.51999998 -11.39999962 0.34999999 178 39 147 0.000000 0.000000 0.000000 0.000000 -60.708740 0.000000 179.000000 0.509560 0.238615 0.826687
4.50000000 -11.38000011 0.34999999 178 39 147 0.000000 0.000000 0.000000 0.000000 -60.708740 0.000000 179.000000 0.441033 0.560861 0.700660
4.46000004 -11.36999989 0.37000000 178 39 147 0.000000 0.000000 0.000000 0.000000 -60.708740 0.000000 179.000000 0.058480 0.611902 0.788769
4.48999977 -11.39000034 0.36000001 178 39 147 0.000000 0.000000 0.000000 0.000000 -60.708740 0.000000 179.000000 0.734147 0.356493 0.577876
4.48000002 -11.38000011 0.37000000 178 39 147 0.000000 0.000000 0.000000 0.000000 -60.708740 0.000000 179.000000 0.472229 0.341850 0.812489
4.46000004 -11.39000034 0.38000000 178 39 147 0.000000 0.000000 0.000000 0.000000 -60.708740 0.000000 179.000000 0.342116 0.842012 0.417100
4.46999979 -11.38000011 0.37000000 178 39 147 0.000000 0.000000 0.000000 0.000000 -60.708740 0.000000 179.000000 0.006846 0.587425 0.809250
4.48999977 -11.43000031 0.34999999 178 39 147 0.000000 0.000000 0.000000 0.000000 -60.708740 0.000000 179.000000 0.695703 -0.018197 0.718099
4.48000002 -11.43000031 0.34999999 178 39 147 0.000000 0.000000 0.000000 0.000000 -60.708740 0.000000 179.000000 0.742536 0.182189 0.644552
4.30000019 -11.44999981 0.50999999 178 39 147 0.000000 0.000000 0.000000 0.000000 -60.708740 0.000000 179.000000 0.091369 0.802016 0.590272
4.30000019 -11.44999981 0.50000000 178 39 147 0.000000 0.000000 0.000000 0.000000 -60.708740 0.000000 179.000000 -0.011300 0.942953 0.332733
4.32000017 -11.44999981 0.50000000 178 39 147 0.000000 0.000000 0.000000 0.000000 -60.708740 0.000000 179.000000 0.145266 0.961894 0.231640
4.28999996 -11.44999981 0.50000000 178 39 147 0.000000 0.000000 0.000000 0.000000 -60.708740 0.000000 179.000000 -0.216162 0.917616 0.333548
4.34000015 -11.43000031 0.49000001 178 39 147 0.000000 0.000000 0.000000 0.000000 -60.708740 0.000000 179.000000 -0.017370 0.885855 0.463637
4.32000017 -11.44999981 0.50000000 178 39 147 0.000000 0.000000 0.000000 0.000000 -60.708740 0.000000 179.000000 0.145266 0.961894 0.231640
4.30000019 -11.44999981 0.50000000 178 39 147 0.000000 0.000000 0.000000 0.000000 -60.708740 0.000000 179.000000 -0.011300 0.942953 0.332733
4.28999996 -11.44999981 0.49000001 178 39 147 0.000000 0.000000 0.000000 0.000000 -60.708740 0.000000 179.000000 -0.206598 0.908744 0.362631
4.32000017 -11.44999981 0.50000000 178 39 147 0.000000 0.000000 0.000000 0.000000 -60.708740 0.000000 179.000000 0.145266 0.961894 0.231640
4.42000008 -11.43999958 0.43000001 178 39 147 0.000000 0.000000 0.000000 0.000000 -60.708740 0.000000 179.000000 0.272546 0.635942 0.722009
4.40999985 -11.42000008 0.40000001 178 39 147 0.000000 0.000000 0.000000 0.000000 -60.708740 0.000000 179.000000 0.219734 0.548567 0.806716
4.40000010 -11.44999981 0.47000000 178 39 147 0.000000 0.000000 0.000000 0.000000 -60.708740 0.000000 179.000000 0.520947 0.598499 0.608615
4.38999987 -11.44999981 0.46000001 178 39 147 0.000000 0.000000 0.000000 0.000000 -60.708740 0.000000 179.000000 0.613033 0.518461 0.596145
4.38999987 -11.44999981 0.46000001 178 39 147 0.000000 0.000000 0.000000 0.000000 -60.708740 0.000000 179.000000 0.613033 0.518461 0.596145
4.38999987 -11.44999981 0.44999999 178 39 147 0.000000 0.000000 0.000000 0.000000 -60.708740 0.000000 179.000000 0.330307 0.755678 0.565550
4.38000011 -11.43999958 0.47000000 178 39 147 0.000000 0.000000 0.000000 0.000000 -60.708740 0.000000 179.000000 0.197759 0.789503 0.581013
4.38999987 -11.40999985 0.40000001 178 39 147 0.000000 0.000000 0.000000 0.000000 -60.708740 0.000000 179.000000 0.063395 0.910465 0.408698
4.38999987 -11.40999985 0.40000001 178 39 147 0.000000 0.000000 0.000000 0.000000 -60.708740 0.000000 179.000000 0.063395 0.910465 0.408698
4.38000011 -11.43000031 0.44000000 178 39 147 0.000000 0.000000 0.000000 0.000000 -60.708740 0.000000 179.000000 0.244523 0.937573 0.247318
4.38999987 -11.43999958 0.44000000 178 39 147 0.000000 0.000000 0.000000 0.000000 -60.708740 0.000000 179.000000 0.230835 0.670520 0.705066
4.44000006 -11.39999962 0.38999999 178 39 147 0.000000 0.000000 0.000000 0.000000 -60.708740 0.000000 179.000000 0.026500 0.788022 0.615076
4.42999983 -11.39999962 0.38999999 178 39 147 0.000000 0.000000 0.000000 0.000000 -60.708740 0.000000 179.000000 0.277533 0.433933 0.857133
4.44999981 -11.38000011 0.38000000 178 39 147 0.000000 0.000000 0.000000 0.000000 -60.708740 0.000000 179.000000 0.199875 0.711182 0.673996
4.42999983 -11.39000034 0.36000001 178 39 147 0.000000 0.000000 0.000000 0.000000 -60.708740 0.000000 179.000000 -0.004113 0.804739 0.593615
4.42000008 -11.39999962 0.37000000 178 39 147 0.000000 0.000000 0.000000 0.000000 -60.708740 0.000000 179.000000 -0.176770 0.958279 0.224617
4.42999983 -11.39000034 0.36000001 178 39 147 0.000000 0.000000 0.000000 0.000000 -60.708740 0.000000 179.000000 -0.004113 0.804739 0.593615
4.42999983 -11.39000034 0.36000001 178 39 147 0.000000 0.000000 0.000000 0.000000 -60.708740 0.000000 179.000000 -0.004113 0.804739 0.593615
4.42000008 -11.39999962 0.37000000 178 39 147 0.000000 0.000000 0.000000 0.000000 -60.708740 0.000000 179.000000 -0.176770 0.958279 0.224617
4.44000006 -11.39000034 0.34000000 178 39 147 0.000000 0.000000 0.000000 0.000000 -60.708740 0.000000 179.000000 -0.196517 0.910865 0.362912
4.44999981 -11.39999962 0.34999999 178 39 147 0.000000 0.000000 0.000000 0.000000 -60.708740 0.000000 179.000000 -0.041018 0.632243 0.773684
4.40999985 -11.39000034 0.34000000 178 39 147 0.000000 0.000000 0.000000 0.000000 -60.708740 0.000000 179.000000 -0.417287 0.813790 0.404497
4.44000006 -11.42000008 0.37000000 178 39 147 0.000000 0.000000 0.000000 0.000000 -60.708740 0.000000 179.000000 0.639612 0.395006 0.659445
4.44999981 -11.42000008 0.31999999 178 39 147 0.000000 0.000000 0.000000 0.000000 -60.708740 0.000000 179.000000 0.029119 -0.825025 -0.564345
4.38999987 -11.39999962 0.38999999 178 39 147 0.000000 0.000000 0.000000 0.000000 -60.708740 0.000000 179.000000 -0.367491 0.928607 0.051370
4.38000011 -11.39999962 0.37000000 178 39 147 0.000000 0.000000 0.000000 0.000000 -60.708740 0.000000 179.000000 -0.543654 0.779609 0.310887
4.38999987 -11.39000034 0.37000000 178 39 147 0.000000 0.000000 0.000000 0.000000 -60.708740 0.000000 179.000000 0.001237 0.948930 0.315485
4.38999987 -11.39999962 0.38000000 178 39 147 0.000000 0.000000 0.000000 0.000000 -60.708740 0.000000 179.000000 -0.273249 0.888433 0.368812
4.38000011 -11.39999962 0.34000000 178 39 147 0.000000 0.000000 0.000000 0.000000 -60.708740 0.000000 179.000000 -0.394999 0.914376 0.088841
4.38000011 -11.39000034 0.31999999 178 39 147 0.000000 0.000000 0.000000 0.000000 -60.708740 0.000000 179.000000 -0.337031 0.821216 -0.460451
4.40000010 -11.39999962 0.34000000 178 39 147 0.000000 0.000000 0.000000 0.000000 -60.708740 0.000000 179.000000 -0.052210 0.987357 0.149670
4.38999987 -11.38000011 0.34999999 178 39 147 0.000000 0.000000 0.000000 0.000000 -60.708740 0.000000 179.000000 -0.432172 0.900696 0.044429
4.38999987 -11.40999985 0.38000000 178 39 147 0.000000 0.000000 0.000000 0.000000 -60.708740 0.000000 179.000000 0.019707 0.998811 0.044599
4.38000011 -11.40999985 0.36000001 178 39 147 0.000000 0.000000 0.000000 0.000000 -60.708740 0.000000 179.000000 -0.706653 0.691521 0.149804
4.36999989 -11.42000008 0.38000000 178 39 147 0.000000 0.000000 0.000000 0.000000 -60.708740 0.000000 179.000000 -0.405796 0.894497 0.187626
4.38999987 -11.40999985 0.38000000 178 39 147 0.000000 0.000000 0.000000 0.000000 -60.708740 0.000000 179.000000 0.019707 0.998811 0.044599
4.38000011 -11.40999985 0.38000000 178 39 147 0.000000 0.000000 0.000000 0.000000 -60.708740 0.000000 179.000000 -0.111132 0.993586 0.020906
4.38000011 -11.40999985 0.36000001 178 39 147 0.000000 0.000000 0.000000 0.000000 -60.708740 0.000000 179.000000 -0.706653 0.691521 0.149804
4.36999989 -11.40999985 0.38999999 178 39 147 0.000000 0.000000 0.000000 0.000000 -60.708740 0.000000 179.000000 0.026279 0.952284 0.304080
4.38000011 -11.40999985 0.33000001 178 39 147 0.000000 0.000000 0.000000 0.000000 -60.708740 0.000000 179.000000 -0.659209 0.751583 0.023793
4.40000010 -11.40999985 0.34999999 178 39 147 0.000000 0.000000 0.000000 0.000000 -60.708740 0.000000 179.000000 -0.204177 0.956831 -0.206846
4.36000013 -11.39999962 0.41999999 178 39 147 0.000000 0.000000 0.000000 0.000000 -60.708740 0.000000 179.000000 -0.275003 0.953958 0.119738
4.34999990 -11.39999962 0.40000001 178 39 147 0.000000 0.000000 0.000000 0.000000 -60.708740 0.000000 179.000000 0.023816 0.951380 0.307099
4.34999990 -11.39999962 0.40000001 178 39 147 0.000000 0.000000 0.000000 0.000000 -60.708740 0.000000 179.000000 0.023816 0.951380 0.307099
4.36000013 -11.44999981 0.46000001 178 39 147 0.000000 0.000000 0.000000 0.000000 -60.708740 0.000000 179.000000 0.397963 0.708408 0.582909
4.36000013 -11.40999985 0.44999999 178 39 147 0.000000 0.000000 0.000000 0.000000 -60.708740 0.000000 179.000000 -0.054139 0.862059 0.503909
4.34000015 -11.43999958 0.47000000 178 39 147 0.000000 0.000000 0.000000 0.000000 -60.708740 0.000000 179.000000 0.049382 0.976803 0.208369
4.34999990 -11.44999981 0.47999999 178 39 147 0.000000 0.000000 0.000000 0.000000 -60.708740 0.000000 179.000000 0.185228 0.380507 0.906038
4.34999990 -11.42000008 0.47000000 178 39 147 0.000000 0.000000 0.000000 0.000000 -60.708740 0.000000 179.000000 -0.178576 0.889978 0.419582
4.34000015 -11.43999958 0.44999999 178 39 147 0.000000 0.000000 0.000000 0.000000 -60.708740 0.000000 179.000000 0.282806 0.860648 0.423445
4.34000015 -11.44999981 0.47999999 178 39 147 0.000000 0.000000 0.000000 0.000000 -60.708740 0.000000 179.000000 0.131445 0.574517 0.807869
4.32999992 -11.44999981 0.47999999 178 39 147 0.000000 0.000000 0.000000 0.000000 -60.708740 0.000000 179.000000 0.459821 0.660470 0.593587
4.32999992 -11.44999981 0.47000000 178 39 147 0.000000 0.000000 0.000000 0.000000 -60.708740 0.000000 179.000000 0.396648 0.781964 0.480835
4.34000015 -11.40999985 0.40000001 178 39 147 0.000000 0.000000 0.000000 0.000000 -60.708740 0.000000 179.000000 -0.556887 0.830587 0.001355
4.34000015 -11.42000008 0.43000001 178 39 147 0.000000 0.000000 0.000000 0.000000 -60.708740 0.000000 179.000000 -0.194547 0.887895 0.416886
4.36000013 -11.40999985 0.44000000 178 39 147 0.000000 0.000000 0.000000 0.000000 -60.708740 0.000000 179.000000 -0.389797 0.875148 0.286660
4.36000013 -11.43000031 0.43000001 178 39 147 0.000000 0.000000 0.000000 0.000000 -60.708740 0.000000 179.000000 -0.057175 0.921449 0.384269
4.32999992 -11.40999985 0.40000001 178 39 147 0.000000 0.000000 0.000000 0.000000 -60.708740 0.000000 179.000000 -0.355888 0.887468 0.292820
4.34000015 -11.40999985 0.41000000 178 39 147 0.000000 0.000000 0.000000 0.000000 -60.708740 0.000000 179.000000 -0.615498 0.783493 0.085446
4.34000015 -11.43000031 0.41000000 178 39 147 0.000000 0.000000 0.000000 0.000000 -60.708740 0.000000 179.000000 0.024199 0.985251 0.169394
4.34000015 -11.44999981 0.44000000 178 39 147 0.000000 0.000000 0.000000 0.000000 -60.708740 0.000000 179.000000 -0.122057 0.942923 0.309837
4.36000013 -11.40999985 0.41999999 178 39 147 0.000000 0.000000 0.000000 0.000000 -60.708740 0.000000 179.000000 0.015291 0.977464 0.210549
4.30000019 -11.43000031 0.46000001 178 39 147 0.000000 0.000000 0.000000 0.000000 -60.708740 0.000000 179.000000 -0.355554 0.926636 0.122179
4.30000019 -11.44999981 0.47999999 178 39 147 0.000000 0.000000 0.000000 0.000000 -60.708740 0.000000 179.000000 0.214288 0.861649 0.460046
4.28999996 -11.43999958 0.47000000 178 39 147 0.000000 0.000000 0.000000 0.000000 -60.708740 0.000000 179.000000 -0.363990 0.901936 0.232428
4.28999996 -11.43999958 0.47999999 178 39 147 0.000000 0.000000 0.000000 0.000000 -60.708740 0.000000 179.000000 -0.092458 0.988952 0.115865
4.28999996 -11.43999958 0.44999999 178 39 147 0.000000 0.000000 0.000000 0.000000 -60.708740 0.000000 179.000000 -0.471075 0.875260 0.109585
4.30000019 -11.43999958 0.47999999 178 39 147 0.000000 0.000000 0.000000 0.000000 -60.708740 0.000000 179.000000 -0.134192 0.872970 0.468951
4.28999996 -11.40999985 0.44999999 178 39 147 0.000000 0.000000 0.000000 0.000000 -60.708740 0.000000 179.000000 -0.265181 0.952786 -0.147915
4.32000017 -11.44999981 0.47999999 178 39 147 0.000000 0.000000 0.000000 0.000000 -60.708740 0.000000 179.000000 0.299669 0.871627 0.387897
4.28999996 -11.43999958 0.47000000 178 39 147 0.000000 0.000000 0.000000 0.000000 -60.708740 0.000000 179.000000 -0.363990 0.901936 0.232428
4.30999994 -11.42000008 0.40000001 178 39 147 0.000000 0.000000 0.000000 0.000000 -60.708740 0.000000 179.000000 -0.647303 0.761944 0.020971
4.30000019 -11.43000031 0.41000000 178 39 147 0.000000 0.000000 0.000000 0.000000 -60.708740 0.000000 179.000000 -0.459439 0.863506 0.208020
4.30000019 -11.43000031 0.41000000 178 39 147 0.000000 0.000000 0.000000 0.000000 -60.708740 0.000000 179.000000 -0.459439 0.863506 0.208020
4.32000017 -11.40999985 0.40000001 178 39 147 0.000000 0.000000 0.000000 0.000000 -60.708740 0.000000 179.000000 -0.132157 0.990610 0.035016
4.32000017 -11.42000008 0.44000000 178 39 147 0.000000 0.000000 0.000000 0.000000 -60.708740 0.000000 179.000000 -0.037428 0.990143 0.134968
4.32000017 -11.42000008 0.43000001 178 39 147 0.000000 0.000000 0.000000 0.000000 -60.708740 0.000000 179.000000 -0.557437 0.829962 0.020646
4.34999990 -11.39000034 0.36000001 178 39 147 0.000000 0.000000 0.000000 0.000000 -60.708740 0.000000 179.000000 -0.428905 0.895778 0.116718
4.34000015 -11.42000008 0.38999999 178 39 147 0.000000 0.000000 0.000000 0.000000 -60.708740 0.000000 179.000000 -0.225453 0.963060 0.147261
4.32999992 -11.40999985 0.38000000 178 39 147 0.000000 0.000000 0.000000 0.000000 -60.708740 0.000000 179.000000 -0.350841 0.930608 -0.104304
4.34999990 -11.40999985 0.36000001 178 39 147 0.000000 0.000000 0.000000 0.000000 -60.708740 0.000000 179.000000 -0.292193 0.897343 -0.330756
4.34999990 -11.40999985 0.34000000 178 39 147 0.000000 0.000000 0.000000 0.000000 -60.708740 0.000000 179.000000 -0.669863 0.689048 -0.276578
4.34999990 -11.40999985 0.34999999 178 39 147 0.000000 0.000000 0.000000 0.000000 -60.708740 0.000000 179.000000 0.761551 -0.636853 0.120245
4.32000017 -11.42000008 0.36000001 178 39 147 0.000000 0.000000 0.000000 0.000000 -60.708740 0.000000 179.000000 -0.523918 0.847639 -0.083770
4.30999994 -11.42000008 0.38000000 178 39 147 0.000000 0.000000 0.000000 0.000000 -60.708740 0.000000 179.000000 -0.427989 0.759230 -0.490302
4.30999994 -11.42000008 0.38000000 178 39 147 0.000000 0.000000 0.000000 0.000000 -60.708740 0.000000 179.000000 -0.427989 0.759230 -0.490302
4.32000017 -11.42000008 0.37000000 178 39 147 0.000000 0.000000 0.000000 0.000000 -60.708740 0.000000 179.000000 -0.545914 0.837434 -0.026127
4.57999992 -11.27999973 0.22000000 178 39 147 0.000000 0.000000 0.000000 0.000000 -60.708740 0.000000 179.000000 0.074173 0.995247 0.063102
4.61000013 -11.27999973 0.20000000 178 39 147 0.000000 0.000000 0.000000 0.000000 -60.708740 0.000000 179.000000 0.058912 0.936041 0.346924
4.59000015 -11.27999973 0.20000000 178 39 147 0.000000 0.000000 0.000000 0.000000 -60.708740 0.000000 179.000000 -0.099028 0.842457 0.529585
4.61000013 -11.27999973 0.20999999 178 39 147 0.000000 0.000000 0.000000 0.000000 -60.708740 0.000000 179.000000 -0.102373 0.942630 0.317755
4.59999990 -11.27999973 0.17000000 178 39 147 0.000000 0.000000 0.000000 0.000000 -60.708740 0.000000 179.000000 -0.265723 0.963706 -0.025715
4.53999996 -11.27000046 0.20999999 178 39 147 0.000000 0.000000 0.000000 0.000000 -60.708740 0.000000 179.000000 0.000999 0.999780 0.020974
4.59000015 -11.31000042 0.28000000 178 39 147 0.000000 0.000000 0.000000 0.000000 -60.708740 0.000000 179.000000 0.064619 0.756757 0.650495
4.59999990 -11.31000042 0.25999999 178 39 147 0.000000 0.000000 0.000000 0.000000 -60.708740 0.000000 179.000000 0.129939 0.730346 0.670604
4.59999990 -11.28999996 0.23999999 178 39 147 0.000000 0.000000 0.000000 0.000000 -60.708740 0.000000 179.000000 -0.084679 0.892599 0.442829
4.61000013 -11.30000019 0.23999999 178 39 147 0.000000 0.000000 0.000000 0.000000 -60.708740 0.000000 179.000000 0.384265 0.551052 0.740731
4.57999992 -11.32999992 0.30000001 178 39 147 0.000000 0.000000 0.000000 0.000000 -60.708740 0.000000 179.000000 0.243450 0.623546 0.742915
4.57999992 -11.32999992 0.25999999 178 39 147 0.000000 0.000000 0.000000 0.000000 -60.708740 0.000000 179.000000 0.261755 0.629798 0.731327
4.53999996 -11.31999969 0.30000001 178 39 147 0.000000 0.000000 0.000000 0.000000 -60.708740 0.000000 179.000000 0.351705 0.842530 0.407978
4.57000017 -11.31000042 0.28000000 178 39 147 0.000000 0.000000 0.000000 0.000000 -60.708740 0.000000 179.000000 -0.032469 0.741145 0.670560
4.53999996 -11.35999966 0.31000000 178 39 147 0.000000 0.000000 0.000000 0.000000 -60.708740 0.000000 179.000000 0.718245 0.417738 0.556434
4.55000019 -11.32999992 0.28000000 178 39 147 0.000000 0.000000 0.000000 0.000000 -60.708740 0.000000 179.000000 0.015158 0.814384 0.580128
4.57000017 -11.35000038 0.28000000 178 39 147 0.000000 0.000000 0.000000 0.000000 -60.708740 0.000000 179.000000 0.389797 0.725318 0.567426
4.57000017 -11.32999992 0.27000001 178 39 147 0.000000 0.000000 0.000000 0.000000 -60.708740 0.000000 179.000000 0.090521 0.547439 0.831935
4.55000019 -11.32999992 0.27000001 178 39 147 0.000000 0.000000 0.000000 0.000000 -60.708740 0.000000 179.000000 -0.019012 0.941715 0.335874
4.59000015 -11.28999996 0.20999999 178 39 147 0.000000 0.000000 0.000000 0.000000 -60.708740 0.000000 179.000000 -0.255868 0.884315 0.390535
4.59000015 -11.28999996 0.23000000 178 39 147 0.000000 0.000000 0.000000 0.000000 -60.708740 0.000000 179.000000 0.112002 0.880424 0.460770
4.57999992 -11.28999996 0.20999999 178 39 147 0.000000 0.000000 0.000000 0.000000 -60.708740 0.000000 179.000000 -0.150161 0.864521 0.479641
4.57999992 -11.28999996 0.18000001 178 39 147 0.000000 0.000000 0.000000 0.000000 -60.708740 0.000000 179.000000 -0.055324 0.992444 0.109519
4.59000015 -11.32999992 0.15000001 178 39 147 0.000000 0.000000 0.000000 0.000000 -60.708740 0.000000 179.000000 -0.713960 0.696582 0.070962
4.57999992 -11.34000015 0.15000001 178 39 147 0.000000 0.000000 0.000000 0.000000 -60.708740 0.000000 179.000000 -0.605846 0.784474 -0.132482
4.57000017 -11.28999996 0.19000000 178 39 147 0.000000 0.000000 0.000000 0.000000 -60.708740 0.000000 179.000000 -0.134448 0.898677 0.417496
4.53999996 -11.31000042 0.20999999 178 39 147 0.000000 0.000000 0.000000 0.000000 -60.708740 0.000000 179.000000 -0.038782 0.993920 0.103049
4.57000017 -11.31999969 0.18000001 178 39 147 0.000000 0.000000 0.000000 0.000000 -60.708740 0.000000 179.000000 -0.103877 0.866594 0.488082
4.57000017 -11.31000042 0.16000000 178 39 147 0.000000 0.000000 0.000000 0.000000 -60.708740 0.000000 179.000000 0.567569 -0.781390 0.259415
4.53999996 -11.34000015 0.15000001 178 39 147 0.000000 0.000000 0.000000 0.000000 -60.708740 0.000000 179.000000 -0.644937 0.737734 -0.199513
4.55000019 -11.32999992 0.17000000 178 39 147 0.000000 0.000000 0.000000 0.000000 -60.708740 0.000000 179.000000 -0.485253 0.666593 -0.565848
4.53999996 -11.32999992 0.15000001 178 39 147 0.000000 0.000000 0.000000 0.000000 -60.708740 0.000000 179.000000 0.810584 -0.417283 0.410888
4.55000019 -11.36999989 0.17000000 178 39 147 0.000000 0.000000 0.000000 0.000000 -60.708740 0.000000 179.000000 0.722208 -0.021035 0.691356
4.55999994 -11.43999958 0.15000001 178 39 147 0.000000 0.000000 0.000000 0.000000 -60.708740 0.000000 179.000000 0.117182 0.671942 0.731275
4.53000021 -11.30000019 0.28999999 178 39 147 0.000000 0.000000 0.000000 0.000000 -60.708740 0.000000 179.000000 0.337342 0.861070 0.380473
4.53000021 -11.30000019 0.27000001 178 39 147 0.000000 0.000000 0.000000 0.000000 -60.708740 0.000000 179.000000 0.095120 0.861761 0.498317
4.50000000 -11.35999966 0.30000001 178 39 147 0.000000 0.000000 0.000000 0.000000 -60.708740 0.000000 179.000000 -0.164629 0.780854 0.602632
4.50000000 -11.35999966 0.28999999 178 39 147 0.000000 0.000000 0.000000 0.000000 -60.708740 0.000000 179.000000 -0.217876 0.951347 0.217876
4.50000000 -11.35000038 0.28000000 178 39 147 0.000000 0.000000 0.000000 0.000000 -60.708740 0.000000 179.000000 -0.033407 0.996830 0.072203
4.51000023 -11.35999966 0.28999999 178 39 147 0.000000 0.000000 0.000000 0.000000 -60.708740 0.000000 179.000000 0.268878 0.933330 0.237908
4.51999998 -11.34000015 0.23999999 178 39 147 0.000000 0.000000 0.000000 0.000000 -60.708740 0.000000 179.000000 -0.125304 0.868488 0.479613
4.51000023 -11.34000015 0.25000000 178 39 147 0.000000 0.000000 0.000000 0.000000 -60.708740 0.000000 179.000000 -0.229271 0.915641 0.330207
4.51999998 -11.34000015 0.23999999 178 39 147 0.000000 0.000000 0.000000 0.000000 -60.708740 0.000000 179.000000 -0.125304 0.868488 0.479613
4.51000023 -11.35999966 0.25999999 178 39 147 0.000000 0.000000 0.000000 0.000000 -60.708740 0.000000 179.000000 -0.028373 0.960997 0.275099
4.51000023 -11.35000038 0.27000001 178 39 147 0.000000 0.000000 0.000000 0.000000 -60.708740 0.000000 179.000000 0.087563 0.988874 0.120253
4.51000023 -11.34000015 0.25000000 178 39 147 0.000000 0.000000 0.000000 0.000000 -60.708740 0.000000 179.000000 -0.229271 0.915641 0.330207
4.51000023 -11.35000038 0.25999999 178 39 147 0.000000 0.000000 0.000000 0.000000 -60.708740 0.000000 179.000000 -0.163463 0.926293 0.339501
4.48000002 -11.35999966 0.28000000 178 39 147 0.000000 0.000000 0.000000 0.000000 -60.708740 0.000000 179.000000 -0.142350 0.987038 0.074116
4.48000002 -11.35999966 0.30000001 178 39 147 0.000000 0.000000 0.000000 0.000000 -60.708740 0.000000 179.000000 -0.442838 0.800328 0.404190
4.46999979 -11.35999966 0.28999999 178 39 147 0.000000 0.000000 0.000000 0.000000 -60.708740 0.000000 179.000000 -0.502569 0.728145 0.466079
4.46999979 -11.35999966 0.28000000 178 39 147 0.000000 0.000000 0.000000 0.000000 -60.708740 0.000000 179.000000 -0.542035 0.828560 0.140309
4.46999979 -11.35999966 0.25999999 178 39 147 0.000000 0.000000 0.000000 0.000000 -60.708740 0.000000 179.000000 -0.607086 0.794096 0.029308
4.48999977 -11.35000038 0.25000000 178 39 147 0.000000 0.000000 0.000000 0.000000 -60.708740 0.000000 179.000000 -0.525522 0.818335 -0.232709
4.46999979 -11.35000038 0.25000000 178 39 147 0.000000 0.000000 0.000000 0.000000 -60.708740 0.000000 179.000000 -0.414854 0.881751 -0.224527
4.48999977 -11.32999992 0.25999999 178 39 147 0.000000 0.000000 0.000000 0.000000 -60.708740 0.000000 179.000000 -0.534712 0.844210 0.037306
4.48999977 -11.35000038 0.27000001 178 39 147 0.000000 0.000000 0.000000 0.000000 -60.708740 0.000000 179.000000 -0.032741 0.920672 0.388961
4.46999979 -11.35999966 0.23999999 178 39 147 0.000000 0.000000 0.000000 0.000000 -60.708740 0.000000 179.000000 -0.301458 0.898434 -0.319278
4.48999977 -11.35999966 0.23999999 178 39 147 0.000000 0.000000 0.000000 0.000000 -60.708740 0.000000 179.000000 -0.341291 0.936227 0.083663
4.46999979 -11.35999966 0.25999999 178 39 147 0.000000 0.000000 0.000000 0.000000 -60.708740 0.000000 179.000000 -0.607086 0.794096 0.029308
4.53000021 -11.32999992 0.19000000 178 39 147 0.000000 0.000000 0.000000 0.000000 -60.708740 0.000000 179.000000 -0.307229 0.947834 -0.084978
4.50000000 -11.35999966 0.20999999 178 39 147 0.000000 0.000000 0.000000 0.000000 -60.708740 0.000000 179.000000 -0.422255 0.774406 -0.471165
4.53000021 -11.34000015 0.20999999 178 39 147 0.000000 0.000000 0.000000 0.000000 -60.708740 0.000000 179.000000 -0.559233 0.807781 0.186411
4.53000021 -11.35000038 0.20999999 178 39 147 0.000000 0.000000 0.000000 0.000000 -60.708740 0.000000 179.000000 -0.589335 0.787302 -0.181217
4.51000023 -11.32999992 0.15000001 178 39 147 0.000000 0.000000 0.000000 0.000000 -60.708740 0.000000 179.000000 0.748771 -0.659666 0.064673
4.51999998 -11.32999992 0.18000001 178 39 147 0.000000 0.000000 0.000000 0.000000 -60.708740 0.000000 179.000000 0.631593 -0.577697 0.517064
4.50000000 -11.35000038 0.17000000 178 39 147 0.000000 0.000000 0.000000 0.000000 -60.708740 0.000000 179.000000 0.945157 -0.215370 0.245549
4.51999998 -11.34000015 0.16000000 178 39 147 0.000000 0.000000 0.000000 0.000000 -60.708740 0.000000 179.000000 -0.664225 0.627784 -0.405823
4.51999998 -11.34000015 0.17000000 178 39 147 0.000000 0.000000 0.000000 0.000000 -60.708740 0.000000 179.000000 -0.419147 0.791363 -0.445040
4.48000002 -11.31999969 0.19000000 178 39 147 0.000000 0.000000 0.000000 0.000000 -60.708740 0.000000 179.000000 -0.427748 0.844608 -0.321978
4.48000002 -11.30000019 0.23000000 178 39 147 0.000000 0.000000 0.000000 0.000000 -60.708740 0.000000 179.000000 -0.382860 0.914688 0.129476
4.48000002 -11.35999966 0.23000000 178 39 147 0.000000 0.000000 0.000000 0.000000 -60.708740 0.000000 179.000000 -0.362010 0.915673 -0.174617
4.48999977 -11.35000038 0.23000000 178 39 147 0.000000 0.000000 0.000000 0.000000 -60.708740 0.000000 179.000000 -0.688236 0.697515 -0.199511
4.48999977 -11.35999966 0.22000000 178 39 147 0.000000 0.000000 0.000000 0.000000 -60.708740 0.000000 179.000000 -0.465342 0.853380 -0.234945
4.48999977 -11.35999966 0.23000000 178 39 147 0.000000 0.000000 0.000000 0.000000 -60.708740 0.000000 179.000000 -0.501714 0.859060 -0.101486
4.48999977 -11.34000015 0.15000001 178 39 147 0.000000 0.000000 0.000000 0.000000 -60.708740 0.000000 179.000000 0.662629 -0.435633 0.609218
4.46999979 -11.36999989 0.25999999 178 39 147 0.000000 0.000000 0.000000 0.000000 -60.708740 0.000000 179.000000 -0.651067 0.731484 0.202589
4.46000004 -11.36999989 0.28999999 178 39 147 0.000000 0.000000 0.000000 0.000000 -60.708740 0.000000 179.000000 -0.501617 0.851718 0.151515
4.51000023 -11.39000034 0.16000000 178 39 147 0.000000 0.000000 0.000000 0.000000 -60.708740 0.000000 179.000000 0.614396 0.079510 0.784981
4.50000000 -11.40999985 0.19000000 178 39 147 0.000000 0.000000 0.000000 0.000000 -60.708740 0.000000 179.000000 0.617190 0.037959 0.785898
4.53000021 -11.44999981 0.16000000 178 39 147 0.000000 0.000000 0.000000 0.000000 -60.708740 0.000000 179.000000 0.136526 0.655625 0.742642
4.53000021 -11.44999981 0.16000000 178 39 147 0.000000 0.000000 0.000000 0.000000 -60.708740 0.000000 179.000000 0.136526 0.655625 0.742642
4.50000000 -11.43999958 0.15000001 178 39 147 0.000000 0.000000 0.000000 0.000000 -60.708740 0.000000 179.000000 0.306601 0.312526 0.899068
4.46000004 -11.39000034 0.20000000 178 39 147 0.000000 0.000000 0.000000 0.000000 -60.708740 0.000000 179.000000 0.446401 -0.105615 0.888578
4.46999979 -11.38000011 0.15000001 178 39 147 0.000000 0.000000 0.000000 0.000000 -60.708740 0.000000 179.000000 0.577943 -0.160623 0.800114
4.48000002 -11.42000008 0.20999999 178 39 147 0.000000 0.000000 0.000000 0.000000 -60.708740 0.000000 179.000000 0.672448 0.166206 0.721242
4.46000004 -11.43999958 0.19000000 178 39 147 0.000000 0.000000 0.000000 0.000000 -60.708740 0.000000 179.000000 0.733994 0.169383 0.657695
4.46000004 -11.43999958 0.19000000 178 39 147 0.000000 0.000000 0.000000 0.000000 -60.708740 0.000000 179.000000 0.733994 0.169383 0.657695
4.46999979 -11.42000008 0.17000000 178 39 147 0.000000 0.000000 0.000000 0.000000 -60.708740 0.000000 179.000000 0.390178 0.006439 0.920717
4.46000004 -11.40999985 0.16000000 178 39 147 0.000000 0.000000 0.000000 0.000000 -60.708740 0.000000 179.000000 0.609231 0.154940 0.777709
4.46999979 -11.40999985 0.15000001 178 39 147 0.000000 0.000000 0.000000 0.000000 -60.708740 0.000000 179.000000 0.672704 0.308121 0.672704
4.46000004 -11.42000008 0.18000001 178 39 147 0.000000 0.000000 0.000000 0.000000 -60.708740 0.000000 179.000000 0.548901 0.121490 0.827011
4.48999977 -11.43000031 0.15000001 178 39 147 0.000000 0.000000 0.000000 0.000000 -60.708740 0.000000 179.000000 0.738366 0.136291 0.660485
4.59000015 -11.31000042 0.13000000 178 39 147 0.000000 0.000000 0.000000 0.000000 -60.708740 0.000000 179.000000 -0.457238 0.889296 0.009277
4.59999990 -11.30000019 0.12000000 178 39 147 0.000000 0.000000 0.000000 0.000000 -60.708740 0.000000 179.000000 0.735573 -0.675817 -0.046951
4.59000015 -11.31000042 0.11000000 178 39 147 0.000000 0.000000 0.000000 0.000000 -60.708740 0.000000 179.000000 -0.387172 0.798442 -0.461072
4.59999990 -11.31000042 0.14000000 178 39 147 0.000000 0.000000 0.000000 0.000000 -60.708740 0.000000 179.000000 -0.190644 0.981291 -0.026901
4.59999990 -11.31000042 0.14000000 178 39 147 0.000000 0.000000 0.000000 0.000000 -60.708740 0.000000 179.000000 -0.190644 0.981291 -0.026901
4.59000015 -11.31000042 0.11000000 178 39 147 0.000000 0.000000 0.000000 0.000000 -60.708740 0.000000 179.000000 -0.387172 0.798442 -0.461072
4.59999990 -11.31000042 0.11000000 178 39 147 0.000000 0.000000 0.000000 0.000000 -60.708740 0.000000 179.000000 0.863929 -0.429687 0.262671
4.61000013 -11.28999996 0.09000000 178 39 147 0.000000 0.000000 0.000000 0.000000 -60.708740 0.000000 179.000000 -0.484224 0.872713 -0.062436
4.61000013 -11.28999996 0.09000000 178 39 147 0.000000 0.000000 0.000000 0.000000 -60.708740 0.000000 179.000000 -0.484224 0.872713 -0.062436
4.59000015 -11.31000042 0.09000000 178 39 147 0.000000 0.000000 0.000000 0.000000 -60.708740 0.000000 179.000000 0.867973 -0.028525 0.495791
4.57999992 -11.32999992 0.13000000 178 39 147 0.000000 0.000000 0.000000 0.000000 -60.708740 0.000000 179.000000 0.773679 -0.374675 0.510920
4.57999992 -11.35000038 0.13000000 178 39 147 0.000000 0.000000 0.000000 0.000000 -60.708740 0.000000 179.000000 0.594867 0.271259 0.756671
4.57999992 -11.34000015 0.12000000 178 39 147 0.000000 0.000000 0.000000 0.000000 -60.708740 0.000000 179.000000 0.835424 -0.336991 0.434170
4.57999992 -11.34000015 0.12000000 178 39 147 0.000000 0.000000 0.000000 0.000000 -60.708740 0.000000 179.000000 0.835424 -0.336991 0.434170
4.59000015 -11.35999966 0.11000000 178 39 147 0.000000 0.000000 0.000000 0.000000 -60.708740 0.000000 179.000000 0.652709 0.091993 0.752003
4.55999994 -11.35000038 0.13000000 178 39 147 0.000000 0.000000 0.000000 0.000000 -60.708740 0.000000 179.000000 0.432383 -0.270430 0.860182
4.57000017 -11.32999992 0.14000000 178 39 147 0.000000 0.000000 0.000000 0.000000 -60.708740 0.000000 179.000000 0.619047 -0.655755 0.432165
4.53999996 -11.34000015 0.14000000 178 39 147 0.000000 0.000000 0.000000 0.000000 -60.708740 0.000000 179.000000 0.738239 -0.004155 0.674526
4.59000015 -11.32999992 0.06000000 178 39 147 0.000000 0.000000 0.000000 0.000000 -60.708740 0.000000 179.000000 0.863912 -0.110317 0.491413
4.61000013 -11.34000015 0.04000000 178 39 147 0.000000 0.000000 0.000000 0.000000 -60.708740 0.000000 179.000000 0.696392 0.308610 0.647919
4.61000013 -11.39000034 0.09000000 178 39 147 0.000000 0.000000 0.000000 0.000000 -60.708740 0.000000 179.000000 0.422540 0.521188 0.741501
4.59999990 -11.44999981 0.13000000 178 39 147 0.000000 0.000000 0.000000 0.000000 -60.708740 0.000000 179.000000 0.097541 0.955902 0.277016
4.61000013 -11.44999981 0.13000000 178 39 147 0.000000 0.000000 0.000000 0.000000 -60.708740 0.000000 179.000000 -0.188867 0.826481 0.530338
4.57999992 -11.44999981 0.13000000 178 39 147 0.000000 0.000000 0.000000 0.000000 -60.708740 0.000000 179.000000 0.083972 0.954692 0.285503
4.59999990 -11.44999981 0.14000000 178 39 147 0.000000 0.000000 0.000000 0.000000 -60.708740 0.000000 179.000000 -0.115168 0.983168 0.141838
4.59999990 -11.44999981 0.13000000 178 39 147 0.000000 0.000000 0.000000 0.000000 -60.708740 0.000000 179.000000 0.097541 0.955902 0.277016
4.57999992 -11.44999981 0.13000000 178 39 147 0.000000 0.000000 0.000000 0.000000 -60.708740 0.000000 179.000000 0.083972 0.954692 0.285503
4.61000013 -11.40999985 0.11000000 178 39 147 0.000000 0.000000 0.000000 0.000000 -60.708740 0.000000 179.000000 -0.194943 0.832662 0.518336
4.55000019 -11.36999989 0.13000000 178 39 147 0.000000 0.000000 0.000000 0.000000 -60.708740 0.000000 179.000000 0.476305 0.009339 0.879230
4.57000017 -11.36999989 0.10000000 178 39 147 0.000000 0.000000 0.000000 0.000000 -60.708740 0.000000 179.000000 0.737810 0.493524 0.460512
4.55000019 -11.43999958 0.14000000 178 39 147 0.000000 0.000000 0.000000 0.000000 -60.708740 0.000000 179.000000 0.349976 0.803827 0.481018
4.55999994 -11.40999985 0.11000000 178 39 147 0.000000 0.000000 0.000000 0.000000 -60.708740 0.000000 179.000000 0.415784 0.854753 0.310679
4.53999996 -11.40999985 0.14000000 178 39 147 0.000000 0.000000 0.000000 0.000000 -60.708740 0.000000 179.000000 0.339862 0.533148 0.774756
4.53999996 -11.40999985 0.13000000 178 39 147 0.000000 0.000000 0.000000 0.000000 -60.708740 0.000000 179.000000 0.283791 0.469884 0.835866
4.55000019 -11.43999958 0.14000000 178 39 147 0.000000 0.000000 0.000000 0.000000 -60.708740 0.000000 179.000000 0.349976 0.803827 0.481018
4.51000023 -11.35999966 0.13000000 178 39 147 0.000000 0.000000 0.000000 0.000000 -60.708740 0.000000 179.000000 0.487897 -0.264859 0.831749
4.51999998 -11.39999962 0.12000000 178 39 147 0.000000 0.000000 0.000000 0.000000 -60.708740 0.000000 179.000000 0.399614 0.180331 0.898771
4.53000021 -11.40999985 0.11000000 178 39 147 0.000000 0.000000 0.000000 0.000000 -60.708740 0.000000 179.000000 0.375166 0.451796 0.809401
4.53000021 -11.43999958 0.12000000 178 39 147 0.000000 0.000000 0.000000 0.000000 -60.708740 0.000000 179.000000 -0.001349 0.538096 0.842882
4.48000002 -11.39999962 0.14000000 178 39 147 0.000000 0.000000 0.000000 0.000000 -60.708740 0.000000 179.000000 0.445613 0.282170 0.849594
4.44999981 -11.32999992 0.31000000 178 39 147 0.000000 0.000000 0.000000 0.000000 -60.708740 0.000000 179.000000 0.065427 0.870042 0.488616
4.44000006 -11.35999966 0.31000000 178 39 147 0.000000 0.000000 0.000000 0.000000 -60.708740 0.000000 179.000000 0.005702 0.984235 0.176775
4.44000006 -11.35000038 0.22000000 178 39 147 0.000000 0.000000 0.000000 0.000000 -60.708740 0.000000 179.000000 0.837491 -0.545951 -0.023378
4.44000006 -11.39000034 0.31000000 178 39 147 0.000000 0.000000 0.000000 0.000000 -60.708740 0.000000 179.000000 -0.003270 0.992913 0.118801
4.42999983 -11.38000011 0.28999999 178 39 147 0.000000 0.000000 0.000000 0.000000 -60.708740 0.000000 179.000000 -0.592010 0.803137 0.067047
4.44999981 -11.36999989 0.30000001 178 39 147 0.000000 0.000000 0.000000 0.000000 -60.708740 0.000000 179.000000 -0.458509 0.858001 -0.231524
4.44999981 -11.36999989 0.30000001 178 39 147 0.000000 0.000000 0.000000 0.000000 -60.708740 0.000000 179.000000 -0.458509 0.858001 -0.231524
4.40999985 -11.39000034 0.30000001 178 39 147 0.000000 0.000000 0.000000 0.000000 -60.708740 0.000000 179.000000 -0.421964 0.816859 -0.393303
4.44000006 -11.36999989 0.28000000 178 39 147 0.000000 0.000000 0.000000 0.000000 -60.708740 0.000000 179.000000 -0.689415 0.676736 0.258332
4.42999983 -11.39000034 0.31000000 178 39 147 0.000000 0.000000 0.000000 0.000000 -60.708740 0.000000 179.000000 -0.202385 0.978785 -0.031955
4.44000006 -11.36999989 0.28999999 178 39 147 0.000000 0.000000 0.000000 0.000000 -60.708740 0.000000 179.000000 -0.664509 0.740789 0.098283
4.42000008 -11.39000034 0.28999999 178 39 147 0.000000 0.000000 0.000000 0.000000 -60.708740 0.000000 179.000000 -0.429568 0.902755 0.022470
4.44000006 -11.39000034 0.31000000 178 39 147 0.000000 0.000000 0.000000 0.000000 -60.708740 0.000000 179.000000 -0.003270 0.992913 0.118801
4.44999981 -11.36999989 0.23999999 178 39 147 0.000000 0.000000 0.000000 0.000000 -60.708740 0.000000 179.000000 -0.440979 0.762288 -0.473766
4.40999985 -11.42000008 0.30000001 178 39 147 0.000000 0.000000 0.000000 0.000000 -60.708740 0.000000 179.000000 0.499232 -0.643790 0.579915
4.40999985 -11.43999958 0.23999999 178 39 147 0.000000 0.000000 0.000000 0.000000 -60.708740 0.000000 179.000000 0.680486 -0.067904 0.729608
4.40000010 -11.39000034 0.30000001 178 39 147 0.000000 0.000000 0.000000 0.000000 -60.708740 0.000000 179.000000 0.766062 -0.641453 -0.041064
4.40000010 -11.39999962 0.30000001 178 39 147 0.000000 0.000000 0.000000 0.000000 -60.708740 0.000000 179.000000 -0.546168 0.822972 -0.156261
4.38000011 -11.38000011 0.25999999 178 39 147 0.000000 0.000000 0.000000 0.000000 -60.708740 0.000000 179.000000 -0.421240 0.758887 -0.496637
4.38999987 -11.40999985 0.30000001 178 39 147 0.000000 0.000000 0.000000 0.000000 -60.708740 0.000000 179.000000 0.714597 -0.617373 0.328941
4.38999987 -11.43000031 0.25999999 178 39 147 0.000000 0.000000 0.000000 0.000000 -60.708740 0.000000 179.000000 0.690128 -0.286619 0.664509
4.40000010 -11.43000031 0.23999999 178 39 147 0.000000 0.000000 0.000000 0.000000 -60.708740 0.000000 179.000000 0.702617 -0.026753 0.711065
4.36999989 -11.43999958 0.27000001 178 39 147 0.000000 0.000000 0.000000 0.000000 -60.708740 0.000000 179.000000 0.918346 -0.165048 0.359721
4.36999989 -11.43000031 0.27000001 178 39 147 0.000000 0.000000 0.000000 0.000000 -60.708740 0.000000 179.000000 0.758866 -0.362371 0.541119
4.36999989 -11.43999958 0.27000001 178 39 147 0.000000 0.000000 0.000000 0.000000 -60.708740 0.000000 179.000000 0.918346 -0.165048 0.359721
4.44999981 -11.39000034 0.22000000 178 39 147 0.000000 0.000000 0.000000 0.000000 -60.708740 0.000000 179.000000 -0.632175 0.547885 -0.547885
4.40999985 -11.36999989 0.22000000 178 39 147 0.000000 0.000000 0.000000 0.000000 -60.708740 0.000000 179.000000 0.606686 -0.354854 0.711344
4.42999983 -11.38000011 0.18000001 178 39 147 0.000000 0.000000 0.000000 0.000000 -60.708740 0.000000 179.000000 0.868926 -0.329487 0.369332
4.44000006 -11.42000008 0.20000000 178 39 147 0.000000 0.000000 0.000000 0.000000 -60.708740 0.000000 179.000000 0.507482 -0.197271 0.838776
4.44000006 -11.42000008 0.20000000 178 39 147 0.000000 0.000000 0.000000 0.000000 -60.708740 0.000000 179.000000 0.507482 -0.197271 0.838776
4.40999985 -11.40999985 0.23000000 178 39 147 0.000000 0.000000 0.000000 0.000000 -60.708740 0.000000 179.000000 0.723389 -0.159237 0.671827
4.44000006 -11.43000031 0.20999999 178 39 147 0.000000 0.000000 0.000000 0.000000 -60.708740 0.000000 179.000000 0.797903 0.401369 0.449727
4.42000008 -11.43999958 0.20000000 178 39 147 0.000000 0.000000 0.000000 0.000000 -60.708740 0.000000 179.000000 0.316659 0.513975 0.797218
4.44000006 -11.40999985 0.20000000 178 39 147 0.000000 0.000000 0.000000 0.000000 -60.708740 0.000000 179.000000 0.494627 -0.213279 0.842530
4.36999989 -11.40999985 0.22000000 178 39 147 0.000000 0.000000 0.000000 0.000000 -60.708740 0.000000 179.000000 0.952475 -0.122857 0.278741
4.38000011 -11.43000031 0.22000000 178 39 147 0.000000 0.000000 0.000000 0.000000 -60.708740 0.000000 179.000000 0.877034 -0.177164 0.446570
