//X Y Z R G B PointSourceId ScanDirectionFlag NumberOfReturns ReturnNumber GpsTime Intensity Classification Nx Ny Nz
-0.25000000 -8.52000046 -0.31999999 95 228 94 0.000000 0.000000 0.000000 0.000000 -60.708740 0.000000 134.000000 0.912791 -0.379507 0.150956
-0.25000000 -8.52999973 -0.33000001 95 228 94 0.000000 0.000000 0.000000 0.000000 -60.708740 0.000000 134.000000 0.948379 -0.087643 0.304789
-0.25000000 -8.60999966 -0.04000000 95 228 94 0.000000 0.000000 0.000000 0.000000 -60.708740 0.000000 134.000000 0.179217 0.968289 -0.174060
-0.18000001 -8.43999958 -0.38000000 95 228 94 0.000000 0.000000 0.000000 0.000000 -60.708740 0.000000 134.000000 -0.607648 0.614381 -0.503288
-0.20000000 -8.43999958 -0.37000000 95 228 94 0.000000 0.000000 0.000000 0.000000 -60.708740 0.000000 134.000000 0.709495 -0.628687 0.318384
-0.18000001 -8.47000027 -0.37000000 95 228 94 0.000000 0.000000 0.000000 0.000000 -60.708740 0.000000 134.000000 0.787039 -0.593678 0.167680
-0.22000000 -8.51000023 -0.40000001 95 228 94 0.000000 0.000000 0.000000 0.000000 -60.708740 0.000000 134.000000 0.588396 -0.445048 0.675072
-0.22000000 -8.48999977 -0.40000001 95 228 94 0.000000 0.000000 0.000000 0.000000 -60.708740 0.000000 134.000000 0.881334 -0.331067 0.337114
-0.23000000 -8.59000015 -0.41999999 95 228 94 0.000000 0.000000 0.000000 0.000000 -60.708740 0.000000 134.000000 0.860119 0.415494 0.295905
-0.23000000 -8.55000019 -0.38999999 95 228 94 0.000000 0.000000 0.000000 0.000000 -60.708740 0.000000 134.000000 0.950922 -0.065625 0.302391
-0.19000000 -8.57999992 -0.47000000 95 228 94 0.000000 0.000000 0.000000 0.000000 -60.708740 0.000000 134.000000 0.930502 0.203503 0.304553
-0.20000000 -8.59000015 -0.50000000 95 228 94 0.000000 0.000000 0.000000 0.000000 -60.708740 0.000000 134.000000 0.968446 -0.224659 -0.107887
-0.20000000 -8.59000015 -0.56000000 95 228 94 0.000000 0.000000 0.000000 0.000000 -60.708740 0.000000 134.000000 0.870897 0.042516 0.489623
-0.17000000 -8.52999973 -0.57999998 95 228 94 0.000000 0.000000 0.000000 0.000000 -60.708740 0.000000 134.000000 0.870893 -0.300466 0.388928
-0.20000000 -8.53999996 -0.52999997 95 228 94 0.000000 0.000000 0.000000 0.000000 -60.708740 0.000000 134.000000 0.903843 -0.427862 0.001300
-0.16000000 -8.65999985 -0.38000000 95 228 94 0.000000 0.000000 0.000000 0.000000 -60.708740 0.000000 134.000000 0.670510 0.576872 -0.466514
-0.12000000 -8.69999981 -0.50999999 95 228 94 0.000000 0.000000 0.000000 0.000000 -60.708740 0.000000 134.000000 0.519635 0.854361 -0.006749
-0.11000000 -8.68999958 -0.49000001 95 228 94 0.000000 0.000000 0.000000 0.000000 -60.708740 0.000000 134.000000 0.260800 0.931830 -0.252341
-0.20000000 -8.64999962 -0.44999999 95 228 94 0.000000 0.000000 0.000000 0.000000 -60.708740 0.000000 134.000000 0.814583 0.490011 0.310393
-0.20000000 -8.64999962 -0.44999999 95 228 94 0.000000 0.000000 0.000000 0.000000 -60.708740 0.000000 134.000000 0.814583 0.490011 0.310393
-0.10000000 -8.69999981 -0.55000001 95 228 94 0.000000 0.000000 0.000000 0.000000 -60.708740 0.000000 134.000000 0.504891 0.834366 0.221176
-0.10000000 -8.72000027 -0.60000002 95 228 94 0.000000 0.000000 0.000000 0.000000 -60.708740 0.000000 134.000000 0.414506 0.878393 -0.237929
0.09000000 -8.56999969 -0.75999999 95 228 94 0.000000 0.000000 0.000000 0.000000 -60.708740 0.000000 134.000000 0.803533 0.508746 -0.309051
0.11000000 -8.50000000 -0.94000000 95 228 94 0.000000 0.000000 0.000000 0.000000 -60.708740 0.000000 134.000000 0.231749 0.852777 -0.468043
0.12000000 -8.53999996 -0.89999998 95 228 94 0.000000 0.000000 0.000000 0.000000 -60.708740 0.000000 134.000000 0.680133 0.617249 -0.395503
0.11000000 -8.52999973 -0.92000002 95 228 94 0.000000 0.000000 0.000000 0.000000 -60.708740 0.000000 134.000000 0.512306 0.821856 -0.249188
0.11000000 -8.52000046 -0.91000003 95 228 94 0.000000 0.000000 0.000000 0.000000 -60.708740 0.000000 134.000000 0.321973 0.830846 -0.453903
0.12000000 -8.56000042 -0.86000001 95 228 94 0.000000 0.000000 0.000000 0.000000 -60.708740 0.000000 134.000000 0.720500 0.684993 -0.108001
0.12000000 -8.52999973 -1.00000000 95 228 94 0.000000 0.000000 0.000000 0.000000 -60.708740 0.000000 134.000000 0.656746 0.722265 -0.216835
0.10000000 -8.61999989 -0.76999998 95 228 94 0.000000 0.000000 0.000000 0.000000 -60.708740 0.000000 134.000000 0.948665 0.316222 -0.006200
0.15000001 -8.61999989 -0.81000000 95 228 94 0.000000 0.000000 0.000000 0.000000 -60.708740 0.000000 134.000000 0.972200 0.232509 0.027708
0.10000000 -8.68999958 -0.81000000 95 228 94 0.000000 0.000000 0.000000 0.000000 -60.708740 0.000000 134.000000 0.999999 0.000978 0.000978
0.10000000 -8.69999981 -0.81000000 95 228 94 0.000000 0.000000 0.000000 0.000000 -60.708740 0.000000 134.000000 0.995376 0.009664 0.095565
0.10000000 -8.69999981 -0.80000001 95 228 94 0.000000 0.000000 0.000000 0.000000 -60.708740 0.000000 134.000000 0.888298 0.261264 0.377713
0.09000000 -8.68999958 -0.79000002 95 228 94 0.000000 0.000000 0.000000 0.000000 -60.708740 0.000000 134.000000 0.762109 0.645300 -0.052707
0.15000001 -8.65999985 -0.87000000 95 228 94 0.000000 0.000000 0.000000 0.000000 -60.708740 0.000000 134.000000 0.946566 0.291354 -0.138293
0.14000000 -8.69999981 -0.87000000 95 228 94 0.000000 0.000000 0.000000 0.000000 -60.708740 0.000000 134.000000 0.889612 0.377005 0.257794
0.13000000 -8.71000004 -0.91000003 95 228 94 0.000000 0.000000 0.000000 0.000000 -60.708740 0.000000 134.000000 0.959745 0.194597 -0.202539
0.11000000 -8.73999977 -0.89999998 95 228 94 0.000000 0.000000 0.000000 0.000000 -60.708740 0.000000 134.000000 0.914710 -0.082908 0.395514
0.01000000 -8.48999977 -0.75999999 95 228 94 0.000000 0.000000 0.000000 0.000000 -60.708740 0.000000 134.000000 0.464772 0.774620 -0.428895
-0.04000000 -8.50000000 -0.75000000 95 228 94 0.000000 0.000000 0.000000 0.000000 -60.708740 0.000000 134.000000 0.059447 0.872350 -0.485254
-0.01000000 -8.47000027 -0.83999997 95 228 94 0.000000 0.000000 0.000000 0.000000 -60.708740 0.000000 134.000000 0.293876 0.950157 -0.104109
-0.02000000 -8.51000023 -0.83999997 95 228 94 0.000000 0.000000 0.000000 0.000000 -60.708740 0.000000 134.000000 -0.107106 0.779089 -0.617696
-0.05000000 -8.51000023 -0.85000002 95 228 94 0.000000 0.000000 0.000000 0.000000 -60.708740 0.000000 134.000000 -0.173719 0.799109 -0.575540
0.08000000 -8.47999954 -0.88999999 95 228 94 0.000000 0.000000 0.000000 0.000000 -60.708740 0.000000 134.000000 0.600509 0.741429 -0.299454
0.02000000 -8.46000004 -0.86000001 95 228 94 0.000000 0.000000 0.000000 0.000000 -60.708740 0.000000 134.000000 0.231834 0.950382 -0.207430
0.04000000 -8.50000000 -0.94000000 95 228 94 0.000000 0.000000 0.000000 0.000000 -60.708740 0.000000 134.000000 0.153728 0.953111 -0.260668
0.01000000 -8.48999977 -0.94000000 95 228 94 0.000000 0.000000 0.000000 0.000000 -60.708740 0.000000 134.000000 0.127861 0.818605 -0.559944
0.03000000 -8.48999977 -0.94000000 95 228 94 0.000000 0.000000 0.000000 0.000000 -60.708740 0.000000 134.000000 -0.076614 0.761800 -0.643266
0.07000000 -8.51000023 -1.01999998 95 228 94 0.000000 0.000000 0.000000 0.000000 -60.708740 0.000000 134.000000 0.169609 0.923739 -0.343423
0.08000000 -8.52000046 -1.00000000 95 228 94 0.000000 0.000000 0.000000 0.000000 -60.708740 0.000000 134.000000 0.234624 0.945356 -0.226392
-0.08000000 -8.55000019 -0.88000000 95 228 94 0.000000 0.000000 0.000000 0.000000 -60.708740 0.000000 134.000000 -0.159474 0.941851 -0.295777
0.08000000 -8.71000004 -0.75000000 95 228 94 0.000000 0.000000 0.000000 0.000000 -60.708740 0.000000 134.000000 0.787434 -0.164742 0.593976
0.02000000 -8.72000027 -0.70999998 95 228 94 0.000000 0.000000 0.000000 0.000000 -60.708740 0.000000 134.000000 -0.468138 0.821212 -0.326278
0.01000000 -8.75000000 -0.70999998 95 228 94 0.000000 0.000000 0.000000 0.000000 -60.708740 0.000000 134.000000 0.046677 0.913529 -0.404087
0.02000000 -8.72999954 -0.72000003 95 228 94 0.000000 0.000000 0.000000 0.000000 -60.708740 0.000000 134.000000 -0.606882 0.689563 -0.395217
0.00000000 -8.73999977 -0.80000001 95 228 94 0.000000 0.000000 0.000000 0.000000 -60.708740 0.000000 134.000000 0.237033 0.946761 -0.217851
-0.03000000 -8.76000023 -0.81000000 95 228 94 0.000000 0.000000 0.000000 0.000000 -60.708740 0.000000 134.000000 0.897054 0.441196 0.025325
0.12000000 -8.55000019 -1.03999996 95 228 94 0.000000 0.000000 0.000000 0.000000 -60.708740 0.000000 134.000000 0.550536 0.803443 -0.226691
0.17000000 -8.75000000 -1.12000000 95 228 94 0.000000 0.000000 0.000000 0.000000 -60.708740 0.000000 134.000000 0.897191 0.441307 -0.017228
0.06000000 -8.50000000 -1.11000001 95 228 94 0.000000 0.000000 0.000000 0.000000 -60.708740 0.000000 134.000000 0.081053 0.971395 -0.223209
0.05000000 -8.48999977 -1.10000002 95 228 94 0.000000 0.000000 0.000000 0.000000 -60.708740 0.000000 134.000000 0.019701 0.910190 -0.413723
-0.03000000 -8.56999969 -1.05999994 95 228 94 0.000000 0.000000 0.000000 0.000000 -60.708740 0.000000 134.000000 -0.254596 0.919133 -0.300624
0.00000000 -8.57999992 -1.11000001 95 228 94 0.000000 0.000000 0.000000 0.000000 -60.708740 0.000000 134.000000 -0.118414 0.932344 -0.341633
-0.05000000 -8.57999992 -1.07000005 95 228 94 0.000000 0.000000 0.000000 0.000000 -60.708740 0.000000 134.000000 -0.290212 0.668610 -0.684644
-0.04000000 -8.57999992 -1.13000000 95 228 94 0.000000 0.000000 0.000000 0.000000 -60.708740 0.000000 134.000000 -0.300473 0.942207 -0.148197
-0.05000000 -8.59000015 -1.15999997 95 228 94 0.000000 0.000000 0.000000 0.000000 -60.708740 0.000000 134.000000 -0.477450 0.875556 -0.073775
0.09000000 -8.77999973 -1.00000000 95 228 94 0.000000 0.000000 0.000000 0.000000 -60.708740 0.000000 134.000000 0.871318 0.487441 0.056615
-0.01000000 -8.77000046 -0.79000002 95 228 94 0.000000 0.000000 0.000000 0.000000 -60.708740 0.000000 134.000000 0.164651 0.900571 -0.402322
0.06000000 -8.77000046 -1.00000000 95 228 94 0.000000 0.000000 0.000000 0.000000 -60.708740 0.000000 134.000000 -0.439646 0.786820 -0.433157
0.00000000 -8.80000019 -1.00999999 95 228 94 0.000000 0.000000 0.000000 0.000000 -60.708740 0.000000 134.000000 0.908249 -0.017038 0.418083
0.10000000 -8.78999996 -1.07000005 95 228 94 0.000000 0.000000 0.000000 0.000000 -60.708740 0.000000 134.000000 0.762770 0.618504 0.188774
0.01000000 -8.81000042 -1.03999996 95 228 94 0.000000 0.000000 0.000000 0.000000 -60.708740 0.000000 134.000000 0.948799 0.313726 0.036834
0.01000000 -8.80000019 -1.02999997 95 228 94 0.000000 0.000000 0.000000 0.000000 -60.708740 0.000000 134.000000 0.970614 0.164966 0.175197
-0.02000000 -8.77000046 -1.04999995 95 228 94 0.000000 0.000000 0.000000 0.000000 -60.708740 0.000000 134.000000 0.757442 -0.592297 0.274712
-0.05000000 -8.80000019 -1.04999995 95 228 94 0.000000 0.000000 0.000000 0.000000 -60.708740 0.000000 134.000000 0.926553 -0.139466 0.349356
-0.11000000 -8.47000027 -0.72000003 95 228 94 0.000000 0.000000 0.000000 0.000000 -60.708740 0.000000 134.000000 0.424772 -0.614670 0.664643
-0.12000000 -8.52000046 -0.76999998 95 228 94 0.000000 0.000000 0.000000 0.000000 -60.708740 0.000000 134.000000 -0.344777 0.684652 -0.642168
-0.15000001 -8.56999969 -0.81000000 95 228 94 0.000000 0.000000 0.000000 0.000000 -60.708740 0.000000 134.000000 0.747685 -0.663518 -0.026653
-0.11000000 -8.52999973 -0.86000001 95 228 94 0.000000 0.000000 0.000000 0.000000 -60.708740 0.000000 134.000000 -0.243737 0.893701 -0.376684
-0.09000000 -8.59000015 -1.00999999 95 228 94 0.000000 0.000000 0.000000 0.000000 -60.708740 0.000000 134.000000 0.387427 -0.621531 0.680882
-0.15000001 -8.65999985 -0.72000003 95 228 94 0.000000 0.000000 0.000000 0.000000 -60.708740 0.000000 134.000000 0.827370 -0.506899 0.241894
-0.15000001 -8.67000008 -0.82999998 95 228 94 0.000000 0.000000 0.000000 0.000000 -60.708740 0.000000 134.000000 0.840058 -0.505241 0.197572
-0.13000000 -8.68000031 -0.97000003 95 228 94 0.000000 0.000000 0.000000 0.000000 -60.708740 0.000000 134.000000 0.720592 -0.678470 0.142915
-0.12000000 -8.75000000 -1.01999998 95 228 94 0.000000 0.000000 0.000000 0.000000 -60.708740 0.000000 134.000000 0.888694 -0.235897 0.393162
-0.11000000 -8.60999966 -1.03999996 95 228 94 0.000000 0.000000 0.000000 0.000000 -60.708740 0.000000 134.000000 -0.447385 0.887714 -0.108671
-0.10000000 -8.60999966 -1.04999995 95 228 94 0.000000 0.000000 0.000000 0.000000 -60.708740 0.000000 134.000000 0.721277 -0.682610 0.117486
-0.11000000 -8.60999966 -1.03999996 95 228 94 0.000000 0.000000 0.000000 0.000000 -60.708740 0.000000 134.000000 -0.447385 0.887714 -0.108671
-0.10000000 -8.73999977 -1.02999997 95 228 94 0.000000 0.000000 0.000000 0.000000 -60.708740 0.000000 134.000000 0.865817 -0.262323 0.426085
0.30000001 -8.68999958 -0.75999999 95 228 94 0.000000 0.000000 0.000000 0.000000 -60.708740 0.000000 143.000000 0.937563 0.347293 0.019082
0.30000001 -8.72000027 -0.81999999 95 228 94 0.000000 0.000000 0.000000 0.000000 -60.708740 0.000000 143.000000 0.852452 0.440818 0.281079
0.27000001 -8.76000023 -0.89999998 95 228 94 0.000000 0.000000 0.000000 0.000000 -60.708740 0.000000 143.000000 0.932779 0.337330 0.127011
0.30000001 -8.77999973 -0.76999998 95 228 94 0.000000 0.000000 0.000000 0.000000 -60.708740 0.000000 143.000000 0.999991 0.002950 0.002950
-0.19000000 -8.43000031 0.60000002 95 228 94 0.000000 0.000000 0.000000 0.000000 -60.708740 0.000000 134.000000 0.741434 -0.497042 0.450805
-0.17000000 -8.42000008 0.40000001 95 228 94 0.000000 0.000000 0.000000 0.000000 -60.708740 0.000000 134.000000 0.703826 -0.709490 0.035404
-0.22000000 -8.40999985 0.47000000 95 228 94 0.000000 0.000000 0.000000 0.000000 -60.708740 0.000000 134.000000 -0.219537 0.849381 -0.479953
-0.20000000 -8.42000008 0.38999999 95 228 94 0.000000 0.000000 0.000000 0.000000 -60.708740 0.000000 134.000000 -0.602822 0.743534 -0.289419
-0.23999999 -8.43000031 0.38000000 95 228 94 0.000000 0.000000 0.000000 0.000000 -60.708740 0.000000 134.000000 -0.290021 0.787653 -0.543591
-0.27000001 -8.36999989 0.58999997 95 228 94 0.000000 0.000000 0.000000 0.000000 -60.708740 0.000000 134.000000 -0.551100 0.779798 -0.296990
-0.28000000 -8.42000008 0.49000001 95 228 94 0.000000 0.000000 0.000000 0.000000 -60.708740 0.000000 134.000000 -0.050473 0.968834 -0.242516
-0.28000000 -8.40999985 0.50000000 95 228 94 0.000000 0.000000 0.000000 0.000000 -60.708740 0.000000 134.000000 -0.334608 0.861962 -0.380867
-0.30000001 -8.38000011 0.54000002 95 228 94 0.000000 0.000000 0.000000 0.000000 -60.708740 0.000000 134.000000 -0.385680 0.847872 -0.363820
-0.31000000 -8.40999985 0.55000001 95 228 94 0.000000 0.000000 0.000000 0.000000 -60.708740 0.000000 134.000000 -0.318885 0.861143 -0.395910
-0.34999999 -8.36999989 0.61000001 95 228 94 0.000000 0.000000 0.000000 0.000000 -60.708740 0.000000 134.000000 -0.021530 0.943541 -0.330556
-0.34999999 -8.38000011 0.60000002 95 228 94 0.000000 0.000000 0.000000 0.000000 -60.708740 0.000000 134.000000 0.082567 0.989640 0.117454
-0.28000000 -8.39999962 0.44999999 95 228 94 0.000000 0.000000 0.000000 0.000000 -60.708740 0.000000 134.000000 -0.028609 0.987580 -0.154488
-0.28999999 -8.39999962 0.46000001 95 228 94 0.000000 0.000000 0.000000 0.000000 -60.708740 0.000000 134.000000 -0.101447 0.973141 -0.206652
-0.25000000 -8.42000008 0.34999999 95 228 94 0.000000 0.000000 0.000000 0.000000 -60.708740 0.000000 134.000000 0.243955 0.955824 -0.163970
-0.25999999 -8.40999985 0.37000000 95 228 94 0.000000 0.000000 0.000000 0.000000 -60.708740 0.000000 134.000000 0.018937 0.943077 -0.332034
-0.14000000 -8.39999962 0.23999999 95 228 94 0.000000 0.000000 0.000000 0.000000 -60.708740 0.000000 134.000000 0.985904 0.118308 0.118308
-0.14000000 -8.40999985 0.31000000 95 228 94 0.000000 0.000000 0.000000 0.000000 -60.708740 0.000000 134.000000 0.712488 -0.361977 0.601111
-0.12000000 -8.36999989 0.20000000 95 228 94 0.000000 0.000000 0.000000 0.000000 -60.708740 0.000000 134.000000 0.813155 0.179528 0.553669
-0.15000001 -8.35000038 0.10000000 95 228 94 0.000000 0.000000 0.000000 0.000000 -60.708740 0.000000 134.000000 0.859578 0.459144 -0.224303
-0.09000000 -8.40999985 0.13000000 95 228 94 0.000000 0.000000 0.000000 0.000000 -60.708740 0.000000 134.000000 0.987326 0.033332 -0.155168
-0.16000000 -8.39000034 0.02000000 95 228 94 0.000000 0.000000 0.000000 0.000000 -60.708740 0.000000 134.000000 0.779249 0.626455 -0.018057
-0.16000000 -8.40999985 0.00000000 95 228 94 0.000000 0.000000 0.000000 0.000000 -60.708740 0.000000 134.000000 0.773949 0.586325 -0.239221
-0.22000000 -8.35999966 0.10000000 95 228 94 0.000000 0.000000 0.000000 0.000000 -60.708740 0.000000 134.000000 -0.483731 0.737979 -0.470523
-0.20000000 -8.36999989 0.04000000 95 228 94 0.000000 0.000000 0.000000 0.000000 -60.708740 0.000000 134.000000 -0.353836 0.860639 -0.366197
-0.07000000 -8.59000015 0.22000000 95 228 94 0.000000 0.000000 0.000000 0.000000 -60.708740 0.000000 134.000000 -0.323610 0.836384 -0.442424
-0.05000000 -8.47000027 0.10000000 95 228 94 0.000000 0.000000 0.000000 0.000000 -60.708740 0.000000 134.000000 -0.795787 0.534202 -0.285223
-0.06000000 -8.44999981 -0.02000000 95 228 94 0.000000 0.000000 0.000000 0.000000 -60.708740 0.000000 134.000000 0.896566 0.227443 0.380050
-0.02000000 -8.52000046 0.01000000 95 228 94 0.000000 0.000000 0.000000 0.000000 -60.708740 0.000000 134.000000 0.979045 -0.081689 0.186543
-0.05000000 -8.59000015 0.02000000 95 228 94 0.000000 0.000000 0.000000 0.000000 -60.708740 0.000000 134.000000 -0.486306 0.772560 -0.408237
-0.07000000 -8.60999966 0.02000000 95 228 94 0.000000 0.000000 0.000000 0.000000 -60.708740 0.000000 134.000000 -0.598459 0.625431 -0.500682
-0.08000000 -8.60999966 0.05000000 95 228 94 0.000000 0.000000 0.000000 0.000000 -60.708740 0.000000 134.000000 -0.230766 0.879890 -0.415380
-0.08000000 -8.60000038 -0.02000000 95 228 94 0.000000 0.000000 0.000000 0.000000 -60.708740 0.000000 134.000000 -0.539136 0.745614 -0.391652
-0.14000000 -8.47000027 0.62000000 95 228 94 0.000000 0.000000 0.000000 0.000000 -60.708740 0.000000 134.000000 0.740988 -0.415676 0.527399
-0.12000000 -8.44999981 0.55000001 95 228 94 0.000000 0.000000 0.000000 0.000000 -60.708740 0.000000 134.000000 0.794828 -0.604296 0.055453
-0.11000000 -8.43999958 0.54000002 95 228 94 0.000000 0.000000 0.000000 0.000000 -60.708740 0.000000 134.000000 -0.649162 0.740809 -0.172601
-0.13000000 -8.44999981 0.52999997 95 228 94 0.000000 0.000000 0.000000 0.000000 -60.708740 0.000000 134.000000 0.882978 -0.360738 0.300363
-0.13000000 -8.44999981 0.56000000 95 228 94 0.000000 0.000000 0.000000 0.000000 -60.708740 0.000000 134.000000 -0.412118 0.847563 -0.334360
-0.10000000 -8.47999954 0.50000000 95 228 94 0.000000 0.000000 0.000000 0.000000 -60.708740 0.000000 134.000000 -0.685497 0.679135 -0.262429
-0.13000000 -8.52000046 0.49000001 95 228 94 0.000000 0.000000 0.000000 0.000000 -60.708740 0.000000 134.000000 -0.310005 0.945845 -0.096299
-0.16000000 -8.56000042 0.51999998 95 228 94 0.000000 0.000000 0.000000 0.000000 -60.708740 0.000000 134.000000 -0.549731 0.610625 -0.570029
-0.18000001 -8.47999954 0.63000000 95 228 94 0.000000 0.000000 0.000000 0.000000 -60.708740 0.000000 134.000000 -0.548758 0.711230 -0.439338
-0.17000000 -8.52000046 0.52999997 95 228 94 0.000000 0.000000 0.000000 0.000000 -60.708740 0.000000 134.000000 0.783683 -0.567818 0.251842
-0.10000000 -8.47000027 0.44999999 95 228 94 0.000000 0.000000 0.000000 0.000000 -60.708740 0.000000 134.000000 0.805483 -0.577040 0.134989
-0.10000000 -8.48999977 0.43000001 95 228 94 0.000000 0.000000 0.000000 0.000000 -60.708740 0.000000 134.000000 0.560169 -0.600785 0.570323
-0.10000000 -8.52999973 0.44999999 95 228 94 0.000000 0.000000 0.000000 0.000000 -60.708740 0.000000 134.000000 -0.459347 0.887892 -0.025445
-0.14000000 -8.55000019 0.46000001 95 228 94 0.000000 0.000000 0.000000 0.000000 -60.708740 0.000000 134.000000 -0.450131 0.849565 -0.274995
-0.10000000 -8.52000046 0.38000000 95 228 94 0.000000 0.000000 0.000000 0.000000 -60.708740 0.000000 134.000000 -0.455343 0.827180 -0.329296
-0.11000000 -8.53999996 0.31999999 95 228 94 0.000000 0.000000 0.000000 0.000000 -60.708740 0.000000 134.000000 -0.620681 0.676957 -0.395581
-0.19000000 -8.44999981 0.47000000 95 228 94 0.000000 0.000000 0.000000 0.000000 -60.708740 0.000000 134.000000 0.369417 -0.635398 0.678086
-0.17000000 -8.44999981 0.38000000 95 228 94 0.000000 0.000000 0.000000 0.000000 -60.708740 0.000000 134.000000 0.557468 -0.483809 0.674654
-0.18000001 -8.46000004 0.38000000 95 228 94 0.000000 0.000000 0.000000 0.000000 -60.708740 0.000000 134.000000 -0.505350 0.676598 -0.535570
-0.17000000 -8.56000042 0.34999999 95 228 94 0.000000 0.000000 0.000000 0.000000 -60.708740 0.000000 134.000000 -0.052939 0.894526 -0.443870
-0.23999999 -8.60000038 0.58999997 95 228 94 0.000000 0.000000 0.000000 0.000000 -60.708740 0.000000 134.000000 -0.367493 0.739885 -0.563489
-0.16000000 -8.64000034 0.31999999 95 228 94 0.000000 0.000000 0.000000 0.000000 -60.708740 0.000000 134.000000 -0.136538 0.878154 -0.458480
-0.20999999 -8.61999989 0.47000000 95 228 94 0.000000 0.000000 0.000000 0.000000 -60.708740 0.000000 134.000000 -0.441130 0.803658 -0.399423
-0.20000000 -8.60999966 0.38999999 95 228 94 0.000000 0.000000 0.000000 0.000000 -60.708740 0.000000 134.000000 -0.289705 0.904409 -0.313234
-0.38000000 -8.47999954 0.56999999 95 228 94 0.000000 0.000000 0.000000 0.000000 -60.708740 0.000000 134.000000 0.133057 0.931397 -0.338815
-0.37000000 -8.50000000 0.60000002 95 228 94 0.000000 0.000000 0.000000 0.000000 -60.708740 0.000000 134.000000 0.543654 0.779609 -0.310887
-0.41000000 -8.56000042 0.56000000 95 228 94 0.000000 0.000000 0.000000 0.000000 -60.708740 0.000000 134.000000 0.599125 0.799303 0.046520
-0.33000001 -8.59000015 0.41999999 95 228 94 0.000000 0.000000 0.000000 0.000000 -60.708740 0.000000 134.000000 0.147282 0.816745 -0.557886
-0.37000000 -8.47000027 0.33000001 95 228 94 0.000000 0.000000 0.000000 0.000000 -60.708740 0.000000 134.000000 0.738455 0.596877 0.313723
-0.34999999 -8.55000019 0.41000000 95 228 94 0.000000 0.000000 0.000000 0.000000 -60.708740 0.000000 134.000000 0.196487 0.943964 -0.265189
-0.38000000 -8.55000019 0.47000000 95 228 94 0.000000 0.000000 0.000000 0.000000 -60.708740 0.000000 134.000000 0.497483 0.768244 -0.402880
-0.34999999 -8.57999992 0.38000000 95 228 94 0.000000 0.000000 0.000000 0.000000 -60.708740 0.000000 134.000000 0.379550 0.898318 -0.221282
-0.25000000 -8.61999989 0.41000000 95 228 94 0.000000 0.000000 0.000000 0.000000 -60.708740 0.000000 134.000000 0.115071 0.950989 -0.287016
-0.33000001 -8.64000034 0.44999999 95 228 94 0.000000 0.000000 0.000000 0.000000 -60.708740 0.000000 134.000000 0.414130 0.777914 -0.472595
-0.33000001 -8.60999966 0.47000000 95 228 94 0.000000 0.000000 0.000000 0.000000 -60.708740 0.000000 134.000000 0.264744 0.886967 -0.378419
-0.27000001 -8.64000034 0.47000000 95 228 94 0.000000 0.000000 0.000000 0.000000 -60.708740 0.000000 134.000000 -0.019350 0.986848 -0.160491
-0.30000001 -8.64000034 0.34000000 95 228 94 0.000000 0.000000 0.000000 0.000000 -60.708740 0.000000 134.000000 0.052533 0.993652 -0.099477
-0.27000001 -8.61999989 0.34999999 95 228 94 0.000000 0.000000 0.000000 0.000000 -60.708740 0.000000 134.000000 0.128628 0.805773 -0.578087
-0.28000000 -8.60999966 0.38999999 95 228 94 0.000000 0.000000 0.000000 0.000000 -60.708740 0.000000 134.000000 -0.029576 0.978384 -0.204668
-0.11000000 -8.50000000 0.28999999 95 228 94 0.000000 0.000000 0.000000 0.000000 -60.708740 0.000000 134.000000 -0.522301 0.826850 -0.208616
-0.12000000 -8.43999958 0.22000000 95 228 94 0.000000 0.000000 0.000000 0.000000 -60.708740 0.000000 134.000000 0.767628 -0.336340 0.545547
-0.09000000 -8.47999954 0.23000000 95 228 94 0.000000 0.000000 0.000000 0.000000 -60.708740 0.000000 134.000000 0.790337 -0.441231 0.425069
-0.09000000 -8.53999996 0.28000000 95 228 94 0.000000 0.000000 0.000000 0.000000 -60.708740 0.000000 134.000000 0.457686 -0.632043 0.625337
-0.10000000 -8.52999973 0.30000001 95 228 94 0.000000 0.000000 0.000000 0.000000 -60.708740 0.000000 134.000000 -0.479006 0.858651 -0.182408
-0.09000000 -8.55000019 0.28999999 95 228 94 0.000000 0.000000 0.000000 0.000000 -60.708740 0.000000 134.000000 -0.460525 0.883256 -0.088186
-0.09000000 -8.55000019 0.25000000 95 228 94 0.000000 0.000000 0.000000 0.000000 -60.708740 0.000000 134.000000 0.607332 -0.630885 0.482837
-0.12000000 -8.57999992 0.28000000 95 228 94 0.000000 0.000000 0.000000 0.000000 -60.708740 0.000000 134.000000 -0.520893 0.732558 -0.438212
-0.10000000 -8.56000042 0.28000000 95 228 94 0.000000 0.000000 0.000000 0.000000 -60.708740 0.000000 134.000000 -0.177972 0.926295 -0.332121
-0.12000000 -8.56999969 0.28999999 95 228 94 0.000000 0.000000 0.000000 0.000000 -60.708740 0.000000 134.000000 -0.522478 0.696081 -0.492431
-0.09000000 -8.56999969 0.25999999 95 228 94 0.000000 0.000000 0.000000 0.000000 -60.708740 0.000000 134.000000 0.573957 -0.577344 0.580730
-0.12000000 -8.59000015 0.12000000 95 228 94 0.000000 0.000000 0.000000 0.000000 -60.708740 0.000000 134.000000 0.371453 -0.584180 0.721634
-0.12000000 -8.57999992 0.13000000 95 228 94 0.000000 0.000000 0.000000 0.000000 -60.708740 0.000000 134.000000 -0.362171 0.790339 -0.494163
-0.23000000 -8.59000015 0.01000000 95 228 94 0.000000 0.000000 0.000000 0.000000 -60.708740 0.000000 134.000000 0.167076 0.934795 -0.313439
-0.16000000 -8.61999989 0.25000000 95 228 94 0.000000 0.000000 0.000000 0.000000 -60.708740 0.000000 134.000000 0.012314 0.830511 -0.556866
-0.20999999 -8.61999989 0.27000001 95 228 94 0.000000 0.000000 0.000000 0.000000 -60.708740 0.000000 134.000000 -0.011024 0.959073 -0.282945
-0.20999999 -8.64000034 0.28999999 95 228 94 0.000000 0.000000 0.000000 0.000000 -60.708740 0.000000 134.000000 0.132374 0.892454 -0.431281
-0.20999999 -8.61999989 0.17000000 95 228 94 0.000000 0.000000 0.000000 0.000000 -60.708740 0.000000 134.000000 -0.105352 0.889169 -0.445287
-0.20000000 -8.64000034 0.01000000 95 228 94 0.000000 0.000000 0.000000 0.000000 -60.708740 0.000000 134.000000 0.146157 0.748865 -0.646405
-0.17000000 -8.60999966 0.02000000 95 228 94 0.000000 0.000000 0.000000 0.000000 -60.708740 0.000000 134.000000 -0.153642 0.914804 -0.373533
-0.25999999 -8.43999958 0.28000000 95 228 94 0.000000 0.000000 0.000000 0.000000 -60.708740 0.000000 134.000000 0.283984 0.808021 -0.516192
-0.28999999 -8.59000015 0.20000000 95 228 94 0.000000 0.000000 0.000000 0.000000 -60.708740 0.000000 134.000000 0.224741 0.788918 -0.571927
-0.31000000 -8.56999969 0.11000000 95 228 94 0.000000 0.000000 0.000000 0.000000 -60.708740 0.000000 134.000000 0.435642 0.857527 -0.273614
-0.25000000 -8.60999966 0.23000000 95 228 94 0.000000 0.000000 0.000000 0.000000 -60.708740 0.000000 134.000000 0.082025 0.985490 -0.148596
-0.27000001 -8.63000011 0.20999999 95 228 94 0.000000 0.000000 0.000000 0.000000 -60.708740 0.000000 134.000000 0.159319 0.943659 -0.290042
-0.31000000 -8.60000038 0.13000000 95 228 94 0.000000 0.000000 0.000000 0.000000 -60.708740 0.000000 134.000000 0.298762 0.948932 0.101342
-0.41999999 -8.52999973 0.56000000 95 228 94 0.000000 0.000000 0.000000 0.000000 -60.708740 0.000000 134.000000 0.512395 0.673674 -0.532555
-0.06000000 -8.43000031 -0.20999999 95 228 94 0.000000 0.000000 0.000000 0.000000 -60.708740 0.000000 134.000000 0.892898 0.447129 -0.053003
-0.09000000 -8.42000008 -0.09000000 95 228 94 0.000000 0.000000 0.000000 0.000000 -60.708740 0.000000 134.000000 0.823939 0.538787 -0.175594
-0.14000000 -8.39000034 -0.05000000 95 228 94 0.000000 0.000000 0.000000 0.000000 -60.708740 0.000000 134.000000 0.547249 0.776997 -0.311118
-0.10000000 -8.42000008 -0.20000000 95 228 94 0.000000 0.000000 0.000000 0.000000 -60.708740 0.000000 134.000000 0.522693 0.752088 -0.401441
-0.09000000 -8.40999985 -0.28999999 95 228 94 0.000000 0.000000 0.000000 0.000000 -60.708740 0.000000 134.000000 0.030458 0.907111 -0.419787
-0.19000000 -8.39000034 -0.25000000 95 228 94 0.000000 0.000000 0.000000 0.000000 -60.708740 0.000000 134.000000 -0.655089 0.737165 -0.165672
-0.18000001 -8.43000031 -0.25999999 95 228 94 0.000000 0.000000 0.000000 0.000000 -60.708740 0.000000 134.000000 0.398276 -0.702355 0.589978
-0.20999999 -8.39000034 -0.23999999 95 228 94 0.000000 0.000000 0.000000 0.000000 -60.708740 0.000000 134.000000 -0.612967 0.768884 -0.181903
-0.14000000 -8.43000031 -0.47000000 95 228 94 0.000000 0.000000 0.000000 0.000000 -60.708740 0.000000 134.000000 -0.155524 0.768560 -0.620586
-0.07000000 -8.47999954 -0.16000000 95 228 94 0.000000 0.000000 0.000000 0.000000 -60.708740 0.000000 134.000000 0.933308 0.129816 0.334789
-0.02000000 -8.56000042 -0.09000000 95 228 94 0.000000 0.000000 0.000000 0.000000 -60.708740 0.000000 134.000000 0.839679 -0.287136 0.460970
-0.07000000 -8.56999969 -0.03000000 95 228 94 0.000000 0.000000 0.000000 0.000000 -60.708740 0.000000 134.000000 0.866594 -0.360442 0.345104
-0.05000000 -8.52999973 -0.03000000 95 228 94 0.000000 0.000000 0.000000 0.000000 -60.708740 0.000000 134.000000 0.970397 -0.120507 0.209301
-0.08000000 -8.59000015 -0.07000000 95 228 94 0.000000 0.000000 0.000000 0.000000 -60.708740 0.000000 134.000000 -0.300967 0.878704 -0.370538
-0.02000000 -8.43999958 -0.34999999 95 228 94 0.000000 0.000000 0.000000 0.000000 -60.708740 0.000000 134.000000 0.783720 0.582766 -0.214866
-0.02000000 -8.51000023 -0.34999999 95 228 94 0.000000 0.000000 0.000000 0.000000 -60.708740 0.000000 134.000000 0.846932 0.471535 0.245686
-0.02000000 -8.53999996 -0.20000000 95 228 94 0.000000 0.000000 0.000000 0.000000 -60.708740 0.000000 134.000000 0.834809 -0.031842 0.549617
0.01000000 -8.60000038 -0.31999999 95 228 94 0.000000 0.000000 0.000000 0.000000 -60.708740 0.000000 134.000000 0.778177 -0.420768 0.466256
-0.01000000 -8.60000038 -0.19000000 95 228 94 0.000000 0.000000 0.000000 0.000000 -60.708740 0.000000 134.000000 0.823290 -0.218424 0.523912
-0.06000000 -8.64999962 -0.23999999 95 228 94 0.000000 0.000000 0.000000 0.000000 -60.708740 0.000000 134.000000 -0.532214 0.572763 -0.623450
-0.06000000 -8.61999989 -0.22000000 95 228 94 0.000000 0.000000 0.000000 0.000000 -60.708740 0.000000 134.000000 0.740809 -0.649162 0.172601
-0.08000000 -8.64000034 -0.25000000 95 228 94 0.000000 0.000000 0.000000 0.000000 -60.708740 0.000000 134.000000 -0.514230 0.794430 -0.323185
-0.02000000 -8.60999966 -0.31999999 95 228 94 0.000000 0.000000 0.000000 0.000000 -60.708740 0.000000 134.000000 0.761489 -0.648164 -0.004146
-0.02000000 -8.64999962 -0.33000001 95 228 94 0.000000 0.000000 0.000000 0.000000 -60.708740 0.000000 134.000000 0.823922 -0.543818 0.159421
-0.08000000 -8.64000034 -0.28999999 95 228 94 0.000000 0.000000 0.000000 0.000000 -60.708740 0.000000 134.000000 -0.489875 0.849417 -0.196250
0.02000000 -8.51000023 -0.37000000 95 228 94 0.000000 0.000000 0.000000 0.000000 -60.708740 0.000000 134.000000 0.922584 0.282658 0.262571
0.02000000 -8.56999969 -0.44999999 95 228 94 0.000000 0.000000 0.000000 0.000000 -60.708740 0.000000 134.000000 0.904569 0.106992 0.412684
-0.06000000 -8.46000004 -0.43000001 95 228 94 0.000000 0.000000 0.000000 0.000000 -60.708740 0.000000 134.000000 0.246290 0.770245 -0.588272
-0.02000000 -8.51000023 -0.50999999 95 228 94 0.000000 0.000000 0.000000 0.000000 -60.708740 0.000000 134.000000 0.657991 0.683858 -0.315254
-0.03000000 -8.51000023 -0.46000001 95 228 94 0.000000 0.000000 0.000000 0.000000 -60.708740 0.000000 134.000000 0.682500 0.723774 0.101712
0.01000000 -8.50000000 -0.58999997 95 228 94 0.000000 0.000000 0.000000 0.000000 -60.708740 0.000000 134.000000 0.582066 0.768201 -0.266583
0.02000000 -8.53999996 -0.55000001 95 228 94 0.000000 0.000000 0.000000 0.000000 -60.708740 0.000000 134.000000 0.591825 0.751347 -0.291925
-0.02000000 -8.44999981 -0.61000001 95 228 94 0.000000 0.000000 0.000000 0.000000 -60.708740 0.000000 134.000000 0.348077 0.787584 -0.508481
0.01000000 -8.60000038 -0.38999999 95 228 94 0.000000 0.000000 0.000000 0.000000 -60.708740 0.000000 134.000000 0.868225 -0.252163 0.427317
-0.02000000 -8.63000011 -0.37000000 95 228 94 0.000000 0.000000 0.000000 0.000000 -60.708740 0.000000 134.000000 -0.599484 0.646502 -0.471863
-0.08000000 -8.65999985 -0.36000001 95 228 94 0.000000 0.000000 0.000000 0.000000 -60.708740 0.000000 134.000000 -0.404741 0.845425 -0.348484
-0.03000000 -8.65999985 -0.43000001 95 228 94 0.000000 0.000000 0.000000 0.000000 -60.708740 0.000000 134.000000 -0.585662 0.725959 -0.360533
-0.04000000 -8.64999962 -0.37000000 95 228 94 0.000000 0.000000 0.000000 0.000000 -60.708740 0.000000 134.000000 0.721717 -0.486122 0.492758
0.00000000 -8.64999962 -0.49000001 95 228 94 0.000000 0.000000 0.000000 0.000000 -60.708740 0.000000 134.000000 -0.612149 0.742529 -0.271890
0.00000000 -8.64999962 -0.44000000 95 228 94 0.000000 0.000000 0.000000 0.000000 -60.708740 0.000000 134.000000 0.783348 -0.509900 0.355482
0.00000000 -8.64000034 -0.49000001 95 228 94 0.000000 0.000000 0.000000 0.000000 -60.708740 0.000000 134.000000 0.717760 -0.400956 0.569258
0.03000000 -8.72999954 -0.67000002 95 228 94 0.000000 0.000000 0.000000 0.000000 -60.708740 0.000000 134.000000 -0.731916 0.589103 -0.342426
0.03000000 -8.68999958 -0.63999999 95 228 94 0.000000 0.000000 0.000000 0.000000 -60.708740 0.000000 134.000000 0.855209 -0.141804 0.498507
0.02000000 -8.69999981 -0.67000002 95 228 94 0.000000 0.000000 0.000000 0.000000 -60.708740 0.000000 134.000000 -0.518565 0.785072 -0.338753
-0.02000000 -8.72999954 -0.60000002 95 228 94 0.000000 0.000000 0.000000 0.000000 -60.708740 0.000000 134.000000 0.014647 0.888122 -0.459374
-0.01000000 -8.69999981 -0.58999997 95 228 94 0.000000 0.000000 0.000000 0.000000 -60.708740 0.000000 134.000000 0.735610 -0.603619 0.307443
-0.01000000 -8.69999981 -0.58999997 95 228 94 0.000000 0.000000 0.000000 0.000000 -60.708740 0.000000 134.000000 0.735610 -0.603619 0.307443
-0.14000000 -8.57999992 -0.03000000 95 228 94 0.000000 0.000000 0.000000 0.000000 -60.708740 0.000000 134.000000 -0.591825 0.751347 -0.291925
-0.20000000 -8.43999958 -0.18000001 95 228 94 0.000000 0.000000 0.000000 0.000000 -60.708740 0.000000 134.000000 -0.338007 0.845795 -0.412773
-0.12000000 -8.44999981 -0.34999999 95 228 94 0.000000 0.000000 0.000000 0.000000 -60.708740 0.000000 134.000000 -0.090727 0.819423 -0.565963
-0.23999999 -8.47999954 -0.20999999 95 228 94 0.000000 0.000000 0.000000 0.000000 -60.708740 0.000000 134.000000 0.763777 -0.568429 0.305831
-0.20999999 -8.47000027 -0.25999999 95 228 94 0.000000 0.000000 0.000000 0.000000 -60.708740 0.000000 134.000000 0.731621 -0.681643 -0.009718
-0.23999999 -8.50000000 -0.25999999 95 228 94 0.000000 0.000000 0.000000 0.000000 -60.708740 0.000000 134.000000 0.789415 -0.364964 0.493585
-0.18000001 -8.48999977 -0.25000000 95 228 94 0.000000 0.000000 0.000000 0.000000 -60.708740 0.000000 134.000000 0.927179 -0.359740 0.104528
-0.19000000 -8.43999958 -0.19000000 95 228 94 0.000000 0.000000 0.000000 0.000000 -60.708740 0.000000 134.000000 0.809767 -0.486494 0.328027
-0.20999999 -8.46000004 -0.33000001 95 228 94 0.000000 0.000000 0.000000 0.000000 -60.708740 0.000000 134.000000 0.736107 -0.454897 0.501214
-0.22000000 -8.57999992 -0.25999999 95 228 94 0.000000 0.000000 0.000000 0.000000 -60.708740 0.000000 134.000000 0.904252 0.319061 0.283774
-0.22000000 -8.55000019 -0.23999999 95 228 94 0.000000 0.000000 0.000000 0.000000 -60.708740 0.000000 134.000000 0.777365 0.339594 0.529509
-0.23999999 -8.56000042 -0.33000001 95 228 94 0.000000 0.000000 0.000000 0.000000 -60.708740 0.000000 134.000000 0.942896 -0.182540 0.278614
-0.22000000 -8.56999969 -0.30000001 95 228 94 0.000000 0.000000 0.000000 0.000000 -60.708740 0.000000 134.000000 0.920487 -0.093816 0.379344
-0.14000000 -8.60999966 -0.06000000 95 228 94 0.000000 0.000000 0.000000 0.000000 -60.708740 0.000000 134.000000 0.066061 0.946870 -0.314760
-0.11000000 -8.61999989 -0.05000000 95 228 94 0.000000 0.000000 0.000000 0.000000 -60.708740 0.000000 134.000000 -0.482683 0.845076 -0.229922
-0.13000000 -8.60999966 -0.12000000 95 228 94 0.000000 0.000000 0.000000 0.000000 -60.708740 0.000000 134.000000 -0.346535 0.871681 -0.346535
-0.11000000 -8.63000011 -0.12000000 95 228 94 0.000000 0.000000 0.000000 0.000000 -60.708740 0.000000 134.000000 -0.295041 0.806235 -0.512772
-0.11000000 -8.61999989 -0.14000000 95 228 94 0.000000 0.000000 0.000000 0.000000 -60.708740 0.000000 134.000000 -0.306572 0.822243 -0.479511
-0.20000000 -8.64000034 -0.05000000 95 228 94 0.000000 0.000000 0.000000 0.000000 -60.708740 0.000000 134.000000 0.406749 0.837054 -0.365917
-0.17000000 -8.63000011 -0.11000000 95 228 94 0.000000 0.000000 0.000000 0.000000 -60.708740 0.000000 134.000000 -0.045547 0.862632 -0.503777
-0.22000000 -8.60999966 -0.15000001 95 228 94 0.000000 0.000000 0.000000 0.000000 -60.708740 0.000000 134.000000 0.524877 0.811457 -0.256987
-0.22000000 -8.63000011 -0.17000000 95 228 94 0.000000 0.000000 0.000000 0.000000 -60.708740 0.000000 134.000000 0.212342 0.946633 -0.242481
-0.15000001 -8.65999985 -0.23999999 95 228 94 0.000000 0.000000 0.000000 0.000000 -60.708740 0.000000 134.000000 0.514705 0.855991 0.048557
-0.15000001 -8.64999962 -0.23000000 95 228 94 0.000000 0.000000 0.000000 0.000000 -60.708740 0.000000 134.000000 0.196484 0.895096 -0.400246
-0.16000000 -8.65999985 -0.34999999 95 228 94 0.000000 0.000000 0.000000 0.000000 -60.708740 0.000000 134.000000 0.628585 0.776154 0.049662
-0.16000000 -8.65999985 -0.28000000 95 228 94 0.000000 0.000000 0.000000 0.000000 -60.708740 0.000000 134.000000 0.571173 0.801461 0.177261
-0.19000000 -8.64000034 -0.25999999 95 228 94 0.000000 0.000000 0.000000 0.000000 -60.708740 0.000000 134.000000 0.763393 0.643533 -0.055649
-0.19000000 -8.65999985 -0.33000001 95 228 94 0.000000 0.000000 0.000000 0.000000 -60.708740 0.000000 134.000000 0.639515 0.685311 -0.348380
-0.25000000 -8.53999996 -0.18000001 95 228 94 0.000000 0.000000 0.000000 0.000000 -60.708740 0.000000 134.000000 0.848145 0.219218 0.482279
-0.09000000 -8.47000027 -0.47999999 95 228 94 0.000000 0.000000 0.000000 0.000000 -60.708740 0.000000 134.000000 -0.103863 0.785555 -0.610012
-0.14000000 -8.46000004 -0.44000000 95 228 94 0.000000 0.000000 0.000000 0.000000 -60.708740 0.000000 134.000000 -0.619148 0.769792 -0.155164
-0.13000000 -8.46000004 -0.50999999 95 228 94 0.000000 0.000000 0.000000 0.000000 -60.708740 0.000000 134.000000 -0.289147 0.749225 -0.595866
-0.12000000 -8.44999981 -0.47000000 95 228 94 0.000000 0.000000 0.000000 0.000000 -60.708740 0.000000 134.000000 -0.564566 0.760797 -0.320082
-0.15000001 -8.46000004 -0.50000000 95 228 94 0.000000 0.000000 0.000000 0.000000 -60.708740 0.000000 134.000000 0.672846 -0.582688 0.455799
-0.20999999 -8.47999954 -0.41999999 95 228 94 0.000000 0.000000 0.000000 0.000000 -60.708740 0.000000 134.000000 0.859833 -0.487776 0.150874
-0.20000000 -8.48999977 -0.36000001 95 228 94 0.000000 0.000000 0.000000 0.000000 -60.708740 0.000000 134.000000 0.804726 -0.561331 0.193195
-0.20000000 -8.51000023 -0.47000000 95 228 94 0.000000 0.000000 0.000000 0.000000 -60.708740 0.000000 134.000000 0.788076 -0.396466 0.470904
-0.19000000 -8.47999954 -0.47999999 95 228 94 0.000000 0.000000 0.000000 0.000000 -60.708740 0.000000 134.000000 0.848647 -0.409531 0.334787
-0.20999999 -8.52999973 -0.38999999 95 228 94 0.000000 0.000000 0.000000 0.000000 -60.708740 0.000000 134.000000 -0.946001 0.212200 -0.245057
-0.23000000 -8.57999992 -0.47999999 95 228 94 0.000000 0.000000 0.000000 0.000000 -60.708740 0.000000 134.000000 0.902749 0.281281 0.325461
-0.09000000 -8.67000008 -0.38000000 95 228 94 0.000000 0.000000 0.000000 0.000000 -60.708740 0.000000 134.000000 0.264436 0.947901 -0.177647
-0.12000000 -8.65999985 -0.38999999 95 228 94 0.000000 0.000000 0.000000 0.000000 -60.708740 0.000000 134.000000 0.400237 0.814824 -0.419371
-0.10000000 -8.68999958 -0.41999999 95 228 94 0.000000 0.000000 0.000000 0.000000 -60.708740 0.000000 134.000000 0.190654 0.870507 -0.453728
0.09000000 -8.53999996 -0.80000001 95 228 94 0.000000 0.000000 0.000000 0.000000 -60.708740 0.000000 134.000000 0.134192 0.872970 -0.468951
0.18000001 -8.56999969 -0.89999998 95 228 94 0.000000 0.000000 0.000000 0.000000 -60.708740 0.000000 134.000000 0.394323 0.849430 -0.350682
0.12000000 -8.51000023 -0.89999998 95 228 94 0.000000 0.000000 0.000000 0.000000 -60.708740 0.000000 134.000000 0.695694 0.647270 -0.311529
0.10000000 -8.47000027 -1.01999998 95 228 94 0.000000 0.000000 0.000000 0.000000 -60.708740 0.000000 134.000000 0.405593 0.819139 -0.405593
0.10000000 -8.69999981 -0.80000001 95 228 94 0.000000 0.000000 0.000000 0.000000 -60.708740 0.000000 134.000000 0.888298 0.261264 0.377713
0.12000000 -8.72999954 -0.86000001 95 228 94 0.000000 0.000000 0.000000 0.000000 -60.708740 0.000000 134.000000 0.997737 0.011565 -0.066235
0.13000000 -8.73999977 -0.94999999 95 228 94 0.000000 0.000000 0.000000 0.000000 -60.708740 0.000000 134.000000 0.781072 0.530872 0.328788
0.01000000 -8.50000000 -0.76999998 95 228 94 0.000000 0.000000 0.000000 0.000000 -60.708740 0.000000 134.000000 0.242857 0.812103 -0.530574
0.05000000 -8.59000015 -0.83999997 95 228 94 0.000000 0.000000 0.000000 0.000000 -60.708740 0.000000 134.000000 0.504186 0.710520 -0.490874
0.07000000 -8.55000019 -0.79000002 95 228 94 0.000000 0.000000 0.000000 0.000000 -60.708740 0.000000 134.000000 0.476311 0.775427 -0.414537
-0.07000000 -8.51000023 -0.77999997 95 228 94 0.000000 0.000000 0.000000 0.000000 -60.708740 0.000000 134.000000 -0.054993 0.824888 -0.562616
-0.07000000 -8.55000019 -0.88000000 95 228 94 0.000000 0.000000 0.000000 0.000000 -60.708740 0.000000 134.000000 -0.107557 0.977904 -0.179262
-0.07000000 -8.55000019 -0.87000000 95 228 94 0.000000 0.000000 0.000000 0.000000 -60.708740 0.000000 134.000000 -0.132184 0.936191 -0.325691
0.07000000 -8.72000027 -0.76999998 95 228 94 0.000000 0.000000 0.000000 0.000000 -60.708740 0.000000 134.000000 0.967134 0.226133 0.116260
0.06000000 -8.72000027 -0.70999998 95 228 94 0.000000 0.000000 0.000000 0.000000 -60.708740 0.000000 134.000000 -0.646451 0.410472 -0.643128
0.02000000 -8.72000027 -0.69999999 95 228 94 0.000000 0.000000 0.000000 0.000000 -60.708740 0.000000 134.000000 -0.592916 0.613187 -0.521969
0.02000000 -8.72000027 -0.74000001 95 228 94 0.000000 0.000000 0.000000 0.000000 -60.708740 0.000000 134.000000 -0.291139 0.810467 -0.508312
0.03000000 -8.72000027 -0.77999997 95 228 94 0.000000 0.000000 0.000000 0.000000 -60.708740 0.000000 134.000000 -0.801378 0.295577 -0.520026
0.08000000 -8.76000023 -0.81999999 95 228 94 0.000000 0.000000 0.000000 0.000000 -60.708740 0.000000 134.000000 0.956248 -0.155175 0.248014
-0.03000000 -8.75000000 -0.72000003 95 228 94 0.000000 0.000000 0.000000 0.000000 -60.708740 0.000000 134.000000 0.266427 0.951908 -0.151288
0.03000000 -8.76000023 -0.86000001 95 228 94 0.000000 0.000000 0.000000 0.000000 -60.708740 0.000000 134.000000 -0.234547 0.916606 -0.323762
0.15000001 -8.71000004 -1.04999995 95 228 94 0.000000 0.000000 0.000000 0.000000 -60.708740 0.000000 134.000000 0.735303 0.666972 0.120322
-0.06000000 -8.57999992 -1.04999995 95 228 94 0.000000 0.000000 0.000000 0.000000 -60.708740 0.000000 134.000000 -0.332809 0.942749 -0.021512
-0.07000000 -8.57999992 -1.12000000 95 228 94 0.000000 0.000000 0.000000 0.000000 -60.708740 0.000000 134.000000 -0.210384 0.869887 -0.446134
0.09000000 -8.77999973 -1.00000000 95 228 94 0.000000 0.000000 0.000000 0.000000 -60.708740 0.000000 134.000000 0.871318 0.487441 0.056615
0.06000000 -8.77999973 -0.93000001 95 228 94 0.000000 0.000000 0.000000 0.000000 -60.708740 0.000000 134.000000 -0.666998 0.417497 -0.617098
-0.01000000 -8.78999996 -0.86000001 95 228 94 0.000000 0.000000 0.000000 0.000000 -60.708740 0.000000 134.000000 0.576599 0.753273 -0.316407
-0.15000001 -8.51000023 -0.70999998 95 228 94 0.000000 0.000000 0.000000 0.000000 -60.708740 0.000000 134.000000 -0.204364 0.791335 -0.576215
-0.12000000 -8.52999973 -0.80000001 95 228 94 0.000000 0.000000 0.000000 0.000000 -60.708740 0.000000 134.000000 -0.171578 0.895379 -0.410923
-0.09000000 -8.57999992 -0.93000001 95 228 94 0.000000 0.000000 0.000000 0.000000 -60.708740 0.000000 134.000000 -0.252738 0.953451 -0.164480
-0.13000000 -8.68999958 -0.79000002 95 228 94 0.000000 0.000000 0.000000 0.000000 -60.708740 0.000000 134.000000 0.965221 -0.254137 -0.061343
-0.15000001 -8.60999966 -0.94999999 95 228 94 0.000000 0.000000 0.000000 0.000000 -60.708740 0.000000 134.000000 0.655416 -0.737533 0.162713
-0.12000000 -8.64000034 -1.09000003 95 228 94 0.000000 0.000000 0.000000 0.000000 -60.708740 0.000000 134.000000 0.814841 -0.576766 0.058102
0.31000000 -8.72000027 -0.75999999 95 228 94 0.000000 0.000000 0.000000 0.000000 -60.708740 0.000000 143.000000 0.977973 0.208650 0.005828
-0.20000000 -8.40999985 0.56999999 95 228 94 0.000000 0.000000 0.000000 0.000000 -60.708740 0.000000 134.000000 0.502755 -0.502755 0.703189
-0.23000000 -8.38000011 0.47000000 95 228 94 0.000000 0.000000 0.000000 0.000000 -60.708740 0.000000 134.000000 -0.370995 0.855307 -0.361681
-0.31999999 -8.38000011 0.58999997 95 228 94 0.000000 0.000000 0.000000 0.000000 -60.708740 0.000000 134.000000 -0.310694 0.851702 -0.421987
-0.31999999 -8.38000011 0.57999998 95 228 94 0.000000 0.000000 0.000000 0.000000 -60.708740 0.000000 134.000000 -0.302628 0.861798 -0.407088
-0.30000001 -8.40999985 0.50999999 95 228 94 0.000000 0.000000 0.000000 0.000000 -60.708740 0.000000 134.000000 0.337509 0.850772 -0.402833
-0.37000000 -8.39999962 0.56999999 95 228 94 0.000000 0.000000 0.000000 0.000000 -60.708740 0.000000 134.000000 0.308332 0.768434 -0.560749
-0.25000000 -8.43000031 0.38999999 95 228 94 0.000000 0.000000 0.000000 0.000000 -60.708740 0.000000 134.000000 -0.555471 0.726893 -0.403829
-0.28999999 -8.40999985 0.41999999 95 228 94 0.000000 0.000000 0.000000 0.000000 -60.708740 0.000000 134.000000 0.075756 0.821882 -0.564597
-0.18000001 -8.39999962 0.30000001 95 228 94 0.000000 0.000000 0.000000 0.000000 -60.708740 0.000000 134.000000 0.762325 -0.191732 0.618142
-0.10000000 -8.42000008 0.09000000 95 228 94 0.000000 0.000000 0.000000 0.000000 -60.708740 0.000000 134.000000 0.907259 -0.057968 0.416557
-0.13000000 -8.39999962 0.01000000 95 228 94 0.000000 0.000000 0.000000 0.000000 -60.708740 0.000000 134.000000 0.771773 0.525841 -0.357572
-0.22000000 -8.36999989 0.13000000 95 228 94 0.000000 0.000000 0.000000 0.000000 -60.708740 0.000000 134.000000 0.066407 0.909375 -0.410642
-0.19000000 -8.39000034 -0.02000000 95 228 94 0.000000 0.000000 0.000000 0.000000 -60.708740 0.000000 134.000000 -0.244079 0.716491 -0.653503
-0.18000001 -8.36999989 0.04000000 95 228 94 0.000000 0.000000 0.000000 0.000000 -60.708740 0.000000 134.000000 -0.071626 0.946766 -0.313852
-0.25000000 -8.42000008 0.25999999 95 228 94 0.000000 0.000000 0.000000 0.000000 -60.708740 0.000000 134.000000 -0.059854 0.992667 -0.105026
-0.05000000 -8.52000046 0.00000000 95 228 94 0.000000 0.000000 0.000000 0.000000 -60.708740 0.000000 134.000000 0.839208 -0.078099 0.538173
-0.06000000 -8.56999969 0.06000000 95 228 94 0.000000 0.000000 0.000000 0.000000 -60.708740 0.000000 134.000000 0.832367 -0.354031 0.426411
-0.07000000 -8.56999969 0.04000000 95 228 94 0.000000 0.000000 0.000000 0.000000 -60.708740 0.000000 134.000000 0.679719 -0.511887 0.525313
-0.15000001 -8.52999973 0.55000001 95 228 94 0.000000 0.000000 0.000000 0.000000 -60.708740 0.000000 134.000000 -0.587718 0.730984 -0.346770
-0.16000000 -8.55000019 0.56000000 95 228 94 0.000000 0.000000 0.000000 0.000000 -60.708740 0.000000 134.000000 -0.369854 0.929082 -0.003813
-0.20000000 -8.55000019 0.56999999 95 228 94 0.000000 0.000000 0.000000 0.000000 -60.708740 0.000000 134.000000 -0.316616 0.857181 -0.406196
-0.19000000 -8.56000042 0.55000001 95 228 94 0.000000 0.000000 0.000000 0.000000 -60.708740 0.000000 134.000000 -0.544186 0.678139 -0.493953
-0.12000000 -8.51000023 0.41000000 95 228 94 0.000000 0.000000 0.000000 0.000000 -60.708740 0.000000 134.000000 0.729405 -0.554875 0.400103
-0.10000000 -8.48999977 0.43000001 95 228 94 0.000000 0.000000 0.000000 0.000000 -60.708740 0.000000 134.000000 0.560169 -0.600785 0.570323
