//X Y Z R G B PointSourceId ScanDirectionFlag NumberOfReturns ReturnNumber GpsTime Intensity Classification Nx Ny Nz
-0.22000000 3.22000003 -1.09000003 83 148 140 97.000000 1.000000 4.000000 1.000000 -60.708740 114.000000 231.000000 -0.133134 0.965543 0.223613
-0.23000000 3.18000007 -1.07000005 83 148 140 97.000000 1.000000 4.000000 1.000000 -60.708740 114.000000 231.000000 -0.145395 0.844469 0.515493
-0.20000000 3.22000003 -1.12000000 83 148 140 97.000000 1.000000 4.000000 1.000000 -60.708740 114.000000 231.000000 0.001098 0.991141 0.132811
-0.19000000 3.17000008 -1.19000006 83 148 140 97.000000 1.000000 4.000000 1.000000 -60.708740 114.000000 231.000000 -0.270602 0.805550 0.527127
-0.23999999 3.21000004 -1.15999997 83 148 140 97.000000 1.000000 4.000000 1.000000 -60.708740 114.000000 231.000000 -0.017736 0.998426 0.053208
-0.23000000 3.18000007 -1.12000000 83 148 140 97.000000 1.000000 4.000000 1.000000 -60.708740 114.000000 231.000000 -0.405394 0.789792 0.460308
-0.23999999 3.19000006 -1.16999996 83 148 140 97.000000 1.000000 4.000000 1.000000 -60.708740 114.000000 231.000000 -0.148381 0.885962 0.439380
-0.20000000 3.24000001 -1.21000004 83 148 140 97.000000 1.000000 4.000000 1.000000 -60.708740 114.000000 231.000000 -0.012295 0.829245 0.558750
-0.20000000 3.22000003 -1.24000001 83 148 140 97.000000 1.000000 4.000000 1.000000 -60.708740 114.000000 231.000000 0.036257 0.983614 0.176606
-0.23999999 3.19000006 -1.22000003 83 148 140 97.000000 1.000000 4.000000 1.000000 -60.708740 114.000000 231.000000 -0.043215 0.984607 0.169357
-0.23000000 3.19000006 -1.24000001 83 148 140 97.000000 1.000000 4.000000 1.000000 -60.708740 114.000000 231.000000 -0.102419 0.969818 0.221275
-0.13000000 3.15000010 -1.09000003 83 148 140 97.000000 1.000000 4.000000 1.000000 -60.708740 114.000000 231.000000 0.677187 -0.680389 -0.280160
-0.25000000 3.27999997 -1.02999997 83 148 140 97.000000 1.000000 4.000000 1.000000 -60.708740 114.000000 231.000000 0.003073 0.998835 0.048149
-0.25000000 3.27999997 -1.11000001 83 148 140 97.000000 1.000000 4.000000 1.000000 -60.708740 114.000000 231.000000 -0.100963 0.981648 0.161783
-0.25999999 3.27999997 -1.17999995 83 148 140 97.000000 1.000000 4.000000 1.000000 -60.708740 114.000000 231.000000 0.152969 0.985403 0.074706
-0.25999999 3.27999997 -1.13000000 83 148 140 97.000000 1.000000 4.000000 1.000000 -60.708740 114.000000 231.000000 0.065451 0.995084 0.074326
-0.25999999 3.27999997 -1.12000000 83 148 140 97.000000 1.000000 4.000000 1.000000 -60.708740 114.000000 231.000000 0.082352 0.984639 0.153962
-0.25000000 3.21000004 -1.08000004 83 148 140 97.000000 1.000000 4.000000 1.000000 -60.708740 114.000000 231.000000 -0.220401 0.796835 0.562563
-0.25999999 3.21000004 -1.07000005 83 148 140 97.000000 1.000000 4.000000 1.000000 -60.708740 114.000000 231.000000 -0.126520 0.987329 0.095777
-0.25000000 3.21000004 -1.08000004 83 148 140 97.000000 1.000000 4.000000 1.000000 -60.708740 114.000000 231.000000 -0.220401 0.796835 0.562563
-0.27000001 3.19000006 -1.11000001 83 148 140 97.000000 1.000000 4.000000 1.000000 -60.708740 114.000000 231.000000 0.034347 0.993852 0.105257
-0.25000000 3.19000006 -1.10000002 83 148 140 97.000000 1.000000 4.000000 1.000000 -60.708740 114.000000 231.000000 -0.202589 0.731484 0.651067
-0.41999999 3.58999991 -0.06000000 83 148 140 97.000000 1.000000 4.000000 1.000000 -60.708740 114.000000 231.000000 0.726248 0.686915 0.026690
-0.41999999 3.55999994 -0.10000000 83 148 140 97.000000 1.000000 4.000000 1.000000 -60.708740 114.000000 231.000000 0.520532 0.716771 0.463989
-0.44999999 3.50999999 -0.04000000 83 148 140 97.000000 1.000000 4.000000 1.000000 -60.708740 114.000000 231.000000 0.658770 0.318864 0.681431
-0.44999999 3.49000001 -0.04000000 83 148 140 97.000000 1.000000 4.000000 1.000000 -60.708740 114.000000 231.000000 0.922642 0.318005 0.218183
-0.41999999 3.51999998 -0.06000000 83 148 140 97.000000 1.000000 4.000000 1.000000 -60.708740 114.000000 231.000000 0.562966 0.663796 0.492386
-0.44999999 3.49000001 -0.04000000 83 148 140 97.000000 1.000000 4.000000 1.000000 -60.708740 114.000000 231.000000 0.922642 0.318005 0.218183
-0.43000001 3.50999999 -0.07000000 83 148 140 97.000000 1.000000 4.000000 1.000000 -60.708740 114.000000 231.000000 0.645970 0.531280 0.548146
-0.41999999 3.50999999 -0.09000000 83 148 140 97.000000 1.000000 4.000000 1.000000 -60.708740 114.000000 231.000000 0.946566 0.138293 0.291354
-0.43000001 3.49000001 -0.07000000 83 148 140 97.000000 1.000000 4.000000 1.000000 -60.708740 114.000000 231.000000 0.552365 0.439570 0.708288
-0.41999999 3.50999999 -0.09000000 83 148 140 97.000000 1.000000 4.000000 1.000000 -60.708740 114.000000 231.000000 0.946566 0.138293 0.291354
-0.47000000 3.52999997 -0.04000000 83 148 140 97.000000 1.000000 4.000000 1.000000 -60.708740 114.000000 231.000000 0.554068 0.655113 0.513649
-0.47000000 3.52999997 -0.04000000 83 148 140 97.000000 1.000000 4.000000 1.000000 -60.708740 114.000000 231.000000 0.554068 0.655113 0.513649
-0.47000000 3.50999999 -0.03000000 83 148 140 97.000000 1.000000 4.000000 1.000000 -60.708740 114.000000 231.000000 0.674480 0.480337 0.560672
-0.41999999 3.54999995 -0.13000000 83 148 140 97.000000 1.000000 4.000000 1.000000 -60.708740 114.000000 231.000000 0.591704 0.774961 0.222083
-0.44000000 3.52999997 -0.12000000 83 148 140 97.000000 1.000000 4.000000 1.000000 -60.708740 114.000000 231.000000 0.874111 0.286321 0.392365
-0.44000000 3.52999997 -0.12000000 83 148 140 97.000000 1.000000 4.000000 1.000000 -60.708740 114.000000 231.000000 0.874111 0.286321 0.392365
-0.41999999 3.54999995 -0.13000000 83 148 140 97.000000 1.000000 4.000000 1.000000 -60.708740 114.000000 231.000000 0.591704 0.774961 0.222083
-0.41999999 3.54999995 -0.14000000 83 148 140 97.000000 1.000000 4.000000 1.000000 -60.708740 114.000000 231.000000 0.752965 0.650221 0.101276
-0.44000000 3.51999998 -0.12000000 83 148 140 97.000000 1.000000 4.000000 1.000000 -60.708740 114.000000 231.000000 0.667801 0.705512 0.237266
-0.44000000 3.51999998 -0.12000000 83 148 140 97.000000 1.000000 4.000000 1.000000 -60.708740 114.000000 231.000000 0.667801 0.705512 0.237266
-0.44000000 3.47000003 -0.06000000 83 148 140 97.000000 1.000000 4.000000 1.000000 -60.708740 114.000000 231.000000 0.893108 0.299691 0.335475
-0.41999999 3.48000002 -0.06000000 83 148 140 97.000000 1.000000 4.000000 1.000000 -60.708740 114.000000 231.000000 0.971011 -0.008320 0.238890
-0.41999999 3.48000002 -0.07000000 83 148 140 97.000000 1.000000 4.000000 1.000000 -60.708740 114.000000 231.000000 0.877282 0.323849 0.354258
-0.41999999 3.47000003 -0.08000000 83 148 140 97.000000 1.000000 4.000000 1.000000 -60.708740 114.000000 231.000000 0.950182 0.098567 0.295700
-0.43000001 3.47000003 -0.17000000 83 148 140 97.000000 1.000000 4.000000 1.000000 -60.708740 114.000000 231.000000 0.964319 0.262324 0.035716
-0.43000001 3.47000003 -0.15000001 83 148 140 97.000000 1.000000 4.000000 1.000000 -60.708740 114.000000 231.000000 0.847208 0.467267 0.252784
-0.44999999 3.33999991 -0.62000000 83 148 140 97.000000 1.000000 4.000000 1.000000 -60.708740 114.000000 231.000000 -0.175399 0.764129 0.620759
-0.47000000 3.31999993 -0.69000000 83 148 140 97.000000 1.000000 4.000000 1.000000 -60.708740 114.000000 231.000000 0.068870 0.979890 0.187279
-0.47999999 3.31999993 -0.69000000 83 148 140 97.000000 1.000000 4.000000 1.000000 -60.708740 114.000000 231.000000 -0.110039 0.983099 0.146316
-0.47999999 3.31999993 -0.69000000 83 148 140 97.000000 1.000000 4.000000 1.000000 -60.708740 114.000000 231.000000 -0.110039 0.983099 0.146316
-0.44000000 3.27999997 -0.69000000 83 148 140 97.000000 1.000000 4.000000 1.000000 -60.708740 114.000000 231.000000 -0.303237 0.870092 0.388570
-0.44999999 3.30999994 -0.64999998 83 148 140 97.000000 1.000000 4.000000 1.000000 -60.708740 114.000000 231.000000 0.019167 0.999702 0.015132
-0.41999999 3.30999994 -0.67000002 83 148 140 97.000000 1.000000 4.000000 1.000000 -60.708740 114.000000 231.000000 -0.183537 0.876575 0.444895
-0.44000000 3.30999994 -0.67000002 83 148 140 97.000000 1.000000 4.000000 1.000000 -60.708740 114.000000 231.000000 -0.078922 0.991670 -0.101798
-0.44999999 3.30999994 -0.66000003 83 148 140 97.000000 1.000000 4.000000 1.000000 -60.708740 114.000000 231.000000 -0.186912 0.978540 -0.086737
-0.44999999 3.30999994 -0.64999998 83 148 140 97.000000 1.000000 4.000000 1.000000 -60.708740 114.000000 231.000000 0.019167 0.999702 0.015132
-0.44000000 3.30999994 -0.64999998 83 148 140 97.000000 1.000000 4.000000 1.000000 -60.708740 114.000000 231.000000 0.061071 0.980724 0.185607
-0.43000001 3.30999994 -0.67000002 83 148 140 97.000000 1.000000 4.000000 1.000000 -60.708740 114.000000 231.000000 -0.059699 0.998124 0.013616
-0.43000001 3.25999999 -0.63999999 83 148 140 97.000000 1.000000 4.000000 1.000000 -60.708740 114.000000 231.000000 -0.299172 0.747129 0.593544
-0.43000001 3.25000000 -0.62000000 83 148 140 97.000000 1.000000 4.000000 1.000000 -60.708740 114.000000 231.000000 0.008789 0.942977 0.332742
-0.41999999 3.49000001 -0.83999997 83 148 140 97.000000 1.000000 4.000000 1.000000 -60.708740 114.000000 231.000000 -0.347649 0.758361 0.551388
-0.41999999 3.46000004 -0.75000000 83 148 140 97.000000 1.000000 4.000000 1.000000 -60.708740 114.000000 231.000000 -0.327046 0.854040 0.404545
-0.43000001 3.45000005 -0.81999999 83 148 140 97.000000 1.000000 4.000000 1.000000 -60.708740 114.000000 231.000000 -0.210061 0.891657 0.401026
-0.43000001 3.35999990 -0.75999999 83 148 140 97.000000 1.000000 4.000000 1.000000 -60.708740 114.000000 231.000000 -0.024734 0.922987 0.384035
-0.43000001 3.35999990 -0.75999999 83 148 140 97.000000 1.000000 4.000000 1.000000 -60.708740 114.000000 231.000000 -0.024734 0.922987 0.384035
-0.46000001 3.32999992 -0.70999998 83 148 140 97.000000 1.000000 4.000000 1.000000 -60.708740 114.000000 231.000000 -0.250339 0.922677 0.293254
-0.46000001 3.32999992 -0.69999999 83 148 140 97.000000 1.000000 4.000000 1.000000 -60.708740 114.000000 231.000000 -0.372123 0.851679 0.369009
-0.46000001 3.32999992 -0.72000003 83 148 140 97.000000 1.000000 4.000000 1.000000 -60.708740 114.000000 231.000000 -0.048170 0.871188 0.488581
-0.43000001 3.40000010 -0.79000002 83 148 140 97.000000 1.000000 4.000000 1.000000 -60.708740 114.000000 231.000000 0.014662 0.883693 0.467837
-0.44000000 3.31999993 -0.83999997 83 148 140 97.000000 1.000000 4.000000 1.000000 -60.708740 114.000000 231.000000 -0.148842 0.980389 0.129160
-0.47999999 3.36999989 -0.81999999 83 148 140 97.000000 1.000000 4.000000 1.000000 -60.708740 114.000000 231.000000 0.222553 0.974711 -0.020232
-0.46000001 3.35999990 -0.77999997 83 148 140 97.000000 1.000000 4.000000 1.000000 -60.708740 114.000000 231.000000 0.228011 0.962858 0.144624
-0.46000001 3.32999992 -0.81999999 83 148 140 97.000000 1.000000 4.000000 1.000000 -60.708740 114.000000 231.000000 0.002967 0.999956 0.008902
-0.50000000 3.33999991 -0.83999997 83 148 140 97.000000 1.000000 4.000000 1.000000 -60.708740 114.000000 231.000000 0.169350 0.909365 0.379969
-0.50999999 3.31999993 -0.81999999 83 148 140 97.000000 1.000000 4.000000 1.000000 -60.708740 114.000000 231.000000 0.172355 0.983018 0.062999
-0.44000000 3.38000011 -0.88000000 83 148 140 97.000000 1.000000 4.000000 1.000000 -60.708740 114.000000 231.000000 -0.108136 0.957587 0.267082
-0.44000000 3.38000011 -0.89999998 83 148 140 97.000000 1.000000 4.000000 1.000000 -60.708740 114.000000 231.000000 0.266706 0.954038 0.136670
-0.44000000 3.38000011 -0.88000000 83 148 140 97.000000 1.000000 4.000000 1.000000 -60.708740 114.000000 231.000000 -0.108136 0.957587 0.267082
-0.44999999 3.39000010 -0.91000003 83 148 140 97.000000 1.000000 4.000000 1.000000 -60.708740 114.000000 231.000000 0.170782 0.969477 0.175918
-0.44000000 3.34999990 -0.88000000 83 148 140 97.000000 1.000000 4.000000 1.000000 -60.708740 114.000000 231.000000 0.255368 0.960545 0.110184
-0.44000000 3.35999990 -0.89999998 83 148 140 97.000000 1.000000 4.000000 1.000000 -60.708740 114.000000 231.000000 -0.072443 0.939118 0.335870
-0.41999999 3.33999991 -0.86000001 83 148 140 97.000000 1.000000 4.000000 1.000000 -60.708740 114.000000 231.000000 -0.016914 0.988886 0.147713
-0.41999999 3.33999991 -0.86000001 83 148 140 97.000000 1.000000 4.000000 1.000000 -60.708740 114.000000 231.000000 -0.016914 0.988886 0.147713
-0.44000000 3.34999990 -0.88000000 83 148 140 97.000000 1.000000 4.000000 1.000000 -60.708740 114.000000 231.000000 0.255368 0.960545 0.110184
-0.43000001 3.34999990 -0.88999999 83 148 140 97.000000 1.000000 4.000000 1.000000 -60.708740 114.000000 231.000000 0.322075 0.891323 0.319079
-0.43000001 3.35999990 -0.91000003 83 148 140 97.000000 1.000000 4.000000 1.000000 -60.708740 114.000000 231.000000 -0.186874 0.974506 0.124165
-0.46000001 3.39000010 -0.88999999 83 148 140 97.000000 1.000000 4.000000 1.000000 -60.708740 114.000000 231.000000 0.218477 0.975386 -0.029847
-0.46000001 3.38000011 -0.88000000 83 148 140 97.000000 1.000000 4.000000 1.000000 -60.708740 114.000000 231.000000 0.360485 0.917470 0.168226
-0.47999999 3.35999990 -0.87000000 83 148 140 97.000000 1.000000 4.000000 1.000000 -60.708740 114.000000 231.000000 0.316874 0.948097 0.026511
-0.44999999 3.31999993 -0.94999999 83 148 140 97.000000 1.000000 4.000000 1.000000 -60.708740 114.000000 231.000000 -0.152277 0.975329 0.159828
-0.41999999 3.33999991 -0.99000001 83 148 140 97.000000 1.000000 4.000000 1.000000 -60.708740 114.000000 231.000000 0.409690 0.827288 0.384381
-0.41999999 3.33999991 -0.99000001 83 148 140 97.000000 1.000000 4.000000 1.000000 -60.708740 114.000000 231.000000 0.409690 0.827288 0.384381
-0.43000001 3.34999990 -1.03999996 83 148 140 97.000000 1.000000 4.000000 1.000000 -60.708740 114.000000 231.000000 -0.012020 0.877475 0.479472
-0.41999999 3.32999992 -1.02999997 83 148 140 97.000000 1.000000 4.000000 1.000000 -60.708740 114.000000 231.000000 0.075346 0.831648 0.550167
-0.44999999 3.28999996 -0.72000003 83 148 140 97.000000 1.000000 4.000000 1.000000 -60.708740 114.000000 231.000000 -0.124916 0.986243 0.108261
-0.44999999 3.28999996 -0.73000002 83 148 140 97.000000 1.000000 4.000000 1.000000 -60.708740 114.000000 231.000000 -0.198865 0.747671 0.633593
-0.44999999 3.29999995 -0.75999999 83 148 140 97.000000 1.000000 4.000000 1.000000 -60.708740 114.000000 231.000000 -0.029536 0.979419 0.199664
-0.41999999 3.25000000 -0.75999999 83 148 140 97.000000 1.000000 4.000000 1.000000 -60.708740 114.000000 231.000000 -0.003425 0.982957 0.183805
-0.49000001 3.30999994 -0.73000002 83 148 140 97.000000 1.000000 4.000000 1.000000 -60.708740 114.000000 231.000000 0.226983 0.961724 0.153509
-0.50000000 3.27999997 -0.69999999 83 148 140 97.000000 1.000000 4.000000 1.000000 -60.708740 114.000000 231.000000 0.132766 0.989397 0.058879
-0.47000000 3.29999995 -0.73000002 83 148 140 97.000000 1.000000 4.000000 1.000000 -60.708740 114.000000 231.000000 -0.111178 0.713023 0.692270
-0.02000000 2.97000003 -0.13000000 83 148 140 97.000000 1.000000 4.000000 1.000000 -60.708740 114.000000 231.000000 0.765729 -0.632430 0.117007
-0.16000000 2.97000003 -0.09000000 83 148 140 97.000000 1.000000 4.000000 1.000000 -60.708740 114.000000 231.000000 0.792524 -0.587223 0.164543
-0.16000000 2.97000003 -0.09000000 83 148 140 97.000000 1.000000 4.000000 1.000000 -60.708740 114.000000 231.000000 0.792524 -0.587223 0.164543
-0.17000000 2.97000003 -0.07000000 83 148 140 97.000000 1.000000 4.000000 1.000000 -60.708740 114.000000 231.000000 -0.444588 0.895734 0.001311
-0.23000000 2.96000004 -0.08000000 83 148 140 97.000000 1.000000 4.000000 1.000000 -60.708740 114.000000 231.000000 0.803548 -0.535178 0.260568
-0.20999999 2.98000002 -0.10000000 83 148 140 97.000000 1.000000 4.000000 1.000000 -60.708740 114.000000 231.000000 -0.424562 0.859852 0.283552
-0.34000000 2.98000002 -0.31000000 83 148 140 97.000000 1.000000 4.000000 1.000000 -60.708740 114.000000 231.000000 -0.324006 0.834277 0.446096
0.28000000 3.74000001 -0.50999999 83 148 140 97.000000 1.000000 4.000000 1.000000 -60.708740 114.000000 231.000000 0.960885 0.186361 0.204865
0.27000001 3.75000000 -0.50000000 83 148 140 97.000000 1.000000 4.000000 1.000000 -60.708740 114.000000 231.000000 0.825025 0.060851 0.561810
0.28000000 3.73000002 -0.50000000 83 148 140 97.000000 1.000000 4.000000 1.000000 -60.708740 114.000000 231.000000 0.895578 0.224997 0.383819
0.25999999 3.66000009 -0.55000001 83 148 140 97.000000 1.000000 4.000000 1.000000 -60.708740 114.000000 231.000000 0.895265 -0.258961 0.362545
-0.19000000 3.68000007 0.44000000 83 148 140 97.000000 1.000000 4.000000 1.000000 -60.708740 114.000000 231.000000 0.357239 0.767822 0.531818
-0.22000000 3.70000005 0.43000001 83 148 140 97.000000 1.000000 4.000000 1.000000 -60.708740 114.000000 231.000000 0.720002 0.503835 0.477230
-0.22000000 3.71000004 0.41999999 83 148 140 97.000000 1.000000 4.000000 1.000000 -60.708740 114.000000 231.000000 0.715372 0.642082 0.275633
-0.22000000 3.70000005 0.43000001 83 148 140 97.000000 1.000000 4.000000 1.000000 -60.708740 114.000000 231.000000 0.720002 0.503835 0.477230
-0.20999999 3.71000004 0.38999999 83 148 140 97.000000 1.000000 4.000000 1.000000 -60.708740 114.000000 231.000000 0.707401 0.663287 0.244203
-0.23999999 3.71000004 0.38000000 83 148 140 97.000000 1.000000 4.000000 1.000000 -60.708740 114.000000 231.000000 0.774524 0.554144 0.305019
-0.22000000 3.68000007 0.38000000 83 148 140 97.000000 1.000000 4.000000 1.000000 -60.708740 114.000000 231.000000 0.686332 0.726120 0.041208
-0.20999999 3.66000009 0.34999999 83 148 140 97.000000 1.000000 4.000000 1.000000 -60.708740 114.000000 231.000000 0.511509 0.726707 0.458537
-0.20999999 3.66000009 0.34999999 83 148 140 97.000000 1.000000 4.000000 1.000000 -60.708740 114.000000 231.000000 0.511509 0.726707 0.458537
-0.28000000 3.78999996 0.38999999 83 148 140 97.000000 1.000000 4.000000 1.000000 -60.708740 114.000000 231.000000 0.566800 0.778363 0.269980
-0.31999999 3.74000001 0.34000000 83 148 140 97.000000 1.000000 4.000000 1.000000 -60.708740 114.000000 231.000000 0.597165 0.768675 0.229199
-0.28000000 3.73000002 0.44000000 83 148 140 97.000000 1.000000 4.000000 1.000000 -60.708740 114.000000 231.000000 0.610027 0.489030 0.623471
-0.30000001 3.72000003 0.33000001 83 148 140 97.000000 1.000000 4.000000 1.000000 -60.708740 114.000000 231.000000 0.629608 0.755223 0.182295
-0.28999999 3.73000002 0.33000001 83 148 140 97.000000 1.000000 4.000000 1.000000 -60.708740 114.000000 231.000000 0.407376 0.881902 0.237263
-0.38000000 3.78999996 0.31999999 83 148 140 97.000000 1.000000 4.000000 1.000000 -60.708740 114.000000 231.000000 0.546136 0.768457 0.333481
-0.38000000 3.78999996 0.31999999 83 148 140 97.000000 1.000000 4.000000 1.000000 -60.708740 114.000000 231.000000 0.546136 0.768457 0.333481
-0.38000000 3.77999997 0.33000001 83 148 140 97.000000 1.000000 4.000000 1.000000 -60.708740 114.000000 231.000000 0.576398 0.711827 0.401332
-0.15000001 3.75000000 0.23000000 83 148 140 97.000000 1.000000 4.000000 1.000000 -60.708740 114.000000 231.000000 0.556345 0.759532 0.337032
-0.15000001 3.75000000 0.23000000 83 148 140 97.000000 1.000000 4.000000 1.000000 -60.708740 114.000000 231.000000 0.556345 0.759532 0.337032
-0.09000000 3.67000008 0.27000001 83 148 140 97.000000 1.000000 4.000000 1.000000 -60.708740 114.000000 231.000000 0.505497 0.772062 0.385218
-0.23999999 3.81999993 0.25999999 83 148 140 97.000000 1.000000 4.000000 1.000000 -60.708740 114.000000 231.000000 0.425725 0.827711 0.365586
-0.20000000 3.75000000 0.17000000 83 148 140 97.000000 1.000000 4.000000 1.000000 -60.708740 114.000000 231.000000 0.684509 0.728940 0.009719
-0.23000000 3.76999998 0.22000000 83 148 140 97.000000 1.000000 4.000000 1.000000 -60.708740 114.000000 231.000000 0.654496 0.752743 0.070795
-0.22000000 3.72000003 0.18000001 83 148 140 97.000000 1.000000 4.000000 1.000000 -60.708740 114.000000 231.000000 0.418677 0.866281 0.272521
-0.22000000 3.72000003 0.12000000 83 148 140 97.000000 1.000000 4.000000 1.000000 -60.708740 114.000000 231.000000 0.445098 0.838658 0.313911
-0.25000000 3.82999992 0.25000000 83 148 140 97.000000 1.000000 4.000000 1.000000 -60.708740 114.000000 231.000000 0.565377 0.789659 0.238300
-0.25999999 3.78999996 0.25000000 83 148 140 97.000000 1.000000 4.000000 1.000000 -60.708740 114.000000 231.000000 0.336999 0.793785 0.506297
-0.25999999 3.78999996 0.25999999 83 148 140 97.000000 1.000000 4.000000 1.000000 -60.708740 114.000000 231.000000 0.402446 0.898651 0.174537
-0.31000000 3.78999996 0.25999999 83 148 140 97.000000 1.000000 4.000000 1.000000 -60.708740 114.000000 231.000000 0.631931 0.674830 0.381139
-0.31000000 3.76999998 0.28999999 83 148 140 97.000000 1.000000 4.000000 1.000000 -60.708740 114.000000 231.000000 0.588049 0.805527 0.072970
-0.30000001 3.76999998 0.28000000 83 148 140 97.000000 1.000000 4.000000 1.000000 -60.708740 114.000000 231.000000 0.559526 0.683123 0.469334
-0.31000000 3.76999998 0.28000000 83 148 140 97.000000 1.000000 4.000000 1.000000 -60.708740 114.000000 231.000000 0.754170 0.584442 0.299426
-0.28000000 3.81999993 0.20000000 83 148 140 97.000000 1.000000 4.000000 1.000000 -60.708740 114.000000 231.000000 0.604731 0.789225 0.106889
-0.28000000 3.74000001 0.15000001 83 148 140 97.000000 1.000000 4.000000 1.000000 -60.708740 114.000000 231.000000 0.403411 0.827388 0.390755
-0.30000001 3.73000002 0.30000001 83 148 140 97.000000 1.000000 4.000000 1.000000 -60.708740 114.000000 231.000000 0.668346 0.743692 0.015348
-0.28000000 3.73000002 0.17000000 83 148 140 97.000000 1.000000 4.000000 1.000000 -60.708740 114.000000 231.000000 0.448325 0.726253 0.521116
-0.34000000 3.79999995 0.28999999 83 148 140 97.000000 1.000000 4.000000 1.000000 -60.708740 114.000000 231.000000 0.471316 0.860857 0.191797
-0.37000000 3.78999996 0.31000000 83 148 140 97.000000 1.000000 4.000000 1.000000 -60.708740 114.000000 231.000000 0.279047 0.947681 0.155026
-0.34999999 3.76999998 0.28999999 83 148 140 97.000000 1.000000 4.000000 1.000000 -60.708740 114.000000 231.000000 0.690808 0.714476 0.110943
-0.40000001 3.70000005 0.28000000 83 148 140 97.000000 1.000000 4.000000 1.000000 -60.708740 114.000000 231.000000 0.690514 0.711484 0.130314
-0.23999999 3.34999990 0.88999999 83 148 140 97.000000 1.000000 4.000000 1.000000 -60.708740 114.000000 231.000000 0.946890 0.096138 0.306850
-0.20999999 3.31999993 0.87000000 83 148 140 97.000000 1.000000 4.000000 1.000000 -60.708740 114.000000 231.000000 0.773031 0.012491 0.634246
-0.23999999 3.34999990 0.89999998 83 148 140 97.000000 1.000000 4.000000 1.000000 -60.708740 114.000000 231.000000 0.945962 0.232028 0.226537
-0.16000000 3.33999991 0.70999998 83 148 140 97.000000 1.000000 4.000000 1.000000 -60.708740 114.000000 231.000000 0.761919 0.136217 0.633186
-0.22000000 3.32999992 0.76999998 83 148 140 97.000000 1.000000 4.000000 1.000000 -60.708740 114.000000 231.000000 0.737085 0.609174 0.292596
-0.28999999 3.34999990 0.92000002 83 148 140 97.000000 1.000000 4.000000 1.000000 -60.708740 114.000000 231.000000 0.542717 0.617108 0.569768
-0.28000000 3.31999993 0.91000003 83 148 140 97.000000 1.000000 4.000000 1.000000 -60.708740 114.000000 231.000000 0.591270 0.365245 0.719024
-0.34000000 3.31999993 0.92000002 83 148 140 97.000000 1.000000 4.000000 1.000000 -60.708740 114.000000 231.000000 0.643547 0.713811 0.276262
-0.37000000 3.31999993 0.83999997 83 148 140 97.000000 1.000000 4.000000 1.000000 -60.708740 114.000000 231.000000 0.970984 0.062923 0.230717
-0.36000001 3.34999990 0.81999999 83 148 140 97.000000 1.000000 4.000000 1.000000 -60.708740 114.000000 231.000000 0.876578 0.221749 0.427127
-0.36000001 3.34999990 0.82999998 83 148 140 97.000000 1.000000 4.000000 1.000000 -60.708740 114.000000 231.000000 0.744530 0.233547 0.625405
-0.37000000 3.31999993 0.85000002 83 148 140 97.000000 1.000000 4.000000 1.000000 -60.708740 114.000000 231.000000 0.938296 0.137544 0.317305
-0.27000001 3.32999992 0.80000001 83 148 140 97.000000 1.000000 4.000000 1.000000 -60.708740 114.000000 231.000000 0.830084 0.046194 0.555722
-0.31000000 3.40000010 0.75000000 83 148 140 97.000000 1.000000 4.000000 1.000000 -60.708740 114.000000 231.000000 0.708843 0.300575 0.638119
-0.33000001 3.31999993 0.79000002 83 148 140 97.000000 1.000000 4.000000 1.000000 -60.708740 114.000000 231.000000 0.562254 0.558877 0.609530
-0.33000001 3.32999992 0.75000000 83 148 140 97.000000 1.000000 4.000000 1.000000 -60.708740 114.000000 231.000000 0.617444 0.307916 0.723844
-0.30000001 3.32999992 0.72000003 83 148 140 97.000000 1.000000 4.000000 1.000000 -60.708740 114.000000 231.000000 0.639616 0.531607 0.555234
-0.33000001 3.35999990 0.70999998 83 148 140 97.000000 1.000000 4.000000 1.000000 -60.708740 114.000000 231.000000 0.828292 0.381680 0.410187
-0.34000000 3.36999989 0.75000000 83 148 140 97.000000 1.000000 4.000000 1.000000 -60.708740 114.000000 231.000000 0.584888 0.722509 0.368627
-0.34999999 3.34999990 0.81000000 83 148 140 97.000000 1.000000 4.000000 1.000000 -60.708740 114.000000 231.000000 0.928607 0.051370 0.367491
-0.36000001 3.32999992 0.75999999 83 148 140 97.000000 1.000000 4.000000 1.000000 -60.708740 114.000000 231.000000 0.723251 0.654519 0.220256
-0.34999999 3.34999990 0.73000002 83 148 140 97.000000 1.000000 4.000000 1.000000 -60.708740 114.000000 231.000000 0.783133 0.548034 0.293873
-0.41000000 3.34999990 0.66000003 83 148 140 97.000000 1.000000 4.000000 1.000000 -60.708740 114.000000 231.000000 0.858367 0.208225 0.468881
-0.12000000 3.26999998 0.86000001 83 148 140 97.000000 1.000000 4.000000 1.000000 -60.708740 114.000000 231.000000 0.944564 0.322629 0.060898
-0.10000000 3.25000000 0.83999997 83 148 140 97.000000 1.000000 4.000000 1.000000 -60.708740 114.000000 231.000000 0.878912 -0.161255 0.448899
-0.11000000 3.25000000 0.81999999 83 148 140 97.000000 1.000000 4.000000 1.000000 -60.708740 114.000000 231.000000 0.813713 0.081802 0.575483
-0.16000000 3.30999994 0.83999997 83 148 140 97.000000 1.000000 4.000000 1.000000 -60.708740 114.000000 231.000000 0.753136 0.534220 0.383920
-0.15000001 3.29999995 0.81999999 83 148 140 97.000000 1.000000 4.000000 1.000000 -60.708740 114.000000 231.000000 0.731304 0.402628 0.550532
-0.16000000 3.30999994 0.83999997 83 148 140 97.000000 1.000000 4.000000 1.000000 -60.708740 114.000000 231.000000 0.753136 0.534220 0.383920
-0.17000000 3.30999994 0.82999998 83 148 140 97.000000 1.000000 4.000000 1.000000 -60.708740 114.000000 231.000000 0.969364 0.225639 0.097062
-0.20999999 3.30999994 0.87000000 83 148 140 97.000000 1.000000 4.000000 1.000000 -60.708740 114.000000 231.000000 0.837334 -0.045977 0.544755
-0.09000000 3.25000000 0.79000002 83 148 140 97.000000 1.000000 4.000000 1.000000 -60.708740 114.000000 231.000000 0.975837 0.196652 -0.095234
-0.10000000 3.26999998 0.81000000 83 148 140 97.000000 1.000000 4.000000 1.000000 -60.708740 114.000000 231.000000 0.775477 0.262687 0.574136
-0.14000000 3.29999995 0.81000000 83 148 140 97.000000 1.000000 4.000000 1.000000 -60.708740 114.000000 231.000000 0.747018 0.313266 0.586369
-0.12000000 3.29999995 0.72000003 83 148 140 97.000000 1.000000 4.000000 1.000000 -60.708740 114.000000 231.000000 0.782165 -0.035106 0.622081
-0.12000000 3.30999994 0.69999999 83 148 140 97.000000 1.000000 4.000000 1.000000 -60.708740 114.000000 231.000000 0.956574 -0.057166 0.285829
-0.17000000 3.30999994 0.74000001 83 148 140 97.000000 1.000000 4.000000 1.000000 -60.708740 114.000000 231.000000 0.996352 0.026987 0.080960
-0.17000000 3.29999995 0.73000002 83 148 140 97.000000 1.000000 4.000000 1.000000 -60.708740 114.000000 231.000000 0.997743 0.062558 0.024387
-0.17000000 3.28999996 0.68000001 83 148 140 97.000000 1.000000 4.000000 1.000000 -60.708740 114.000000 231.000000 0.982571 -0.012671 0.185456
-0.17000000 3.25999999 0.69999999 83 148 140 97.000000 1.000000 4.000000 1.000000 -60.708740 114.000000 231.000000 0.959907 -0.110111 0.257789
-0.17000000 3.25999999 0.69000000 83 148 140 97.000000 1.000000 4.000000 1.000000 -60.708740 114.000000 231.000000 0.933686 -0.042973 0.355504
-0.37000000 3.30999994 0.92000002 83 148 140 97.000000 1.000000 4.000000 1.000000 -60.708740 114.000000 231.000000 0.964331 0.025732 0.263445
-0.34000000 3.28999996 0.86000001 83 148 140 97.000000 1.000000 4.000000 1.000000 -60.708740 114.000000 231.000000 0.994137 0.094627 0.052323
-0.36000001 3.24000001 0.83999997 83 148 140 97.000000 1.000000 4.000000 1.000000 -60.708740 114.000000 231.000000 0.758822 0.460538 0.460538
-0.36000001 3.25000000 0.81999999 83 148 140 97.000000 1.000000 4.000000 1.000000 -60.708740 114.000000 231.000000 0.772208 0.530389 0.349831
-0.28999999 3.25000000 0.75000000 83 148 140 97.000000 1.000000 4.000000 1.000000 -60.708740 114.000000 231.000000 0.907546 0.402889 0.118497
-0.33000001 3.30999994 0.80000001 83 148 140 97.000000 1.000000 4.000000 1.000000 -60.708740 114.000000 231.000000 0.858813 0.393173 0.328415
-0.31000000 3.27999997 0.74000001 83 148 140 97.000000 1.000000 4.000000 1.000000 -60.708740 114.000000 231.000000 0.936182 0.056302 0.346977
-0.30000001 3.27999997 0.72000003 83 148 140 97.000000 1.000000 4.000000 1.000000 -60.708740 114.000000 231.000000 0.875887 0.076832 0.476360
-0.36000001 3.27999997 0.80000001 83 148 140 97.000000 1.000000 4.000000 1.000000 -60.708740 114.000000 231.000000 0.631142 0.587383 0.506597
-0.36000001 3.30999994 0.76999998 83 148 140 97.000000 1.000000 4.000000 1.000000 -60.708740 114.000000 231.000000 0.794746 0.049583 0.604914
-0.36000001 3.26999998 0.81000000 83 148 140 97.000000 1.000000 4.000000 1.000000 -60.708740 114.000000 231.000000 0.631166 0.660985 0.405868
-0.34000000 3.25999999 0.77999997 83 148 140 97.000000 1.000000 4.000000 1.000000 -60.708740 114.000000 231.000000 0.924882 -0.130945 0.356996
-0.34999999 3.25000000 0.80000001 83 148 140 97.000000 1.000000 4.000000 1.000000 -60.708740 114.000000 231.000000 0.897696 -0.113792 0.425668
-0.37000000 3.30999994 0.69999999 83 148 140 97.000000 1.000000 4.000000 1.000000 -60.708740 114.000000 231.000000 0.803012 0.154023 0.575716
-0.37000000 3.25999999 0.68000001 83 148 140 97.000000 1.000000 4.000000 1.000000 -60.708740 114.000000 231.000000 0.979686 0.146645 0.136786
-0.36000001 3.26999998 0.66000003 83 148 140 97.000000 1.000000 4.000000 1.000000 -60.708740 114.000000 231.000000 0.857493 0.411042 0.309436
-0.38000000 3.30999994 0.69999999 83 148 140 97.000000 1.000000 4.000000 1.000000 -60.708740 114.000000 231.000000 0.837017 0.108422 0.536327
-0.40000001 3.30999994 0.69000000 83 148 140 97.000000 1.000000 4.000000 1.000000 -60.708740 114.000000 231.000000 0.942302 0.108264 0.316774
-0.08000000 3.50999999 0.37000000 83 148 140 97.000000 1.000000 4.000000 1.000000 -60.708740 114.000000 231.000000 0.799794 0.587694 0.122252
-0.02000000 3.42000008 0.49000001 83 148 140 97.000000 1.000000 4.000000 1.000000 -60.708740 114.000000 231.000000 0.978530 0.205945 -0.008145
-0.06000000 3.42000008 0.50999999 83 148 140 97.000000 1.000000 4.000000 1.000000 -60.708740 114.000000 231.000000 0.981797 -0.065772 0.178182
-0.04000000 3.42000008 0.50999999 83 148 140 97.000000 1.000000 4.000000 1.000000 -60.708740 114.000000 231.000000 0.917104 0.389939 0.082879
-0.06000000 3.42000008 0.50999999 83 148 140 97.000000 1.000000 4.000000 1.000000 -60.708740 114.000000 231.000000 0.981797 -0.065772 0.178182
-0.04000000 3.44000006 0.50999999 83 148 140 97.000000 1.000000 4.000000 1.000000 -60.708740 114.000000 231.000000 0.943952 0.093998 0.316416
-0.04000000 3.39000010 0.50999999 83 148 140 97.000000 1.000000 4.000000 1.000000 -60.708740 114.000000 231.000000 0.999864 0.006978 -0.014953
-0.02000000 3.44000006 0.47000000 83 148 140 97.000000 1.000000 4.000000 1.000000 -60.708740 114.000000 231.000000 0.979457 -0.036804 0.198266
-0.02000000 3.43000007 0.47999999 83 148 140 97.000000 1.000000 4.000000 1.000000 -60.708740 114.000000 231.000000 0.960108 0.274854 0.051457
-0.07000000 3.46000004 0.44000000 83 148 140 97.000000 1.000000 4.000000 1.000000 -60.708740 114.000000 231.000000 0.769876 0.603249 0.208283
-0.06000000 3.44000006 0.47000000 83 148 140 97.000000 1.000000 4.000000 1.000000 -60.708740 114.000000 231.000000 0.987304 0.157923 -0.017042
-0.07000000 3.41000009 0.41999999 83 148 140 97.000000 1.000000 4.000000 1.000000 -60.708740 114.000000 231.000000 0.730169 0.392158 0.559523
-0.07000000 3.41000009 0.43000001 83 148 140 97.000000 1.000000 4.000000 1.000000 -60.708740 114.000000 231.000000 0.927560 -0.163195 0.336153
-0.04000000 3.41000009 0.44000000 83 148 140 97.000000 1.000000 4.000000 1.000000 -60.708740 114.000000 231.000000 0.955385 -0.155466 0.251137
-0.04000000 3.41000009 0.44000000 83 148 140 97.000000 1.000000 4.000000 1.000000 -60.708740 114.000000 231.000000 0.955385 -0.155466 0.251137
-0.07000000 3.42000008 0.41999999 83 148 140 97.000000 1.000000 4.000000 1.000000 -60.708740 114.000000 231.000000 0.915133 0.168316 0.366336
-0.07000000 3.44000006 0.41999999 83 148 140 97.000000 1.000000 4.000000 1.000000 -60.708740 114.000000 231.000000 0.969774 0.005950 0.243931
-0.07000000 3.44000006 0.41999999 83 148 140 97.000000 1.000000 4.000000 1.000000 -60.708740 114.000000 231.000000 0.969774 0.005950 0.243931
-0.02000000 3.41000009 0.36000001 83 148 140 97.000000 1.000000 4.000000 1.000000 -60.708740 114.000000 231.000000 0.897204 0.362133 0.252754
-0.01000000 3.43000007 0.33000001 83 148 140 97.000000 1.000000 4.000000 1.000000 -60.708740 114.000000 231.000000 0.915375 -0.014323 0.402348
-0.07000000 3.41000009 0.38999999 83 148 140 97.000000 1.000000 4.000000 1.000000 -60.708740 114.000000 231.000000 0.906550 0.270940 0.323663
-0.05000000 3.41000009 0.37000000 83 148 140 97.000000 1.000000 4.000000 1.000000 -60.708740 114.000000 231.000000 0.878053 0.279587 0.388399
-0.04000000 3.43000007 0.33000001 83 148 140 97.000000 1.000000 4.000000 1.000000 -60.708740 114.000000 231.000000 0.921844 0.093678 0.376069
-0.02000000 3.36999989 0.47000000 83 148 140 97.000000 1.000000 4.000000 1.000000 -60.708740 114.000000 231.000000 0.943573 -0.147560 0.296474
-0.03000000 3.40000010 0.41999999 83 148 140 97.000000 1.000000 4.000000 1.000000 -60.708740 114.000000 231.000000 0.999123 -0.041757 0.003055
-0.04000000 3.35999990 0.40000001 83 148 140 97.000000 1.000000 4.000000 1.000000 -60.708740 114.000000 231.000000 0.858789 0.224885 0.460335
-0.02000000 3.38000011 0.33000001 83 148 140 97.000000 1.000000 4.000000 1.000000 -60.708740 114.000000 231.000000 -0.825010 0.143673 -0.546550
-0.04000000 3.40000010 0.36000001 83 148 140 97.000000 1.000000 4.000000 1.000000 -60.708740 114.000000 231.000000 0.962361 -0.216630 0.164113
-0.08000000 3.40000010 0.33000001 83 148 140 97.000000 1.000000 4.000000 1.000000 -60.708740 114.000000 231.000000 0.896392 -0.152973 0.416029
-0.05000000 3.60999990 0.31000000 83 148 140 97.000000 1.000000 4.000000 1.000000 -60.708740 114.000000 231.000000 0.701867 0.545155 0.458464
-0.08000000 3.46000004 0.22000000 83 148 140 97.000000 1.000000 4.000000 1.000000 -60.708740 114.000000 231.000000 0.886085 -0.188934 0.423270
-0.05000000 3.42000008 0.17000000 83 148 140 97.000000 1.000000 4.000000 1.000000 -60.708740 114.000000 231.000000 0.967267 -0.230666 0.105775
-0.05000000 3.39000010 0.20000000 83 148 140 97.000000 1.000000 4.000000 1.000000 -60.708740 114.000000 231.000000 0.849545 -0.298656 0.434831
-0.06000000 3.40000010 0.22000000 83 148 140 97.000000 1.000000 4.000000 1.000000 -60.708740 114.000000 231.000000 0.996270 -0.086124 -0.005316
-0.06000000 3.40000010 0.22000000 83 148 140 97.000000 1.000000 4.000000 1.000000 -60.708740 114.000000 231.000000 0.996270 -0.086124 -0.005316
-0.06000000 3.40000010 0.22000000 83 148 140 97.000000 1.000000 4.000000 1.000000 -60.708740 114.000000 231.000000 0.996270 -0.086124 -0.005316
-0.08000000 3.34999990 0.19000000 83 148 140 97.000000 1.000000 4.000000 1.000000 -60.708740 114.000000 231.000000 0.884721 -0.289900 0.365004
-0.08000000 3.44000006 0.13000000 83 148 140 97.000000 1.000000 4.000000 1.000000 -60.708740 114.000000 231.000000 0.913793 -0.103370 0.392807
-0.06000000 3.42000008 0.12000000 83 148 140 97.000000 1.000000 4.000000 1.000000 -60.708740 114.000000 231.000000 0.909414 -0.038613 0.414096
-0.06000000 3.41000009 0.00000000 83 148 140 97.000000 1.000000 4.000000 1.000000 -60.708740 114.000000 231.000000 0.928621 -0.073277 0.363721
-0.06000000 3.39000010 0.13000000 83 148 140 97.000000 1.000000 4.000000 1.000000 -60.708740 114.000000 231.000000 0.888284 -0.096522 0.449038
-0.06000000 3.39000010 0.13000000 83 148 140 97.000000 1.000000 4.000000 1.000000 -60.708740 114.000000 231.000000 0.888284 -0.096522 0.449038
-0.05000000 3.31999993 0.09000000 83 148 140 97.000000 1.000000 4.000000 1.000000 -60.708740 114.000000 231.000000 0.966087 -0.200998 -0.162095
-0.07000000 3.40000010 0.05000000 83 148 140 97.000000 1.000000 4.000000 1.000000 -60.708740 114.000000 231.000000 0.868467 0.109806 0.483433
-0.07000000 3.39000010 -0.02000000 83 148 140 97.000000 1.000000 4.000000 1.000000 -60.708740 114.000000 231.000000 0.989570 -0.124131 0.073087
-0.08000000 3.38000011 0.00000000 83 148 140 97.000000 1.000000 4.000000 1.000000 -60.708740 114.000000 231.000000 0.929229 -0.341040 0.142215
-0.06000000 3.40000010 -0.01000000 83 148 140 97.000000 1.000000 4.000000 1.000000 -60.708740 114.000000 231.000000 0.950699 -0.309384 -0.021294
-0.06000000 3.40000010 -0.01000000 83 148 140 97.000000 1.000000 4.000000 1.000000 -60.708740 114.000000 231.000000 0.950699 -0.309384 -0.021294
-0.07000000 3.31999993 0.06000000 83 148 140 97.000000 1.000000 4.000000 1.000000 -60.708740 114.000000 231.000000 0.963780 0.095740 0.248923
-0.07000000 3.35999990 0.03000000 83 148 140 97.000000 1.000000 4.000000 1.000000 -60.708740 114.000000 231.000000 0.943832 -0.003740 0.330404
-0.08000000 3.35999990 -0.02000000 83 148 140 97.000000 1.000000 4.000000 1.000000 -60.708740 114.000000 231.000000 0.902273 -0.422898 0.084028
0.01000000 3.17000008 0.41999999 83 148 140 97.000000 1.000000 4.000000 1.000000 -60.708740 114.000000 231.000000 0.974246 -0.221474 -0.042359
-0.05000000 3.19000006 0.41999999 83 148 140 97.000000 1.000000 4.000000 1.000000 -60.708740 114.000000 231.000000 0.992720 -0.107047 0.055214
0.00000000 3.18000007 0.38999999 83 148 140 97.000000 1.000000 4.000000 1.000000 -60.708740 114.000000 231.000000 0.886772 -0.317672 0.335739
0.01000000 3.15000010 0.41999999 83 148 140 97.000000 1.000000 4.000000 1.000000 -60.708740 114.000000 231.000000 0.900069 -0.349127 0.260740
0.01000000 3.06999993 0.40000001 83 148 140 97.000000 1.000000 4.000000 1.000000 -60.708740 114.000000 231.000000 0.820706 -0.563060 0.096979
0.01000000 3.06999993 0.40000001 83 148 140 97.000000 1.000000 4.000000 1.000000 -60.708740 114.000000 231.000000 0.820706 -0.563060 0.096979
0.01000000 3.09999990 0.34999999 83 148 140 97.000000 1.000000 4.000000 1.000000 -60.708740 114.000000 231.000000 0.849179 -0.295434 0.437737
-0.03000000 3.11999989 0.44000000 83 148 140 97.000000 1.000000 4.000000 1.000000 -60.708740 114.000000 231.000000 0.888190 -0.338143 0.311092
0.00000000 3.15000010 0.40000001 83 148 140 97.000000 1.000000 4.000000 1.000000 -60.708740 114.000000 231.000000 0.982521 -0.137577 0.125402
0.00000000 3.08999991 0.36000001 83 148 140 97.000000 1.000000 4.000000 1.000000 -60.708740 114.000000 231.000000 0.904126 -0.426174 -0.030536
-0.05000000 3.01999998 0.46000001 83 148 140 97.000000 1.000000 4.000000 1.000000 -60.708740 114.000000 231.000000 0.794096 -0.607086 -0.029308
0.03000000 3.21000004 0.20000000 83 148 140 97.000000 1.000000 4.000000 1.000000 -60.708740 114.000000 231.000000 0.865181 0.001337 0.501457
-0.03000000 3.20000005 0.19000000 83 148 140 97.000000 1.000000 4.000000 1.000000 -60.708740 114.000000 231.000000 0.853526 -0.209242 0.477192
-0.01000000 3.19000006 0.23000000 83 148 140 97.000000 1.000000 4.000000 1.000000 -60.708740 114.000000 231.000000 0.994324 -0.102179 -0.029665
-0.07000000 3.21000004 0.16000000 83 148 140 97.000000 1.000000 4.000000 1.000000 -60.708740 114.000000 231.000000 0.964330 -0.244604 0.101171
-0.04000000 3.16000009 0.22000000 83 148 140 97.000000 1.000000 4.000000 1.000000 -60.708740 114.000000 231.000000 0.964808 -0.231192 0.125283
-0.04000000 3.16000009 0.15000001 83 148 140 97.000000 1.000000 4.000000 1.000000 -60.708740 114.000000 231.000000 0.887816 -0.185144 0.421312
-0.04000000 3.16000009 0.16000000 83 148 140 97.000000 1.000000 4.000000 1.000000 -60.708740 114.000000 231.000000 0.896137 -0.397797 0.196713
-0.04000000 3.16000009 0.15000001 83 148 140 97.000000 1.000000 4.000000 1.000000 -60.708740 114.000000 231.000000 0.887816 -0.185144 0.421312
-0.04000000 3.16000009 0.16000000 83 148 140 97.000000 1.000000 4.000000 1.000000 -60.708740 114.000000 231.000000 0.896137 -0.397797 0.196713
-0.07000000 3.27999997 0.09000000 83 148 140 97.000000 1.000000 4.000000 1.000000 -60.708740 114.000000 231.000000 0.923813 -0.382667 0.011596
-0.06000000 3.30999994 0.11000000 83 148 140 97.000000 1.000000 4.000000 1.000000 -60.708740 114.000000 231.000000 0.894182 -0.420538 0.153575
-0.07000000 3.29999995 0.11000000 83 148 140 97.000000 1.000000 4.000000 1.000000 -60.708740 114.000000 231.000000 0.816376 -0.334476 0.470803
-0.02000000 3.19000006 0.13000000 83 148 140 97.000000 1.000000 4.000000 1.000000 -60.708740 114.000000 231.000000 0.927432 -0.154340 0.340661
0.02000000 3.09999990 0.28999999 83 148 140 97.000000 1.000000 4.000000 1.000000 -60.708740 114.000000 231.000000 0.817508 -0.290286 0.497409
0.00000000 3.10999990 0.27000001 83 148 140 97.000000 1.000000 4.000000 1.000000 -60.708740 114.000000 231.000000 0.864253 -0.502912 -0.012135
-0.06000000 3.15000010 0.19000000 83 148 140 97.000000 1.000000 4.000000 1.000000 -60.708740 114.000000 231.000000 0.939427 -0.206757 0.273364
-0.06000000 3.14000010 0.17000000 83 148 140 97.000000 1.000000 4.000000 1.000000 -60.708740 114.000000 231.000000 0.845288 -0.226118 0.484106
-0.07000000 3.14000010 0.08000000 83 148 140 97.000000 1.000000 4.000000 1.000000 -60.708740 114.000000 231.000000 0.865804 -0.230379 0.444195
-0.03000000 3.10999990 0.02000000 83 148 140 97.000000 1.000000 4.000000 1.000000 -60.708740 114.000000 231.000000 0.805557 -0.462835 0.369948
-0.05000000 3.13000011 0.02000000 83 148 140 97.000000 1.000000 4.000000 1.000000 -60.708740 114.000000 231.000000 0.789380 -0.482668 0.379355
-0.19000000 3.63000011 0.41000000 83 148 140 97.000000 1.000000 4.000000 1.000000 -60.708740 114.000000 231.000000 0.612842 0.481878 0.626274
-0.20000000 3.65000010 0.34000000 83 148 140 97.000000 1.000000 4.000000 1.000000 -60.708740 114.000000 231.000000 0.834873 0.537641 0.118019
-0.17000000 3.61999989 0.38999999 83 148 140 97.000000 1.000000 4.000000 1.000000 -60.708740 114.000000 231.000000 0.737332 0.577821 0.349948
-0.09000000 3.41000009 0.46000001 83 148 140 97.000000 1.000000 4.000000 1.000000 -60.708740 114.000000 231.000000 0.692557 0.542364 0.475611
-0.09000000 3.35999990 0.44000000 83 148 140 97.000000 1.000000 4.000000 1.000000 -60.708740 114.000000 231.000000 0.972394 -0.017897 0.232659
-0.34000000 3.46000004 0.62000000 83 148 140 97.000000 1.000000 4.000000 1.000000 -60.708740 114.000000 231.000000 0.822132 0.505090 0.262647
-0.34999999 3.46000004 0.58999997 83 148 140 97.000000 1.000000 4.000000 1.000000 -60.708740 114.000000 231.000000 0.488001 0.714513 0.501325
-0.36000001 3.42000008 0.61000001 83 148 140 97.000000 1.000000 4.000000 1.000000 -60.708740 114.000000 231.000000 0.762873 0.419825 0.491702
-0.34000000 3.43000007 0.63000000 83 148 140 97.000000 1.000000 4.000000 1.000000 -60.708740 114.000000 231.000000 0.705664 0.226876 0.671241
-0.34000000 3.41000009 0.58999997 83 148 140 97.000000 1.000000 4.000000 1.000000 -60.708740 114.000000 231.000000 0.815110 0.169627 0.553915
-0.34000000 3.41000009 0.58999997 83 148 140 97.000000 1.000000 4.000000 1.000000 -60.708740 114.000000 231.000000 0.815110 0.169627 0.553915
-0.34000000 3.43000007 0.60000002 83 148 140 97.000000 1.000000 4.000000 1.000000 -60.708740 114.000000 231.000000 0.790530 0.612421 0.001370
-0.37000000 3.36999989 0.62000000 83 148 140 97.000000 1.000000 4.000000 1.000000 -60.708740 114.000000 231.000000 0.812778 0.508965 0.283454
-0.37000000 3.39000010 0.62000000 83 148 140 97.000000 1.000000 4.000000 1.000000 -60.708740 114.000000 231.000000 0.654768 0.661332 0.365948
-0.34000000 3.40000010 0.61000001 83 148 140 97.000000 1.000000 4.000000 1.000000 -60.708740 114.000000 231.000000 0.754582 0.340936 0.560685
-0.36000001 3.31999993 0.63000000 83 148 140 97.000000 1.000000 4.000000 1.000000 -60.708740 114.000000 231.000000 0.926436 0.090351 0.365450
-0.34999999 3.33999991 0.60000002 83 148 140 97.000000 1.000000 4.000000 1.000000 -60.708740 114.000000 231.000000 0.822243 0.479511 0.306572
-0.38999999 3.31999993 0.64999998 83 148 140 97.000000 1.000000 4.000000 1.000000 -60.708740 114.000000 231.000000 0.632208 0.655439 0.413175
-0.38999999 3.31999993 0.62000000 83 148 140 97.000000 1.000000 4.000000 1.000000 -60.708740 114.000000 231.000000 0.880445 -0.079533 0.467431
-0.34000000 3.31999993 0.49000001 83 148 140 97.000000 1.000000 4.000000 1.000000 -60.708740 114.000000 231.000000 0.809742 0.318509 0.492818
-0.37000000 3.31999993 0.49000001 83 148 140 97.000000 1.000000 4.000000 1.000000 -60.708740 114.000000 231.000000 0.898685 0.208285 0.385983
-0.40000001 3.38000011 0.50000000 83 148 140 97.000000 1.000000 4.000000 1.000000 -60.708740 114.000000 231.000000 0.563143 0.686800 0.459538
-0.28000000 3.32999992 0.44999999 83 148 140 97.000000 1.000000 4.000000 1.000000 -60.708740 114.000000 231.000000 0.891125 -0.159798 0.424688
-0.28999999 3.33999991 0.44999999 83 148 140 97.000000 1.000000 4.000000 1.000000 -60.708740 114.000000 231.000000 0.852570 0.183012 0.489521
-0.30000001 3.36999989 0.44000000 83 148 140 97.000000 1.000000 4.000000 1.000000 -60.708740 114.000000 231.000000 0.699061 0.515537 0.495516
-0.31000000 3.35999990 0.47000000 83 148 140 97.000000 1.000000 4.000000 1.000000 -60.708740 114.000000 231.000000 0.720852 0.314466 0.617643
-0.30000001 3.33999991 0.47000000 83 148 140 97.000000 1.000000 4.000000 1.000000 -60.708740 114.000000 231.000000 0.709967 0.329802 0.622236
-0.28000000 3.32999992 0.38000000 83 148 140 97.000000 1.000000 4.000000 1.000000 -60.708740 114.000000 231.000000 0.805243 0.049358 0.590887
-0.38999999 3.43000007 0.46000001 83 148 140 97.000000 1.000000 4.000000 1.000000 -60.708740 114.000000 231.000000 0.587563 0.493283 0.641437
-0.34000000 3.34999990 0.44999999 83 148 140 97.000000 1.000000 4.000000 1.000000 -60.708740 114.000000 231.000000 0.890953 -0.058849 0.450266
-0.34000000 3.33999991 0.41999999 83 148 140 97.000000 1.000000 4.000000 1.000000 -60.708740 114.000000 231.000000 0.730715 0.458975 0.505369
-0.37000000 3.32999992 0.44000000 83 148 140 97.000000 1.000000 4.000000 1.000000 -60.708740 114.000000 231.000000 0.887417 -0.039290 0.459289
-0.37000000 3.35999990 0.41999999 83 148 140 97.000000 1.000000 4.000000 1.000000 -60.708740 114.000000 231.000000 0.894194 0.435203 0.104952
-0.34000000 3.33999991 0.41999999 83 148 140 97.000000 1.000000 4.000000 1.000000 -60.708740 114.000000 231.000000 0.730715 0.458975 0.505369
-0.41000000 3.39000010 0.44999999 83 148 140 97.000000 1.000000 4.000000 1.000000 -60.708740 114.000000 231.000000 0.641232 0.651174 0.405948
-0.38999999 3.39000010 0.41999999 83 148 140 97.000000 1.000000 4.000000 1.000000 -60.708740 114.000000 231.000000 0.723920 0.600284 0.339998
-0.38000000 3.31999993 0.46000001 83 148 140 97.000000 1.000000 4.000000 1.000000 -60.708740 114.000000 231.000000 0.718888 0.560237 0.411502
-0.37000000 3.34999990 0.31999999 83 148 140 97.000000 1.000000 4.000000 1.000000 -60.708740 114.000000 231.000000 0.788966 0.592856 0.161414
-0.15000001 3.53999996 0.30000001 83 148 140 97.000000 1.000000 4.000000 1.000000 -60.708740 114.000000 231.000000 0.821623 0.567075 0.057980
-0.12000000 3.50999999 0.17000000 83 148 140 97.000000 1.000000 4.000000 1.000000 -60.708740 114.000000 231.000000 0.848518 -0.117087 0.516050
