//X Y Z R G B PointSourceId ScanDirectionFlag NumberOfReturns ReturnNumber GpsTime Intensity Classification Nx Ny Nz
7.05999994 -4.55999994 0.00000000 218 125 84 0.000000 0.000000 0.000000 0.000000 -60.708740 0.000000 9.000000 0.220600 0.454705 0.862890
6.98000002 -4.46000004 -0.01000000 218 125 84 0.000000 0.000000 0.000000 0.000000 -60.708740 0.000000 9.000000 0.552997 0.199566 0.808930
6.98000002 -4.48000002 -0.01000000 218 125 84 0.000000 0.000000 0.000000 0.000000 -60.708740 0.000000 9.000000 0.428980 -0.095792 0.898220
6.96999979 -4.48000002 -0.02000000 218 125 84 0.000000 0.000000 0.000000 0.000000 -60.708740 0.000000 9.000000 0.625710 -0.079478 0.775996
7.01999998 -4.51999998 -0.02000000 218 125 84 0.000000 0.000000 0.000000 0.000000 -60.708740 0.000000 9.000000 0.223384 0.493876 0.840349
7.03000021 -4.51999998 -0.02000000 218 125 84 0.000000 0.000000 0.000000 0.000000 -60.708740 0.000000 9.000000 0.137740 0.247933 0.958935
7.03000021 -4.55999994 0.00000000 218 125 84 0.000000 0.000000 0.000000 0.000000 -60.708740 0.000000 9.000000 0.535236 0.445754 0.717514
7.03000021 -4.53000021 -0.02000000 218 125 84 0.000000 0.000000 0.000000 0.000000 -60.708740 0.000000 9.000000 0.211432 0.263944 0.941079
7.03000021 -4.53999996 -0.01000000 218 125 84 0.000000 0.000000 0.000000 0.000000 -60.708740 0.000000 9.000000 0.037941 0.378105 0.924985
7.03000021 -4.53000021 -0.01000000 218 125 84 0.000000 0.000000 0.000000 0.000000 -60.708740 0.000000 9.000000 0.272000 0.615578 0.739648
7.01999998 -4.55999994 0.00000000 218 125 84 0.000000 0.000000 0.000000 0.000000 -60.708740 0.000000 9.000000 0.289455 0.224504 0.930491
7.03999996 -4.55000019 -0.01000000 218 125 84 0.000000 0.000000 0.000000 0.000000 -60.708740 0.000000 9.000000 0.088595 0.473912 0.876104
7.03999996 -4.53000021 0.01000000 218 125 84 0.000000 0.000000 0.000000 0.000000 -60.708740 0.000000 9.000000 0.676907 0.021022 0.735768
7.03000021 -4.55999994 0.00000000 218 125 84 0.000000 0.000000 0.000000 0.000000 -60.708740 0.000000 9.000000 0.535236 0.445754 0.717514
6.96999979 -4.51999998 0.06000000 218 125 84 0.000000 0.000000 0.000000 0.000000 -60.708740 0.000000 9.000000 0.457925 0.384015 0.801771
6.98999977 -4.51999998 -0.01000000 218 125 84 0.000000 0.000000 0.000000 0.000000 -60.708740 0.000000 9.000000 0.083530 0.338099 0.937396
6.98999977 -4.50000000 -0.02000000 218 125 84 0.000000 0.000000 0.000000 0.000000 -60.708740 0.000000 9.000000 0.457825 0.431757 0.777163
6.96999979 -4.50000000 -0.02000000 218 125 84 0.000000 0.000000 0.000000 0.000000 -60.708740 0.000000 9.000000 0.162279 0.152215 0.974934
6.98999977 -4.51999998 -0.02000000 218 125 84 0.000000 0.000000 0.000000 0.000000 -60.708740 0.000000 9.000000 0.585675 0.400899 0.704460
6.98999977 -4.48999977 -0.02000000 218 125 84 0.000000 0.000000 0.000000 0.000000 -60.708740 0.000000 9.000000 0.208731 0.174599 0.962261
6.98000002 -4.55000019 0.05000000 218 125 84 0.000000 0.000000 0.000000 0.000000 -60.708740 0.000000 9.000000 0.154254 0.045232 0.986995
7.00000000 -4.55999994 0.04000000 218 125 84 0.000000 0.000000 0.000000 0.000000 -60.708740 0.000000 9.000000 0.326641 0.001242 0.945148
6.98000002 -4.55000019 0.00000000 218 125 84 0.000000 0.000000 0.000000 0.000000 -60.708740 0.000000 9.000000 0.094763 0.402398 0.910547
6.96999979 -4.55000019 -0.02000000 218 125 84 0.000000 0.000000 0.000000 0.000000 -60.708740 0.000000 9.000000 0.714099 0.372645 0.592620
6.98999977 -4.53999996 0.00000000 218 125 84 0.000000 0.000000 0.000000 0.000000 -60.708740 0.000000 9.000000 0.108198 0.064919 0.992007
7.00000000 -4.53000021 0.01000000 218 125 84 0.000000 0.000000 0.000000 0.000000 -60.708740 0.000000 9.000000 0.316173 0.402543 0.859066
7.01000023 -4.53000021 -0.01000000 218 125 84 0.000000 0.000000 0.000000 0.000000 -60.708740 0.000000 9.000000 0.655397 0.369585 0.658682
7.01000023 -4.55999994 0.01000000 218 125 84 0.000000 0.000000 0.000000 0.000000 -60.708740 0.000000 9.000000 0.445196 0.527947 0.723237
7.01000023 -4.55000019 0.00000000 218 125 84 0.000000 0.000000 0.000000 0.000000 -60.708740 0.000000 9.000000 0.497046 0.244676 0.832514
7.11000013 -4.71000004 0.20999999 218 125 84 0.000000 0.000000 0.000000 0.000000 -60.708740 0.000000 9.000000 -0.137082 0.823969 0.549804
7.13000011 -4.71000004 0.20999999 218 125 84 0.000000 0.000000 0.000000 0.000000 -60.708740 0.000000 9.000000 -0.167425 0.921542 0.350327
7.01999998 -4.71999979 0.19000000 218 125 84 0.000000 0.000000 0.000000 0.000000 -60.708740 0.000000 9.000000 0.162483 0.952067 0.259166
7.05000019 -4.71000004 0.16000000 218 125 84 0.000000 0.000000 0.000000 0.000000 -60.708740 0.000000 9.000000 0.511341 0.733087 0.448457
7.05000019 -4.71000004 0.15000001 218 125 84 0.000000 0.000000 0.000000 0.000000 -60.708740 0.000000 9.000000 0.060926 -0.814703 -0.576668
6.96999979 -4.69999981 0.15000001 218 125 84 0.000000 0.000000 0.000000 0.000000 -60.708740 0.000000 9.000000 0.159262 0.531371 0.832034
6.96999979 -4.71999979 0.18000001 218 125 84 0.000000 0.000000 0.000000 0.000000 -60.708740 0.000000 9.000000 0.104102 0.611417 0.784431
6.96999979 -4.71000004 0.16000000 218 125 84 0.000000 0.000000 0.000000 0.000000 -60.708740 0.000000 9.000000 0.067337 0.617494 0.783688
6.96999979 -4.69999981 0.15000001 218 125 84 0.000000 0.000000 0.000000 0.000000 -60.708740 0.000000 9.000000 0.159262 0.531371 0.832034
7.05999994 -4.65000010 0.09000000 218 125 84 0.000000 0.000000 0.000000 0.000000 -60.708740 0.000000 9.000000 0.564383 0.635142 0.527319
7.05999994 -4.65000010 0.10000000 218 125 84 0.000000 0.000000 0.000000 0.000000 -60.708740 0.000000 9.000000 0.310887 0.543654 0.779609
7.11000013 -4.61000013 0.03000000 218 125 84 0.000000 0.000000 0.000000 0.000000 -60.708740 0.000000 9.000000 0.475559 0.603271 0.640240
7.13000011 -4.59000015 0.01000000 218 125 84 0.000000 0.000000 0.000000 0.000000 -60.708740 0.000000 9.000000 0.244235 0.453579 0.857097
7.11000013 -4.59999990 0.01000000 218 125 84 0.000000 0.000000 0.000000 0.000000 -60.708740 0.000000 9.000000 0.219759 0.653042 0.724736
7.11000013 -4.57999992 0.02000000 218 125 84 0.000000 0.000000 0.000000 0.000000 -60.708740 0.000000 9.000000 0.435018 0.638359 0.635026
7.11999989 -4.61000013 0.02000000 218 125 84 0.000000 0.000000 0.000000 0.000000 -60.708740 0.000000 9.000000 0.527732 0.314088 0.789207
7.11000013 -4.61999989 0.04000000 218 125 84 0.000000 0.000000 0.000000 0.000000 -60.708740 0.000000 9.000000 0.416650 0.692203 0.589286
7.11000013 -4.61999989 0.04000000 218 125 84 0.000000 0.000000 0.000000 0.000000 -60.708740 0.000000 9.000000 0.416650 0.692203 0.589286
7.09999990 -4.63999987 0.03000000 218 125 84 0.000000 0.000000 0.000000 0.000000 -60.708740 0.000000 9.000000 0.245696 0.771516 0.586853
7.11999989 -4.61999989 0.03000000 218 125 84 0.000000 0.000000 0.000000 0.000000 -60.708740 0.000000 9.000000 0.413221 0.648873 0.638915
7.09999990 -4.63000011 0.06000000 218 125 84 0.000000 0.000000 0.000000 0.000000 -60.708740 0.000000 9.000000 0.029567 0.705388 0.708204
7.09999990 -4.63000011 0.02000000 218 125 84 0.000000 0.000000 0.000000 0.000000 -60.708740 0.000000 9.000000 0.104677 0.506176 0.856054
7.07000017 -4.61000013 0.06000000 218 125 84 0.000000 0.000000 0.000000 0.000000 -60.708740 0.000000 9.000000 0.166931 0.307649 0.936742
7.05999994 -4.57999992 0.03000000 218 125 84 0.000000 0.000000 0.000000 0.000000 -60.708740 0.000000 9.000000 0.690324 0.261847 0.674455
7.07000017 -4.61000013 0.04000000 218 125 84 0.000000 0.000000 0.000000 0.000000 -60.708740 0.000000 9.000000 0.208477 0.427304 0.879744
7.07000017 -4.59999990 0.04000000 218 125 84 0.000000 0.000000 0.000000 0.000000 -60.708740 0.000000 9.000000 0.602320 0.445483 0.662386
7.07000017 -4.61000013 0.06000000 218 125 84 0.000000 0.000000 0.000000 0.000000 -60.708740 0.000000 9.000000 0.166931 0.307649 0.936742
7.07999992 -4.61000013 0.03000000 218 125 84 0.000000 0.000000 0.000000 0.000000 -60.708740 0.000000 9.000000 0.436084 0.708015 0.555468
7.07999992 -4.57999992 0.02000000 218 125 84 0.000000 0.000000 0.000000 0.000000 -60.708740 0.000000 9.000000 0.040641 0.252464 0.966752
7.07000017 -4.57000017 -0.02000000 218 125 84 0.000000 0.000000 0.000000 0.000000 -60.708740 0.000000 9.000000 0.654955 0.409554 0.635058
7.05999994 -4.59000015 0.00000000 218 125 84 0.000000 0.000000 0.000000 0.000000 -60.708740 0.000000 9.000000 0.154591 0.344001 0.926156
7.05999994 -4.59999990 0.02000000 218 125 84 0.000000 0.000000 0.000000 0.000000 -60.708740 0.000000 9.000000 0.058848 0.664548 0.744925
7.07999992 -4.57000017 0.01000000 218 125 84 0.000000 0.000000 0.000000 0.000000 -60.708740 0.000000 9.000000 0.014206 0.383568 0.923404
7.07999992 -4.63999987 0.04000000 218 125 84 0.000000 0.000000 0.000000 0.000000 -60.708740 0.000000 9.000000 0.481617 0.736494 0.474997
7.05999994 -4.63999987 0.03000000 218 125 84 0.000000 0.000000 0.000000 0.000000 -60.708740 0.000000 9.000000 0.102206 0.534064 0.839243
7.05999994 -4.61999989 0.03000000 218 125 84 0.000000 0.000000 0.000000 0.000000 -60.708740 0.000000 9.000000 0.187874 0.193129 0.963018
7.07999992 -4.61999989 0.04000000 218 125 84 0.000000 0.000000 0.000000 0.000000 -60.708740 0.000000 9.000000 0.247606 0.273073 0.929582
7.09000015 -4.63999987 0.03000000 218 125 84 0.000000 0.000000 0.000000 0.000000 -60.708740 0.000000 9.000000 0.346770 0.587718 0.730984
7.07999992 -4.61999989 0.04000000 218 125 84 0.000000 0.000000 0.000000 0.000000 -60.708740 0.000000 9.000000 0.247606 0.273073 0.929582
7.07999992 -4.63999987 0.03000000 218 125 84 0.000000 0.000000 0.000000 0.000000 -60.708740 0.000000 9.000000 0.257681 0.731940 0.630765
7.09000015 -4.65000010 0.04000000 218 125 84 0.000000 0.000000 0.000000 0.000000 -60.708740 0.000000 9.000000 0.438249 0.664872 0.604883
7.11000013 -4.69000006 0.12000000 218 125 84 0.000000 0.000000 0.000000 0.000000 -60.708740 0.000000 9.000000 0.349947 0.924361 0.151969
7.11000013 -4.69000006 0.12000000 218 125 84 0.000000 0.000000 0.000000 0.000000 -60.708740 0.000000 9.000000 0.349947 0.924361 0.151969
7.11000013 -4.67000008 0.08000000 218 125 84 0.000000 0.000000 0.000000 0.000000 -60.708740 0.000000 9.000000 -0.014645 0.885371 0.464654
7.09999990 -4.65999985 0.09000000 218 125 84 0.000000 0.000000 0.000000 0.000000 -60.708740 0.000000 9.000000 0.267240 0.859748 0.435219
7.13000011 -4.69999981 0.11000000 218 125 84 0.000000 0.000000 0.000000 0.000000 -60.708740 0.000000 9.000000 0.097885 0.954049 0.283213
7.11000013 -4.73000002 0.11000000 218 125 84 0.000000 0.000000 0.000000 0.000000 -60.708740 0.000000 9.000000 0.103551 0.909864 0.401776
7.13000011 -4.71999979 0.14000000 218 125 84 0.000000 0.000000 0.000000 0.000000 -60.708740 0.000000 9.000000 0.383722 0.917356 0.105902
7.11999989 -4.71999979 0.10000000 218 125 84 0.000000 0.000000 0.000000 0.000000 -60.708740 0.000000 9.000000 0.070881 0.669756 0.739191
7.07999992 -4.69000006 0.09000000 218 125 84 0.000000 0.000000 0.000000 0.000000 -60.708740 0.000000 9.000000 0.278332 0.894532 0.349776
7.07999992 -4.69000006 0.08000000 218 125 84 0.000000 0.000000 0.000000 0.000000 -60.708740 0.000000 9.000000 0.457392 0.543881 0.703552
7.07000017 -4.65999985 0.10000000 218 125 84 0.000000 0.000000 0.000000 0.000000 -60.708740 0.000000 9.000000 0.225561 0.529378 0.817851
7.07999992 -4.71999979 0.13000000 218 125 84 0.000000 0.000000 0.000000 0.000000 -60.708740 0.000000 9.000000 -0.097789 0.966456 0.237487
7.09000015 -4.71999979 0.14000000 218 125 84 0.000000 0.000000 0.000000 0.000000 -60.708740 0.000000 9.000000 0.020618 0.995112 0.096581
7.07000017 -4.73000002 0.14000000 218 125 84 0.000000 0.000000 0.000000 0.000000 -60.708740 0.000000 9.000000 0.003564 0.970485 0.241136
7.07000017 -4.69999981 0.13000000 218 125 84 0.000000 0.000000 0.000000 0.000000 -60.708740 0.000000 9.000000 0.098512 0.903258 0.417636
7.07000017 -4.73000002 0.14000000 218 125 84 0.000000 0.000000 0.000000 0.000000 -60.708740 0.000000 9.000000 0.003564 0.970485 0.241136
7.07999992 -4.69999981 0.14000000 218 125 84 0.000000 0.000000 0.000000 0.000000 -60.708740 0.000000 9.000000 0.015971 0.959478 0.281332
7.07999992 -4.71999979 0.13000000 218 125 84 0.000000 0.000000 0.000000 0.000000 -60.708740 0.000000 9.000000 -0.097789 0.966456 0.237487
7.05999994 -4.73000002 0.14000000 218 125 84 0.000000 0.000000 0.000000 0.000000 -60.708740 0.000000 9.000000 0.087655 0.964202 0.250261
7.09000015 -4.69999981 0.10000000 218 125 84 0.000000 0.000000 0.000000 0.000000 -60.708740 0.000000 9.000000 -0.009612 0.591812 0.806018
7.07000017 -4.69999981 0.10000000 218 125 84 0.000000 0.000000 0.000000 0.000000 -60.708740 0.000000 9.000000 0.022945 0.875957 0.481844
7.07999992 -4.71999979 -0.02000000 218 125 84 0.000000 0.000000 0.000000 0.000000 -60.708740 0.000000 9.000000 0.079443 0.778542 0.622544
7.03999996 -4.61000013 0.07000000 218 125 84 0.000000 0.000000 0.000000 0.000000 -60.708740 0.000000 9.000000 0.160323 0.558883 0.813601
7.01999998 -4.61999989 0.11000000 218 125 84 0.000000 0.000000 0.000000 0.000000 -60.708740 0.000000 9.000000 0.175742 0.821634 0.542248
7.05000019 -4.61999989 0.10000000 218 125 84 0.000000 0.000000 0.000000 0.000000 -60.708740 0.000000 9.000000 0.464032 0.581297 0.668407
7.03999996 -4.63000011 0.08000000 218 125 84 0.000000 0.000000 0.000000 0.000000 -60.708740 0.000000 9.000000 0.385553 0.723528 0.572588
7.01999998 -4.61999989 0.08000000 218 125 84 0.000000 0.000000 0.000000 0.000000 -60.708740 0.000000 9.000000 0.001375 0.636526 0.771254
7.05000019 -4.65000010 0.10000000 218 125 84 0.000000 0.000000 0.000000 0.000000 -60.708740 0.000000 9.000000 0.333863 0.402188 0.852514
6.98000002 -4.63999987 0.11000000 218 125 84 0.000000 0.000000 0.000000 0.000000 -60.708740 0.000000 9.000000 0.308707 0.429708 0.848558
6.98999977 -4.65000010 0.11000000 218 125 84 0.000000 0.000000 0.000000 0.000000 -60.708740 0.000000 9.000000 0.310657 0.448034 0.838307
7.00000000 -4.63000011 0.11000000 218 125 84 0.000000 0.000000 0.000000 0.000000 -60.708740 0.000000 9.000000 0.108620 0.383609 0.917086
6.98999977 -4.65000010 0.11000000 218 125 84 0.000000 0.000000 0.000000 0.000000 -60.708740 0.000000 9.000000 0.310657 0.448034 0.838307
6.98999977 -4.63999987 0.10000000 218 125 84 0.000000 0.000000 0.000000 0.000000 -60.708740 0.000000 9.000000 0.398356 0.791875 0.462868
7.03000021 -4.61000013 0.03000000 218 125 84 0.000000 0.000000 0.000000 0.000000 -60.708740 0.000000 9.000000 0.152965 0.536119 0.830168
7.03999996 -4.61000013 0.04000000 218 125 84 0.000000 0.000000 0.000000 0.000000 -60.708740 0.000000 9.000000 0.419849 0.299892 0.856616
7.03999996 -4.59999990 0.03000000 218 125 84 0.000000 0.000000 0.000000 0.000000 -60.708740 0.000000 9.000000 0.441698 0.403150 0.801482
7.01999998 -4.57999992 0.03000000 218 125 84 0.000000 0.000000 0.000000 0.000000 -60.708740 0.000000 9.000000 0.482794 0.603913 0.634192
7.05000019 -4.61000013 0.03000000 218 125 84 0.000000 0.000000 0.000000 0.000000 -60.708740 0.000000 9.000000 0.359303 0.680871 0.638214
7.03999996 -4.61000013 0.04000000 218 125 84 0.000000 0.000000 0.000000 0.000000 -60.708740 0.000000 9.000000 0.419849 0.299892 0.856616
7.05000019 -4.59000015 0.02000000 218 125 84 0.000000 0.000000 0.000000 0.000000 -60.708740 0.000000 9.000000 0.693456 0.261831 0.671240
7.01999998 -4.57000017 0.02000000 218 125 84 0.000000 0.000000 0.000000 0.000000 -60.708740 0.000000 9.000000 0.518319 0.622995 0.585852
7.05000019 -4.61999989 0.04000000 218 125 84 0.000000 0.000000 0.000000 0.000000 -60.708740 0.000000 9.000000 0.150186 0.225932 0.962496
7.03999996 -4.61999989 0.04000000 218 125 84 0.000000 0.000000 0.000000 0.000000 -60.708740 0.000000 9.000000 0.421538 0.182326 0.888292
7.05000019 -4.63000011 0.05000000 218 125 84 0.000000 0.000000 0.000000 0.000000 -60.708740 0.000000 9.000000 0.513425 0.752913 0.411724
7.03999996 -4.63000011 0.05000000 218 125 84 0.000000 0.000000 0.000000 0.000000 -60.708740 0.000000 9.000000 0.472606 0.686364 0.552765
7.03999996 -4.63000011 0.04000000 218 125 84 0.000000 0.000000 0.000000 0.000000 -60.708740 0.000000 9.000000 0.450535 0.536984 0.713208
7.01000023 -4.61000013 0.04000000 218 125 84 0.000000 0.000000 0.000000 0.000000 -60.708740 0.000000 9.000000 0.165905 0.713849 0.680364
7.01000023 -4.59000015 0.03000000 218 125 84 0.000000 0.000000 0.000000 0.000000 -60.708740 0.000000 9.000000 0.236255 0.195754 0.951769
6.98000002 -4.59000015 0.05000000 218 125 84 0.000000 0.000000 0.000000 0.000000 -60.708740 0.000000 9.000000 0.065894 0.511727 0.856617
6.98999977 -4.59000015 0.01000000 218 125 84 0.000000 0.000000 0.000000 0.000000 -60.708740 0.000000 9.000000 0.248941 0.123819 0.960571
6.98999977 -4.57000017 0.01000000 218 125 84 0.000000 0.000000 0.000000 0.000000 -60.708740 0.000000 9.000000 0.450206 0.607527 0.654389
7.00000000 -4.63999987 0.01000000 218 125 84 0.000000 0.000000 0.000000 0.000000 -60.708740 0.000000 9.000000 0.563948 0.641386 0.520179
7.05000019 -4.67999983 0.14000000 218 125 84 0.000000 0.000000 0.000000 0.000000 -60.708740 0.000000 9.000000 -0.023838 0.691313 0.722162
7.05000019 -4.73000002 0.12000000 218 125 84 0.000000 0.000000 0.000000 0.000000 -60.708740 0.000000 9.000000 0.285683 0.541377 0.790757
7.03000021 -4.71999979 0.12000000 218 125 84 0.000000 0.000000 0.000000 0.000000 -60.708740 0.000000 9.000000 0.196092 0.643860 0.739590
6.98000002 -4.67000008 0.12000000 218 125 84 0.000000 0.000000 0.000000 0.000000 -60.708740 0.000000 9.000000 0.449835 0.427099 0.784369
6.98000002 -4.67000008 0.12000000 218 125 84 0.000000 0.000000 0.000000 0.000000 -60.708740 0.000000 9.000000 0.449835 0.427099 0.784369
6.98000002 -4.65999985 0.11000000 218 125 84 0.000000 0.000000 0.000000 0.000000 -60.708740 0.000000 9.000000 0.044140 0.721907 0.690581
6.98999977 -4.67000008 0.12000000 218 125 84 0.000000 0.000000 0.000000 0.000000 -60.708740 0.000000 9.000000 0.635944 0.514490 0.575217
7.01000023 -4.69000006 0.09000000 218 125 84 0.000000 0.000000 0.000000 0.000000 -60.708740 0.000000 9.000000 0.034181 0.862728 0.504511
6.98000002 -4.67999983 0.08000000 218 125 84 0.000000 0.000000 0.000000 0.000000 -60.708740 0.000000 9.000000 0.080034 0.676648 0.731944
7.00000000 -4.67000008 0.08000000 218 125 84 0.000000 0.000000 0.000000 0.000000 -60.708740 0.000000 9.000000 0.438540 0.399987 0.804794
6.98000002 -4.69999981 0.12000000 218 125 84 0.000000 0.000000 0.000000 0.000000 -60.708740 0.000000 9.000000 0.070471 0.783814 0.616984
6.98000002 -4.71000004 0.13000000 218 125 84 0.000000 0.000000 0.000000 0.000000 -60.708740 0.000000 9.000000 0.213677 0.554944 0.803977
7.00000000 -4.69999981 0.11000000 218 125 84 0.000000 0.000000 0.000000 0.000000 -60.708740 0.000000 9.000000 0.129388 0.611248 0.780791
7.01999998 -4.71000004 -0.02000000 218 125 84 0.000000 0.000000 0.000000 0.000000 -60.708740 0.000000 9.000000 0.150541 0.480853 0.863781
7.05000019 -4.71999979 -0.02000000 218 125 84 0.000000 0.000000 0.000000 0.000000 -60.708740 0.000000 9.000000 0.132311 0.780487 0.611010
7.03999996 -4.71000004 -0.02000000 218 125 84 0.000000 0.000000 0.000000 0.000000 -60.708740 0.000000 9.000000 0.401816 0.453455 0.795564
7.01000023 -4.67999983 0.02000000 218 125 84 0.000000 0.000000 0.000000 0.000000 -60.708740 0.000000 9.000000 0.257472 0.753462 0.604981
7.00000000 -4.69999981 -0.02000000 218 125 84 0.000000 0.000000 0.000000 0.000000 -60.708740 0.000000 9.000000 0.432820 0.475285 0.766010
6.98999977 -4.73000002 -0.01000000 218 125 84 0.000000 0.000000 0.000000 0.000000 -60.708740 0.000000 9.000000 0.347114 0.497477 0.795003
7.00000000 -4.73000002 -0.01000000 218 125 84 0.000000 0.000000 0.000000 0.000000 -60.708740 0.000000 9.000000 0.156029 0.710460 0.686223
7.01000023 -4.71000004 -0.01000000 218 125 84 0.000000 0.000000 0.000000 0.000000 -60.708740 0.000000 9.000000 0.268889 0.669836 0.692111
7.01999998 -4.82000017 0.34999999 218 125 84 0.000000 0.000000 0.000000 0.000000 -60.708740 0.000000 9.000000 -0.029533 0.936079 0.350548
7.01000023 -4.88000011 0.34000000 218 125 84 0.000000 0.000000 0.000000 0.000000 -60.708740 0.000000 9.000000 0.163684 0.936710 -0.309486
7.28999996 -4.75000000 0.15000001 218 125 84 0.000000 0.000000 0.000000 0.000000 -60.708740 0.000000 9.000000 0.057230 0.986927 0.150667
7.26999998 -4.75000000 0.16000000 218 125 84 0.000000 0.000000 0.000000 0.000000 -60.708740 0.000000 9.000000 0.141197 0.863193 0.484727
7.28999996 -4.75000000 0.18000001 218 125 84 0.000000 0.000000 0.000000 0.000000 -60.708740 0.000000 9.000000 0.106096 0.913529 0.392694
7.26999998 -4.75000000 0.16000000 218 125 84 0.000000 0.000000 0.000000 0.000000 -60.708740 0.000000 9.000000 0.141197 0.863193 0.484727
7.26999998 -4.75000000 0.16000000 218 125 84 0.000000 0.000000 0.000000 0.000000 -60.708740 0.000000 9.000000 0.141197 0.863193 0.484727
7.28999996 -4.75000000 0.18000001 218 125 84 0.000000 0.000000 0.000000 0.000000 -60.708740 0.000000 9.000000 0.106096 0.913529 0.392694
7.28999996 -4.75000000 0.16000000 218 125 84 0.000000 0.000000 0.000000 0.000000 -60.708740 0.000000 9.000000 0.089251 0.994984 -0.045176
7.28000021 -4.80000019 0.20999999 218 125 84 0.000000 0.000000 0.000000 0.000000 -60.708740 0.000000 9.000000 -0.085579 0.994718 0.056682
7.30000019 -4.80999994 0.20000000 218 125 84 0.000000 0.000000 0.000000 0.000000 -60.708740 0.000000 9.000000 -0.001160 0.977717 0.209925
7.28000021 -4.82000017 0.22000000 218 125 84 0.000000 0.000000 0.000000 0.000000 -60.708740 0.000000 9.000000 -0.273778 0.960116 -0.056774
7.28999996 -4.78000021 0.17000000 218 125 84 0.000000 0.000000 0.000000 0.000000 -60.708740 0.000000 9.000000 0.163237 0.888414 0.429039
7.28999996 -4.78000021 0.17000000 218 125 84 0.000000 0.000000 0.000000 0.000000 -60.708740 0.000000 9.000000 0.163237 0.888414 0.429039
7.28999996 -4.78000021 0.17000000 218 125 84 0.000000 0.000000 0.000000 0.000000 -60.708740 0.000000 9.000000 0.163237 0.888414 0.429039
7.28000021 -4.78000021 0.17000000 218 125 84 0.000000 0.000000 0.000000 0.000000 -60.708740 0.000000 9.000000 0.186932 0.974806 0.121694
7.23999977 -4.76000023 0.20999999 218 125 84 0.000000 0.000000 0.000000 0.000000 -60.708740 0.000000 9.000000 0.251641 0.948073 -0.194511
7.25000000 -4.76999998 0.15000001 218 125 84 0.000000 0.000000 0.000000 0.000000 -60.708740 0.000000 9.000000 -0.171243 0.844301 0.507772
7.23000002 -4.76000023 0.18000001 218 125 84 0.000000 0.000000 0.000000 0.000000 -60.708740 0.000000 9.000000 0.391391 0.897725 0.202243
7.25000000 -4.76999998 0.16000000 218 125 84 0.000000 0.000000 0.000000 0.000000 -60.708740 0.000000 9.000000 0.360117 0.932145 0.037702
7.23000002 -4.80000019 0.20000000 218 125 84 0.000000 0.000000 0.000000 0.000000 -60.708740 0.000000 9.000000 -0.280835 0.945613 0.164159
7.26999998 -4.88999987 0.20000000 218 125 84 0.000000 0.000000 0.000000 0.000000 -60.708740 0.000000 9.000000 0.203278 0.948178 0.244207
7.25000000 -4.86000013 0.15000001 218 125 84 0.000000 0.000000 0.000000 0.000000 -60.708740 0.000000 9.000000 -0.014760 0.876205 0.481712
7.23999977 -4.86999989 0.20000000 218 125 84 0.000000 0.000000 0.000000 0.000000 -60.708740 0.000000 9.000000 -0.049749 0.998151 -0.034930
7.21999979 -4.80000019 0.23999999 218 125 84 0.000000 0.000000 0.000000 0.000000 -60.708740 0.000000 9.000000 -0.300188 0.891602 0.339018
7.17999983 -4.76999998 0.22000000 218 125 84 0.000000 0.000000 0.000000 0.000000 -60.708740 0.000000 9.000000 0.185059 0.957246 0.222337
7.19999981 -4.75000000 0.16000000 218 125 84 0.000000 0.000000 0.000000 0.000000 -60.708740 0.000000 9.000000 -0.044259 0.905295 0.422471
7.19999981 -4.75000000 0.16000000 218 125 84 0.000000 0.000000 0.000000 0.000000 -60.708740 0.000000 9.000000 -0.044259 0.905295 0.422471
7.21000004 -4.76999998 0.17000000 218 125 84 0.000000 0.000000 0.000000 0.000000 -60.708740 0.000000 9.000000 -0.222913 0.869212 0.441338
7.19999981 -4.76999998 0.18000001 218 125 84 0.000000 0.000000 0.000000 0.000000 -60.708740 0.000000 9.000000 -0.172817 0.906933 0.384197
7.21000004 -4.82000017 0.22000000 218 125 84 0.000000 0.000000 0.000000 0.000000 -60.708740 0.000000 9.000000 -0.250015 0.966475 0.058461
7.21000004 -4.82000017 0.19000000 218 125 84 0.000000 0.000000 0.000000 0.000000 -60.708740 0.000000 9.000000 -0.296136 0.903141 0.310869
7.21999979 -4.82000017 0.22000000 218 125 84 0.000000 0.000000 0.000000 0.000000 -60.708740 0.000000 9.000000 -0.091538 0.957924 -0.272035
7.21000004 -4.82000017 0.23000000 218 125 84 0.000000 0.000000 0.000000 0.000000 -60.708740 0.000000 9.000000 -0.275227 0.943440 -0.184854
7.19999981 -4.82000017 0.22000000 218 125 84 0.000000 0.000000 0.000000 0.000000 -60.708740 0.000000 9.000000 -0.149796 0.946010 -0.287447
7.21000004 -4.80999994 0.17000000 218 125 84 0.000000 0.000000 0.000000 0.000000 -60.708740 0.000000 9.000000 -0.061681 0.978433 -0.197138
7.19999981 -4.80999994 0.16000000 218 125 84 0.000000 0.000000 0.000000 0.000000 -60.708740 0.000000 9.000000 0.429122 0.880363 0.202026
7.19999981 -4.80999994 0.16000000 218 125 84 0.000000 0.000000 0.000000 0.000000 -60.708740 0.000000 9.000000 0.429122 0.880363 0.202026
7.15000010 -4.76999998 0.20000000 218 125 84 0.000000 0.000000 0.000000 0.000000 -60.708740 0.000000 9.000000 -0.273749 0.875695 0.397768
7.13999987 -4.76999998 0.18000001 218 125 84 0.000000 0.000000 0.000000 0.000000 -60.708740 0.000000 9.000000 -0.167305 0.954305 0.247611
7.17999983 -4.82999992 0.22000000 218 125 84 0.000000 0.000000 0.000000 0.000000 -60.708740 0.000000 9.000000 0.266793 0.963624 0.015837
7.17999983 -4.82999992 0.22000000 218 125 84 0.000000 0.000000 0.000000 0.000000 -60.708740 0.000000 9.000000 0.266793 0.963624 0.015837
7.19000006 -4.82999992 0.23000000 218 125 84 0.000000 0.000000 0.000000 0.000000 -60.708740 0.000000 9.000000 0.232391 0.913684 0.333430
7.19000006 -4.88000011 0.20000000 218 125 84 0.000000 0.000000 0.000000 0.000000 -60.708740 0.000000 9.000000 0.052198 0.953563 0.296636
7.21999979 -4.88999987 0.18000001 218 125 84 0.000000 0.000000 0.000000 0.000000 -60.708740 0.000000 9.000000 0.078737 0.979971 -0.182912
7.19999981 -4.88999987 0.18000001 218 125 84 0.000000 0.000000 0.000000 0.000000 -60.708740 0.000000 9.000000 -0.334098 0.908922 0.249479
7.13999987 -4.84999990 0.19000000 218 125 84 0.000000 0.000000 0.000000 0.000000 -60.708740 0.000000 9.000000 0.091120 0.920719 0.379439
7.15000010 -4.86999989 0.20999999 218 125 84 0.000000 0.000000 0.000000 0.000000 -60.708740 0.000000 9.000000 0.202679 0.970055 0.133845
7.17000008 -4.90000010 0.16000000 218 125 84 0.000000 0.000000 0.000000 0.000000 -60.708740 0.000000 9.000000 -0.308263 0.924788 0.223029
7.28999996 -4.75000000 0.14000000 218 125 84 0.000000 0.000000 0.000000 0.000000 -60.708740 0.000000 9.000000 0.208021 0.833601 0.511700
7.26999998 -4.73999977 0.14000000 218 125 84 0.000000 0.000000 0.000000 0.000000 -60.708740 0.000000 9.000000 0.416591 0.903768 0.098266
7.28000021 -4.80000019 0.12000000 218 125 84 0.000000 0.000000 0.000000 0.000000 -60.708740 0.000000 9.000000 -0.181202 0.946881 0.265672
7.25000000 -4.76000023 0.09000000 218 125 84 0.000000 0.000000 0.000000 0.000000 -60.708740 0.000000 9.000000 0.041196 0.998212 0.043309
7.25000000 -4.82000017 0.12000000 218 125 84 0.000000 0.000000 0.000000 0.000000 -60.708740 0.000000 9.000000 -0.011798 0.905852 0.423430
7.25000000 -4.82999992 0.12000000 218 125 84 0.000000 0.000000 0.000000 0.000000 -60.708740 0.000000 9.000000 0.261854 0.794969 0.547227
7.25000000 -4.82999992 0.12000000 218 125 84 0.000000 0.000000 0.000000 0.000000 -60.708740 0.000000 9.000000 0.261854 0.794969 0.547227
7.23000002 -4.82999992 0.10000000 218 125 84 0.000000 0.000000 0.000000 0.000000 -60.708740 0.000000 9.000000 0.026395 0.812698 0.582087
7.19000006 -4.76999998 0.10000000 218 125 84 0.000000 0.000000 0.000000 0.000000 -60.708740 0.000000 9.000000 0.340362 0.688868 0.640012
7.15000010 -4.76000023 0.11000000 218 125 84 0.000000 0.000000 0.000000 0.000000 -60.708740 0.000000 9.000000 0.017484 0.980251 0.196983
7.15000010 -4.80000019 0.12000000 218 125 84 0.000000 0.000000 0.000000 0.000000 -60.708740 0.000000 9.000000 -0.201986 0.821613 0.533061
7.13999987 -4.78000021 0.14000000 218 125 84 0.000000 0.000000 0.000000 0.000000 -60.708740 0.000000 9.000000 0.347265 0.770443 0.534626
7.21000004 -4.84999990 0.13000000 218 125 84 0.000000 0.000000 0.000000 0.000000 -60.708740 0.000000 9.000000 0.396823 0.856952 0.328884
7.28999996 -4.92000008 0.19000000 218 125 84 0.000000 0.000000 0.000000 0.000000 -60.708740 0.000000 9.000000 0.166661 0.976155 0.139093
7.28000021 -4.92000008 0.19000000 218 125 84 0.000000 0.000000 0.000000 0.000000 -60.708740 0.000000 9.000000 0.069199 0.965017 0.252892
7.28999996 -4.92000008 0.20000000 218 125 84 0.000000 0.000000 0.000000 0.000000 -60.708740 0.000000 9.000000 0.178750 0.983699 -0.019605
7.30000019 -4.92000008 0.18000001 218 125 84 0.000000 0.000000 0.000000 0.000000 -60.708740 0.000000 9.000000 -0.067950 0.972305 0.223618
7.30000019 -4.98999977 0.20000000 218 125 84 0.000000 0.000000 0.000000 0.000000 -60.708740 0.000000 9.000000 -0.013270 0.966330 -0.256964
7.26999998 -5.03999996 0.23000000 218 125 84 0.000000 0.000000 0.000000 0.000000 -60.708740 0.000000 9.000000 -0.054924 0.912266 0.405898
7.23999977 -5.07000017 0.23000000 218 125 84 0.000000 0.000000 0.000000 0.000000 -60.708740 0.000000 9.000000 -0.269266 0.962720 -0.025820
7.15000010 -4.92000008 0.23999999 218 125 84 0.000000 0.000000 0.000000 0.000000 -60.708740 0.000000 9.000000 0.107220 0.993718 -0.032055
7.15999985 -4.96999979 0.22000000 218 125 84 0.000000 0.000000 0.000000 0.000000 -60.708740 0.000000 9.000000 -0.361794 0.931261 0.043102
7.21000004 -5.01000023 0.23999999 218 125 84 0.000000 0.000000 0.000000 0.000000 -60.708740 0.000000 9.000000 0.317330 0.946851 0.052674
7.21999979 -5.01000023 0.23000000 218 125 84 0.000000 0.000000 0.000000 0.000000 -60.708740 0.000000 9.000000 -0.015311 0.976376 0.215533
7.28999996 -5.05000019 -0.02000000 218 125 84 0.000000 0.000000 0.000000 0.000000 -60.708740 0.000000 214.000000 -0.089644 0.992892 0.078297
7.13000011 -4.78999996 0.23999999 218 125 84 0.000000 0.000000 0.000000 0.000000 -60.708740 0.000000 9.000000 -0.048736 0.848006 0.527741
7.13000011 -4.73999977 0.20000000 218 125 84 0.000000 0.000000 0.000000 0.000000 -60.708740 0.000000 9.000000 0.150855 0.941824 0.300351
7.13000011 -4.76999998 0.20000000 218 125 84 0.000000 0.000000 0.000000 0.000000 -60.708740 0.000000 9.000000 0.230666 0.967267 0.105775
7.09999990 -4.76999998 0.20000000 218 125 84 0.000000 0.000000 0.000000 0.000000 -60.708740 0.000000 9.000000 0.222283 0.817082 0.531946
7.13000011 -4.76999998 0.19000000 218 125 84 0.000000 0.000000 0.000000 0.000000 -60.708740 0.000000 9.000000 0.061531 0.998061 -0.009386
7.13000011 -4.78000021 0.23000000 218 125 84 0.000000 0.000000 0.000000 0.000000 -60.708740 0.000000 9.000000 0.089836 0.899746 0.427068
7.09999990 -4.82000017 0.20999999 218 125 84 0.000000 0.000000 0.000000 0.000000 -60.708740 0.000000 9.000000 -0.156588 0.892121 0.423793
7.11000013 -4.78999996 0.15000001 218 125 84 0.000000 0.000000 0.000000 0.000000 -60.708740 0.000000 9.000000 0.283130 0.779795 0.558352
7.09000015 -4.76999998 0.20000000 218 125 84 0.000000 0.000000 0.000000 0.000000 -60.708740 0.000000 9.000000 -0.023624 0.796261 0.604491
7.05999994 -4.76999998 0.20999999 218 125 84 0.000000 0.000000 0.000000 0.000000 -60.708740 0.000000 9.000000 -0.003966 0.884423 0.466669
7.05999994 -4.73999977 0.20999999 218 125 84 0.000000 0.000000 0.000000 0.000000 -60.708740 0.000000 9.000000 -0.082327 0.993563 -0.077816
7.07000017 -4.75000000 0.18000001 218 125 84 0.000000 0.000000 0.000000 0.000000 -60.708740 0.000000 9.000000 0.016927 0.915337 0.402332
7.07999992 -4.76000023 0.15000001 218 125 84 0.000000 0.000000 0.000000 0.000000 -60.708740 0.000000 9.000000 -0.003195 0.995694 0.092647
7.05999994 -4.76000023 0.18000001 218 125 84 0.000000 0.000000 0.000000 0.000000 -60.708740 0.000000 9.000000 -0.320680 0.853597 0.410532
7.05999994 -4.76000023 0.18000001 218 125 84 0.000000 0.000000 0.000000 0.000000 -60.708740 0.000000 9.000000 -0.320680 0.853597 0.410532
7.05999994 -4.80000019 0.19000000 218 125 84 0.000000 0.000000 0.000000 0.000000 -60.708740 0.000000 9.000000 -0.070850 0.744653 0.663681
7.05999994 -4.80000019 0.23000000 218 125 84 0.000000 0.000000 0.000000 0.000000 -60.708740 0.000000 9.000000 -0.231790 0.970545 -0.065695
7.05999994 -4.78999996 0.18000001 218 125 84 0.000000 0.000000 0.000000 0.000000 -60.708740 0.000000 9.000000 0.183302 0.881316 0.435526
7.11000013 -4.82999992 0.20999999 218 125 84 0.000000 0.000000 0.000000 0.000000 -60.708740 0.000000 9.000000 0.323069 0.914156 0.244837
6.98999977 -4.82000017 0.25000000 218 125 84 0.000000 0.000000 0.000000 0.000000 -60.708740 0.000000 9.000000 0.140019 0.987191 -0.076481
7.05000019 -4.73999977 0.19000000 218 125 84 0.000000 0.000000 0.000000 0.000000 -60.708740 0.000000 9.000000 0.302950 0.953006 0.001227
7.05000019 -4.73999977 0.20000000 218 125 84 0.000000 0.000000 0.000000 0.000000 -60.708740 0.000000 9.000000 0.109161 0.936631 0.332875
7.03999996 -4.73999977 0.20999999 218 125 84 0.000000 0.000000 0.000000 0.000000 -60.708740 0.000000 9.000000 -0.155072 0.903401 0.399773
7.05000019 -4.76999998 0.20999999 218 125 84 0.000000 0.000000 0.000000 0.000000 -60.708740 0.000000 9.000000 -0.331027 0.891227 0.310057
7.01999998 -4.75000000 0.18000001 218 125 84 0.000000 0.000000 0.000000 0.000000 -60.708740 0.000000 9.000000 -0.039175 0.979369 0.198248
7.01999998 -4.76999998 0.17000000 218 125 84 0.000000 0.000000 0.000000 0.000000 -60.708740 0.000000 9.000000 -0.145378 0.977886 0.150348
7.03000021 -4.80000019 0.20000000 218 125 84 0.000000 0.000000 0.000000 0.000000 -60.708740 0.000000 9.000000 0.082958 0.723336 0.685495
7.03000021 -4.80999994 0.20999999 218 125 84 0.000000 0.000000 0.000000 0.000000 -60.708740 0.000000 9.000000 0.129750 0.885436 0.446283
7.03999996 -4.78999996 0.20000000 218 125 84 0.000000 0.000000 0.000000 0.000000 -60.708740 0.000000 9.000000 -0.161163 0.850172 0.501232
7.05000019 -4.82000017 0.23000000 218 125 84 0.000000 0.000000 0.000000 0.000000 -60.708740 0.000000 9.000000 -0.196939 0.804548 0.560283
7.03999996 -4.78999996 0.20000000 218 125 84 0.000000 0.000000 0.000000 0.000000 -60.708740 0.000000 9.000000 -0.161163 0.850172 0.501232
7.01999998 -4.82000017 0.22000000 218 125 84 0.000000 0.000000 0.000000 0.000000 -60.708740 0.000000 9.000000 0.032078 0.804747 0.592751
7.00000000 -4.76000023 0.18000001 218 125 84 0.000000 0.000000 0.000000 0.000000 -60.708740 0.000000 9.000000 0.386216 0.899227 0.205496
6.98000002 -4.76000023 0.15000001 218 125 84 0.000000 0.000000 0.000000 0.000000 -60.708740 0.000000 9.000000 0.278646 0.938524 0.203786
6.98000002 -4.75000000 0.15000001 218 125 84 0.000000 0.000000 0.000000 0.000000 -60.708740 0.000000 9.000000 0.481878 0.626274 0.612842
7.00000000 -4.82000017 0.19000000 218 125 84 0.000000 0.000000 0.000000 0.000000 -60.708740 0.000000 9.000000 0.109582 0.805064 0.582978
6.98999977 -4.82000017 0.20999999 218 125 84 0.000000 0.000000 0.000000 0.000000 -60.708740 0.000000 9.000000 0.132377 0.777899 0.614287
6.98000002 -4.80999994 0.19000000 218 125 84 0.000000 0.000000 0.000000 0.000000 -60.708740 0.000000 9.000000 -0.149148 0.840251 0.521280
6.96999979 -4.80999994 0.18000001 218 125 84 0.000000 0.000000 0.000000 0.000000 -60.708740 0.000000 9.000000 0.011379 0.939400 0.342634
7.01999998 -4.86999989 0.25999999 218 125 84 0.000000 0.000000 0.000000 0.000000 -60.708740 0.000000 9.000000 -0.181581 0.975530 0.123976
7.01999998 -4.86999989 0.23999999 218 125 84 0.000000 0.000000 0.000000 0.000000 -60.708740 0.000000 9.000000 0.124651 0.991590 -0.034812
7.11999989 -4.76999998 0.11000000 218 125 84 0.000000 0.000000 0.000000 0.000000 -60.708740 0.000000 9.000000 0.146764 0.918326 0.367610
7.05000019 -4.73999977 0.14000000 218 125 84 0.000000 0.000000 0.000000 0.000000 -60.708740 0.000000 9.000000 -0.192364 0.928119 0.318734
7.00000000 -4.76999998 0.08000000 218 125 84 0.000000 0.000000 0.000000 0.000000 -60.708740 0.000000 9.000000 0.209024 0.939918 0.269932
6.98999977 -4.76000023 0.01000000 218 125 84 0.000000 0.000000 0.000000 0.000000 -60.708740 0.000000 9.000000 0.098807 0.852031 0.514082
6.98000002 -4.76000023 0.02000000 218 125 84 0.000000 0.000000 0.000000 0.000000 -60.708740 0.000000 9.000000 0.468706 0.548770 0.692218
7.05999994 -4.96999979 0.25000000 218 125 84 0.000000 0.000000 0.000000 0.000000 -60.708740 0.000000 9.000000 -0.240393 0.949347 -0.202364
7.11000013 -4.92000008 0.22000000 218 125 84 0.000000 0.000000 0.000000 0.000000 -60.708740 0.000000 9.000000 0.093246 0.994985 -0.036201
7.09999990 -4.92000008 0.22000000 218 125 84 0.000000 0.000000 0.000000 0.000000 -60.708740 0.000000 9.000000 -0.056443 0.994949 -0.083005
7.11000013 -4.92000008 0.22000000 218 125 84 0.000000 0.000000 0.000000 0.000000 -60.708740 0.000000 9.000000 0.093246 0.994985 -0.036201
7.11999989 -4.92000008 0.22000000 218 125 84 0.000000 0.000000 0.000000 0.000000 -60.708740 0.000000 9.000000 0.150342 0.981499 -0.118562
7.11000013 -4.96000004 0.23000000 218 125 84 0.000000 0.000000 0.000000 0.000000 -60.708740 0.000000 9.000000 0.155466 0.955385 0.251137
7.09000015 -4.94000006 0.23000000 218 125 84 0.000000 0.000000 0.000000 0.000000 -60.708740 0.000000 9.000000 0.134869 0.974332 0.180245
6.98999977 -4.92000008 0.25999999 218 125 84 0.000000 0.000000 0.000000 0.000000 -60.708740 0.000000 9.000000 -0.161394 0.945307 0.283456
7.01000023 -4.92000008 0.27000001 218 125 84 0.000000 0.000000 0.000000 0.000000 -60.708740 0.000000 9.000000 0.176495 0.942677 0.283213
6.88999987 -4.36000013 -0.01000000 218 125 84 0.000000 0.000000 0.000000 0.000000 -60.708740 0.000000 9.000000 0.092139 -0.147183 0.984808
6.90999985 -4.40000010 -0.01000000 218 125 84 0.000000 0.000000 0.000000 0.000000 -60.708740 0.000000 9.000000 0.184934 -0.107982 0.976801
6.92000008 -4.38000011 -0.01000000 218 125 84 0.000000 0.000000 0.000000 0.000000 -60.708740 0.000000 9.000000 0.515236 -0.208222 0.831369
6.92999983 -4.42999983 0.04000000 218 125 84 0.000000 0.000000 0.000000 0.000000 -60.708740 0.000000 9.000000 0.132032 0.101105 0.986076
6.94000006 -4.42999983 0.02000000 218 125 84 0.000000 0.000000 0.000000 0.000000 -60.708740 0.000000 9.000000 0.664444 -0.004144 0.747327
6.94999981 -4.42999983 0.01000000 218 125 84 0.000000 0.000000 0.000000 0.000000 -60.708740 0.000000 9.000000 0.604883 0.138899 0.784107
6.92999983 -4.46999979 0.03000000 218 125 84 0.000000 0.000000 0.000000 0.000000 -60.708740 0.000000 9.000000 0.192369 -0.034225 0.980726
6.92999983 -4.46000004 0.00000000 218 125 84 0.000000 0.000000 0.000000 0.000000 -60.708740 0.000000 9.000000 0.510112 0.009422 0.860057
6.96000004 -4.48000002 -0.02000000 218 125 84 0.000000 0.000000 0.000000 0.000000 -60.708740 0.000000 9.000000 0.089701 -0.151894 0.984318
6.92999983 -4.46000004 0.00000000 218 125 84 0.000000 0.000000 0.000000 0.000000 -60.708740 0.000000 9.000000 0.510112 0.009422 0.860057
6.90999985 -4.42999983 -0.02000000 218 125 84 0.000000 0.000000 0.000000 0.000000 -60.708740 0.000000 9.000000 0.449163 0.139197 0.882540
6.88999987 -4.44000006 -0.02000000 218 125 84 0.000000 0.000000 0.000000 0.000000 -60.708740 0.000000 9.000000 0.240131 -0.339095 0.909589
6.90000010 -4.40999985 -0.01000000 218 125 84 0.000000 0.000000 0.000000 0.000000 -60.708740 0.000000 9.000000 0.563560 -0.223880 0.795159
6.88999987 -4.42999983 -0.02000000 218 125 84 0.000000 0.000000 0.000000 0.000000 -60.708740 0.000000 9.000000 0.453652 0.053130 0.889594
6.90000010 -4.42000008 -0.02000000 218 125 84 0.000000 0.000000 0.000000 0.000000 -60.708740 0.000000 9.000000 0.142333 -0.264713 0.953765
6.90999985 -4.42000008 -0.02000000 218 125 84 0.000000 0.000000 0.000000 0.000000 -60.708740 0.000000 9.000000 0.373533 -0.084955 0.923718
6.90000010 -4.42000008 -0.02000000 218 125 84 0.000000 0.000000 0.000000 0.000000 -60.708740 0.000000 9.000000 0.142333 -0.264713 0.953765
6.90000010 -4.48000002 0.00000000 218 125 84 0.000000 0.000000 0.000000 0.000000 -60.708740 0.000000 9.000000 0.522551 -0.280891 0.805010
6.88999987 -4.46999979 0.00000000 218 125 84 0.000000 0.000000 0.000000 0.000000 -60.708740 0.000000 9.000000 0.213579 0.205520 0.955063
6.88999987 -4.48000002 0.00000000 218 125 84 0.000000 0.000000 0.000000 0.000000 -60.708740 0.000000 9.000000 0.348474 0.053511 0.935790
6.88999987 -4.46000004 0.02000000 218 125 84 0.000000 0.000000 0.000000 0.000000 -60.708740 0.000000 9.000000 0.446863 0.309846 0.839231
6.90999985 -4.48000002 0.00000000 218 125 84 0.000000 0.000000 0.000000 0.000000 -60.708740 0.000000 9.000000 0.400205 0.256311 0.879852
6.88999987 -4.51000023 0.07000000 218 125 84 0.000000 0.000000 0.000000 0.000000 -60.708740 0.000000 9.000000 0.416074 0.317083 0.852256
6.90000010 -4.55999994 0.07000000 218 125 84 0.000000 0.000000 0.000000 0.000000 -60.708740 0.000000 9.000000 0.542709 0.358026 0.759792
6.92999983 -4.55999994 0.07000000 218 125 84 0.000000 0.000000 0.000000 0.000000 -60.708740 0.000000 9.000000 0.230734 0.374759 0.897952
6.92999983 -4.51000023 0.04000000 218 125 84 0.000000 0.000000 0.000000 0.000000 -60.708740 0.000000 9.000000 0.147864 0.201866 0.968187
6.96000004 -4.48999977 -0.02000000 218 125 84 0.000000 0.000000 0.000000 0.000000 -60.708740 0.000000 9.000000 0.328403 0.421787 0.845131
6.94000006 -4.48999977 -0.01000000 218 125 84 0.000000 0.000000 0.000000 0.000000 -60.708740 0.000000 9.000000 0.510738 -0.080643 0.855946
6.96000004 -4.51999998 -0.01000000 218 125 84 0.000000 0.000000 0.000000 0.000000 -60.708740 0.000000 9.000000 0.159365 0.417795 0.894455
6.96000004 -4.50000000 -0.02000000 218 125 84 0.000000 0.000000 0.000000 0.000000 -60.708740 0.000000 9.000000 0.373645 0.131956 0.918138
6.94999981 -4.48999977 -0.02000000 218 125 84 0.000000 0.000000 0.000000 0.000000 -60.708740 0.000000 9.000000 0.190192 0.358934 0.913780
6.94000006 -4.50000000 -0.01000000 218 125 84 0.000000 0.000000 0.000000 0.000000 -60.708740 0.000000 9.000000 0.213404 0.107333 0.971050
6.96000004 -4.51999998 -0.02000000 218 125 84 0.000000 0.000000 0.000000 0.000000 -60.708740 0.000000 9.000000 0.494980 0.189917 0.847896
6.92999983 -4.50000000 0.01000000 218 125 84 0.000000 0.000000 0.000000 0.000000 -60.708740 0.000000 9.000000 0.339353 0.417545 0.842909
6.92999983 -4.55999994 0.06000000 218 125 84 0.000000 0.000000 0.000000 0.000000 -60.708740 0.000000 9.000000 0.023100 0.509555 0.860128
6.92999983 -4.53000021 0.04000000 218 125 84 0.000000 0.000000 0.000000 0.000000 -60.708740 0.000000 9.000000 0.421349 -0.208457 0.882616
6.94999981 -4.53000021 0.03000000 218 125 84 0.000000 0.000000 0.000000 0.000000 -60.708740 0.000000 9.000000 0.710392 -0.052886 0.701816
6.94000006 -4.55000019 0.06000000 218 125 84 0.000000 0.000000 0.000000 0.000000 -60.708740 0.000000 9.000000 0.382997 0.126737 0.915014
6.96000004 -4.55999994 0.04000000 218 125 84 0.000000 0.000000 0.000000 0.000000 -60.708740 0.000000 9.000000 0.244050 0.495775 0.833455
6.94999981 -4.53999996 -0.01000000 218 125 84 0.000000 0.000000 0.000000 0.000000 -60.708740 0.000000 9.000000 0.297466 0.339321 0.892399
6.90000010 -4.48999977 0.05000000 218 125 84 0.000000 0.000000 0.000000 0.000000 -60.708740 0.000000 9.000000 0.285228 0.329563 0.900018
6.90000010 -4.50000000 0.05000000 218 125 84 0.000000 0.000000 0.000000 0.000000 -60.708740 0.000000 9.000000 0.554363 -0.200059 0.807873
6.90999985 -4.50000000 0.00000000 218 125 84 0.000000 0.000000 0.000000 0.000000 -60.708740 0.000000 9.000000 0.335099 0.220043 0.916128
6.92000008 -4.55999994 0.03000000 218 125 84 0.000000 0.000000 0.000000 0.000000 -60.708740 0.000000 9.000000 0.021709 0.351181 0.936056
6.88999987 -4.55000019 0.03000000 218 125 84 0.000000 0.000000 0.000000 0.000000 -60.708740 0.000000 9.000000 0.255508 0.238753 0.936863
6.90000010 -4.55999994 0.03000000 218 125 84 0.000000 0.000000 0.000000 0.000000 -60.708740 0.000000 9.000000 0.266331 0.392725 0.880247
6.90999985 -4.55999994 0.06000000 218 125 84 0.000000 0.000000 0.000000 0.000000 -60.708740 0.000000 9.000000 0.083736 0.515191 0.852975
6.88999987 -4.55000019 0.06000000 218 125 84 0.000000 0.000000 0.000000 0.000000 -60.708740 0.000000 9.000000 0.232566 -0.102939 0.967118
6.92000008 -4.55000019 0.02000000 218 125 84 0.000000 0.000000 0.000000 0.000000 -60.708740 0.000000 9.000000 0.077338 0.400259 0.913133
6.90999985 -4.53000021 0.01000000 218 125 84 0.000000 0.000000 0.000000 0.000000 -60.708740 0.000000 9.000000 0.698373 0.026698 0.715236
6.84999990 -4.44000006 0.02000000 218 125 84 0.000000 0.000000 0.000000 0.000000 -60.708740 0.000000 9.000000 0.334427 0.216732 0.917162
6.84999990 -4.44999981 -0.01000000 218 125 84 0.000000 0.000000 0.000000 0.000000 -60.708740 0.000000 9.000000 0.410095 0.001294 0.912042
6.84000015 -4.44000006 0.02000000 218 125 84 0.000000 0.000000 0.000000 0.000000 -60.708740 0.000000 9.000000 0.363343 -0.183809 0.913344
6.82000017 -4.48000002 0.03000000 218 125 84 0.000000 0.000000 0.000000 0.000000 -60.708740 0.000000 9.000000 0.656776 0.244125 0.713476
6.82000017 -4.46000004 0.02000000 218 125 84 0.000000 0.000000 0.000000 0.000000 -60.708740 0.000000 9.000000 0.276514 0.188470 0.942348
6.82999992 -4.46999979 0.02000000 218 125 84 0.000000 0.000000 0.000000 0.000000 -60.708740 0.000000 9.000000 0.426315 0.279626 0.860270
6.82999992 -4.46000004 0.02000000 218 125 84 0.000000 0.000000 0.000000 0.000000 -60.708740 0.000000 9.000000 0.354576 -0.003786 0.935020
6.82999992 -4.48000002 0.02000000 218 125 84 0.000000 0.000000 0.000000 0.000000 -60.708740 0.000000 9.000000 0.300656 0.318428 0.899005
6.88000011 -4.55999994 0.08000000 218 125 84 0.000000 0.000000 0.000000 0.000000 -60.708740 0.000000 9.000000 0.383390 0.169604 0.907880
6.84999990 -4.51000023 0.05000000 218 125 84 0.000000 0.000000 0.000000 0.000000 -60.708740 0.000000 9.000000 0.286739 0.421674 0.860216
6.86000013 -4.51000023 0.05000000 218 125 84 0.000000 0.000000 0.000000 0.000000 -60.708740 0.000000 9.000000 0.230423 0.340563 0.911549
6.86000013 -4.51999998 0.05000000 218 125 84 0.000000 0.000000 0.000000 0.000000 -60.708740 0.000000 9.000000 0.225314 0.296167 0.928180
6.84999990 -4.51000023 0.05000000 218 125 84 0.000000 0.000000 0.000000 0.000000 -60.708740 0.000000 9.000000 0.286739 0.421674 0.860216
6.88000011 -4.51000023 0.04000000 218 125 84 0.000000 0.000000 0.000000 0.000000 -60.708740 0.000000 9.000000 0.044963 0.028232 0.998590
6.86999989 -4.48999977 0.03000000 218 125 84 0.000000 0.000000 0.000000 0.000000 -60.708740 0.000000 9.000000 0.421372 0.092564 0.902151
6.88000011 -4.53000021 0.05000000 218 125 84 0.000000 0.000000 0.000000 0.000000 -60.708740 0.000000 9.000000 0.641721 0.425036 0.638387
6.86000013 -4.55999994 0.06000000 218 125 84 0.000000 0.000000 0.000000 0.000000 -60.708740 0.000000 9.000000 0.328124 -0.132066 0.935357
6.86999989 -4.55999994 0.06000000 218 125 84 0.000000 0.000000 0.000000 0.000000 -60.708740 0.000000 9.000000 0.352036 0.640214 0.682786
6.82000017 -4.51999998 0.05000000 218 125 84 0.000000 0.000000 0.000000 0.000000 -60.708740 0.000000 9.000000 0.074928 0.077165 0.994199
6.82000017 -4.51999998 0.04000000 218 125 84 0.000000 0.000000 0.000000 0.000000 -60.708740 0.000000 9.000000 0.647554 0.041092 0.760911
6.82999992 -4.53999996 0.05000000 218 125 84 0.000000 0.000000 0.000000 0.000000 -60.708740 0.000000 9.000000 0.320362 0.481332 0.815897
6.84000015 -4.55000019 0.04000000 218 125 84 0.000000 0.000000 0.000000 0.000000 -60.708740 0.000000 9.000000 0.238912 0.522524 0.818468
6.82000017 -4.53000021 0.04000000 218 125 84 0.000000 0.000000 0.000000 0.000000 -60.708740 0.000000 9.000000 0.320049 -0.074460 0.944470
6.94000006 -4.73000002 0.15000001 218 125 84 0.000000 0.000000 0.000000 0.000000 -60.708740 0.000000 9.000000 0.215369 0.596525 0.773158
6.94999981 -4.73000002 0.15000001 218 125 84 0.000000 0.000000 0.000000 0.000000 -60.708740 0.000000 9.000000 -0.139695 0.683455 0.716501
6.88000011 -4.67999983 0.17000000 218 125 84 0.000000 0.000000 0.000000 0.000000 -60.708740 0.000000 9.000000 0.357613 0.373094 0.856104
