//X Y Z R G B PointSourceId ScanDirectionFlag NumberOfReturns ReturnNumber GpsTime Intensity Classification Nx Ny Nz
2.27999997 -3.25999999 0.15000001 26 97 194 0.000000 0.000000 0.000000 0.000000 -60.708740 0.000000 229.000000 0.844633 -0.354403 -0.401240
2.27999997 -3.24000001 0.13000000 26 97 194 0.000000 0.000000 0.000000 0.000000 -60.708740 0.000000 229.000000 0.853354 -0.251884 -0.456445
2.28999996 -3.25000000 0.04000000 26 97 194 0.000000 0.000000 0.000000 0.000000 -60.708740 0.000000 229.000000 0.924159 -0.365556 -0.110899
2.25999999 -3.24000001 1.00999999 26 97 194 0.000000 0.000000 0.000000 0.000000 -60.708740 0.000000 229.000000 0.976722 -0.186927 -0.105224
2.25999999 -3.25000000 1.00000000 26 97 194 0.000000 0.000000 0.000000 0.000000 -60.708740 0.000000 229.000000 0.968700 -0.160807 -0.189109
2.23000002 -3.28999996 1.02999997 26 97 194 0.000000 0.000000 0.000000 0.000000 -60.708740 0.000000 229.000000 0.862022 -0.263015 -0.433291
2.25999999 -3.26999998 1.03999996 26 97 194 0.000000 0.000000 0.000000 0.000000 -60.708740 0.000000 229.000000 0.912898 -0.382828 -0.141632
2.25000000 -3.27999997 1.04999995 26 97 194 0.000000 0.000000 0.000000 0.000000 -60.708740 0.000000 229.000000 0.671678 -0.642118 -0.369505
2.22000003 -3.25999999 0.99000001 26 97 194 0.000000 0.000000 0.000000 0.000000 -60.708740 0.000000 229.000000 0.860115 -0.250298 -0.444469
2.22000003 -3.26999998 1.02999997 26 97 194 0.000000 0.000000 0.000000 0.000000 -60.708740 0.000000 229.000000 -0.710643 0.650230 0.268677
2.22000003 -3.27999997 0.88000000 26 97 194 0.000000 0.000000 0.000000 0.000000 -60.708740 0.000000 229.000000 0.991021 -0.132656 -0.016721
2.22000003 -3.29999995 0.82999998 26 97 194 0.000000 0.000000 0.000000 0.000000 -60.708740 0.000000 229.000000 0.960555 -0.277765 0.013460
2.17000008 -3.28999996 0.86000001 26 97 194 0.000000 0.000000 0.000000 0.000000 -60.708740 0.000000 229.000000 0.936913 -0.285389 -0.201861
2.22000003 -3.30999994 0.74000001 26 97 194 0.000000 0.000000 0.000000 0.000000 -60.708740 0.000000 229.000000 -0.716437 0.646541 0.262111
2.23000002 -3.26999998 0.70999998 26 97 194 0.000000 0.000000 0.000000 0.000000 -60.708740 0.000000 229.000000 -0.655217 0.749029 0.098209
2.23000002 -3.26999998 0.69999999 26 97 194 0.000000 0.000000 0.000000 0.000000 -60.708740 0.000000 229.000000 0.828927 -0.532132 0.172381
2.17000008 -3.25000000 0.66000003 26 97 194 0.000000 0.000000 0.000000 0.000000 -60.708740 0.000000 229.000000 0.981648 -0.161783 0.100963
2.25999999 -3.25999999 0.60000002 26 97 194 0.000000 0.000000 0.000000 0.000000 -60.708740 0.000000 229.000000 0.973102 -0.210569 -0.093448
2.25999999 -3.26999998 0.60000002 26 97 194 0.000000 0.000000 0.000000 0.000000 -60.708740 0.000000 229.000000 0.707848 -0.626858 -0.325577
2.23000002 -3.26999998 0.58999997 26 97 194 0.000000 0.000000 0.000000 0.000000 -60.708740 0.000000 229.000000 0.733611 -0.657352 -0.172345
2.22000003 -3.29999995 0.63000000 26 97 194 0.000000 0.000000 0.000000 0.000000 -60.708740 0.000000 229.000000 0.724381 -0.475738 -0.498944
2.25999999 -3.26999998 0.50999999 26 97 194 0.000000 0.000000 0.000000 0.000000 -60.708740 0.000000 229.000000 -0.713903 0.464287 0.524195
2.21000004 -3.26999998 0.50000000 26 97 194 0.000000 0.000000 0.000000 0.000000 -60.708740 0.000000 229.000000 -0.607761 0.693407 0.387056
2.21000004 -3.26999998 0.49000001 26 97 194 0.000000 0.000000 0.000000 0.000000 -60.708740 0.000000 229.000000 -0.684636 0.714730 0.142946
2.11999989 -3.26999998 0.62000000 26 97 194 0.000000 0.000000 0.000000 0.000000 -60.708740 0.000000 229.000000 0.855529 -0.469258 0.218786
2.24000001 -3.28999996 0.46000001 26 97 194 0.000000 0.000000 0.000000 0.000000 -60.708740 0.000000 229.000000 0.922642 -0.318005 -0.218183
2.25999999 -3.25999999 0.38999999 26 97 194 0.000000 0.000000 0.000000 0.000000 -60.708740 0.000000 229.000000 0.757771 -0.647233 -0.082904
2.25999999 -3.26999998 0.37000000 26 97 194 0.000000 0.000000 0.000000 0.000000 -60.708740 0.000000 229.000000 0.874256 -0.409194 0.261220
2.21000004 -3.27999997 0.38000000 26 97 194 0.000000 0.000000 0.000000 0.000000 -60.708740 0.000000 229.000000 0.706905 -0.706905 0.023891
2.19000006 -3.27999997 0.31999999 26 97 194 0.000000 0.000000 0.000000 0.000000 -60.708740 0.000000 229.000000 -0.697373 0.716707 -0.001381
2.17000008 -3.25000000 0.34000000 26 97 194 0.000000 0.000000 0.000000 0.000000 -60.708740 0.000000 229.000000 0.956079 -0.255219 -0.144139
2.11999989 -3.24000001 0.34999999 26 97 194 0.000000 0.000000 0.000000 0.000000 -60.708740 0.000000 229.000000 0.891923 -0.429550 0.141281
2.13000011 -3.25999999 0.34000000 26 97 194 0.000000 0.000000 0.000000 0.000000 -60.708740 0.000000 229.000000 0.730383 -0.621705 -0.282884
2.06999993 -3.25000000 0.55000001 26 97 194 0.000000 0.000000 0.000000 0.000000 -60.708740 0.000000 229.000000 -0.404972 0.866487 0.291886
2.06999993 -3.25000000 0.55000001 26 97 194 0.000000 0.000000 0.000000 0.000000 -60.708740 0.000000 229.000000 -0.404972 0.866487 0.291886
2.09999990 -3.26999998 0.49000001 26 97 194 0.000000 0.000000 0.000000 0.000000 -60.708740 0.000000 229.000000 0.858678 -0.499098 0.116504
2.06999993 -3.24000001 0.41999999 26 97 194 0.000000 0.000000 0.000000 0.000000 -60.708740 0.000000 229.000000 -0.498112 0.777185 0.384536
2.25000000 -3.25999999 0.17000000 26 97 194 0.000000 0.000000 0.000000 0.000000 -60.708740 0.000000 229.000000 0.931228 -0.296364 -0.212090
2.23000002 -3.26999998 0.20000000 26 97 194 0.000000 0.000000 0.000000 0.000000 -60.708740 0.000000 229.000000 0.939478 -0.340577 0.037271
2.25000000 -3.25999999 0.11000000 26 97 194 0.000000 0.000000 0.000000 0.000000 -60.708740 0.000000 229.000000 0.943123 -0.247173 0.222317
2.25999999 -3.29999995 0.12000000 26 97 194 0.000000 0.000000 0.000000 0.000000 -60.708740 0.000000 229.000000 0.941684 -0.244755 -0.230927
2.21000004 -3.24000001 0.14000000 26 97 194 0.000000 0.000000 0.000000 0.000000 -60.708740 0.000000 229.000000 0.893260 -0.440378 0.090298
2.24000001 -3.24000001 0.05000000 26 97 194 0.000000 0.000000 0.000000 0.000000 -60.708740 0.000000 229.000000 0.954271 -0.254917 0.156153
2.10999990 -3.23000002 0.00000000 26 97 194 0.000000 0.000000 0.000000 0.000000 -60.708740 0.000000 229.000000 0.862812 -0.491184 -0.119555
2.13000011 -3.27999997 0.02000000 26 97 194 0.000000 0.000000 0.000000 0.000000 -60.708740 0.000000 229.000000 0.894194 -0.435203 0.104952
2.03999996 -3.20000005 0.01000000 26 97 194 0.000000 0.000000 0.000000 0.000000 -60.708740 0.000000 229.000000 0.869887 -0.446134 -0.210384
1.97000003 -3.19000006 0.08000000 26 97 194 0.000000 0.000000 0.000000 0.000000 -60.708740 0.000000 229.000000 0.608321 -0.677938 -0.412730
2.00999999 -3.19000006 0.00000000 26 97 194 0.000000 0.000000 0.000000 0.000000 -60.708740 0.000000 229.000000 0.831485 -0.542146 0.121289
2.41000009 -3.08999991 -0.03000000 26 97 194 0.000000 0.000000 0.000000 0.000000 -60.708740 0.000000 229.000000 0.918731 0.322488 -0.227891
2.38000011 -3.13000011 -0.03000000 26 97 194 0.000000 0.000000 0.000000 0.000000 -60.708740 0.000000 229.000000 0.987766 -0.005606 0.155845
2.36999989 -3.13000011 -0.17000000 26 97 194 0.000000 0.000000 0.000000 0.000000 -60.708740 0.000000 229.000000 0.971538 -0.010702 0.236641
2.35999990 -3.11999989 -0.15000001 26 97 194 0.000000 0.000000 0.000000 0.000000 -60.708740 0.000000 229.000000 0.986642 -0.112793 0.117542
2.36999989 -3.15000010 -0.03000000 26 97 194 0.000000 0.000000 0.000000 0.000000 -60.708740 0.000000 229.000000 0.990006 -0.075264 -0.119264
2.35999990 -3.15000010 -0.14000000 26 97 194 0.000000 0.000000 0.000000 0.000000 -60.708740 0.000000 229.000000 0.950274 -0.171184 0.260146
2.39000010 -3.16000009 -0.11000000 26 97 194 0.000000 0.000000 0.000000 0.000000 -60.708740 0.000000 229.000000 0.999639 0.025269 -0.009097
2.29999995 -3.21000004 -0.06000000 26 97 194 0.000000 0.000000 0.000000 0.000000 -60.708740 0.000000 229.000000 0.942483 -0.142390 -0.302408
2.33999991 -3.21000004 -0.17000000 26 97 194 0.000000 0.000000 0.000000 0.000000 -60.708740 0.000000 229.000000 0.940391 -0.297038 0.165629
2.36999989 -3.14000010 -0.23000000 26 97 194 0.000000 0.000000 0.000000 0.000000 -60.708740 0.000000 229.000000 0.991873 -0.027956 0.124124
2.36999989 -3.17000008 -0.27000001 26 97 194 0.000000 0.000000 0.000000 0.000000 -60.708740 0.000000 229.000000 0.976031 -0.113434 -0.185733
2.35999990 -3.16000009 -0.25999999 26 97 194 0.000000 0.000000 0.000000 0.000000 -60.708740 0.000000 229.000000 0.986605 0.001125 -0.163122
2.32999992 -3.21000004 -0.23999999 26 97 194 0.000000 0.000000 0.000000 0.000000 -60.708740 0.000000 229.000000 0.957357 -0.204289 0.204289
2.32999992 -3.18000007 -0.25000000 26 97 194 0.000000 0.000000 0.000000 0.000000 -60.708740 0.000000 229.000000 0.982610 -0.180479 -0.043645
2.32999992 -3.21000004 -0.23000000 26 97 194 0.000000 0.000000 0.000000 0.000000 -60.708740 0.000000 229.000000 0.967687 -0.230159 0.103000
2.31999993 -3.23000002 -0.20000000 26 97 194 0.000000 0.000000 0.000000 0.000000 -60.708740 0.000000 229.000000 0.863666 -0.498539 -0.074430
2.31999993 -3.23000002 -0.25999999 26 97 194 0.000000 0.000000 0.000000 0.000000 -60.708740 0.000000 229.000000 0.868762 -0.494693 -0.023040
2.26999998 -3.25999999 -0.27000001 26 97 194 0.000000 0.000000 0.000000 0.000000 -60.708740 0.000000 229.000000 0.917053 -0.397170 -0.035627
2.26999998 -3.28999996 -0.27000001 26 97 194 0.000000 0.000000 0.000000 0.000000 -60.708740 0.000000 229.000000 0.868727 -0.210104 -0.448519
2.29999995 -3.25000000 -0.28999999 26 97 194 0.000000 0.000000 0.000000 0.000000 -60.708740 0.000000 229.000000 0.844840 -0.245966 -0.475127
2.30999994 -3.25000000 -0.31000000 26 97 194 0.000000 0.000000 0.000000 0.000000 -60.708740 0.000000 229.000000 0.721439 -0.509153 -0.469350
2.29999995 -3.25000000 -0.43000001 26 97 194 0.000000 0.000000 0.000000 0.000000 -60.708740 0.000000 229.000000 0.960028 -0.246864 0.131922
2.26999998 -3.26999998 -0.41999999 26 97 194 0.000000 0.000000 0.000000 0.000000 -60.708740 0.000000 229.000000 0.850580 -0.520504 0.074761
2.33999991 -3.23000002 -0.46000001 26 97 194 0.000000 0.000000 0.000000 0.000000 -60.708740 0.000000 229.000000 0.863526 -0.194702 -0.465204
2.29999995 -3.25000000 -0.49000001 26 97 194 0.000000 0.000000 0.000000 0.000000 -60.708740 0.000000 229.000000 0.997609 -0.056670 0.039562
2.28999996 -3.26999998 -0.44999999 26 97 194 0.000000 0.000000 0.000000 0.000000 -60.708740 0.000000 229.000000 0.721336 -0.465966 -0.512397
2.34999990 -3.25000000 -0.63999999 26 97 194 0.000000 0.000000 0.000000 0.000000 -60.708740 0.000000 229.000000 0.922215 -0.325404 0.208884
2.28999996 -3.28999996 -0.81000000 26 97 194 0.000000 0.000000 0.000000 0.000000 -60.708740 0.000000 229.000000 0.958368 -0.255652 0.127171
2.28999996 -3.27999997 -0.81000000 26 97 194 0.000000 0.000000 0.000000 0.000000 -60.708740 0.000000 229.000000 0.955448 -0.293504 0.031224
2.38000011 -3.25999999 -0.92000002 26 97 194 0.000000 0.000000 0.000000 0.000000 -60.708740 0.000000 229.000000 0.931915 -0.313424 -0.182483
2.38000011 -3.24000001 -0.92000002 26 97 194 0.000000 0.000000 0.000000 0.000000 -60.708740 0.000000 229.000000 0.988629 -0.118448 0.092647
2.25999999 -3.26999998 -0.10000000 26 97 194 0.000000 0.000000 0.000000 0.000000 -60.708740 0.000000 229.000000 0.959274 -0.274984 0.064627
2.25999999 -3.29999995 -0.07000000 26 97 194 0.000000 0.000000 0.000000 0.000000 -60.708740 0.000000 229.000000 0.860942 -0.495868 -0.113547
2.25999999 -3.26999998 -0.11000000 26 97 194 0.000000 0.000000 0.000000 0.000000 -60.708740 0.000000 229.000000 0.899723 -0.407664 0.155914
2.14000010 -3.25000000 -0.08000000 26 97 194 0.000000 0.000000 0.000000 0.000000 -60.708740 0.000000 229.000000 0.881271 -0.463753 0.091069
2.15000010 -3.27999997 -0.18000001 26 97 194 0.000000 0.000000 0.000000 0.000000 -60.708740 0.000000 229.000000 0.920496 -0.386100 -0.060119
2.18000007 -3.31999993 -0.12000000 26 97 194 0.000000 0.000000 0.000000 0.000000 -60.708740 0.000000 229.000000 0.917078 -0.395315 -0.051910
2.23000002 -3.30999994 -0.20000000 26 97 194 0.000000 0.000000 0.000000 0.000000 -60.708740 0.000000 229.000000 -0.700124 0.713988 0.006932
2.22000003 -3.27999997 -0.22000000 26 97 194 0.000000 0.000000 0.000000 0.000000 -60.708740 0.000000 229.000000 0.955254 -0.269363 0.122199
2.25000000 -3.28999996 -0.28000000 26 97 194 0.000000 0.000000 0.000000 0.000000 -60.708740 0.000000 229.000000 -0.649655 0.582508 0.488501
2.25999999 -3.26999998 -0.28999999 26 97 194 0.000000 0.000000 0.000000 0.000000 -60.708740 0.000000 229.000000 0.876035 -0.429837 0.218637
2.25999999 -3.26999998 -0.28999999 26 97 194 0.000000 0.000000 0.000000 0.000000 -60.708740 0.000000 229.000000 0.876035 -0.429837 0.218637
2.19000006 -3.29999995 -0.30000001 26 97 194 0.000000 0.000000 0.000000 0.000000 -60.708740 0.000000 229.000000 -0.638749 0.768473 -0.038071
2.22000003 -3.27999997 -0.34999999 26 97 194 0.000000 0.000000 0.000000 0.000000 -60.708740 0.000000 229.000000 0.948662 -0.154746 -0.275852
2.14000010 -3.27999997 -0.23000000 26 97 194 0.000000 0.000000 0.000000 0.000000 -60.708740 0.000000 229.000000 0.926183 -0.353684 -0.130739
1.99000001 -3.21000004 -0.04000000 26 97 194 0.000000 0.000000 0.000000 0.000000 -60.708740 0.000000 229.000000 0.757472 -0.515343 -0.400822
1.99000001 -3.21000004 -0.04000000 26 97 194 0.000000 0.000000 0.000000 0.000000 -60.708740 0.000000 229.000000 0.757472 -0.515343 -0.400822
1.97000003 -3.19000006 -0.20000000 26 97 194 0.000000 0.000000 0.000000 0.000000 -60.708740 0.000000 229.000000 0.854977 -0.386369 -0.346025
1.95000005 -3.16000009 -0.31999999 26 97 194 0.000000 0.000000 0.000000 0.000000 -60.708740 0.000000 229.000000 0.850454 -0.511431 0.123149
2.01999998 -3.25999999 -0.05000000 26 97 194 0.000000 0.000000 0.000000 0.000000 -60.708740 0.000000 229.000000 0.834949 -0.530525 -0.146301
2.07999992 -3.23000002 -0.11000000 26 97 194 0.000000 0.000000 0.000000 0.000000 -60.708740 0.000000 229.000000 0.764951 -0.610415 0.205532
2.01999998 -3.24000001 -0.17000000 26 97 194 0.000000 0.000000 0.000000 0.000000 -60.708740 0.000000 229.000000 0.834707 -0.536493 0.124256
1.99000001 -3.23000002 -0.11000000 26 97 194 0.000000 0.000000 0.000000 0.000000 -60.708740 0.000000 229.000000 0.726302 -0.668683 0.159210
2.04999995 -3.23000002 -0.20000000 26 97 194 0.000000 0.000000 0.000000 0.000000 -60.708740 0.000000 229.000000 0.923844 -0.352538 0.149097
2.07999992 -3.25999999 -0.33000001 26 97 194 0.000000 0.000000 0.000000 0.000000 -60.708740 0.000000 229.000000 0.899069 -0.425141 0.104543
2.07999992 -3.25999999 -0.33000001 26 97 194 0.000000 0.000000 0.000000 0.000000 -60.708740 0.000000 229.000000 0.899069 -0.425141 0.104543
2.25000000 -3.28999996 -0.41999999 26 97 194 0.000000 0.000000 0.000000 0.000000 -60.708740 0.000000 229.000000 0.916445 -0.365731 0.162390
2.21000004 -3.28999996 -0.38999999 26 97 194 0.000000 0.000000 0.000000 0.000000 -60.708740 0.000000 229.000000 0.968389 -0.240539 -0.066055
2.21000004 -3.29999995 -0.38999999 26 97 194 0.000000 0.000000 0.000000 0.000000 -60.708740 0.000000 229.000000 0.759051 -0.613139 0.218867
2.19000006 -3.30999994 -0.41000000 26 97 194 0.000000 0.000000 0.000000 0.000000 -60.708740 0.000000 229.000000 -0.819682 0.465908 0.333243
2.25999999 -3.27999997 -0.46000001 26 97 194 0.000000 0.000000 0.000000 0.000000 -60.708740 0.000000 229.000000 0.707717 -0.501230 -0.497900
2.25000000 -3.28999996 -0.46000001 26 97 194 0.000000 0.000000 0.000000 0.000000 -60.708740 0.000000 229.000000 0.728337 -0.492747 -0.476157
2.19000006 -3.28999996 -0.49000001 26 97 194 0.000000 0.000000 0.000000 0.000000 -60.708740 0.000000 229.000000 0.967289 -0.253538 -0.008411
2.19000006 -3.28999996 -0.49000001 26 97 194 0.000000 0.000000 0.000000 0.000000 -60.708740 0.000000 229.000000 0.967289 -0.253538 -0.008411
2.13000011 -3.25999999 -0.44000000 26 97 194 0.000000 0.000000 0.000000 0.000000 -60.708740 0.000000 229.000000 0.800607 -0.583745 -0.135167
2.11999989 -3.25999999 -0.50000000 26 97 194 0.000000 0.000000 0.000000 0.000000 -60.708740 0.000000 229.000000 0.845141 -0.505296 -0.174394
2.11999989 -3.30999994 -0.44000000 26 97 194 0.000000 0.000000 0.000000 0.000000 -60.708740 0.000000 229.000000 -0.505443 0.862386 -0.028610
2.11999989 -3.26999998 -0.50999999 26 97 194 0.000000 0.000000 0.000000 0.000000 -60.708740 0.000000 229.000000 -0.685373 0.727593 0.029554
2.14000010 -3.27999997 -0.49000001 26 97 194 0.000000 0.000000 0.000000 0.000000 -60.708740 0.000000 229.000000 -0.531366 0.833312 0.152453
2.10999990 -3.26999998 -0.50999999 26 97 194 0.000000 0.000000 0.000000 0.000000 -60.708740 0.000000 229.000000 -0.653142 0.755596 0.049804
2.23000002 -3.30999994 -0.62000000 26 97 194 0.000000 0.000000 0.000000 0.000000 -60.708740 0.000000 229.000000 0.934202 -0.337614 0.115250
2.14000010 -3.28999996 -0.56000000 26 97 194 0.000000 0.000000 0.000000 0.000000 -60.708740 0.000000 229.000000 0.777656 -0.533937 -0.331907
2.03999996 -3.22000003 -0.41000000 26 97 194 0.000000 0.000000 0.000000 0.000000 -60.708740 0.000000 229.000000 -0.662983 0.747800 0.035340
2.02999997 -3.21000004 -0.50999999 26 97 194 0.000000 0.000000 0.000000 0.000000 -60.708740 0.000000 229.000000 -0.660713 0.719789 -0.212983
1.97000003 -3.20000005 -0.38999999 26 97 194 0.000000 0.000000 0.000000 0.000000 -60.708740 0.000000 229.000000 0.921058 -0.365367 -0.134755
2.07999992 -3.27999997 -0.46000001 26 97 194 0.000000 0.000000 0.000000 0.000000 -60.708740 0.000000 229.000000 0.811218 -0.536177 0.233322
1.98000002 -3.23000002 -0.50999999 26 97 194 0.000000 0.000000 0.000000 0.000000 -60.708740 0.000000 229.000000 -0.705724 0.708486 0.001381
2.07999992 -3.25999999 -0.69000000 26 97 194 0.000000 0.000000 0.000000 0.000000 -60.708740 0.000000 229.000000 -0.620425 0.763717 0.178353
1.92999995 -3.10999990 -0.47000000 26 97 194 0.000000 0.000000 0.000000 0.000000 -60.708740 0.000000 229.000000 0.985555 -0.111099 -0.127823
1.90999997 -3.10999990 -0.62000000 26 97 194 0.000000 0.000000 0.000000 0.000000 -60.708740 0.000000 229.000000 0.980373 -0.193230 -0.039120
2.21000004 -3.28999996 -0.81000000 26 97 194 0.000000 0.000000 0.000000 0.000000 -60.708740 0.000000 229.000000 0.928478 -0.367440 0.053997
2.17000008 -3.28999996 -0.69999999 26 97 194 0.000000 0.000000 0.000000 0.000000 -60.708740 0.000000 229.000000 0.793994 -0.597330 0.113008
2.16000009 -3.30999994 -0.77999997 26 97 194 0.000000 0.000000 0.000000 0.000000 -60.708740 0.000000 229.000000 -0.587510 0.667853 0.456952
2.25999999 -3.31999993 -0.86000001 26 97 194 0.000000 0.000000 0.000000 0.000000 -60.708740 0.000000 229.000000 0.782950 -0.416601 -0.461989
1.95000005 -3.14000010 -0.70999998 26 97 194 0.000000 0.000000 0.000000 0.000000 -60.708740 0.000000 229.000000 0.973785 -0.222475 -0.047413
2.08999991 -3.29999995 -0.75000000 26 97 194 0.000000 0.000000 0.000000 0.000000 -60.708740 0.000000 229.000000 -0.687043 0.702413 0.185978
2.08999991 -3.29999995 -0.75000000 26 97 194 0.000000 0.000000 0.000000 0.000000 -60.708740 0.000000 229.000000 -0.687043 0.702413 0.185978
2.04999995 -3.28999996 -0.73000002 26 97 194 0.000000 0.000000 0.000000 0.000000 -60.708740 0.000000 229.000000 -0.513937 0.832305 0.207697
1.99000001 -3.23000002 -0.73000002 26 97 194 0.000000 0.000000 0.000000 0.000000 -60.708740 0.000000 229.000000 0.915078 -0.335769 -0.223365
1.99000001 -3.23000002 -0.73000002 26 97 194 0.000000 0.000000 0.000000 0.000000 -60.708740 0.000000 229.000000 0.915078 -0.335769 -0.223365
1.99000001 -3.25000000 -0.74000001 26 97 194 0.000000 0.000000 0.000000 0.000000 -60.708740 0.000000 229.000000 -0.585190 0.810370 0.029190
2.08999991 -3.27999997 -0.87000000 26 97 194 0.000000 0.000000 0.000000 0.000000 -60.708740 0.000000 229.000000 0.593587 -0.660470 -0.459821
2.08999991 -3.26999998 -0.86000001 26 97 194 0.000000 0.000000 0.000000 0.000000 -60.708740 0.000000 229.000000 -0.612060 0.678408 0.406381
2.03999996 -3.27999997 -0.88000000 26 97 194 0.000000 0.000000 0.000000 0.000000 -60.708740 0.000000 229.000000 -0.646981 0.633675 0.424113
2.07999992 -3.27999997 -0.98000002 26 97 194 0.000000 0.000000 0.000000 0.000000 -60.708740 0.000000 229.000000 -0.639123 0.746410 0.185453
2.07999992 -3.30999994 -1.00000000 26 97 194 0.000000 0.000000 0.000000 0.000000 -60.708740 0.000000 229.000000 -0.528504 0.838872 0.130296
2.07999992 -3.30999994 -1.00000000 26 97 194 0.000000 0.000000 0.000000 0.000000 -60.708740 0.000000 229.000000 -0.528504 0.838872 0.130296
1.96000004 -3.25999999 -0.95999998 26 97 194 0.000000 0.000000 0.000000 0.000000 -60.708740 0.000000 229.000000 -0.422738 0.785548 0.451893
1.96000004 -3.27999997 -1.00999999 26 97 194 0.000000 0.000000 0.000000 0.000000 -60.708740 0.000000 229.000000 -0.390243 0.914244 0.108937
2.00999999 -3.32999992 -1.10000002 26 97 194 0.000000 0.000000 0.000000 0.000000 -60.708740 0.000000 229.000000 0.832607 -0.550845 -0.057761
1.91999996 -3.14000010 -0.94000000 26 97 194 0.000000 0.000000 0.000000 0.000000 -60.708740 0.000000 229.000000 0.839897 -0.406604 -0.359507
1.88000000 -3.05999994 -0.94000000 26 97 194 0.000000 0.000000 0.000000 0.000000 -60.708740 0.000000 229.000000 0.956831 0.206846 -0.204177
1.88999999 -3.16000009 -0.88000000 26 97 194 0.000000 0.000000 0.000000 0.000000 -60.708740 0.000000 229.000000 0.783133 -0.548034 -0.293873
1.88999999 -3.22000003 -0.93000001 26 97 194 0.000000 0.000000 0.000000 0.000000 -60.708740 0.000000 229.000000 -0.434282 0.829084 0.352163
2.27999997 -3.22000003 0.69000000 26 97 194 0.000000 0.000000 0.000000 0.000000 -60.708740 0.000000 229.000000 0.999626 -0.003020 -0.027180
2.30999994 -3.19000006 0.67000002 26 97 194 0.000000 0.000000 0.000000 0.000000 -60.708740 0.000000 229.000000 0.952308 -0.251173 0.173269
2.30999994 -3.22000003 0.70999998 26 97 194 0.000000 0.000000 0.000000 0.000000 -60.708740 0.000000 229.000000 0.929164 -0.070452 -0.362892
2.30999994 -3.20000005 0.69999999 26 97 194 0.000000 0.000000 0.000000 0.000000 -60.708740 0.000000 229.000000 0.966978 -0.205273 -0.151050
2.31999993 -3.21000004 0.72000003 26 97 194 0.000000 0.000000 0.000000 0.000000 -60.708740 0.000000 229.000000 0.933365 -0.346832 -0.092399
2.26999998 -3.25999999 0.91000003 26 97 194 0.000000 0.000000 0.000000 0.000000 -60.708740 0.000000 229.000000 0.790967 -0.609851 0.049524
2.26999998 -3.26999998 0.87000000 26 97 194 0.000000 0.000000 0.000000 0.000000 -60.708740 0.000000 229.000000 0.910459 -0.383724 -0.154339
2.27999997 -3.23000002 0.79000002 26 97 194 0.000000 0.000000 0.000000 0.000000 -60.708740 0.000000 229.000000 0.800658 -0.537428 -0.264797
2.32999992 -3.20000005 0.55000001 26 97 194 0.000000 0.000000 0.000000 0.000000 -60.708740 0.000000 229.000000 0.857738 -0.347731 -0.378641
2.29999995 -3.22000003 0.56000000 26 97 194 0.000000 0.000000 0.000000 0.000000 -60.708740 0.000000 229.000000 0.830691 -0.527256 -0.178756
2.36999989 -3.18000007 0.41999999 26 97 194 0.000000 0.000000 0.000000 0.000000 -60.708740 0.000000 229.000000 0.840547 -0.142790 -0.522582
2.36999989 -3.17000008 0.31999999 26 97 194 0.000000 0.000000 0.000000 0.000000 -60.708740 0.000000 229.000000 0.964294 0.179251 -0.194952
2.35999990 -3.15000010 0.34999999 26 97 194 0.000000 0.000000 0.000000 0.000000 -60.708740 0.000000 229.000000 0.964591 0.249704 -0.084925
2.36999989 -3.16000009 0.36000001 26 97 194 0.000000 0.000000 0.000000 0.000000 -60.708740 0.000000 229.000000 0.846511 0.020513 -0.531976
2.32999992 -3.21000004 0.38000000 26 97 194 0.000000 0.000000 0.000000 0.000000 -60.708740 0.000000 229.000000 0.977338 -0.200823 -0.066941
2.29999995 -3.23000002 0.57999998 26 97 194 0.000000 0.000000 0.000000 0.000000 -60.708740 0.000000 229.000000 0.992690 -0.120688 -0.001087
2.28999996 -3.25000000 0.49000001 26 97 194 0.000000 0.000000 0.000000 0.000000 -60.708740 0.000000 229.000000 -0.756798 0.613240 0.226259
2.30999994 -3.24000001 0.50999999 26 97 194 0.000000 0.000000 0.000000 0.000000 -60.708740 0.000000 229.000000 0.869773 -0.438629 -0.226051
2.28999996 -3.23000002 0.55000001 26 97 194 0.000000 0.000000 0.000000 0.000000 -60.708740 0.000000 229.000000 0.856055 -0.376169 -0.354496
2.31999993 -3.23000002 0.55000001 26 97 194 0.000000 0.000000 0.000000 0.000000 -60.708740 0.000000 229.000000 0.957903 -0.234507 -0.165613
2.36999989 -3.14000010 0.25999999 26 97 194 0.000000 0.000000 0.000000 0.000000 -60.708740 0.000000 229.000000 0.863105 0.009425 -0.504937
2.40000010 -3.15000010 0.23999999 26 97 194 0.000000 0.000000 0.000000 0.000000 -60.708740 0.000000 229.000000 0.981867 0.189483 -0.005742
2.35999990 -3.17000008 0.31000000 26 97 194 0.000000 0.000000 0.000000 0.000000 -60.708740 0.000000 229.000000 0.963790 -0.243199 0.109375
2.35999990 -3.18000007 0.20000000 26 97 194 0.000000 0.000000 0.000000 0.000000 -60.708740 0.000000 229.000000 0.941196 -0.310121 0.134070
2.34999990 -3.18000007 0.25000000 26 97 194 0.000000 0.000000 0.000000 0.000000 -60.708740 0.000000 229.000000 0.942371 -0.283946 0.176952
2.33999991 -3.20000005 0.30000001 26 97 194 0.000000 0.000000 0.000000 0.000000 -60.708740 0.000000 229.000000 0.954780 -0.114258 -0.274483
2.34999990 -3.19000006 0.31000000 26 97 194 0.000000 0.000000 0.000000 0.000000 -60.708740 0.000000 229.000000 0.926499 0.096031 -0.363837
2.26999998 -3.22000003 0.31000000 26 97 194 0.000000 0.000000 0.000000 0.000000 -60.708740 0.000000 229.000000 0.939287 -0.315807 -0.134184
2.34999990 -3.22000003 0.23000000 26 97 194 0.000000 0.000000 0.000000 0.000000 -60.708740 0.000000 229.000000 0.963559 -0.200578 0.176980
2.36999989 -3.11999989 0.03000000 26 97 194 0.000000 0.000000 0.000000 0.000000 -60.708740 0.000000 229.000000 0.940089 0.313363 -0.134298
2.36999989 -3.20000005 0.12000000 26 97 194 0.000000 0.000000 0.000000 0.000000 -60.708740 0.000000 229.000000 0.968721 -0.171558 -0.179297
2.36999989 -3.18000007 0.13000000 26 97 194 0.000000 0.000000 0.000000 0.000000 -60.708740 0.000000 229.000000 0.996825 0.007400 0.079281
2.33999991 -3.21000004 0.11000000 26 97 194 0.000000 0.000000 0.000000 0.000000 -60.708740 0.000000 229.000000 0.989717 -0.023699 0.141066
2.34999990 -3.18000007 0.08000000 26 97 194 0.000000 0.000000 0.000000 0.000000 -60.708740 0.000000 229.000000 0.967547 -0.137487 -0.212012
2.33999991 -3.22000003 0.02000000 26 97 194 0.000000 0.000000 0.000000 0.000000 -60.708740 0.000000 229.000000 0.989039 -0.097148 0.111194
2.35999990 -3.24000001 0.23000000 26 97 194 0.000000 0.000000 0.000000 0.000000 -60.708740 0.000000 229.000000 0.921341 -0.299471 -0.247888
2.28999996 -3.25999999 0.25000000 26 97 194 0.000000 0.000000 0.000000 0.000000 -60.708740 0.000000 229.000000 0.869185 -0.470263 0.152872
2.27999997 -3.25999999 0.15000001 26 97 194 0.000000 0.000000 0.000000 0.000000 -60.708740 0.000000 229.000000 0.844633 -0.354403 -0.401240
2.29999995 -3.24000001 0.08000000 26 97 194 0.000000 0.000000 0.000000 0.000000 -60.708740 0.000000 229.000000 0.989170 -0.139012 -0.047103
2.31999993 -3.24000001 0.10000000 26 97 194 0.000000 0.000000 0.000000 0.000000 -60.708740 0.000000 229.000000 0.872933 -0.434228 0.222337
2.27999997 -3.24000001 0.12000000 26 97 194 0.000000 0.000000 0.000000 0.000000 -60.708740 0.000000 229.000000 0.988406 -0.097548 -0.116352
2.31999993 -3.23000002 0.11000000 26 97 194 0.000000 0.000000 0.000000 0.000000 -60.708740 0.000000 229.000000 0.977215 -0.210166 0.029685
2.23000002 -3.28999996 1.03999996 26 97 194 0.000000 0.000000 0.000000 0.000000 -60.708740 0.000000 229.000000 0.701656 -0.548325 -0.454993
2.25000000 -3.27999997 1.04999995 26 97 194 0.000000 0.000000 0.000000 0.000000 -60.708740 0.000000 229.000000 0.671678 -0.642118 -0.369505
2.23000002 -3.26999998 1.00000000 26 97 194 0.000000 0.000000 0.000000 0.000000 -60.708740 0.000000 229.000000 0.912283 -0.373142 -0.168836
2.23000002 -3.28999996 0.88000000 26 97 194 0.000000 0.000000 0.000000 0.000000 -60.708740 0.000000 229.000000 0.835142 -0.369601 -0.407348
2.18000007 -3.24000001 0.92000002 26 97 194 0.000000 0.000000 0.000000 0.000000 -60.708740 0.000000 229.000000 0.713208 -0.536984 -0.450535
2.22000003 -3.27999997 0.72000003 26 97 194 0.000000 0.000000 0.000000 0.000000 -60.708740 0.000000 229.000000 0.756345 -0.648918 0.082748
2.21000004 -3.26999998 0.67000002 26 97 194 0.000000 0.000000 0.000000 0.000000 -60.708740 0.000000 229.000000 -0.668505 0.709210 0.223879
2.18000007 -3.27999997 0.75999999 26 97 194 0.000000 0.000000 0.000000 0.000000 -60.708740 0.000000 229.000000 -0.638636 0.735447 0.226411
2.13000011 -3.25000000 0.75999999 26 97 194 0.000000 0.000000 0.000000 0.000000 -60.708740 0.000000 229.000000 0.936976 -0.335493 0.097574
2.15000010 -3.27999997 0.66000003 26 97 194 0.000000 0.000000 0.000000 0.000000 -60.708740 0.000000 229.000000 -0.578934 0.778674 0.241873
2.16000009 -3.26999998 0.68000001 26 97 194 0.000000 0.000000 0.000000 0.000000 -60.708740 0.000000 229.000000 0.848007 -0.512307 0.135740
2.23000002 -3.26999998 0.58999997 26 97 194 0.000000 0.000000 0.000000 0.000000 -60.708740 0.000000 229.000000 0.733611 -0.657352 -0.172345
2.20000005 -3.28999996 0.57999998 26 97 194 0.000000 0.000000 0.000000 0.000000 -60.708740 0.000000 229.000000 0.919829 -0.375356 -0.114119
2.25999999 -3.29999995 0.52999997 26 97 194 0.000000 0.000000 0.000000 0.000000 -60.708740 0.000000 229.000000 0.925029 -0.375586 0.057068
2.22000003 -3.25999999 0.50000000 26 97 194 0.000000 0.000000 0.000000 0.000000 -60.708740 0.000000 229.000000 0.659600 -0.629694 -0.410381
2.20000005 -3.29999995 0.50999999 26 97 194 0.000000 0.000000 0.000000 0.000000 -60.708740 0.000000 229.000000 0.608715 -0.645607 -0.461148
2.19000006 -3.28999996 0.50000000 26 97 194 0.000000 0.000000 0.000000 0.000000 -60.708740 0.000000 229.000000 0.665670 -0.561711 -0.491288
2.22000003 -3.26999998 0.50999999 26 97 194 0.000000 0.000000 0.000000 0.000000 -60.708740 0.000000 229.000000 0.718099 -0.695703 0.018197
2.16000009 -3.26999998 0.64999998 26 97 194 0.000000 0.000000 0.000000 0.000000 -60.708740 0.000000 229.000000 0.900880 -0.429315 0.064057
2.25000000 -3.29999995 0.36000001 26 97 194 0.000000 0.000000 0.000000 0.000000 -60.708740 0.000000 229.000000 0.752366 -0.540202 -0.376999
2.18000007 -3.28999996 0.47000000 26 97 194 0.000000 0.000000 0.000000 0.000000 -60.708740 0.000000 229.000000 0.919180 -0.342384 -0.194633
2.13000011 -3.25999999 0.44999999 26 97 194 0.000000 0.000000 0.000000 0.000000 -60.708740 0.000000 229.000000 0.531462 -0.796404 -0.288598
2.18000007 -3.31999993 0.34000000 26 97 194 0.000000 0.000000 0.000000 0.000000 -60.708740 0.000000 229.000000 0.726670 -0.683330 0.070789
2.03999996 -3.22000003 0.37000000 26 97 194 0.000000 0.000000 0.000000 0.000000 -60.708740 0.000000 229.000000 -0.552025 0.821377 -0.143556
2.06999993 -3.23000002 0.50999999 26 97 194 0.000000 0.000000 0.000000 0.000000 -60.708740 0.000000 229.000000 -0.485130 0.832316 0.268139
2.25000000 -3.26999998 0.17000000 26 97 194 0.000000 0.000000 0.000000 0.000000 -60.708740 0.000000 229.000000 0.863104 -0.400125 -0.308142
2.17000008 -3.29999995 0.08000000 26 97 194 0.000000 0.000000 0.000000 0.000000 -60.708740 0.000000 229.000000 0.771205 -0.634859 0.046869
2.14000010 -3.29999995 -0.01000000 26 97 194 0.000000 0.000000 0.000000 0.000000 -60.708740 0.000000 229.000000 0.798453 -0.582736 -0.151302
1.97000003 -3.19000006 0.05000000 26 97 194 0.000000 0.000000 0.000000 0.000000 -60.708740 0.000000 229.000000 -0.634154 0.686591 0.355585
2.05999994 -3.25999999 0.04000000 26 97 194 0.000000 0.000000 0.000000 0.000000 -60.708740 0.000000 229.000000 0.887035 -0.461471 -0.014629
2.38000011 -3.11999989 -0.13000000 26 97 194 0.000000 0.000000 0.000000 0.000000 -60.708740 0.000000 229.000000 0.992115 0.109983 0.060094
2.38000011 -3.11999989 -0.12000000 26 97 194 0.000000 0.000000 0.000000 0.000000 -60.708740 0.000000 229.000000 0.947478 0.079719 -0.309727
2.39000010 -3.13000011 -0.14000000 26 97 194 0.000000 0.000000 0.000000 0.000000 -60.708740 0.000000 229.000000 0.988632 0.044781 0.143530
2.39000010 -3.13000011 -0.14000000 26 97 194 0.000000 0.000000 0.000000 0.000000 -60.708740 0.000000 229.000000 0.988632 0.044781 0.143530
2.38000011 -3.14000010 -0.17000000 26 97 194 0.000000 0.000000 0.000000 0.000000 -60.708740 0.000000 229.000000 0.986747 0.100931 0.127054
2.35999990 -3.21000004 -0.08000000 26 97 194 0.000000 0.000000 0.000000 0.000000 -60.708740 0.000000 229.000000 0.911551 0.094867 -0.400093
2.40000010 -3.18000007 -0.05000000 26 97 194 0.000000 0.000000 0.000000 0.000000 -60.708740 0.000000 229.000000 0.990368 -0.025855 -0.136021
2.38000011 -3.19000006 -0.17000000 26 97 194 0.000000 0.000000 0.000000 0.000000 -60.708740 0.000000 229.000000 0.835166 -0.162269 -0.525515
2.38000011 -3.15000010 -0.12000000 26 97 194 0.000000 0.000000 0.000000 0.000000 -60.708740 0.000000 229.000000 0.990783 -0.058281 -0.122277
2.33999991 -3.21000004 -0.17000000 26 97 194 0.000000 0.000000 0.000000 0.000000 -60.708740 0.000000 229.000000 0.940391 -0.297038 0.165629
2.33999991 -3.20000005 -0.12000000 26 97 194 0.000000 0.000000 0.000000 0.000000 -60.708740 0.000000 229.000000 0.981518 -0.078281 -0.174626
2.36999989 -3.14000010 -0.23000000 26 97 194 0.000000 0.000000 0.000000 0.000000 -60.708740 0.000000 229.000000 0.991873 -0.027956 0.124124
2.35999990 -3.17000008 -0.19000000 26 97 194 0.000000 0.000000 0.000000 0.000000 -60.708740 0.000000 229.000000 0.973785 -0.222475 -0.047413
2.28999996 -3.25999999 -0.10000000 26 97 194 0.000000 0.000000 0.000000 0.000000 -60.708740 0.000000 229.000000 0.984064 -0.136107 0.114426
2.28999996 -3.26999998 -0.11000000 26 97 194 0.000000 0.000000 0.000000 0.000000 -60.708740 0.000000 229.000000 0.985554 -0.118554 0.120949
2.31999993 -3.23000002 -0.27000001 26 97 194 0.000000 0.000000 0.000000 0.000000 -60.708740 0.000000 229.000000 0.999685 0.025067 0.001003
2.29999995 -3.24000001 -0.31000000 26 97 194 0.000000 0.000000 0.000000 0.000000 -60.708740 0.000000 229.000000 0.910442 -0.341234 -0.233782
2.27999997 -3.24000001 -0.30000001 26 97 194 0.000000 0.000000 0.000000 0.000000 -60.708740 0.000000 229.000000 0.810430 -0.531506 -0.246383
2.27999997 -3.27999997 -0.38999999 26 97 194 0.000000 0.000000 0.000000 0.000000 -60.708740 0.000000 229.000000 0.810759 -0.561063 0.166965
2.26999998 -3.29999995 -0.40000001 26 97 194 0.000000 0.000000 0.000000 0.000000 -60.708740 0.000000 229.000000 0.851545 -0.520467 -0.063129
2.30999994 -3.24000001 -0.44999999 26 97 194 0.000000 0.000000 0.000000 0.000000 -60.708740 0.000000 229.000000 0.967252 -0.251314 0.035552
2.33999991 -3.23000002 -0.66000003 26 97 194 0.000000 0.000000 0.000000 0.000000 -60.708740 0.000000 229.000000 0.940337 -0.284992 0.185865
2.30999994 -3.26999998 -0.72000003 26 97 194 0.000000 0.000000 0.000000 0.000000 -60.708740 0.000000 229.000000 0.876610 -0.410488 0.251105
2.27999997 -3.27999997 -0.75999999 26 97 194 0.000000 0.000000 0.000000 0.000000 -60.708740 0.000000 229.000000 0.802346 -0.551903 0.227254
2.34999990 -3.25999999 -0.85000002 26 97 194 0.000000 0.000000 0.000000 0.000000 -60.708740 0.000000 229.000000 0.971135 -0.141279 0.192191
2.36999989 -3.25000000 -0.93000001 26 97 194 0.000000 0.000000 0.000000 0.000000 -60.708740 0.000000 229.000000 0.843859 -0.279230 -0.458183
2.32999992 -3.27999997 -0.88000000 26 97 194 0.000000 0.000000 0.000000 0.000000 -60.708740 0.000000 229.000000 0.943180 -0.225093 0.244426
2.25000000 -3.27999997 -0.04000000 26 97 194 0.000000 0.000000 0.000000 0.000000 -60.708740 0.000000 229.000000 0.773368 -0.622539 0.119776
2.25999999 -3.26999998 -0.10000000 26 97 194 0.000000 0.000000 0.000000 0.000000 -60.708740 0.000000 229.000000 0.959274 -0.274984 0.064627
2.25999999 -3.25000000 -0.13000000 26 97 194 0.000000 0.000000 0.000000 0.000000 -60.708740 0.000000 229.000000 0.938965 -0.329907 0.097503
2.15000010 -3.27999997 -0.18000001 26 97 194 0.000000 0.000000 0.000000 0.000000 -60.708740 0.000000 229.000000 0.920496 -0.386100 -0.060119
2.19000006 -3.29999995 -0.30000001 26 97 194 0.000000 0.000000 0.000000 0.000000 -60.708740 0.000000 229.000000 -0.638749 0.768473 -0.038071
2.16000009 -3.27999997 -0.20000000 26 97 194 0.000000 0.000000 0.000000 0.000000 -60.708740 0.000000 229.000000 0.800887 -0.561999 0.206730
2.17000008 -3.28999996 -0.34000000 26 97 194 0.000000 0.000000 0.000000 0.000000 -60.708740 0.000000 229.000000 -0.640372 0.725754 0.251405
2.16000009 -3.29999995 -0.34999999 26 97 194 0.000000 0.000000 0.000000 0.000000 -60.708740 0.000000 229.000000 0.791436 -0.584842 -0.177731
2.00999999 -3.22000003 -0.08000000 26 97 194 0.000000 0.000000 0.000000 0.000000 -60.708740 0.000000 229.000000 0.862513 -0.425913 -0.273256
1.95000005 -3.17000008 -0.20999999 26 97 194 0.000000 0.000000 0.000000 0.000000 -60.708740 0.000000 229.000000 -0.629553 0.776026 -0.038027
2.24000001 -3.29999995 -0.50000000 26 97 194 0.000000 0.000000 0.000000 0.000000 -60.708740 0.000000 229.000000 -0.616465 0.646536 0.449401
2.22000003 -3.27999997 -0.44999999 26 97 194 0.000000 0.000000 0.000000 0.000000 -60.708740 0.000000 229.000000 0.784306 -0.619922 -0.023682
2.23000002 -3.27999997 -0.44999999 26 97 194 0.000000 0.000000 0.000000 0.000000 -60.708740 0.000000 229.000000 -0.661664 0.608331 0.438332
2.10999990 -3.27999997 -0.36000001 26 97 194 0.000000 0.000000 0.000000 0.000000 -60.708740 0.000000 229.000000 -0.645634 0.763276 -0.023809
2.14000010 -3.25000000 -0.46000001 26 97 194 0.000000 0.000000 0.000000 0.000000 -60.708740 0.000000 229.000000 0.940595 -0.337485 0.037213
2.14000010 -3.27999997 -0.51999998 26 97 194 0.000000 0.000000 0.000000 0.000000 -60.708740 0.000000 229.000000 0.878740 -0.317196 -0.356656
2.18000007 -3.28999996 -0.52999997 26 97 194 0.000000 0.000000 0.000000 0.000000 -60.708740 0.000000 229.000000 -0.618912 0.777683 0.110258
2.18000007 -3.29999995 -0.56000000 26 97 194 0.000000 0.000000 0.000000 0.000000 -60.708740 0.000000 229.000000 -0.674019 0.730311 -0.111102
1.95000005 -3.08999991 -0.50000000 26 97 194 0.000000 0.000000 0.000000 0.000000 -60.708740 0.000000 229.000000 0.935427 -0.296056 -0.193201
2.00000000 -3.22000003 -0.44000000 26 97 194 0.000000 0.000000 0.000000 0.000000 -60.708740 0.000000 229.000000 0.904052 -0.415225 -0.101376
2.04999995 -3.24000001 -0.55000001 26 97 194 0.000000 0.000000 0.000000 0.000000 -60.708740 0.000000 229.000000 0.886816 -0.273672 -0.372373
1.92999995 -3.08999991 -0.50999999 26 97 194 0.000000 0.000000 0.000000 0.000000 -60.708740 0.000000 229.000000 0.970713 -0.239370 -0.020449
1.91999996 -3.11999989 -0.63000000 26 97 194 0.000000 0.000000 0.000000 0.000000 -60.708740 0.000000 229.000000 0.975390 -0.146873 -0.164448
1.91999996 -3.11999989 -0.63999999 26 97 194 0.000000 0.000000 0.000000 0.000000 -60.708740 0.000000 229.000000 0.909982 -0.181425 -0.372850
2.24000001 -3.32999992 -0.77999997 26 97 194 0.000000 0.000000 0.000000 0.000000 -60.708740 0.000000 229.000000 0.756342 -0.648501 -0.085981
2.10999990 -3.28999996 -0.80000001 26 97 194 0.000000 0.000000 0.000000 0.000000 -60.708740 0.000000 229.000000 -0.617444 0.723844 0.307916
2.16000009 -3.31999993 -0.70999998 26 97 194 0.000000 0.000000 0.000000 0.000000 -60.708740 0.000000 229.000000 -0.726130 0.671783 -0.146434
2.11999989 -3.32999992 -0.93000001 26 97 194 0.000000 0.000000 0.000000 0.000000 -60.708740 0.000000 229.000000 0.873926 -0.293335 -0.387567
2.02999997 -3.24000001 -0.72000003 26 97 194 0.000000 0.000000 0.000000 0.000000 -60.708740 0.000000 229.000000 0.768702 -0.439025 -0.465138
2.04999995 -3.28999996 -0.73000002 26 97 194 0.000000 0.000000 0.000000 0.000000 -60.708740 0.000000 229.000000 -0.513937 0.832305 0.207697
1.99000001 -3.25000000 -0.75000000 26 97 194 0.000000 0.000000 0.000000 0.000000 -60.708740 0.000000 229.000000 -0.386672 0.922064 -0.016812
1.99000001 -3.25999999 -0.89999998 26 97 194 0.000000 0.000000 0.000000 0.000000 -60.708740 0.000000 229.000000 0.825338 -0.470050 -0.312842
1.96000004 -3.27999997 -1.00999999 26 97 194 0.000000 0.000000 0.000000 0.000000 -60.708740 0.000000 229.000000 -0.390243 0.914244 0.108937
1.97000003 -3.26999998 -1.00999999 26 97 194 0.000000 0.000000 0.000000 0.000000 -60.708740 0.000000 229.000000 0.897706 -0.440259 -0.017187
1.97000003 -3.28999996 -1.13999999 26 97 194 0.000000 0.000000 0.000000 0.000000 -60.708740 0.000000 229.000000 0.875454 -0.435498 -0.209574
1.90999997 -3.13000011 -0.75000000 26 97 194 0.000000 0.000000 0.000000 0.000000 -60.708740 0.000000 229.000000 0.957487 -0.245000 -0.152297
1.88000000 -3.07999992 -0.85000002 26 97 194 0.000000 0.000000 0.000000 0.000000 -60.708740 0.000000 229.000000 0.843519 -0.529519 -0.089918
1.88000000 -3.05999994 -0.94000000 26 97 194 0.000000 0.000000 0.000000 0.000000 -60.708740 0.000000 229.000000 0.956831 0.206846 -0.204177
2.28999996 -3.20000005 0.75000000 26 97 194 0.000000 0.000000 0.000000 0.000000 -60.708740 0.000000 229.000000 0.947621 0.052717 -0.315016
2.30999994 -3.22000003 0.73000002 26 97 194 0.000000 0.000000 0.000000 0.000000 -60.708740 0.000000 229.000000 0.818462 -0.569924 -0.072847
2.30999994 -3.22000003 0.74000001 26 97 194 0.000000 0.000000 0.000000 0.000000 -60.708740 0.000000 229.000000 0.982880 -0.182618 0.024427
2.30999994 -3.27999997 0.83999997 26 97 194 0.000000 0.000000 0.000000 0.000000 -60.708740 0.000000 229.000000 0.782318 -0.327966 -0.529544
2.31999993 -3.23000002 0.81000000 26 97 194 0.000000 0.000000 0.000000 0.000000 -60.708740 0.000000 229.000000 0.904858 -0.423693 -0.041434
2.33999991 -3.18000007 0.06000000 26 97 194 0.000000 0.000000 0.000000 0.000000 -60.708740 0.000000 229.000000 0.967324 -0.244021 0.068826
2.33999991 -3.21000004 0.05000000 26 97 194 0.000000 0.000000 0.000000 0.000000 -60.708740 0.000000 229.000000 0.940911 0.018996 -0.338120
2.28999996 -3.25000000 0.23999999 26 97 194 0.000000 0.000000 0.000000 0.000000 -60.708740 0.000000 229.000000 0.863335 -0.504616 -0.004016
2.29999995 -3.24000001 0.06000000 26 97 194 0.000000 0.000000 0.000000 0.000000 -60.708740 0.000000 229.000000 0.932944 -0.349352 0.087003
2.25999999 -3.25999999 0.94999999 26 97 194 0.000000 0.000000 0.000000 0.000000 -60.708740 0.000000 229.000000 0.929482 -0.363595 -0.062142
2.22000003 -3.27999997 0.72000003 26 97 194 0.000000 0.000000 0.000000 0.000000 -60.708740 0.000000 229.000000 0.756345 -0.648918 0.082748
2.23000002 -3.26999998 0.69999999 26 97 194 0.000000 0.000000 0.000000 0.000000 -60.708740 0.000000 229.000000 0.828927 -0.532132 0.172381
2.22000003 -3.27999997 0.70999998 26 97 194 0.000000 0.000000 0.000000 0.000000 -60.708740 0.000000 229.000000 0.910647 -0.343121 0.230195
2.16000009 -3.25000000 0.75999999 26 97 194 0.000000 0.000000 0.000000 0.000000 -60.708740 0.000000 229.000000 0.805639 -0.549930 -0.220280
2.17000008 -3.29999995 0.75999999 26 97 194 0.000000 0.000000 0.000000 0.000000 -60.708740 0.000000 229.000000 0.846489 -0.527112 -0.074898
2.19000006 -3.29999995 0.50000000 26 97 194 0.000000 0.000000 0.000000 0.000000 -60.708740 0.000000 229.000000 0.847228 -0.492084 -0.200144
2.13000011 -3.25999999 0.64999998 26 97 194 0.000000 0.000000 0.000000 0.000000 -60.708740 0.000000 229.000000 0.812300 -0.514926 -0.273897
2.21000004 -3.27999997 0.31999999 26 97 194 0.000000 0.000000 0.000000 0.000000 -60.708740 0.000000 229.000000 0.766011 -0.554033 -0.325996
2.13000011 -3.27999997 0.28999999 26 97 194 0.000000 0.000000 0.000000 0.000000 -60.708740 0.000000 229.000000 -0.646919 0.761989 -0.029469
2.25000000 -3.25999999 0.09000000 26 97 194 0.000000 0.000000 0.000000 0.000000 -60.708740 0.000000 229.000000 0.992806 -0.116475 -0.027732
2.25000000 -3.25999999 0.11000000 26 97 194 0.000000 0.000000 0.000000 0.000000 -60.708740 0.000000 229.000000 0.943123 -0.247173 0.222317
2.13000011 -3.26999998 0.01000000 26 97 194 0.000000 0.000000 0.000000 0.000000 -60.708740 0.000000 229.000000 0.847723 -0.391857 -0.357511
2.10999990 -3.24000001 -0.01000000 26 97 194 0.000000 0.000000 0.000000 0.000000 -60.708740 0.000000 229.000000 0.911935 -0.400595 -0.088869
2.02999997 -3.21000004 -0.01000000 26 97 194 0.000000 0.000000 0.000000 0.000000 -60.708740 0.000000 229.000000 0.739762 -0.671607 0.041177
2.39000010 -3.16000009 -0.04000000 26 97 194 0.000000 0.000000 0.000000 0.000000 -60.708740 0.000000 229.000000 0.961961 -0.069524 0.264192
2.38000011 -3.18000007 -0.15000001 26 97 194 0.000000 0.000000 0.000000 0.000000 -60.708740 0.000000 229.000000 0.970389 0.180746 -0.160236
2.33999991 -3.20000005 -0.14000000 26 97 194 0.000000 0.000000 0.000000 0.000000 -60.708740 0.000000 229.000000 0.969044 -0.228084 -0.094510
2.31999993 -3.22000003 -0.20999999 26 97 194 0.000000 0.000000 0.000000 0.000000 -60.708740 0.000000 229.000000 0.758691 -0.417854 -0.499786
2.30999994 -3.23000002 -0.13000000 26 97 194 0.000000 0.000000 0.000000 0.000000 -60.708740 0.000000 229.000000 0.962956 -0.128308 0.237175
2.28999996 -3.25000000 -0.43000001 26 97 194 0.000000 0.000000 0.000000 0.000000 -60.708740 0.000000 229.000000 0.794993 -0.427329 -0.430554
2.28999996 -3.28999996 -0.57999998 26 97 194 0.000000 0.000000 0.000000 0.000000 -60.708740 0.000000 229.000000 0.764898 -0.378389 -0.521300
2.30999994 -3.26999998 -0.70999998 26 97 194 0.000000 0.000000 0.000000 0.000000 -60.708740 0.000000 229.000000 0.873208 -0.480755 -0.079892
2.18000007 -3.27999997 -0.34000000 26 97 194 0.000000 0.000000 0.000000 0.000000 -60.708740 0.000000 229.000000 -0.600124 0.799704 -0.018018
2.03999996 -3.24000001 -0.10000000 26 97 194 0.000000 0.000000 0.000000 0.000000 -60.708740 0.000000 229.000000 0.948007 -0.314292 -0.050030
2.25000000 -3.28999996 -0.41999999 26 97 194 0.000000 0.000000 0.000000 0.000000 -60.708740 0.000000 229.000000 0.916445 -0.365731 0.162390
2.19000006 -3.28999996 -0.38000000 26 97 194 0.000000 0.000000 0.000000 0.000000 -60.708740 0.000000 229.000000 0.911545 -0.307737 -0.272734
2.25999999 -3.26999998 -0.46000001 26 97 194 0.000000 0.000000 0.000000 0.000000 -60.708740 0.000000 229.000000 0.668063 -0.601424 -0.438156
1.92999995 -3.09999990 -0.46000001 26 97 194 0.000000 0.000000 0.000000 0.000000 -60.708740 0.000000 229.000000 0.984877 -0.067393 0.159614
2.25000000 -3.26999998 -0.76999998 26 97 194 0.000000 0.000000 0.000000 0.000000 -60.708740 0.000000 229.000000 0.883882 -0.201484 -0.422087
2.20000005 -3.31999993 -0.80000001 26 97 194 0.000000 0.000000 0.000000 0.000000 -60.708740 0.000000 229.000000 0.706655 -0.697729 0.117528
2.25000000 -3.34999990 -0.80000001 26 97 194 0.000000 0.000000 0.000000 0.000000 -60.708740 0.000000 229.000000 0.727955 -0.629196 -0.272386
2.16000009 -3.30999994 -0.69999999 26 97 194 0.000000 0.000000 0.000000 0.000000 -60.708740 0.000000 229.000000 0.943908 -0.327478 0.042380
2.20000005 -3.34999990 -0.92000002 26 97 194 0.000000 0.000000 0.000000 0.000000 -60.708740 0.000000 229.000000 0.780674 -0.617243 -0.097767
2.17000008 -3.30999994 -0.88999999 26 97 194 0.000000 0.000000 0.000000 0.000000 -60.708740 0.000000 229.000000 -0.759230 0.490302 0.427989
2.08999991 -3.28999996 -0.75000000 26 97 194 0.000000 0.000000 0.000000 0.000000 -60.708740 0.000000 229.000000 0.935357 -0.328124 -0.132066
1.94000006 -3.23000002 -0.77999997 26 97 194 0.000000 0.000000 0.000000 0.000000 -60.708740 0.000000 229.000000 -0.652331 0.615627 0.442117
1.95000005 -3.25999999 -0.97000003 26 97 194 0.000000 0.000000 0.000000 0.000000 -60.708740 0.000000 229.000000 0.875202 -0.450062 -0.177386
1.96000004 -3.26999998 -1.10000002 26 97 194 0.000000 0.000000 0.000000 0.000000 -60.708740 0.000000 229.000000 -0.503023 0.804520 0.315778
1.94000006 -3.25000000 -1.13000000 26 97 194 0.000000 0.000000 0.000000 0.000000 -60.708740 0.000000 229.000000 0.721620 -0.625189 -0.297327
2.00999999 -3.32999992 -1.10000002 26 97 194 0.000000 0.000000 0.000000 0.000000 -60.708740 0.000000 229.000000 0.832607 -0.550845 -0.057761
2.00999999 -3.31999993 -1.13999999 26 97 194 0.000000 0.000000 0.000000 0.000000 -60.708740 0.000000 229.000000 -0.426411 0.832367 0.354031
1.90999997 -3.13000011 -0.75000000 26 97 194 0.000000 0.000000 0.000000 0.000000 -60.708740 0.000000 229.000000 0.957487 -0.245000 -0.152297
