//X Y Z R G B PointSourceId ScanDirectionFlag NumberOfReturns ReturnNumber GpsTime Intensity Classification Nx Ny Nz
-6.03000021 19.20000076 -0.34999999 144 209 79 0.000000 0.000000 0.000000 0.000000 -60.708740 0.000000 134.000000 0.884304 -0.445735 -0.139023
-6.01999998 19.18000031 -0.23999999 144 209 79 0.000000 0.000000 0.000000 0.000000 -60.708740 0.000000 134.000000 -0.298133 0.888407 -0.349070
-6.05000019 19.19000053 -0.34000000 144 209 79 0.000000 0.000000 0.000000 0.000000 -60.708740 0.000000 134.000000 0.896533 -0.390497 0.209142
-6.11999989 19.12999916 -0.19000000 144 209 79 0.000000 0.000000 0.000000 0.000000 -60.708740 0.000000 134.000000 -0.201711 0.765269 -0.611291
-6.09000015 19.11000061 -0.27000001 144 209 79 0.000000 0.000000 0.000000 0.000000 -60.708740 0.000000 134.000000 -0.397637 0.825373 -0.400805
-6.03999996 19.15999985 -0.31999999 144 209 79 0.000000 0.000000 0.000000 0.000000 -60.708740 0.000000 134.000000 0.700361 -0.711819 -0.052993
-6.05999994 19.12000084 -0.30000001 144 209 79 0.000000 0.000000 0.000000 0.000000 -60.708740 0.000000 134.000000 -0.576068 0.682932 -0.449166
-6.07999992 19.11000061 -0.31999999 144 209 79 0.000000 0.000000 0.000000 0.000000 -60.708740 0.000000 134.000000 -0.527958 0.738484 -0.419406
-6.09000015 19.10000038 -0.33000001 144 209 79 0.000000 0.000000 0.000000 0.000000 -60.708740 0.000000 134.000000 0.666600 -0.695237 0.268867
-6.01999998 19.27000046 -0.41000000 144 209 79 0.000000 0.000000 0.000000 0.000000 -60.708740 0.000000 134.000000 0.902233 -0.345880 0.257571
-6.03999996 19.27000046 -0.37000000 144 209 79 0.000000 0.000000 0.000000 0.000000 -60.708740 0.000000 134.000000 0.934752 -0.152809 0.320762
-6.07000017 19.27000046 -0.41999999 144 209 79 0.000000 0.000000 0.000000 0.000000 -60.708740 0.000000 134.000000 0.993590 -0.093184 -0.063994
-6.07999992 19.29000092 -0.47000000 144 209 79 0.000000 0.000000 0.000000 0.000000 -60.708740 0.000000 134.000000 0.952074 -0.206620 -0.225527
-6.09999990 19.30999947 -0.47000000 144 209 79 0.000000 0.000000 0.000000 0.000000 -60.708740 0.000000 134.000000 0.932248 -0.185335 0.310749
-6.07000017 19.27000046 -0.56999999 144 209 79 0.000000 0.000000 0.000000 0.000000 -60.708740 0.000000 134.000000 0.864871 -0.494010 -0.089177
-6.03000021 19.20999908 -0.37000000 144 209 79 0.000000 0.000000 0.000000 0.000000 -60.708740 0.000000 134.000000 0.820556 -0.566540 -0.075634
-6.01999998 19.26000023 -0.43000001 144 209 79 0.000000 0.000000 0.000000 0.000000 -60.708740 0.000000 134.000000 0.927899 -0.282775 -0.242987
-6.03999996 19.26000023 -0.38999999 144 209 79 0.000000 0.000000 0.000000 0.000000 -60.708740 0.000000 134.000000 0.967204 -0.145920 -0.207904
-6.03999996 19.20000076 -0.36000001 144 209 79 0.000000 0.000000 0.000000 0.000000 -60.708740 0.000000 134.000000 0.876119 -0.460432 -0.142893
-6.03999996 19.20000076 -0.37000000 144 209 79 0.000000 0.000000 0.000000 0.000000 -60.708740 0.000000 134.000000 0.838138 -0.535196 -0.105308
-6.03999996 19.20000076 -0.38999999 144 209 79 0.000000 0.000000 0.000000 0.000000 -60.708740 0.000000 134.000000 0.941790 -0.289254 0.171359
-6.05000019 19.22999954 -0.50000000 144 209 79 0.000000 0.000000 0.000000 0.000000 -60.708740 0.000000 134.000000 0.938621 -0.226659 -0.260033
-6.05999994 19.21999931 -0.50000000 144 209 79 0.000000 0.000000 0.000000 0.000000 -60.708740 0.000000 134.000000 0.956218 -0.230719 -0.180041
-6.05999994 19.19000053 -0.51999998 144 209 79 0.000000 0.000000 0.000000 0.000000 -60.708740 0.000000 134.000000 0.910504 -0.299604 0.284989
-6.05000019 19.14999962 -0.38000000 144 209 79 0.000000 0.000000 0.000000 0.000000 -60.708740 0.000000 134.000000 -0.586544 0.752758 -0.298866
-6.05999994 19.14999962 -0.37000000 144 209 79 0.000000 0.000000 0.000000 0.000000 -60.708740 0.000000 134.000000 0.747974 -0.645222 0.155639
-6.07000017 19.10000038 -0.37000000 144 209 79 0.000000 0.000000 0.000000 0.000000 -60.708740 0.000000 134.000000 -0.361997 0.892331 -0.269636
-6.05000019 19.17000008 -0.47000000 144 209 79 0.000000 0.000000 0.000000 0.000000 -60.708740 0.000000 134.000000 -0.757585 0.647074 0.085792
-6.09999990 19.10000038 -0.44000000 144 209 79 0.000000 0.000000 0.000000 0.000000 -60.708740 0.000000 134.000000 -0.442341 0.822849 -0.356726
-6.07999992 19.20999908 -0.58999997 144 209 79 0.000000 0.000000 0.000000 0.000000 -60.708740 0.000000 134.000000 0.877037 -0.479735 -0.025676
-6.07999992 19.20999908 -0.60000002 144 209 79 0.000000 0.000000 0.000000 0.000000 -60.708740 0.000000 134.000000 0.740252 -0.637827 0.212609
-6.09999990 19.25000000 -0.60000002 144 209 79 0.000000 0.000000 0.000000 0.000000 -60.708740 0.000000 134.000000 0.997187 -0.057136 -0.048512
-6.11000013 19.22999954 -0.64999998 144 209 79 0.000000 0.000000 0.000000 0.000000 -60.708740 0.000000 134.000000 0.990321 -0.075112 -0.116712
-6.11000013 19.22999954 -0.66000003 144 209 79 0.000000 0.000000 0.000000 0.000000 -60.708740 0.000000 134.000000 0.999260 -0.031837 0.021567
-6.05000019 19.18000031 -0.54000002 144 209 79 0.000000 0.000000 0.000000 0.000000 -60.708740 0.000000 134.000000 0.953368 -0.192287 0.232627
-6.07999992 19.13999939 -0.56000000 144 209 79 0.000000 0.000000 0.000000 0.000000 -60.708740 0.000000 134.000000 0.820576 -0.564775 0.087662
-6.05000019 19.17000008 -0.55000001 144 209 79 0.000000 0.000000 0.000000 0.000000 -60.708740 0.000000 134.000000 0.937837 -0.276488 0.209798
-6.05999994 19.12999916 -0.56000000 144 209 79 0.000000 0.000000 0.000000 0.000000 -60.708740 0.000000 134.000000 -0.597590 0.758419 -0.260165
-6.15000010 19.44000053 -0.03000000 144 209 79 0.000000 0.000000 0.000000 0.000000 -60.708740 0.000000 134.000000 -0.195998 0.818938 -0.539375
-6.13999987 19.39999962 -0.05000000 144 209 79 0.000000 0.000000 0.000000 0.000000 -60.708740 0.000000 134.000000 -0.528459 0.809056 -0.257214
-6.15000010 19.43000031 -0.03000000 144 209 79 0.000000 0.000000 0.000000 0.000000 -60.708740 0.000000 134.000000 -0.233861 0.797605 -0.556000
-6.23000002 19.30999947 -0.04000000 144 209 79 0.000000 0.000000 0.000000 0.000000 -60.708740 0.000000 134.000000 0.660652 0.566513 -0.492547
-6.25000000 19.32999992 -0.03000000 144 209 79 0.000000 0.000000 0.000000 0.000000 -60.708740 0.000000 134.000000 0.856608 0.481191 -0.186219
-6.25000000 19.31999969 -0.17000000 144 209 79 0.000000 0.000000 0.000000 0.000000 -60.708740 0.000000 134.000000 0.828539 0.427684 -0.361401
-6.17999983 19.38999939 -0.20999999 144 209 79 0.000000 0.000000 0.000000 0.000000 -60.708740 0.000000 134.000000 0.778475 0.589660 -0.215125
-6.26000023 19.30999947 -0.28999999 144 209 79 0.000000 0.000000 0.000000 0.000000 -60.708740 0.000000 134.000000 0.866594 0.360442 -0.345104
-6.19000006 19.18000031 -0.13000000 144 209 79 0.000000 0.000000 0.000000 0.000000 -60.708740 0.000000 134.000000 -0.316616 0.857181 -0.406196
-6.23000002 19.25000000 -0.08000000 144 209 79 0.000000 0.000000 0.000000 0.000000 -60.708740 0.000000 134.000000 0.383924 0.922209 0.046176
-6.23000002 19.21999931 -0.09000000 144 209 79 0.000000 0.000000 0.000000 0.000000 -60.708740 0.000000 134.000000 0.381692 0.857647 -0.344604
-6.23000002 19.21999931 -0.08000000 144 209 79 0.000000 0.000000 0.000000 0.000000 -60.708740 0.000000 134.000000 0.511522 0.704801 -0.491528
-6.26999998 19.26000023 -0.04000000 144 209 79 0.000000 0.000000 0.000000 0.000000 -60.708740 0.000000 134.000000 0.554544 0.822255 -0.127972
-6.23999977 19.23999977 -0.11000000 144 209 79 0.000000 0.000000 0.000000 0.000000 -60.708740 0.000000 134.000000 0.618575 0.638691 -0.457645
-6.25000000 19.19000053 -0.18000001 144 209 79 0.000000 0.000000 0.000000 0.000000 -60.708740 0.000000 134.000000 0.497488 0.802657 -0.329010
-6.21000004 19.15999985 -0.18000001 144 209 79 0.000000 0.000000 0.000000 0.000000 -60.708740 0.000000 134.000000 -0.129376 0.979561 -0.154019
-6.15999985 19.12999916 -0.25000000 144 209 79 0.000000 0.000000 0.000000 0.000000 -60.708740 0.000000 134.000000 0.046865 0.909183 -0.413752
-6.17999983 19.11000061 -0.25999999 144 209 79 0.000000 0.000000 0.000000 0.000000 -60.708740 0.000000 134.000000 0.164251 0.791119 -0.589196
-6.15999985 19.10000038 -0.31999999 144 209 79 0.000000 0.000000 0.000000 0.000000 -60.708740 0.000000 134.000000 0.043633 0.798054 -0.601004
-6.26000023 19.26000023 -0.19000000 144 209 79 0.000000 0.000000 0.000000 0.000000 -60.708740 0.000000 134.000000 0.501177 0.855632 -0.129289
-6.26000023 19.26000023 -0.19000000 144 209 79 0.000000 0.000000 0.000000 0.000000 -60.708740 0.000000 134.000000 0.501177 0.855632 -0.129289
-6.26999998 19.26000023 -0.23000000 144 209 79 0.000000 0.000000 0.000000 0.000000 -60.708740 0.000000 134.000000 0.726400 0.672258 -0.142874
-6.28000021 19.21999931 -0.23000000 144 209 79 0.000000 0.000000 0.000000 0.000000 -60.708740 0.000000 134.000000 0.609322 0.541807 -0.578940
-6.26000023 19.19000053 -0.25999999 144 209 79 0.000000 0.000000 0.000000 0.000000 -60.708740 0.000000 134.000000 0.338777 0.869171 -0.360238
-6.26000023 19.19000053 -0.25999999 144 209 79 0.000000 0.000000 0.000000 0.000000 -60.708740 0.000000 134.000000 0.338777 0.869171 -0.360238
-6.26000023 19.20000076 -0.28000000 144 209 79 0.000000 0.000000 0.000000 0.000000 -60.708740 0.000000 134.000000 0.736750 0.618998 -0.272104
-6.28999996 19.20000076 -0.34000000 144 209 79 0.000000 0.000000 0.000000 0.000000 -60.708740 0.000000 134.000000 0.672241 0.544834 -0.501247
-6.26000023 19.20000076 -0.28000000 144 209 79 0.000000 0.000000 0.000000 0.000000 -60.708740 0.000000 134.000000 0.736750 0.618998 -0.272104
-6.28999996 19.19000053 -0.28999999 144 209 79 0.000000 0.000000 0.000000 0.000000 -60.708740 0.000000 134.000000 0.595257 0.753992 -0.277787
-6.21000004 19.18000031 -0.22000000 144 209 79 0.000000 0.000000 0.000000 0.000000 -60.708740 0.000000 134.000000 0.255094 0.853879 -0.453671
-6.23000002 19.17000008 -0.23000000 144 209 79 0.000000 0.000000 0.000000 0.000000 -60.708740 0.000000 134.000000 0.510777 0.804909 -0.302039
-6.23000002 19.15999985 -0.25000000 144 209 79 0.000000 0.000000 0.000000 0.000000 -60.708740 0.000000 134.000000 0.522262 0.736439 -0.430001
-6.23000002 19.15999985 -0.25000000 144 209 79 0.000000 0.000000 0.000000 0.000000 -60.708740 0.000000 134.000000 0.522262 0.736439 -0.430001
-6.21999979 19.12000084 -0.28999999 144 209 79 0.000000 0.000000 0.000000 0.000000 -60.708740 0.000000 134.000000 0.155481 0.756274 -0.635512
-6.30000019 19.20999908 -0.33000001 144 209 79 0.000000 0.000000 0.000000 0.000000 -60.708740 0.000000 134.000000 0.634012 0.750683 -0.185752
-6.30000019 19.20000076 -0.25999999 144 209 79 0.000000 0.000000 0.000000 0.000000 -60.708740 0.000000 134.000000 0.640856 0.767650 0.004135
-6.17999983 19.31999969 -0.41000000 144 209 79 0.000000 0.000000 0.000000 0.000000 -60.708740 0.000000 134.000000 0.877048 -0.471607 -0.091506
-6.21000004 19.32999992 -0.38999999 144 209 79 0.000000 0.000000 0.000000 0.000000 -60.708740 0.000000 134.000000 0.774919 0.232320 -0.587816
-6.23000002 19.29000092 -0.40000001 144 209 79 0.000000 0.000000 0.000000 0.000000 -60.708740 0.000000 134.000000 0.530574 0.812103 -0.242857
-6.25000000 19.29000092 -0.43000001 144 209 79 0.000000 0.000000 0.000000 0.000000 -60.708740 0.000000 134.000000 0.685586 0.413344 -0.599265
-6.30999994 19.23999977 -0.37000000 144 209 79 0.000000 0.000000 0.000000 0.000000 -60.708740 0.000000 134.000000 0.475798 0.763566 -0.436557
-6.30000019 19.23999977 -0.37000000 144 209 79 0.000000 0.000000 0.000000 0.000000 -60.708740 0.000000 134.000000 0.599653 0.565870 -0.565870
-6.32999992 19.20000076 -0.41000000 144 209 79 0.000000 0.000000 0.000000 0.000000 -60.708740 0.000000 134.000000 0.724736 0.653042 -0.219759
-6.30999994 19.20999908 -0.47000000 144 209 79 0.000000 0.000000 0.000000 0.000000 -60.708740 0.000000 134.000000 0.837054 0.365917 -0.406749
-6.32000017 19.21999931 -0.46000001 144 209 79 0.000000 0.000000 0.000000 0.000000 -60.708740 0.000000 134.000000 0.808654 0.586450 -0.046410
-6.30000019 19.13999939 -0.38000000 144 209 79 0.000000 0.000000 0.000000 0.000000 -60.708740 0.000000 134.000000 0.083895 0.848900 -0.521853
-6.30999994 19.15999985 -0.41000000 144 209 79 0.000000 0.000000 0.000000 0.000000 -60.708740 0.000000 134.000000 0.737721 0.457156 -0.496765
-6.32999992 19.12999916 -0.43000001 144 209 79 0.000000 0.000000 0.000000 0.000000 -60.708740 0.000000 134.000000 0.495076 0.545423 -0.676324
-6.32000017 19.11000061 -0.49000001 144 209 79 0.000000 0.000000 0.000000 0.000000 -60.708740 0.000000 134.000000 0.445389 0.598857 -0.665582
-6.34000015 19.15999985 -0.50000000 144 209 79 0.000000 0.000000 0.000000 0.000000 -60.708740 0.000000 134.000000 0.450433 0.624579 -0.637974
-6.34000015 19.10000038 -0.63000000 144 209 79 0.000000 0.000000 0.000000 0.000000 -60.708740 0.000000 134.000000 0.701424 0.712579 -0.015339
-5.98999977 19.12000084 -0.80000001 144 209 79 0.000000 0.000000 0.000000 0.000000 -60.708740 0.000000 134.000000 0.934202 -0.337614 0.115250
-6.11999989 19.18000031 -0.74000001 144 209 79 0.000000 0.000000 0.000000 0.000000 -60.708740 0.000000 134.000000 0.935802 -0.338709 -0.097730
-6.11999989 19.18000031 -0.74000001 144 209 79 0.000000 0.000000 0.000000 0.000000 -60.708740 0.000000 134.000000 0.935802 -0.338709 -0.097730
-6.13999987 19.15999985 -0.82999998 144 209 79 0.000000 0.000000 0.000000 0.000000 -60.708740 0.000000 134.000000 0.767988 -0.592805 0.242440
-6.09999990 19.09000015 -0.34999999 144 209 79 0.000000 0.000000 0.000000 0.000000 -60.708740 0.000000 134.000000 -0.371474 0.926702 -0.056845
-6.09999990 19.09000015 -0.34999999 144 209 79 0.000000 0.000000 0.000000 0.000000 -60.708740 0.000000 134.000000 -0.371474 0.926702 -0.056845
-6.11999989 19.07999992 -0.34999999 144 209 79 0.000000 0.000000 0.000000 0.000000 -60.708740 0.000000 134.000000 -0.366909 0.867378 -0.336205
-5.94999981 19.04000092 -0.62000000 144 209 79 0.000000 0.000000 0.000000 0.000000 -60.708740 0.000000 134.000000 -0.636224 0.771473 -0.006900
-5.90999985 18.93000031 -0.56000000 144 209 79 0.000000 0.000000 0.000000 0.000000 -60.708740 0.000000 134.000000 0.792682 -0.543689 0.275784
-5.90000010 18.98999977 -0.63999999 144 209 79 0.000000 0.000000 0.000000 0.000000 -60.708740 0.000000 134.000000 0.666267 -0.636508 0.388518
-5.90999985 18.93000031 -0.66000003 144 209 79 0.000000 0.000000 0.000000 0.000000 -60.708740 0.000000 134.000000 0.865876 -0.355271 0.352195
-5.92000008 19.00000000 -0.63999999 144 209 79 0.000000 0.000000 0.000000 0.000000 -60.708740 0.000000 134.000000 -0.500631 0.863970 0.054085
-5.92000008 19.00000000 -0.67000002 144 209 79 0.000000 0.000000 0.000000 0.000000 -60.708740 0.000000 134.000000 0.747667 -0.583662 0.316753
-5.92999983 18.93000031 -0.61000001 144 209 79 0.000000 0.000000 0.000000 0.000000 -60.708740 0.000000 134.000000 0.467999 -0.711158 0.524625
-5.94999981 18.86000061 -0.41000000 144 209 79 0.000000 0.000000 0.000000 0.000000 -60.708740 0.000000 134.000000 0.515881 -0.696189 0.499186
-5.90999985 18.87000084 -0.49000001 144 209 79 0.000000 0.000000 0.000000 0.000000 -60.708740 0.000000 134.000000 0.787171 -0.511421 0.344688
-6.11000013 19.05999947 -0.43000001 144 209 79 0.000000 0.000000 0.000000 0.000000 -60.708740 0.000000 134.000000 -0.327074 0.941815 -0.077499
-6.07999992 19.09000015 -0.38000000 144 209 79 0.000000 0.000000 0.000000 0.000000 -60.708740 0.000000 134.000000 -0.178082 0.839532 -0.513297
-6.11999989 19.09000015 -0.43000001 144 209 79 0.000000 0.000000 0.000000 0.000000 -60.708740 0.000000 134.000000 -0.242065 0.964419 0.106304
-6.11000013 19.09000015 -0.43000001 144 209 79 0.000000 0.000000 0.000000 0.000000 -60.708740 0.000000 134.000000 -0.492567 0.853488 -0.170106
-6.11000013 19.09000015 -0.41000000 144 209 79 0.000000 0.000000 0.000000 0.000000 -60.708740 0.000000 134.000000 -0.268013 0.963135 0.023252
-6.09000015 19.07999992 -0.38000000 144 209 79 0.000000 0.000000 0.000000 0.000000 -60.708740 0.000000 134.000000 -0.149569 0.921179 -0.359246
-6.09000015 19.09000015 -0.37000000 144 209 79 0.000000 0.000000 0.000000 0.000000 -60.708740 0.000000 134.000000 -0.471995 0.862612 -0.181992
-6.09999990 19.07999992 -0.40000001 144 209 79 0.000000 0.000000 0.000000 0.000000 -60.708740 0.000000 134.000000 -0.438839 0.754409 -0.488147
-6.00000000 18.88999939 -0.49000001 144 209 79 0.000000 0.000000 0.000000 0.000000 -60.708740 0.000000 134.000000 -0.492431 0.696081 -0.522478
-6.05000019 18.79000092 -0.44000000 144 209 79 0.000000 0.000000 0.000000 0.000000 -60.708740 0.000000 134.000000 -0.154596 0.796996 -0.583864
-5.96999979 18.87000084 -0.63000000 144 209 79 0.000000 0.000000 0.000000 0.000000 -60.708740 0.000000 134.000000 -0.549323 0.736257 -0.395184
-5.96999979 18.87000084 -0.63000000 144 209 79 0.000000 0.000000 0.000000 0.000000 -60.708740 0.000000 134.000000 -0.549323 0.736257 -0.395184
-6.13000011 19.09000015 -0.25999999 144 209 79 0.000000 0.000000 0.000000 0.000000 -60.708740 0.000000 134.000000 -0.554268 0.731897 -0.396376
-6.17000008 19.09000015 -0.31000000 144 209 79 0.000000 0.000000 0.000000 0.000000 -60.708740 0.000000 134.000000 -0.001262 0.935026 -0.354578
-6.15999985 19.07999992 -0.31999999 144 209 79 0.000000 0.000000 0.000000 0.000000 -60.708740 0.000000 134.000000 0.125288 0.803319 -0.582222
-6.15999985 19.06999969 -0.38999999 144 209 79 0.000000 0.000000 0.000000 0.000000 -60.708740 0.000000 134.000000 0.091885 0.995600 0.018377
-6.13000011 19.05999947 -0.43000001 144 209 79 0.000000 0.000000 0.000000 0.000000 -60.708740 0.000000 134.000000 -0.426248 0.812586 -0.397513
-6.15000010 19.05999947 -0.41000000 144 209 79 0.000000 0.000000 0.000000 0.000000 -60.708740 0.000000 134.000000 0.048985 0.835545 -0.547233
-6.15999985 19.06999969 -0.40000001 144 209 79 0.000000 0.000000 0.000000 0.000000 -60.708740 0.000000 134.000000 -0.114672 0.884816 -0.451610
-6.19999981 19.05999947 -0.38999999 144 209 79 0.000000 0.000000 0.000000 0.000000 -60.708740 0.000000 134.000000 0.151960 0.878472 -0.452985
-6.19999981 19.04000092 -0.41000000 144 209 79 0.000000 0.000000 0.000000 0.000000 -60.708740 0.000000 134.000000 -0.049537 0.909065 -0.413698
-6.13999987 19.05999947 -0.47000000 144 209 79 0.000000 0.000000 0.000000 0.000000 -60.708740 0.000000 134.000000 -0.176235 0.906967 -0.382560
-6.15000010 19.05999947 -0.50999999 144 209 79 0.000000 0.000000 0.000000 0.000000 -60.708740 0.000000 134.000000 -0.268728 0.881247 -0.388830
-6.13000011 19.04999924 -0.49000001 144 209 79 0.000000 0.000000 0.000000 0.000000 -60.708740 0.000000 134.000000 -0.393534 0.865162 -0.310846
-6.17000008 19.03000069 -0.47999999 144 209 79 0.000000 0.000000 0.000000 0.000000 -60.708740 0.000000 134.000000 -0.392581 0.724386 -0.566697
-6.17000008 19.04000092 -0.47000000 144 209 79 0.000000 0.000000 0.000000 0.000000 -60.708740 0.000000 134.000000 -0.267171 0.917045 -0.296054
-6.19000006 19.03000069 -0.50000000 144 209 79 0.000000 0.000000 0.000000 0.000000 -60.708740 0.000000 134.000000 0.063247 0.990095 -0.125343
-6.21000004 19.05999947 -0.38000000 144 209 79 0.000000 0.000000 0.000000 0.000000 -60.708740 0.000000 134.000000 0.239207 0.935846 -0.258791
-6.21000004 19.04999924 -0.36000001 144 209 79 0.000000 0.000000 0.000000 0.000000 -60.708740 0.000000 134.000000 -0.074547 0.856593 -0.510580
-6.21000004 19.04000092 -0.41999999 144 209 79 0.000000 0.000000 0.000000 0.000000 -60.708740 0.000000 134.000000 0.073004 0.893961 -0.442159
-6.21000004 19.04000092 -0.44000000 144 209 79 0.000000 0.000000 0.000000 0.000000 -60.708740 0.000000 134.000000 0.216336 0.848704 -0.482597
-6.21000004 19.04000092 -0.49000001 144 209 79 0.000000 0.000000 0.000000 0.000000 -60.708740 0.000000 134.000000 -0.001061 0.996116 -0.088049
-6.21999979 19.02000046 -0.50000000 144 209 79 0.000000 0.000000 0.000000 0.000000 -60.708740 0.000000 134.000000 -0.121295 0.825682 -0.550942
-6.26000023 19.03000069 -0.47999999 144 209 79 0.000000 0.000000 0.000000 0.000000 -60.708740 0.000000 134.000000 0.084546 0.823966 -0.560297
-6.13999987 19.05999947 -0.52999997 144 209 79 0.000000 0.000000 0.000000 0.000000 -60.708740 0.000000 134.000000 -0.291580 0.955526 -0.044179
-6.19999981 19.03000069 -0.52999997 144 209 79 0.000000 0.000000 0.000000 0.000000 -60.708740 0.000000 134.000000 -0.085938 0.987694 -0.130672
-6.19999981 19.02000046 -0.55000001 144 209 79 0.000000 0.000000 0.000000 0.000000 -60.708740 0.000000 134.000000 -0.054775 0.987116 -0.150340
-6.19000006 19.02000046 -0.55000001 144 209 79 0.000000 0.000000 0.000000 0.000000 -60.708740 0.000000 134.000000 -0.208639 0.947740 -0.241367
-6.19999981 19.03000069 -0.56999999 144 209 79 0.000000 0.000000 0.000000 0.000000 -60.708740 0.000000 134.000000 -0.145276 0.986221 0.079134
-6.17000008 19.03000069 -0.58999997 144 209 79 0.000000 0.000000 0.000000 0.000000 -60.708740 0.000000 134.000000 -0.319340 0.859287 -0.399561
-6.19999981 19.02000046 -0.56999999 144 209 79 0.000000 0.000000 0.000000 0.000000 -60.708740 0.000000 134.000000 -0.166924 0.945905 -0.278207
-6.17000008 19.03000069 -0.67000002 144 209 79 0.000000 0.000000 0.000000 0.000000 -60.708740 0.000000 134.000000 -0.034424 0.852333 -0.521865
-6.13999987 19.01000023 -0.56000000 144 209 79 0.000000 0.000000 0.000000 0.000000 -60.708740 0.000000 134.000000 -0.483228 0.758422 -0.437362
-6.23999977 19.03000069 -0.57999998 144 209 79 0.000000 0.000000 0.000000 0.000000 -60.708740 0.000000 134.000000 0.113268 0.989052 -0.094585
-6.21000004 19.02000046 -0.58999997 144 209 79 0.000000 0.000000 0.000000 0.000000 -60.708740 0.000000 134.000000 -0.078061 0.905229 -0.417693
-6.28999996 19.04999924 -0.60000002 144 209 79 0.000000 0.000000 0.000000 0.000000 -60.708740 0.000000 134.000000 0.287592 0.883857 -0.368901
-6.25000000 19.03000069 -0.56999999 144 209 79 0.000000 0.000000 0.000000 0.000000 -60.708740 0.000000 134.000000 0.382163 0.924094 -0.001278
-6.26000023 19.04000092 -0.56999999 144 209 79 0.000000 0.000000 0.000000 0.000000 -60.708740 0.000000 134.000000 0.239108 0.955095 -0.174989
-6.28000021 19.03000069 -0.63000000 144 209 79 0.000000 0.000000 0.000000 0.000000 -60.708740 0.000000 134.000000 0.265966 0.963976 0.003610
-6.28999996 19.02000046 -0.69000000 144 209 79 0.000000 0.000000 0.000000 0.000000 -60.708740 0.000000 134.000000 0.191196 0.891764 -0.410124
-6.26000023 19.04999924 -0.62000000 144 209 79 0.000000 0.000000 0.000000 0.000000 -60.708740 0.000000 134.000000 0.227753 0.952789 -0.200800
-6.26999998 19.03000069 -0.62000000 144 209 79 0.000000 0.000000 0.000000 0.000000 -60.708740 0.000000 134.000000 0.200944 0.906415 -0.371529
-6.26999998 19.01000023 -0.57999998 144 209 79 0.000000 0.000000 0.000000 0.000000 -60.708740 0.000000 134.000000 0.292330 0.952347 -0.087049
-6.21999979 19.01000023 -0.62000000 144 209 79 0.000000 0.000000 0.000000 0.000000 -60.708740 0.000000 134.000000 -0.111618 0.990756 -0.077097
-6.21999979 19.01000023 -0.69000000 144 209 79 0.000000 0.000000 0.000000 0.000000 -60.708740 0.000000 134.000000 -0.219979 0.974881 0.034860
-6.25000000 19.00000000 -0.66000003 144 209 79 0.000000 0.000000 0.000000 0.000000 -60.708740 0.000000 134.000000 0.035084 0.990268 -0.134677
-6.26999998 19.01000023 -0.66000003 144 209 79 0.000000 0.000000 0.000000 0.000000 -60.708740 0.000000 134.000000 0.176913 0.979732 0.093947
-6.30000019 19.09000015 -0.50999999 144 209 79 0.000000 0.000000 0.000000 0.000000 -60.708740 0.000000 134.000000 0.683455 0.716501 -0.139695
-6.30000019 19.09000015 -0.56999999 144 209 79 0.000000 0.000000 0.000000 0.000000 -60.708740 0.000000 134.000000 0.661516 0.708880 -0.244714
-6.36000013 19.09000015 -0.69000000 144 209 79 0.000000 0.000000 0.000000 0.000000 -60.708740 0.000000 134.000000 0.756917 0.652222 0.041029
-6.34000015 19.06999969 -0.69000000 144 209 79 0.000000 0.000000 0.000000 0.000000 -60.708740 0.000000 134.000000 0.759571 0.609840 -0.226156
-6.36000013 19.09000015 -0.68000001 144 209 79 0.000000 0.000000 0.000000 0.000000 -60.708740 0.000000 134.000000 0.784345 0.587875 -0.198005
-6.36000013 19.09000015 -0.69000000 144 209 79 0.000000 0.000000 0.000000 0.000000 -60.708740 0.000000 134.000000 0.756917 0.652222 0.041029
-5.94000006 19.02000046 -0.72000003 144 209 79 0.000000 0.000000 0.000000 0.000000 -60.708740 0.000000 134.000000 0.791085 -0.385070 0.475295
-5.94000006 19.06999969 -0.83999997 144 209 79 0.000000 0.000000 0.000000 0.000000 -60.708740 0.000000 134.000000 -0.706113 0.706113 0.052994
-5.90999985 18.94000053 -0.72000003 144 209 79 0.000000 0.000000 0.000000 0.000000 -60.708740 0.000000 134.000000 -0.501402 0.812617 -0.297069
-5.90000010 18.95000076 -0.72000003 144 209 79 0.000000 0.000000 0.000000 0.000000 -60.708740 0.000000 134.000000 -0.500602 0.865652 -0.006710
-5.94000006 19.01000023 -0.73000002 144 209 79 0.000000 0.000000 0.000000 0.000000 -60.708740 0.000000 134.000000 0.941623 -0.202663 0.268838
-5.92000008 19.00000000 -0.70999998 144 209 79 0.000000 0.000000 0.000000 0.000000 -60.708740 0.000000 134.000000 0.835166 -0.525515 0.162269
-5.98000002 19.04000092 -0.75000000 144 209 79 0.000000 0.000000 0.000000 0.000000 -60.708740 0.000000 134.000000 0.807282 -0.412468 0.422098
-5.96000004 19.05999947 -0.83999997 144 209 79 0.000000 0.000000 0.000000 0.000000 -60.708740 0.000000 134.000000 0.977877 -0.087113 0.190177
-5.98000002 19.07999992 -0.88999999 144 209 79 0.000000 0.000000 0.000000 0.000000 -60.708740 0.000000 134.000000 0.990686 -0.032759 0.132167
-6.01000023 19.06999969 -0.92000002 144 209 79 0.000000 0.000000 0.000000 0.000000 -60.708740 0.000000 134.000000 0.797041 -0.539221 0.271969
-5.98000002 18.93000031 -0.87000000 144 209 79 0.000000 0.000000 0.000000 0.000000 -60.708740 0.000000 134.000000 0.921454 -0.283192 0.265942
-6.05999994 18.95999908 -0.87000000 144 209 79 0.000000 0.000000 0.000000 0.000000 -60.708740 0.000000 134.000000 -0.457600 0.875977 0.152533
-6.09999990 18.97999954 -1.00000000 144 209 79 0.000000 0.000000 0.000000 0.000000 -60.708740 0.000000 134.000000 -0.457097 0.834631 -0.307332
-6.00000000 18.90999985 -0.83999997 144 209 79 0.000000 0.000000 0.000000 0.000000 -60.708740 0.000000 134.000000 0.852030 -0.432948 0.294281
-6.03999996 19.09000015 -1.02999997 144 209 79 0.000000 0.000000 0.000000 0.000000 -60.708740 0.000000 134.000000 0.854038 -0.483107 0.192944
-6.07000017 19.06999969 -1.02999997 144 209 79 0.000000 0.000000 0.000000 0.000000 -60.708740 0.000000 134.000000 0.814564 -0.578214 0.046426
-6.17999983 19.02000046 -0.85000002 144 209 79 0.000000 0.000000 0.000000 0.000000 -60.708740 0.000000 134.000000 -0.087772 0.995829 -0.024923
-6.15000010 19.03000069 -0.85000002 144 209 79 0.000000 0.000000 0.000000 0.000000 -60.708740 0.000000 134.000000 -0.478707 0.875549 -0.065215
-6.15999985 19.01000023 -0.76999998 144 209 79 0.000000 0.000000 0.000000 0.000000 -60.708740 0.000000 134.000000 -0.201336 0.918149 -0.341272
-6.13000011 18.98999977 -0.77999997 144 209 79 0.000000 0.000000 0.000000 0.000000 -60.708740 0.000000 134.000000 -0.210236 0.974956 0.072538
-6.15999985 19.01000023 -0.83999997 144 209 79 0.000000 0.000000 0.000000 0.000000 -60.708740 0.000000 134.000000 -0.239992 0.970715 -0.010746
-6.17999983 18.97999954 -0.81000000 144 209 79 0.000000 0.000000 0.000000 0.000000 -60.708740 0.000000 134.000000 -0.075837 0.955033 -0.286638
-6.17999983 18.98999977 -0.77999997 144 209 79 0.000000 0.000000 0.000000 0.000000 -60.708740 0.000000 134.000000 -0.364162 0.830793 -0.420914
-6.19999981 18.98999977 -0.85000002 144 209 79 0.000000 0.000000 0.000000 0.000000 -60.708740 0.000000 134.000000 0.043400 0.998204 -0.041283
-6.19000006 18.98999977 -0.82999998 144 209 79 0.000000 0.000000 0.000000 0.000000 -60.708740 0.000000 134.000000 0.442492 -0.672921 0.592772
-6.28999996 18.98999977 -0.75999999 144 209 79 0.000000 0.000000 0.000000 0.000000 -60.708740 0.000000 134.000000 0.218772 0.974084 0.057443
-6.26999998 18.96999931 -0.81999999 144 209 79 0.000000 0.000000 0.000000 0.000000 -60.708740 0.000000 134.000000 0.204619 -0.776939 0.595397
-6.15000010 19.04999924 -0.97000003 144 209 79 0.000000 0.000000 0.000000 0.000000 -60.708740 0.000000 134.000000 -0.616391 0.787381 0.009653
-6.15999985 19.02000046 -0.99000001 144 209 79 0.000000 0.000000 0.000000 0.000000 -60.708740 0.000000 134.000000 -0.610597 0.767475 0.195329
-6.15000010 19.00000000 -0.89999998 144 209 79 0.000000 0.000000 0.000000 0.000000 -60.708740 0.000000 134.000000 -0.467856 0.882515 -0.047740
-6.15999985 19.00000000 -0.91000003 144 209 79 0.000000 0.000000 0.000000 0.000000 -60.708740 0.000000 134.000000 -0.236395 0.935787 -0.261573
-6.15000010 19.00000000 -0.92000002 144 209 79 0.000000 0.000000 0.000000 0.000000 -60.708740 0.000000 134.000000 -0.505777 0.862638 -0.006708
-6.13999987 19.00000000 -0.92000002 144 209 79 0.000000 0.000000 0.000000 0.000000 -60.708740 0.000000 134.000000 -0.380417 0.819728 -0.428169
-6.15000010 19.00000000 -0.91000003 144 209 79 0.000000 0.000000 0.000000 0.000000 -60.708740 0.000000 134.000000 -0.510712 0.846281 -0.151595
-6.17999983 19.00000000 -0.88999999 144 209 79 0.000000 0.000000 0.000000 0.000000 -60.708740 0.000000 134.000000 -0.460109 0.878650 -0.127569
-6.17999983 18.97999954 -0.87000000 144 209 79 0.000000 0.000000 0.000000 0.000000 -60.708740 0.000000 134.000000 -0.125788 0.991832 -0.021150
-6.17000008 19.01000023 -0.88000000 144 209 79 0.000000 0.000000 0.000000 0.000000 -60.708740 0.000000 134.000000 -0.386406 0.919564 -0.071357
-6.17000008 18.98999977 -0.91000003 144 209 79 0.000000 0.000000 0.000000 0.000000 -60.708740 0.000000 134.000000 -0.322534 0.934661 0.149601
-6.19999981 18.96999931 -0.89999998 144 209 79 0.000000 0.000000 0.000000 0.000000 -60.708740 0.000000 134.000000 -0.241555 0.936900 -0.252726
-6.17000008 19.01000023 -1.00000000 144 209 79 0.000000 0.000000 0.000000 0.000000 -60.708740 0.000000 134.000000 -0.622889 0.781084 0.043786
-6.19000006 18.96999931 -0.94999999 144 209 79 0.000000 0.000000 0.000000 0.000000 -60.708740 0.000000 134.000000 -0.186616 0.877240 -0.442294
-6.21999979 18.97999954 -0.88000000 144 209 79 0.000000 0.000000 0.000000 0.000000 -60.708740 0.000000 134.000000 -0.053270 0.991733 -0.116741
-6.21000004 18.97999954 -0.93000001 144 209 79 0.000000 0.000000 0.000000 0.000000 -60.708740 0.000000 134.000000 -0.324821 0.920087 -0.218932
-6.23000002 18.96999931 -0.86000001 144 209 79 0.000000 0.000000 0.000000 0.000000 -60.708740 0.000000 134.000000 -0.064771 0.886120 -0.458908
-6.23999977 18.96999931 -0.86000001 144 209 79 0.000000 0.000000 0.000000 0.000000 -60.708740 0.000000 134.000000 0.001364 0.816854 -0.576843
-6.23999977 18.95000076 -0.87000000 144 209 79 0.000000 0.000000 0.000000 0.000000 -60.708740 0.000000 134.000000 0.282314 0.940587 -0.188668
-6.26000023 18.95000076 -0.91000003 144 209 79 0.000000 0.000000 0.000000 0.000000 -60.708740 0.000000 134.000000 0.206381 0.907790 -0.365136
-6.25000000 18.94000053 -0.94000000 144 209 79 0.000000 0.000000 0.000000 0.000000 -60.708740 0.000000 134.000000 0.108983 0.937795 -0.329641
-6.21999979 19.00000000 -1.00999999 144 209 79 0.000000 0.000000 0.000000 0.000000 -60.708740 0.000000 134.000000 -0.619433 0.722404 -0.307303
-6.23999977 18.93000031 -0.98000002 144 209 79 0.000000 0.000000 0.000000 0.000000 -60.708740 0.000000 134.000000 -0.088694 0.874274 -0.477261
-6.23000002 18.94000053 -0.95999998 144 209 79 0.000000 0.000000 0.000000 0.000000 -60.708740 0.000000 134.000000 -0.519293 0.718383 -0.462884
-6.23999977 18.93000031 -1.01999998 144 209 79 0.000000 0.000000 0.000000 0.000000 -60.708740 0.000000 134.000000 -0.244549 0.829004 -0.502939
-6.23000002 18.93000031 -0.99000001 144 209 79 0.000000 0.000000 0.000000 0.000000 -60.708740 0.000000 134.000000 -0.036120 0.984560 -0.171279
-6.25000000 18.93000031 -0.99000001 144 209 79 0.000000 0.000000 0.000000 0.000000 -60.708740 0.000000 134.000000 -0.180910 0.872192 -0.454481
-6.26000023 18.94000053 -0.99000001 144 209 79 0.000000 0.000000 0.000000 0.000000 -60.708740 0.000000 134.000000 0.156638 0.971664 -0.177013
-6.28000021 18.92000008 -0.95999998 144 209 79 0.000000 0.000000 0.000000 0.000000 -60.708740 0.000000 134.000000 0.080721 0.853944 -0.514066
-6.23999977 18.92000008 -1.00000000 144 209 79 0.000000 0.000000 0.000000 0.000000 -60.708740 0.000000 134.000000 -0.121267 0.987798 -0.097720
-6.34000015 19.04999924 -0.73000002 144 209 79 0.000000 0.000000 0.000000 0.000000 -60.708740 0.000000 134.000000 0.450408 0.641287 -0.621195
-6.34000015 19.04999924 -0.74000001 144 209 79 0.000000 0.000000 0.000000 0.000000 -60.708740 0.000000 134.000000 0.456211 0.683481 -0.569846
-6.36000013 19.04000092 -0.76999998 144 209 79 0.000000 0.000000 0.000000 0.000000 -60.708740 0.000000 134.000000 0.512845 0.763569 -0.392367
-6.36000013 19.04000092 -0.76999998 144 209 79 0.000000 0.000000 0.000000 0.000000 -60.708740 0.000000 134.000000 0.512845 0.763569 -0.392367
-6.36999989 19.04000092 -0.81000000 144 209 79 0.000000 0.000000 0.000000 0.000000 -60.708740 0.000000 134.000000 0.700453 0.709190 -0.080093
-6.34999990 19.03000069 -0.80000001 144 209 79 0.000000 0.000000 0.000000 0.000000 -60.708740 0.000000 134.000000 0.480053 0.797948 -0.364455
-6.36000013 19.04000092 -0.79000002 144 209 79 0.000000 0.000000 0.000000 0.000000 -60.708740 0.000000 134.000000 0.562521 0.826755 -0.006810
-6.32000017 18.98999977 -0.75999999 144 209 79 0.000000 0.000000 0.000000 0.000000 -60.708740 0.000000 134.000000 0.114101 0.965370 -0.234612
-6.30000019 19.01000023 -0.70999998 144 209 79 0.000000 0.000000 0.000000 0.000000 -60.708740 0.000000 134.000000 0.131223 0.991338 -0.005514
-6.30999994 19.01000023 -0.74000001 144 209 79 0.000000 0.000000 0.000000 0.000000 -60.708740 0.000000 134.000000 0.137549 0.900447 -0.412646
-6.30999994 19.00000000 -0.79000002 144 209 79 0.000000 0.000000 0.000000 0.000000 -60.708740 0.000000 134.000000 0.150982 0.973135 -0.173819
-6.36000013 19.00000000 -0.85000002 144 209 79 0.000000 0.000000 0.000000 0.000000 -60.708740 0.000000 134.000000 0.239752 0.808971 -0.536736
-6.30000019 18.95000076 -0.86000001 144 209 79 0.000000 0.000000 0.000000 0.000000 -60.708740 0.000000 134.000000 0.172442 0.749281 -0.639407
-6.34999990 18.93000031 -0.87000000 144 209 79 0.000000 0.000000 0.000000 0.000000 -60.708740 0.000000 134.000000 0.580450 0.597373 -0.553374
-6.36999989 18.96999931 -0.94000000 144 209 79 0.000000 0.000000 0.000000 0.000000 -60.708740 0.000000 134.000000 0.670198 0.741044 0.041090
-6.30999994 18.94000053 -0.98000002 144 209 79 0.000000 0.000000 0.000000 0.000000 -60.708740 0.000000 134.000000 0.516252 0.841684 -0.158278
-6.30000019 18.92000008 -1.01999998 144 209 79 0.000000 0.000000 0.000000 0.000000 -60.708740 0.000000 134.000000 0.260599 0.964586 0.040757
-6.15999985 19.04000092 -1.02999997 144 209 79 0.000000 0.000000 0.000000 0.000000 -60.708740 0.000000 134.000000 -0.650591 0.758315 -0.041105
-6.19999981 19.04999924 -1.05999994 144 209 79 0.000000 0.000000 0.000000 0.000000 -60.708740 0.000000 134.000000 -0.583833 0.798850 0.144838
-6.19999981 19.04999924 -1.08000004 144 209 79 0.000000 0.000000 0.000000 0.000000 -60.708740 0.000000 134.000000 0.702101 -0.572636 0.423252
-6.19999981 19.04000092 -1.08000004 144 209 79 0.000000 0.000000 0.000000 0.000000 -60.708740 0.000000 134.000000 0.936977 -0.300331 0.178538
-6.19000006 19.04999924 -1.08000004 144 209 79 0.000000 0.000000 0.000000 0.000000 -60.708740 0.000000 134.000000 -0.654145 0.748649 -0.107794
-6.17999983 18.97999954 -1.02999997 144 209 79 0.000000 0.000000 0.000000 0.000000 -60.708740 0.000000 134.000000 0.729362 -0.511050 0.454818
-6.21000004 18.97999954 -1.08000004 144 209 79 0.000000 0.000000 0.000000 0.000000 -60.708740 0.000000 134.000000 -0.212562 0.976344 0.039630
-6.21999979 18.94000053 -1.05999994 144 209 79 0.000000 0.000000 0.000000 0.000000 -60.708740 0.000000 134.000000 -0.487952 0.852050 -0.189510
-6.21999979 18.94000053 -1.02999997 144 209 79 0.000000 0.000000 0.000000 0.000000 -60.708740 0.000000 134.000000 -0.347583 0.936793 -0.040056
-6.23999977 18.94000053 -1.04999995 144 209 79 0.000000 0.000000 0.000000 0.000000 -60.708740 0.000000 134.000000 -0.414854 0.881751 -0.224527
-6.23999977 18.94000053 -1.04999995 144 209 79 0.000000 0.000000 0.000000 0.000000 -60.708740 0.000000 134.000000 -0.414854 0.881751 -0.224527
-6.23000002 18.95000076 -1.10000002 144 209 79 0.000000 0.000000 0.000000 0.000000 -60.708740 0.000000 134.000000 -0.011588 0.997586 -0.068472
-6.26000023 18.93000031 -1.02999997 144 209 79 0.000000 0.000000 0.000000 0.000000 -60.708740 0.000000 134.000000 -0.329971 0.884442 -0.329971
-6.25000000 18.93000031 -1.10000002 144 209 79 0.000000 0.000000 0.000000 0.000000 -60.708740 0.000000 134.000000 -0.107332 0.994175 0.009757
-6.23000002 18.90999985 -1.02999997 144 209 79 0.000000 0.000000 0.000000 0.000000 -60.708740 0.000000 134.000000 -0.118329 0.909048 -0.399536
-6.21999979 18.92000008 -1.07000005 144 209 79 0.000000 0.000000 0.000000 0.000000 -60.708740 0.000000 134.000000 -0.275294 0.894334 -0.352674
-6.21999979 18.92000008 -1.08000004 144 209 79 0.000000 0.000000 0.000000 0.000000 -60.708740 0.000000 134.000000 -0.424641 0.752549 -0.503339
-6.28999996 18.90999985 -1.02999997 144 209 79 0.000000 0.000000 0.000000 0.000000 -60.708740 0.000000 134.000000 0.089630 0.855044 -0.510750
-6.26999998 18.89999962 -1.07000005 144 209 79 0.000000 0.000000 0.000000 0.000000 -60.708740 0.000000 134.000000 -0.043067 0.985885 -0.161792
-6.26000023 18.89999962 -1.11000001 144 209 79 0.000000 0.000000 0.000000 0.000000 -60.708740 0.000000 134.000000 -0.199579 0.978773 0.046608
-6.28999996 18.89999962 -1.07000005 144 209 79 0.000000 0.000000 0.000000 0.000000 -60.708740 0.000000 134.000000 -0.067123 0.935777 -0.346145
-6.23000002 18.90999985 -1.13000000 144 209 79 0.000000 0.000000 0.000000 0.000000 -60.708740 0.000000 134.000000 -0.485959 0.850053 -0.203110
-6.25000000 18.92000008 -1.12000000 144 209 79 0.000000 0.000000 0.000000 0.000000 -60.708740 0.000000 134.000000 -0.365390 0.894983 -0.255921
-6.28999996 18.89999962 -1.12000000 144 209 79 0.000000 0.000000 0.000000 0.000000 -60.708740 0.000000 134.000000 -0.140668 0.989247 -0.040027
-6.28999996 18.87000084 -1.14999998 144 209 79 0.000000 0.000000 0.000000 0.000000 -60.708740 0.000000 134.000000 0.347502 0.893362 -0.284862
-6.26000023 18.87999916 -1.16999996 144 209 79 0.000000 0.000000 0.000000 0.000000 -60.708740 0.000000 134.000000 -0.163389 0.910714 -0.379346
-6.28999996 18.86000061 -1.17999995 144 209 79 0.000000 0.000000 0.000000 0.000000 -60.708740 0.000000 134.000000 -0.026341 0.952050 -0.304807
-6.28999996 18.87999916 -1.17999995 144 209 79 0.000000 0.000000 0.000000 0.000000 -60.708740 0.000000 134.000000 -0.347327 0.798692 -0.491380
-6.23000002 18.90999985 -1.23000002 144 209 79 0.000000 0.000000 0.000000 0.000000 -60.708740 0.000000 134.000000 -0.478719 0.842729 -0.246242
-6.23999977 18.89999962 -1.21000004 144 209 79 0.000000 0.000000 0.000000 0.000000 -60.708740 0.000000 134.000000 -0.572017 0.797773 -0.190672
-6.23999977 18.89999962 -1.24000001 144 209 79 0.000000 0.000000 0.000000 0.000000 -60.708740 0.000000 134.000000 0.715462 -0.638634 0.283304
-6.23999977 18.89999962 -1.24000001 144 209 79 0.000000 0.000000 0.000000 0.000000 -60.708740 0.000000 134.000000 0.715462 -0.638634 0.283304
-6.25000000 18.88999939 -1.23000002 144 209 79 0.000000 0.000000 0.000000 0.000000 -60.708740 0.000000 134.000000 -0.485918 0.842359 -0.233058
-6.26000023 18.90999985 -1.26999998 144 209 79 0.000000 0.000000 0.000000 0.000000 -60.708740 0.000000 134.000000 -0.355120 0.923313 -0.146226
-6.26999998 18.88999939 -1.26999998 144 209 79 0.000000 0.000000 0.000000 0.000000 -60.708740 0.000000 134.000000 -0.219539 0.943051 -0.249915
-6.28999996 18.87999916 -1.23000002 144 209 79 0.000000 0.000000 0.000000 0.000000 -60.708740 0.000000 134.000000 -0.295312 0.803817 -0.516401
-6.26999998 18.85000038 -1.32000005 144 209 79 0.000000 0.000000 0.000000 0.000000 -60.708740 0.000000 134.000000 -0.434633 0.882437 -0.180000
-6.26999998 18.85000038 -1.36000001 144 209 79 0.000000 0.000000 0.000000 0.000000 -60.708740 0.000000 134.000000 -0.376854 0.925946 0.024606
-6.26999998 18.84000015 -1.30999994 144 209 79 0.000000 0.000000 0.000000 0.000000 -60.708740 0.000000 134.000000 -0.424882 0.891532 -0.156990
-6.28999996 18.82999992 -1.35000002 144 209 79 0.000000 0.000000 0.000000 0.000000 -60.708740 0.000000 134.000000 -0.301458 0.898434 -0.319278
-6.28999996 18.84000015 -1.28999996 144 209 79 0.000000 0.000000 0.000000 0.000000 -60.708740 0.000000 134.000000 0.119750 0.964435 -0.235636
-6.26999998 18.82999992 -1.35000002 144 209 79 0.000000 0.000000 0.000000 0.000000 -60.708740 0.000000 134.000000 -0.431088 0.806087 -0.405447
-6.34000015 18.94000053 -1.03999996 144 209 79 0.000000 0.000000 0.000000 0.000000 -60.708740 0.000000 134.000000 0.404484 0.748377 -0.525665
-6.44000006 18.94000053 -1.13000000 144 209 79 0.000000 0.000000 0.000000 0.000000 -60.708740 0.000000 134.000000 0.709244 0.576984 -0.405046
-6.30000019 18.88999939 -1.09000003 144 209 79 0.000000 0.000000 0.000000 0.000000 -60.708740 0.000000 134.000000 -0.168358 0.778085 -0.605177
-6.32000017 18.87999916 -1.11000001 144 209 79 0.000000 0.000000 0.000000 0.000000 -60.708740 0.000000 134.000000 0.171933 0.971740 -0.161744
-6.32999992 18.87999916 -1.07000005 144 209 79 0.000000 0.000000 0.000000 0.000000 -60.708740 0.000000 134.000000 0.229137 0.888460 -0.397663
-6.36999989 18.92000008 -1.05999994 144 209 79 0.000000 0.000000 0.000000 0.000000 -60.708740 0.000000 134.000000 0.469049 0.802025 -0.369796
-6.36999989 18.89999962 -1.07000005 144 209 79 0.000000 0.000000 0.000000 0.000000 -60.708740 0.000000 134.000000 0.112534 0.816969 -0.565594
-6.32999992 18.88999939 -1.17999995 144 209 79 0.000000 0.000000 0.000000 0.000000 -60.708740 0.000000 134.000000 -0.031266 0.999507 0.003026
-6.32999992 18.87000084 -1.13000000 144 209 79 0.000000 0.000000 0.000000 0.000000 -60.708740 0.000000 134.000000 0.486143 0.728385 -0.482825
-6.32999992 18.87000084 -1.17999995 144 209 79 0.000000 0.000000 0.000000 0.000000 -60.708740 0.000000 134.000000 -0.147664 0.800965 -0.580215
-6.30999994 18.87000084 -1.17999995 144 209 79 0.000000 0.000000 0.000000 0.000000 -60.708740 0.000000 134.000000 0.211432 0.923774 -0.319277
-6.32000017 18.86000061 -1.19000006 144 209 79 0.000000 0.000000 0.000000 0.000000 -60.708740 0.000000 134.000000 -0.132374 0.892454 -0.431281
-6.32000017 18.87000084 -1.19000006 144 209 79 0.000000 0.000000 0.000000 0.000000 -60.708740 0.000000 134.000000 -0.152616 -0.729835 0.666371
-6.30000019 18.86000061 -1.17999995 144 209 79 0.000000 0.000000 0.000000 0.000000 -60.708740 0.000000 134.000000 -0.008951 0.927111 -0.374681
-6.32000017 18.87999916 -1.17999995 144 209 79 0.000000 0.000000 0.000000 0.000000 -60.708740 0.000000 134.000000 0.092018 0.749293 -0.655814
-6.36000013 18.87000084 -1.19000006 144 209 79 0.000000 0.000000 0.000000 0.000000 -60.708740 0.000000 134.000000 0.447371 0.734613 -0.510102
-6.38999987 18.92000008 -1.11000001 144 209 79 0.000000 0.000000 0.000000 0.000000 -60.708740 0.000000 134.000000 0.378902 0.849802 -0.366428
-6.42000008 18.89999962 -1.11000001 144 209 79 0.000000 0.000000 0.000000 0.000000 -60.708740 0.000000 134.000000 0.814451 0.451056 -0.364989
-6.38999987 18.88999939 -1.19000006 144 209 79 0.000000 0.000000 0.000000 0.000000 -60.708740 0.000000 134.000000 0.387774 0.897002 -0.212178
-6.38999987 18.87999916 -1.14999998 144 209 79 0.000000 0.000000 0.000000 0.000000 -60.708740 0.000000 134.000000 0.563259 0.718527 -0.407991
-6.38999987 18.86000061 -1.17999995 144 209 79 0.000000 0.000000 0.000000 0.000000 -60.708740 0.000000 134.000000 0.203730 0.795008 -0.571364
-6.42999983 18.92000008 -1.15999997 144 209 79 0.000000 0.000000 0.000000 0.000000 -60.708740 0.000000 134.000000 0.697386 0.554247 -0.454383
-6.42999983 18.89999962 -1.17999995 144 209 79 0.000000 0.000000 0.000000 0.000000 -60.708740 0.000000 134.000000 0.681549 0.517441 -0.517441
-6.44000006 18.90999985 -1.17999995 144 209 79 0.000000 0.000000 0.000000 0.000000 -60.708740 0.000000 134.000000 0.567107 0.590807 -0.573879
-6.42000008 18.89999962 -1.15999997 144 209 79 0.000000 0.000000 0.000000 0.000000 -60.708740 0.000000 134.000000 0.522534 0.828481 -0.201440
-6.42000008 18.87999916 -1.17999995 144 209 79 0.000000 0.000000 0.000000 0.000000 -60.708740 0.000000 134.000000 0.662838 0.558798 -0.498387
-6.34000015 18.86000061 -1.20000005 144 209 79 0.000000 0.000000 0.000000 0.000000 -60.708740 0.000000 134.000000 -0.050048 0.972881 -0.225826
-6.34000015 18.85000038 -1.22000003 144 209 79 0.000000 0.000000 0.000000 0.000000 -60.708740 0.000000 134.000000 -0.183777 0.877718 -0.442535
-6.32999992 18.86000061 -1.20000005 144 209 79 0.000000 0.000000 0.000000 0.000000 -60.708740 0.000000 134.000000 -0.138342 0.932780 -0.332842
-6.36000013 18.85000038 -1.24000001 144 209 79 0.000000 0.000000 0.000000 0.000000 -60.708740 0.000000 134.000000 -0.108805 0.938944 -0.326414
-6.30000019 18.86000061 -1.20000005 144 209 79 0.000000 0.000000 0.000000 0.000000 -60.708740 0.000000 134.000000 -0.020598 -0.836284 0.547910
-6.32999992 18.86000061 -1.21000004 144 209 79 0.000000 0.000000 0.000000 0.000000 -60.708740 0.000000 134.000000 -0.156160 0.932816 -0.324758
-6.34999990 18.85000038 -1.27999997 144 209 79 0.000000 0.000000 0.000000 0.000000 -60.708740 0.000000 134.000000 0.282127 0.846381 -0.451712
-6.30999994 18.85000038 -1.30999994 144 209 79 0.000000 0.000000 0.000000 0.000000 -60.708740 0.000000 134.000000 -0.117254 0.991534 -0.055781
-6.36000013 18.82999992 -1.26999998 144 209 79 0.000000 0.000000 0.000000 0.000000 -60.708740 0.000000 134.000000 0.398962 0.914791 0.063135
-6.30000019 18.84000015 -1.25000000 144 209 79 0.000000 0.000000 0.000000 0.000000 -60.708740 0.000000 134.000000 -0.030223 0.970757 -0.238156
-6.30999994 18.81999969 -1.34000003 144 209 79 0.000000 0.000000 0.000000 0.000000 -60.708740 0.000000 134.000000 -0.237301 0.906986 -0.347945
-6.30000019 18.81999969 -1.35000002 144 209 79 0.000000 0.000000 0.000000 0.000000 -60.708740 0.000000 134.000000 0.307650 0.905286 -0.292930
-6.30000019 18.81999969 -1.36000001 144 209 79 0.000000 0.000000 0.000000 0.000000 -60.708740 0.000000 134.000000 0.016149 0.995869 0.089359
-6.30999994 18.80999947 -1.33000004 144 209 79 0.000000 0.000000 0.000000 0.000000 -60.708740 0.000000 134.000000 -0.285540 0.932576 -0.220836
-6.36000013 18.81999969 -1.29999995 144 209 79 0.000000 0.000000 0.000000 0.000000 -60.708740 0.000000 134.000000 0.415299 0.877075 -0.241383
-6.34000015 18.84000015 -1.28999996 144 209 79 0.000000 0.000000 0.000000 0.000000 -60.708740 0.000000 134.000000 -0.089324 0.857795 -0.506170
-6.36000013 18.82999992 -1.28999996 144 209 79 0.000000 0.000000 0.000000 0.000000 -60.708740 0.000000 134.000000 0.047631 0.885942 -0.461343
-6.36999989 18.82999992 -1.33000004 144 209 79 0.000000 0.000000 0.000000 0.000000 -60.708740 0.000000 134.000000 0.031313 0.867230 -0.496922
-6.36000013 18.79999924 -1.30999994 144 209 79 0.000000 0.000000 0.000000 0.000000 -60.708740 0.000000 134.000000 -0.124417 0.876642 -0.464778
-6.36999989 18.79999924 -1.35000002 144 209 79 0.000000 0.000000 0.000000 0.000000 -60.708740 0.000000 134.000000 0.367019 0.735669 -0.569287
-6.36999989 18.79000092 -1.36000001 144 209 79 0.000000 0.000000 0.000000 0.000000 -60.708740 0.000000 134.000000 0.098288 0.933062 -0.346027
-6.36999989 18.79999924 -1.34000003 144 209 79 0.000000 0.000000 0.000000 0.000000 -60.708740 0.000000 134.000000 0.131353 0.810257 -0.571165
-6.38999987 18.86000061 -1.21000004 144 209 79 0.000000 0.000000 0.000000 0.000000 -60.708740 0.000000 134.000000 0.470248 0.840278 -0.269814
-6.40999985 18.86000061 -1.23000002 144 209 79 0.000000 0.000000 0.000000 0.000000 -60.708740 0.000000 134.000000 0.531262 0.618963 -0.578486
-6.38999987 18.87000084 -1.20000005 144 209 79 0.000000 0.000000 0.000000 0.000000 -60.708740 0.000000 134.000000 0.242205 0.819176 -0.519892
-6.40000010 18.85000038 -1.25999999 144 209 79 0.000000 0.000000 0.000000 0.000000 -60.708740 0.000000 134.000000 0.346235 0.896049 -0.277879
