//X Y Z R G B PointSourceId ScanDirectionFlag NumberOfReturns ReturnNumber GpsTime Intensity Classification Nx Ny Nz
1.72000003 1.16999996 -0.18000001 20 232 129 97.000000 1.000000 4.000000 1.000000 -60.708740 114.000000 133.000000 0.673178 -0.352149 0.650248
1.75000000 1.15999997 -0.20000000 20 232 129 97.000000 1.000000 4.000000 1.000000 -60.708740 114.000000 133.000000 0.838856 -0.340246 0.424916
1.75000000 1.14999998 -0.25000000 20 232 129 97.000000 1.000000 4.000000 1.000000 -60.708740 114.000000 133.000000 0.708687 -0.386407 0.590298
1.72000003 1.13999999 -0.25000000 20 232 129 97.000000 1.000000 4.000000 1.000000 -60.708740 114.000000 133.000000 0.675382 -0.384753 0.629146
1.75999999 1.22000003 -0.34999999 20 232 129 97.000000 1.000000 4.000000 1.000000 -60.708740 114.000000 133.000000 0.554478 -0.147167 0.819082
1.71000004 1.20000005 -0.34999999 20 232 129 97.000000 1.000000 4.000000 1.000000 -60.708740 114.000000 133.000000 0.548098 -0.172688 0.818393
1.64999998 1.00000000 -0.16000000 20 232 129 97.000000 1.000000 4.000000 1.000000 -60.708740 114.000000 133.000000 0.987873 -0.112124 0.107403
1.73000002 1.03999996 -0.31999999 20 232 129 97.000000 1.000000 4.000000 1.000000 -60.708740 114.000000 133.000000 0.556634 -0.411282 0.721807
1.63999999 1.00999999 -0.23000000 20 232 129 97.000000 1.000000 4.000000 1.000000 -60.708740 114.000000 133.000000 0.655195 -0.550768 0.517082
1.63000000 0.99000001 -0.22000000 20 232 129 97.000000 1.000000 4.000000 1.000000 -60.708740 114.000000 133.000000 0.655580 -0.612209 0.442058
1.80999994 1.14999998 -0.41999999 20 232 129 97.000000 1.000000 4.000000 1.000000 -60.708740 114.000000 133.000000 0.596414 -0.321643 0.735416
1.77999997 1.13999999 -0.49000001 20 232 129 97.000000 1.000000 4.000000 1.000000 -60.708740 114.000000 133.000000 0.715200 -0.569848 0.404675
1.77999997 1.13999999 -0.49000001 20 232 129 97.000000 1.000000 4.000000 1.000000 -60.708740 114.000000 133.000000 0.715200 -0.569848 0.404675
1.79999995 1.13999999 -0.56000000 20 232 129 97.000000 1.000000 4.000000 1.000000 -60.708740 114.000000 133.000000 0.715318 -0.560029 0.417957
1.76999998 1.14999998 -0.55000001 20 232 129 97.000000 1.000000 4.000000 1.000000 -60.708740 114.000000 133.000000 0.719699 -0.435128 0.541015
1.78999996 1.11000001 -0.38000000 20 232 129 97.000000 1.000000 4.000000 1.000000 -60.708740 114.000000 133.000000 0.679558 -0.501698 0.535257
1.80999994 1.13000000 -0.44000000 20 232 129 97.000000 1.000000 4.000000 1.000000 -60.708740 114.000000 133.000000 0.630066 -0.351855 0.692254
1.72000003 1.15999997 -0.41999999 20 232 129 97.000000 1.000000 4.000000 1.000000 -60.708740 114.000000 133.000000 0.554500 -0.118508 0.823703
1.72000003 1.16999996 -0.41999999 20 232 129 97.000000 1.000000 4.000000 1.000000 -60.708740 114.000000 133.000000 0.585837 -0.154325 0.795600
1.69000006 1.25000000 -0.63999999 20 232 129 97.000000 1.000000 4.000000 1.000000 -60.708740 114.000000 133.000000 0.680904 0.032424 0.731655
1.71000004 1.26999998 -0.68000001 20 232 129 97.000000 1.000000 4.000000 1.000000 -60.708740 114.000000 133.000000 0.864670 -0.053955 0.499434
1.63999999 1.26999998 -0.64999998 20 232 129 97.000000 1.000000 4.000000 1.000000 -60.708740 114.000000 133.000000 0.764176 -0.267383 0.586976
1.67999995 1.28999996 -0.66000003 20 232 129 97.000000 1.000000 4.000000 1.000000 -60.708740 114.000000 133.000000 0.687211 0.359187 0.631447
1.64999998 1.26999998 -0.66000003 20 232 129 97.000000 1.000000 4.000000 1.000000 -60.708740 114.000000 133.000000 0.618912 -0.110258 0.777683
1.65999997 1.25999999 -0.66000003 20 232 129 97.000000 1.000000 4.000000 1.000000 -60.708740 114.000000 133.000000 0.664647 0.341305 0.664647
1.63000000 1.28999996 -0.63000000 20 232 129 97.000000 1.000000 4.000000 1.000000 -60.708740 114.000000 133.000000 0.807948 0.391975 0.439972
1.60000002 1.26999998 -0.61000001 20 232 129 97.000000 1.000000 4.000000 1.000000 -60.708740 114.000000 133.000000 0.804279 0.187006 0.564060
1.63000000 1.27999997 -0.63000000 20 232 129 97.000000 1.000000 4.000000 1.000000 -60.708740 114.000000 133.000000 0.892405 -0.150405 0.425432
1.60000002 1.28999996 -0.62000000 20 232 129 97.000000 1.000000 4.000000 1.000000 -60.708740 114.000000 133.000000 0.464572 0.359205 0.809410
1.63000000 1.27999997 -0.63000000 20 232 129 97.000000 1.000000 4.000000 1.000000 -60.708740 114.000000 133.000000 0.892405 -0.150405 0.425432
1.63000000 1.27999997 -0.63000000 20 232 129 97.000000 1.000000 4.000000 1.000000 -60.708740 114.000000 133.000000 0.892405 -0.150405 0.425432
1.63000000 1.27999997 -0.63999999 20 232 129 97.000000 1.000000 4.000000 1.000000 -60.708740 114.000000 133.000000 0.916173 -0.032956 0.399425
1.63000000 1.28999996 -0.67000002 20 232 129 97.000000 1.000000 4.000000 1.000000 -60.708740 114.000000 133.000000 0.820140 0.439417 0.366446
1.63000000 1.24000001 -0.63999999 20 232 129 97.000000 1.000000 4.000000 1.000000 -60.708740 114.000000 133.000000 0.924630 -0.287250 0.250093
1.63000000 1.25000000 -0.68000001 20 232 129 97.000000 1.000000 4.000000 1.000000 -60.708740 114.000000 133.000000 0.683471 0.165921 0.710871
1.62000000 1.25000000 -0.64999998 20 232 129 97.000000 1.000000 4.000000 1.000000 -60.708740 114.000000 133.000000 0.807605 -0.103315 0.580603
1.63000000 1.24000001 -0.64999998 20 232 129 97.000000 1.000000 4.000000 1.000000 -60.708740 114.000000 133.000000 0.582589 -0.131935 0.801987
1.66999996 1.19000006 -0.60000002 20 232 129 97.000000 1.000000 4.000000 1.000000 -60.708740 114.000000 133.000000 0.661251 0.041063 0.749040
1.65999997 1.17999995 -0.56999999 20 232 129 97.000000 1.000000 4.000000 1.000000 -60.708740 114.000000 133.000000 0.694003 -0.434376 0.574175
1.63999999 1.20000005 -0.63999999 20 232 129 97.000000 1.000000 4.000000 1.000000 -60.708740 114.000000 133.000000 0.642226 -0.129637 0.755473
1.63999999 1.20000005 -0.63999999 20 232 129 97.000000 1.000000 4.000000 1.000000 -60.708740 114.000000 133.000000 0.642226 -0.129637 0.755473
1.66999996 1.22000003 -0.64999998 20 232 129 97.000000 1.000000 4.000000 1.000000 -60.708740 114.000000 133.000000 0.711009 0.029567 0.702561
1.66999996 1.19000006 -0.67000002 20 232 129 97.000000 1.000000 4.000000 1.000000 -60.708740 114.000000 133.000000 0.740101 -0.536615 0.405333
1.63999999 1.13999999 -0.63999999 20 232 129 97.000000 1.000000 4.000000 1.000000 -60.708740 114.000000 133.000000 -0.572920 0.498995 -0.650205
1.61000001 1.20000005 -0.63999999 20 232 129 97.000000 1.000000 4.000000 1.000000 -60.708740 114.000000 133.000000 0.570095 -0.147361 0.808255
1.63000000 1.17999995 -0.63999999 20 232 129 97.000000 1.000000 4.000000 1.000000 -60.708740 114.000000 133.000000 0.926327 0.056984 0.372386
1.62000000 1.20000005 -0.63999999 20 232 129 97.000000 1.000000 4.000000 1.000000 -60.708740 114.000000 133.000000 -0.606140 0.514965 -0.606140
1.62000000 1.20000005 -0.66000003 20 232 129 97.000000 1.000000 4.000000 1.000000 -60.708740 114.000000 133.000000 -0.765887 0.406622 -0.498072
1.63000000 1.21000004 -0.67000002 20 232 129 97.000000 1.000000 4.000000 1.000000 -60.708740 114.000000 133.000000 0.761563 -0.350869 0.544897
1.60000002 1.17999995 -0.64999998 20 232 129 97.000000 1.000000 4.000000 1.000000 -60.708740 114.000000 133.000000 0.777163 -0.550557 0.304801
1.63000000 1.15999997 -0.63000000 20 232 129 97.000000 1.000000 4.000000 1.000000 -60.708740 114.000000 133.000000 0.963857 -0.262418 0.046016
1.63000000 1.14999998 -0.62000000 20 232 129 97.000000 1.000000 4.000000 1.000000 -60.708740 114.000000 133.000000 0.819942 -0.363185 0.442483
1.63000000 1.13999999 -0.63000000 20 232 129 97.000000 1.000000 4.000000 1.000000 -60.708740 114.000000 133.000000 0.914033 -0.314335 0.256393
1.61000001 1.15999997 -0.61000001 20 232 129 97.000000 1.000000 4.000000 1.000000 -60.708740 114.000000 133.000000 0.827827 -0.484848 0.282178
1.63000000 1.14999998 -0.62000000 20 232 129 97.000000 1.000000 4.000000 1.000000 -60.708740 114.000000 133.000000 0.819942 -0.363185 0.442483
1.63000000 1.13999999 -0.62000000 20 232 129 97.000000 1.000000 4.000000 1.000000 -60.708740 114.000000 133.000000 0.830491 -0.490252 0.264458
1.63000000 1.15999997 -0.63000000 20 232 129 97.000000 1.000000 4.000000 1.000000 -60.708740 114.000000 133.000000 0.963857 -0.262418 0.046016
1.65999997 1.13000000 -0.44000000 20 232 129 97.000000 1.000000 4.000000 1.000000 -60.708740 114.000000 133.000000 0.612194 -0.347726 0.710145
1.60000002 0.99000001 -0.46000001 20 232 129 97.000000 1.000000 4.000000 1.000000 -60.708740 114.000000 133.000000 0.959919 -0.253981 0.118525
1.60000002 0.99000001 -0.46000001 20 232 129 97.000000 1.000000 4.000000 1.000000 -60.708740 114.000000 133.000000 0.959919 -0.253981 0.118525
1.60000002 0.99000001 -0.46000001 20 232 129 97.000000 1.000000 4.000000 1.000000 -60.708740 114.000000 133.000000 0.959919 -0.253981 0.118525
1.72000003 1.07000005 -0.60000002 20 232 129 97.000000 1.000000 4.000000 1.000000 -60.708740 114.000000 133.000000 0.895549 -0.326331 0.302490
1.61000001 1.11000001 -0.66000003 20 232 129 97.000000 1.000000 4.000000 1.000000 -60.708740 114.000000 133.000000 0.816195 -0.577038 -0.029199
1.62000000 0.98000002 -0.54000002 20 232 129 97.000000 1.000000 4.000000 1.000000 -60.708740 114.000000 133.000000 0.924310 -0.313783 0.217234
1.66999996 1.01999998 -0.68000001 20 232 129 97.000000 1.000000 4.000000 1.000000 -60.708740 114.000000 133.000000 0.830450 -0.546387 0.108698
1.63999999 0.97000003 -0.67000002 20 232 129 97.000000 1.000000 4.000000 1.000000 -60.708740 114.000000 133.000000 0.681997 -0.700639 0.209726
1.63999999 0.97000003 -0.68000001 20 232 129 97.000000 1.000000 4.000000 1.000000 -60.708740 114.000000 133.000000 0.785735 -0.610803 0.097670
1.70000005 1.41999996 -0.70999998 20 232 129 97.000000 1.000000 4.000000 1.000000 -60.708740 114.000000 133.000000 0.569854 0.241993 0.785306
1.70000005 1.41999996 -0.70999998 20 232 129 97.000000 1.000000 4.000000 1.000000 -60.708740 114.000000 133.000000 0.569854 0.241993 0.785306
1.70000005 1.38999999 -0.74000001 20 232 129 97.000000 1.000000 4.000000 1.000000 -60.708740 114.000000 133.000000 0.677452 0.107743 0.727633
1.70000005 1.38999999 -0.74000001 20 232 129 97.000000 1.000000 4.000000 1.000000 -60.708740 114.000000 133.000000 0.677452 0.107743 0.727633
1.73000002 1.38000000 -0.72000003 20 232 129 97.000000 1.000000 4.000000 1.000000 -60.708740 114.000000 133.000000 0.839172 0.108327 0.532968
1.75999999 1.30999994 -0.72000003 20 232 129 97.000000 1.000000 4.000000 1.000000 -60.708740 114.000000 133.000000 0.797005 0.183691 0.575362
1.74000001 1.33000004 -0.74000001 20 232 129 97.000000 1.000000 4.000000 1.000000 -60.708740 114.000000 133.000000 0.706749 0.133547 0.694745
1.69000006 1.38000000 -0.73000002 20 232 129 97.000000 1.000000 4.000000 1.000000 -60.708740 114.000000 133.000000 0.590642 0.211274 0.778784
1.70000005 1.38000000 -0.74000001 20 232 129 97.000000 1.000000 4.000000 1.000000 -60.708740 114.000000 133.000000 0.731056 0.182381 0.657491
1.71000004 1.36000001 -0.75000000 20 232 129 97.000000 1.000000 4.000000 1.000000 -60.708740 114.000000 133.000000 0.802073 0.061260 0.594076
1.70000005 1.37000000 -0.74000001 20 232 129 97.000000 1.000000 4.000000 1.000000 -60.708740 114.000000 133.000000 0.776604 0.012459 0.629866
1.69000006 1.33000004 -0.74000001 20 232 129 97.000000 1.000000 4.000000 1.000000 -60.708740 114.000000 133.000000 0.704654 0.123650 0.698695
1.62000000 1.45000005 -0.74000001 20 232 129 97.000000 1.000000 4.000000 1.000000 -60.708740 114.000000 133.000000 0.711573 0.620803 0.329042
1.62000000 1.42999995 -0.73000002 20 232 129 97.000000 1.000000 4.000000 1.000000 -60.708740 114.000000 133.000000 0.557942 0.537715 0.632110
1.62000000 1.42999995 -0.74000001 20 232 129 97.000000 1.000000 4.000000 1.000000 -60.708740 114.000000 133.000000 0.562036 0.551909 0.616045
1.67999995 1.36000001 -0.74000001 20 232 129 97.000000 1.000000 4.000000 1.000000 -60.708740 114.000000 133.000000 0.408183 0.424190 0.808362
1.63999999 1.38000000 -0.75000000 20 232 129 97.000000 1.000000 4.000000 1.000000 -60.708740 114.000000 133.000000 0.547790 0.308232 0.777766
1.66999996 1.33000004 -0.70999998 20 232 129 97.000000 1.000000 4.000000 1.000000 -60.708740 114.000000 133.000000 0.503151 0.594021 0.627677
1.66999996 1.30999994 -0.69999999 20 232 129 97.000000 1.000000 4.000000 1.000000 -60.708740 114.000000 133.000000 0.591318 0.012405 0.806343
1.66999996 1.32000005 -0.69999999 20 232 129 97.000000 1.000000 4.000000 1.000000 -60.708740 114.000000 133.000000 0.762715 -0.123402 0.634852
1.67999995 1.33000004 -0.73000002 20 232 129 97.000000 1.000000 4.000000 1.000000 -60.708740 114.000000 133.000000 0.799794 0.122252 0.587694
1.64999998 1.32000005 -0.73000002 20 232 129 97.000000 1.000000 4.000000 1.000000 -60.708740 114.000000 133.000000 0.751144 0.110679 0.650794
1.67999995 1.33000004 -0.73000002 20 232 129 97.000000 1.000000 4.000000 1.000000 -60.708740 114.000000 133.000000 0.799794 0.122252 0.587694
1.64999998 1.32000005 -0.72000003 20 232 129 97.000000 1.000000 4.000000 1.000000 -60.708740 114.000000 133.000000 0.927255 0.245659 0.282578
1.67999995 1.34000003 -0.69999999 20 232 129 97.000000 1.000000 4.000000 1.000000 -60.708740 114.000000 133.000000 0.767787 0.225820 0.599590
1.66999996 1.32000005 -0.69999999 20 232 129 97.000000 1.000000 4.000000 1.000000 -60.708740 114.000000 133.000000 0.762715 -0.123402 0.634852
1.64999998 1.32000005 -0.72000003 20 232 129 97.000000 1.000000 4.000000 1.000000 -60.708740 114.000000 133.000000 0.927255 0.245659 0.282578
1.67999995 1.30999994 -0.69999999 20 232 129 97.000000 1.000000 4.000000 1.000000 -60.708740 114.000000 133.000000 0.664827 -0.076767 0.743042
1.64999998 1.30999994 -0.72000003 20 232 129 97.000000 1.000000 4.000000 1.000000 -60.708740 114.000000 133.000000 0.761815 -0.015320 0.647613
1.67999995 1.30999994 -0.69999999 20 232 129 97.000000 1.000000 4.000000 1.000000 -60.708740 114.000000 133.000000 0.664827 -0.076767 0.743042
1.64999998 1.32000005 -0.73000002 20 232 129 97.000000 1.000000 4.000000 1.000000 -60.708740 114.000000 133.000000 0.751144 0.110679 0.650794
1.66999996 1.32000005 -0.69999999 20 232 129 97.000000 1.000000 4.000000 1.000000 -60.708740 114.000000 133.000000 0.762715 -0.123402 0.634852
1.63000000 1.35000002 -0.72000003 20 232 129 97.000000 1.000000 4.000000 1.000000 -60.708740 114.000000 133.000000 0.839965 0.054689 0.539877
1.61000001 1.35000002 -0.73000002 20 232 129 97.000000 1.000000 4.000000 1.000000 -60.708740 114.000000 133.000000 0.897741 0.196426 0.394307
1.62000000 1.35000002 -0.69999999 20 232 129 97.000000 1.000000 4.000000 1.000000 -60.708740 114.000000 133.000000 0.707312 0.143272 0.692231
1.61000001 1.33000004 -0.73000002 20 232 129 97.000000 1.000000 4.000000 1.000000 -60.708740 114.000000 133.000000 0.638804 0.344726 0.687818
1.67999995 1.36000001 -0.80000001 20 232 129 97.000000 1.000000 4.000000 1.000000 -60.708740 114.000000 133.000000 0.436080 0.215807 0.873648
1.61000001 1.33000004 -0.87000000 20 232 129 97.000000 1.000000 4.000000 1.000000 -60.708740 114.000000 133.000000 0.701189 0.554622 0.448028
1.80999994 1.30999994 -1.16999996 20 232 129 97.000000 1.000000 4.000000 1.000000 -60.708740 114.000000 133.000000 -0.670395 0.713746 0.202822
1.82000005 1.30999994 -1.16999996 20 232 129 97.000000 1.000000 4.000000 1.000000 -60.708740 114.000000 133.000000 -0.607005 0.759926 0.232503
1.77999997 1.37000000 -1.16999996 20 232 129 97.000000 1.000000 4.000000 1.000000 -60.708740 114.000000 133.000000 -0.395314 0.911303 -0.115127
1.78999996 1.30999994 -1.14999998 20 232 129 97.000000 1.000000 4.000000 1.000000 -60.708740 114.000000 133.000000 -0.437383 0.782087 -0.443887
1.77999997 1.30999994 -1.13000000 20 232 129 97.000000 1.000000 4.000000 1.000000 -60.708740 114.000000 133.000000 -0.383909 0.853305 -0.352824
1.79999995 1.30999994 -1.15999997 20 232 129 97.000000 1.000000 4.000000 1.000000 -60.708740 114.000000 133.000000 -0.616374 0.776780 -0.129216
1.75000000 1.35000002 -1.16999996 20 232 129 97.000000 1.000000 4.000000 1.000000 -60.708740 114.000000 133.000000 -0.011327 0.942674 0.333523
1.75999999 1.32000005 -1.15999997 20 232 129 97.000000 1.000000 4.000000 1.000000 -60.708740 114.000000 133.000000 -0.448485 0.890028 -0.081921
1.70000005 1.37000000 -1.13000000 20 232 129 97.000000 1.000000 4.000000 1.000000 -60.708740 114.000000 133.000000 -0.026721 0.942865 0.332102
1.72000003 1.36000001 -1.16999996 20 232 129 97.000000 1.000000 4.000000 1.000000 -60.708740 114.000000 133.000000 0.054869 0.997319 0.048414
1.72000003 1.36000001 -1.16999996 20 232 129 97.000000 1.000000 4.000000 1.000000 -60.708740 114.000000 133.000000 0.054869 0.997319 0.048414
1.60000002 1.30999994 -1.08000004 20 232 129 97.000000 1.000000 4.000000 1.000000 -60.708740 114.000000 133.000000 0.825143 0.248314 0.507424
1.76999998 1.24000001 -0.76999998 20 232 129 97.000000 1.000000 4.000000 1.000000 -60.708740 114.000000 133.000000 0.873518 -0.398155 0.280071
1.78999996 1.17999995 -0.74000001 20 232 129 97.000000 1.000000 4.000000 1.000000 -60.708740 114.000000 133.000000 0.706355 -0.556774 0.437109
1.76999998 1.19000006 -0.81999999 20 232 129 97.000000 1.000000 4.000000 1.000000 -60.708740 114.000000 133.000000 -0.618152 0.654808 -0.434873
1.76999998 1.19000006 -0.81999999 20 232 129 97.000000 1.000000 4.000000 1.000000 -60.708740 114.000000 133.000000 -0.618152 0.654808 -0.434873
1.80999994 1.16999996 -0.88999999 20 232 129 97.000000 1.000000 4.000000 1.000000 -60.708740 114.000000 133.000000 0.727217 -0.542527 0.420500
1.78999996 1.13999999 -0.98000002 20 232 129 97.000000 1.000000 4.000000 1.000000 -60.708740 114.000000 133.000000 -0.393072 0.918920 0.032866
1.78999996 1.13999999 -0.98000002 20 232 129 97.000000 1.000000 4.000000 1.000000 -60.708740 114.000000 133.000000 -0.393072 0.918920 0.032866
1.77999997 1.13999999 -0.95999998 20 232 129 97.000000 1.000000 4.000000 1.000000 -60.708740 114.000000 133.000000 -0.261851 0.963460 -0.056379
1.78999996 1.13000000 -1.01999998 20 232 129 97.000000 1.000000 4.000000 1.000000 -60.708740 114.000000 133.000000 -0.408435 0.875649 0.257721
1.78999996 1.13000000 -1.01999998 20 232 129 97.000000 1.000000 4.000000 1.000000 -60.708740 114.000000 133.000000 -0.408435 0.875649 0.257721
1.72000003 1.27999997 -0.72000003 20 232 129 97.000000 1.000000 4.000000 1.000000 -60.708740 114.000000 133.000000 0.696263 0.117281 0.708140
1.70000005 1.27999997 -0.69999999 20 232 129 97.000000 1.000000 4.000000 1.000000 -60.708740 114.000000 133.000000 0.659084 -0.089144 0.746767
1.72000003 1.25999999 -0.73000002 20 232 129 97.000000 1.000000 4.000000 1.000000 -60.708740 114.000000 133.000000 0.797846 0.004120 0.602847
1.69000006 1.24000001 -0.75999999 20 232 129 97.000000 1.000000 4.000000 1.000000 -60.708740 114.000000 133.000000 0.885538 -0.416984 0.204808
1.75000000 1.23000002 -0.85000002 20 232 129 97.000000 1.000000 4.000000 1.000000 -60.708740 114.000000 133.000000 0.688317 -0.354786 0.632729
1.73000002 1.22000003 -0.75000000 20 232 129 97.000000 1.000000 4.000000 1.000000 -60.708740 114.000000 133.000000 0.791245 -0.064387 0.608100
1.70000005 1.20000005 -0.85000002 20 232 129 97.000000 1.000000 4.000000 1.000000 -60.708740 114.000000 133.000000 -0.570734 0.767868 -0.290931
1.63999999 1.29999995 -0.73000002 20 232 129 97.000000 1.000000 4.000000 1.000000 -60.708740 114.000000 133.000000 0.515023 0.448782 0.730306
1.66999996 1.27999997 -0.69999999 20 232 129 97.000000 1.000000 4.000000 1.000000 -60.708740 114.000000 133.000000 0.690097 0.294377 0.661142
1.67999995 1.27999997 -0.70999998 20 232 129 97.000000 1.000000 4.000000 1.000000 -60.708740 114.000000 133.000000 0.602501 0.357582 0.713531
1.63999999 1.27999997 -0.75000000 20 232 129 97.000000 1.000000 4.000000 1.000000 -60.708740 114.000000 133.000000 0.971579 -0.042667 0.232838
1.65999997 1.25000000 -0.70999998 20 232 129 97.000000 1.000000 4.000000 1.000000 -60.708740 114.000000 133.000000 0.690311 -0.001383 0.723512
1.63000000 1.27999997 -0.72000003 20 232 129 97.000000 1.000000 4.000000 1.000000 -60.708740 114.000000 133.000000 0.778549 -0.297727 0.552467
1.61000001 1.26999998 -0.76999998 20 232 129 97.000000 1.000000 4.000000 1.000000 -60.708740 114.000000 133.000000 0.674517 0.185915 0.714466
1.66999996 1.20000005 -0.70999998 20 232 129 97.000000 1.000000 4.000000 1.000000 -60.708740 114.000000 133.000000 -0.699352 0.563136 -0.440210
1.63999999 1.22000003 -0.74000001 20 232 129 97.000000 1.000000 4.000000 1.000000 -60.708740 114.000000 133.000000 0.843043 -0.126675 0.522716
1.63999999 1.15999997 -0.72000003 20 232 129 97.000000 1.000000 4.000000 1.000000 -60.708740 114.000000 133.000000 0.546063 -0.502378 0.670397
1.63000000 1.22000003 -0.73000002 20 232 129 97.000000 1.000000 4.000000 1.000000 -60.708740 114.000000 133.000000 0.728933 -0.282322 0.623660
1.63000000 1.22000003 -0.69999999 20 232 129 97.000000 1.000000 4.000000 1.000000 -60.708740 114.000000 133.000000 0.737953 -0.172647 0.652394
1.60000002 1.20000005 -0.80000001 20 232 129 97.000000 1.000000 4.000000 1.000000 -60.708740 114.000000 133.000000 -0.687961 0.722575 0.067786
1.60000002 1.19000006 -0.83999997 20 232 129 97.000000 1.000000 4.000000 1.000000 -60.708740 114.000000 133.000000 -0.523456 0.816838 0.242426
1.61000001 1.16999996 -0.81999999 20 232 129 97.000000 1.000000 4.000000 1.000000 -60.708740 114.000000 133.000000 -0.753373 0.594097 -0.281918
1.75999999 1.25000000 -0.94000000 20 232 129 97.000000 1.000000 4.000000 1.000000 -60.708740 114.000000 133.000000 0.844905 -0.338899 0.413863
1.75999999 1.17999995 -0.88000000 20 232 129 97.000000 1.000000 4.000000 1.000000 -60.708740 114.000000 133.000000 -0.435908 0.799433 -0.413389
1.75000000 1.22000003 -0.86000001 20 232 129 97.000000 1.000000 4.000000 1.000000 -60.708740 114.000000 133.000000 0.644249 -0.509680 0.570236
1.75000000 1.22000003 -0.86000001 20 232 129 97.000000 1.000000 4.000000 1.000000 -60.708740 114.000000 133.000000 0.644249 -0.509680 0.570236
1.74000001 1.19000006 -0.97000003 20 232 129 97.000000 1.000000 4.000000 1.000000 -60.708740 114.000000 133.000000 -0.365229 0.920710 -0.137482
1.75000000 1.16999996 -1.00999999 20 232 129 97.000000 1.000000 4.000000 1.000000 -60.708740 114.000000 133.000000 -0.401279 0.813748 -0.420463
1.60000002 1.28999996 -0.88999999 20 232 129 97.000000 1.000000 4.000000 1.000000 -60.708740 114.000000 133.000000 0.971353 -0.037687 0.234632
1.60000002 1.23000002 -0.94000000 20 232 129 97.000000 1.000000 4.000000 1.000000 -60.708740 114.000000 133.000000 -0.010424 0.981058 0.193432
1.62000000 1.23000002 -1.00999999 20 232 129 97.000000 1.000000 4.000000 1.000000 -60.708740 114.000000 133.000000 -0.321430 0.882801 0.342557
1.60000002 1.20000005 -0.87000000 20 232 129 97.000000 1.000000 4.000000 1.000000 -60.708740 114.000000 133.000000 -0.592085 0.762605 0.260517
1.61000001 1.19000006 -0.91000003 20 232 129 97.000000 1.000000 4.000000 1.000000 -60.708740 114.000000 133.000000 -0.491636 0.870237 0.031323
1.60000002 1.19000006 -0.98000002 20 232 129 97.000000 1.000000 4.000000 1.000000 -60.708740 114.000000 133.000000 -0.180783 0.788456 0.587924
1.70000005 1.12000000 -0.81000000 20 232 129 97.000000 1.000000 4.000000 1.000000 -60.708740 114.000000 133.000000 0.734181 -0.420710 0.532900
1.71000004 1.12000000 -0.81000000 20 232 129 97.000000 1.000000 4.000000 1.000000 -60.708740 114.000000 133.000000 0.653713 -0.482303 0.583132
1.69000006 1.00000000 -0.75999999 20 232 129 97.000000 1.000000 4.000000 1.000000 -60.708740 114.000000 133.000000 0.728263 -0.530096 0.434316
1.69000006 0.99000001 -0.81999999 20 232 129 97.000000 1.000000 4.000000 1.000000 -60.708740 114.000000 133.000000 0.672497 -0.685276 0.279542
1.63999999 1.01999998 -0.75999999 20 232 129 97.000000 1.000000 4.000000 1.000000 -60.708740 114.000000 133.000000 -0.646223 0.678943 -0.348470
1.65999997 0.99000001 -0.75999999 20 232 129 97.000000 1.000000 4.000000 1.000000 -60.708740 114.000000 133.000000 0.791096 -0.611615 -0.009664
1.60000002 0.98000002 -0.69999999 20 232 129 97.000000 1.000000 4.000000 1.000000 -60.708740 114.000000 133.000000 -0.696949 0.711560 0.089128
1.60000002 0.99000001 -0.70999998 20 232 129 97.000000 1.000000 4.000000 1.000000 -60.708740 114.000000 133.000000 0.690304 -0.638083 0.341072
1.62000000 0.97000003 -0.74000001 20 232 129 97.000000 1.000000 4.000000 1.000000 -60.708740 114.000000 133.000000 0.719684 -0.609214 0.333037
1.60000002 1.00000000 -0.74000001 20 232 129 97.000000 1.000000 4.000000 1.000000 -60.708740 114.000000 133.000000 -0.290285 0.870854 -0.396672
1.62000000 0.97000003 -0.74000001 20 232 129 97.000000 1.000000 4.000000 1.000000 -60.708740 114.000000 133.000000 0.719684 -0.609214 0.333037
1.61000001 1.00000000 -0.75000000 20 232 129 97.000000 1.000000 4.000000 1.000000 -60.708740 114.000000 133.000000 0.544445 -0.785715 0.293651
1.62000000 0.98000002 -0.76999998 20 232 129 97.000000 1.000000 4.000000 1.000000 -60.708740 114.000000 133.000000 0.719485 -0.694338 0.015368
1.63999999 1.03999996 -0.85000002 20 232 129 97.000000 1.000000 4.000000 1.000000 -60.708740 114.000000 133.000000 -0.645662 0.738120 0.195702
1.67999995 0.98000002 -0.79000002 20 232 129 97.000000 1.000000 4.000000 1.000000 -60.708740 114.000000 133.000000 -0.513920 0.801715 -0.305189
1.67999995 0.98000002 -0.80000001 20 232 129 97.000000 1.000000 4.000000 1.000000 -60.708740 114.000000 133.000000 -0.355828 0.841760 -0.405989
1.67999995 0.98000002 -0.80000001 20 232 129 97.000000 1.000000 4.000000 1.000000 -60.708740 114.000000 133.000000 -0.355828 0.841760 -0.405989
1.67999995 0.98000002 -0.81999999 20 232 129 97.000000 1.000000 4.000000 1.000000 -60.708740 114.000000 133.000000 -0.667229 0.644164 -0.373977
1.62000000 0.99000001 -0.80000001 20 232 129 97.000000 1.000000 4.000000 1.000000 -60.708740 114.000000 133.000000 0.757726 -0.633707 0.155780
1.62000000 0.97000003 -0.81000000 20 232 129 97.000000 1.000000 4.000000 1.000000 -60.708740 114.000000 133.000000 -0.536659 0.843710 0.012228
1.61000001 0.97000003 -0.81000000 20 232 129 97.000000 1.000000 4.000000 1.000000 -60.708740 114.000000 133.000000 -0.609356 0.780035 0.142233
1.61000001 0.98000002 -0.85000002 20 232 129 97.000000 1.000000 4.000000 1.000000 -60.708740 114.000000 133.000000 -0.574394 0.796839 0.187402
1.66999996 1.04999995 -0.89999998 20 232 129 97.000000 1.000000 4.000000 1.000000 -60.708740 114.000000 133.000000 0.714466 -0.674517 0.185915
1.66999996 1.02999997 -0.93000001 20 232 129 97.000000 1.000000 4.000000 1.000000 -60.708740 114.000000 133.000000 -0.699723 0.713802 0.029566
1.63999999 0.99000001 -0.93000001 20 232 129 97.000000 1.000000 4.000000 1.000000 -60.708740 114.000000 133.000000 -0.628303 0.777297 0.032329
1.66999996 0.99000001 -0.92000002 20 232 129 97.000000 1.000000 4.000000 1.000000 -60.708740 114.000000 133.000000 -0.312236 0.891889 -0.327175
1.63999999 0.99000001 -0.92000002 20 232 129 97.000000 1.000000 4.000000 1.000000 -60.708740 114.000000 133.000000 -0.530477 0.836126 -0.139599
1.61000001 0.99000001 -0.89999998 20 232 129 97.000000 1.000000 4.000000 1.000000 -60.708740 114.000000 133.000000 -0.431352 0.759377 0.487116
1.66999996 0.97000003 -1.00000000 20 232 129 97.000000 1.000000 4.000000 1.000000 -60.708740 114.000000 133.000000 -0.553364 0.745981 0.370542
1.66999996 0.97000003 -1.00000000 20 232 129 97.000000 1.000000 4.000000 1.000000 -60.708740 114.000000 133.000000 -0.553364 0.745981 0.370542
1.61000001 0.99000001 -0.97000003 20 232 129 97.000000 1.000000 4.000000 1.000000 -60.708740 114.000000 133.000000 -0.079161 0.795932 0.600188
1.79999995 1.29999995 -1.15999997 20 232 129 97.000000 1.000000 4.000000 1.000000 -60.708740 114.000000 133.000000 -0.452020 0.885734 -0.105612
1.75000000 1.23000002 -1.02999997 20 232 129 97.000000 1.000000 4.000000 1.000000 -60.708740 114.000000 133.000000 0.736361 -0.608019 0.296790
1.74000001 1.29999995 -1.13000000 20 232 129 97.000000 1.000000 4.000000 1.000000 -60.708740 114.000000 133.000000 -0.439194 0.839314 0.320408
1.74000001 1.23000002 -1.13000000 20 232 129 97.000000 1.000000 4.000000 1.000000 -60.708740 114.000000 133.000000 -0.387870 0.913372 0.123729
1.73000002 1.23000002 -1.13000000 20 232 129 97.000000 1.000000 4.000000 1.000000 -60.708740 114.000000 133.000000 -0.416731 0.885000 0.207629
1.69000006 1.24000001 -1.19000006 20 232 129 97.000000 1.000000 4.000000 1.000000 -60.708740 114.000000 133.000000 0.130945 0.924882 0.356996
1.72000003 1.23000002 -1.15999997 20 232 129 97.000000 1.000000 4.000000 1.000000 -60.708740 114.000000 133.000000 -0.428170 0.829481 0.358652
1.73000002 1.17999995 -1.05999994 20 232 129 97.000000 1.000000 4.000000 1.000000 -60.708740 114.000000 133.000000 -0.355853 0.903544 -0.238700
1.73000002 1.20000005 -1.08000004 20 232 129 97.000000 1.000000 4.000000 1.000000 -60.708740 114.000000 133.000000 -0.202563 0.972553 -0.114492
1.73000002 1.20000005 -1.08000004 20 232 129 97.000000 1.000000 4.000000 1.000000 -60.708740 114.000000 133.000000 -0.202563 0.972553 -0.114492
1.71000004 1.17999995 -1.04999995 20 232 129 97.000000 1.000000 4.000000 1.000000 -60.708740 114.000000 133.000000 -0.210049 0.956591 -0.202021
1.72000003 1.20000005 -1.09000003 20 232 129 97.000000 1.000000 4.000000 1.000000 -60.708740 114.000000 133.000000 -0.262594 0.933824 0.242935
1.70000005 1.22000003 -1.11000001 20 232 129 97.000000 1.000000 4.000000 1.000000 -60.708740 114.000000 133.000000 0.211189 0.915151 0.343361
1.70000005 1.20000005 -1.09000003 20 232 129 97.000000 1.000000 4.000000 1.000000 -60.708740 114.000000 133.000000 -0.353858 0.773964 0.525132
1.72000003 1.21000004 -1.11000001 20 232 129 97.000000 1.000000 4.000000 1.000000 -60.708740 114.000000 133.000000 -0.491466 0.849982 0.189715
1.72000003 1.21000004 -1.10000002 20 232 129 97.000000 1.000000 4.000000 1.000000 -60.708740 114.000000 133.000000 -0.437161 0.897475 0.058561
1.73000002 1.20000005 -1.14999998 20 232 129 97.000000 1.000000 4.000000 1.000000 -60.708740 114.000000 133.000000 -0.372828 0.918904 -0.128896
1.74000001 1.16999996 -1.13999999 20 232 129 97.000000 1.000000 4.000000 1.000000 -60.708740 114.000000 133.000000 -0.177303 0.983855 -0.024336
1.71000004 1.22000003 -1.14999998 20 232 129 97.000000 1.000000 4.000000 1.000000 -60.708740 114.000000 133.000000 -0.088049 0.996116 -0.001061
1.72000003 1.20000005 -1.13999999 20 232 129 97.000000 1.000000 4.000000 1.000000 -60.708740 114.000000 133.000000 -0.388797 0.788887 0.475914
1.69000006 1.21000004 -1.12000000 20 232 129 97.000000 1.000000 4.000000 1.000000 -60.708740 114.000000 133.000000 0.181618 0.910950 0.370386
1.71000004 1.22000003 -1.14999998 20 232 129 97.000000 1.000000 4.000000 1.000000 -60.708740 114.000000 133.000000 -0.088049 0.996116 -0.001061
1.69000006 1.22000003 -1.14999998 20 232 129 97.000000 1.000000 4.000000 1.000000 -60.708740 114.000000 133.000000 0.252353 0.898732 0.358607
1.71000004 1.22000003 -1.14999998 20 232 129 97.000000 1.000000 4.000000 1.000000 -60.708740 114.000000 133.000000 -0.088049 0.996116 -0.001061
1.71000004 1.22000003 -1.15999997 20 232 129 97.000000 1.000000 4.000000 1.000000 -60.708740 114.000000 133.000000 -0.324476 0.945651 0.021463
1.69000006 1.21000004 -1.15999997 20 232 129 97.000000 1.000000 4.000000 1.000000 -60.708740 114.000000 133.000000 -0.070629 0.996408 -0.046724
1.65999997 1.24000001 -1.09000003 20 232 129 97.000000 1.000000 4.000000 1.000000 -60.708740 114.000000 133.000000 0.091681 0.912707 0.398197
1.65999997 1.25999999 -1.14999998 20 232 129 97.000000 1.000000 4.000000 1.000000 -60.708740 114.000000 133.000000 0.398695 0.821215 0.408225
1.65999997 1.25999999 -1.14999998 20 232 129 97.000000 1.000000 4.000000 1.000000 -60.708740 114.000000 133.000000 0.398695 0.821215 0.408225
1.65999997 1.25000000 -1.13000000 20 232 129 97.000000 1.000000 4.000000 1.000000 -60.708740 114.000000 133.000000 0.273256 0.862513 0.425913
1.65999997 1.24000001 -1.19000006 20 232 129 97.000000 1.000000 4.000000 1.000000 -60.708740 114.000000 133.000000 -0.001377 0.775059 0.631887
1.67999995 1.24000001 -1.16999996 20 232 129 97.000000 1.000000 4.000000 1.000000 -60.708740 114.000000 133.000000 -0.210911 0.866081 0.453234
1.60000002 1.27999997 -1.13000000 20 232 129 97.000000 1.000000 4.000000 1.000000 -60.708740 114.000000 133.000000 0.452203 0.475224 0.754768
1.63000000 1.24000001 -1.12000000 20 232 129 97.000000 1.000000 4.000000 1.000000 -60.708740 114.000000 133.000000 0.167445 0.801020 0.574743
1.67999995 1.21000004 -1.16999996 20 232 129 97.000000 1.000000 4.000000 1.000000 -60.708740 114.000000 133.000000 0.073587 0.992852 0.093964
1.67999995 1.20000005 -1.12000000 20 232 129 97.000000 1.000000 4.000000 1.000000 -60.708740 114.000000 133.000000 -0.010021 0.989900 0.141414
1.66999996 1.24000001 -1.20000005 20 232 129 97.000000 1.000000 4.000000 1.000000 -60.708740 114.000000 133.000000 -0.190539 0.800265 0.568569
1.64999998 1.05999994 -1.11000001 20 232 129 97.000000 1.000000 4.000000 1.000000 -60.708740 114.000000 133.000000 -0.123580 0.725105 0.677459
1.66999996 1.08000004 -1.13999999 20 232 129 97.000000 1.000000 4.000000 1.000000 -60.708740 114.000000 133.000000 0.352109 0.904380 0.241071
1.65999997 1.08000004 -1.12000000 20 232 129 97.000000 1.000000 4.000000 1.000000 -60.708740 114.000000 133.000000 0.001355 0.830587 0.556887
1.66999996 1.02999997 -1.03999996 20 232 129 97.000000 1.000000 4.000000 1.000000 -60.708740 114.000000 133.000000 -0.223033 0.813685 0.536817
1.62000000 1.00999999 -1.03999996 20 232 129 97.000000 1.000000 4.000000 1.000000 -60.708740 114.000000 133.000000 -0.427070 0.858731 0.283182
1.60000002 0.98000002 -1.04999995 20 232 129 97.000000 1.000000 4.000000 1.000000 -60.708740 114.000000 133.000000 -0.255848 0.783242 0.566634
1.63999999 1.00999999 -1.19000006 20 232 129 97.000000 1.000000 4.000000 1.000000 -60.708740 114.000000 133.000000 -0.355830 0.864159 0.355830
1.63000000 1.01999998 -1.16999996 20 232 129 97.000000 1.000000 4.000000 1.000000 -60.708740 114.000000 133.000000 -0.141329 0.798878 0.584654
1.63000000 1.12000000 -1.24000001 20 232 129 97.000000 1.000000 4.000000 1.000000 -60.708740 114.000000 133.000000 0.215680 0.752551 0.622213
1.65999997 1.00000000 -1.20000005 20 232 129 97.000000 1.000000 4.000000 1.000000 -60.708740 114.000000 133.000000 -0.182364 0.752442 0.632910
1.61000001 1.02999997 -1.24000001 20 232 129 97.000000 1.000000 4.000000 1.000000 -60.708740 114.000000 133.000000 -0.203867 0.870525 0.447911
1.70000005 0.95999998 -0.50999999 20 232 129 97.000000 1.000000 4.000000 1.000000 -60.708740 114.000000 133.000000 0.934725 -0.175867 0.308805
1.63999999 0.93000001 -0.43000001 20 232 129 97.000000 1.000000 4.000000 1.000000 -60.708740 114.000000 133.000000 0.935926 -0.190523 0.296214
1.63999999 0.93000001 -0.43000001 20 232 129 97.000000 1.000000 4.000000 1.000000 -60.708740 114.000000 133.000000 0.935926 -0.190523 0.296214
1.63999999 0.92000002 -0.43000001 20 232 129 97.000000 1.000000 4.000000 1.000000 -60.708740 114.000000 133.000000 0.932520 -0.255350 0.255350
1.63999999 0.92000002 -0.43000001 20 232 129 97.000000 1.000000 4.000000 1.000000 -60.708740 114.000000 133.000000 0.932520 -0.255350 0.255350
1.61000001 0.93000001 -0.38999999 20 232 129 97.000000 1.000000 4.000000 1.000000 -60.708740 114.000000 133.000000 0.962500 -0.198278 0.185147
1.66999996 0.91000003 -0.50999999 20 232 129 97.000000 1.000000 4.000000 1.000000 -60.708740 114.000000 133.000000 0.844353 -0.348042 0.407350
1.63000000 0.91000003 -0.50000000 20 232 129 97.000000 1.000000 4.000000 1.000000 -60.708740 114.000000 133.000000 0.917030 -0.360312 0.170972
1.72000003 0.94999999 -0.52999997 20 232 129 97.000000 1.000000 4.000000 1.000000 -60.708740 114.000000 133.000000 0.763709 -0.277857 0.582705
1.69000006 0.94000000 -0.52999997 20 232 129 97.000000 1.000000 4.000000 1.000000 -60.708740 114.000000 133.000000 0.926493 -0.322933 0.193196
1.65999997 0.93000001 -0.56000000 20 232 129 97.000000 1.000000 4.000000 1.000000 -60.708740 114.000000 133.000000 0.812127 -0.522193 0.260317
1.67999995 0.91000003 -0.55000001 20 232 129 97.000000 1.000000 4.000000 1.000000 -60.708740 114.000000 133.000000 0.594493 -0.621439 0.510287
1.67999995 0.91000003 -0.54000002 20 232 129 97.000000 1.000000 4.000000 1.000000 -60.708740 114.000000 133.000000 0.753506 -0.521407 0.400454
1.67999995 0.92000002 -0.60000002 20 232 129 97.000000 1.000000 4.000000 1.000000 -60.708740 114.000000 133.000000 0.896655 -0.395111 0.199743
1.62000000 0.92000002 -0.57999998 20 232 129 97.000000 1.000000 4.000000 1.000000 -60.708740 114.000000 133.000000 0.841210 -0.528471 0.114381
1.62000000 0.89999998 -0.60000002 20 232 129 97.000000 1.000000 4.000000 1.000000 -60.708740 114.000000 133.000000 0.741682 -0.662058 -0.107640
1.63999999 0.93000001 -0.61000001 20 232 129 97.000000 1.000000 4.000000 1.000000 -60.708740 114.000000 133.000000 0.754228 -0.656277 0.020990
1.63999999 0.93000001 -0.61000001 20 232 129 97.000000 1.000000 4.000000 1.000000 -60.708740 114.000000 133.000000 0.754228 -0.656277 0.020990
1.60000002 0.95999998 -0.66000003 20 232 129 97.000000 1.000000 4.000000 1.000000 -60.708740 114.000000 133.000000 -0.463605 0.866482 -0.185146
1.63000000 0.95999998 -0.67000002 20 232 129 97.000000 1.000000 4.000000 1.000000 -60.708740 114.000000 133.000000 -0.687961 0.722575 0.067786
1.61000001 0.88999999 -0.61000001 20 232 129 97.000000 1.000000 4.000000 1.000000 -60.708740 114.000000 133.000000 -0.419730 0.850303 -0.317508
1.61000001 0.88999999 -0.61000001 20 232 129 97.000000 1.000000 4.000000 1.000000 -60.708740 114.000000 133.000000 -0.419730 0.850303 -0.317508
1.61000001 0.92000002 -0.63000000 20 232 129 97.000000 1.000000 4.000000 1.000000 -60.708740 114.000000 133.000000 -0.422141 0.826891 -0.371548
1.61000001 0.88999999 -0.61000001 20 232 129 97.000000 1.000000 4.000000 1.000000 -60.708740 114.000000 133.000000 -0.419730 0.850303 -0.317508
1.60000002 0.89999998 -0.67000002 20 232 129 97.000000 1.000000 4.000000 1.000000 -60.708740 114.000000 133.000000 -0.565939 0.792315 -0.227926
1.63000000 0.92000002 -0.68000001 20 232 129 97.000000 1.000000 4.000000 1.000000 -60.708740 114.000000 133.000000 0.617249 -0.680133 0.395503
1.62000000 0.92000002 -0.67000002 20 232 129 97.000000 1.000000 4.000000 1.000000 -60.708740 114.000000 133.000000 0.779604 -0.608361 -0.148711
1.63000000 0.92000002 -0.68000001 20 232 129 97.000000 1.000000 4.000000 1.000000 -60.708740 114.000000 133.000000 0.617249 -0.680133 0.395503
1.62000000 0.92000002 -0.67000002 20 232 129 97.000000 1.000000 4.000000 1.000000 -60.708740 114.000000 133.000000 0.779604 -0.608361 -0.148711
1.63999999 0.95999998 -0.74000001 20 232 129 97.000000 1.000000 4.000000 1.000000 -60.708740 114.000000 133.000000 -0.596493 0.757878 0.264229
1.63999999 0.94999999 -0.74000001 20 232 129 97.000000 1.000000 4.000000 1.000000 -60.708740 114.000000 133.000000 -0.660656 0.733556 0.159469
1.63000000 0.94999999 -0.70999998 20 232 129 97.000000 1.000000 4.000000 1.000000 -60.708740 114.000000 133.000000 0.777431 -0.600256 -0.187866
1.63000000 0.94999999 -0.73000002 20 232 129 97.000000 1.000000 4.000000 1.000000 -60.708740 114.000000 133.000000 0.806626 -0.590788 0.017987
1.63000000 0.94999999 -0.72000003 20 232 129 97.000000 1.000000 4.000000 1.000000 -60.708740 114.000000 133.000000 0.796623 -0.583590 -0.157524
1.63000000 0.94999999 -0.73000002 20 232 129 97.000000 1.000000 4.000000 1.000000 -60.708740 114.000000 133.000000 0.806626 -0.590788 0.017987
1.63000000 0.94999999 -0.70999998 20 232 129 97.000000 1.000000 4.000000 1.000000 -60.708740 114.000000 133.000000 0.777431 -0.600256 -0.187866
1.61000001 0.93000001 -0.76999998 20 232 129 97.000000 1.000000 4.000000 1.000000 -60.708740 114.000000 133.000000 0.711742 -0.664814 -0.226819
1.63000000 0.94999999 -0.75000000 20 232 129 97.000000 1.000000 4.000000 1.000000 -60.708740 114.000000 133.000000 -0.725420 0.636528 0.261913
1.62000000 0.92000002 -0.73000002 20 232 129 97.000000 1.000000 4.000000 1.000000 -60.708740 114.000000 133.000000 0.744371 -0.621620 0.243927
1.61000001 0.89999998 -0.73000002 20 232 129 97.000000 1.000000 4.000000 1.000000 -60.708740 114.000000 133.000000 -0.697496 0.672190 -0.248315
1.60000002 0.94999999 -0.81000000 20 232 129 97.000000 1.000000 4.000000 1.000000 -60.708740 114.000000 133.000000 -0.501148 0.792550 0.347441
1.60000002 0.94999999 -0.81999999 20 232 129 97.000000 1.000000 4.000000 1.000000 -60.708740 114.000000 133.000000 -0.653747 0.692488 0.305082
1.62000000 0.95999998 -0.81999999 20 232 129 97.000000 1.000000 4.000000 1.000000 -60.708740 114.000000 133.000000 -0.409309 0.817025 0.406124
1.70000005 0.85000002 -1.01999998 20 232 129 97.000000 1.000000 4.000000 1.000000 -60.708740 114.000000 133.000000 -0.601054 0.747731 0.282193
1.64999998 0.92000002 -0.93000001 20 232 129 97.000000 1.000000 4.000000 1.000000 -60.708740 114.000000 133.000000 -0.338369 0.808590 0.481341
1.64999998 0.91000003 -0.94000000 20 232 129 97.000000 1.000000 4.000000 1.000000 -60.708740 114.000000 133.000000 -0.623749 0.780041 -0.049729
1.65999997 0.88999999 -0.93000001 20 232 129 97.000000 1.000000 4.000000 1.000000 -60.708740 114.000000 133.000000 -0.464113 0.801358 0.377393
1.65999997 0.86000001 -0.94000000 20 232 129 97.000000 1.000000 4.000000 1.000000 -60.708740 114.000000 133.000000 -0.445866 0.872476 -0.199973
1.66999996 0.83999997 -0.87000000 20 232 129 97.000000 1.000000 4.000000 1.000000 -60.708740 114.000000 133.000000 -0.609125 0.764119 0.212341
1.70000005 0.75000000 -0.75000000 20 232 129 97.000000 1.000000 4.000000 1.000000 -60.708740 114.000000 133.000000 -0.685373 0.727593 0.029554
1.69000006 0.75000000 -0.74000001 20 232 129 97.000000 1.000000 4.000000 1.000000 -60.708740 114.000000 133.000000 -0.526749 0.774820 -0.349555
1.70000005 0.75000000 -0.75000000 20 232 129 97.000000 1.000000 4.000000 1.000000 -60.708740 114.000000 133.000000 -0.685373 0.727593 0.029554
1.65999997 0.77999997 -0.83999997 20 232 129 97.000000 1.000000 4.000000 1.000000 -60.708740 114.000000 133.000000 -0.663510 0.730316 0.162461
1.65999997 0.77999997 -0.83999997 20 232 129 97.000000 1.000000 4.000000 1.000000 -60.708740 114.000000 133.000000 -0.663510 0.730316 0.162461
1.65999997 0.73000002 -0.81000000 20 232 129 97.000000 1.000000 4.000000 1.000000 -60.708740 114.000000 133.000000 -0.545441 0.753849 0.366341
1.74000001 0.79000002 -0.86000001 20 232 129 97.000000 1.000000 4.000000 1.000000 -60.708740 114.000000 133.000000 0.711237 -0.702918 -0.006932
1.70000005 0.76999998 -0.87000000 20 232 129 97.000000 1.000000 4.000000 1.000000 -60.708740 114.000000 133.000000 -0.605831 0.795241 0.023676
1.72000003 0.76999998 -0.86000001 20 232 129 97.000000 1.000000 4.000000 1.000000 -60.708740 114.000000 133.000000 -0.698690 0.715358 -0.009723
1.67999995 0.77999997 -0.86000001 20 232 129 97.000000 1.000000 4.000000 1.000000 -60.708740 114.000000 133.000000 -0.546776 0.794313 -0.264771
1.67999995 0.95999998 -1.13000000 20 232 129 97.000000 1.000000 4.000000 1.000000 -60.708740 114.000000 133.000000 -0.364384 0.766015 0.529571
1.42999995 1.48000002 -0.04000000 20 232 129 97.000000 1.000000 4.000000 1.000000 -60.708740 114.000000 133.000000 0.354180 0.495211 0.793299
1.49000001 1.48000002 -0.17000000 20 232 129 97.000000 1.000000 4.000000 1.000000 -60.708740 114.000000 133.000000 0.743143 0.613212 0.267785
1.45000005 1.48000002 -0.16000000 20 232 129 97.000000 1.000000 4.000000 1.000000 -60.708740 114.000000 133.000000 0.519186 0.696143 0.495814
1.47000003 1.48000002 -0.16000000 20 232 129 97.000000 1.000000 4.000000 1.000000 -60.708740 114.000000 133.000000 0.633910 0.714151 0.296894
1.54999995 1.49000001 -0.23999999 20 232 129 97.000000 1.000000 4.000000 1.000000 -60.708740 114.000000 133.000000 0.741313 0.447429 0.500262
1.48000002 1.48000002 -0.20999999 20 232 129 97.000000 1.000000 4.000000 1.000000 -60.708740 114.000000 133.000000 0.776627 0.473791 0.415178
1.50000000 1.49000001 -0.27000001 20 232 129 97.000000 1.000000 4.000000 1.000000 -60.708740 114.000000 133.000000 0.479443 0.721653 0.499351
1.52999997 1.45000005 -0.18000001 20 232 129 97.000000 1.000000 4.000000 1.000000 -60.708740 114.000000 133.000000 0.769207 0.297809 0.565359
1.58000004 1.35000002 -0.05000000 20 232 129 97.000000 1.000000 4.000000 1.000000 -60.708740 114.000000 133.000000 0.853979 0.110888 0.508355
1.58000004 1.35000002 -0.05000000 20 232 129 97.000000 1.000000 4.000000 1.000000 -60.708740 114.000000 133.000000 0.853979 0.110888 0.508355
1.57000005 1.37000000 -0.08000000 20 232 129 97.000000 1.000000 4.000000 1.000000 -60.708740 114.000000 133.000000 0.599161 0.236223 0.764987
1.52999997 1.32000005 -0.08000000 20 232 129 97.000000 1.000000 4.000000 1.000000 -60.708740 114.000000 133.000000 0.826751 0.368323 0.425231
1.58000004 1.38000000 -0.14000000 20 232 129 97.000000 1.000000 4.000000 1.000000 -60.708740 114.000000 133.000000 0.565441 0.385155 0.729337
1.57000005 1.35000002 -0.12000000 20 232 129 97.000000 1.000000 4.000000 1.000000 -60.708740 114.000000 133.000000 0.673357 0.101667 0.732294
1.59000003 1.30999994 -0.12000000 20 232 129 97.000000 1.000000 4.000000 1.000000 -60.708740 114.000000 133.000000 0.881476 0.202282 0.426711
1.55999994 1.34000003 -0.11000000 20 232 129 97.000000 1.000000 4.000000 1.000000 -60.708740 114.000000 133.000000 0.532930 0.099116 0.840334
1.58000004 1.33000004 -0.17000000 20 232 129 97.000000 1.000000 4.000000 1.000000 -60.708740 114.000000 133.000000 0.787328 0.557887 0.262443
1.53999996 1.35000002 -0.11000000 20 232 129 97.000000 1.000000 4.000000 1.000000 -60.708740 114.000000 133.000000 0.801914 0.097510 0.589428
1.52999997 1.37000000 -0.14000000 20 232 129 97.000000 1.000000 4.000000 1.000000 -60.708740 114.000000 133.000000 0.785075 0.565692 0.252289
1.53999996 1.35000002 -0.11000000 20 232 129 97.000000 1.000000 4.000000 1.000000 -60.708740 114.000000 133.000000 0.801914 0.097510 0.589428
1.53999996 1.37000000 -0.11000000 20 232 129 97.000000 1.000000 4.000000 1.000000 -60.708740 114.000000 133.000000 0.625027 0.158905 0.764258
1.54999995 1.34000003 -0.12000000 20 232 129 97.000000 1.000000 4.000000 1.000000 -60.708740 114.000000 133.000000 0.587903 0.119349 0.800079
1.48000002 1.46000004 -0.07000000 20 232 129 97.000000 1.000000 4.000000 1.000000 -60.708740 114.000000 133.000000 0.427099 0.449835 0.784369
1.48000002 1.46000004 -0.07000000 20 232 129 97.000000 1.000000 4.000000 1.000000 -60.708740 114.000000 133.000000 0.427099 0.449835 0.784369
1.47000003 1.44000006 -0.09000000 20 232 129 97.000000 1.000000 4.000000 1.000000 -60.708740 114.000000 133.000000 0.334375 0.573444 0.747901
1.46000004 1.45000005 -0.07000000 20 232 129 97.000000 1.000000 4.000000 1.000000 -60.708740 114.000000 133.000000 0.314891 0.397837 0.861725
1.42999995 1.39999998 -0.06000000 20 232 129 97.000000 1.000000 4.000000 1.000000 -60.708740 114.000000 133.000000 0.700282 0.318604 0.638825
1.46000004 1.39999998 -0.07000000 20 232 129 97.000000 1.000000 4.000000 1.000000 -60.708740 114.000000 133.000000 0.762757 0.266886 0.589044
1.49000001 1.46000004 -0.16000000 20 232 129 97.000000 1.000000 4.000000 1.000000 -60.708740 114.000000 133.000000 0.598371 0.460930 0.655359
1.48000002 1.47000003 -0.16000000 20 232 129 97.000000 1.000000 4.000000 1.000000 -60.708740 114.000000 133.000000 0.655806 0.729873 0.192884
1.49000001 1.46000004 -0.16000000 20 232 129 97.000000 1.000000 4.000000 1.000000 -60.708740 114.000000 133.000000 0.598371 0.460930 0.655359
1.48000002 1.46000004 -0.15000001 20 232 129 97.000000 1.000000 4.000000 1.000000 -60.708740 114.000000 133.000000 0.606074 0.728905 0.318391
1.48000002 1.40999997 -0.14000000 20 232 129 97.000000 1.000000 4.000000 1.000000 -60.708740 114.000000 133.000000 0.518403 0.320612 0.792758
1.47000003 1.45000005 -0.14000000 20 232 129 97.000000 1.000000 4.000000 1.000000 -60.708740 114.000000 133.000000 0.371548 0.422141 0.826891
1.47000003 1.45000005 -0.14000000 20 232 129 97.000000 1.000000 4.000000 1.000000 -60.708740 114.000000 133.000000 0.371548 0.422141 0.826891
