//X Y Z R G B PointSourceId ScanDirectionFlag NumberOfReturns ReturnNumber GpsTime Intensity Classification Nx Ny Nz
-5.80000019 -3.27999997 -0.22000000 89 54 184 0.000000 0.000000 0.000000 0.000000 -60.708740 0.000000 198.000000 0.718509 -0.516065 0.466284
-5.84999990 -3.26999998 -0.20000000 89 54 184 0.000000 0.000000 0.000000 0.000000 -60.708740 0.000000 198.000000 -0.628317 0.644983 -0.434989
-5.94999981 -3.23000002 -0.23000000 89 54 184 0.000000 0.000000 0.000000 0.000000 -60.708740 0.000000 198.000000 0.758603 -0.233055 0.608446
-6.03000021 -3.26999998 -0.08000000 89 54 184 0.000000 0.000000 0.000000 0.000000 -60.708740 0.000000 198.000000 0.869387 -0.112778 0.481089
-5.98000002 -3.23000002 -0.08000000 89 54 184 0.000000 0.000000 0.000000 0.000000 -60.708740 0.000000 198.000000 0.834436 -0.281253 0.473935
-6.01000023 -3.23000002 -0.05000000 89 54 184 0.000000 0.000000 0.000000 0.000000 -60.708740 0.000000 198.000000 0.879428 -0.316352 0.355707
-5.96999979 -3.24000001 -0.09000000 89 54 184 0.000000 0.000000 0.000000 0.000000 -60.708740 0.000000 198.000000 0.702580 -0.196105 0.684050
-5.96999979 -3.23000002 -0.04000000 89 54 184 0.000000 0.000000 0.000000 0.000000 -60.708740 0.000000 198.000000 -0.474296 0.651948 -0.591614
-6.01000023 -3.23000002 -0.06000000 89 54 184 0.000000 0.000000 0.000000 0.000000 -60.708740 0.000000 198.000000 -0.402935 0.621814 -0.671559
-6.01999998 -3.27999997 -0.12000000 89 54 184 0.000000 0.000000 0.000000 0.000000 -60.708740 0.000000 198.000000 0.898384 -0.049985 0.436358
-6.03999996 -3.25999999 -0.12000000 89 54 184 0.000000 0.000000 0.000000 0.000000 -60.708740 0.000000 198.000000 0.602149 -0.239295 0.761679
-5.96999979 -3.23000002 -0.27000001 89 54 184 0.000000 0.000000 0.000000 0.000000 -60.708740 0.000000 198.000000 0.222705 -0.627623 0.745984
-6.01999998 -3.25000000 -0.28999999 89 54 184 0.000000 0.000000 0.000000 0.000000 -60.708740 0.000000 198.000000 0.513758 -0.503717 0.694494
-6.05999994 -3.25999999 -0.23999999 89 54 184 0.000000 0.000000 0.000000 0.000000 -60.708740 0.000000 198.000000 0.305975 -0.584717 0.751322
-5.90999985 -3.22000003 -0.36000001 89 54 184 0.000000 0.000000 0.000000 0.000000 -60.708740 0.000000 198.000000 0.300467 -0.538933 0.786938
-5.78999996 -3.26999998 -0.47999999 89 54 184 0.000000 0.000000 0.000000 0.000000 -60.708740 0.000000 198.000000 -0.078766 0.814866 -0.574273
-6.13000011 -3.28999996 -0.16000000 89 54 184 0.000000 0.000000 0.000000 0.000000 -60.708740 0.000000 198.000000 0.795689 -0.271507 0.541445
-6.17999983 -3.32999992 -0.03000000 89 54 184 0.000000 0.000000 0.000000 0.000000 -60.708740 0.000000 198.000000 0.995179 -0.078596 0.058670
-6.23999977 -3.40000010 -0.07000000 89 54 184 0.000000 0.000000 0.000000 0.000000 -60.708740 0.000000 198.000000 0.703082 -0.332868 0.628390
-5.57000017 -3.78999996 -0.20999999 89 54 184 0.000000 0.000000 0.000000 0.000000 -60.708740 0.000000 198.000000 -0.174544 -0.450294 0.875654
-5.57999992 -3.79999995 -0.22000000 89 54 184 0.000000 0.000000 0.000000 0.000000 -60.708740 0.000000 198.000000 0.043955 0.636632 -0.769914
-5.61000013 -3.84999990 -0.22000000 89 54 184 0.000000 0.000000 0.000000 0.000000 -60.708740 0.000000 198.000000 -0.305084 0.765106 -0.567041
-5.59000015 -3.82999992 -0.27000001 89 54 184 0.000000 0.000000 0.000000 0.000000 -60.708740 0.000000 198.000000 0.189975 -0.554727 0.810054
-5.57000017 -3.83999991 -0.31999999 89 54 184 0.000000 0.000000 0.000000 0.000000 -60.708740 0.000000 198.000000 0.043680 0.793280 -0.607289
-5.57000017 -3.81999993 -0.34999999 89 54 184 0.000000 0.000000 0.000000 0.000000 -60.708740 0.000000 198.000000 0.368964 -0.614940 0.696932
-5.59999990 -3.83999991 -0.31000000 89 54 184 0.000000 0.000000 0.000000 0.000000 -60.708740 0.000000 198.000000 0.265852 -0.702042 0.660651
-5.57999992 -3.82999992 -0.31000000 89 54 184 0.000000 0.000000 0.000000 0.000000 -60.708740 0.000000 198.000000 0.303458 0.730546 -0.611732
-5.59999990 -3.89000010 -0.28000000 89 54 184 0.000000 0.000000 0.000000 0.000000 -60.708740 0.000000 198.000000 0.284622 -0.377990 0.880973
-5.69000006 -3.94000006 -0.08000000 89 54 184 0.000000 0.000000 0.000000 0.000000 -60.708740 0.000000 198.000000 0.690181 0.315188 -0.651389
-5.69000006 -3.94000006 -0.08000000 89 54 184 0.000000 0.000000 0.000000 0.000000 -60.708740 0.000000 198.000000 0.690181 0.315188 -0.651389
-5.69000006 -3.95000005 -0.09000000 89 54 184 0.000000 0.000000 0.000000 0.000000 -60.708740 0.000000 198.000000 0.735099 0.265144 -0.623961
-5.67999983 -3.95000005 -0.18000001 89 54 184 0.000000 0.000000 0.000000 0.000000 -60.708740 0.000000 198.000000 0.924367 -0.300526 0.235009
-5.67000008 -3.97000003 -0.18000001 89 54 184 0.000000 0.000000 0.000000 0.000000 -60.708740 0.000000 198.000000 0.897450 0.427024 0.110606
-5.71000004 -4.00000000 -0.15000001 89 54 184 0.000000 0.000000 0.000000 0.000000 -60.708740 0.000000 198.000000 0.913804 0.404816 0.032965
-5.65999985 -3.93000007 -0.27000001 89 54 184 0.000000 0.000000 0.000000 0.000000 -60.708740 0.000000 198.000000 0.902061 -0.086763 0.422798
-5.65999985 -3.93000007 -0.27000001 89 54 184 0.000000 0.000000 0.000000 0.000000 -60.708740 0.000000 198.000000 0.902061 -0.086763 0.422798
-5.65999985 -3.95000005 -0.27000001 89 54 184 0.000000 0.000000 0.000000 0.000000 -60.708740 0.000000 198.000000 0.756401 0.006914 0.654072
-5.69000006 -3.96000004 -0.28000000 89 54 184 0.000000 0.000000 0.000000 0.000000 -60.708740 0.000000 198.000000 0.764524 -0.228890 0.602588
-5.69000006 -3.96000004 -0.28000000 89 54 184 0.000000 0.000000 0.000000 0.000000 -60.708740 0.000000 198.000000 0.764524 -0.228890 0.602588
-5.69000006 -3.98000002 -0.31999999 89 54 184 0.000000 0.000000 0.000000 0.000000 -60.708740 0.000000 198.000000 0.910886 -0.322089 0.257963
-5.69999981 -4.00000000 -0.34999999 89 54 184 0.000000 0.000000 0.000000 0.000000 -60.708740 0.000000 198.000000 0.726292 -0.185796 0.661801
-5.76000023 -4.00000000 -0.22000000 89 54 184 0.000000 0.000000 0.000000 0.000000 -60.708740 0.000000 198.000000 0.983731 -0.094890 -0.152544
-5.53000021 -3.75000000 -0.36000001 89 54 184 0.000000 0.000000 0.000000 0.000000 -60.708740 0.000000 198.000000 0.348922 0.741661 -0.572881
-5.53999996 -3.76999998 -0.43000001 89 54 184 0.000000 0.000000 0.000000 0.000000 -60.708740 0.000000 198.000000 0.004012 0.865175 -0.501454
-5.53999996 -3.79999995 -0.44999999 89 54 184 0.000000 0.000000 0.000000 0.000000 -60.708740 0.000000 198.000000 0.272461 0.680355 -0.680355
-5.55000019 -3.79999995 -0.47999999 89 54 184 0.000000 0.000000 0.000000 0.000000 -60.708740 0.000000 198.000000 -0.157741 -0.387958 0.908078
-5.55000019 -3.78999996 -0.44000000 89 54 184 0.000000 0.000000 0.000000 0.000000 -60.708740 0.000000 198.000000 0.220493 -0.494209 0.840916
-5.57000017 -3.77999997 -0.44000000 89 54 184 0.000000 0.000000 0.000000 0.000000 -60.708740 0.000000 198.000000 0.075031 -0.533712 0.842331
-5.53999996 -3.81999993 -0.40000001 89 54 184 0.000000 0.000000 0.000000 0.000000 -60.708740 0.000000 198.000000 0.247492 0.647892 -0.720405
-5.53999996 -3.82999992 -0.41000000 89 54 184 0.000000 0.000000 0.000000 0.000000 -60.708740 0.000000 198.000000 0.445707 0.652702 -0.612638
-5.59000015 -3.81999993 -0.37000000 89 54 184 0.000000 0.000000 0.000000 0.000000 -60.708740 0.000000 198.000000 0.026208 0.828995 -0.558641
-5.59000015 -3.81999993 -0.37000000 89 54 184 0.000000 0.000000 0.000000 0.000000 -60.708740 0.000000 198.000000 0.026208 0.828995 -0.558641
-5.57000017 -3.88000011 -0.50999999 89 54 184 0.000000 0.000000 0.000000 0.000000 -60.708740 0.000000 198.000000 0.192510 -0.476052 0.858088
-5.59000015 -3.83999991 -0.50999999 89 54 184 0.000000 0.000000 0.000000 0.000000 -60.708740 0.000000 198.000000 0.189342 -0.685018 0.703491
-5.59000015 -3.89000010 -0.44000000 89 54 184 0.000000 0.000000 0.000000 0.000000 -60.708740 0.000000 198.000000 0.071214 -0.306866 0.949085
-5.59000015 -3.88000011 -0.50000000 89 54 184 0.000000 0.000000 0.000000 0.000000 -60.708740 0.000000 198.000000 0.278113 -0.411851 0.867774
-5.59999990 -3.86999989 -0.49000001 89 54 184 0.000000 0.000000 0.000000 0.000000 -60.708740 0.000000 198.000000 0.116136 -0.488917 0.864565
-5.59000015 -3.85999990 -0.49000001 89 54 184 0.000000 0.000000 0.000000 0.000000 -60.708740 0.000000 198.000000 -0.041318 -0.411842 0.910318
-5.51999998 -3.79999995 -0.60000002 89 54 184 0.000000 0.000000 0.000000 0.000000 -60.708740 0.000000 198.000000 0.397023 0.753201 -0.524463
-5.50000000 -3.79999995 -0.64999998 89 54 184 0.000000 0.000000 0.000000 0.000000 -60.708740 0.000000 198.000000 -0.231267 0.793139 -0.563424
-5.53000021 -3.88000011 -0.69000000 89 54 184 0.000000 0.000000 0.000000 0.000000 -60.708740 0.000000 198.000000 0.202612 0.750128 -0.629489
-5.55000019 -3.76999998 -0.58999997 89 54 184 0.000000 0.000000 0.000000 0.000000 -60.708740 0.000000 198.000000 -0.249236 0.779059 -0.575281
-5.59000015 -3.88000011 -0.56999999 89 54 184 0.000000 0.000000 0.000000 0.000000 -60.708740 0.000000 198.000000 -0.090054 0.844794 -0.527460
-5.55999994 -3.85999990 -0.56000000 89 54 184 0.000000 0.000000 0.000000 0.000000 -60.708740 0.000000 198.000000 -0.112738 -0.407806 0.906082
-5.61000013 -3.98000002 -0.49000001 89 54 184 0.000000 0.000000 0.000000 0.000000 -60.708740 0.000000 198.000000 0.220364 -0.375057 0.900429
-5.59999990 -3.95000005 -0.56999999 89 54 184 0.000000 0.000000 0.000000 0.000000 -60.708740 0.000000 198.000000 0.035134 0.788411 -0.614145
-5.55999994 -3.90000010 -0.67000002 89 54 184 0.000000 0.000000 0.000000 0.000000 -60.708740 0.000000 198.000000 -0.362319 0.660699 -0.657420
-5.59000015 -3.91000009 -0.61000001 89 54 184 0.000000 0.000000 0.000000 0.000000 -60.708740 0.000000 198.000000 0.080319 0.863786 -0.497417
-5.61000013 -3.93000007 -0.61000001 89 54 184 0.000000 0.000000 0.000000 0.000000 -60.708740 0.000000 198.000000 -0.052725 -0.773769 0.631270
-5.59000015 -3.94000006 -0.66000003 89 54 184 0.000000 0.000000 0.000000 0.000000 -60.708740 0.000000 198.000000 -0.283696 -0.668370 0.687603
-5.63999987 -3.94000006 -0.41999999 89 54 184 0.000000 0.000000 0.000000 0.000000 -60.708740 0.000000 198.000000 -0.321748 0.716252 -0.619243
-5.69999981 -3.98000002 -0.36000001 89 54 184 0.000000 0.000000 0.000000 0.000000 -60.708740 0.000000 198.000000 -0.619534 0.514872 -0.592524
-5.69000006 -3.99000001 -0.40000001 89 54 184 0.000000 0.000000 0.000000 0.000000 -60.708740 0.000000 198.000000 0.886318 -0.070518 0.457677
-5.76999998 -3.97000003 -0.37000000 89 54 184 0.000000 0.000000 0.000000 0.000000 -60.708740 0.000000 198.000000 0.848145 -0.219218 0.482279
-5.73000002 -4.03000021 -0.43000001 89 54 184 0.000000 0.000000 0.000000 0.000000 -60.708740 0.000000 198.000000 0.964116 -0.202765 0.171369
-5.71000004 -4.01999998 -0.49000001 89 54 184 0.000000 0.000000 0.000000 0.000000 -60.708740 0.000000 198.000000 0.553935 -0.210219 0.805583
-5.73999977 -4.03999996 -0.49000001 89 54 184 0.000000 0.000000 0.000000 0.000000 -60.708740 0.000000 198.000000 -0.721336 0.465966 -0.512397
-5.63000011 -3.99000001 -0.55000001 89 54 184 0.000000 0.000000 0.000000 0.000000 -60.708740 0.000000 198.000000 -0.069679 -0.567383 0.820501
-5.65999985 -4.01000023 -0.61000001 89 54 184 0.000000 0.000000 0.000000 0.000000 -60.708740 0.000000 198.000000 -0.066786 0.817069 -0.572659
-5.65000010 -4.05000019 -0.67000002 89 54 184 0.000000 0.000000 0.000000 0.000000 -60.708740 0.000000 198.000000 0.065287 -0.482010 0.873730
-5.67000008 -4.01999998 -0.61000001 89 54 184 0.000000 0.000000 0.000000 0.000000 -60.708740 0.000000 198.000000 0.236254 -0.310710 0.920675
-5.69000006 -4.01999998 -0.64999998 89 54 184 0.000000 0.000000 0.000000 0.000000 -60.708740 0.000000 198.000000 0.480266 -0.267158 0.835447
-5.69000006 -4.03999996 -0.61000001 89 54 184 0.000000 0.000000 0.000000 0.000000 -60.708740 0.000000 198.000000 -0.110958 0.699775 -0.705693
-5.69999981 -4.05000019 -0.64999998 89 54 184 0.000000 0.000000 0.000000 0.000000 -60.708740 0.000000 198.000000 0.724590 -0.289516 0.625419
-5.71000004 -4.05000019 -0.58999997 89 54 184 0.000000 0.000000 0.000000 0.000000 -60.708740 0.000000 198.000000 0.196250 -0.489875 0.849417
-5.71999979 -4.07000017 -0.67000002 89 54 184 0.000000 0.000000 0.000000 0.000000 -60.708740 0.000000 198.000000 -0.239492 0.768567 -0.593252
-5.71999979 -4.07000017 -0.67000002 89 54 184 0.000000 0.000000 0.000000 0.000000 -60.708740 0.000000 198.000000 -0.239492 0.768567 -0.593252
-5.44999981 -3.79999995 -0.93000001 89 54 184 0.000000 0.000000 0.000000 0.000000 -60.708740 0.000000 198.000000 0.358127 0.766490 -0.533140
-5.51000023 -3.82999992 -0.77999997 89 54 184 0.000000 0.000000 0.000000 0.000000 -60.708740 0.000000 198.000000 0.006403 -0.377777 0.925874
-5.53999996 -3.85999990 -0.73000002 89 54 184 0.000000 0.000000 0.000000 0.000000 -60.708740 0.000000 198.000000 0.370295 -0.502889 0.781015
-5.53999996 -3.84999990 -0.76999998 89 54 184 0.000000 0.000000 0.000000 0.000000 -60.708740 0.000000 198.000000 -0.342161 -0.525290 0.779100
-5.55000019 -3.85999990 -0.79000002 89 54 184 0.000000 0.000000 0.000000 0.000000 -60.708740 0.000000 198.000000 -0.135253 -0.587089 0.798144
-5.46999979 -3.75000000 -0.92000002 89 54 184 0.000000 0.000000 0.000000 0.000000 -60.708740 0.000000 198.000000 0.228570 -0.422781 0.876933
-5.46999979 -3.84999990 -0.88999999 89 54 184 0.000000 0.000000 0.000000 0.000000 -60.708740 0.000000 198.000000 0.174334 -0.404859 0.897606
-5.50000000 -3.82999992 -0.88000000 89 54 184 0.000000 0.000000 0.000000 0.000000 -60.708740 0.000000 198.000000 0.322962 0.641056 -0.696235
-5.50000000 -3.85999990 -0.92000002 89 54 184 0.000000 0.000000 0.000000 0.000000 -60.708740 0.000000 198.000000 -0.133216 -0.454081 0.880945
-5.46000004 -3.81999993 -0.94999999 89 54 184 0.000000 0.000000 0.000000 0.000000 -60.708740 0.000000 198.000000 0.230071 -0.446607 0.864644
-5.48999977 -3.86999989 -0.99000001 89 54 184 0.000000 0.000000 0.000000 0.000000 -60.708740 0.000000 198.000000 -0.297727 0.778549 -0.552467
-5.55999994 -3.90000010 -0.75999999 89 54 184 0.000000 0.000000 0.000000 0.000000 -60.708740 0.000000 198.000000 0.353371 -0.451618 0.819250
-5.55999994 -3.95000005 -0.75000000 89 54 184 0.000000 0.000000 0.000000 0.000000 -60.708740 0.000000 198.000000 0.192724 0.686099 -0.701517
-5.59999990 -3.98000002 -0.69999999 89 54 184 0.000000 0.000000 0.000000 0.000000 -60.708740 0.000000 198.000000 -0.309484 0.761685 -0.569259
-5.61000013 -3.95000005 -0.73000002 89 54 184 0.000000 0.000000 0.000000 0.000000 -60.708740 0.000000 198.000000 0.112106 -0.333617 0.936019
-5.57000017 -3.94000006 -0.80000001 89 54 184 0.000000 0.000000 0.000000 0.000000 -60.708740 0.000000 198.000000 0.350517 -0.344395 0.870936
-5.59000015 -3.96000004 -0.81000000 89 54 184 0.000000 0.000000 0.000000 0.000000 -60.708740 0.000000 198.000000 -0.514913 0.616207 -0.595948
-5.59000015 -3.96000004 -0.81000000 89 54 184 0.000000 0.000000 0.000000 0.000000 -60.708740 0.000000 198.000000 -0.514913 0.616207 -0.595948
-5.59999990 -4.00000000 -0.79000002 89 54 184 0.000000 0.000000 0.000000 0.000000 -60.708740 0.000000 198.000000 0.316224 -0.573056 0.756048
-5.61000013 -4.00000000 -0.79000002 89 54 184 0.000000 0.000000 0.000000 0.000000 -60.708740 0.000000 198.000000 0.497040 -0.594763 0.631830
-5.53000021 -3.94000006 -0.88000000 89 54 184 0.000000 0.000000 0.000000 0.000000 -60.708740 0.000000 198.000000 -0.156684 -0.475910 0.865424
-5.57999992 -4.00000000 -0.87000000 89 54 184 0.000000 0.000000 0.000000 0.000000 -60.708740 0.000000 198.000000 0.434670 -0.607872 0.664495
-5.57999992 -3.99000001 -0.86000001 89 54 184 0.000000 0.000000 0.000000 0.000000 -60.708740 0.000000 198.000000 0.452511 -0.515498 0.727664
-5.63999987 -3.99000001 -0.69999999 89 54 184 0.000000 0.000000 0.000000 0.000000 -60.708740 0.000000 198.000000 0.450209 -0.303774 0.839663
-5.63999987 -4.01000023 -0.69999999 89 54 184 0.000000 0.000000 0.000000 0.000000 -60.708740 0.000000 198.000000 -0.487026 0.533888 -0.691209
-5.61999989 -4.01999998 -0.76999998 89 54 184 0.000000 0.000000 0.000000 0.000000 -60.708740 0.000000 198.000000 0.062285 -0.483054 0.873372
-5.63999987 -4.01999998 -0.75999999 89 54 184 0.000000 0.000000 0.000000 0.000000 -60.708740 0.000000 198.000000 0.066081 -0.521618 0.850616
-5.61999989 -4.01999998 -0.76999998 89 54 184 0.000000 0.000000 0.000000 0.000000 -60.708740 0.000000 198.000000 0.062285 -0.483054 0.873372
-5.63999987 -4.03000021 -0.82999998 89 54 184 0.000000 0.000000 0.000000 0.000000 -60.708740 0.000000 198.000000 0.257411 -0.620629 0.740648
-5.65000010 -4.03999996 -0.82999998 89 54 184 0.000000 0.000000 0.000000 0.000000 -60.708740 0.000000 198.000000 0.104611 -0.649765 0.752902
-5.63000011 -4.05999994 -0.88000000 89 54 184 0.000000 0.000000 0.000000 0.000000 -60.708740 0.000000 198.000000 -0.532007 0.565786 -0.629964
-5.63000011 -4.05000019 -0.91000003 89 54 184 0.000000 0.000000 0.000000 0.000000 -60.708740 0.000000 198.000000 0.180066 -0.567435 0.803488
-5.63000011 -4.05999994 -0.92000002 89 54 184 0.000000 0.000000 0.000000 0.000000 -60.708740 0.000000 198.000000 -0.152354 0.764788 -0.626010
-5.63000011 -4.01000023 -0.93000001 89 54 184 0.000000 0.000000 0.000000 0.000000 -60.708740 0.000000 198.000000 -0.272416 0.692989 -0.667500
-5.65999985 -4.07000017 -0.79000002 89 54 184 0.000000 0.000000 0.000000 0.000000 -60.708740 0.000000 198.000000 0.521808 -0.623130 0.582602
-5.73000002 -4.07999992 -0.75000000 89 54 184 0.000000 0.000000 0.000000 0.000000 -60.708740 0.000000 198.000000 0.651136 -0.431315 0.624491
-5.71999979 -4.07999992 -0.77999997 89 54 184 0.000000 0.000000 0.000000 0.000000 -60.708740 0.000000 198.000000 -0.190209 0.798878 -0.570627
-5.71999979 -4.11000013 -0.79000002 89 54 184 0.000000 0.000000 0.000000 0.000000 -60.708740 0.000000 198.000000 0.597165 -0.229199 0.768675
-5.63000011 -4.07999992 -0.93000001 89 54 184 0.000000 0.000000 0.000000 0.000000 -60.708740 0.000000 198.000000 0.042186 -0.472216 0.880473
-5.65999985 -4.11000013 -0.88999999 89 54 184 0.000000 0.000000 0.000000 0.000000 -60.708740 0.000000 198.000000 0.666404 -0.376806 0.643368
-5.65000010 -4.13000011 -0.91000003 89 54 184 0.000000 0.000000 0.000000 0.000000 -60.708740 0.000000 198.000000 0.597853 -0.427989 0.677788
-5.67000008 -4.13000011 -0.92000002 89 54 184 0.000000 0.000000 0.000000 0.000000 -60.708740 0.000000 198.000000 -0.339240 0.807486 -0.482580
-5.67999983 -4.13999987 -0.93000001 89 54 184 0.000000 0.000000 0.000000 0.000000 -60.708740 0.000000 198.000000 0.159262 -0.531371 0.832034
-5.63999987 -4.11999989 -0.97000003 89 54 184 0.000000 0.000000 0.000000 0.000000 -60.708740 0.000000 198.000000 0.048707 -0.532993 0.844717
-5.61999989 -4.11000013 -0.94999999 89 54 184 0.000000 0.000000 0.000000 0.000000 -60.708740 0.000000 198.000000 0.571310 -0.480838 0.665132
-5.71000004 -4.13000011 -0.91000003 89 54 184 0.000000 0.000000 0.000000 0.000000 -60.708740 0.000000 198.000000 0.313330 -0.756813 0.573636
-5.78000021 -4.15999985 -0.92000002 89 54 184 0.000000 0.000000 0.000000 0.000000 -60.708740 0.000000 198.000000 0.396414 -0.517133 0.758570
-5.71000004 -4.19999981 -1.02999997 89 54 184 0.000000 0.000000 0.000000 0.000000 -60.708740 0.000000 198.000000 0.064281 -0.598531 0.798517
-5.67999983 -4.19999981 -1.02999997 89 54 184 0.000000 0.000000 0.000000 0.000000 -60.708740 0.000000 198.000000 0.495207 -0.701960 0.511881
-5.71999979 -4.21000004 -1.04999995 89 54 184 0.000000 0.000000 0.000000 0.000000 -60.708740 0.000000 198.000000 0.665714 -0.639284 0.384892
-5.84999990 -4.03999996 -0.12000000 89 54 184 0.000000 0.000000 0.000000 0.000000 -60.708740 0.000000 198.000000 0.767207 0.638144 -0.064531
-5.84999990 -4.03000021 -0.16000000 89 54 184 0.000000 0.000000 0.000000 0.000000 -60.708740 0.000000 198.000000 0.817767 0.316707 -0.480576
-5.88000011 -4.01999998 -0.16000000 89 54 184 0.000000 0.000000 0.000000 0.000000 -60.708740 0.000000 198.000000 0.937073 -0.083738 -0.338941
-5.90000010 -3.98000002 -0.22000000 89 54 184 0.000000 0.000000 0.000000 0.000000 -60.708740 0.000000 198.000000 0.997131 0.044197 -0.061445
-5.94999981 -4.01999998 -0.19000000 89 54 184 0.000000 0.000000 0.000000 0.000000 -60.708740 0.000000 198.000000 0.887950 0.459377 0.022768
-5.88000011 -4.03000021 -0.33000001 89 54 184 0.000000 0.000000 0.000000 0.000000 -60.708740 0.000000 198.000000 0.866934 -0.423598 0.262661
-5.98999977 -4.00000000 -0.06000000 89 54 184 0.000000 0.000000 0.000000 0.000000 -60.708740 0.000000 198.000000 0.786006 0.616669 -0.043745
-5.96999979 -4.03999996 -0.07000000 89 54 184 0.000000 0.000000 0.000000 0.000000 -60.708740 0.000000 198.000000 0.875864 0.479869 -0.050874
-5.98000002 -4.03000021 -0.09000000 89 54 184 0.000000 0.000000 0.000000 0.000000 -60.708740 0.000000 198.000000 0.953518 0.084325 -0.289299
-6.00000000 -4.00000000 -0.03000000 89 54 184 0.000000 0.000000 0.000000 0.000000 -60.708740 0.000000 198.000000 0.925517 0.378210 -0.019362
-6.11000013 -3.96000004 -0.03000000 89 54 184 0.000000 0.000000 0.000000 0.000000 -60.708740 0.000000 198.000000 0.986245 0.086430 0.140892
-6.11000013 -3.96000004 -0.13000000 89 54 184 0.000000 0.000000 0.000000 0.000000 -60.708740 0.000000 198.000000 0.998652 0.026088 -0.044872
-6.07999992 -3.96000004 -0.12000000 89 54 184 0.000000 0.000000 0.000000 0.000000 -60.708740 0.000000 198.000000 0.911858 0.408947 0.035733
-5.96000004 -4.03999996 -0.28000000 89 54 184 0.000000 0.000000 0.000000 0.000000 -60.708740 0.000000 198.000000 0.984631 0.170886 0.036037
-6.07000017 -3.95000005 -0.25000000 89 54 184 0.000000 0.000000 0.000000 0.000000 -60.708740 0.000000 198.000000 0.977886 0.145378 -0.150348
-6.05000019 -3.96000004 -0.20999999 89 54 184 0.000000 0.000000 0.000000 0.000000 -60.708740 0.000000 198.000000 0.884818 0.130078 0.447412
-5.86999989 -4.05000019 -0.36000001 89 54 184 0.000000 0.000000 0.000000 0.000000 -60.708740 0.000000 198.000000 0.807808 -0.091041 0.582373
-5.80000019 -4.05000019 -0.44999999 89 54 184 0.000000 0.000000 0.000000 0.000000 -60.708740 0.000000 198.000000 0.943848 -0.324163 0.063791
-5.84000015 -4.05000019 -0.50000000 89 54 184 0.000000 0.000000 0.000000 0.000000 -60.708740 0.000000 198.000000 0.878179 -0.177395 0.444221
-5.80999994 -4.05999994 -0.55000001 89 54 184 0.000000 0.000000 0.000000 0.000000 -60.708740 0.000000 198.000000 0.779939 -0.360096 0.511885
-5.96999979 -4.03999996 -0.47000000 89 54 184 0.000000 0.000000 0.000000 0.000000 -60.708740 0.000000 198.000000 0.982321 -0.185278 0.026801
-6.07000017 -3.99000001 -0.38000000 89 54 184 0.000000 0.000000 0.000000 0.000000 -60.708740 0.000000 198.000000 0.998541 0.051020 -0.017701
-6.05000019 -4.05999994 -0.61000001 89 54 184 0.000000 0.000000 0.000000 0.000000 -60.708740 0.000000 198.000000 0.925019 -0.315895 0.211069
-6.11000013 -3.99000001 -0.63999999 89 54 184 0.000000 0.000000 0.000000 0.000000 -60.708740 0.000000 198.000000 0.981044 -0.118803 0.153097
-6.09000015 -4.01000023 -0.61000001 89 54 184 0.000000 0.000000 0.000000 0.000000 -60.708740 0.000000 198.000000 0.981068 -0.188621 0.043893
-5.82999992 -4.07999992 -0.34000000 89 54 184 0.000000 0.000000 0.000000 0.000000 -60.708740 0.000000 198.000000 0.918515 -0.394766 0.022149
-5.82999992 -4.09999990 -0.66000003 89 54 184 0.000000 0.000000 0.000000 0.000000 -60.708740 0.000000 198.000000 0.727543 -0.199263 0.656487
-5.88000011 -4.07000017 -0.63999999 89 54 184 0.000000 0.000000 0.000000 0.000000 -60.708740 0.000000 198.000000 0.723904 -0.458859 0.515181
-6.07000017 -4.07000017 -0.67000002 89 54 184 0.000000 0.000000 0.000000 0.000000 -60.708740 0.000000 198.000000 0.836836 -0.515322 0.184795
-6.19000006 -3.85999990 -0.09000000 89 54 184 0.000000 0.000000 0.000000 0.000000 -60.708740 0.000000 198.000000 0.953689 0.266609 0.139273
-6.25000000 -3.76999998 -0.03000000 89 54 184 0.000000 0.000000 0.000000 0.000000 -60.708740 0.000000 198.000000 0.959015 -0.205598 -0.194986
-6.26000023 -3.77999997 -0.16000000 89 54 184 0.000000 0.000000 0.000000 0.000000 -60.708740 0.000000 198.000000 0.906208 -0.420212 0.046989
-6.25000000 -3.83999991 -0.03000000 89 54 184 0.000000 0.000000 0.000000 0.000000 -60.708740 0.000000 198.000000 0.994408 -0.094230 -0.047670
-6.21000004 -3.83999991 -0.12000000 89 54 184 0.000000 0.000000 0.000000 0.000000 -60.708740 0.000000 198.000000 0.935948 -0.045434 0.349196
-6.23000002 -3.81999993 -0.13000000 89 54 184 0.000000 0.000000 0.000000 0.000000 -60.708740 0.000000 198.000000 0.947489 -0.314973 0.055281
-6.25000000 -3.82999992 -0.12000000 89 54 184 0.000000 0.000000 0.000000 0.000000 -60.708740 0.000000 198.000000 0.970538 -0.159838 -0.180298
-6.17999983 -3.88000011 -0.34000000 89 54 184 0.000000 0.000000 0.000000 0.000000 -60.708740 0.000000 198.000000 0.927547 0.177675 0.328768
-6.23000002 -3.78999996 -0.31999999 89 54 184 0.000000 0.000000 0.000000 0.000000 -60.708740 0.000000 198.000000 0.981507 -0.115830 0.152408
-6.21000004 -3.81999993 -0.31999999 89 54 184 0.000000 0.000000 0.000000 0.000000 -60.708740 0.000000 198.000000 0.961575 0.046146 0.270638
-6.21999979 -3.84999990 -0.33000001 89 54 184 0.000000 0.000000 0.000000 0.000000 -60.708740 0.000000 198.000000 0.867398 -0.172301 0.466834
-6.23999977 -3.81999993 -0.30000001 89 54 184 0.000000 0.000000 0.000000 0.000000 -60.708740 0.000000 198.000000 0.998801 -0.030204 0.038536
-6.17000008 -3.90000010 -0.11000000 89 54 184 0.000000 0.000000 0.000000 0.000000 -60.708740 0.000000 198.000000 0.947405 0.279762 0.155423
-6.19999981 -3.92000008 -0.07000000 89 54 184 0.000000 0.000000 0.000000 0.000000 -60.708740 0.000000 198.000000 0.904471 0.269135 -0.330904
-6.15999985 -3.91000009 -0.30000001 89 54 184 0.000000 0.000000 0.000000 0.000000 -60.708740 0.000000 198.000000 0.828262 -0.264734 0.493861
-6.15999985 -3.92000008 -0.31000000 89 54 184 0.000000 0.000000 0.000000 0.000000 -60.708740 0.000000 198.000000 0.963805 0.259438 -0.061413
-6.17999983 -3.90000010 -0.40000001 89 54 184 0.000000 0.000000 0.000000 0.000000 -60.708740 0.000000 198.000000 0.847822 0.193574 0.493687
-6.15999985 -3.97000003 -0.61000001 89 54 184 0.000000 0.000000 0.000000 0.000000 -60.708740 0.000000 198.000000 0.672506 -0.410146 0.616049
-5.84999990 -4.05999994 -0.73000002 89 54 184 0.000000 0.000000 0.000000 0.000000 -60.708740 0.000000 198.000000 0.728566 -0.202637 0.654317
-6.03999996 -4.01000023 -0.74000001 89 54 184 0.000000 0.000000 0.000000 0.000000 -60.708740 0.000000 198.000000 0.707533 -0.602470 0.369362
-6.07999992 -4.03999996 -0.76999998 89 54 184 0.000000 0.000000 0.000000 0.000000 -60.708740 0.000000 198.000000 0.851473 -0.480743 0.209477
-5.86000013 -4.09999990 -0.74000001 89 54 184 0.000000 0.000000 0.000000 0.000000 -60.708740 0.000000 198.000000 0.618119 -0.597908 0.510327
-5.86000013 -4.13000011 -0.76999998 89 54 184 0.000000 0.000000 0.000000 0.000000 -60.708740 0.000000 198.000000 0.911689 -0.263183 0.315529
-5.92000008 -4.11999989 -0.70999998 89 54 184 0.000000 0.000000 0.000000 0.000000 -60.708740 0.000000 198.000000 -0.677380 0.476675 -0.560302
-5.92000008 -4.11999989 -0.70999998 89 54 184 0.000000 0.000000 0.000000 0.000000 -60.708740 0.000000 198.000000 -0.677380 0.476675 -0.560302
-5.80000019 -4.15000010 -0.89999998 89 54 184 0.000000 0.000000 0.000000 0.000000 -60.708740 0.000000 198.000000 0.291270 -0.565032 0.771946
-5.88000011 -4.15000010 -0.88999999 89 54 184 0.000000 0.000000 0.000000 0.000000 -60.708740 0.000000 198.000000 0.333930 -0.685778 0.646684
-6.03000021 -4.07999992 -0.76999998 89 54 184 0.000000 0.000000 0.000000 0.000000 -60.708740 0.000000 198.000000 0.909078 0.080655 0.408744
-5.98000002 -4.13999987 -0.76999998 89 54 184 0.000000 0.000000 0.000000 0.000000 -60.708740 0.000000 198.000000 -0.686794 0.647827 -0.329596
-5.98999977 -4.11000013 -0.75000000 89 54 184 0.000000 0.000000 0.000000 0.000000 -60.708740 0.000000 198.000000 0.640733 -0.344007 0.686383
-5.96999979 -4.15000010 -0.93000001 89 54 184 0.000000 0.000000 0.000000 0.000000 -60.708740 0.000000 198.000000 0.833786 -0.181780 0.521304
-5.71999979 -3.28999996 1.28999996 89 54 184 0.000000 0.000000 0.000000 0.000000 -60.708740 0.000000 198.000000 -0.237880 0.788268 -0.567491
-5.76999998 -3.29999995 1.26999998 89 54 184 0.000000 0.000000 0.000000 0.000000 -60.708740 0.000000 198.000000 -0.323339 -0.558202 0.764109
-5.69999981 -3.34999990 0.94000000 89 54 184 0.000000 0.000000 0.000000 0.000000 -60.708740 0.000000 198.000000 -0.386421 -0.529902 0.754906
-5.76000023 -3.30999994 0.89999998 89 54 184 0.000000 0.000000 0.000000 0.000000 -60.708740 0.000000 198.000000 0.399376 0.790667 -0.464052
-5.76999998 -3.30999994 0.89999998 89 54 184 0.000000 0.000000 0.000000 0.000000 -60.708740 0.000000 198.000000 0.341349 0.749027 -0.567837
-5.73999977 -3.32999992 0.95999998 89 54 184 0.000000 0.000000 0.000000 0.000000 -60.708740 0.000000 198.000000 0.030982 0.887715 -0.459349
-5.73999977 -3.33999991 0.94999999 89 54 184 0.000000 0.000000 0.000000 0.000000 -60.708740 0.000000 198.000000 0.066598 0.903824 -0.422691
-5.71999979 -3.33999991 0.89999998 89 54 184 0.000000 0.000000 0.000000 0.000000 -60.708740 0.000000 198.000000 0.378976 0.791817 -0.478961
-5.71999979 -3.33999991 0.89999998 89 54 184 0.000000 0.000000 0.000000 0.000000 -60.708740 0.000000 198.000000 0.378976 0.791817 -0.478961
-5.65999985 -3.39000010 0.70999998 89 54 184 0.000000 0.000000 0.000000 0.000000 -60.708740 0.000000 198.000000 -0.198188 -0.606855 0.769707
-5.76999998 -3.29999995 0.67000002 89 54 184 0.000000 0.000000 0.000000 0.000000 -60.708740 0.000000 198.000000 0.655340 0.428555 -0.621989
-5.73999977 -3.32999992 0.75000000 89 54 184 0.000000 0.000000 0.000000 0.000000 -60.708740 0.000000 198.000000 -0.009569 0.821564 -0.570037
-5.61000013 -3.47000003 1.00999999 89 54 184 0.000000 0.000000 0.000000 0.000000 -60.708740 0.000000 198.000000 -0.290787 -0.660295 0.692426
-5.63999987 -3.41000009 1.02999997 89 54 184 0.000000 0.000000 0.000000 0.000000 -60.708740 0.000000 198.000000 -0.105308 0.838138 -0.535196
-5.65000010 -3.40000010 1.00000000 89 54 184 0.000000 0.000000 0.000000 0.000000 -60.708740 0.000000 198.000000 0.116425 -0.611600 0.782554
-5.55999994 -3.64000010 0.74000001 89 54 184 0.000000 0.000000 0.000000 0.000000 -60.708740 0.000000 198.000000 0.170431 -0.353538 0.919763
-5.55999994 -3.65000010 0.73000002 89 54 184 0.000000 0.000000 0.000000 0.000000 -60.708740 0.000000 198.000000 -0.135167 0.800607 -0.583745
-5.55999994 -3.65000010 0.73000002 89 54 184 0.000000 0.000000 0.000000 0.000000 -60.708740 0.000000 198.000000 -0.135167 0.800607 -0.583745
-5.61999989 -3.46000004 0.92000002 89 54 184 0.000000 0.000000 0.000000 0.000000 -60.708740 0.000000 198.000000 0.456887 -0.536634 0.709421
-5.69000006 -3.44000006 0.86000001 89 54 184 0.000000 0.000000 0.000000 0.000000 -60.708740 0.000000 198.000000 -0.015338 -0.695781 0.718090
-5.67999983 -3.34999990 0.49000001 89 54 184 0.000000 0.000000 0.000000 0.000000 -60.708740 0.000000 198.000000 -0.267053 -0.319587 0.909146
-5.73000002 -3.33999991 0.50999999 89 54 184 0.000000 0.000000 0.000000 0.000000 -60.708740 0.000000 198.000000 0.488421 0.748255 -0.448953
-5.75000000 -3.36999989 0.33000001 89 54 184 0.000000 0.000000 0.000000 0.000000 -60.708740 0.000000 198.000000 0.957943 0.031142 0.285265
-5.76000023 -3.30999994 0.27000001 89 54 184 0.000000 0.000000 0.000000 0.000000 -60.708740 0.000000 198.000000 0.938745 -0.026821 0.343568
-5.75000000 -3.26999998 0.15000001 89 54 184 0.000000 0.000000 0.000000 0.000000 -60.708740 0.000000 198.000000 0.272285 -0.493225 0.826190
-5.59000015 -3.51999998 0.61000001 89 54 184 0.000000 0.000000 0.000000 0.000000 -60.708740 0.000000 198.000000 0.124291 -0.345555 0.930131
-5.59999990 -3.50999999 0.56000000 89 54 184 0.000000 0.000000 0.000000 0.000000 -60.708740 0.000000 198.000000 0.089041 -0.646642 0.757579
-5.59999990 -3.49000001 0.52999997 89 54 184 0.000000 0.000000 0.000000 0.000000 -60.708740 0.000000 198.000000 -0.383896 0.677172 -0.627744
-5.59999990 -3.49000001 0.52999997 89 54 184 0.000000 0.000000 0.000000 0.000000 -60.708740 0.000000 198.000000 -0.383896 0.677172 -0.627744
-5.59000015 -3.69000006 0.52999997 89 54 184 0.000000 0.000000 0.000000 0.000000 -60.708740 0.000000 198.000000 -0.416788 0.689111 -0.592802
-5.57000017 -3.71000004 0.50000000 89 54 184 0.000000 0.000000 0.000000 0.000000 -60.708740 0.000000 198.000000 -0.293734 0.812087 -0.504217
-5.55999994 -3.73000002 0.41999999 89 54 184 0.000000 0.000000 0.000000 0.000000 -60.708740 0.000000 198.000000 -0.204498 -0.579666 0.788776
-5.57000017 -3.70000005 0.41000000 89 54 184 0.000000 0.000000 0.000000 0.000000 -60.708740 0.000000 198.000000 0.122688 -0.793779 0.595704
-5.55999994 -3.67000008 0.43000001 89 54 184 0.000000 0.000000 0.000000 0.000000 -60.708740 0.000000 198.000000 0.120050 -0.772176 0.623965
-5.57000017 -3.65000010 0.38999999 89 54 184 0.000000 0.000000 0.000000 0.000000 -60.708740 0.000000 198.000000 0.459733 -0.401661 0.792031
-5.61999989 -3.47000003 0.61000001 89 54 184 0.000000 0.000000 0.000000 0.000000 -60.708740 0.000000 198.000000 -0.009223 -0.446667 0.894653
-5.65000010 -3.40000010 0.57999998 89 54 184 0.000000 0.000000 0.000000 0.000000 -60.708740 0.000000 198.000000 0.098604 0.687286 -0.719663
-5.61999989 -3.41000009 0.64999998 89 54 184 0.000000 0.000000 0.000000 0.000000 -60.708740 0.000000 198.000000 0.213731 -0.405351 0.888825
-5.65000010 -3.43000007 0.47000000 89 54 184 0.000000 0.000000 0.000000 0.000000 -60.708740 0.000000 198.000000 -0.399834 -0.504281 0.765397
-5.61999989 -3.43000007 0.43000001 89 54 184 0.000000 0.000000 0.000000 0.000000 -60.708740 0.000000 198.000000 0.198634 -0.387120 0.900379
-5.59999990 -3.45000005 0.00000000 89 54 184 0.000000 0.000000 0.000000 0.000000 -60.708740 0.000000 198.000000 -0.091649 0.778292 -0.621179
-5.53999996 -3.71000004 0.30000001 89 54 184 0.000000 0.000000 0.000000 0.000000 -60.708740 0.000000 198.000000 0.494888 -0.508218 0.704840
-5.55000019 -3.71000004 0.20999999 89 54 184 0.000000 0.000000 0.000000 0.000000 -60.708740 0.000000 198.000000 0.269528 -0.503223 0.821049
-5.80000019 -3.27999997 0.99000001 89 54 184 0.000000 0.000000 0.000000 0.000000 -60.708740 0.000000 198.000000 -0.115937 -0.412065 0.903749
-5.80999994 -3.26999998 0.92000002 89 54 184 0.000000 0.000000 0.000000 0.000000 -60.708740 0.000000 198.000000 0.353276 0.779143 -0.517815
-5.84999990 -3.25999999 0.97000003 89 54 184 0.000000 0.000000 0.000000 0.000000 -60.708740 0.000000 198.000000 -0.233869 -0.682772 0.692190
-5.84000015 -3.27999997 0.97000003 89 54 184 0.000000 0.000000 0.000000 0.000000 -60.708740 0.000000 198.000000 0.428473 0.807199 -0.406006
-5.80000019 -3.28999996 0.95999998 89 54 184 0.000000 0.000000 0.000000 0.000000 -60.708740 0.000000 198.000000 0.329890 0.761160 -0.558398
-5.84999990 -3.25000000 0.82999998 89 54 184 0.000000 0.000000 0.000000 0.000000 -60.708740 0.000000 198.000000 -0.510518 -0.256035 0.820864
-5.82000017 -3.27999997 0.79000002 89 54 184 0.000000 0.000000 0.000000 0.000000 -60.708740 0.000000 198.000000 0.387544 0.830452 -0.400199
-5.82999992 -3.26999998 0.79000002 89 54 184 0.000000 0.000000 0.000000 0.000000 -60.708740 0.000000 198.000000 0.335233 0.733626 -0.591111
-5.82000017 -3.26999998 0.79000002 89 54 184 0.000000 0.000000 0.000000 0.000000 -60.708740 0.000000 198.000000 0.520179 0.641386 -0.563948
-5.90000010 -3.24000001 0.75999999 89 54 184 0.000000 0.000000 0.000000 0.000000 -60.708740 0.000000 198.000000 0.768760 0.442322 -0.461909
-5.88000011 -3.25999999 0.67000002 89 54 184 0.000000 0.000000 0.000000 0.000000 -60.708740 0.000000 198.000000 0.673985 0.708229 -0.210134
-5.96000004 -3.24000001 0.69999999 89 54 184 0.000000 0.000000 0.000000 0.000000 -60.708740 0.000000 198.000000 0.665132 0.571310 -0.480838
-5.82999992 -3.27999997 0.58999997 89 54 184 0.000000 0.000000 0.000000 0.000000 -60.708740 0.000000 198.000000 0.644680 0.493188 -0.584083
-5.84999990 -3.23000002 0.52999997 89 54 184 0.000000 0.000000 0.000000 0.000000 -60.708740 0.000000 198.000000 0.852258 0.461957 -0.245462
-5.88000011 -3.26999998 0.62000000 89 54 184 0.000000 0.000000 0.000000 0.000000 -60.708740 0.000000 198.000000 0.539527 0.590266 -0.600414
-5.90999985 -3.25000000 0.50000000 89 54 184 0.000000 0.000000 0.000000 0.000000 -60.708740 0.000000 198.000000 0.947462 0.241992 0.209180
-5.96999979 -3.24000001 0.60000002 89 54 184 0.000000 0.000000 0.000000 0.000000 -60.708740 0.000000 198.000000 0.975449 0.105892 -0.193097
-6.01999998 -3.23000002 0.51999998 89 54 184 0.000000 0.000000 0.000000 0.000000 -60.708740 0.000000 198.000000 0.956808 0.273930 0.097369
-6.01999998 -3.23000002 0.50999999 89 54 184 0.000000 0.000000 0.000000 0.000000 -60.708740 0.000000 198.000000 0.983589 -0.154924 0.092474
-6.07999992 -3.24000001 0.58999997 89 54 184 0.000000 0.000000 0.000000 0.000000 -60.708740 0.000000 198.000000 0.996288 -0.048998 0.070775
-5.78999996 -3.30999994 0.07000000 89 54 184 0.000000 0.000000 0.000000 0.000000 -60.708740 0.000000 198.000000 0.573296 -0.301819 0.761733
-6.01999998 -3.25000000 0.28000000 89 54 184 0.000000 0.000000 0.000000 0.000000 -60.708740 0.000000 198.000000 0.918290 -0.386577 0.085454
-6.05999994 -3.24000001 0.22000000 89 54 184 0.000000 0.000000 0.000000 0.000000 -60.708740 0.000000 198.000000 0.773215 -0.421606 0.473696
-6.00000000 -3.25999999 0.09000000 89 54 184 0.000000 0.000000 0.000000 0.000000 -60.708740 0.000000 198.000000 0.944220 -0.215783 0.248768
-5.98999977 -3.25000000 0.02000000 89 54 184 0.000000 0.000000 0.000000 0.000000 -60.708740 0.000000 198.000000 0.742891 -0.110769 0.660184
-6.13000011 -3.27999997 0.41000000 89 54 184 0.000000 0.000000 0.000000 0.000000 -60.708740 0.000000 198.000000 0.939945 0.032058 -0.339816
-6.15999985 -3.29999995 0.37000000 89 54 184 0.000000 0.000000 0.000000 0.000000 -60.708740 0.000000 198.000000 0.954186 -0.108638 -0.278795
-6.17999983 -3.31999993 0.44000000 89 54 184 0.000000 0.000000 0.000000 0.000000 -60.708740 0.000000 198.000000 0.884300 0.384543 0.264841
-6.15000010 -3.29999995 0.16000000 89 54 184 0.000000 0.000000 0.000000 0.000000 -60.708740 0.000000 198.000000 0.804363 -0.291208 0.517878
-6.19999981 -3.33999991 0.20000000 89 54 184 0.000000 0.000000 0.000000 0.000000 -60.708740 0.000000 198.000000 0.997420 0.020139 0.068897
-6.19999981 -3.33999991 0.20000000 89 54 184 0.000000 0.000000 0.000000 0.000000 -60.708740 0.000000 198.000000 0.997420 0.020139 0.068897
-6.23000002 -3.38000011 0.23000000 89 54 184 0.000000 0.000000 0.000000 0.000000 -60.708740 0.000000 198.000000 0.926130 0.374393 -0.045978
-6.26000023 -3.40000010 0.56000000 89 54 184 0.000000 0.000000 0.000000 0.000000 -60.708740 0.000000 198.000000 0.869337 0.213234 -0.445852
-6.25000000 -3.43000007 0.07000000 89 54 184 0.000000 0.000000 0.000000 0.000000 -60.708740 0.000000 198.000000 0.894864 -0.075836 0.439849
-6.26999998 -3.45000005 0.11000000 89 54 184 0.000000 0.000000 0.000000 0.000000 -60.708740 0.000000 198.000000 0.869691 -0.097893 0.483792
-6.25000000 -3.42000008 0.04000000 89 54 184 0.000000 0.000000 0.000000 0.000000 -60.708740 0.000000 198.000000 0.920595 -0.001280 0.390517
-5.73000002 -3.93000007 0.70999998 89 54 184 0.000000 0.000000 0.000000 0.000000 -60.708740 0.000000 198.000000 -0.030686 -0.433611 0.900577
-5.61000013 -3.81999993 0.55000001 89 54 184 0.000000 0.000000 0.000000 0.000000 -60.708740 0.000000 198.000000 -0.129487 0.848213 -0.513583
-5.57000017 -3.83999991 0.52999997 89 54 184 0.000000 0.000000 0.000000 0.000000 -60.708740 0.000000 198.000000 0.006132 -0.295545 0.955309
-5.57999992 -3.79999995 0.33000001 89 54 184 0.000000 0.000000 0.000000 0.000000 -60.708740 0.000000 198.000000 -0.400738 0.707475 -0.582141
-5.59999990 -3.79999995 0.37000000 89 54 184 0.000000 0.000000 0.000000 0.000000 -60.708740 0.000000 198.000000 -0.112525 0.873135 -0.474313
-5.59999990 -3.84999990 0.34000000 89 54 184 0.000000 0.000000 0.000000 0.000000 -60.708740 0.000000 198.000000 -0.148717 0.846655 -0.510938
-5.65999985 -3.88000011 0.49000001 89 54 184 0.000000 0.000000 0.000000 0.000000 -60.708740 0.000000 198.000000 0.222664 -0.608822 0.761417
-5.61999989 -3.84999990 0.38000000 89 54 184 0.000000 0.000000 0.000000 0.000000 -60.708740 0.000000 198.000000 -0.215734 0.815504 -0.537040
-5.69000006 -3.93000007 0.54000002 89 54 184 0.000000 0.000000 0.000000 0.000000 -60.708740 0.000000 198.000000 -0.225938 -0.329553 0.916704
-5.76999998 -3.99000001 0.55000001 89 54 184 0.000000 0.000000 0.000000 0.000000 -60.708740 0.000000 198.000000 0.452339 0.689358 -0.565841
-5.71000004 -3.94000006 0.34999999 89 54 184 0.000000 0.000000 0.000000 0.000000 -60.708740 0.000000 198.000000 -0.414740 -0.370585 0.831058
-5.59999990 -3.80999994 0.31000000 89 54 184 0.000000 0.000000 0.000000 0.000000 -60.708740 0.000000 198.000000 -0.146434 -0.671783 0.726130
-5.59999990 -3.80999994 0.31000000 89 54 184 0.000000 0.000000 0.000000 0.000000 -60.708740 0.000000 198.000000 -0.146434 -0.671783 0.726130
-5.61000013 -3.82999992 0.15000001 89 54 184 0.000000 0.000000 0.000000 0.000000 -60.708740 0.000000 198.000000 -0.069256 -0.327985 0.942141
-5.59999990 -3.82999992 0.15000001 89 54 184 0.000000 0.000000 0.000000 0.000000 -60.708740 0.000000 198.000000 0.226128 -0.530710 0.816831
-5.61999989 -3.81999993 0.08000000 89 54 184 0.000000 0.000000 0.000000 0.000000 -60.708740 0.000000 198.000000 -0.340374 -0.503370 0.794206
-5.65999985 -3.91000009 0.28000000 89 54 184 0.000000 0.000000 0.000000 0.000000 -60.708740 0.000000 198.000000 -0.096979 0.820706 -0.563060
-5.63000011 -3.95000005 0.23000000 89 54 184 0.000000 0.000000 0.000000 0.000000 -60.708740 0.000000 198.000000 0.059900 -0.502880 0.862278
-5.67999983 -3.94000006 0.07000000 89 54 184 0.000000 0.000000 0.000000 0.000000 -60.708740 0.000000 198.000000 -0.542271 -0.555785 0.630115
-5.67999983 -3.94000006 0.07000000 89 54 184 0.000000 0.000000 0.000000 0.000000 -60.708740 0.000000 198.000000 -0.542271 -0.555785 0.630115
-5.63999987 -3.91000009 0.01000000 89 54 184 0.000000 0.000000 0.000000 0.000000 -60.708740 0.000000 198.000000 -0.340522 -0.304520 0.889557
-5.82000017 -3.99000001 0.51999998 89 54 184 0.000000 0.000000 0.000000 0.000000 -60.708740 0.000000 198.000000 0.049925 0.751727 -0.657582
-5.86000013 -4.00000000 0.52999997 89 54 184 0.000000 0.000000 0.000000 0.000000 -60.708740 0.000000 198.000000 0.595217 0.409523 -0.691381
-5.92000008 -4.01000023 0.54000002 89 54 184 0.000000 0.000000 0.000000 0.000000 -60.708740 0.000000 198.000000 -0.477962 -0.288023 0.829817
-5.92000008 -3.99000001 0.55000001 89 54 184 0.000000 0.000000 0.000000 0.000000 -60.708740 0.000000 198.000000 -0.166559 -0.559697 0.811786
-5.86999989 -4.03000021 0.46000001 89 54 184 0.000000 0.000000 0.000000 0.000000 -60.708740 0.000000 198.000000 -0.133057 -0.444953 0.885614
-5.84000015 -4.01000023 0.34000000 89 54 184 0.000000 0.000000 0.000000 0.000000 -60.708740 0.000000 198.000000 -0.218476 -0.471606 0.854316
-6.01000023 -3.98000002 0.41000000 89 54 184 0.000000 0.000000 0.000000 0.000000 -60.708740 0.000000 198.000000 0.727209 0.482045 -0.488671
-6.07999992 -3.97000003 0.37000000 89 54 184 0.000000 0.000000 0.000000 0.000000 -60.708740 0.000000 198.000000 0.564935 0.517717 -0.642509
-5.88000011 -4.00000000 0.23000000 89 54 184 0.000000 0.000000 0.000000 0.000000 -60.708740 0.000000 198.000000 0.576462 0.772302 -0.266910
-5.94999981 -4.03000021 0.00000000 89 54 184 0.000000 0.000000 0.000000 0.000000 -60.708740 0.000000 198.000000 0.720615 0.665064 -0.195970
-5.96000004 -4.03000021 0.20999999 89 54 184 0.000000 0.000000 0.000000 0.000000 -60.708740 0.000000 198.000000 0.789934 0.204002 -0.578262
-6.05999994 -3.97000003 0.31000000 89 54 184 0.000000 0.000000 0.000000 0.000000 -60.708740 0.000000 198.000000 0.926290 0.181322 -0.330316
-6.05999994 -3.97000003 0.14000000 89 54 184 0.000000 0.000000 0.000000 0.000000 -60.708740 0.000000 198.000000 0.875733 0.477546 -0.071005
-6.07999992 -3.98000002 0.00000000 89 54 184 0.000000 0.000000 0.000000 0.000000 -60.708740 0.000000 198.000000 0.930313 0.221638 -0.292223
-6.15000010 -3.92000008 0.34999999 89 54 184 0.000000 0.000000 0.000000 0.000000 -60.708740 0.000000 198.000000 0.852284 0.386555 -0.352402
-6.13999987 -3.95000005 0.36000001 89 54 184 0.000000 0.000000 0.000000 0.000000 -60.708740 0.000000 198.000000 0.798118 0.407927 -0.443399
-6.15000010 -3.88000011 0.22000000 89 54 184 0.000000 0.000000 0.000000 0.000000 -60.708740 0.000000 198.000000 0.885538 0.204808 -0.416984
-6.15000010 -3.89000010 0.16000000 89 54 184 0.000000 0.000000 0.000000 0.000000 -60.708740 0.000000 198.000000 0.915911 0.368340 0.159473
-6.21999979 -3.81999993 0.18000001 89 54 184 0.000000 0.000000 0.000000 0.000000 -60.708740 0.000000 198.000000 0.998340 0.057137 0.007272
-6.19999981 -3.85999990 0.04000000 89 54 184 0.000000 0.000000 0.000000 0.000000 -60.708740 0.000000 198.000000 0.855582 0.309860 -0.414688
-6.21999979 -3.80999994 0.08000000 89 54 184 0.000000 0.000000 0.000000 0.000000 -60.708740 0.000000 198.000000 0.997711 -0.037268 -0.056434
-6.15999985 -3.92000008 0.19000000 89 54 184 0.000000 0.000000 0.000000 0.000000 -60.708740 0.000000 198.000000 0.966331 0.256473 0.020664
-5.73999977 -3.30999994 -0.40000001 89 54 184 0.000000 0.000000 0.000000 0.000000 -60.708740 0.000000 198.000000 0.306907 -0.229823 0.923575
-5.59999990 -3.45000005 -0.07000000 89 54 184 0.000000 0.000000 0.000000 0.000000 -60.708740 0.000000 198.000000 -0.269891 -0.464213 0.843603
-5.57000017 -3.51999998 -0.04000000 89 54 184 0.000000 0.000000 0.000000 0.000000 -60.708740 0.000000 198.000000 0.452631 0.528898 -0.717909
-5.55999994 -3.52999997 -0.13000000 89 54 184 0.000000 0.000000 0.000000 0.000000 -60.708740 0.000000 198.000000 -0.164629 -0.602632 0.780854
-5.59000015 -3.50999999 -0.14000000 89 54 184 0.000000 0.000000 0.000000 0.000000 -60.708740 0.000000 198.000000 0.144817 -0.335149 0.930969
-5.55000019 -3.51999998 -0.23000000 89 54 184 0.000000 0.000000 0.000000 0.000000 -60.708740 0.000000 198.000000 0.080448 -0.509503 0.856700
-5.61000013 -3.50999999 -0.34000000 89 54 184 0.000000 0.000000 0.000000 0.000000 -60.708740 0.000000 198.000000 -0.094001 -0.577022 0.811301
-5.55999994 -3.54999995 -0.28999999 89 54 184 0.000000 0.000000 0.000000 0.000000 -60.708740 0.000000 198.000000 0.370096 0.741823 -0.559220
-5.57000017 -3.51999998 -0.30000001 89 54 184 0.000000 0.000000 0.000000 0.000000 -60.708740 0.000000 198.000000 0.034863 -0.349919 0.936131
-5.53000021 -3.61999989 -0.15000001 89 54 184 0.000000 0.000000 0.000000 0.000000 -60.708740 0.000000 198.000000 0.212129 0.769550 -0.602324
-5.53999996 -3.58999991 -0.17000000 89 54 184 0.000000 0.000000 0.000000 0.000000 -60.708740 0.000000 198.000000 0.499747 0.718905 -0.483144
-5.53999996 -3.73000002 -0.13000000 89 54 184 0.000000 0.000000 0.000000 0.000000 -60.708740 0.000000 198.000000 0.255944 0.844462 -0.470508
-5.53999996 -3.66000009 -0.16000000 89 54 184 0.000000 0.000000 0.000000 0.000000 -60.708740 0.000000 198.000000 0.020811 -0.606288 0.794973
-5.53000021 -3.64000010 -0.31999999 89 54 184 0.000000 0.000000 0.000000 0.000000 -60.708740 0.000000 198.000000 0.129153 -0.779372 0.613106
-5.53999996 -3.70000005 -0.19000000 89 54 184 0.000000 0.000000 0.000000 0.000000 -60.708740 0.000000 198.000000 0.572934 0.620255 -0.535752
-5.65999985 -3.40000010 -0.10000000 89 54 184 0.000000 0.000000 0.000000 0.000000 -60.708740 0.000000 198.000000 0.391424 -0.338821 0.855563
-5.63000011 -3.44000006 -0.23999999 89 54 184 0.000000 0.000000 0.000000 0.000000 -60.708740 0.000000 198.000000 0.098321 -0.294963 0.950437
-5.63000011 -3.41000009 -0.31999999 89 54 184 0.000000 0.000000 0.000000 0.000000 -60.708740 0.000000 198.000000 0.315307 0.671037 -0.671037
-5.57000017 -3.45000005 -0.63999999 89 54 184 0.000000 0.000000 0.000000 0.000000 -60.708740 0.000000 198.000000 -0.003896 0.907762 -0.419467
-5.57000017 -3.48000002 -0.63999999 89 54 184 0.000000 0.000000 0.000000 0.000000 -60.708740 0.000000 198.000000 0.246168 0.812819 -0.527945
