//X Y Z R G B PointSourceId ScanDirectionFlag NumberOfReturns ReturnNumber GpsTime Intensity Classification Nx Ny Nz
0.50000000 -9.19999981 -0.92000002 201 93 108 0.000000 0.000000 0.000000 0.000000 -60.708740 0.000000 143.000000 0.031466 0.857792 -0.513033
0.50000000 -9.22999954 -0.86000001 201 93 108 0.000000 0.000000 0.000000 0.000000 -60.708740 0.000000 143.000000 0.383119 0.718553 -0.580433
0.46000001 -9.21000004 -0.88000000 201 93 108 0.000000 0.000000 0.000000 0.000000 -60.708740 0.000000 143.000000 0.501617 0.851718 -0.151515
0.44999999 -9.22000027 -0.89999998 201 93 108 0.000000 0.000000 0.000000 0.000000 -60.708740 0.000000 143.000000 0.348983 0.779986 -0.519454
0.43000001 -9.19999981 -0.92000002 201 93 108 0.000000 0.000000 0.000000 0.000000 -60.708740 0.000000 143.000000 0.808637 0.535470 -0.243677
0.43000001 -9.22000027 -0.92000002 201 93 108 0.000000 0.000000 0.000000 0.000000 -60.708740 0.000000 143.000000 0.647919 0.696392 -0.308610
0.44000000 -9.18999958 -0.93000001 201 93 108 0.000000 0.000000 0.000000 0.000000 -60.708740 0.000000 143.000000 0.111454 0.917773 -0.381144
0.44999999 -9.22000027 -0.94000000 201 93 108 0.000000 0.000000 0.000000 0.000000 -60.708740 0.000000 143.000000 0.717410 0.651187 -0.247546
0.43000001 -9.18999958 -0.93000001 201 93 108 0.000000 0.000000 0.000000 0.000000 -60.708740 0.000000 143.000000 0.576994 0.745082 -0.334560
0.44999999 -9.22999954 -0.91000003 201 93 108 0.000000 0.000000 0.000000 0.000000 -60.708740 0.000000 143.000000 0.592565 0.788579 -0.164350
0.47999999 -9.22000027 -0.94999999 201 93 108 0.000000 0.000000 0.000000 0.000000 -60.708740 0.000000 143.000000 0.483960 0.870564 -0.088891
0.47999999 -9.22000027 -0.95999998 201 93 108 0.000000 0.000000 0.000000 0.000000 -60.708740 0.000000 143.000000 0.417511 0.721155 -0.552830
0.47999999 -9.21000004 -0.95999998 201 93 108 0.000000 0.000000 0.000000 0.000000 -60.708740 0.000000 143.000000 0.054828 0.952475 -0.299641
0.49000001 -9.22000027 -1.00999999 201 93 108 0.000000 0.000000 0.000000 0.000000 -60.708740 0.000000 143.000000 0.470796 0.756227 -0.454392
0.49000001 -9.21000004 -1.00999999 201 93 108 0.000000 0.000000 0.000000 0.000000 -60.708740 0.000000 143.000000 0.085963 0.940303 -0.329304
0.47000000 -9.25000000 -0.94999999 201 93 108 0.000000 0.000000 0.000000 0.000000 -60.708740 0.000000 143.000000 0.229388 0.958658 -0.168395
0.44000000 -9.21000004 -0.95999998 201 93 108 0.000000 0.000000 0.000000 0.000000 -60.708740 0.000000 143.000000 0.476193 0.839887 -0.260442
0.43000001 -9.21000004 -0.98000002 201 93 108 0.000000 0.000000 0.000000 0.000000 -60.708740 0.000000 143.000000 0.058777 0.889853 -0.452445
0.44000000 -9.22000027 -0.98000002 201 93 108 0.000000 0.000000 0.000000 0.000000 -60.708740 0.000000 143.000000 0.612676 0.716685 -0.333153
0.44000000 -9.21000004 -0.97000003 201 93 108 0.000000 0.000000 0.000000 0.000000 -60.708740 0.000000 143.000000 0.426889 0.800619 -0.420446
0.44999999 -9.22000027 -1.01999998 201 93 108 0.000000 0.000000 0.000000 0.000000 -60.708740 0.000000 143.000000 0.545277 0.833023 -0.093517
0.43000001 -9.22000027 -0.99000001 201 93 108 0.000000 0.000000 0.000000 0.000000 -60.708740 0.000000 143.000000 0.157524 0.796623 -0.583590
0.43000001 -9.22000027 -0.99000001 201 93 108 0.000000 0.000000 0.000000 0.000000 -60.708740 0.000000 143.000000 0.157524 0.796623 -0.583590
0.43000001 -9.22000027 -0.99000001 201 93 108 0.000000 0.000000 0.000000 0.000000 -60.708740 0.000000 143.000000 0.157524 0.796623 -0.583590
0.40000001 -9.10999966 -0.88999999 201 93 108 0.000000 0.000000 0.000000 0.000000 -60.708740 0.000000 143.000000 0.720120 0.407024 -0.561924
0.40000001 -9.17000008 -0.87000000 201 93 108 0.000000 0.000000 0.000000 0.000000 -60.708740 0.000000 143.000000 0.808520 0.473630 -0.349242
0.41999999 -9.15999985 -0.89999998 201 93 108 0.000000 0.000000 0.000000 0.000000 -60.708740 0.000000 143.000000 0.796654 0.506091 -0.330476
0.40000001 -9.18000031 -0.93000001 201 93 108 0.000000 0.000000 0.000000 0.000000 -60.708740 0.000000 143.000000 0.569787 0.696037 -0.436892
0.41999999 -9.18000031 -0.93000001 201 93 108 0.000000 0.000000 0.000000 0.000000 -60.708740 0.000000 143.000000 0.655403 0.749242 -0.095305
0.40000001 -9.18000031 -0.93000001 201 93 108 0.000000 0.000000 0.000000 0.000000 -60.708740 0.000000 143.000000 0.569787 0.696037 -0.436892
0.41000000 -9.15999985 -0.91000003 201 93 108 0.000000 0.000000 0.000000 0.000000 -60.708740 0.000000 143.000000 0.523531 0.734925 -0.431046
0.38000000 -9.15999985 -0.93000001 201 93 108 0.000000 0.000000 0.000000 0.000000 -60.708740 0.000000 143.000000 0.628768 0.741665 -0.233632
0.41999999 -9.17000008 -0.98000002 201 93 108 0.000000 0.000000 0.000000 0.000000 -60.708740 0.000000 143.000000 0.481238 0.675746 -0.558370
0.41999999 -9.14999962 -0.97000003 201 93 108 0.000000 0.000000 0.000000 0.000000 -60.708740 0.000000 143.000000 0.648259 0.574173 -0.500086
0.41999999 -9.18999958 -0.94000000 201 93 108 0.000000 0.000000 0.000000 0.000000 -60.708740 0.000000 143.000000 0.660981 0.621023 -0.421230
0.41999999 -9.18999958 -0.92000002 201 93 108 0.000000 0.000000 0.000000 0.000000 -60.708740 0.000000 143.000000 0.639507 0.768784 0.001375
0.41999999 -9.18999958 -0.91000003 201 93 108 0.000000 0.000000 0.000000 0.000000 -60.708740 0.000000 143.000000 0.561078 0.530749 -0.635214
0.41999999 -9.18999958 -0.92000002 201 93 108 0.000000 0.000000 0.000000 0.000000 -60.708740 0.000000 143.000000 0.639507 0.768784 0.001375
0.41999999 -9.19999981 -0.93000001 201 93 108 0.000000 0.000000 0.000000 0.000000 -60.708740 0.000000 143.000000 0.662850 0.619657 -0.420303
0.41999999 -9.22000027 -0.97000003 201 93 108 0.000000 0.000000 0.000000 0.000000 -60.708740 0.000000 143.000000 0.375527 0.924886 -0.059713
0.41000000 -9.18999958 -0.94999999 201 93 108 0.000000 0.000000 0.000000 0.000000 -60.708740 0.000000 143.000000 0.765776 0.549746 -0.333717
0.40000001 -9.22000027 -1.00000000 201 93 108 0.000000 0.000000 0.000000 0.000000 -60.708740 0.000000 143.000000 0.444234 0.895178 -0.036237
0.38999999 -9.21000004 -1.00000000 201 93 108 0.000000 0.000000 0.000000 0.000000 -60.708740 0.000000 143.000000 0.502899 0.859059 -0.095451
0.40000001 -9.22000027 -0.99000001 201 93 108 0.000000 0.000000 0.000000 0.000000 -60.708740 0.000000 143.000000 0.452031 0.879512 -0.148752
0.40000001 -9.22000027 -0.99000001 201 93 108 0.000000 0.000000 0.000000 0.000000 -60.708740 0.000000 143.000000 0.452031 0.879512 -0.148752
0.40000001 -9.22000027 -1.01999998 201 93 108 0.000000 0.000000 0.000000 0.000000 -60.708740 0.000000 143.000000 0.281847 0.801454 -0.527479
0.41999999 -9.22000027 -1.00000000 201 93 108 0.000000 0.000000 0.000000 0.000000 -60.708740 0.000000 143.000000 0.533884 0.706855 -0.464030
0.38999999 -9.21000004 -1.00000000 201 93 108 0.000000 0.000000 0.000000 0.000000 -60.708740 0.000000 143.000000 0.502899 0.859059 -0.095451
0.41999999 -9.21000004 -0.99000001 201 93 108 0.000000 0.000000 0.000000 0.000000 -60.708740 0.000000 143.000000 0.450407 0.816462 -0.361280
0.38999999 -9.21000004 -1.00000000 201 93 108 0.000000 0.000000 0.000000 0.000000 -60.708740 0.000000 143.000000 0.502899 0.859059 -0.095451
0.41999999 -9.22999954 -1.00000000 201 93 108 0.000000 0.000000 0.000000 0.000000 -60.708740 0.000000 143.000000 0.730169 0.559523 -0.392158
0.51999998 -9.23999977 -1.04999995 201 93 108 0.000000 0.000000 0.000000 0.000000 -60.708740 0.000000 143.000000 -0.364653 0.915179 -0.171685
0.49000001 -9.22000027 -1.03999996 201 93 108 0.000000 0.000000 0.000000 0.000000 -60.708740 0.000000 143.000000 0.118691 0.819114 -0.561217
0.49000001 -9.22000027 -1.02999997 201 93 108 0.000000 0.000000 0.000000 0.000000 -60.708740 0.000000 143.000000 -0.168650 0.929663 -0.327542
0.50000000 -9.22000027 -1.03999996 201 93 108 0.000000 0.000000 0.000000 0.000000 -60.708740 0.000000 143.000000 0.167272 0.980433 -0.103782
0.49000001 -9.23999977 -1.04999995 201 93 108 0.000000 0.000000 0.000000 0.000000 -60.708740 0.000000 143.000000 0.116122 0.975176 -0.188542
0.50000000 -9.23999977 -1.07000005 201 93 108 0.000000 0.000000 0.000000 0.000000 -60.708740 0.000000 143.000000 0.044906 0.995608 0.082146
0.46000001 -9.19999981 -1.02999997 201 93 108 0.000000 0.000000 0.000000 0.000000 -60.708740 0.000000 143.000000 0.459713 0.663658 -0.590104
0.44000000 -9.21000004 -1.03999996 201 93 108 0.000000 0.000000 0.000000 0.000000 -60.708740 0.000000 143.000000 0.424083 0.846613 -0.321558
0.44999999 -9.22000027 -1.04999995 201 93 108 0.000000 0.000000 0.000000 0.000000 -60.708740 0.000000 143.000000 -0.047856 0.881909 -0.468984
0.44000000 -9.23999977 -1.05999994 201 93 108 0.000000 0.000000 0.000000 0.000000 -60.708740 0.000000 143.000000 0.466512 0.873808 -0.137209
0.44999999 -9.25000000 -1.03999996 201 93 108 0.000000 0.000000 0.000000 0.000000 -60.708740 0.000000 143.000000 0.258049 0.925269 -0.278008
0.44000000 -9.25000000 -1.03999996 201 93 108 0.000000 0.000000 0.000000 0.000000 -60.708740 0.000000 143.000000 0.635311 0.766755 -0.092011
0.47000000 -9.27000046 -1.05999994 201 93 108 0.000000 0.000000 0.000000 0.000000 -60.708740 0.000000 143.000000 0.217812 0.783196 -0.582376
0.15000001 -8.59000015 -1.00000000 201 93 108 0.000000 0.000000 0.000000 0.000000 -60.708740 0.000000 134.000000 0.659894 -0.650020 0.376847
0.12000000 -8.65999985 -0.76999998 201 93 108 0.000000 0.000000 0.000000 0.000000 -60.708740 0.000000 134.000000 -0.570084 0.809963 0.137709
0.13000000 -8.67000008 -0.83999997 201 93 108 0.000000 0.000000 0.000000 0.000000 -60.708740 0.000000 134.000000 0.728430 -0.675021 0.117202
0.11000000 -8.64999962 -0.85000002 201 93 108 0.000000 0.000000 0.000000 0.000000 -60.708740 0.000000 134.000000 -0.561162 0.827194 -0.029097
0.18000001 -8.68000031 -0.94999999 201 93 108 0.000000 0.000000 0.000000 0.000000 -60.708740 0.000000 134.000000 -0.601528 0.798841 -0.004111
0.15000001 -8.64999962 -0.87000000 201 93 108 0.000000 0.000000 0.000000 0.000000 -60.708740 0.000000 134.000000 -0.481544 0.857889 0.179282
0.14000000 -8.72000027 -0.89999998 201 93 108 0.000000 0.000000 0.000000 0.000000 -60.708740 0.000000 134.000000 0.668264 -0.608270 -0.428289
0.12000000 -8.68999958 -0.86000001 201 93 108 0.000000 0.000000 0.000000 0.000000 -60.708740 0.000000 134.000000 0.716231 -0.692892 -0.083147
0.10000000 -8.72999954 -0.92000002 201 93 108 0.000000 0.000000 0.000000 0.000000 -60.708740 0.000000 134.000000 -0.629351 0.736609 0.247639
0.12000000 -8.76000023 -0.94000000 201 93 108 0.000000 0.000000 0.000000 0.000000 -60.708740 0.000000 134.000000 0.705892 -0.515651 -0.485613
0.08000000 -8.75000000 -0.81000000 201 93 108 0.000000 0.000000 0.000000 0.000000 -60.708740 0.000000 134.000000 0.683080 -0.590008 -0.430457
0.08000000 -8.73999977 -0.87000000 201 93 108 0.000000 0.000000 0.000000 0.000000 -60.708740 0.000000 134.000000 0.693407 -0.607761 -0.387056
0.25000000 -8.84000015 -0.88999999 201 93 108 0.000000 0.000000 0.000000 0.000000 -60.708740 0.000000 143.000000 0.854180 -0.251229 -0.455258
0.10000000 -8.77999973 -0.92000002 201 93 108 0.000000 0.000000 0.000000 0.000000 -60.708740 0.000000 134.000000 0.652048 -0.642093 -0.403175
0.07000000 -8.77000046 -0.85000002 201 93 108 0.000000 0.000000 0.000000 0.000000 -60.708740 0.000000 134.000000 -0.666235 0.592765 0.452505
1.11000001 -8.90999985 0.61000001 201 93 108 0.000000 0.000000 0.000000 0.000000 -60.708740 0.000000 143.000000 -0.278684 0.929418 0.241903
1.11000001 -8.90999985 0.60000002 201 93 108 0.000000 0.000000 0.000000 0.000000 -60.708740 0.000000 143.000000 -0.433611 0.886074 -0.163873
1.10000002 -8.89999962 0.57999998 201 93 108 0.000000 0.000000 0.000000 0.000000 -60.708740 0.000000 143.000000 -0.101137 0.986383 0.129693
1.10000002 -8.89999962 0.57999998 201 93 108 0.000000 0.000000 0.000000 0.000000 -60.708740 0.000000 143.000000 -0.101137 0.986383 0.129693
1.11000001 -8.88000011 0.55000001 201 93 108 0.000000 0.000000 0.000000 0.000000 -60.708740 0.000000 143.000000 -0.644843 0.734966 -0.209768
1.12000000 -8.92000008 0.56000000 201 93 108 0.000000 0.000000 0.000000 0.000000 -60.708740 0.000000 143.000000 -0.429295 0.847742 0.311510
1.10000002 -8.89000034 0.54000002 201 93 108 0.000000 0.000000 0.000000 0.000000 -60.708740 0.000000 143.000000 -0.171960 0.985072 -0.007972
1.10000002 -8.94999981 0.63000000 201 93 108 0.000000 0.000000 0.000000 0.000000 -60.708740 0.000000 143.000000 -0.298676 0.804370 -0.513596
1.11000001 -8.94999981 0.58999997 201 93 108 0.000000 0.000000 0.000000 0.000000 -60.708740 0.000000 143.000000 -0.584826 0.756927 -0.291616
1.11000001 -8.94999981 0.51999998 201 93 108 0.000000 0.000000 0.000000 0.000000 -60.708740 0.000000 143.000000 -0.515261 0.765576 -0.385226
1.11000001 -8.96000004 0.55000001 201 93 108 0.000000 0.000000 0.000000 0.000000 -60.708740 0.000000 143.000000 -0.137391 0.987572 0.076328
1.15999997 -9.06999969 0.50999999 201 93 108 0.000000 0.000000 0.000000 0.000000 -60.708740 0.000000 143.000000 -0.572385 0.784496 -0.238624
1.14999998 -9.06000042 0.46000001 201 93 108 0.000000 0.000000 0.000000 0.000000 -60.708740 0.000000 143.000000 -0.159839 0.985868 0.050168
1.08000004 -8.85000038 0.61000001 201 93 108 0.000000 0.000000 0.000000 0.000000 -60.708740 0.000000 143.000000 -0.396709 0.887024 0.236243
1.07000005 -8.85000038 0.62000000 201 93 108 0.000000 0.000000 0.000000 0.000000 -60.708740 0.000000 143.000000 -0.092868 0.965575 0.242984
1.02999997 -8.85000038 0.63000000 201 93 108 0.000000 0.000000 0.000000 0.000000 -60.708740 0.000000 143.000000 -0.142829 0.906472 -0.397377
1.02999997 -8.85000038 0.63999999 201 93 108 0.000000 0.000000 0.000000 0.000000 -60.708740 0.000000 143.000000 0.346805 0.932461 -0.101208
1.04999995 -8.85000038 0.62000000 201 93 108 0.000000 0.000000 0.000000 0.000000 -60.708740 0.000000 143.000000 -0.304391 0.951381 0.047123
1.03999996 -8.85000038 0.62000000 201 93 108 0.000000 0.000000 0.000000 0.000000 -60.708740 0.000000 143.000000 -0.311039 0.878497 -0.362626
1.08000004 -8.84000015 0.60000002 201 93 108 0.000000 0.000000 0.000000 0.000000 -60.708740 0.000000 143.000000 -0.441395 0.878391 0.183304
1.09000003 -8.88000011 0.61000001 201 93 108 0.000000 0.000000 0.000000 0.000000 -60.708740 0.000000 143.000000 -0.028373 0.960997 -0.275099
1.07000005 -8.85999966 0.63000000 201 93 108 0.000000 0.000000 0.000000 0.000000 -60.708740 0.000000 143.000000 -0.406699 0.912754 0.038418
1.08000004 -8.88000011 0.62000000 201 93 108 0.000000 0.000000 0.000000 0.000000 -60.708740 0.000000 143.000000 -0.378690 0.913643 -0.147816
1.05999994 -8.85999966 0.56999999 201 93 108 0.000000 0.000000 0.000000 0.000000 -60.708740 0.000000 143.000000 -0.048928 0.921697 -0.384812
1.09000003 -8.85999966 0.57999998 201 93 108 0.000000 0.000000 0.000000 0.000000 -60.708740 0.000000 143.000000 -0.562521 0.826755 0.006810
1.09000003 -8.90999985 0.62000000 201 93 108 0.000000 0.000000 0.000000 0.000000 -60.708740 0.000000 143.000000 -0.027149 0.978551 -0.204209
1.03999996 -8.85999966 0.61000001 201 93 108 0.000000 0.000000 0.000000 0.000000 -60.708740 0.000000 143.000000 -0.172051 0.962699 -0.208826
1.03999996 -8.86999989 0.64999998 201 93 108 0.000000 0.000000 0.000000 0.000000 -60.708740 0.000000 143.000000 0.271688 0.962379 0.003623
1.03999996 -8.85999966 0.62000000 201 93 108 0.000000 0.000000 0.000000 0.000000 -60.708740 0.000000 143.000000 -0.278697 0.959956 0.028489
1.01999998 -8.88000011 0.56999999 201 93 108 0.000000 0.000000 0.000000 0.000000 -60.708740 0.000000 143.000000 0.142062 0.979611 -0.142062
1.03999996 -8.85999966 0.57999998 201 93 108 0.000000 0.000000 0.000000 0.000000 -60.708740 0.000000 143.000000 -0.253680 0.961924 0.101730
1.07000005 -8.88000011 0.52999997 201 93 108 0.000000 0.000000 0.000000 0.000000 -60.708740 0.000000 143.000000 -0.346100 0.914797 -0.208235
1.05999994 -8.85999966 0.55000001 201 93 108 0.000000 0.000000 0.000000 0.000000 -60.708740 0.000000 143.000000 -0.074787 0.994557 0.072555
1.02999997 -8.89000034 0.55000001 201 93 108 0.000000 0.000000 0.000000 0.000000 -60.708740 0.000000 143.000000 0.222030 0.918203 -0.328032
1.04999995 -8.85999966 0.52999997 201 93 108 0.000000 0.000000 0.000000 0.000000 -60.708740 0.000000 143.000000 -0.025855 0.990368 -0.136021
1.02999997 -8.88000011 0.55000001 201 93 108 0.000000 0.000000 0.000000 0.000000 -60.708740 0.000000 143.000000 -0.035969 0.985089 -0.168243
1.02999997 -8.85999966 0.51999998 201 93 108 0.000000 0.000000 0.000000 0.000000 -60.708740 0.000000 143.000000 0.263330 0.949339 -0.171502
1.01999998 -8.86999989 0.50000000 201 93 108 0.000000 0.000000 0.000000 0.000000 -60.708740 0.000000 143.000000 -0.388064 0.837402 -0.384922
1.04999995 -8.88000011 0.49000001 201 93 108 0.000000 0.000000 0.000000 0.000000 -60.708740 0.000000 143.000000 -0.080722 0.988546 -0.127517
1.00000000 -8.85999966 0.63999999 201 93 108 0.000000 0.000000 0.000000 0.000000 -60.708740 0.000000 143.000000 -0.177721 0.979306 -0.096827
0.99000001 -8.88000011 0.62000000 201 93 108 0.000000 0.000000 0.000000 0.000000 -60.708740 0.000000 143.000000 0.081878 0.990603 0.109554
0.99000001 -8.88000011 0.61000001 201 93 108 0.000000 0.000000 0.000000 0.000000 -60.708740 0.000000 143.000000 0.394759 0.810294 -0.433116
1.00000000 -8.86999989 0.62000000 201 93 108 0.000000 0.000000 0.000000 0.000000 -60.708740 0.000000 143.000000 -0.297171 0.940814 -0.162965
1.00999999 -8.85999966 0.56999999 201 93 108 0.000000 0.000000 0.000000 0.000000 -60.708740 0.000000 143.000000 -0.076804 0.991574 0.104316
1.00000000 -8.85999966 0.60000002 201 93 108 0.000000 0.000000 0.000000 0.000000 -60.708740 0.000000 143.000000 -0.063770 0.989017 -0.133338
0.93000001 -8.90999985 0.58999997 201 93 108 0.000000 0.000000 0.000000 0.000000 -60.708740 0.000000 143.000000 0.429405 0.902681 0.027918
0.99000001 -8.85999966 0.56000000 201 93 108 0.000000 0.000000 0.000000 0.000000 -60.708740 0.000000 143.000000 -0.205555 0.978442 0.019968
0.99000001 -8.89000034 0.56000000 201 93 108 0.000000 0.000000 0.000000 0.000000 -60.708740 0.000000 143.000000 0.029911 0.927252 -0.373242
1.00000000 -8.86999989 0.52999997 201 93 108 0.000000 0.000000 0.000000 0.000000 -60.708740 0.000000 143.000000 -0.411705 0.891785 -0.187668
0.99000001 -8.89000034 0.56000000 201 93 108 0.000000 0.000000 0.000000 0.000000 -60.708740 0.000000 143.000000 0.029911 0.927252 -0.373242
0.99000001 -8.86999989 0.50000000 201 93 108 0.000000 0.000000 0.000000 0.000000 -60.708740 0.000000 143.000000 -0.316724 0.903031 -0.290207
0.98000002 -8.85999966 0.51999998 201 93 108 0.000000 0.000000 0.000000 0.000000 -60.708740 0.000000 143.000000 0.155634 0.977383 0.143183
1.00999999 -8.88000011 0.50000000 201 93 108 0.000000 0.000000 0.000000 0.000000 -60.708740 0.000000 143.000000 0.006283 0.941125 -0.338001
0.97000003 -8.88000011 0.49000001 201 93 108 0.000000 0.000000 0.000000 0.000000 -60.708740 0.000000 143.000000 -0.198034 0.829927 -0.521539
0.97000003 -8.86999989 0.50000000 201 93 108 0.000000 0.000000 0.000000 0.000000 -60.708740 0.000000 143.000000 0.054919 0.951504 -0.302693
0.94000000 -8.89999962 0.54000002 201 93 108 0.000000 0.000000 0.000000 0.000000 -60.708740 0.000000 143.000000 0.458810 0.783057 -0.419900
0.94999999 -8.93000031 0.49000001 201 93 108 0.000000 0.000000 0.000000 0.000000 -60.708740 0.000000 143.000000 0.127080 0.990305 0.056098
1.03999996 -8.89000034 0.43000001 201 93 108 0.000000 0.000000 0.000000 0.000000 -60.708740 0.000000 143.000000 -0.153157 0.954901 -0.254374
1.01999998 -8.89000034 0.44000000 201 93 108 0.000000 0.000000 0.000000 0.000000 -60.708740 0.000000 143.000000 -0.381328 0.924236 0.019390
1.02999997 -8.89999962 0.38000000 201 93 108 0.000000 0.000000 0.000000 0.000000 -60.708740 0.000000 143.000000 -0.381927 0.794472 -0.472171
1.07000005 -8.85999966 0.38999999 201 93 108 0.000000 0.000000 0.000000 0.000000 -60.708740 0.000000 143.000000 -0.621834 0.764750 -0.168762
0.97000003 -8.86999989 0.44999999 201 93 108 0.000000 0.000000 0.000000 0.000000 -60.708740 0.000000 143.000000 -0.238692 0.820794 -0.518964
0.97000003 -8.86999989 0.46000001 201 93 108 0.000000 0.000000 0.000000 0.000000 -60.708740 0.000000 143.000000 -0.051739 0.978236 -0.200941
0.99000001 -8.89000034 0.47000000 201 93 108 0.000000 0.000000 0.000000 0.000000 -60.708740 0.000000 143.000000 -0.150162 0.983861 -0.097305
0.98000002 -8.89000034 0.47999999 201 93 108 0.000000 0.000000 0.000000 0.000000 -60.708740 0.000000 143.000000 -0.189729 0.964347 -0.184495
0.99000001 -8.88000011 0.46000001 201 93 108 0.000000 0.000000 0.000000 0.000000 -60.708740 0.000000 143.000000 0.256178 0.936520 -0.239380
0.98000002 -8.89000034 0.43000001 201 93 108 0.000000 0.000000 0.000000 0.000000 -60.708740 0.000000 143.000000 0.331284 0.912839 -0.238698
0.99000001 -8.89000034 0.43000001 201 93 108 0.000000 0.000000 0.000000 0.000000 -60.708740 0.000000 143.000000 -0.191426 0.976889 0.095095
0.95999998 -8.86999989 0.44999999 201 93 108 0.000000 0.000000 0.000000 0.000000 -60.708740 0.000000 143.000000 0.373862 0.889225 -0.263640
0.94999999 -8.85999966 0.43000001 201 93 108 0.000000 0.000000 0.000000 0.000000 -60.708740 0.000000 143.000000 -0.195307 0.828162 -0.525360
0.93000001 -8.86999989 0.41999999 201 93 108 0.000000 0.000000 0.000000 0.000000 -60.708740 0.000000 143.000000 0.052432 0.986891 -0.152636
0.94999999 -8.90999985 0.44999999 201 93 108 0.000000 0.000000 0.000000 0.000000 -60.708740 0.000000 143.000000 -0.259717 0.905340 -0.336017
0.93000001 -8.90999985 0.44999999 201 93 108 0.000000 0.000000 0.000000 0.000000 -60.708740 0.000000 143.000000 0.077488 0.860824 -0.502969
0.99000001 -8.86999989 0.38999999 201 93 108 0.000000 0.000000 0.000000 0.000000 -60.708740 0.000000 143.000000 -0.566589 0.817112 -0.106326
0.97000003 -8.88000011 0.38999999 201 93 108 0.000000 0.000000 0.000000 0.000000 -60.708740 0.000000 143.000000 0.157131 0.978664 -0.132386
0.97000003 -8.88000011 0.38999999 201 93 108 0.000000 0.000000 0.000000 0.000000 -60.708740 0.000000 143.000000 0.157131 0.978664 -0.132386
0.99000001 -8.88000011 0.31999999 201 93 108 0.000000 0.000000 0.000000 0.000000 -60.708740 0.000000 143.000000 -0.223778 0.866578 -0.446055
1.00999999 -8.92000008 0.38000000 201 93 108 0.000000 0.000000 0.000000 0.000000 -60.708740 0.000000 143.000000 -0.618430 0.769635 -0.158766
1.00000000 -8.92000008 0.34000000 201 93 108 0.000000 0.000000 0.000000 0.000000 -60.708740 0.000000 143.000000 -0.058202 0.997896 -0.028572
0.99000001 -8.90999985 0.31999999 201 93 108 0.000000 0.000000 0.000000 0.000000 -60.708740 0.000000 143.000000 0.030492 0.908118 -0.417602
0.98000002 -8.92000008 0.34000000 201 93 108 0.000000 0.000000 0.000000 0.000000 -60.708740 0.000000 143.000000 -0.274083 0.950600 0.145732
0.94999999 -8.86999989 0.38999999 201 93 108 0.000000 0.000000 0.000000 0.000000 -60.708740 0.000000 143.000000 -0.036416 0.994278 -0.100421
0.95999998 -8.86999989 0.37000000 201 93 108 0.000000 0.000000 0.000000 0.000000 -60.708740 0.000000 143.000000 -0.347048 0.887901 -0.301976
0.93000001 -8.89000034 0.38000000 201 93 108 0.000000 0.000000 0.000000 0.000000 -60.708740 0.000000 143.000000 0.174548 0.980153 -0.093987
0.94000000 -8.89000034 0.34999999 201 93 108 0.000000 0.000000 0.000000 0.000000 -60.708740 0.000000 143.000000 -0.003631 0.962200 -0.272321
0.95999998 -8.88000011 0.34999999 201 93 108 0.000000 0.000000 0.000000 0.000000 -60.708740 0.000000 143.000000 -0.304020 0.946577 -0.107535
0.95999998 -8.89999962 0.34000000 201 93 108 0.000000 0.000000 0.000000 0.000000 -60.708740 0.000000 143.000000 0.100150 0.881599 -0.461252
1.09000003 -8.94999981 0.58999997 201 93 108 0.000000 0.000000 0.000000 0.000000 -60.708740 0.000000 143.000000 0.011407 0.998643 0.050814
1.05999994 -9.00000000 0.62000000 201 93 108 0.000000 0.000000 0.000000 0.000000 -60.708740 0.000000 143.000000 0.061944 0.996540 0.055424
1.05999994 -8.97999954 0.61000001 201 93 108 0.000000 0.000000 0.000000 0.000000 -60.708740 0.000000 143.000000 0.175865 0.982213 0.065800
1.08000004 -8.98999977 0.63999999 201 93 108 0.000000 0.000000 0.000000 0.000000 -60.708740 0.000000 143.000000 -0.304283 0.912848 -0.272253
1.02999997 -8.97000027 0.61000001 201 93 108 0.000000 0.000000 0.000000 0.000000 -60.708740 0.000000 143.000000 0.040210 0.999072 0.015466
1.02999997 -8.97000027 0.61000001 201 93 108 0.000000 0.000000 0.000000 0.000000 -60.708740 0.000000 143.000000 0.040210 0.999072 0.015466
1.03999996 -8.97000027 0.63000000 201 93 108 0.000000 0.000000 0.000000 0.000000 -60.708740 0.000000 143.000000 0.084037 0.991181 -0.102457
1.04999995 -8.97000027 0.63999999 201 93 108 0.000000 0.000000 0.000000 0.000000 -60.708740 0.000000 143.000000 0.269787 0.911444 -0.310620
1.03999996 -8.97000027 0.58999997 201 93 108 0.000000 0.000000 0.000000 0.000000 -60.708740 0.000000 143.000000 -0.130172 0.946096 -0.296578
1.03999996 -8.97000027 0.58999997 201 93 108 0.000000 0.000000 0.000000 0.000000 -60.708740 0.000000 143.000000 -0.130172 0.946096 -0.296578
1.04999995 -9.00000000 0.61000001 201 93 108 0.000000 0.000000 0.000000 0.000000 -60.708740 0.000000 143.000000 0.069112 0.987488 0.141739
1.04999995 -8.97999954 0.61000001 201 93 108 0.000000 0.000000 0.000000 0.000000 -60.708740 0.000000 143.000000 0.032079 0.937992 -0.345171
1.03999996 -9.01000023 0.56999999 201 93 108 0.000000 0.000000 0.000000 0.000000 -60.708740 0.000000 143.000000 0.076571 0.967809 -0.239756
1.04999995 -8.98999977 0.56999999 201 93 108 0.000000 0.000000 0.000000 0.000000 -60.708740 0.000000 143.000000 -0.438902 0.861099 -0.256659
1.09000003 -8.94999981 0.52999997 201 93 108 0.000000 0.000000 0.000000 0.000000 -60.708740 0.000000 143.000000 -0.506677 0.802106 -0.316077
1.07000005 -9.00000000 0.56000000 201 93 108 0.000000 0.000000 0.000000 0.000000 -60.708740 0.000000 143.000000 -0.110098 0.970638 0.213869
1.05999994 -8.97999954 0.54000002 201 93 108 0.000000 0.000000 0.000000 0.000000 -60.708740 0.000000 143.000000 -0.016065 0.955254 -0.295350
1.07000005 -8.98999977 0.49000001 201 93 108 0.000000 0.000000 0.000000 0.000000 -60.708740 0.000000 143.000000 0.019602 0.913474 -0.406424
1.03999996 -8.98999977 0.56000000 201 93 108 0.000000 0.000000 0.000000 0.000000 -60.708740 0.000000 143.000000 -0.322725 0.826491 -0.461261
1.02999997 -9.01000023 0.55000001 201 93 108 0.000000 0.000000 0.000000 0.000000 -60.708740 0.000000 143.000000 0.019359 0.999538 -0.023435
1.01999998 -8.97999954 0.56000000 201 93 108 0.000000 0.000000 0.000000 0.000000 -60.708740 0.000000 143.000000 0.059226 0.961483 -0.268409
1.02999997 -9.01000023 0.55000001 201 93 108 0.000000 0.000000 0.000000 0.000000 -60.708740 0.000000 143.000000 0.019359 0.999538 -0.023435
1.02999997 -9.01000023 0.49000001 201 93 108 0.000000 0.000000 0.000000 0.000000 -60.708740 0.000000 143.000000 -0.294833 0.952039 -0.081826
1.03999996 -8.98999977 0.50999999 201 93 108 0.000000 0.000000 0.000000 0.000000 -60.708740 0.000000 143.000000 -0.016143 0.952459 -0.304240
1.02999997 -9.00000000 0.49000001 201 93 108 0.000000 0.000000 0.000000 0.000000 -60.708740 0.000000 143.000000 -0.234872 0.968377 0.084152
1.05999994 -9.03999996 0.49000001 201 93 108 0.000000 0.000000 0.000000 0.000000 -60.708740 0.000000 143.000000 -0.390932 0.780241 -0.488259
1.08000004 -9.06000042 0.52999997 201 93 108 0.000000 0.000000 0.000000 0.000000 -60.708740 0.000000 143.000000 -0.268904 0.957402 -0.105223
0.99000001 -8.93999958 0.63999999 201 93 108 0.000000 0.000000 0.000000 0.000000 -60.708740 0.000000 143.000000 0.435783 0.838765 -0.326447
1.00000000 -9.01000023 0.57999998 201 93 108 0.000000 0.000000 0.000000 0.000000 -60.708740 0.000000 143.000000 0.118797 0.907052 -0.403911
1.00999999 -9.00000000 0.57999998 201 93 108 0.000000 0.000000 0.000000 0.000000 -60.708740 0.000000 143.000000 -0.194273 0.949627 -0.245898
0.99000001 -8.97999954 0.57999998 201 93 108 0.000000 0.000000 0.000000 0.000000 -60.708740 0.000000 143.000000 0.289476 0.898117 -0.331042
0.95999998 -8.93999958 0.56999999 201 93 108 0.000000 0.000000 0.000000 0.000000 -60.708740 0.000000 143.000000 -0.235198 0.891978 -0.386080
0.93000001 -8.93999958 0.58999997 201 93 108 0.000000 0.000000 0.000000 0.000000 -60.708740 0.000000 143.000000 -0.099494 0.978968 -0.178106
0.97000003 -8.96000004 0.55000001 201 93 108 0.000000 0.000000 0.000000 0.000000 -60.708740 0.000000 143.000000 -0.264032 0.964025 -0.030701
1.00000000 -8.97999954 0.56000000 201 93 108 0.000000 0.000000 0.000000 0.000000 -60.708740 0.000000 143.000000 -0.143304 0.983858 -0.107177
0.99000001 -8.98999977 0.52999997 201 93 108 0.000000 0.000000 0.000000 0.000000 -60.708740 0.000000 143.000000 0.148698 0.987860 0.044955
1.00999999 -9.01000023 0.52999997 201 93 108 0.000000 0.000000 0.000000 0.000000 -60.708740 0.000000 143.000000 0.157967 0.957097 -0.242925
1.00000000 -9.01000023 0.56000000 201 93 108 0.000000 0.000000 0.000000 0.000000 -60.708740 0.000000 143.000000 0.148482 0.960537 -0.235207
0.99000001 -8.98999977 0.51999998 201 93 108 0.000000 0.000000 0.000000 0.000000 -60.708740 0.000000 143.000000 0.120008 0.990923 0.060575
0.97000003 -9.01000023 0.49000001 201 93 108 0.000000 0.000000 0.000000 0.000000 -60.708740 0.000000 143.000000 -0.136382 0.909682 -0.392274
0.99000001 -9.01000023 0.49000001 201 93 108 0.000000 0.000000 0.000000 0.000000 -60.708740 0.000000 143.000000 -0.087651 0.891818 -0.443822
1.00999999 -8.98999977 0.51999998 201 93 108 0.000000 0.000000 0.000000 0.000000 -60.708740 0.000000 143.000000 -0.048394 0.983223 0.175871
0.97000003 -8.98999977 0.51999998 201 93 108 0.000000 0.000000 0.000000 0.000000 -60.708740 0.000000 143.000000 0.153157 0.954901 -0.254374
0.95999998 -8.93999958 0.50000000 201 93 108 0.000000 0.000000 0.000000 0.000000 -60.708740 0.000000 143.000000 0.407932 0.912990 0.006475
0.94000000 -8.97999954 0.50999999 201 93 108 0.000000 0.000000 0.000000 0.000000 -60.708740 0.000000 143.000000 -0.001307 0.897798 -0.440405
1.00999999 -9.02000046 0.50000000 201 93 108 0.000000 0.000000 0.000000 0.000000 -60.708740 0.000000 143.000000 -0.075652 0.933045 -0.351717
1.00000000 -9.02000046 0.50000000 201 93 108 0.000000 0.000000 0.000000 0.000000 -60.708740 0.000000 143.000000 0.039115 0.952643 -0.301565
1.01999998 -8.97000027 0.47000000 201 93 108 0.000000 0.000000 0.000000 0.000000 -60.708740 0.000000 143.000000 0.123218 0.991400 0.044087
1.03999996 -8.97999954 0.44000000 201 93 108 0.000000 0.000000 0.000000 0.000000 -60.708740 0.000000 143.000000 -0.248717 0.962652 0.106961
1.03999996 -8.97999954 0.44000000 201 93 108 0.000000 0.000000 0.000000 0.000000 -60.708740 0.000000 143.000000 -0.248717 0.962652 0.106961
1.03999996 -9.00000000 0.41999999 201 93 108 0.000000 0.000000 0.000000 0.000000 -60.708740 0.000000 143.000000 -0.561622 0.826406 -0.040414
1.03999996 -8.97999954 0.43000001 201 93 108 0.000000 0.000000 0.000000 0.000000 -60.708740 0.000000 143.000000 -0.119167 0.987554 -0.102649
1.05999994 -8.97999954 0.34000000 201 93 108 0.000000 0.000000 0.000000 0.000000 -60.708740 0.000000 143.000000 -0.373404 0.818311 -0.436962
1.04999995 -8.97000027 0.34000000 201 93 108 0.000000 0.000000 0.000000 0.000000 -60.708740 0.000000 143.000000 -0.236541 0.840867 -0.486818
1.03999996 -9.00000000 0.38000000 201 93 108 0.000000 0.000000 0.000000 0.000000 -60.708740 0.000000 143.000000 -0.036280 0.893569 -0.447457
1.03999996 -8.98999977 0.31999999 201 93 108 0.000000 0.000000 0.000000 0.000000 -60.708740 0.000000 143.000000 -0.530868 0.841620 0.099268
1.03999996 -8.97999954 0.33000001 201 93 108 0.000000 0.000000 0.000000 0.000000 -60.708740 0.000000 143.000000 -0.693124 0.716374 -0.079920
0.94000000 -8.96000004 0.44999999 201 93 108 0.000000 0.000000 0.000000 0.000000 -60.708740 0.000000 143.000000 -0.071782 0.851533 -0.519365
0.93000001 -8.94999981 0.47999999 201 93 108 0.000000 0.000000 0.000000 0.000000 -60.708740 0.000000 143.000000 0.018266 0.996038 0.087032
0.95999998 -9.01000023 0.44000000 201 93 108 0.000000 0.000000 0.000000 0.000000 -60.708740 0.000000 143.000000 0.238110 0.956433 -0.168939
0.94999999 -9.01000023 0.43000001 201 93 108 0.000000 0.000000 0.000000 0.000000 -60.708740 0.000000 143.000000 -0.042973 0.968739 -0.244333
1.00999999 -8.97999954 0.34999999 201 93 108 0.000000 0.000000 0.000000 0.000000 -60.708740 0.000000 143.000000 -0.301750 0.951475 -0.060350
1.00000000 -9.00000000 0.34000000 201 93 108 0.000000 0.000000 0.000000 0.000000 -60.708740 0.000000 143.000000 -0.407400 0.859383 -0.309009
1.00999999 -9.00000000 0.33000001 201 93 108 0.000000 0.000000 0.000000 0.000000 -60.708740 0.000000 143.000000 -0.366570 0.783201 -0.502218
1.00000000 -8.97999954 0.33000001 201 93 108 0.000000 0.000000 0.000000 0.000000 -60.708740 0.000000 143.000000 -0.137529 0.870051 -0.473389
0.93000001 -9.00000000 0.37000000 201 93 108 0.000000 0.000000 0.000000 0.000000 -60.708740 0.000000 143.000000 0.074351 0.915197 -0.396090
0.93000001 -8.97999954 0.36000001 201 93 108 0.000000 0.000000 0.000000 0.000000 -60.708740 0.000000 143.000000 -0.074187 0.991821 -0.103862
0.93000001 -8.97999954 0.34000000 201 93 108 0.000000 0.000000 0.000000 0.000000 -60.708740 0.000000 143.000000 0.082652 0.992954 0.084916
0.94999999 -9.01000023 0.34999999 201 93 108 0.000000 0.000000 0.000000 0.000000 -60.708740 0.000000 143.000000 0.115384 0.948270 -0.295754
0.94999999 -9.01000023 0.34999999 201 93 108 0.000000 0.000000 0.000000 0.000000 -60.708740 0.000000 143.000000 0.115384 0.948270 -0.295754
0.98000002 -9.02999973 0.40000001 201 93 108 0.000000 0.000000 0.000000 0.000000 -60.708740 0.000000 143.000000 0.262887 0.903214 -0.339256
0.99000001 -9.02999973 0.40000001 201 93 108 0.000000 0.000000 0.000000 0.000000 -60.708740 0.000000 143.000000 -0.054267 0.978007 -0.201390
0.98000002 -9.02999973 0.40000001 201 93 108 0.000000 0.000000 0.000000 0.000000 -60.708740 0.000000 143.000000 0.262887 0.903214 -0.339256
0.97000003 -9.02999973 0.41000000 201 93 108 0.000000 0.000000 0.000000 0.000000 -60.708740 0.000000 143.000000 -0.126787 0.987042 0.098349
0.93000001 -9.02000046 0.44999999 201 93 108 0.000000 0.000000 0.000000 0.000000 -60.708740 0.000000 143.000000 -0.206810 0.970610 -0.123071
0.95999998 -9.02999973 0.47000000 201 93 108 0.000000 0.000000 0.000000 0.000000 -60.708740 0.000000 143.000000 0.350682 0.849430 -0.394323
0.95999998 -9.02999973 0.41999999 201 93 108 0.000000 0.000000 0.000000 0.000000 -60.708740 0.000000 143.000000 -0.044909 0.945653 -0.322061
0.94000000 -9.02000046 0.41000000 201 93 108 0.000000 0.000000 0.000000 0.000000 -60.708740 0.000000 143.000000 0.368380 0.929351 0.024559
0.97000003 -9.05000019 0.38999999 201 93 108 0.000000 0.000000 0.000000 0.000000 -60.708740 0.000000 143.000000 -0.330662 0.814789 -0.476216
1.00000000 -9.02999973 0.33000001 201 93 108 0.000000 0.000000 0.000000 0.000000 -60.708740 0.000000 143.000000 -0.183069 0.973421 -0.137617
0.94999999 -9.02000046 0.37000000 201 93 108 0.000000 0.000000 0.000000 0.000000 -60.708740 0.000000 143.000000 -0.235667 0.938485 -0.252401
0.93000001 -9.03999996 0.34000000 201 93 108 0.000000 0.000000 0.000000 0.000000 -60.708740 0.000000 143.000000 -0.108697 0.980714 0.162435
0.95999998 -9.05000019 0.33000001 201 93 108 0.000000 0.000000 0.000000 0.000000 -60.708740 0.000000 143.000000 -0.310657 0.838307 -0.448034
0.94000000 -9.03999996 0.33000001 201 93 108 0.000000 0.000000 0.000000 0.000000 -60.708740 0.000000 143.000000 -0.080461 0.995293 0.054008
0.93000001 -9.03999996 0.34000000 201 93 108 0.000000 0.000000 0.000000 0.000000 -60.708740 0.000000 143.000000 -0.108697 0.980714 0.162435
1.01999998 -8.90999985 0.31000000 201 93 108 0.000000 0.000000 0.000000 0.000000 -60.708740 0.000000 143.000000 -0.471124 0.880439 0.053568
0.97000003 -8.89999962 0.31000000 201 93 108 0.000000 0.000000 0.000000 0.000000 -60.708740 0.000000 143.000000 0.176899 0.983929 -0.024280
0.97000003 -8.90999985 0.25000000 201 93 108 0.000000 0.000000 0.000000 0.000000 -60.708740 0.000000 143.000000 -0.082489 0.995362 0.049493
0.95999998 -8.89000034 0.30000001 201 93 108 0.000000 0.000000 0.000000 0.000000 -60.708740 0.000000 143.000000 -0.157076 0.987171 0.028663
0.94000000 -8.90999985 0.28999999 201 93 108 0.000000 0.000000 0.000000 0.000000 -60.708740 0.000000 143.000000 0.011514 0.930082 -0.367171
0.94999999 -8.89999962 0.31000000 201 93 108 0.000000 0.000000 0.000000 0.000000 -60.708740 0.000000 143.000000 -0.031607 0.949466 -0.312274
0.95999998 -8.89999962 0.31000000 201 93 108 0.000000 0.000000 0.000000 0.000000 -60.708740 0.000000 143.000000 -0.090594 0.982042 0.165486
0.94000000 -8.90999985 0.23999999 201 93 108 0.000000 0.000000 0.000000 0.000000 -60.708740 0.000000 143.000000 -0.530657 0.842472 -0.092972
0.93000001 -8.90999985 0.25999999 201 93 108 0.000000 0.000000 0.000000 0.000000 -60.708740 0.000000 143.000000 0.005901 0.973694 -0.227785
0.94000000 -8.89999962 0.27000001 201 93 108 0.000000 0.000000 0.000000 0.000000 -60.708740 0.000000 143.000000 0.012934 0.999904 -0.004975
0.94999999 -8.89999962 0.25999999 201 93 108 0.000000 0.000000 0.000000 0.000000 -60.708740 0.000000 143.000000 -0.341678 0.920121 0.191397
0.93000001 -8.90999985 0.27000001 201 93 108 0.000000 0.000000 0.000000 0.000000 -60.708740 0.000000 143.000000 0.309310 0.946358 -0.093451
0.94000000 -8.90999985 0.25999999 201 93 108 0.000000 0.000000 0.000000 0.000000 -60.708740 0.000000 143.000000 -0.304209 0.942371 -0.139260
0.93000001 -8.89999962 0.25999999 201 93 108 0.000000 0.000000 0.000000 0.000000 -60.708740 0.000000 143.000000 -0.060269 0.996086 -0.064652
0.94000000 -8.90999985 0.20000000 201 93 108 0.000000 0.000000 0.000000 0.000000 -60.708740 0.000000 143.000000 -0.010500 0.978878 0.204176
0.94000000 -8.90999985 0.20000000 201 93 108 0.000000 0.000000 0.000000 0.000000 -60.708740 0.000000 143.000000 -0.010500 0.978878 0.204176
0.94000000 -8.90999985 0.15000001 201 93 108 0.000000 0.000000 0.000000 0.000000 -60.708740 0.000000 143.000000 -0.373041 0.904299 0.207568
0.94999999 -8.89999962 0.14000000 201 93 108 0.000000 0.000000 0.000000 0.000000 -60.708740 0.000000 143.000000 -0.199047 0.978348 0.056698
1.03999996 -8.96000004 0.15000001 201 93 108 0.000000 0.000000 0.000000 0.000000 -60.708740 0.000000 143.000000 0.738617 -0.628376 0.244106
1.00999999 -8.98999977 0.30000001 201 93 108 0.000000 0.000000 0.000000 0.000000 -60.708740 0.000000 143.000000 -0.382828 0.912898 -0.141632
1.00000000 -8.98999977 0.31000000 201 93 108 0.000000 0.000000 0.000000 0.000000 -60.708740 0.000000 143.000000 -0.445433 0.880711 -0.161052
0.99000001 -9.01000023 0.25999999 201 93 108 0.000000 0.000000 0.000000 0.000000 -60.708740 0.000000 143.000000 0.092693 0.983510 -0.155291
0.99000001 -9.01000023 0.20999999 201 93 108 0.000000 0.000000 0.000000 0.000000 -60.708740 0.000000 143.000000 -0.039175 0.979369 0.198248
0.98000002 -9.01000023 0.22000000 201 93 108 0.000000 0.000000 0.000000 0.000000 -60.708740 0.000000 143.000000 -0.334430 0.882229 -0.331403
0.98000002 -9.01000023 0.23000000 201 93 108 0.000000 0.000000 0.000000 0.000000 -60.708740 0.000000 143.000000 0.009222 0.999075 -0.042012
0.97000003 -9.00000000 0.23000000 201 93 108 0.000000 0.000000 0.000000 0.000000 -60.708740 0.000000 143.000000 -0.310279 0.853652 -0.418336
0.93000001 -8.93999958 0.22000000 201 93 108 0.000000 0.000000 0.000000 0.000000 -60.708740 0.000000 143.000000 -0.196517 0.910865 -0.362912
0.97000003 -9.02000046 0.25000000 201 93 108 0.000000 0.000000 0.000000 0.000000 -60.708740 0.000000 143.000000 -0.464901 0.880643 -0.091295
0.97000003 -9.03999996 0.25000000 201 93 108 0.000000 0.000000 0.000000 0.000000 -60.708740 0.000000 143.000000 0.000978 0.999999 -0.000978
0.98000002 -9.02000046 0.27000001 201 93 108 0.000000 0.000000 0.000000 0.000000 -60.708740 0.000000 143.000000 -0.403362 0.900027 -0.165077
0.97000003 -9.02000046 0.25000000 201 93 108 0.000000 0.000000 0.000000 0.000000 -60.708740 0.000000 143.000000 -0.464901 0.880643 -0.091295
0.98000002 -9.03999996 0.25000000 201 93 108 0.000000 0.000000 0.000000 0.000000 -60.708740 0.000000 143.000000 0.581738 -0.785424 0.211401
0.98000002 -9.06999969 0.25000000 201 93 108 0.000000 0.000000 0.000000 0.000000 -60.708740 0.000000 143.000000 -0.397674 0.912311 0.097698
0.94000000 -9.05000019 0.30000001 201 93 108 0.000000 0.000000 0.000000 0.000000 -60.708740 0.000000 143.000000 0.193701 0.943778 -0.267885
0.94999999 -9.05000019 0.28000000 201 93 108 0.000000 0.000000 0.000000 0.000000 -60.708740 0.000000 143.000000 0.094627 0.994137 0.052323
0.94000000 -9.02000046 0.27000001 201 93 108 0.000000 0.000000 0.000000 0.000000 -60.708740 0.000000 143.000000 0.271756 0.961693 -0.035986
0.97000003 -9.03999996 0.20999999 201 93 108 0.000000 0.000000 0.000000 0.000000 -60.708740 0.000000 143.000000 -0.419665 0.884977 -0.201734
0.97000003 -9.03999996 0.20999999 201 93 108 0.000000 0.000000 0.000000 0.000000 -60.708740 0.000000 143.000000 -0.419665 0.884977 -0.201734
0.98000002 -9.02999973 0.23000000 201 93 108 0.000000 0.000000 0.000000 0.000000 -60.708740 0.000000 143.000000 -0.461699 0.882946 -0.085086
1.00999999 -9.05000019 0.20999999 201 93 108 0.000000 0.000000 0.000000 0.000000 -60.708740 0.000000 143.000000 -0.056671 0.994526 -0.087785
0.97000003 -9.05000019 0.18000001 201 93 108 0.000000 0.000000 0.000000 0.000000 -60.708740 0.000000 143.000000 -0.514193 0.856989 -0.034280
0.93000001 -9.05000019 0.19000000 201 93 108 0.000000 0.000000 0.000000 0.000000 -60.708740 0.000000 143.000000 -0.265097 0.871033 -0.413551
0.95999998 -9.03999996 0.16000000 201 93 108 0.000000 0.000000 0.000000 0.000000 -60.708740 0.000000 143.000000 -0.182609 0.962965 0.198373
0.94000000 -9.05000019 0.16000000 201 93 108 0.000000 0.000000 0.000000 0.000000 -60.708740 0.000000 143.000000 -0.170021 0.983268 0.065393
0.94999999 -9.03999996 0.16000000 201 93 108 0.000000 0.000000 0.000000 0.000000 -60.708740 0.000000 143.000000 0.000978 0.999999 -0.000978
0.93000001 -9.02999973 0.17000000 201 93 108 0.000000 0.000000 0.000000 0.000000 -60.708740 0.000000 143.000000 0.239831 0.960634 -0.140229
0.93000001 -9.05000019 0.16000000 201 93 108 0.000000 0.000000 0.000000 0.000000 -60.708740 0.000000 143.000000 -0.226693 0.966968 -0.116548
0.97000003 -8.94999981 0.13000000 201 93 108 0.000000 0.000000 0.000000 0.000000 -60.708740 0.000000 143.000000 -0.059577 0.976332 -0.207911
0.97000003 -8.94999981 0.09000000 201 93 108 0.000000 0.000000 0.000000 0.000000 -60.708740 0.000000 143.000000 -0.548690 0.833613 0.063473
1.00999999 -8.96000004 0.06000000 201 93 108 0.000000 0.000000 0.000000 0.000000 -60.708740 0.000000 143.000000 0.764168 -0.644897 0.012482
0.97000003 -9.01000023 0.05000000 201 93 108 0.000000 0.000000 0.000000 0.000000 -60.708740 0.000000 143.000000 -0.705994 0.687696 -0.169256
0.94999999 -9.01000023 0.02000000 201 93 108 0.000000 0.000000 0.000000 0.000000 -60.708740 0.000000 143.000000 -0.295622 0.949933 -0.101169
0.93000001 -9.05000019 0.12000000 201 93 108 0.000000 0.000000 0.000000 0.000000 -60.708740 0.000000 143.000000 -0.443766 0.883196 0.151777
0.94999999 -9.02999973 0.08000000 201 93 108 0.000000 0.000000 0.000000 0.000000 -60.708740 0.000000 143.000000 0.078154 0.996734 -0.020342
0.94999999 -9.02999973 0.09000000 201 93 108 0.000000 0.000000 0.000000 0.000000 -60.708740 0.000000 143.000000 -0.150588 0.893490 -0.423081
0.94000000 -9.06000042 0.07000000 201 93 108 0.000000 0.000000 0.000000 0.000000 -60.708740 0.000000 143.000000 -0.383753 0.890486 -0.244476
0.94000000 -9.05000019 0.05000000 201 93 108 0.000000 0.000000 0.000000 0.000000 -60.708740 0.000000 143.000000 -0.293622 0.931442 -0.214948
0.68000001 -8.39000034 0.62000000 201 93 108 0.000000 0.000000 0.000000 0.000000 -60.708740 0.000000 143.000000 0.598903 -0.707197 -0.375750
0.63999999 -8.38000011 0.58999997 201 93 108 0.000000 0.000000 0.000000 0.000000 -60.708740 0.000000 143.000000 0.817556 -0.380889 -0.431886
0.67000002 -8.42000008 0.61000001 201 93 108 0.000000 0.000000 0.000000 0.000000 -60.708740 0.000000 143.000000 0.986302 -0.147297 -0.074238
0.66000003 -8.42000008 0.58999997 201 93 108 0.000000 0.000000 0.000000 0.000000 -60.708740 0.000000 143.000000 0.851182 -0.295056 -0.434087
0.62000000 -8.42000008 0.62000000 201 93 108 0.000000 0.000000 0.000000 0.000000 -60.708740 0.000000 143.000000 0.944183 -0.329014 0.016388
0.62000000 -8.43000031 0.61000001 201 93 108 0.000000 0.000000 0.000000 0.000000 -60.708740 0.000000 143.000000 0.810494 -0.542893 0.219925
0.60000002 -8.40999985 0.60000002 201 93 108 0.000000 0.000000 0.000000 0.000000 -60.708740 0.000000 143.000000 0.950896 -0.179389 -0.252223
0.63000000 -8.39999962 0.58999997 201 93 108 0.000000 0.000000 0.000000 0.000000 -60.708740 0.000000 143.000000 0.675693 -0.612606 -0.410064
0.63999999 -8.36999989 0.56000000 201 93 108 0.000000 0.000000 0.000000 0.000000 -60.708740 0.000000 143.000000 -0.680133 0.617249 0.395503
0.63999999 -8.42000008 0.55000001 201 93 108 0.000000 0.000000 0.000000 0.000000 -60.708740 0.000000 143.000000 0.824052 -0.521339 -0.221684
0.64999998 -8.40999985 0.56000000 201 93 108 0.000000 0.000000 0.000000 0.000000 -60.708740 0.000000 143.000000 0.955176 -0.277561 -0.102945
0.60000002 -8.38000011 0.55000001 201 93 108 0.000000 0.000000 0.000000 0.000000 -60.708740 0.000000 143.000000 0.807304 -0.590006 0.012378
0.60000002 -8.39999962 0.52999997 201 93 108 0.000000 0.000000 0.000000 0.000000 -60.708740 0.000000 143.000000 -0.657119 0.576449 0.485696
0.60000002 -8.39000034 0.52999997 201 93 108 0.000000 0.000000 0.000000 0.000000 -60.708740 0.000000 143.000000 0.909359 -0.364608 -0.200318
0.60000002 -8.39000034 0.51999998 201 93 108 0.000000 0.000000 0.000000 0.000000 -60.708740 0.000000 143.000000 -0.660818 0.743236 -0.104495
0.63000000 -8.39999962 0.49000001 201 93 108 0.000000 0.000000 0.000000 0.000000 -60.708740 0.000000 143.000000 -0.578416 0.722610 0.378510
0.62000000 -8.39999962 0.49000001 201 93 108 0.000000 0.000000 0.000000 0.000000 -60.708740 0.000000 143.000000 0.831314 -0.552803 -0.057672
0.60000002 -8.39000034 0.50000000 201 93 108 0.000000 0.000000 0.000000 0.000000 -60.708740 0.000000 143.000000 -0.531069 0.778152 0.335328
0.60000002 -8.39000034 0.50000000 201 93 108 0.000000 0.000000 0.000000 0.000000 -60.708740 0.000000 143.000000 -0.531069 0.778152 0.335328
0.60000002 -8.39999962 0.50999999 201 93 108 0.000000 0.000000 0.000000 0.000000 -60.708740 0.000000 143.000000 -0.584067 0.805459 -0.100500
0.63999999 -8.36999989 0.41000000 201 93 108 0.000000 0.000000 0.000000 0.000000 -60.708740 0.000000 143.000000 0.748961 -0.654789 0.101529
0.62000000 -8.38000011 0.44999999 201 93 108 0.000000 0.000000 0.000000 0.000000 -60.708740 0.000000 143.000000 0.792031 -0.459733 -0.401661
0.63000000 -8.35999966 0.47999999 201 93 108 0.000000 0.000000 0.000000 0.000000 -60.708740 0.000000 143.000000 0.858999 -0.470582 0.201678
0.62000000 -8.39999962 0.47999999 201 93 108 0.000000 0.000000 0.000000 0.000000 -60.708740 0.000000 143.000000 -0.523539 0.851606 0.025972
0.62000000 -8.39999962 0.47999999 201 93 108 0.000000 0.000000 0.000000 0.000000 -60.708740 0.000000 143.000000 -0.523539 0.851606 0.025972
0.61000001 -8.43000031 0.43000001 201 93 108 0.000000 0.000000 0.000000 0.000000 -60.708740 0.000000 143.000000 0.957480 -0.272643 -0.094327
0.62000000 -8.35999966 0.37000000 201 93 108 0.000000 0.000000 0.000000 0.000000 -60.708740 0.000000 143.000000 -0.668229 0.731298 0.136649
0.60000002 -8.36999989 0.33000001 201 93 108 0.000000 0.000000 0.000000 0.000000 -60.708740 0.000000 143.000000 0.727583 -0.686007 0.004158
0.61000001 -8.36999989 0.34999999 201 93 108 0.000000 0.000000 0.000000 0.000000 -60.708740 0.000000 143.000000 0.926671 -0.327639 -0.184209
0.60000002 -8.39999962 0.38999999 201 93 108 0.000000 0.000000 0.000000 0.000000 -60.708740 0.000000 143.000000 0.742137 -0.601083 -0.296534
0.60000002 -8.39000034 0.34999999 201 93 108 0.000000 0.000000 0.000000 0.000000 -60.708740 0.000000 143.000000 0.935589 -0.315537 -0.158458
0.60000002 -8.43000031 0.34999999 201 93 108 0.000000 0.000000 0.000000 0.000000 -60.708740 0.000000 143.000000 -0.587434 0.809262 -0.004108
