//X Y Z R G B PointSourceId ScanDirectionFlag NumberOfReturns ReturnNumber GpsTime Intensity Classification Nx Ny Nz
2.80999994 12.82999992 0.28000000 98 160 126 97.000000 1.000000 4.000000 1.000000 -60.708740 114.000000 93.000000 -0.687399 0.724556 0.050019
2.78999996 12.73999977 0.28000000 98 160 126 97.000000 1.000000 4.000000 1.000000 -60.708740 114.000000 93.000000 0.889219 0.399632 0.222673
2.78999996 12.73999977 0.31000000 98 160 126 97.000000 1.000000 4.000000 1.000000 -60.708740 114.000000 93.000000 0.872338 0.448758 0.194017
2.78999996 12.72999954 0.28000000 98 160 126 97.000000 1.000000 4.000000 1.000000 -60.708740 114.000000 93.000000 0.780479 0.485163 -0.394296
2.79999995 12.72000027 0.28999999 98 160 126 97.000000 1.000000 4.000000 1.000000 -60.708740 114.000000 93.000000 0.859059 0.502899 -0.095451
2.79999995 12.72000027 0.23999999 98 160 126 97.000000 1.000000 4.000000 1.000000 -60.708740 114.000000 93.000000 0.605448 0.728152 0.321291
2.78999996 12.73999977 0.27000001 98 160 126 97.000000 1.000000 4.000000 1.000000 -60.708740 114.000000 93.000000 0.881410 0.422188 0.211835
2.80999994 12.73999977 0.23999999 98 160 126 97.000000 1.000000 4.000000 1.000000 -60.708740 114.000000 93.000000 0.569518 0.815874 0.099992
2.78999996 12.75000000 0.23999999 98 160 126 97.000000 1.000000 4.000000 1.000000 -60.708740 114.000000 93.000000 0.937563 0.347293 0.019082
2.78999996 12.73999977 0.27000001 98 160 126 97.000000 1.000000 4.000000 1.000000 -60.708740 114.000000 93.000000 0.881410 0.422188 0.211835
2.79999995 12.75000000 0.23999999 98 160 126 97.000000 1.000000 4.000000 1.000000 -60.708740 114.000000 93.000000 0.714192 0.660824 -0.230739
2.80999994 12.73999977 0.23999999 98 160 126 97.000000 1.000000 4.000000 1.000000 -60.708740 114.000000 93.000000 0.569518 0.815874 0.099992
2.78999996 12.77000046 0.19000000 98 160 126 97.000000 1.000000 4.000000 1.000000 -60.708740 114.000000 93.000000 0.909144 -0.282552 -0.305976
2.77999997 12.77999973 0.18000001 98 160 126 97.000000 1.000000 4.000000 1.000000 -60.708740 114.000000 93.000000 0.942112 -0.279195 -0.185672
2.78999996 12.76000023 0.23000000 98 160 126 97.000000 1.000000 4.000000 1.000000 -60.708740 114.000000 93.000000 0.996794 0.009534 0.079447
2.78999996 12.76000023 0.22000000 98 160 126 97.000000 1.000000 4.000000 1.000000 -60.708740 114.000000 93.000000 0.915832 0.332115 -0.225723
2.80999994 12.73999977 0.23000000 98 160 126 97.000000 1.000000 4.000000 1.000000 -60.708740 114.000000 93.000000 0.385753 0.902980 0.189265
2.78999996 12.75000000 0.22000000 98 160 126 97.000000 1.000000 4.000000 1.000000 -60.708740 114.000000 93.000000 0.909970 0.389585 -0.142051
2.78999996 12.76000023 0.23000000 98 160 126 97.000000 1.000000 4.000000 1.000000 -60.708740 114.000000 93.000000 0.996794 0.009534 0.079447
2.78999996 12.73999977 0.23000000 98 160 126 97.000000 1.000000 4.000000 1.000000 -60.708740 114.000000 93.000000 0.903008 0.417520 0.101259
2.78999996 12.75000000 0.20999999 98 160 126 97.000000 1.000000 4.000000 1.000000 -60.708740 114.000000 93.000000 0.838175 0.539335 0.081114
2.79999995 12.72999954 0.18000001 98 160 126 97.000000 1.000000 4.000000 1.000000 -60.708740 114.000000 93.000000 0.705502 0.708307 0.023844
2.77999997 12.75000000 0.18000001 98 160 126 97.000000 1.000000 4.000000 1.000000 -60.708740 114.000000 93.000000 0.760720 0.648643 0.023816
2.78999996 12.73999977 0.16000000 98 160 126 97.000000 1.000000 4.000000 1.000000 -60.708740 114.000000 93.000000 0.540346 0.787542 0.296319
2.77999997 12.75000000 0.17000000 98 160 126 97.000000 1.000000 4.000000 1.000000 -60.708740 114.000000 93.000000 0.805702 0.592307 0.004104
2.83999991 12.72999954 0.14000000 98 160 126 97.000000 1.000000 4.000000 1.000000 -60.708740 114.000000 93.000000 -0.484710 0.868498 0.103765
2.79999995 12.75000000 0.14000000 98 160 126 97.000000 1.000000 4.000000 1.000000 -60.708740 114.000000 93.000000 0.597991 0.801445 -0.009623
2.79999995 12.76000023 0.11000000 98 160 126 97.000000 1.000000 4.000000 1.000000 -60.708740 114.000000 93.000000 0.454719 0.882355 0.121163
2.80999994 12.75000000 0.13000000 98 160 126 97.000000 1.000000 4.000000 1.000000 -60.708740 114.000000 93.000000 0.305797 0.952057 0.008666
2.80999994 12.76000023 0.07000000 98 160 126 97.000000 1.000000 4.000000 1.000000 -60.708740 114.000000 93.000000 0.255791 0.897486 0.359290
2.80999994 12.76000023 0.08000000 98 160 126 97.000000 1.000000 4.000000 1.000000 -60.708740 114.000000 93.000000 0.156878 0.987540 -0.012415
2.79999995 12.73999977 0.09000000 98 160 126 97.000000 1.000000 4.000000 1.000000 -60.708740 114.000000 93.000000 0.249637 0.925796 0.283873
2.80999994 12.77999973 -0.02000000 98 160 126 97.000000 1.000000 4.000000 1.000000 -60.708740 114.000000 93.000000 0.897999 -0.286469 -0.333966
2.77999997 12.76000023 0.06000000 98 160 126 97.000000 1.000000 4.000000 1.000000 -60.708740 114.000000 93.000000 0.483851 0.860343 -0.160303
2.66000009 12.98999977 0.02000000 98 160 126 97.000000 1.000000 4.000000 1.000000 -60.708740 114.000000 93.000000 0.665213 -0.726382 0.172802
2.66000009 12.98999977 0.02000000 98 160 126 97.000000 1.000000 4.000000 1.000000 -60.708740 114.000000 93.000000 0.665213 -0.726382 0.172802
2.61999989 12.93999958 0.02000000 98 160 126 97.000000 1.000000 4.000000 1.000000 -60.708740 114.000000 93.000000 0.852727 -0.510486 0.110725
2.60999990 12.89000034 -0.02000000 98 160 126 97.000000 1.000000 4.000000 1.000000 -60.708740 114.000000 93.000000 0.971205 -0.169737 -0.167185
2.72000003 12.78999996 0.23999999 98 160 126 97.000000 1.000000 4.000000 1.000000 -60.708740 114.000000 93.000000 0.868174 0.065496 -0.491919
2.75000000 12.80000019 0.15000001 98 160 126 97.000000 1.000000 4.000000 1.000000 -60.708740 114.000000 93.000000 0.991423 -0.014433 -0.129895
2.74000001 12.76000023 0.20999999 98 160 126 97.000000 1.000000 4.000000 1.000000 -60.708740 114.000000 93.000000 0.944064 0.243941 0.221890
2.71000004 12.73999977 0.19000000 98 160 126 97.000000 1.000000 4.000000 1.000000 -60.708740 114.000000 93.000000 0.806858 0.584575 0.085160
2.69000006 12.72000027 0.22000000 98 160 126 97.000000 1.000000 4.000000 1.000000 -60.708740 114.000000 93.000000 0.791071 0.552966 -0.261602
2.75000000 12.73999977 0.11000000 98 160 126 97.000000 1.000000 4.000000 1.000000 -60.708740 114.000000 93.000000 0.777140 0.622587 0.091857
2.76999998 12.76000023 0.12000000 98 160 126 97.000000 1.000000 4.000000 1.000000 -60.708740 114.000000 93.000000 0.813484 0.549897 -0.189359
2.74000001 12.76000023 0.10000000 98 160 126 97.000000 1.000000 4.000000 1.000000 -60.708740 114.000000 93.000000 0.954189 0.200528 0.222061
2.71000004 12.76000023 0.11000000 98 160 126 97.000000 1.000000 4.000000 1.000000 -60.708740 114.000000 93.000000 0.974397 0.214490 0.067411
2.76999998 12.78999996 0.00000000 98 160 126 97.000000 1.000000 4.000000 1.000000 -60.708740 114.000000 93.000000 0.882871 -0.436328 -0.173656
2.72000003 12.77999973 0.01000000 98 160 126 97.000000 1.000000 4.000000 1.000000 -60.708740 114.000000 93.000000 0.955540 0.294859 0.001223
2.73000002 12.80000019 0.02000000 98 160 126 97.000000 1.000000 4.000000 1.000000 -60.708740 114.000000 93.000000 0.930443 -0.121600 -0.345671
2.68000007 12.77000046 0.04000000 98 160 126 97.000000 1.000000 4.000000 1.000000 -60.708740 114.000000 93.000000 0.850448 0.444448 -0.281432
2.79999995 12.68999958 0.31000000 98 160 126 97.000000 1.000000 4.000000 1.000000 -60.708740 114.000000 93.000000 0.572944 0.774973 0.266742
2.78999996 12.64000034 0.23000000 98 160 126 97.000000 1.000000 4.000000 1.000000 -60.708740 114.000000 93.000000 0.092085 0.992474 -0.080717
2.77999997 12.65999985 0.19000000 98 160 126 97.000000 1.000000 4.000000 1.000000 -60.708740 114.000000 93.000000 0.014894 0.999885 0.002979
2.86999989 12.71000004 0.07000000 98 160 126 97.000000 1.000000 4.000000 1.000000 -60.708740 114.000000 93.000000 -0.352623 0.935661 -0.014003
2.86999989 12.71000004 0.07000000 98 160 126 97.000000 1.000000 4.000000 1.000000 -60.708740 114.000000 93.000000 -0.352623 0.935661 -0.014003
2.83999991 12.64000034 0.08000000 98 160 126 97.000000 1.000000 4.000000 1.000000 -60.708740 114.000000 93.000000 -0.295062 0.914257 -0.277620
2.84999990 12.71000004 -0.01000000 98 160 126 97.000000 1.000000 4.000000 1.000000 -60.708740 114.000000 93.000000 -0.314832 0.884242 0.344960
2.81999993 12.61999989 0.12000000 98 160 126 97.000000 1.000000 4.000000 1.000000 -60.708740 114.000000 93.000000 -0.401691 0.915752 -0.006458
2.81999993 12.60999966 0.06000000 98 160 126 97.000000 1.000000 4.000000 1.000000 -60.708740 114.000000 93.000000 0.194860 0.963839 -0.181782
2.76999998 12.64000034 0.28999999 98 160 126 97.000000 1.000000 4.000000 1.000000 -60.708740 114.000000 93.000000 0.262336 0.955747 -0.133145
2.69000006 12.65999985 0.23999999 98 160 126 97.000000 1.000000 4.000000 1.000000 -60.708740 114.000000 93.000000 0.580815 0.813695 -0.023565
2.69000006 12.68000031 0.23000000 98 160 126 97.000000 1.000000 4.000000 1.000000 -60.708740 114.000000 93.000000 0.710196 0.642864 0.286964
2.69000006 12.69999981 0.18000001 98 160 126 97.000000 1.000000 4.000000 1.000000 -60.708740 114.000000 93.000000 0.612029 0.790480 -0.023700
2.69000006 12.69999981 0.18000001 98 160 126 97.000000 1.000000 4.000000 1.000000 -60.708740 114.000000 93.000000 0.612029 0.790480 -0.023700
2.73000002 12.64000034 0.19000000 98 160 126 97.000000 1.000000 4.000000 1.000000 -60.708740 114.000000 93.000000 0.457097 0.834631 0.307332
2.71000004 12.64999962 0.15000001 98 160 126 97.000000 1.000000 4.000000 1.000000 -60.708740 114.000000 93.000000 0.370994 0.898890 0.233154
2.71000004 12.64999962 0.17000000 98 160 126 97.000000 1.000000 4.000000 1.000000 -60.708740 114.000000 93.000000 0.400259 0.913133 0.077338
2.73000002 12.64000034 0.18000001 98 160 126 97.000000 1.000000 4.000000 1.000000 -60.708740 114.000000 93.000000 0.326332 0.942299 0.074702
2.69000006 12.63000011 0.28000000 98 160 126 97.000000 1.000000 4.000000 1.000000 -60.708740 114.000000 93.000000 0.686078 0.650396 0.326009
2.74000001 12.63000011 0.23000000 98 160 126 97.000000 1.000000 4.000000 1.000000 -60.708740 114.000000 93.000000 0.247586 0.957245 0.149611
2.75999999 12.61999989 0.20999999 98 160 126 97.000000 1.000000 4.000000 1.000000 -60.708740 114.000000 93.000000 0.253683 0.914709 -0.314567
2.71000004 12.63000011 0.22000000 98 160 126 97.000000 1.000000 4.000000 1.000000 -60.708740 114.000000 93.000000 0.511834 0.825389 0.238241
2.71000004 12.63000011 0.22000000 98 160 126 97.000000 1.000000 4.000000 1.000000 -60.708740 114.000000 93.000000 0.511834 0.825389 0.238241
2.72000003 12.63000011 0.20999999 98 160 126 97.000000 1.000000 4.000000 1.000000 -60.708740 114.000000 93.000000 0.578582 0.731784 0.360188
2.67000008 12.71000004 0.25999999 98 160 126 97.000000 1.000000 4.000000 1.000000 -60.708740 114.000000 93.000000 0.745927 0.508811 -0.429772
2.67000008 12.71000004 0.25999999 98 160 126 97.000000 1.000000 4.000000 1.000000 -60.708740 114.000000 93.000000 0.745927 0.508811 -0.429772
2.68000007 12.64000034 0.28000000 98 160 126 97.000000 1.000000 4.000000 1.000000 -60.708740 114.000000 93.000000 0.593629 0.791006 0.148033
2.65000010 12.65999985 0.28000000 98 160 126 97.000000 1.000000 4.000000 1.000000 -60.708740 114.000000 93.000000 0.867350 0.420763 0.265825
2.68000007 12.64000034 0.28000000 98 160 126 97.000000 1.000000 4.000000 1.000000 -60.708740 114.000000 93.000000 0.593629 0.791006 0.148033
2.66000009 12.67000008 0.23999999 98 160 126 97.000000 1.000000 4.000000 1.000000 -60.708740 114.000000 93.000000 0.664593 0.651465 -0.365936
2.71000004 12.71000004 0.14000000 98 160 126 97.000000 1.000000 4.000000 1.000000 -60.708740 114.000000 93.000000 0.626857 0.779074 0.009687
2.71000004 12.71000004 0.14000000 98 160 126 97.000000 1.000000 4.000000 1.000000 -60.708740 114.000000 93.000000 0.626857 0.779074 0.009687
2.70000005 12.69999981 0.06000000 98 160 126 97.000000 1.000000 4.000000 1.000000 -60.708740 114.000000 93.000000 0.556046 0.775916 -0.297939
2.71000004 12.69999981 0.01000000 98 160 126 97.000000 1.000000 4.000000 1.000000 -60.708740 114.000000 93.000000 0.587958 0.751368 0.299586
2.76999998 12.61999989 0.11000000 98 160 126 97.000000 1.000000 4.000000 1.000000 -60.708740 114.000000 93.000000 -0.042182 0.975005 -0.218141
2.76999998 12.61999989 0.11000000 98 160 126 97.000000 1.000000 4.000000 1.000000 -60.708740 114.000000 93.000000 -0.042182 0.975005 -0.218141
2.75000000 12.61999989 0.07000000 98 160 126 97.000000 1.000000 4.000000 1.000000 -60.708740 114.000000 93.000000 0.272483 0.848240 0.454139
2.75000000 12.61999989 0.07000000 98 160 126 97.000000 1.000000 4.000000 1.000000 -60.708740 114.000000 93.000000 0.272483 0.848240 0.454139
2.55999994 12.88000011 0.31999999 98 160 126 97.000000 1.000000 4.000000 1.000000 -60.708740 114.000000 93.000000 0.980967 -0.131041 0.143287
2.55999994 12.88000011 0.33000001 98 160 126 97.000000 1.000000 4.000000 1.000000 -60.708740 114.000000 93.000000 0.930120 -0.294985 0.218769
2.53999996 12.85999966 0.34999999 98 160 126 97.000000 1.000000 4.000000 1.000000 -60.708740 114.000000 93.000000 0.976644 -0.133462 0.168387
2.53999996 12.93999958 0.18000001 98 160 126 97.000000 1.000000 4.000000 1.000000 -60.708740 114.000000 93.000000 0.947123 -0.129945 -0.293380
2.53999996 12.89999962 0.20999999 98 160 126 97.000000 1.000000 4.000000 1.000000 -60.708740 114.000000 93.000000 0.991695 -0.117004 0.053390
2.58999991 13.05000019 0.01000000 98 160 126 97.000000 1.000000 4.000000 1.000000 -60.708740 114.000000 93.000000 -0.604391 0.765976 -0.219072
2.55999994 12.97999954 0.02000000 98 160 126 97.000000 1.000000 4.000000 1.000000 -60.708740 114.000000 93.000000 0.928078 -0.277144 -0.248719
2.57999992 12.89000034 0.11000000 98 160 126 97.000000 1.000000 4.000000 1.000000 -60.708740 114.000000 93.000000 0.954234 -0.023700 -0.298120
2.55999994 12.93000031 0.10000000 98 160 126 97.000000 1.000000 4.000000 1.000000 -60.708740 114.000000 93.000000 0.914966 -0.389376 0.105943
2.58999991 12.96000004 0.00000000 98 160 126 97.000000 1.000000 4.000000 1.000000 -60.708740 114.000000 93.000000 0.878660 -0.470761 0.079624
2.59999990 12.89999962 0.05000000 98 160 126 97.000000 1.000000 4.000000 1.000000 -60.708740 114.000000 93.000000 0.956363 -0.094728 -0.276398
2.56999993 12.88000011 0.27000001 98 160 126 97.000000 1.000000 4.000000 1.000000 -60.708740 114.000000 93.000000 0.997360 -0.015865 -0.070862
2.57999992 12.82999992 0.25999999 98 160 126 97.000000 1.000000 4.000000 1.000000 -60.708740 114.000000 93.000000 0.945478 0.133147 -0.297227
2.53999996 12.84000015 0.28999999 98 160 126 97.000000 1.000000 4.000000 1.000000 -60.708740 114.000000 93.000000 0.995059 0.076543 -0.063231
2.56999993 12.82999992 0.15000001 98 160 126 97.000000 1.000000 4.000000 1.000000 -60.708740 114.000000 93.000000 0.993998 0.079565 0.075082
2.53999996 12.88000011 0.22000000 98 160 126 97.000000 1.000000 4.000000 1.000000 -60.708740 114.000000 93.000000 0.971560 -0.203939 0.120337
2.55999994 12.84000015 0.15000001 98 160 126 97.000000 1.000000 4.000000 1.000000 -60.708740 114.000000 93.000000 0.994219 0.007573 0.107103
2.54999995 12.82999992 0.18000001 98 160 126 97.000000 1.000000 4.000000 1.000000 -60.708740 114.000000 93.000000 0.976528 -0.133788 0.168798
2.58999991 12.85000038 0.09000000 98 160 126 97.000000 1.000000 4.000000 1.000000 -60.708740 114.000000 93.000000 0.996248 -0.057833 0.064380
2.57999992 12.86999989 0.06000000 98 160 126 97.000000 1.000000 4.000000 1.000000 -60.708740 114.000000 93.000000 0.878379 -0.439925 0.186858
2.57999992 12.85999966 0.06000000 98 160 126 97.000000 1.000000 4.000000 1.000000 -60.708740 114.000000 93.000000 0.990851 -0.107275 0.081898
2.77999997 13.11999989 -0.03000000 98 160 126 97.000000 1.000000 4.000000 1.000000 -60.708740 114.000000 93.000000 -0.234053 0.951096 -0.201584
2.54999995 13.06999969 -0.56000000 98 160 126 97.000000 1.000000 4.000000 1.000000 -60.708740 114.000000 93.000000 0.810126 -0.585783 -0.023542
2.55999994 13.13000011 -0.61000001 98 160 126 97.000000 1.000000 4.000000 1.000000 -60.708740 114.000000 93.000000 -0.539684 0.832196 -0.127243
2.48000002 13.14000034 -0.79000002 98 160 126 97.000000 1.000000 4.000000 1.000000 -60.708740 114.000000 93.000000 0.795890 -0.598009 -0.094576
2.46000004 13.14000034 -0.83999997 98 160 126 97.000000 1.000000 4.000000 1.000000 -60.708740 114.000000 93.000000 0.776794 -0.629495 0.018065
2.50999999 13.13000011 -0.81999999 98 160 126 97.000000 1.000000 4.000000 1.000000 -60.708740 114.000000 93.000000 -0.583104 0.669985 0.459466
2.46000004 13.10999966 -0.81000000 98 160 126 97.000000 1.000000 4.000000 1.000000 -60.708740 114.000000 93.000000 0.826257 -0.513536 -0.231475
2.47000003 13.11999989 -0.81000000 98 160 126 97.000000 1.000000 4.000000 1.000000 -60.708740 114.000000 93.000000 0.700792 -0.544321 -0.461091
2.46000004 13.10999966 -0.83999997 98 160 126 97.000000 1.000000 4.000000 1.000000 -60.708740 114.000000 93.000000 0.840466 -0.523641 -0.139344
2.55999994 13.19999981 -1.00000000 98 160 126 97.000000 1.000000 4.000000 1.000000 -60.708740 114.000000 93.000000 -0.358694 0.871551 0.334272
2.52999997 13.15999985 -0.95999998 98 160 126 97.000000 1.000000 4.000000 1.000000 -60.708740 114.000000 93.000000 -0.626473 0.778516 -0.038011
2.52999997 13.15999985 -0.95999998 98 160 126 97.000000 1.000000 4.000000 1.000000 -60.708740 114.000000 93.000000 -0.626473 0.778516 -0.038011
2.54999995 13.17000008 -0.97000003 98 160 126 97.000000 1.000000 4.000000 1.000000 -60.708740 114.000000 93.000000 -0.480755 0.873208 -0.079892
2.52999997 13.14000034 -1.00000000 98 160 126 97.000000 1.000000 4.000000 1.000000 -60.708740 114.000000 93.000000 -0.580468 0.801315 -0.144744
2.50000000 13.14999962 -0.89999998 98 160 126 97.000000 1.000000 4.000000 1.000000 -60.708740 114.000000 93.000000 -0.659751 0.751422 -0.009723
2.50999999 13.14999962 -0.94000000 98 160 126 97.000000 1.000000 4.000000 1.000000 -60.708740 114.000000 93.000000 -0.482279 0.848145 -0.219218
2.50000000 13.14999962 -0.97000003 98 160 126 97.000000 1.000000 4.000000 1.000000 -60.708740 114.000000 93.000000 -0.569836 0.820282 -0.049245
2.50000000 13.14999962 -0.97000003 98 160 126 97.000000 1.000000 4.000000 1.000000 -60.708740 114.000000 93.000000 -0.569836 0.820282 -0.049245
2.50999999 13.11999989 -0.86000001 98 160 126 97.000000 1.000000 4.000000 1.000000 -60.708740 114.000000 93.000000 0.549566 -0.686540 -0.476068
2.50999999 13.11999989 -0.97000003 98 160 126 97.000000 1.000000 4.000000 1.000000 -60.708740 114.000000 93.000000 -0.523531 0.734925 0.431046
2.50999999 13.09000015 -1.01999998 98 160 126 97.000000 1.000000 4.000000 1.000000 -60.708740 114.000000 93.000000 -0.616632 0.754008 0.226358
2.50000000 13.17000008 -1.10000002 98 160 126 97.000000 1.000000 4.000000 1.000000 -60.708740 114.000000 93.000000 -0.563357 0.788075 0.248127
2.46000004 13.14999962 -1.03999996 98 160 126 97.000000 1.000000 4.000000 1.000000 -60.708740 114.000000 93.000000 0.642485 -0.598869 -0.478089
2.47000003 13.17000008 -1.07000005 98 160 126 97.000000 1.000000 4.000000 1.000000 -60.708740 114.000000 93.000000 -0.751474 0.605925 0.261038
2.52999997 13.06999969 -1.25999999 98 160 126 97.000000 1.000000 4.000000 1.000000 -60.708740 114.000000 93.000000 -0.240719 0.953464 0.181548
2.56999993 13.07999992 -1.36000001 98 160 126 97.000000 1.000000 4.000000 1.000000 -60.708740 114.000000 93.000000 -0.170598 0.964985 0.199248
2.55999994 13.09000015 -1.35000002 98 160 126 97.000000 1.000000 4.000000 1.000000 -60.708740 114.000000 93.000000 0.112924 0.982315 0.149351
2.50999999 13.18000031 -1.25999999 98 160 126 97.000000 1.000000 4.000000 1.000000 -60.708740 114.000000 93.000000 -0.372871 0.920483 -0.116952
2.50000000 13.17000008 -1.25999999 98 160 126 97.000000 1.000000 4.000000 1.000000 -60.708740 114.000000 93.000000 -0.459376 0.856593 0.234994
2.50000000 13.15999985 -1.29999995 98 160 126 97.000000 1.000000 4.000000 1.000000 -60.708740 114.000000 93.000000 -0.510500 0.857361 -0.065736
2.50999999 13.17000008 -1.32000005 98 160 126 97.000000 1.000000 4.000000 1.000000 -60.708740 114.000000 93.000000 -0.518947 0.807425 0.280639
2.51999998 13.18000031 -1.27999997 98 160 126 97.000000 1.000000 4.000000 1.000000 -60.708740 114.000000 93.000000 -0.366290 0.924575 0.104849
2.49000001 13.15999985 -1.32000005 98 160 126 97.000000 1.000000 4.000000 1.000000 -60.708740 114.000000 93.000000 -0.633115 0.773496 -0.029480
2.50000000 13.18000031 -1.33000004 98 160 126 97.000000 1.000000 4.000000 1.000000 -60.708740 114.000000 93.000000 -0.372064 0.904826 0.207024
2.83999991 13.05000019 -0.03000000 98 160 126 97.000000 1.000000 4.000000 1.000000 -60.708740 114.000000 93.000000 -0.225836 0.973842 -0.025093
2.81999993 12.94999981 -0.05000000 98 160 126 97.000000 1.000000 4.000000 1.000000 -60.708740 114.000000 93.000000 -0.120972 0.969048 -0.215202
2.79999995 12.77000046 -0.06000000 98 160 126 97.000000 1.000000 4.000000 1.000000 -60.708740 114.000000 93.000000 -0.168269 0.981772 0.088372
2.78999996 12.77000046 -0.03000000 98 160 126 97.000000 1.000000 4.000000 1.000000 -60.708740 114.000000 93.000000 0.294271 0.954151 -0.054778
2.78999996 12.77000046 -0.04000000 98 160 126 97.000000 1.000000 4.000000 1.000000 -60.708740 114.000000 93.000000 -0.146745 0.987926 0.049685
2.77999997 12.77999973 -0.09000000 98 160 126 97.000000 1.000000 4.000000 1.000000 -60.708740 114.000000 93.000000 0.016758 0.926827 0.375114
2.77999997 12.77999973 -0.10000000 98 160 126 97.000000 1.000000 4.000000 1.000000 -60.708740 114.000000 93.000000 0.107725 0.990378 0.086875
2.78999996 12.75000000 -0.05000000 98 160 126 97.000000 1.000000 4.000000 1.000000 -60.708740 114.000000 93.000000 0.110871 0.985920 -0.125177
2.79999995 12.76000023 -0.10000000 98 160 126 97.000000 1.000000 4.000000 1.000000 -60.708740 114.000000 93.000000 -0.425668 0.897696 -0.113792
2.78999996 12.78999996 -0.11000000 98 160 126 97.000000 1.000000 4.000000 1.000000 -60.708740 114.000000 93.000000 0.911458 -0.329985 -0.245672
2.77999997 12.73999977 -0.17000000 98 160 126 97.000000 1.000000 4.000000 1.000000 -60.708740 114.000000 93.000000 -0.233515 0.929813 -0.284463
2.80999994 12.75000000 -0.15000001 98 160 126 97.000000 1.000000 4.000000 1.000000 -60.708740 114.000000 93.000000 -0.372769 0.924521 0.079398
2.77999997 12.81999969 -0.27000001 98 160 126 97.000000 1.000000 4.000000 1.000000 -60.708740 114.000000 93.000000 0.982062 -0.123215 0.142734
2.77999997 12.81999969 -0.25000000 98 160 126 97.000000 1.000000 4.000000 1.000000 -60.708740 114.000000 93.000000 0.929345 0.259649 0.262487
2.78999996 12.84000015 -0.28999999 98 160 126 97.000000 1.000000 4.000000 1.000000 -60.708740 114.000000 93.000000 0.968019 0.110667 -0.225150
2.77999997 12.78999996 -0.23999999 98 160 126 97.000000 1.000000 4.000000 1.000000 -60.708740 114.000000 93.000000 -0.491839 0.866707 -0.083148
2.77999997 12.78999996 -0.23999999 98 160 126 97.000000 1.000000 4.000000 1.000000 -60.708740 114.000000 93.000000 -0.491839 0.866707 -0.083148
2.80999994 12.75000000 -0.25000000 98 160 126 97.000000 1.000000 4.000000 1.000000 -60.708740 114.000000 93.000000 -0.566819 0.807378 -0.163881
2.77999997 12.80000019 -0.28999999 98 160 126 97.000000 1.000000 4.000000 1.000000 -60.708740 114.000000 93.000000 0.822480 -0.568780 0.004092
2.78999996 12.73999977 -0.31000000 98 160 126 97.000000 1.000000 4.000000 1.000000 -60.708740 114.000000 93.000000 -0.262999 0.955518 -0.133482
2.65000010 13.03999996 -0.04000000 98 160 126 97.000000 1.000000 4.000000 1.000000 -60.708740 114.000000 93.000000 0.738223 -0.667777 -0.095397
2.61999989 12.98999977 -0.12000000 98 160 126 97.000000 1.000000 4.000000 1.000000 -60.708740 114.000000 93.000000 -0.725642 0.483208 0.489850
2.60999990 12.93999958 -0.10000000 98 160 126 97.000000 1.000000 4.000000 1.000000 -60.708740 114.000000 93.000000 0.841978 -0.315936 -0.437330
2.60999990 12.94999981 -0.10000000 98 160 126 97.000000 1.000000 4.000000 1.000000 -60.708740 114.000000 93.000000 0.878052 -0.326047 -0.350311
2.75999999 12.81000042 -0.06000000 98 160 126 97.000000 1.000000 4.000000 1.000000 -60.708740 114.000000 93.000000 0.868225 -0.252163 -0.427317
2.75999999 12.82999992 -0.15000001 98 160 126 97.000000 1.000000 4.000000 1.000000 -60.708740 114.000000 93.000000 -0.377777 0.925874 0.006403
2.76999998 12.77000046 -0.08000000 98 160 126 97.000000 1.000000 4.000000 1.000000 -60.708740 114.000000 93.000000 0.657910 0.723234 0.209971
2.76999998 12.77999973 -0.09000000 98 160 126 97.000000 1.000000 4.000000 1.000000 -60.708740 114.000000 93.000000 0.645419 0.752740 0.129680
2.76999998 12.77999973 -0.08000000 98 160 126 97.000000 1.000000 4.000000 1.000000 -60.708740 114.000000 93.000000 0.663412 0.737952 0.123737
2.76999998 12.77999973 -0.08000000 98 160 126 97.000000 1.000000 4.000000 1.000000 -60.708740 114.000000 93.000000 0.663412 0.737952 0.123737
2.76999998 12.77999973 -0.07000000 98 160 126 97.000000 1.000000 4.000000 1.000000 -60.708740 114.000000 93.000000 0.878495 0.458658 0.133715
2.71000004 12.76000023 -0.07000000 98 160 126 97.000000 1.000000 4.000000 1.000000 -60.708740 114.000000 93.000000 0.741182 0.657331 0.136258
2.76999998 12.77999973 -0.13000000 98 160 126 97.000000 1.000000 4.000000 1.000000 -60.708740 114.000000 93.000000 0.105908 0.986495 0.124948
2.76999998 12.77999973 -0.18000001 98 160 126 97.000000 1.000000 4.000000 1.000000 -60.708740 114.000000 93.000000 -0.183388 0.939001 0.290939
2.76999998 12.78999996 -0.15000001 98 160 126 97.000000 1.000000 4.000000 1.000000 -60.708740 114.000000 93.000000 0.306028 0.951100 -0.041904
2.76999998 12.78999996 -0.15000001 98 160 126 97.000000 1.000000 4.000000 1.000000 -60.708740 114.000000 93.000000 0.306028 0.951100 -0.041904
2.66000009 12.86999989 -0.06000000 98 160 126 97.000000 1.000000 4.000000 1.000000 -60.708740 114.000000 93.000000 0.935173 -0.270597 -0.228536
2.61999989 12.88000011 -0.10000000 98 160 126 97.000000 1.000000 4.000000 1.000000 -60.708740 114.000000 93.000000 0.984631 -0.036037 -0.170886
2.61999989 12.88000011 -0.10000000 98 160 126 97.000000 1.000000 4.000000 1.000000 -60.708740 114.000000 93.000000 0.984631 -0.036037 -0.170886
2.61999989 12.88000011 -0.10000000 98 160 126 97.000000 1.000000 4.000000 1.000000 -60.708740 114.000000 93.000000 0.984631 -0.036037 -0.170886
2.61999989 12.88000011 -0.12000000 98 160 126 97.000000 1.000000 4.000000 1.000000 -60.708740 114.000000 93.000000 0.968585 -0.248447 0.010802
2.61999989 12.85000038 -0.17000000 98 160 126 97.000000 1.000000 4.000000 1.000000 -60.708740 114.000000 93.000000 0.953438 0.013638 -0.301281
2.61999989 12.85000038 -0.17000000 98 160 126 97.000000 1.000000 4.000000 1.000000 -60.708740 114.000000 93.000000 0.953438 0.013638 -0.301281
2.63000011 12.85000038 -0.16000000 98 160 126 97.000000 1.000000 4.000000 1.000000 -60.708740 114.000000 93.000000 0.937459 -0.011386 -0.347910
2.60999990 12.84000015 -0.14000000 98 160 126 97.000000 1.000000 4.000000 1.000000 -60.708740 114.000000 93.000000 0.965527 0.098211 -0.241063
2.63000011 12.81000042 -0.17000000 98 160 126 97.000000 1.000000 4.000000 1.000000 -60.708740 114.000000 93.000000 0.923643 0.347938 -0.160694
2.63000011 12.84000015 -0.16000000 98 160 126 97.000000 1.000000 4.000000 1.000000 -60.708740 114.000000 93.000000 0.970984 0.062923 -0.230717
2.63000011 12.81000042 -0.18000001 98 160 126 97.000000 1.000000 4.000000 1.000000 -60.708740 114.000000 93.000000 0.970708 0.234394 -0.052769
2.65000010 12.73999977 -0.03000000 98 160 126 97.000000 1.000000 4.000000 1.000000 -60.708740 114.000000 93.000000 0.722713 0.688092 -0.064914
2.65000010 12.72999954 -0.03000000 98 160 126 97.000000 1.000000 4.000000 1.000000 -60.708740 114.000000 93.000000 0.699895 0.708662 -0.089131
2.66000009 12.72999954 -0.04000000 98 160 126 97.000000 1.000000 4.000000 1.000000 -60.708740 114.000000 93.000000 0.631222 0.775502 -0.012486
2.68000007 12.75000000 -0.06000000 98 160 126 97.000000 1.000000 4.000000 1.000000 -60.708740 114.000000 93.000000 0.852667 0.495049 0.166987
2.63000011 12.78999996 -0.17000000 98 160 126 97.000000 1.000000 4.000000 1.000000 -60.708740 114.000000 93.000000 0.864773 0.464278 -0.191348
2.74000001 12.81000042 -0.20000000 98 160 126 97.000000 1.000000 4.000000 1.000000 -60.708740 114.000000 93.000000 0.978348 -0.056698 -0.199047
2.73000002 12.84000015 -0.25000000 98 160 126 97.000000 1.000000 4.000000 1.000000 -60.708740 114.000000 93.000000 0.827571 -0.544338 0.137191
2.74000001 12.85000038 -0.31000000 98 160 126 97.000000 1.000000 4.000000 1.000000 -60.708740 114.000000 93.000000 -0.029414 0.980066 -0.196484
2.75000000 12.85000038 -0.34000000 98 160 126 97.000000 1.000000 4.000000 1.000000 -60.708740 114.000000 93.000000 0.246742 0.968913 0.018054
2.75000000 12.85000038 -0.34000000 98 160 126 97.000000 1.000000 4.000000 1.000000 -60.708740 114.000000 93.000000 0.246742 0.968913 0.018054
2.75000000 12.84000015 -0.28999999 98 160 126 97.000000 1.000000 4.000000 1.000000 -60.708740 114.000000 93.000000 0.052610 0.997446 -0.048315
2.74000001 12.82999992 -0.31999999 98 160 126 97.000000 1.000000 4.000000 1.000000 -60.708740 114.000000 93.000000 0.723702 -0.658616 -0.206108
2.74000001 12.84000015 -0.33000001 98 160 126 97.000000 1.000000 4.000000 1.000000 -60.708740 114.000000 93.000000 -0.050706 0.881180 0.470054
2.70000005 12.86999989 -0.33000001 98 160 126 97.000000 1.000000 4.000000 1.000000 -60.708740 114.000000 93.000000 -0.599254 0.751849 0.274989
2.70000005 12.72000027 -0.25999999 98 160 126 97.000000 1.000000 4.000000 1.000000 -60.708740 114.000000 93.000000 0.728552 0.661065 0.179454
2.76999998 12.72999954 -0.30000001 98 160 126 97.000000 1.000000 4.000000 1.000000 -60.708740 114.000000 93.000000 -0.277619 0.946613 -0.163863
2.75999999 12.72999954 -0.31000000 98 160 126 97.000000 1.000000 4.000000 1.000000 -60.708740 114.000000 93.000000 0.076025 0.891562 0.446472
2.67000008 12.85999966 -0.25000000 98 160 126 97.000000 1.000000 4.000000 1.000000 -60.708740 114.000000 93.000000 0.929985 -0.331246 0.159386
2.66000009 12.81000042 -0.23000000 98 160 126 97.000000 1.000000 4.000000 1.000000 -60.708740 114.000000 93.000000 0.876016 0.394888 -0.276875
2.68000007 12.81999969 -0.27000001 98 160 126 97.000000 1.000000 4.000000 1.000000 -60.708740 114.000000 93.000000 0.975581 0.082635 0.203503
2.60999990 12.85000038 -0.25999999 98 160 126 97.000000 1.000000 4.000000 1.000000 -60.708740 114.000000 93.000000 0.995918 0.013966 0.089171
2.64000010 12.82999992 -0.27000001 98 160 126 97.000000 1.000000 4.000000 1.000000 -60.708740 114.000000 93.000000 0.972853 0.161085 -0.166159
2.67000008 12.88000011 -0.34000000 98 160 126 97.000000 1.000000 4.000000 1.000000 -60.708740 114.000000 93.000000 0.776178 -0.628063 0.055543
2.65000010 12.81000042 -0.28000000 98 160 126 97.000000 1.000000 4.000000 1.000000 -60.708740 114.000000 93.000000 0.963857 0.262418 0.046016
2.66000009 12.84000015 -0.28000000 98 160 126 97.000000 1.000000 4.000000 1.000000 -60.708740 114.000000 93.000000 0.881189 0.022871 -0.472210
2.66000009 12.84000015 -0.30000001 98 160 126 97.000000 1.000000 4.000000 1.000000 -60.708740 114.000000 93.000000 0.982682 0.169180 -0.075591
2.63000011 12.85999966 -0.28000000 98 160 126 97.000000 1.000000 4.000000 1.000000 -60.708740 114.000000 93.000000 0.986367 0.088809 -0.138541
2.61999989 12.81000042 -0.30000001 98 160 126 97.000000 1.000000 4.000000 1.000000 -60.708740 114.000000 93.000000 0.926054 0.373857 0.051521
2.65000010 12.78999996 -0.23999999 98 160 126 97.000000 1.000000 4.000000 1.000000 -60.708740 114.000000 93.000000 0.814721 0.535476 -0.222476
2.63000011 12.77000046 -0.20000000 98 160 126 97.000000 1.000000 4.000000 1.000000 -60.708740 114.000000 93.000000 0.970293 0.055481 0.235484
2.63000011 12.77000046 -0.25999999 98 160 126 97.000000 1.000000 4.000000 1.000000 -60.708740 114.000000 93.000000 0.720873 0.672104 -0.169169
2.63000011 12.80000019 -0.27000001 98 160 126 97.000000 1.000000 4.000000 1.000000 -60.708740 114.000000 93.000000 0.950019 0.151842 0.272778
2.78999996 12.76000023 -0.41999999 98 160 126 97.000000 1.000000 4.000000 1.000000 -60.708740 114.000000 93.000000 -0.456668 0.778448 0.430666
2.78999996 12.76000023 -0.41999999 98 160 126 97.000000 1.000000 4.000000 1.000000 -60.708740 114.000000 93.000000 -0.456668 0.778448 0.430666
2.74000001 12.89000034 -0.47000000 98 160 126 97.000000 1.000000 4.000000 1.000000 -60.708740 114.000000 93.000000 0.219326 0.972719 0.075587
2.67000008 12.89000034 -0.44000000 98 160 126 97.000000 1.000000 4.000000 1.000000 -60.708740 114.000000 93.000000 0.631004 -0.723658 -0.279559
2.68000007 12.90999985 -0.51999998 98 160 126 97.000000 1.000000 4.000000 1.000000 -60.708740 114.000000 93.000000 -0.589335 0.787302 0.181217
2.72000003 12.89000034 -0.55000001 98 160 126 97.000000 1.000000 4.000000 1.000000 -60.708740 114.000000 93.000000 0.151483 0.982821 -0.105432
2.69000006 12.92000008 -0.54000002 98 160 126 97.000000 1.000000 4.000000 1.000000 -60.708740 114.000000 93.000000 -0.305515 0.951748 -0.028917
2.71000004 12.89000034 -0.58999997 98 160 126 97.000000 1.000000 4.000000 1.000000 -60.708740 114.000000 93.000000 0.040473 0.967666 0.248968
2.72000003 12.89000034 -0.60000002 98 160 126 97.000000 1.000000 4.000000 1.000000 -60.708740 114.000000 93.000000 0.544297 0.817204 0.189519
2.70000005 12.89999962 -0.62000000 98 160 126 97.000000 1.000000 4.000000 1.000000 -60.708740 114.000000 93.000000 0.224276 0.937501 0.266067
2.71000004 12.89000034 -0.68000001 98 160 126 97.000000 1.000000 4.000000 1.000000 -60.708740 114.000000 93.000000 0.637369 0.768550 0.055609
2.70000005 12.89999962 -0.67000002 98 160 126 97.000000 1.000000 4.000000 1.000000 -60.708740 114.000000 93.000000 0.266581 0.960457 0.080357
2.70000005 12.89999962 -0.67000002 98 160 126 97.000000 1.000000 4.000000 1.000000 -60.708740 114.000000 93.000000 0.266581 0.960457 0.080357
2.69000006 12.90999985 -0.69000000 98 160 126 97.000000 1.000000 4.000000 1.000000 -60.708740 114.000000 93.000000 -0.264237 0.962127 -0.067008
2.72000003 12.89000034 -0.68000001 98 160 126 97.000000 1.000000 4.000000 1.000000 -60.708740 114.000000 93.000000 0.570698 0.814661 0.103103
2.69000006 12.89999962 -0.68000001 98 160 126 97.000000 1.000000 4.000000 1.000000 -60.708740 114.000000 93.000000 0.046574 0.957923 0.283223
2.71000004 12.89000034 -0.69000000 98 160 126 97.000000 1.000000 4.000000 1.000000 -60.708740 114.000000 93.000000 0.647903 0.759462 0.058640
2.71000004 12.89000034 -0.67000002 98 160 126 97.000000 1.000000 4.000000 1.000000 -60.708740 114.000000 93.000000 0.563260 0.780991 -0.269797
2.73000002 12.90999985 -0.67000002 98 160 126 97.000000 1.000000 4.000000 1.000000 -60.708740 114.000000 93.000000 0.403274 0.914870 -0.019576
2.71000004 12.89000034 -0.69000000 98 160 126 97.000000 1.000000 4.000000 1.000000 -60.708740 114.000000 93.000000 0.647903 0.759462 0.058640
2.70000005 12.89000034 -0.68000001 98 160 126 97.000000 1.000000 4.000000 1.000000 -60.708740 114.000000 93.000000 0.602308 0.791896 0.100628
2.71000004 12.89000034 -0.67000002 98 160 126 97.000000 1.000000 4.000000 1.000000 -60.708740 114.000000 93.000000 0.563260 0.780991 -0.269797
2.69000006 12.89999962 -0.67000002 98 160 126 97.000000 1.000000 4.000000 1.000000 -60.708740 114.000000 93.000000 -0.035084 0.990268 0.134677
2.71000004 12.89999962 -0.67000002 98 160 126 97.000000 1.000000 4.000000 1.000000 -60.708740 114.000000 93.000000 0.572136 0.738397 -0.356974
2.68000007 12.90999985 -0.52999997 98 160 126 97.000000 1.000000 4.000000 1.000000 -60.708740 114.000000 93.000000 -0.416974 0.893104 0.168810
2.68000007 12.90999985 -0.54000002 98 160 126 97.000000 1.000000 4.000000 1.000000 -60.708740 114.000000 93.000000 -0.402508 0.903153 0.149340
2.68000007 12.90999985 -0.55000001 98 160 126 97.000000 1.000000 4.000000 1.000000 -60.708740 114.000000 93.000000 -0.486974 0.873333 0.012074
2.67000008 12.89999962 -0.54000002 98 160 126 97.000000 1.000000 4.000000 1.000000 -60.708740 114.000000 93.000000 -0.400735 0.915778 0.027592
2.68000007 12.89999962 -0.57999998 98 160 126 97.000000 1.000000 4.000000 1.000000 -60.708740 114.000000 93.000000 -0.109784 0.990369 -0.084360
2.64000010 12.89000034 -0.57999998 98 160 126 97.000000 1.000000 4.000000 1.000000 -60.708740 114.000000 93.000000 -0.693048 0.720826 -0.009722
2.64000010 12.89000034 -0.57999998 98 160 126 97.000000 1.000000 4.000000 1.000000 -60.708740 114.000000 93.000000 -0.693048 0.720826 -0.009722
2.64000010 12.89000034 -0.57999998 98 160 126 97.000000 1.000000 4.000000 1.000000 -60.708740 114.000000 93.000000 -0.693048 0.720826 -0.009722
2.68000007 12.93000031 -0.69000000 98 160 126 97.000000 1.000000 4.000000 1.000000 -60.708740 114.000000 93.000000 -0.028377 0.876973 0.479700
2.66000009 12.89000034 -0.62000000 98 160 126 97.000000 1.000000 4.000000 1.000000 -60.708740 114.000000 93.000000 -0.544255 0.832985 0.099612
2.67000008 12.89999962 -0.64999998 98 160 126 97.000000 1.000000 4.000000 1.000000 -60.708740 114.000000 93.000000 -0.679053 0.730955 0.067761
2.68000007 12.92000008 -0.64999998 98 160 126 97.000000 1.000000 4.000000 1.000000 -60.708740 114.000000 93.000000 -0.375749 0.879767 0.291244
2.68000007 12.90999985 -0.69000000 98 160 126 97.000000 1.000000 4.000000 1.000000 -60.708740 114.000000 93.000000 -0.091134 0.993471 -0.068632
2.68000007 12.90999985 -0.69000000 98 160 126 97.000000 1.000000 4.000000 1.000000 -60.708740 114.000000 93.000000 -0.091134 0.993471 -0.068632
2.66000009 12.89999962 -0.67000002 98 160 126 97.000000 1.000000 4.000000 1.000000 -60.708740 114.000000 93.000000 -0.342578 0.807846 0.479609
2.68000007 12.92000008 -0.67000002 98 160 126 97.000000 1.000000 4.000000 1.000000 -60.708740 114.000000 93.000000 -0.081641 0.996014 0.035922
2.68000007 12.89999962 -0.68000001 98 160 126 97.000000 1.000000 4.000000 1.000000 -60.708740 114.000000 93.000000 0.134980 0.936678 0.323133
2.67000008 12.92000008 -0.67000002 98 160 126 97.000000 1.000000 4.000000 1.000000 -60.708740 114.000000 93.000000 -0.140549 0.981399 0.130772
2.67000008 12.89999962 -0.69000000 98 160 126 97.000000 1.000000 4.000000 1.000000 -60.708740 114.000000 93.000000 -0.329338 0.916105 -0.228667
2.67000008 12.92000008 -0.68000001 98 160 126 97.000000 1.000000 4.000000 1.000000 -60.708740 114.000000 93.000000 -0.067339 0.991821 0.108427
2.66000009 12.89999962 -0.66000003 98 160 126 97.000000 1.000000 4.000000 1.000000 -60.708740 114.000000 93.000000 -0.419727 0.769227 0.481788
2.67000008 12.92000008 -0.67000002 98 160 126 97.000000 1.000000 4.000000 1.000000 -60.708740 114.000000 93.000000 -0.140549 0.981399 0.130772
2.67000008 12.89999962 -0.66000003 98 160 126 97.000000 1.000000 4.000000 1.000000 -60.708740 114.000000 93.000000 -0.577877 0.785478 0.221545
2.63000011 12.89999962 -0.63999999 98 160 126 97.000000 1.000000 4.000000 1.000000 -60.708740 114.000000 93.000000 -0.622042 0.780067 -0.067520
2.63000011 12.90999985 -0.66000003 98 160 126 97.000000 1.000000 4.000000 1.000000 -60.708740 114.000000 93.000000 0.847896 -0.522988 0.086927
2.63000011 12.89000034 -0.64999998 98 160 126 97.000000 1.000000 4.000000 1.000000 -60.708740 114.000000 93.000000 0.686807 -0.713858 0.136760
2.76999998 12.81999969 -0.41999999 98 160 126 97.000000 1.000000 4.000000 1.000000 -60.708740 114.000000 93.000000 0.901446 -0.390867 0.186058
2.73000002 12.86999989 -0.41000000 98 160 126 97.000000 1.000000 4.000000 1.000000 -60.708740 114.000000 93.000000 -0.076227 0.995370 -0.058551
2.72000003 12.85999966 -0.43000001 98 160 126 97.000000 1.000000 4.000000 1.000000 -60.708740 114.000000 93.000000 -0.122963 0.982486 0.140007
2.73000002 12.82999992 -0.43000001 98 160 126 97.000000 1.000000 4.000000 1.000000 -60.708740 114.000000 93.000000 -0.614352 0.749479 0.246684
2.75000000 12.85999966 -0.46000001 98 160 126 97.000000 1.000000 4.000000 1.000000 -60.708740 114.000000 93.000000 0.509140 0.808634 -0.294765
2.74000001 12.88000011 -0.50000000 98 160 126 97.000000 1.000000 4.000000 1.000000 -60.708740 114.000000 93.000000 0.304081 0.950736 -0.060303
2.75000000 12.85000038 -0.51999998 98 160 126 97.000000 1.000000 4.000000 1.000000 -60.708740 114.000000 93.000000 0.878485 0.435551 0.196367
2.73000002 12.85999966 -0.47999999 98 160 126 97.000000 1.000000 4.000000 1.000000 -60.708740 114.000000 93.000000 0.311253 0.928126 0.204216
2.73000002 12.85999966 -0.46000001 98 160 126 97.000000 1.000000 4.000000 1.000000 -60.708740 114.000000 93.000000 0.062510 0.924350 0.376390
2.71000004 12.88000011 -0.47000000 98 160 126 97.000000 1.000000 4.000000 1.000000 -60.708740 114.000000 93.000000 0.081264 0.955822 0.282490
2.72000003 12.86999989 -0.44999999 98 160 126 97.000000 1.000000 4.000000 1.000000 -60.708740 114.000000 93.000000 -0.140785 0.972809 0.183908
2.73000002 12.86999989 -0.50999999 98 160 126 97.000000 1.000000 4.000000 1.000000 -60.708740 114.000000 93.000000 0.528267 0.848261 0.037241
2.71000004 12.88000011 -0.51999998 98 160 126 97.000000 1.000000 4.000000 1.000000 -60.708740 114.000000 93.000000 0.033712 0.957659 -0.285924
2.71000004 12.88000011 -0.50000000 98 160 126 97.000000 1.000000 4.000000 1.000000 -60.708740 114.000000 93.000000 0.124225 0.980271 0.153744
2.71000004 12.88000011 -0.51999998 98 160 126 97.000000 1.000000 4.000000 1.000000 -60.708740 114.000000 93.000000 0.033712 0.957659 -0.285924
2.69000006 12.86999989 -0.50000000 98 160 126 97.000000 1.000000 4.000000 1.000000 -60.708740 114.000000 93.000000 -0.452683 0.745692 0.488898
2.73000002 12.86999989 -0.51999998 98 160 126 97.000000 1.000000 4.000000 1.000000 -60.708740 114.000000 93.000000 0.390866 0.892355 0.225670
2.73000002 12.88000011 -0.49000001 98 160 126 97.000000 1.000000 4.000000 1.000000 -60.708740 114.000000 93.000000 0.249322 0.965966 -0.068908
2.69000006 12.86999989 -0.50000000 98 160 126 97.000000 1.000000 4.000000 1.000000 -60.708740 114.000000 93.000000 -0.452683 0.745692 0.488898
2.73000002 12.86999989 -0.49000001 98 160 126 97.000000 1.000000 4.000000 1.000000 -60.708740 114.000000 93.000000 0.499785 0.849783 0.167584
2.73000002 12.86999989 -0.50999999 98 160 126 97.000000 1.000000 4.000000 1.000000 -60.708740 114.000000 93.000000 0.528267 0.848261 0.037241
2.76999998 12.77000046 -0.43000001 98 160 126 97.000000 1.000000 4.000000 1.000000 -60.708740 114.000000 93.000000 -0.309011 0.894190 0.323939
2.74000001 12.72000027 -0.40000001 98 160 126 97.000000 1.000000 4.000000 1.000000 -60.708740 114.000000 93.000000 0.123804 0.934651 0.333318
2.69000006 12.72000027 -0.41000000 98 160 126 97.000000 1.000000 4.000000 1.000000 -60.708740 114.000000 93.000000 0.564662 0.815295 -0.128265
2.69000006 12.72999954 -0.41999999 98 160 126 97.000000 1.000000 4.000000 1.000000 -60.708740 114.000000 93.000000 0.462534 0.780627 0.420338
2.75999999 12.78999996 -0.46000001 98 160 126 97.000000 1.000000 4.000000 1.000000 -60.708740 114.000000 93.000000 -0.475463 0.878721 0.042233
2.75999999 12.75000000 -0.47000000 98 160 126 97.000000 1.000000 4.000000 1.000000 -60.708740 114.000000 93.000000 -0.530553 0.822433 -0.205228
2.75999999 12.73999977 -0.44000000 98 160 126 97.000000 1.000000 4.000000 1.000000 -60.708740 114.000000 93.000000 -0.344055 0.914122 -0.214495
2.75999999 12.75000000 -0.46000001 98 160 126 97.000000 1.000000 4.000000 1.000000 -60.708740 114.000000 93.000000 -0.083985 0.995817 0.035993
2.76999998 12.76000023 -0.51999998 98 160 126 97.000000 1.000000 4.000000 1.000000 -60.708740 114.000000 93.000000 0.668683 -0.726302 0.159210
2.72000003 12.77999973 -0.49000001 98 160 126 97.000000 1.000000 4.000000 1.000000 -60.708740 114.000000 93.000000 -0.125994 0.962488 0.240297
2.64000010 12.85000038 -0.40000001 98 160 126 97.000000 1.000000 4.000000 1.000000 -60.708740 114.000000 93.000000 0.998617 -0.050812 0.013481
2.61999989 12.82999992 -0.36000001 98 160 126 97.000000 1.000000 4.000000 1.000000 -60.708740 114.000000 93.000000 0.944690 0.316649 0.085403
2.63000011 12.85000038 -0.50999999 98 160 126 97.000000 1.000000 4.000000 1.000000 -60.708740 114.000000 93.000000 0.986750 0.135900 0.088630
2.63000011 12.85000038 -0.50999999 98 160 126 97.000000 1.000000 4.000000 1.000000 -60.708740 114.000000 93.000000 0.986750 0.135900 0.088630
2.60999990 12.81000042 -0.50999999 98 160 126 97.000000 1.000000 4.000000 1.000000 -60.708740 114.000000 93.000000 0.989315 0.068429 0.128739
2.68000007 12.72999954 -0.38000000 98 160 126 97.000000 1.000000 4.000000 1.000000 -60.708740 114.000000 93.000000 0.687410 0.687410 -0.234380
2.65000010 12.72999954 -0.40000001 98 160 126 97.000000 1.000000 4.000000 1.000000 -60.708740 114.000000 93.000000 0.858171 0.463020 -0.221707
2.64000010 12.77999973 -0.38999999 98 160 126 97.000000 1.000000 4.000000 1.000000 -60.708740 114.000000 93.000000 0.936557 0.242189 0.253388
2.64000010 12.77000046 -0.38000000 98 160 126 97.000000 1.000000 4.000000 1.000000 -60.708740 114.000000 93.000000 0.928119 0.192364 -0.318734
2.64000010 12.76000023 -0.41000000 98 160 126 97.000000 1.000000 4.000000 1.000000 -60.708740 114.000000 93.000000 0.892132 0.369619 -0.259772
2.64000010 12.76000023 -0.41000000 98 160 126 97.000000 1.000000 4.000000 1.000000 -60.708740 114.000000 93.000000 0.892132 0.369619 -0.259772
2.64000010 12.76000023 -0.41000000 98 160 126 97.000000 1.000000 4.000000 1.000000 -60.708740 114.000000 93.000000 0.892132 0.369619 -0.259772
2.68000007 12.73999977 -0.46000001 98 160 126 97.000000 1.000000 4.000000 1.000000 -60.708740 114.000000 93.000000 0.346074 0.826470 0.444050
2.67000008 12.75000000 -0.44000000 98 160 126 97.000000 1.000000 4.000000 1.000000 -60.708740 114.000000 93.000000 0.645605 0.706481 -0.289962
2.68000007 12.73999977 -0.44999999 98 160 126 97.000000 1.000000 4.000000 1.000000 -60.708740 114.000000 93.000000 0.462988 0.861548 -0.208270
2.67000008 12.73999977 -0.51999998 98 160 126 97.000000 1.000000 4.000000 1.000000 -60.708740 114.000000 93.000000 0.558177 0.809282 -0.183034
2.63000011 12.77000046 -0.50000000 98 160 126 97.000000 1.000000 4.000000 1.000000 -60.708740 114.000000 93.000000 0.883982 0.456748 0.099782
2.74000001 12.85000038 -0.55000001 98 160 126 97.000000 1.000000 4.000000 1.000000 -60.708740 114.000000 93.000000 0.864700 0.472860 0.169405
2.72000003 12.88000011 -0.52999997 98 160 126 97.000000 1.000000 4.000000 1.000000 -60.708740 114.000000 93.000000 0.391391 0.897725 0.202243
2.73000002 12.86999989 -0.57999998 98 160 126 97.000000 1.000000 4.000000 1.000000 -60.708740 114.000000 93.000000 0.707202 0.676116 0.206720
2.71000004 12.88000011 -0.57999998 98 160 126 97.000000 1.000000 4.000000 1.000000 -60.708740 114.000000 93.000000 0.410861 0.892859 0.184379
2.74000001 12.86999989 -0.61000001 98 160 126 97.000000 1.000000 4.000000 1.000000 -60.708740 114.000000 93.000000 0.803152 0.590511 0.079022
2.74000001 12.86999989 -0.69000000 98 160 126 97.000000 1.000000 4.000000 1.000000 -60.708740 114.000000 93.000000 0.819698 0.556804 -0.134401
2.73000002 12.86999989 -0.63999999 98 160 126 97.000000 1.000000 4.000000 1.000000 -60.708740 114.000000 93.000000 0.756799 0.650127 0.067752
2.72000003 12.88000011 -0.64999998 98 160 126 97.000000 1.000000 4.000000 1.000000 -60.708740 114.000000 93.000000 0.549669 0.798811 -0.244470
2.71000004 12.88000011 -0.64999998 98 160 126 97.000000 1.000000 4.000000 1.000000 -60.708740 114.000000 93.000000 0.330793 0.939241 -0.091666
2.72000003 12.86999989 -0.69000000 98 160 126 97.000000 1.000000 4.000000 1.000000 -60.708740 114.000000 93.000000 0.719776 0.657322 -0.223271
2.72000003 12.88000011 -0.68000001 98 160 126 97.000000 1.000000 4.000000 1.000000 -60.708740 114.000000 93.000000 0.826205 0.540383 0.159286
2.72000003 12.82999992 -0.64999998 98 160 126 97.000000 1.000000 4.000000 1.000000 -60.708740 114.000000 93.000000 0.784107 -0.604883 0.138899
2.74000001 12.77999973 -0.55000001 98 160 126 97.000000 1.000000 4.000000 1.000000 -60.708740 114.000000 93.000000 -0.047771 0.941220 0.334398
