//X Y Z R G B PointSourceId ScanDirectionFlag NumberOfReturns ReturnNumber GpsTime Intensity Classification Nx Ny Nz
14.23999977 2.68000007 0.64999998 66 244 100 0.000000 0.000000 0.000000 0.000000 -60.708740 0.000000 222.000000 0.999884 -0.014924 -0.002985
14.26000023 2.68000007 0.63000000 66 244 100 0.000000 0.000000 0.000000 0.000000 -60.708740 0.000000 222.000000 0.880946 -0.009329 -0.473125
14.25000000 2.66000009 0.56999999 66 244 100 0.000000 0.000000 0.000000 0.000000 -60.708740 0.000000 222.000000 0.884570 0.079153 -0.459643
14.22000027 2.69000006 0.63000000 66 244 100 0.000000 0.000000 0.000000 0.000000 -60.708740 0.000000 222.000000 0.968295 0.222670 -0.113243
14.22000027 2.69000006 0.63000000 66 244 100 0.000000 0.000000 0.000000 0.000000 -60.708740 0.000000 222.000000 0.968295 0.222670 -0.113243
14.21000004 2.66000009 0.58999997 66 244 100 0.000000 0.000000 0.000000 0.000000 -60.708740 0.000000 222.000000 0.795692 0.526770 -0.298978
14.23999977 2.66000009 0.55000001 66 244 100 0.000000 0.000000 0.000000 0.000000 -60.708740 0.000000 222.000000 0.855493 0.199266 -0.477938
14.14999962 2.84999990 0.56000000 66 244 100 0.000000 0.000000 0.000000 0.000000 -60.708740 0.000000 222.000000 0.981956 -0.149666 -0.115596
14.17000008 2.65000010 0.61000001 66 244 100 0.000000 0.000000 0.000000 0.000000 -60.708740 0.000000 222.000000 0.960150 0.028421 -0.278036
14.17000008 2.65000010 0.56999999 66 244 100 0.000000 0.000000 0.000000 0.000000 -60.708740 0.000000 222.000000 0.930687 0.136098 -0.339557
14.10999966 2.67000008 0.58999997 66 244 100 0.000000 0.000000 0.000000 0.000000 -60.708740 0.000000 222.000000 0.796079 0.357194 -0.488539
14.02000046 2.75000000 0.34999999 66 244 100 0.000000 0.000000 0.000000 0.000000 -60.708740 0.000000 222.000000 0.999091 -0.042013 0.007173
14.07999992 2.73000002 0.31999999 66 244 100 0.000000 0.000000 0.000000 0.000000 -60.708740 0.000000 222.000000 0.941324 -0.024137 -0.336641
14.05000019 2.71000004 0.33000001 66 244 100 0.000000 0.000000 0.000000 0.000000 -60.708740 0.000000 222.000000 0.950412 -0.293142 -0.103849
14.02999973 2.72000003 0.34000000 66 244 100 0.000000 0.000000 0.000000 0.000000 -60.708740 0.000000 222.000000 0.952075 -0.041836 -0.302991
14.14000034 2.65000010 0.28999999 66 244 100 0.000000 0.000000 0.000000 0.000000 -60.708740 0.000000 222.000000 0.896092 -0.147205 -0.418748
14.13000011 2.65000010 0.30000001 66 244 100 0.000000 0.000000 0.000000 0.000000 -60.708740 0.000000 222.000000 0.967430 -0.230098 -0.105515
14.03999996 2.74000001 0.28999999 66 244 100 0.000000 0.000000 0.000000 0.000000 -60.708740 0.000000 222.000000 0.730331 -0.682852 -0.018154
14.03999996 2.74000001 0.30000001 66 244 100 0.000000 0.000000 0.000000 0.000000 -60.708740 0.000000 222.000000 0.880039 -0.381904 -0.282277
14.03999996 2.74000001 0.28999999 66 244 100 0.000000 0.000000 0.000000 0.000000 -60.708740 0.000000 222.000000 0.730331 -0.682852 -0.018154
14.03999996 2.74000001 0.30000001 66 244 100 0.000000 0.000000 0.000000 0.000000 -60.708740 0.000000 222.000000 0.880039 -0.381904 -0.282277
14.09000015 2.71000004 0.28000000 66 244 100 0.000000 0.000000 0.000000 0.000000 -60.708740 0.000000 222.000000 0.875469 -0.439957 -0.199980
14.03999996 2.71000004 0.31000000 66 244 100 0.000000 0.000000 0.000000 0.000000 -60.708740 0.000000 222.000000 0.917676 -0.231214 -0.323125
14.06000042 2.71000004 0.28999999 66 244 100 0.000000 0.000000 0.000000 0.000000 -60.708740 0.000000 222.000000 0.877435 -0.231691 -0.420033
14.02000046 2.72000003 0.31000000 66 244 100 0.000000 0.000000 0.000000 0.000000 -60.708740 0.000000 222.000000 0.823510 -0.553410 0.124774
14.32999992 2.60999990 0.60000002 66 244 100 0.000000 0.000000 0.000000 0.000000 -60.708740 0.000000 222.000000 0.717549 0.674710 -0.172885
14.31999969 2.61999989 0.60000002 66 244 100 0.000000 0.000000 0.000000 0.000000 -60.708740 0.000000 222.000000 0.622930 0.758283 -0.192262
14.34000015 2.63000011 0.60000002 66 244 100 0.000000 0.000000 0.000000 0.000000 -60.708740 0.000000 222.000000 0.674867 0.693833 -0.251297
14.34000015 2.57999992 0.63000000 66 244 100 0.000000 0.000000 0.000000 0.000000 -60.708740 0.000000 222.000000 0.460253 0.641007 -0.614229
14.31999969 2.57999992 0.62000000 66 244 100 0.000000 0.000000 0.000000 0.000000 -60.708740 0.000000 222.000000 0.118019 0.834873 -0.537641
14.31999969 2.59999990 0.57999998 66 244 100 0.000000 0.000000 0.000000 0.000000 -60.708740 0.000000 222.000000 0.506209 0.512891 -0.693322
14.32999992 2.58999991 0.57999998 66 244 100 0.000000 0.000000 0.000000 0.000000 -60.708740 0.000000 222.000000 0.722279 0.564332 -0.399804
14.34000015 2.58999991 0.60000002 66 244 100 0.000000 0.000000 0.000000 0.000000 -60.708740 0.000000 222.000000 0.617158 0.566432 -0.546142
14.34000015 2.59999990 0.60000002 66 244 100 0.000000 0.000000 0.000000 0.000000 -60.708740 0.000000 222.000000 0.435245 0.595335 -0.675380
14.31000042 2.64000010 0.56999999 66 244 100 0.000000 0.000000 0.000000 0.000000 -60.708740 0.000000 222.000000 0.787648 0.615999 -0.012458
14.31000042 2.60999990 0.56999999 66 244 100 0.000000 0.000000 0.000000 0.000000 -60.708740 0.000000 222.000000 0.873377 0.299227 -0.384286
14.31000042 2.59999990 0.57999998 66 244 100 0.000000 0.000000 0.000000 0.000000 -60.708740 0.000000 222.000000 0.627784 0.664225 -0.405823
14.27999973 2.57999992 0.60000002 66 244 100 0.000000 0.000000 0.000000 0.000000 -60.708740 0.000000 222.000000 0.350194 0.862372 -0.365621
14.31999969 2.58999991 0.56000000 66 244 100 0.000000 0.000000 0.000000 0.000000 -60.708740 0.000000 222.000000 0.786754 0.426632 -0.446098
14.31000042 2.63000011 0.55000001 66 244 100 0.000000 0.000000 0.000000 0.000000 -60.708740 0.000000 222.000000 0.697228 0.675194 -0.240803
14.31000042 2.56999993 0.56000000 66 244 100 0.000000 0.000000 0.000000 0.000000 -60.708740 0.000000 222.000000 0.489755 0.641226 -0.590736
14.28999996 2.56999993 0.50000000 66 244 100 0.000000 0.000000 0.000000 0.000000 -60.708740 0.000000 222.000000 0.442255 0.629170 -0.639183
14.34000015 2.50999999 0.63000000 66 244 100 0.000000 0.000000 0.000000 0.000000 -60.708740 0.000000 222.000000 0.035199 0.778596 -0.626538
14.31999969 2.55999994 0.54000002 66 244 100 0.000000 0.000000 0.000000 0.000000 -60.708740 0.000000 222.000000 0.387616 0.631732 -0.671318
14.31999969 2.54999995 0.55000001 66 244 100 0.000000 0.000000 0.000000 0.000000 -60.708740 0.000000 222.000000 0.478969 0.647028 -0.593249
14.31999969 2.55999994 0.56000000 66 244 100 0.000000 0.000000 0.000000 0.000000 -60.708740 0.000000 222.000000 0.317982 0.737654 -0.595612
14.32999992 2.55999994 0.56000000 66 244 100 0.000000 0.000000 0.000000 0.000000 -60.708740 0.000000 222.000000 0.641473 0.705781 -0.300640
14.34000015 2.52999997 0.52999997 66 244 100 0.000000 0.000000 0.000000 0.000000 -60.708740 0.000000 222.000000 0.490445 0.691310 -0.530618
14.32999992 2.52999997 0.50000000 66 244 100 0.000000 0.000000 0.000000 0.000000 -60.708740 0.000000 222.000000 0.195853 0.729436 -0.655412
14.32999992 2.53999996 0.51999998 66 244 100 0.000000 0.000000 0.000000 0.000000 -60.708740 0.000000 222.000000 0.647500 0.670449 -0.362272
14.35000038 2.50999999 0.56000000 66 244 100 0.000000 0.000000 0.000000 0.000000 -60.708740 0.000000 222.000000 -0.009369 0.873993 -0.485849
14.31000042 2.55999994 0.55000001 66 244 100 0.000000 0.000000 0.000000 0.000000 -60.708740 0.000000 222.000000 0.129750 0.888288 -0.440579
14.31000042 2.55999994 0.55000001 66 244 100 0.000000 0.000000 0.000000 0.000000 -60.708740 0.000000 222.000000 0.129750 0.888288 -0.440579
14.31000042 2.54999995 0.52999997 66 244 100 0.000000 0.000000 0.000000 0.000000 -60.708740 0.000000 222.000000 0.410600 0.783873 -0.465780
14.28999996 2.55999994 0.49000001 66 244 100 0.000000 0.000000 0.000000 0.000000 -60.708740 0.000000 222.000000 0.404097 0.710881 -0.575633
14.30000019 2.55999994 0.49000001 66 244 100 0.000000 0.000000 0.000000 0.000000 -60.708740 0.000000 222.000000 0.785194 0.602730 -0.142083
14.22999954 2.58999991 0.64999998 66 244 100 0.000000 0.000000 0.000000 0.000000 -60.708740 0.000000 222.000000 0.786315 0.214731 -0.579309
14.22000027 2.64000010 0.63999999 66 244 100 0.000000 0.000000 0.000000 0.000000 -60.708740 0.000000 222.000000 0.667842 0.658045 -0.347800
14.18999958 2.61999989 0.58999997 66 244 100 0.000000 0.000000 0.000000 0.000000 -60.708740 0.000000 222.000000 0.842882 0.538096 0.001349
14.18999958 2.61999989 0.57999998 66 244 100 0.000000 0.000000 0.000000 0.000000 -60.708740 0.000000 222.000000 0.737502 0.670589 -0.080005
14.18999958 2.60999990 0.57999998 66 244 100 0.000000 0.000000 0.000000 0.000000 -60.708740 0.000000 222.000000 0.838268 0.543553 0.043095
14.18999958 2.58999991 0.60000002 66 244 100 0.000000 0.000000 0.000000 0.000000 -60.708740 0.000000 222.000000 0.784311 0.273010 -0.557066
14.18999958 2.59999990 0.60000002 66 244 100 0.000000 0.000000 0.000000 0.000000 -60.708740 0.000000 222.000000 0.983373 0.082646 -0.161700
14.21000004 2.56999993 0.56999999 66 244 100 0.000000 0.000000 0.000000 0.000000 -60.708740 0.000000 222.000000 -0.697963 -0.301430 0.649606
14.25000000 2.63000011 0.50000000 66 244 100 0.000000 0.000000 0.000000 0.000000 -60.708740 0.000000 222.000000 0.908582 0.030418 -0.416599
14.27000046 2.61999989 0.50999999 66 244 100 0.000000 0.000000 0.000000 0.000000 -60.708740 0.000000 222.000000 0.669836 0.692111 -0.268889
14.25000000 2.59999990 0.50000000 66 244 100 0.000000 0.000000 0.000000 0.000000 -60.708740 0.000000 222.000000 0.957018 0.254765 -0.138603
14.27000046 2.57999992 0.49000001 66 244 100 0.000000 0.000000 0.000000 0.000000 -60.708740 0.000000 222.000000 0.667816 0.725622 -0.165813
14.25000000 2.57999992 0.50999999 66 244 100 0.000000 0.000000 0.000000 0.000000 -60.708740 0.000000 222.000000 0.892851 0.187892 -0.409284
14.18999958 2.60999990 0.56000000 66 244 100 0.000000 0.000000 0.000000 0.000000 -60.708740 0.000000 222.000000 0.696945 0.671659 -0.251280
14.19999981 2.58999991 0.54000002 66 244 100 0.000000 0.000000 0.000000 0.000000 -60.708740 0.000000 222.000000 0.969465 0.241447 0.042897
14.19999981 2.59999990 0.54000002 66 244 100 0.000000 0.000000 0.000000 0.000000 -60.708740 0.000000 222.000000 0.666826 0.670071 -0.326112
14.22000027 2.51999998 0.61000001 66 244 100 0.000000 0.000000 0.000000 0.000000 -60.708740 0.000000 222.000000 0.673256 0.549014 -0.495288
14.21000004 2.50999999 0.49000001 66 244 100 0.000000 0.000000 0.000000 0.000000 -60.708740 0.000000 222.000000 0.881158 0.414575 -0.227348
14.22000027 2.48000002 0.51999998 66 244 100 0.000000 0.000000 0.000000 0.000000 -60.708740 0.000000 222.000000 0.820071 0.571982 -0.017918
14.21000004 2.50000000 0.49000001 66 244 100 0.000000 0.000000 0.000000 0.000000 -60.708740 0.000000 222.000000 0.717859 0.314567 -0.621069
14.31999969 2.61999989 0.47000000 66 244 100 0.000000 0.000000 0.000000 0.000000 -60.708740 0.000000 222.000000 0.538870 0.714624 -0.446018
14.31999969 2.59999990 0.43000001 66 244 100 0.000000 0.000000 0.000000 0.000000 -60.708740 0.000000 222.000000 0.709257 0.703572 0.044062
14.30000019 2.57999992 0.44999999 66 244 100 0.000000 0.000000 0.000000 0.000000 -60.708740 0.000000 222.000000 0.733295 0.410316 -0.542144
14.30000019 2.57999992 0.44000000 66 244 100 0.000000 0.000000 0.000000 0.000000 -60.708740 0.000000 222.000000 0.818540 0.296937 -0.491753
14.31999969 2.52999997 0.43000001 66 244 100 0.000000 0.000000 0.000000 0.000000 -60.708740 0.000000 222.000000 0.466363 0.673635 -0.573342
14.31999969 2.49000001 0.46000001 66 244 100 0.000000 0.000000 0.000000 0.000000 -60.708740 0.000000 222.000000 0.562918 0.825520 -0.040508
14.32999992 2.49000001 0.44000000 66 244 100 0.000000 0.000000 0.000000 0.000000 -60.708740 0.000000 222.000000 0.123453 0.849649 -0.512694
14.31999969 2.51999998 0.41000000 66 244 100 0.000000 0.000000 0.000000 0.000000 -60.708740 0.000000 222.000000 0.341669 0.923771 -0.172943
14.31999969 2.51999998 0.41000000 66 244 100 0.000000 0.000000 0.000000 0.000000 -60.708740 0.000000 222.000000 0.341669 0.923771 -0.172943
14.27999973 2.53999996 0.46000001 66 244 100 0.000000 0.000000 0.000000 0.000000 -60.708740 0.000000 222.000000 0.762250 0.552752 -0.336808
14.31000042 2.53999996 0.46000001 66 244 100 0.000000 0.000000 0.000000 0.000000 -60.708740 0.000000 222.000000 0.596799 0.600180 -0.532555
14.27999973 2.55999994 0.47999999 66 244 100 0.000000 0.000000 0.000000 0.000000 -60.708740 0.000000 222.000000 0.469564 0.693485 -0.546432
14.28999996 2.54999995 0.47999999 66 244 100 0.000000 0.000000 0.000000 0.000000 -60.708740 0.000000 222.000000 0.580888 0.496701 -0.644870
14.27999973 2.53999996 0.46000001 66 244 100 0.000000 0.000000 0.000000 0.000000 -60.708740 0.000000 222.000000 0.762250 0.552752 -0.336808
14.31000042 2.54999995 0.47999999 66 244 100 0.000000 0.000000 0.000000 0.000000 -60.708740 0.000000 222.000000 0.179334 0.861102 -0.475755
14.28999996 2.53999996 0.43000001 66 244 100 0.000000 0.000000 0.000000 0.000000 -60.708740 0.000000 222.000000 0.285732 0.940017 -0.186347
14.27999973 2.52999997 0.41999999 66 244 100 0.000000 0.000000 0.000000 0.000000 -60.708740 0.000000 222.000000 0.699638 0.411844 -0.583859
14.27999973 2.50999999 0.44999999 66 244 100 0.000000 0.000000 0.000000 0.000000 -60.708740 0.000000 222.000000 0.520841 0.588264 -0.618604
14.27999973 2.50999999 0.41000000 66 244 100 0.000000 0.000000 0.000000 0.000000 -60.708740 0.000000 222.000000 0.394975 0.636258 -0.662699
14.28999996 2.49000001 0.44000000 66 244 100 0.000000 0.000000 0.000000 0.000000 -60.708740 0.000000 222.000000 0.200661 0.967056 -0.156645
14.27999973 2.50999999 0.41000000 66 244 100 0.000000 0.000000 0.000000 0.000000 -60.708740 0.000000 222.000000 0.394975 0.636258 -0.662699
14.28999996 2.49000001 0.44000000 66 244 100 0.000000 0.000000 0.000000 0.000000 -60.708740 0.000000 222.000000 0.200661 0.967056 -0.156645
14.32999992 2.50000000 0.38999999 66 244 100 0.000000 0.000000 0.000000 0.000000 -60.708740 0.000000 222.000000 0.268808 0.793850 -0.545477
14.35000038 2.49000001 0.31999999 66 244 100 0.000000 0.000000 0.000000 0.000000 -60.708740 0.000000 222.000000 0.101550 0.985628 -0.135001
14.28999996 2.53999996 0.33000001 66 244 100 0.000000 0.000000 0.000000 0.000000 -60.708740 0.000000 222.000000 0.833085 0.429929 -0.348038
14.28999996 2.53999996 0.33000001 66 244 100 0.000000 0.000000 0.000000 0.000000 -60.708740 0.000000 222.000000 0.833085 0.429929 -0.348038
14.27999973 2.51999998 0.37000000 66 244 100 0.000000 0.000000 0.000000 0.000000 -60.708740 0.000000 222.000000 0.562151 0.612795 -0.555399
14.28999996 2.51999998 0.38999999 66 244 100 0.000000 0.000000 0.000000 0.000000 -60.708740 0.000000 222.000000 0.347800 0.658045 -0.667842
14.27999973 2.51999998 0.38000000 66 244 100 0.000000 0.000000 0.000000 0.000000 -60.708740 0.000000 222.000000 0.514263 0.778649 -0.359500
14.27999973 2.50999999 0.36000001 66 244 100 0.000000 0.000000 0.000000 0.000000 -60.708740 0.000000 222.000000 0.485083 0.669717 -0.562293
14.27999973 2.49000001 0.38000000 66 244 100 0.000000 0.000000 0.000000 0.000000 -60.708740 0.000000 222.000000 0.379040 0.726903 -0.572662
14.30000019 2.48000002 0.33000001 66 244 100 0.000000 0.000000 0.000000 0.000000 -60.708740 0.000000 222.000000 0.591141 0.697116 -0.405685
14.23999977 2.60999990 0.47999999 66 244 100 0.000000 0.000000 0.000000 0.000000 -60.708740 0.000000 222.000000 0.782169 0.477722 -0.399991
14.23999977 2.58999991 0.47000000 66 244 100 0.000000 0.000000 0.000000 0.000000 -60.708740 0.000000 222.000000 0.979395 0.166312 -0.114571
14.22999954 2.56999993 0.41999999 66 244 100 0.000000 0.000000 0.000000 0.000000 -60.708740 0.000000 222.000000 0.622710 0.675566 -0.394769
14.22000027 2.56999993 0.47000000 66 244 100 0.000000 0.000000 0.000000 0.000000 -60.708740 0.000000 222.000000 0.625487 0.738925 -0.250510
14.27000046 2.54999995 0.46000001 66 244 100 0.000000 0.000000 0.000000 0.000000 -60.708740 0.000000 222.000000 -0.585938 -0.475130 0.656452
14.22999954 2.54999995 0.41999999 66 244 100 0.000000 0.000000 0.000000 0.000000 -60.708740 0.000000 222.000000 0.953629 0.159161 -0.255460
14.25000000 2.49000001 0.47000000 66 244 100 0.000000 0.000000 0.000000 0.000000 -60.708740 0.000000 222.000000 0.262234 0.820840 -0.507400
14.25000000 2.49000001 0.47000000 66 244 100 0.000000 0.000000 0.000000 0.000000 -60.708740 0.000000 222.000000 0.262234 0.820840 -0.507400
14.26000023 2.48000002 0.40000001 66 244 100 0.000000 0.000000 0.000000 0.000000 -60.708740 0.000000 222.000000 0.421240 0.758887 -0.496637
14.23999977 2.49000001 0.40000001 66 244 100 0.000000 0.000000 0.000000 0.000000 -60.708740 0.000000 222.000000 0.564566 0.776476 -0.279911
14.26000023 2.48000002 0.44000000 66 244 100 0.000000 0.000000 0.000000 0.000000 -60.708740 0.000000 222.000000 0.768822 0.625508 -0.132864
14.23999977 2.49000001 0.40000001 66 244 100 0.000000 0.000000 0.000000 0.000000 -60.708740 0.000000 222.000000 0.564566 0.776476 -0.279911
14.26000023 2.48000002 0.40000001 66 244 100 0.000000 0.000000 0.000000 0.000000 -60.708740 0.000000 222.000000 0.421240 0.758887 -0.496637
14.21000004 2.52999997 0.46000001 66 244 100 0.000000 0.000000 0.000000 0.000000 -60.708740 0.000000 222.000000 -0.679356 -0.340492 0.650031
14.22000027 2.55999994 0.44999999 66 244 100 0.000000 0.000000 0.000000 0.000000 -60.708740 0.000000 222.000000 0.736457 0.668838 -0.101428
14.19999981 2.54999995 0.47000000 66 244 100 0.000000 0.000000 0.000000 0.000000 -60.708740 0.000000 222.000000 0.676736 0.525604 -0.515528
14.22000027 2.49000001 0.44999999 66 244 100 0.000000 0.000000 0.000000 0.000000 -60.708740 0.000000 222.000000 0.591413 0.788046 -0.170920
14.18999958 2.49000001 0.46000001 66 244 100 0.000000 0.000000 0.000000 0.000000 -60.708740 0.000000 222.000000 0.723964 0.389069 -0.569650
14.22000027 2.49000001 0.47000000 66 244 100 0.000000 0.000000 0.000000 0.000000 -60.708740 0.000000 222.000000 0.540781 0.840757 -0.026145
14.25000000 2.52999997 0.31999999 66 244 100 0.000000 0.000000 0.000000 0.000000 -60.708740 0.000000 222.000000 0.824451 0.552075 -0.124473
14.25000000 2.52999997 0.34999999 66 244 100 0.000000 0.000000 0.000000 0.000000 -60.708740 0.000000 222.000000 0.551016 0.704168 -0.447804
14.22999954 2.51999998 0.36000001 66 244 100 0.000000 0.000000 0.000000 0.000000 -60.708740 0.000000 222.000000 0.658391 0.752644 -0.006930
14.27000046 2.51999998 0.38000000 66 244 100 0.000000 0.000000 0.000000 0.000000 -60.708740 0.000000 222.000000 0.467073 0.758789 -0.453962
14.22999954 2.51999998 0.36000001 66 244 100 0.000000 0.000000 0.000000 0.000000 -60.708740 0.000000 222.000000 0.658391 0.752644 -0.006930
14.23999977 2.50999999 0.36000001 66 244 100 0.000000 0.000000 0.000000 0.000000 -60.708740 0.000000 222.000000 0.740973 0.671464 0.009731
14.23999977 2.50999999 0.36000001 66 244 100 0.000000 0.000000 0.000000 0.000000 -60.708740 0.000000 222.000000 0.740973 0.671464 0.009731
14.27000046 2.51999998 0.36000001 66 244 100 0.000000 0.000000 0.000000 0.000000 -60.708740 0.000000 222.000000 0.837496 0.484057 -0.253554
14.21000004 2.53999996 0.38999999 66 244 100 0.000000 0.000000 0.000000 0.000000 -60.708740 0.000000 222.000000 0.855873 0.514633 0.051325
14.21000004 2.50000000 0.37000000 66 244 100 0.000000 0.000000 0.000000 0.000000 -60.708740 0.000000 222.000000 0.846227 0.529067 -0.063151
14.21000004 2.50000000 0.34000000 66 244 100 0.000000 0.000000 0.000000 0.000000 -60.708740 0.000000 222.000000 0.914287 0.183998 -0.360865
14.21000004 2.50000000 0.34999999 66 244 100 0.000000 0.000000 0.000000 0.000000 -60.708740 0.000000 222.000000 0.511309 0.592308 -0.622683
14.18999958 2.49000001 0.34000000 66 244 100 0.000000 0.000000 0.000000 0.000000 -60.708740 0.000000 222.000000 0.850808 0.436985 -0.291838
14.32999992 2.44000006 0.50000000 66 244 100 0.000000 0.000000 0.000000 0.000000 -60.708740 0.000000 222.000000 -0.088135 0.801887 -0.590940
14.34000015 2.43000007 0.50999999 66 244 100 0.000000 0.000000 0.000000 0.000000 -60.708740 0.000000 222.000000 0.186387 0.694716 -0.694716
14.27999973 2.44000006 0.50000000 66 244 100 0.000000 0.000000 0.000000 0.000000 -60.708740 0.000000 222.000000 0.542364 0.692557 -0.475611
14.30000019 2.44000006 0.50000000 66 244 100 0.000000 0.000000 0.000000 0.000000 -60.708740 0.000000 222.000000 0.333030 0.937566 -0.100310
14.30000019 2.47000003 0.50000000 66 244 100 0.000000 0.000000 0.000000 0.000000 -60.708740 0.000000 222.000000 0.569681 0.816108 -0.097121
14.27999973 2.46000004 0.50999999 66 244 100 0.000000 0.000000 0.000000 0.000000 -60.708740 0.000000 222.000000 0.714953 0.654979 -0.244631
14.27999973 2.42000008 0.55000001 66 244 100 0.000000 0.000000 0.000000 0.000000 -60.708740 0.000000 222.000000 -0.019972 0.890760 -0.454035
14.31000042 2.43000007 0.49000001 66 244 100 0.000000 0.000000 0.000000 0.000000 -60.708740 0.000000 222.000000 0.499582 0.788730 -0.358221
14.28999996 2.33999991 0.56999999 66 244 100 0.000000 0.000000 0.000000 0.000000 -60.708740 0.000000 222.000000 0.001197 0.965696 -0.259673
14.34000015 2.39000010 0.52999997 66 244 100 0.000000 0.000000 0.000000 0.000000 -60.708740 0.000000 222.000000 0.025386 0.893872 -0.447604
14.32999992 2.39000010 0.51999998 66 244 100 0.000000 0.000000 0.000000 0.000000 -60.708740 0.000000 222.000000 0.433798 0.828159 -0.354925
14.27999973 2.39000010 0.50000000 66 244 100 0.000000 0.000000 0.000000 0.000000 -60.708740 0.000000 222.000000 0.326347 0.770050 -0.548198
14.30000019 2.38000011 0.50999999 66 244 100 0.000000 0.000000 0.000000 0.000000 -60.708740 0.000000 222.000000 0.195075 0.980103 -0.036650
14.30000019 2.32999992 0.50000000 66 244 100 0.000000 0.000000 0.000000 0.000000 -60.708740 0.000000 222.000000 -0.001269 0.930303 -0.366791
14.31000042 2.33999991 0.51999998 66 244 100 0.000000 0.000000 0.000000 0.000000 -60.708740 0.000000 222.000000 0.157774 0.947991 -0.276441
14.30000019 2.33999991 0.49000001 66 244 100 0.000000 0.000000 0.000000 0.000000 -60.708740 0.000000 222.000000 0.058173 0.944988 -0.321891
14.23999977 2.46000004 0.54000002 66 244 100 0.000000 0.000000 0.000000 0.000000 -60.708740 0.000000 222.000000 0.504792 0.759639 -0.410041
14.25000000 2.47000003 0.55000001 66 244 100 0.000000 0.000000 0.000000 0.000000 -60.708740 0.000000 222.000000 0.416788 0.689111 -0.592802
14.26000023 2.47000003 0.50000000 66 244 100 0.000000 0.000000 0.000000 0.000000 -60.708740 0.000000 222.000000 -0.330052 -0.700752 0.632465
14.27000046 2.45000005 0.50000000 66 244 100 0.000000 0.000000 0.000000 0.000000 -60.708740 0.000000 222.000000 0.372261 0.911397 -0.175433
14.26000023 2.42000008 0.56000000 66 244 100 0.000000 0.000000 0.000000 0.000000 -60.708740 0.000000 222.000000 -0.344821 -0.645519 0.681472
14.26000023 2.42000008 0.50999999 66 244 100 0.000000 0.000000 0.000000 0.000000 -60.708740 0.000000 222.000000 0.661745 0.674752 -0.326808
14.25000000 2.43000007 0.50999999 66 244 100 0.000000 0.000000 0.000000 0.000000 -60.708740 0.000000 222.000000 0.476292 0.879205 0.012007
14.23999977 2.40000010 0.50999999 66 244 100 0.000000 0.000000 0.000000 0.000000 -60.708740 0.000000 222.000000 0.048004 0.873667 -0.484151
14.25000000 2.43000007 0.51999998 66 244 100 0.000000 0.000000 0.000000 0.000000 -60.708740 0.000000 222.000000 0.520916 0.852533 -0.042834
14.21000004 2.44000006 0.50999999 66 244 100 0.000000 0.000000 0.000000 0.000000 -60.708740 0.000000 222.000000 0.674964 0.648815 -0.351373
14.19999981 2.46000004 0.51999998 66 244 100 0.000000 0.000000 0.000000 0.000000 -60.708740 0.000000 222.000000 0.777725 0.491964 -0.391298
14.22000027 2.43000007 0.50999999 66 244 100 0.000000 0.000000 0.000000 0.000000 -60.708740 0.000000 222.000000 0.584826 0.756927 -0.291616
14.22000027 2.40000010 0.50000000 66 244 100 0.000000 0.000000 0.000000 0.000000 -60.708740 0.000000 222.000000 0.310696 0.877528 -0.365258
14.18999958 2.43000007 0.50999999 66 244 100 0.000000 0.000000 0.000000 0.000000 -60.708740 0.000000 222.000000 0.283517 0.774523 -0.565449
14.19999981 2.33999991 0.57999998 66 244 100 0.000000 0.000000 0.000000 0.000000 -60.708740 0.000000 222.000000 0.540326 0.840353 -0.043059
14.23999977 2.39000010 0.51999998 66 244 100 0.000000 0.000000 0.000000 0.000000 -60.708740 0.000000 222.000000 0.589188 0.599318 -0.541918
14.23999977 2.35999990 0.49000001 66 244 100 0.000000 0.000000 0.000000 0.000000 -60.708740 0.000000 222.000000 0.463720 0.647869 -0.604343
14.22999954 2.36999989 0.49000001 66 244 100 0.000000 0.000000 0.000000 0.000000 -60.708740 0.000000 222.000000 0.336148 0.712893 -0.615458
14.23999977 2.35999990 0.49000001 66 244 100 0.000000 0.000000 0.000000 0.000000 -60.708740 0.000000 222.000000 0.463720 0.647869 -0.604343
14.25000000 2.39000010 0.50000000 66 244 100 0.000000 0.000000 0.000000 0.000000 -60.708740 0.000000 222.000000 0.036595 0.952734 -0.301594
14.23999977 2.35999990 0.49000001 66 244 100 0.000000 0.000000 0.000000 0.000000 -60.708740 0.000000 222.000000 0.463720 0.647869 -0.604343
14.25000000 2.34999990 0.56000000 66 244 100 0.000000 0.000000 0.000000 0.000000 -60.708740 0.000000 222.000000 0.225154 0.856794 -0.463908
14.27000046 2.33999991 0.56000000 66 244 100 0.000000 0.000000 0.000000 0.000000 -60.708740 0.000000 222.000000 0.050070 0.946202 -0.319680
14.19999981 2.39000010 0.52999997 66 244 100 0.000000 0.000000 0.000000 0.000000 -60.708740 0.000000 222.000000 0.671185 0.477027 -0.567411
14.22000027 2.36999989 0.49000001 66 244 100 0.000000 0.000000 0.000000 0.000000 -60.708740 0.000000 222.000000 0.416094 0.745022 -0.521351
14.19999981 2.35999990 0.50999999 66 244 100 0.000000 0.000000 0.000000 0.000000 -60.708740 0.000000 222.000000 0.175654 0.734692 -0.655266
14.32999992 2.46000004 0.41000000 66 244 100 0.000000 0.000000 0.000000 0.000000 -60.708740 0.000000 222.000000 0.303591 0.783615 -0.542014
14.27999973 2.44000006 0.47000000 66 244 100 0.000000 0.000000 0.000000 0.000000 -60.708740 0.000000 222.000000 0.728633 0.588448 -0.350461
14.27999973 2.44000006 0.47000000 66 244 100 0.000000 0.000000 0.000000 0.000000 -60.708740 0.000000 222.000000 0.728633 0.588448 -0.350461
14.30000019 2.47000003 0.47000000 66 244 100 0.000000 0.000000 0.000000 0.000000 -60.708740 0.000000 222.000000 0.348190 0.629358 -0.694746
14.30000019 2.43000007 0.47999999 66 244 100 0.000000 0.000000 0.000000 0.000000 -60.708740 0.000000 222.000000 0.481233 0.771605 -0.415981
14.30000019 2.43000007 0.41000000 66 244 100 0.000000 0.000000 0.000000 0.000000 -60.708740 0.000000 222.000000 0.564768 0.628832 -0.534423
14.34000015 2.40000010 0.34000000 66 244 100 0.000000 0.000000 0.000000 0.000000 -60.708740 0.000000 222.000000 0.117147 0.851844 -0.510528
14.27999973 2.47000003 0.38000000 66 244 100 0.000000 0.000000 0.000000 0.000000 -60.708740 0.000000 222.000000 0.084850 0.812544 -0.576691
14.28999996 2.45000005 0.34999999 66 244 100 0.000000 0.000000 0.000000 0.000000 -60.708740 0.000000 222.000000 0.513962 0.852807 -0.092542
14.27999973 2.46000004 0.34000000 66 244 100 0.000000 0.000000 0.000000 0.000000 -60.708740 0.000000 222.000000 0.620650 0.781188 -0.067369
14.30000019 2.38000011 0.44999999 66 244 100 0.000000 0.000000 0.000000 0.000000 -60.708740 0.000000 222.000000 -0.129029 0.951091 -0.280672
14.27999973 2.31999993 0.47999999 66 244 100 0.000000 0.000000 0.000000 0.000000 -60.708740 0.000000 222.000000 0.130325 0.928738 -0.347076
14.27999973 2.36999989 0.34999999 66 244 100 0.000000 0.000000 0.000000 0.000000 -60.708740 0.000000 222.000000 -0.237329 -0.696270 0.677409
14.30000019 2.39000010 0.36000001 66 244 100 0.000000 0.000000 0.000000 0.000000 -60.708740 0.000000 222.000000 -0.085086 0.882946 -0.461699
14.22999954 2.46000004 0.44999999 66 244 100 0.000000 0.000000 0.000000 0.000000 -60.708740 0.000000 222.000000 0.440077 0.895234 -0.069919
14.23999977 2.47000003 0.47000000 66 244 100 0.000000 0.000000 0.000000 0.000000 -60.708740 0.000000 222.000000 0.598499 0.608615 -0.520947
14.22999954 2.46000004 0.44999999 66 244 100 0.000000 0.000000 0.000000 0.000000 -60.708740 0.000000 222.000000 0.440077 0.895234 -0.069919
14.22999954 2.45000005 0.44999999 66 244 100 0.000000 0.000000 0.000000 0.000000 -60.708740 0.000000 222.000000 0.629351 0.736609 -0.247639
14.23999977 2.43000007 0.47999999 66 244 100 0.000000 0.000000 0.000000 0.000000 -60.708740 0.000000 222.000000 -0.355796 -0.650926 0.670601
14.22999954 2.40000010 0.41000000 66 244 100 0.000000 0.000000 0.000000 0.000000 -60.708740 0.000000 222.000000 0.216541 0.888261 -0.405094
14.23999977 2.40000010 0.41999999 66 244 100 0.000000 0.000000 0.000000 0.000000 -60.708740 0.000000 222.000000 0.519069 0.816566 -0.252562
14.19999981 2.47000003 0.44000000 66 244 100 0.000000 0.000000 0.000000 0.000000 -60.708740 0.000000 222.000000 0.606026 0.791161 -0.082443
14.21000004 2.41000009 0.40000001 66 244 100 0.000000 0.000000 0.000000 0.000000 -60.708740 0.000000 222.000000 0.702007 0.505245 -0.501910
14.22999954 2.46000004 0.36000001 66 244 100 0.000000 0.000000 0.000000 0.000000 -60.708740 0.000000 222.000000 0.735334 0.477554 -0.480859
14.22999954 2.40000010 0.34000000 66 244 100 0.000000 0.000000 0.000000 0.000000 -60.708740 0.000000 222.000000 0.743794 0.653637 -0.139743
14.26000023 2.41000009 0.31999999 66 244 100 0.000000 0.000000 0.000000 0.000000 -60.708740 0.000000 222.000000 0.457530 0.741628 -0.490565
14.25000000 2.42000008 0.33000001 66 244 100 0.000000 0.000000 0.000000 0.000000 -60.708740 0.000000 222.000000 0.072779 0.814841 -0.575098
14.19999981 2.47000003 0.36000001 66 244 100 0.000000 0.000000 0.000000 0.000000 -60.708740 0.000000 222.000000 0.508322 0.859272 -0.057099
14.19999981 2.44000006 0.37000000 66 244 100 0.000000 0.000000 0.000000 0.000000 -60.708740 0.000000 222.000000 0.716703 0.585499 -0.378852
14.22000027 2.46000004 0.34000000 66 244 100 0.000000 0.000000 0.000000 0.000000 -60.708740 0.000000 222.000000 0.847184 0.513578 -0.136076
14.22000027 2.44000006 0.34000000 66 244 100 0.000000 0.000000 0.000000 0.000000 -60.708740 0.000000 222.000000 0.787986 0.444961 -0.425545
14.21000004 2.40000010 0.38999999 66 244 100 0.000000 0.000000 0.000000 0.000000 -60.708740 0.000000 222.000000 0.449644 0.892577 -0.033556
14.18999958 2.41000009 0.37000000 66 244 100 0.000000 0.000000 0.000000 0.000000 -60.708740 0.000000 222.000000 0.806892 0.565579 -0.170428
14.19999981 2.40000010 0.37000000 66 244 100 0.000000 0.000000 0.000000 0.000000 -60.708740 0.000000 222.000000 0.543270 0.830280 -0.124469
14.22000027 2.40000010 0.33000001 66 244 100 0.000000 0.000000 0.000000 0.000000 -60.708740 0.000000 222.000000 0.445903 0.827205 -0.341911
14.19999981 2.36999989 0.47000000 66 244 100 0.000000 0.000000 0.000000 0.000000 -60.708740 0.000000 222.000000 0.382190 0.923298 -0.038088
14.26000023 2.36999989 0.34000000 66 244 100 0.000000 0.000000 0.000000 0.000000 -60.708740 0.000000 222.000000 -0.012118 0.863080 -0.504922
14.23999977 2.38000011 0.34999999 66 244 100 0.000000 0.000000 0.000000 0.000000 -60.708740 0.000000 222.000000 0.093735 0.820540 -0.563851
14.23999977 2.38000011 0.34999999 66 244 100 0.000000 0.000000 0.000000 0.000000 -60.708740 0.000000 222.000000 0.093735 0.820540 -0.563851
14.15999985 2.60999990 0.61000001 66 244 100 0.000000 0.000000 0.000000 0.000000 -60.708740 0.000000 222.000000 0.905936 0.124619 -0.404661
14.17000008 2.64000010 0.58999997 66 244 100 0.000000 0.000000 0.000000 0.000000 -60.708740 0.000000 222.000000 0.952974 0.256003 -0.162180
14.15999985 2.59999990 0.61000001 66 244 100 0.000000 0.000000 0.000000 0.000000 -60.708740 0.000000 222.000000 0.881261 0.076571 -0.466386
14.15999985 2.59999990 0.61000001 66 244 100 0.000000 0.000000 0.000000 0.000000 -60.708740 0.000000 222.000000 0.881261 0.076571 -0.466386
14.13000011 2.63000011 0.56999999 66 244 100 0.000000 0.000000 0.000000 0.000000 -60.708740 0.000000 222.000000 0.770491 0.596157 -0.225699
14.10999966 2.58999991 0.58999997 66 244 100 0.000000 0.000000 0.000000 0.000000 -60.708740 0.000000 222.000000 0.775715 0.596822 -0.205109
14.10999966 2.58999991 0.60000002 66 244 100 0.000000 0.000000 0.000000 0.000000 -60.708740 0.000000 222.000000 0.776196 0.629157 -0.041001
14.18000031 2.63000011 0.56000000 66 244 100 0.000000 0.000000 0.000000 0.000000 -60.708740 0.000000 222.000000 0.938376 0.332369 -0.094772
14.18000031 2.61999989 0.55000001 66 244 100 0.000000 0.000000 0.000000 0.000000 -60.708740 0.000000 222.000000 0.722780 0.643701 -0.251471
14.17000008 2.56999993 0.52999997 66 244 100 0.000000 0.000000 0.000000 0.000000 -60.708740 0.000000 222.000000 0.786712 0.135332 -0.602303
14.18000031 2.48000002 0.60000002 66 244 100 0.000000 0.000000 0.000000 0.000000 -60.708740 0.000000 222.000000 0.711227 0.683814 -0.162958
14.17000008 2.50999999 0.60000002 66 244 100 0.000000 0.000000 0.000000 0.000000 -60.708740 0.000000 222.000000 0.690279 0.696456 -0.196120
14.14999962 2.49000001 0.57999998 66 244 100 0.000000 0.000000 0.000000 0.000000 -60.708740 0.000000 222.000000 0.439953 0.746437 -0.499273
14.17000008 2.50999999 0.60000002 66 244 100 0.000000 0.000000 0.000000 0.000000 -60.708740 0.000000 222.000000 0.690279 0.696456 -0.196120
14.13000011 2.54999995 0.60000002 66 244 100 0.000000 0.000000 0.000000 0.000000 -60.708740 0.000000 222.000000 0.839070 0.343470 -0.421888
14.11999989 2.49000001 0.58999997 66 244 100 0.000000 0.000000 0.000000 0.000000 -60.708740 0.000000 222.000000 0.683095 0.311672 -0.660486
14.10999966 2.50000000 0.58999997 66 244 100 0.000000 0.000000 0.000000 0.000000 -60.708740 0.000000 222.000000 0.769917 0.459335 -0.442989
14.10999966 2.50000000 0.58999997 66 244 100 0.000000 0.000000 0.000000 0.000000 -60.708740 0.000000 222.000000 0.769917 0.459335 -0.442989
14.11999989 2.48000002 0.58999997 66 244 100 0.000000 0.000000 0.000000 0.000000 -60.708740 0.000000 222.000000 0.894675 0.302195 -0.328990
14.18000031 2.54999995 0.55000001 66 244 100 0.000000 0.000000 0.000000 0.000000 -60.708740 0.000000 222.000000 0.876916 0.145912 -0.457961
14.15999985 2.48000002 0.52999997 66 244 100 0.000000 0.000000 0.000000 0.000000 -60.708740 0.000000 222.000000 0.825500 0.564387 0.004080
14.14999962 2.50000000 0.55000001 66 244 100 0.000000 0.000000 0.000000 0.000000 -60.708740 0.000000 222.000000 0.491380 0.798692 -0.347327
14.18000031 2.49000001 0.56000000 66 244 100 0.000000 0.000000 0.000000 0.000000 -60.708740 0.000000 222.000000 0.923951 0.301319 -0.235629
14.10999966 2.55999994 0.54000002 66 244 100 0.000000 0.000000 0.000000 0.000000 -60.708740 0.000000 222.000000 0.828262 0.264734 -0.493861
14.14000034 2.54999995 0.54000002 66 244 100 0.000000 0.000000 0.000000 0.000000 -60.708740 0.000000 222.000000 0.541556 0.698191 -0.468238
14.13000011 2.54999995 0.49000001 66 244 100 0.000000 0.000000 0.000000 0.000000 -60.708740 0.000000 222.000000 0.689048 0.251859 -0.679544
14.10000038 2.59999990 0.57999998 66 244 100 0.000000 0.000000 0.000000 0.000000 -60.708740 0.000000 222.000000 0.941713 -0.001251 -0.336415
14.10000038 2.52999997 0.58999997 66 244 100 0.000000 0.000000 0.000000 0.000000 -60.708740 0.000000 222.000000 0.953295 0.301106 -0.023739
14.05000019 2.53999996 0.56999999 66 244 100 0.000000 0.000000 0.000000 0.000000 -60.708740 0.000000 222.000000 0.976326 0.149144 -0.156663
14.03999996 2.50000000 0.57999998 66 244 100 0.000000 0.000000 0.000000 0.000000 -60.708740 0.000000 222.000000 -0.694796 -0.387832 0.605677
14.02999973 2.49000001 0.56999999 66 244 100 0.000000 0.000000 0.000000 0.000000 -60.708740 0.000000 222.000000 0.790141 0.116240 -0.601802
14.06000042 2.48000002 0.54000002 66 244 100 0.000000 0.000000 0.000000 0.000000 -60.708740 0.000000 222.000000 0.822119 0.543587 -0.169216
14.02999973 2.51999998 0.50999999 66 244 100 0.000000 0.000000 0.000000 0.000000 -60.708740 0.000000 222.000000 0.956013 -0.054593 -0.288200
14.13000011 2.64000010 0.31999999 66 244 100 0.000000 0.000000 0.000000 0.000000 -60.708740 0.000000 222.000000 0.983090 -0.022001 0.181796
14.17000008 2.50000000 0.46000001 66 244 100 0.000000 0.000000 0.000000 0.000000 -60.708740 0.000000 222.000000 0.806087 0.405447 -0.431088
14.15999985 2.49000001 0.43000001 66 244 100 0.000000 0.000000 0.000000 0.000000 -60.708740 0.000000 222.000000 0.945253 0.295307 -0.138889
14.18000031 2.51999998 0.34999999 66 244 100 0.000000 0.000000 0.000000 0.000000 -60.708740 0.000000 222.000000 0.806002 0.590882 -0.034922
14.17000008 2.49000001 0.33000001 66 244 100 0.000000 0.000000 0.000000 0.000000 -60.708740 0.000000 222.000000 0.621904 0.520782 -0.584826
14.11999989 2.52999997 0.38000000 66 244 100 0.000000 0.000000 0.000000 0.000000 -60.708740 0.000000 222.000000 0.874935 0.088477 -0.476088
14.11999989 2.52999997 0.36000001 66 244 100 0.000000 0.000000 0.000000 0.000000 -60.708740 0.000000 222.000000 0.994849 0.061000 -0.080963
14.11999989 2.54999995 0.37000000 66 244 100 0.000000 0.000000 0.000000 0.000000 -60.708740 0.000000 222.000000 0.995773 0.087767 -0.027088
14.11999989 2.55999994 0.31999999 66 244 100 0.000000 0.000000 0.000000 0.000000 -60.708740 0.000000 222.000000 0.867137 -0.062634 -0.494115
14.06999969 2.63000011 0.33000001 66 244 100 0.000000 0.000000 0.000000 0.000000 -60.708740 0.000000 222.000000 0.950804 -0.112092 -0.288802
14.07999992 2.63000011 0.34999999 66 244 100 0.000000 0.000000 0.000000 0.000000 -60.708740 0.000000 222.000000 0.928370 0.006385 -0.371603
14.06999969 2.61999989 0.31999999 66 244 100 0.000000 0.000000 0.000000 0.000000 -60.708740 0.000000 222.000000 0.968431 0.196773 -0.153045
14.06999969 2.64000010 0.31999999 66 244 100 0.000000 0.000000 0.000000 0.000000 -60.708740 0.000000 222.000000 0.840590 -0.286389 -0.459770
14.06999969 2.64000010 0.31999999 66 244 100 0.000000 0.000000 0.000000 0.000000 -60.708740 0.000000 222.000000 0.840590 -0.286389 -0.459770
14.09000015 2.59999990 0.36000001 66 244 100 0.000000 0.000000 0.000000 0.000000 -60.708740 0.000000 222.000000 0.813592 0.484996 -0.320698
14.14000034 2.47000003 0.56999999 66 244 100 0.000000 0.000000 0.000000 0.000000 -60.708740 0.000000 222.000000 0.497247 0.805445 -0.322496
14.18000031 2.44000006 0.54000002 66 244 100 0.000000 0.000000 0.000000 0.000000 -60.708740 0.000000 222.000000 0.711888 0.634754 -0.300504
14.17000008 2.47000003 0.52999997 66 244 100 0.000000 0.000000 0.000000 0.000000 -60.708740 0.000000 222.000000 0.765887 0.406622 -0.498072
14.18000031 2.44000006 0.54000002 66 244 100 0.000000 0.000000 0.000000 0.000000 -60.708740 0.000000 222.000000 0.711888 0.634754 -0.300504
14.17000008 2.47000003 0.52999997 66 244 100 0.000000 0.000000 0.000000 0.000000 -60.708740 0.000000 222.000000 0.765887 0.406622 -0.498072
14.17000008 2.43000007 0.50999999 66 244 100 0.000000 0.000000 0.000000 0.000000 -60.708740 0.000000 222.000000 0.491753 0.656230 -0.572313
14.13000011 2.47000003 0.54000002 66 244 100 0.000000 0.000000 0.000000 0.000000 -60.708740 0.000000 222.000000 0.440486 0.778572 -0.446988
14.18000031 2.35999990 0.57999998 66 244 100 0.000000 0.000000 0.000000 0.000000 -60.708740 0.000000 222.000000 0.720787 0.688881 -0.076865
14.14999962 2.39000010 0.49000001 66 244 100 0.000000 0.000000 0.000000 0.000000 -60.708740 0.000000 222.000000 0.855072 0.400477 -0.329349
14.05000019 2.46000004 0.61000001 66 244 100 0.000000 0.000000 0.000000 0.000000 -60.708740 0.000000 222.000000 0.636258 0.662699 -0.394975
14.03999996 2.46000004 0.60000002 66 244 100 0.000000 0.000000 0.000000 0.000000 -60.708740 0.000000 222.000000 0.881790 0.468921 -0.050583
14.03999996 2.46000004 0.58999997 66 244 100 0.000000 0.000000 0.000000 0.000000 -60.708740 0.000000 222.000000 0.936607 0.213563 -0.277772
14.03999996 2.36999989 0.60000002 66 244 100 0.000000 0.000000 0.000000 0.000000 -60.708740 0.000000 222.000000 0.560626 0.506752 -0.654905
14.17000008 2.45000005 0.41999999 66 244 100 0.000000 0.000000 0.000000 0.000000 -60.708740 0.000000 222.000000 0.700566 0.372432 -0.608688
14.18000031 2.42000008 0.41999999 66 244 100 0.000000 0.000000 0.000000 0.000000 -60.708740 0.000000 222.000000 0.808313 0.427365 -0.404957
14.11999989 2.47000003 0.41000000 66 244 100 0.000000 0.000000 0.000000 0.000000 -60.708740 0.000000 222.000000 0.650303 0.759386 -0.020978
14.11999989 2.47000003 0.41000000 66 244 100 0.000000 0.000000 0.000000 0.000000 -60.708740 0.000000 222.000000 0.650303 0.759386 -0.020978
14.17000008 2.47000003 0.38999999 66 244 100 0.000000 0.000000 0.000000 0.000000 -60.708740 0.000000 222.000000 0.624012 0.456717 -0.634050
14.15999985 2.47000003 0.38000000 66 244 100 0.000000 0.000000 0.000000 0.000000 -60.708740 0.000000 222.000000 0.661945 0.413093 -0.625446
14.15999985 2.44000006 0.34999999 66 244 100 0.000000 0.000000 0.000000 0.000000 -60.708740 0.000000 222.000000 0.717825 0.634692 -0.286171
14.15999985 2.41000009 0.31999999 66 244 100 0.000000 0.000000 0.000000 0.000000 -60.708740 0.000000 222.000000 0.690943 0.434545 -0.577728
14.15999985 2.41000009 0.31999999 66 244 100 0.000000 0.000000 0.000000 0.000000 -60.708740 0.000000 222.000000 0.690943 0.434545 -0.577728
14.10999966 2.44000006 0.34000000 66 244 100 0.000000 0.000000 0.000000 0.000000 -60.708740 0.000000 222.000000 0.831314 0.552803 -0.057672
14.11999989 2.43000007 0.34999999 66 244 100 0.000000 0.000000 0.000000 0.000000 -60.708740 0.000000 222.000000 0.667818 0.743739 -0.029525
14.10999966 2.38000011 0.37000000 66 244 100 0.000000 0.000000 0.000000 0.000000 -60.708740 0.000000 222.000000 0.851406 0.417174 -0.317920
14.11999989 2.36999989 0.31999999 66 244 100 0.000000 0.000000 0.000000 0.000000 -60.708740 0.000000 222.000000 0.662629 0.609218 -0.435633
14.11999989 2.36999989 0.31999999 66 244 100 0.000000 0.000000 0.000000 0.000000 -60.708740 0.000000 222.000000 0.662629 0.609218 -0.435633
14.11999989 2.36999989 0.33000001 66 244 100 0.000000 0.000000 0.000000 0.000000 -60.708740 0.000000 222.000000 0.632043 0.625337 -0.457686
14.13000011 2.36999989 0.33000001 66 244 100 0.000000 0.000000 0.000000 0.000000 -60.708740 0.000000 222.000000 0.598670 0.524468 -0.605415
14.10000038 2.47000003 0.44999999 66 244 100 0.000000 0.000000 0.000000 0.000000 -60.708740 0.000000 222.000000 0.899421 0.341160 -0.273223
14.10000038 2.44000006 0.36000001 66 244 100 0.000000 0.000000 0.000000 0.000000 -60.708740 0.000000 222.000000 0.780479 0.485163 -0.394296
14.10000038 2.38000011 0.33000001 66 244 100 0.000000 0.000000 0.000000 0.000000 -60.708740 0.000000 222.000000 0.737039 0.512794 -0.440245
14.34000015 2.59999990 0.25999999 66 244 100 0.000000 0.000000 0.000000 0.000000 -60.708740 0.000000 222.000000 0.493953 0.678139 -0.544186
14.31999969 2.58999991 0.23999999 66 244 100 0.000000 0.000000 0.000000 0.000000 -60.708740 0.000000 222.000000 0.738314 0.551689 -0.387983
14.32999992 2.55999994 0.27000001 66 244 100 0.000000 0.000000 0.000000 0.000000 -60.708740 0.000000 222.000000 0.148563 0.951608 -0.269020
14.31999969 2.48000002 0.28000000 66 244 100 0.000000 0.000000 0.000000 0.000000 -60.708740 0.000000 222.000000 0.081213 0.991716 -0.099515
14.34000015 2.48000002 0.28000000 66 244 100 0.000000 0.000000 0.000000 0.000000 -60.708740 0.000000 222.000000 0.265556 0.964003 -0.013338
14.28999996 2.52999997 0.28999999 66 244 100 0.000000 0.000000 0.000000 0.000000 -60.708740 0.000000 222.000000 0.269322 0.902155 -0.337020
14.31999969 2.50000000 0.18000001 66 244 100 0.000000 0.000000 0.000000 0.000000 -60.708740 0.000000 222.000000 0.361698 0.814220 -0.454115
14.31999969 2.50000000 0.18000001 66 244 100 0.000000 0.000000 0.000000 0.000000 -60.708740 0.000000 222.000000 0.361698 0.814220 -0.454115
14.28999996 2.48000002 0.23000000 66 244 100 0.000000 0.000000 0.000000 0.000000 -60.708740 0.000000 222.000000 0.455114 0.890208 -0.020020
14.31000042 2.50999999 0.20999999 66 244 100 0.000000 0.000000 0.000000 0.000000 -60.708740 0.000000 222.000000 0.248021 0.959279 -0.135165
14.30000019 2.49000001 0.20000000 66 244 100 0.000000 0.000000 0.000000 0.000000 -60.708740 0.000000 222.000000 0.647039 0.759442 -0.067730
14.31000042 2.50999999 0.19000000 66 244 100 0.000000 0.000000 0.000000 0.000000 -60.708740 0.000000 222.000000 0.079849 0.736065 -0.672185
14.27999973 2.50000000 0.15000001 66 244 100 0.000000 0.000000 0.000000 0.000000 -60.708740 0.000000 222.000000 0.733877 0.522784 -0.433729
14.23999977 2.56999993 0.27000001 66 244 100 0.000000 0.000000 0.000000 0.000000 -60.708740 0.000000 222.000000 0.741404 0.406046 -0.534271
14.26000023 2.54999995 0.23999999 66 244 100 0.000000 0.000000 0.000000 0.000000 -60.708740 0.000000 222.000000 0.925152 0.148859 -0.349193
14.26000023 2.50000000 0.31000000 66 244 100 0.000000 0.000000 0.000000 0.000000 -60.708740 0.000000 222.000000 0.586295 0.420206 -0.692593
14.26000023 2.50000000 0.31000000 66 244 100 0.000000 0.000000 0.000000 0.000000 -60.708740 0.000000 222.000000 0.586295 0.420206 -0.692593
14.25000000 2.50000000 0.25999999 66 244 100 0.000000 0.000000 0.000000 0.000000 -60.708740 0.000000 222.000000 0.899005 0.318428 -0.300656
14.22999954 2.49000001 0.27000001 66 244 100 0.000000 0.000000 0.000000 0.000000 -60.708740 0.000000 222.000000 0.622710 0.394769 -0.675566
14.21000004 2.53999996 0.31000000 66 244 100 0.000000 0.000000 0.000000 0.000000 -60.708740 0.000000 222.000000 0.914947 0.400872 0.046613
14.21000004 2.53999996 0.31000000 66 244 100 0.000000 0.000000 0.000000 0.000000 -60.708740 0.000000 222.000000 0.914947 0.400872 0.046613
14.21000004 2.53999996 0.31000000 66 244 100 0.000000 0.000000 0.000000 0.000000 -60.708740 0.000000 222.000000 0.914947 0.400872 0.046613
14.26000023 2.52999997 0.19000000 66 244 100 0.000000 0.000000 0.000000 0.000000 -60.708740 0.000000 222.000000 0.964462 0.157490 -0.212156
14.26000023 2.53999996 0.17000000 66 244 100 0.000000 0.000000 0.000000 0.000000 -60.708740 0.000000 222.000000 0.654053 0.549808 -0.519544
14.26000023 2.52999997 0.16000000 66 244 100 0.000000 0.000000 0.000000 0.000000 -60.708740 0.000000 222.000000 0.874008 0.228587 -0.428787
14.23999977 2.49000001 0.16000000 66 244 100 0.000000 0.000000 0.000000 0.000000 -60.708740 0.000000 222.000000 0.807917 0.586414 0.058215
14.23999977 2.50000000 0.18000001 66 244 100 0.000000 0.000000 0.000000 0.000000 -60.708740 0.000000 222.000000 0.669946 0.352172 -0.653566
14.22999954 2.49000001 0.16000000 66 244 100 0.000000 0.000000 0.000000 0.000000 -60.708740 0.000000 222.000000 0.796258 0.302356 -0.523979
14.26000023 2.48000002 0.15000001 66 244 100 0.000000 0.000000 0.000000 0.000000 -60.708740 0.000000 222.000000 0.461922 0.879784 -0.112283
14.18999958 2.55999994 0.20000000 66 244 100 0.000000 0.000000 0.000000 0.000000 -60.708740 0.000000 222.000000 0.965056 0.260528 -0.028132
14.18999958 2.53999996 0.20999999 66 244 100 0.000000 0.000000 0.000000 0.000000 -60.708740 0.000000 222.000000 0.999642 0.023295 -0.013167
14.21000004 2.53999996 0.17000000 66 244 100 0.000000 0.000000 0.000000 0.000000 -60.708740 0.000000 222.000000 0.929071 0.336460 0.153691
14.31999969 2.50000000 0.14000000 66 244 100 0.000000 0.000000 0.000000 0.000000 -60.708740 0.000000 222.000000 0.451994 0.833608 -0.317490
14.31000042 2.49000001 0.13000000 66 244 100 0.000000 0.000000 0.000000 0.000000 -60.708740 0.000000 222.000000 0.128871 0.961976 -0.240819
14.28999996 2.48000002 0.11000000 66 244 100 0.000000 0.000000 0.000000 0.000000 -60.708740 0.000000 222.000000 0.516800 0.817878 -0.252968
14.27000046 2.56999993 0.10000000 66 244 100 0.000000 0.000000 0.000000 0.000000 -60.708740 0.000000 222.000000 0.902233 -0.345880 0.257571
14.26000023 2.55999994 0.11000000 66 244 100 0.000000 0.000000 0.000000 0.000000 -60.708740 0.000000 222.000000 0.988609 0.068702 0.133911
14.26000023 2.55999994 0.11000000 66 244 100 0.000000 0.000000 0.000000 0.000000 -60.708740 0.000000 222.000000 0.988609 0.068702 0.133911
14.22999954 2.48000002 0.13000000 66 244 100 0.000000 0.000000 0.000000 0.000000 -60.708740 0.000000 222.000000 -0.568527 -0.419351 0.707758
14.22999954 2.50999999 0.14000000 66 244 100 0.000000 0.000000 0.000000 0.000000 -60.708740 0.000000 222.000000 0.745680 0.306290 -0.591733
