//X Y Z R G B PointSourceId ScanDirectionFlag NumberOfReturns ReturnNumber GpsTime Intensity Classification Nx Ny Nz
2.69000006 -22.05999947 -0.40000001 229 127 77 0.000000 0.000000 0.000000 0.000000 -60.708740 0.000000 8.000000 0.747451 0.664246 -0.009707
2.69000006 -22.09000015 -0.38999999 229 127 77 0.000000 0.000000 0.000000 0.000000 -60.708740 0.000000 8.000000 0.794751 0.602865 -0.070167
2.73000002 -22.11000061 -0.38999999 229 127 77 0.000000 0.000000 0.000000 0.000000 -60.708740 0.000000 8.000000 0.458290 0.833681 0.308134
2.70000005 -22.09000015 -0.38999999 229 127 77 0.000000 0.000000 0.000000 0.000000 -60.708740 0.000000 8.000000 0.585689 0.807995 -0.064127
2.71000004 -22.11000061 -0.38000000 229 127 77 0.000000 0.000000 0.000000 0.000000 -60.708740 0.000000 8.000000 0.507107 0.859998 0.056963
2.70000005 -22.09000015 -0.38999999 229 127 77 0.000000 0.000000 0.000000 0.000000 -60.708740 0.000000 8.000000 0.585689 0.807995 -0.064127
2.69000006 -22.07999992 -0.38000000 229 127 77 0.000000 0.000000 0.000000 0.000000 -60.708740 0.000000 8.000000 0.674358 0.735007 0.070757
2.69000006 -22.07999992 -0.36000001 229 127 77 0.000000 0.000000 0.000000 0.000000 -60.708740 0.000000 8.000000 0.669472 0.742454 0.023860
2.70000005 -22.09000015 -0.37000000 229 127 77 0.000000 0.000000 0.000000 0.000000 -60.708740 0.000000 8.000000 0.877504 0.472931 0.079519
2.69000006 -22.09000015 -0.41000000 229 127 77 0.000000 0.000000 0.000000 0.000000 -60.708740 0.000000 8.000000 0.486761 0.860969 -0.147636
2.70000005 -22.10000038 -0.40000001 229 127 77 0.000000 0.000000 0.000000 0.000000 -60.708740 0.000000 8.000000 0.870273 0.485047 0.085762
2.70000005 -22.09000015 -0.41999999 229 127 77 0.000000 0.000000 0.000000 0.000000 -60.708740 0.000000 8.000000 0.837106 0.546654 0.020551
2.72000003 -22.10000038 -0.40000001 229 127 77 0.000000 0.000000 0.000000 0.000000 -60.708740 0.000000 8.000000 0.578658 0.760385 0.294908
2.71000004 -22.09000015 -0.41000000 229 127 77 0.000000 0.000000 0.000000 0.000000 -60.708740 0.000000 8.000000 0.514026 0.850950 -0.107989
2.70000005 -22.11000061 -0.40000001 229 127 77 0.000000 0.000000 0.000000 0.000000 -60.708740 0.000000 8.000000 0.840916 0.494209 -0.220493
2.71000004 -22.09000015 -0.41000000 229 127 77 0.000000 0.000000 0.000000 0.000000 -60.708740 0.000000 8.000000 0.514026 0.850950 -0.107989
2.70000005 -22.07999992 -0.47000000 229 127 77 0.000000 0.000000 0.000000 0.000000 -60.708740 0.000000 8.000000 0.756511 0.649472 -0.076664
2.70000005 -22.11000061 -0.47000000 229 127 77 0.000000 0.000000 0.000000 0.000000 -60.708740 0.000000 8.000000 0.591716 0.788451 -0.167981
2.70000005 -22.11000061 -0.47000000 229 127 77 0.000000 0.000000 0.000000 0.000000 -60.708740 0.000000 8.000000 0.591716 0.788451 -0.167981
2.71000004 -22.10000038 -0.44999999 229 127 77 0.000000 0.000000 0.000000 0.000000 -60.708740 0.000000 8.000000 0.482771 0.857104 0.179739
2.72000003 -22.11000061 -0.44000000 229 127 77 0.000000 0.000000 0.000000 0.000000 -60.708740 0.000000 8.000000 0.491618 0.859237 0.141504
2.70000005 -22.10000038 -0.44000000 229 127 77 0.000000 0.000000 0.000000 0.000000 -60.708740 0.000000 8.000000 0.538065 0.840286 -0.066376
2.73000002 -22.11000061 -0.44999999 229 127 77 0.000000 0.000000 0.000000 0.000000 -60.708740 0.000000 8.000000 0.428441 0.842860 0.325615
2.70000005 -22.06999969 -0.46000001 229 127 77 0.000000 0.000000 0.000000 0.000000 -60.708740 0.000000 8.000000 0.708067 0.599639 -0.372926
2.73000002 -22.10000038 -0.46000001 229 127 77 0.000000 0.000000 0.000000 0.000000 -60.708740 0.000000 8.000000 0.725468 0.660777 0.192534
2.70000005 -22.06999969 -0.46000001 229 127 77 0.000000 0.000000 0.000000 0.000000 -60.708740 0.000000 8.000000 0.708067 0.599639 -0.372926
2.70000005 -22.07999992 -0.44999999 229 127 77 0.000000 0.000000 0.000000 0.000000 -60.708740 0.000000 8.000000 0.913412 0.404035 0.049338
2.71000004 -22.07999992 -0.46000001 229 127 77 0.000000 0.000000 0.000000 0.000000 -60.708740 0.000000 8.000000 0.821910 0.563719 0.081761
2.72000003 -22.10000038 -0.46000001 229 127 77 0.000000 0.000000 0.000000 0.000000 -60.708740 0.000000 8.000000 0.278873 0.954454 0.106050
2.69000006 -22.07999992 -0.46000001 229 127 77 0.000000 0.000000 0.000000 0.000000 -60.708740 0.000000 8.000000 0.480392 0.813336 -0.328188
2.69000006 -22.06999969 -0.50999999 229 127 77 0.000000 0.000000 0.000000 0.000000 -60.708740 0.000000 8.000000 0.682674 0.730335 -0.023830
2.73000002 -22.10000038 -0.51999998 229 127 77 0.000000 0.000000 0.000000 0.000000 -60.708740 0.000000 8.000000 0.470195 0.876850 -0.100252
2.70000005 -22.06999969 -0.50000000 229 127 77 0.000000 0.000000 0.000000 0.000000 -60.708740 0.000000 8.000000 0.804111 0.592874 -0.043656
2.71000004 -22.07999992 -0.50999999 229 127 77 0.000000 0.000000 0.000000 0.000000 -60.708740 0.000000 8.000000 0.736045 0.572842 0.360679
2.70000005 -22.06999969 -0.50999999 229 127 77 0.000000 0.000000 0.000000 0.000000 -60.708740 0.000000 8.000000 0.727224 0.684362 0.052863
2.71000004 -22.07999992 -0.50999999 229 127 77 0.000000 0.000000 0.000000 0.000000 -60.708740 0.000000 8.000000 0.736045 0.572842 0.360679
2.70000005 -22.10000038 -0.51999998 229 127 77 0.000000 0.000000 0.000000 0.000000 -60.708740 0.000000 8.000000 0.877136 0.476554 0.059397
2.70000005 -22.10000038 -0.51999998 229 127 77 0.000000 0.000000 0.000000 0.000000 -60.708740 0.000000 8.000000 0.877136 0.476554 0.059397
2.70000005 -22.10000038 -0.51999998 229 127 77 0.000000 0.000000 0.000000 0.000000 -60.708740 0.000000 8.000000 0.877136 0.476554 0.059397
2.71000004 -22.12000084 -0.44999999 229 127 77 0.000000 0.000000 0.000000 0.000000 -60.708740 0.000000 8.000000 0.387901 0.911637 -0.135835
2.68000007 -22.03000069 -0.36000001 229 127 77 0.000000 0.000000 0.000000 0.000000 -60.708740 0.000000 8.000000 0.907575 0.418574 0.033220
2.68000007 -22.04000092 -0.41000000 229 127 77 0.000000 0.000000 0.000000 0.000000 -60.708740 0.000000 8.000000 0.544221 0.804703 0.237225
2.68000007 -22.03000069 -0.36000001 229 127 77 0.000000 0.000000 0.000000 0.000000 -60.708740 0.000000 8.000000 0.907575 0.418574 0.033220
2.67000008 -22.04000092 -0.41000000 229 127 77 0.000000 0.000000 0.000000 0.000000 -60.708740 0.000000 8.000000 0.533405 0.802453 0.267484
2.68000007 -22.05999947 -0.50000000 229 127 77 0.000000 0.000000 0.000000 0.000000 -60.708740 0.000000 8.000000 0.840077 0.542465 -0.001353
2.67000008 -22.04000092 -0.51999998 229 127 77 0.000000 0.000000 0.000000 0.000000 -60.708740 0.000000 8.000000 0.626597 0.747873 0.219231
2.68000007 -22.06999969 -0.44000000 229 127 77 0.000000 0.000000 0.000000 0.000000 -60.708740 0.000000 8.000000 0.775604 0.581311 0.246000
2.68000007 -22.07999992 -0.44999999 229 127 77 0.000000 0.000000 0.000000 0.000000 -60.708740 0.000000 8.000000 0.880414 0.464780 0.094079
2.69000006 -22.05999947 -0.56000000 229 127 77 0.000000 0.000000 0.000000 0.000000 -60.708740 0.000000 8.000000 0.554361 0.832222 0.009534
2.70000005 -22.03000069 -0.60000002 229 127 77 0.000000 0.000000 0.000000 0.000000 -60.708740 0.000000 8.000000 0.913613 0.372528 -0.162892
2.70000005 -22.06999969 -0.52999997 229 127 77 0.000000 0.000000 0.000000 0.000000 -60.708740 0.000000 8.000000 0.818855 0.518557 0.246121
2.70000005 -22.10000038 -0.52999997 229 127 77 0.000000 0.000000 0.000000 0.000000 -60.708740 0.000000 8.000000 0.856228 0.513737 -0.054297
2.70000005 -22.10000038 -0.56999999 229 127 77 0.000000 0.000000 0.000000 0.000000 -60.708740 0.000000 8.000000 0.815237 0.545010 -0.195839
2.69000006 -22.09000015 -0.58999997 229 127 77 0.000000 0.000000 0.000000 0.000000 -60.708740 0.000000 8.000000 0.879399 0.418124 -0.227662
2.71000004 -22.11000061 -0.58999997 229 127 77 0.000000 0.000000 0.000000 0.000000 -60.708740 0.000000 8.000000 0.789545 0.612844 0.032255
2.69000006 -22.11000061 -0.58999997 229 127 77 0.000000 0.000000 0.000000 0.000000 -60.708740 0.000000 8.000000 0.604001 0.781737 -0.155142
2.69000006 -22.09000015 -0.58999997 229 127 77 0.000000 0.000000 0.000000 0.000000 -60.708740 0.000000 8.000000 0.879399 0.418124 -0.227662
2.70000005 -22.09000015 -0.66000003 229 127 77 0.000000 0.000000 0.000000 0.000000 -60.708740 0.000000 8.000000 0.722751 0.654066 -0.223225
2.71000004 -22.07999992 -0.63000000 229 127 77 0.000000 0.000000 0.000000 0.000000 -60.708740 0.000000 8.000000 0.913412 0.404035 -0.049338
2.68000007 -22.04000092 -0.54000002 229 127 77 0.000000 0.000000 0.000000 0.000000 -60.708740 0.000000 8.000000 0.650412 0.753185 -0.098369
2.68000007 -22.04000092 -0.54000002 229 127 77 0.000000 0.000000 0.000000 0.000000 -60.708740 0.000000 8.000000 0.650412 0.753185 -0.098369
2.68000007 -22.05999947 -0.56000000 229 127 77 0.000000 0.000000 0.000000 0.000000 -60.708740 0.000000 8.000000 0.807590 0.589472 0.017946
2.67000008 -22.04000092 -0.52999997 229 127 77 0.000000 0.000000 0.000000 0.000000 -60.708740 0.000000 8.000000 0.577415 0.814592 0.055059
2.68000007 -22.05999947 -0.56000000 229 127 77 0.000000 0.000000 0.000000 0.000000 -60.708740 0.000000 8.000000 0.807590 0.589472 0.017946
2.65000010 -22.05999947 -0.56000000 229 127 77 0.000000 0.000000 0.000000 0.000000 -60.708740 0.000000 8.000000 0.932470 0.322831 -0.162108
2.65000010 -22.04000092 -0.56999999 229 127 77 0.000000 0.000000 0.000000 0.000000 -60.708740 0.000000 8.000000 0.961787 0.273580 0.010943
2.65000010 -22.04999924 -0.56999999 229 127 77 0.000000 0.000000 0.000000 0.000000 -60.708740 0.000000 8.000000 0.904791 0.425397 0.019755
2.67000008 -22.04000092 -0.58999997 229 127 77 0.000000 0.000000 0.000000 0.000000 -60.708740 0.000000 8.000000 0.779795 0.561516 -0.276803
2.68000007 -22.04999924 -0.57999998 229 127 77 0.000000 0.000000 0.000000 0.000000 -60.708740 0.000000 8.000000 0.874513 0.451219 -0.177842
2.67000008 -22.04000092 -0.58999997 229 127 77 0.000000 0.000000 0.000000 0.000000 -60.708740 0.000000 8.000000 0.779795 0.561516 -0.276803
2.65000010 -22.03000069 -0.60000002 229 127 77 0.000000 0.000000 0.000000 0.000000 -60.708740 0.000000 8.000000 0.799678 0.594336 -0.085318
2.66000009 -22.07999992 -0.56000000 229 127 77 0.000000 0.000000 0.000000 0.000000 -60.708740 0.000000 8.000000 0.704874 0.689650 0.165942
2.68000007 -22.06999969 -0.54000002 229 127 77 0.000000 0.000000 0.000000 0.000000 -60.708740 0.000000 8.000000 0.856201 0.475334 -0.202429
2.68000007 -22.11000061 -0.55000001 229 127 77 0.000000 0.000000 0.000000 0.000000 -60.708740 0.000000 8.000000 0.478876 0.854171 0.202659
2.68000007 -22.10000038 -0.55000001 229 127 77 0.000000 0.000000 0.000000 0.000000 -60.708740 0.000000 8.000000 0.819004 0.478147 0.317187
2.66000009 -22.07999992 -0.60000002 229 127 77 0.000000 0.000000 0.000000 0.000000 -60.708740 0.000000 8.000000 0.930924 0.356609 0.078801
2.68000007 -22.09000015 -0.56999999 229 127 77 0.000000 0.000000 0.000000 0.000000 -60.708740 0.000000 8.000000 0.756175 0.639380 -0.139256
2.64000010 -22.04999924 -0.58999997 229 127 77 0.000000 0.000000 0.000000 0.000000 -60.708740 0.000000 8.000000 0.909687 0.414691 0.022380
2.66000009 -22.03000069 -0.63999999 229 127 77 0.000000 0.000000 0.000000 0.000000 -60.708740 0.000000 8.000000 0.887092 0.346732 -0.304704
2.67000008 -22.04999924 -0.61000001 229 127 77 0.000000 0.000000 0.000000 0.000000 -60.708740 0.000000 8.000000 0.852727 0.484061 -0.196322
2.68000007 -22.05999947 -0.61000001 229 127 77 0.000000 0.000000 0.000000 0.000000 -60.708740 0.000000 8.000000 0.613805 0.683293 -0.395416
2.66000009 -22.03000069 -0.63999999 229 127 77 0.000000 0.000000 0.000000 0.000000 -60.708740 0.000000 8.000000 0.887092 0.346732 -0.304704
2.65000010 -22.04000092 -0.62000000 229 127 77 0.000000 0.000000 0.000000 0.000000 -60.708740 0.000000 8.000000 0.967826 0.244752 -0.058393
2.67000008 -22.05999947 -0.61000001 229 127 77 0.000000 0.000000 0.000000 0.000000 -60.708740 0.000000 8.000000 0.879985 0.440725 -0.177168
2.67000008 -22.04999924 -0.61000001 229 127 77 0.000000 0.000000 0.000000 0.000000 -60.708740 0.000000 8.000000 0.852727 0.484061 -0.196322
2.65000010 -22.03000069 -0.61000001 229 127 77 0.000000 0.000000 0.000000 0.000000 -60.708740 0.000000 8.000000 0.675362 0.733458 -0.076977
2.67000008 -22.06999969 -0.63000000 229 127 77 0.000000 0.000000 0.000000 0.000000 -60.708740 0.000000 8.000000 0.930844 0.326003 -0.165083
2.66000009 -22.06999969 -0.62000000 229 127 77 0.000000 0.000000 0.000000 0.000000 -60.708740 0.000000 8.000000 0.920534 0.374524 -0.111123
2.67000008 -22.06999969 -0.63999999 229 127 77 0.000000 0.000000 0.000000 0.000000 -60.708740 0.000000 8.000000 0.784735 0.619817 -0.004123
2.67000008 -22.11000061 -0.61000001 229 127 77 0.000000 0.000000 0.000000 0.000000 -60.708740 0.000000 8.000000 0.909873 0.413095 0.038520
2.68000007 -22.09000015 -0.63000000 229 127 77 0.000000 0.000000 0.000000 0.000000 -60.708740 0.000000 8.000000 0.606508 0.754591 -0.250480
2.67000008 -22.06999969 -0.67000002 229 127 77 0.000000 0.000000 0.000000 0.000000 -60.708740 0.000000 8.000000 0.924682 0.294930 0.240788
2.67000008 -22.07999992 -0.66000003 229 127 77 0.000000 0.000000 0.000000 0.000000 -60.708740 0.000000 8.000000 0.657467 0.736423 0.159432
2.67000008 -22.06999969 -0.67000002 229 127 77 0.000000 0.000000 0.000000 0.000000 -60.708740 0.000000 8.000000 0.924682 0.294930 0.240788
2.67000008 -22.12000084 -0.67000002 229 127 77 0.000000 0.000000 0.000000 0.000000 -60.708740 0.000000 8.000000 0.510641 0.809170 -0.290673
2.69000006 -21.87000084 -0.72000003 229 127 77 0.000000 0.000000 0.000000 0.000000 -60.708740 0.000000 8.000000 0.995888 -0.003195 -0.090535
2.67000008 -21.86000061 -0.73000002 229 127 77 0.000000 0.000000 0.000000 0.000000 -60.708740 0.000000 8.000000 0.923026 -0.381623 0.048858
2.67000008 -21.87000084 -0.73000002 229 127 77 0.000000 0.000000 0.000000 0.000000 -60.708740 0.000000 8.000000 0.988662 0.068544 0.133603
2.67000008 -21.86000061 -0.72000003 229 127 77 0.000000 0.000000 0.000000 0.000000 -60.708740 0.000000 8.000000 0.931403 -0.354120 -0.084187
2.67000008 -21.88999939 -0.69999999 229 127 77 0.000000 0.000000 0.000000 0.000000 -60.708740 0.000000 8.000000 0.984336 0.052921 0.168172
2.67000008 -21.87999916 -0.69999999 229 127 77 0.000000 0.000000 0.000000 0.000000 -60.708740 0.000000 8.000000 0.974952 -0.154734 0.159766
2.67000008 -21.89999962 -0.69999999 229 127 77 0.000000 0.000000 0.000000 0.000000 -60.708740 0.000000 8.000000 0.967146 0.250103 -0.045585
2.67000008 -21.88999939 -0.69999999 229 127 77 0.000000 0.000000 0.000000 0.000000 -60.708740 0.000000 8.000000 0.984336 0.052921 0.168172
2.67000008 -21.88999939 -0.69999999 229 127 77 0.000000 0.000000 0.000000 0.000000 -60.708740 0.000000 8.000000 0.984336 0.052921 0.168172
2.67000008 -21.87999916 -0.69999999 229 127 77 0.000000 0.000000 0.000000 0.000000 -60.708740 0.000000 8.000000 0.974952 -0.154734 0.159766
2.67000008 -21.89999962 -0.72000003 229 127 77 0.000000 0.000000 0.000000 0.000000 -60.708740 0.000000 8.000000 0.997402 -0.070715 -0.013721
2.67000008 -21.87999916 -0.75999999 229 127 77 0.000000 0.000000 0.000000 0.000000 -60.708740 0.000000 8.000000 0.976783 -0.008189 -0.214073
2.67000008 -21.87000084 -0.75000000 229 127 77 0.000000 0.000000 0.000000 0.000000 -60.708740 0.000000 8.000000 0.991785 -0.037066 -0.122429
2.67000008 -21.88999939 -0.74000001 229 127 77 0.000000 0.000000 0.000000 0.000000 -60.708740 0.000000 8.000000 0.988690 -0.141570 -0.049492
2.67000008 -21.87000084 -0.75999999 229 127 77 0.000000 0.000000 0.000000 0.000000 -60.708740 0.000000 8.000000 0.986874 -0.071751 -0.144679
2.67000008 -21.86000061 -0.74000001 229 127 77 0.000000 0.000000 0.000000 0.000000 -60.708740 0.000000 8.000000 0.930027 -0.364947 -0.043166
2.67000008 -21.87000084 -0.74000001 229 127 77 0.000000 0.000000 0.000000 0.000000 -60.708740 0.000000 8.000000 0.996020 0.088606 0.009608
2.68000007 -21.94000053 -0.70999998 229 127 77 0.000000 0.000000 0.000000 0.000000 -60.708740 0.000000 8.000000 0.888905 0.185371 0.418909
2.67000008 -21.92000008 -0.69999999 229 127 77 0.000000 0.000000 0.000000 0.000000 -60.708740 0.000000 8.000000 0.963652 -0.195353 -0.182242
2.67000008 -21.94000053 -0.69999999 229 127 77 0.000000 0.000000 0.000000 0.000000 -60.708740 0.000000 8.000000 0.992692 0.014291 0.119827
2.67000008 -21.90999985 -0.73000002 229 127 77 0.000000 0.000000 0.000000 0.000000 -60.708740 0.000000 8.000000 0.989398 -0.117702 -0.085072
2.67000008 -21.90999985 -0.69999999 229 127 77 0.000000 0.000000 0.000000 0.000000 -60.708740 0.000000 8.000000 0.980485 -0.148484 -0.128850
2.67000008 -21.90999985 -0.74000001 229 127 77 0.000000 0.000000 0.000000 0.000000 -60.708740 0.000000 8.000000 0.973060 -0.216924 -0.078093
2.63000011 -22.02000046 -0.75999999 229 127 77 0.000000 0.000000 0.000000 0.000000 -60.708740 0.000000 8.000000 0.978012 0.178829 -0.107298
2.63000011 -22.02000046 -0.75999999 229 127 77 0.000000 0.000000 0.000000 0.000000 -60.708740 0.000000 8.000000 0.978012 0.178829 -0.107298
2.61999989 -21.98999977 -0.73000002 229 127 77 0.000000 0.000000 0.000000 0.000000 -60.708740 0.000000 8.000000 0.844574 0.533926 -0.040218
2.67000008 -22.07999992 -0.72000003 229 127 77 0.000000 0.000000 0.000000 0.000000 -60.708740 0.000000 8.000000 0.936483 0.350710 0.001257
2.67000008 -22.06999969 -0.72000003 229 127 77 0.000000 0.000000 0.000000 0.000000 -60.708740 0.000000 8.000000 0.843168 0.521683 0.130055
2.68000007 -22.10000038 -0.75000000 229 127 77 0.000000 0.000000 0.000000 0.000000 -60.708740 0.000000 8.000000 0.884661 0.438711 -0.157820
2.59999990 -22.00000000 -0.73000002 229 127 77 0.000000 0.000000 0.000000 0.000000 -60.708740 0.000000 8.000000 0.823148 0.567546 0.017865
2.95000005 -21.69000053 0.64999998 229 127 77 0.000000 0.000000 0.000000 0.000000 -60.708740 0.000000 8.000000 0.659971 0.636814 0.398629
3.00999999 -21.69000053 0.19000000 229 127 77 0.000000 0.000000 0.000000 0.000000 -60.708740 0.000000 8.000000 0.917412 0.362173 -0.164881
2.99000001 -21.69000053 0.23000000 229 127 77 0.000000 0.000000 0.000000 0.000000 -60.708740 0.000000 8.000000 0.782140 0.564966 -0.262812
3.00000000 -21.69000053 0.16000000 229 127 77 0.000000 0.000000 0.000000 0.000000 -60.708740 0.000000 8.000000 0.613713 0.766759 -0.188246
3.01999998 -21.69000053 0.14000000 229 127 77 0.000000 0.000000 0.000000 0.000000 -60.708740 0.000000 8.000000 0.736777 0.673829 0.055795
3.00000000 -21.69000053 0.10000000 229 127 77 0.000000 0.000000 0.000000 0.000000 -60.708740 0.000000 8.000000 0.604900 0.693905 0.390630
3.01999998 -21.69000053 0.12000000 229 127 77 0.000000 0.000000 0.000000 0.000000 -60.708740 0.000000 8.000000 0.564060 0.804279 -0.187006
2.99000001 -21.70999908 0.23000000 229 127 77 0.000000 0.000000 0.000000 0.000000 -60.708740 0.000000 8.000000 0.521798 0.836958 0.165013
2.99000001 -21.70000076 0.23000000 229 127 77 0.000000 0.000000 0.000000 0.000000 -60.708740 0.000000 8.000000 0.772270 0.630277 -0.079690
2.98000002 -21.70000076 0.20999999 229 127 77 0.000000 0.000000 0.000000 0.000000 -60.708740 0.000000 8.000000 0.855127 0.426793 -0.294287
2.95000005 -21.70000076 0.16000000 229 127 77 0.000000 0.000000 0.000000 0.000000 -60.708740 0.000000 8.000000 0.608000 0.758047 0.236010
2.95000005 -21.70000076 0.16000000 229 127 77 0.000000 0.000000 0.000000 0.000000 -60.708740 0.000000 8.000000 0.608000 0.758047 0.236010
2.99000001 -21.70999908 0.14000000 229 127 77 0.000000 0.000000 0.000000 0.000000 -60.708740 0.000000 8.000000 0.590788 0.806626 0.017987
3.01999998 -21.70000076 0.08000000 229 127 77 0.000000 0.000000 0.000000 0.000000 -60.708740 0.000000 8.000000 0.871079 0.466805 -0.152693
3.01999998 -21.70000076 -0.01000000 229 127 77 0.000000 0.000000 0.000000 0.000000 -60.708740 0.000000 8.000000 0.600504 0.693144 -0.398682
2.95000005 -21.70000076 0.04000000 229 127 77 0.000000 0.000000 0.000000 0.000000 -60.708740 0.000000 8.000000 0.372172 0.876504 -0.305333
2.92000008 -21.67000008 1.01999998 229 127 77 0.000000 0.000000 0.000000 0.000000 -60.708740 0.000000 8.000000 0.893104 0.377681 -0.244382
2.79999995 -21.72999954 1.09000003 229 127 77 0.000000 0.000000 0.000000 0.000000 -60.708740 0.000000 8.000000 0.007646 0.992858 0.119056
2.77999997 -21.77000046 1.09000003 229 127 77 0.000000 0.000000 0.000000 0.000000 -60.708740 0.000000 8.000000 0.929464 0.336602 -0.150986
2.82999992 -21.70999908 1.01999998 229 127 77 0.000000 0.000000 0.000000 0.000000 -60.708740 0.000000 8.000000 0.239698 0.962678 -0.125679
2.78999996 -21.72999954 1.04999995 229 127 77 0.000000 0.000000 0.000000 0.000000 -60.708740 0.000000 8.000000 -0.418441 0.871626 -0.255294
2.79999995 -21.72999954 1.01999998 229 127 77 0.000000 0.000000 0.000000 0.000000 -60.708740 0.000000 8.000000 -0.265725 0.920700 -0.285834
2.79999995 -21.73999977 1.00999999 229 127 77 0.000000 0.000000 0.000000 0.000000 -60.708740 0.000000 8.000000 -0.092677 0.991991 -0.085812
2.75999999 -21.76000023 1.08000004 229 127 77 0.000000 0.000000 0.000000 0.000000 -60.708740 0.000000 8.000000 0.910647 0.046803 0.410526
2.76999998 -21.76000023 1.07000005 229 127 77 0.000000 0.000000 0.000000 0.000000 -60.708740 0.000000 8.000000 0.921622 0.009023 0.387984
2.75999999 -21.79999924 1.05999994 229 127 77 0.000000 0.000000 0.000000 0.000000 -60.708740 0.000000 8.000000 0.743465 0.638360 -0.199391
2.75999999 -21.79999924 1.04999995 229 127 77 0.000000 0.000000 0.000000 0.000000 -60.708740 0.000000 8.000000 0.656487 0.727543 0.199263
2.76999998 -21.80999947 1.05999994 229 127 77 0.000000 0.000000 0.000000 0.000000 -60.708740 0.000000 8.000000 0.711764 0.690873 0.126834
2.74000001 -21.81999969 1.00999999 229 127 77 0.000000 0.000000 0.000000 0.000000 -60.708740 0.000000 8.000000 0.441013 0.896771 -0.036193
2.73000002 -21.82999992 1.02999997 229 127 77 0.000000 0.000000 0.000000 0.000000 -60.708740 0.000000 8.000000 0.725070 0.646429 -0.237496
2.72000003 -21.85000038 1.01999998 229 127 77 0.000000 0.000000 0.000000 0.000000 -60.708740 0.000000 8.000000 0.650101 0.758215 0.049789
2.90000010 -21.65999985 0.93000001 229 127 77 0.000000 0.000000 0.000000 0.000000 -60.708740 0.000000 8.000000 0.482286 0.868688 0.113058
2.91000009 -21.68000031 0.93000001 229 127 77 0.000000 0.000000 0.000000 0.000000 -60.708740 0.000000 8.000000 0.800580 0.515225 -0.305964
2.92000008 -21.65999985 0.82999998 229 127 77 0.000000 0.000000 0.000000 0.000000 -60.708740 0.000000 8.000000 0.752874 0.611415 -0.243623
2.94000006 -21.67000008 0.88000000 229 127 77 0.000000 0.000000 0.000000 0.000000 -60.708740 0.000000 8.000000 0.756487 0.639644 -0.136318
2.93000007 -21.68000031 0.80000001 229 127 77 0.000000 0.000000 0.000000 0.000000 -60.708740 0.000000 8.000000 0.866282 0.494019 -0.074173
2.93000007 -21.67000008 0.81000000 229 127 77 0.000000 0.000000 0.000000 0.000000 -60.708740 0.000000 8.000000 0.838213 0.538341 -0.087106
2.85999990 -21.69000053 0.67000002 229 127 77 0.000000 0.000000 0.000000 0.000000 -60.708740 0.000000 8.000000 0.676863 0.727221 0.114045
2.85999990 -21.70999908 0.82999998 229 127 77 0.000000 0.000000 0.000000 0.000000 -60.708740 0.000000 8.000000 0.343255 0.939235 0.003772
2.80999994 -21.72999954 0.95999998 229 127 77 0.000000 0.000000 0.000000 0.000000 -60.708740 0.000000 8.000000 -0.387154 0.921609 0.027375
2.80999994 -21.75000000 0.98000002 229 127 77 0.000000 0.000000 0.000000 0.000000 -60.708740 0.000000 8.000000 -0.098673 0.990216 -0.098673
2.80999994 -21.75000000 0.97000003 229 127 77 0.000000 0.000000 0.000000 0.000000 -60.708740 0.000000 8.000000 -0.162477 0.980972 -0.106282
2.79999995 -21.75000000 0.97000003 229 127 77 0.000000 0.000000 0.000000 0.000000 -60.708740 0.000000 8.000000 -0.445255 0.871150 -0.206991
2.80999994 -21.75000000 0.97000003 229 127 77 0.000000 0.000000 0.000000 0.000000 -60.708740 0.000000 8.000000 -0.162477 0.980972 -0.106282
2.79999995 -21.75000000 0.98000002 229 127 77 0.000000 0.000000 0.000000 0.000000 -60.708740 0.000000 8.000000 -0.563316 0.824605 -0.051977
2.82999992 -21.70999908 0.88000000 229 127 77 0.000000 0.000000 0.000000 0.000000 -60.708740 0.000000 8.000000 0.287450 0.957757 0.008562
2.81999993 -21.71999931 0.86000001 229 127 77 0.000000 0.000000 0.000000 0.000000 -60.708740 0.000000 8.000000 -0.135983 0.912625 -0.385518
2.81999993 -21.71999931 0.85000002 229 127 77 0.000000 0.000000 0.000000 0.000000 -60.708740 0.000000 8.000000 -0.280557 0.942945 -0.179283
2.81999993 -21.76000023 0.88999999 229 127 77 0.000000 0.000000 0.000000 0.000000 -60.708740 0.000000 8.000000 0.570494 0.819998 -0.046256
2.81999993 -21.75000000 0.81999999 229 127 77 0.000000 0.000000 0.000000 0.000000 -60.708740 0.000000 8.000000 -0.262387 0.963743 -0.048498
2.84999990 -21.73999977 0.83999997 229 127 77 0.000000 0.000000 0.000000 0.000000 -60.708740 0.000000 8.000000 0.672155 0.691223 0.265366
2.80999994 -21.72999954 0.87000000 229 127 77 0.000000 0.000000 0.000000 0.000000 -60.708740 0.000000 8.000000 -0.372073 0.910938 -0.178196
2.78999996 -21.76000023 0.85000002 229 127 77 0.000000 0.000000 0.000000 0.000000 -60.708740 0.000000 8.000000 0.948390 -0.266523 0.171820
2.79999995 -21.75000000 0.82999998 229 127 77 0.000000 0.000000 0.000000 0.000000 -60.708740 0.000000 8.000000 0.739614 -0.670946 0.052932
2.79999995 -21.75000000 0.86000001 229 127 77 0.000000 0.000000 0.000000 0.000000 -60.708740 0.000000 8.000000 -0.327478 0.943908 -0.042380
2.79999995 -21.75000000 0.82999998 229 127 77 0.000000 0.000000 0.000000 0.000000 -60.708740 0.000000 8.000000 0.739614 -0.670946 0.052932
2.79999995 -21.73999977 0.85000002 229 127 77 0.000000 0.000000 0.000000 0.000000 -60.708740 0.000000 8.000000 -0.527307 0.841077 -0.120569
2.80999994 -21.75000000 0.81999999 229 127 77 0.000000 0.000000 0.000000 0.000000 -60.708740 0.000000 8.000000 -0.220917 0.911101 -0.347980
2.78999996 -21.76000023 0.85000002 229 127 77 0.000000 0.000000 0.000000 0.000000 -60.708740 0.000000 8.000000 0.948390 -0.266523 0.171820
2.90000010 -21.71999931 0.73000002 229 127 77 0.000000 0.000000 0.000000 0.000000 -60.708740 0.000000 8.000000 0.624484 0.714848 0.314662
2.89000010 -21.71999931 0.72000003 229 127 77 0.000000 0.000000 0.000000 0.000000 -60.708740 0.000000 8.000000 0.605972 0.769414 0.201991
2.89000010 -21.70999908 0.66000003 229 127 77 0.000000 0.000000 0.000000 0.000000 -60.708740 0.000000 8.000000 0.732213 0.561855 -0.384944
2.89000010 -21.70999908 0.67000002 229 127 77 0.000000 0.000000 0.000000 0.000000 -60.708740 0.000000 8.000000 0.493861 0.828262 0.264734
2.84999990 -21.72999954 0.80000001 229 127 77 0.000000 0.000000 0.000000 0.000000 -60.708740 0.000000 8.000000 0.302292 0.952409 0.039209
2.81999993 -21.72999954 0.75999999 229 127 77 0.000000 0.000000 0.000000 0.000000 -60.708740 0.000000 8.000000 0.067662 0.973103 -0.220209
2.81999993 -21.73999977 0.80000001 229 127 77 0.000000 0.000000 0.000000 0.000000 -60.708740 0.000000 8.000000 -0.297713 0.913470 -0.277381
2.81999993 -21.73999977 0.79000002 229 127 77 0.000000 0.000000 0.000000 0.000000 -60.708740 0.000000 8.000000 0.162179 0.966588 -0.198507
2.82999992 -21.73999977 0.75999999 229 127 77 0.000000 0.000000 0.000000 0.000000 -60.708740 0.000000 8.000000 0.191037 0.972895 -0.130310
2.82999992 -21.73999977 0.75999999 229 127 77 0.000000 0.000000 0.000000 0.000000 -60.708740 0.000000 8.000000 0.191037 0.972895 -0.130310
2.82999992 -21.73999977 0.75000000 229 127 77 0.000000 0.000000 0.000000 0.000000 -60.708740 0.000000 8.000000 0.196701 0.978679 -0.059131
2.80999994 -21.72999954 0.75999999 229 127 77 0.000000 0.000000 0.000000 0.000000 -60.708740 0.000000 8.000000 -0.515126 0.856721 -0.025961
2.80999994 -21.75000000 0.81000000 229 127 77 0.000000 0.000000 0.000000 0.000000 -60.708740 0.000000 8.000000 0.059452 0.998165 -0.011473
2.80999994 -21.77000046 0.81000000 229 127 77 0.000000 0.000000 0.000000 0.000000 -60.708740 0.000000 8.000000 0.865026 -0.468741 -0.178920
2.79999995 -21.73999977 0.75999999 229 127 77 0.000000 0.000000 0.000000 0.000000 -60.708740 0.000000 8.000000 -0.584083 0.703216 -0.405383
2.80999994 -21.76000023 0.74000001 229 127 77 0.000000 0.000000 0.000000 0.000000 -60.708740 0.000000 8.000000 -0.571217 0.808606 -0.140950
2.77999997 -21.75000000 0.76999998 229 127 77 0.000000 0.000000 0.000000 0.000000 -60.708740 0.000000 8.000000 0.912495 -0.408325 -0.024946
2.80999994 -21.76000023 0.74000001 229 127 77 0.000000 0.000000 0.000000 0.000000 -60.708740 0.000000 8.000000 -0.571217 0.808606 -0.140950
2.84999990 -21.72999954 0.69999999 229 127 77 0.000000 0.000000 0.000000 0.000000 -60.708740 0.000000 8.000000 0.606046 0.782623 0.142159
2.83999991 -21.72999954 0.67000002 229 127 77 0.000000 0.000000 0.000000 0.000000 -60.708740 0.000000 8.000000 -0.149154 0.979978 -0.131896
2.81999993 -21.70999908 0.69000000 229 127 77 0.000000 0.000000 0.000000 0.000000 -60.708740 0.000000 8.000000 0.285700 0.948308 -0.138155
2.81999993 -21.73999977 0.69999999 229 127 77 0.000000 0.000000 0.000000 0.000000 -60.708740 0.000000 8.000000 0.041489 0.956759 -0.287908
2.81999993 -21.73999977 0.66000003 229 127 77 0.000000 0.000000 0.000000 0.000000 -60.708740 0.000000 8.000000 -0.091327 0.990729 0.100576
2.81999993 -21.73999977 0.66000003 229 127 77 0.000000 0.000000 0.000000 0.000000 -60.708740 0.000000 8.000000 -0.091327 0.990729 0.100576
2.78999996 -21.76000023 0.67000002 229 127 77 0.000000 0.000000 0.000000 0.000000 -60.708740 0.000000 8.000000 0.774768 -0.627605 -0.076467
2.80999994 -21.73999977 0.67000002 229 127 77 0.000000 0.000000 0.000000 0.000000 -60.708740 0.000000 8.000000 -0.253562 0.965536 -0.058707
2.79999995 -21.78000069 0.75000000 229 127 77 0.000000 0.000000 0.000000 0.000000 -60.708740 0.000000 8.000000 0.886780 0.446937 0.117764
2.78999996 -21.78000069 0.75999999 229 127 77 0.000000 0.000000 0.000000 0.000000 -60.708740 0.000000 8.000000 0.932664 0.147408 0.329256
2.77999997 -21.78000069 0.66000003 229 127 77 0.000000 0.000000 0.000000 0.000000 -60.708740 0.000000 8.000000 0.939435 0.262265 0.220635
2.77999997 -21.78000069 0.67000002 229 127 77 0.000000 0.000000 0.000000 0.000000 -60.708740 0.000000 8.000000 0.976315 -0.077174 0.202123
2.77999997 -21.78000069 0.69000000 229 127 77 0.000000 0.000000 0.000000 0.000000 -60.708740 0.000000 8.000000 0.895668 -0.311472 0.317433
2.77999997 -21.78000069 0.67000002 229 127 77 0.000000 0.000000 0.000000 0.000000 -60.708740 0.000000 8.000000 0.976315 -0.077174 0.202123
2.76999998 -21.76000023 0.94999999 229 127 77 0.000000 0.000000 0.000000 0.000000 -60.708740 0.000000 8.000000 0.999690 0.021184 0.013114
2.75999999 -21.77000046 0.83999997 229 127 77 0.000000 0.000000 0.000000 0.000000 -60.708740 0.000000 8.000000 0.956698 -0.108330 0.270173
2.74000001 -21.79999924 0.95999998 229 127 77 0.000000 0.000000 0.000000 0.000000 -60.708740 0.000000 8.000000 0.740394 0.644958 -0.189331
2.73000002 -21.82999992 0.97000003 229 127 77 0.000000 0.000000 0.000000 0.000000 -60.708740 0.000000 8.000000 0.833818 0.546882 0.075285
2.73000002 -21.85000038 0.98000002 229 127 77 0.000000 0.000000 0.000000 0.000000 -60.708740 0.000000 8.000000 0.394787 0.918565 -0.019544
2.76999998 -21.79000092 0.85000002 229 127 77 0.000000 0.000000 0.000000 0.000000 -60.708740 0.000000 8.000000 0.830059 0.509042 0.227769
2.76999998 -21.79000092 0.86000001 229 127 77 0.000000 0.000000 0.000000 0.000000 -60.708740 0.000000 8.000000 0.964330 0.244604 0.101171
2.75000000 -21.82999992 0.89999998 229 127 77 0.000000 0.000000 0.000000 0.000000 -60.708740 0.000000 8.000000 0.370999 0.925490 0.076343
2.75000000 -21.82999992 0.87000000 229 127 77 0.000000 0.000000 0.000000 0.000000 -60.708740 0.000000 8.000000 0.597877 0.742137 0.302946
2.74000001 -21.82999992 0.82999998 229 127 77 0.000000 0.000000 0.000000 0.000000 -60.708740 0.000000 8.000000 0.971526 0.231549 -0.050230
2.74000001 -21.82999992 0.82999998 229 127 77 0.000000 0.000000 0.000000 0.000000 -60.708740 0.000000 8.000000 0.971526 0.231549 -0.050230
2.74000001 -21.80999947 0.81000000 229 127 77 0.000000 0.000000 0.000000 0.000000 -60.708740 0.000000 8.000000 0.793429 0.501704 -0.344621
2.76999998 -21.79000092 0.75999999 229 127 77 0.000000 0.000000 0.000000 0.000000 -60.708740 0.000000 8.000000 0.990760 0.014488 0.134850
2.75000000 -21.81999969 0.80000001 229 127 77 0.000000 0.000000 0.000000 0.000000 -60.708740 0.000000 8.000000 0.847639 0.443119 -0.291810
2.74000001 -21.81999969 0.80000001 229 127 77 0.000000 0.000000 0.000000 0.000000 -60.708740 0.000000 8.000000 0.851658 0.435839 -0.291073
2.72000003 -21.85000038 0.75000000 229 127 77 0.000000 0.000000 0.000000 0.000000 -60.708740 0.000000 8.000000 0.845947 0.532328 -0.031637
2.75000000 -21.80999947 0.72000003 229 127 77 0.000000 0.000000 0.000000 0.000000 -60.708740 0.000000 8.000000 0.960065 0.113025 -0.255931
2.75999999 -21.78000069 0.73000002 229 127 77 0.000000 0.000000 0.000000 0.000000 -60.708740 0.000000 8.000000 0.961735 -0.098870 0.255521
2.75999999 -21.78000069 0.66000003 229 127 77 0.000000 0.000000 0.000000 0.000000 -60.708740 0.000000 8.000000 0.930382 -0.206908 -0.302620
2.75999999 -21.79000092 0.66000003 229 127 77 0.000000 0.000000 0.000000 0.000000 -60.708740 0.000000 8.000000 0.991748 0.122702 -0.037148
2.91000009 -21.67000008 0.52999997 229 127 77 0.000000 0.000000 0.000000 0.000000 -60.708740 0.000000 8.000000 0.381577 0.879286 0.285052
2.88000011 -21.72999954 0.61000001 229 127 77 0.000000 0.000000 0.000000 0.000000 -60.708740 0.000000 8.000000 0.765740 0.564313 -0.308534
2.86999989 -21.71999931 0.64999998 229 127 77 0.000000 0.000000 0.000000 0.000000 -60.708740 0.000000 8.000000 0.427024 0.897450 0.110606
2.85999990 -21.71999931 0.58999997 229 127 77 0.000000 0.000000 0.000000 0.000000 -60.708740 0.000000 8.000000 0.260149 0.903908 -0.339517
2.90000010 -21.70999908 0.56000000 229 127 77 0.000000 0.000000 0.000000 0.000000 -60.708740 0.000000 8.000000 0.309486 0.936710 0.163684
2.86999989 -21.72999954 0.49000001 229 127 77 0.000000 0.000000 0.000000 0.000000 -60.708740 0.000000 8.000000 0.438135 0.894351 -0.090409
2.86999989 -21.73999977 0.55000001 229 127 77 0.000000 0.000000 0.000000 0.000000 -60.708740 0.000000 8.000000 0.342251 0.937585 -0.061631
2.86999989 -21.73999977 0.55000001 229 127 77 0.000000 0.000000 0.000000 0.000000 -60.708740 0.000000 8.000000 0.342251 0.937585 -0.061631
2.83999991 -21.71999931 0.64999998 229 127 77 0.000000 0.000000 0.000000 0.000000 -60.708740 0.000000 8.000000 0.281671 0.917237 0.281671
2.83999991 -21.71999931 0.63999999 229 127 77 0.000000 0.000000 0.000000 0.000000 -60.708740 0.000000 8.000000 0.066378 0.993415 -0.093379
2.82999992 -21.73999977 0.62000000 229 127 77 0.000000 0.000000 0.000000 0.000000 -60.708740 0.000000 8.000000 -0.336336 0.936648 0.097819
2.81999993 -21.73999977 0.64999998 229 127 77 0.000000 0.000000 0.000000 0.000000 -60.708740 0.000000 8.000000 -0.390648 0.851332 -0.350182
2.81999993 -21.75000000 0.63999999 229 127 77 0.000000 0.000000 0.000000 0.000000 -60.708740 0.000000 8.000000 -0.513109 0.845381 -0.148493
2.84999990 -21.73999977 0.60000002 229 127 77 0.000000 0.000000 0.000000 0.000000 -60.708740 0.000000 8.000000 0.008884 0.999956 0.002961
2.81999993 -21.76000023 0.60000002 229 127 77 0.000000 0.000000 0.000000 0.000000 -60.708740 0.000000 8.000000 -0.538760 0.835006 0.111818
2.80999994 -21.77000046 0.61000001 229 127 77 0.000000 0.000000 0.000000 0.000000 -60.708740 0.000000 8.000000 0.800852 -0.596016 -0.058321
2.79999995 -21.75000000 0.62000000 229 127 77 0.000000 0.000000 0.000000 0.000000 -60.708740 0.000000 8.000000 -0.396316 0.910831 0.115418
2.78999996 -21.77000046 0.63000000 229 127 77 0.000000 0.000000 0.000000 0.000000 -60.708740 0.000000 8.000000 0.985892 -0.156286 -0.059929
2.80999994 -21.76000023 0.64999998 229 127 77 0.000000 0.000000 0.000000 0.000000 -60.708740 0.000000 8.000000 -0.445234 0.874196 0.193773
2.80999994 -21.77000046 0.61000001 229 127 77 0.000000 0.000000 0.000000 0.000000 -60.708740 0.000000 8.000000 0.800852 -0.596016 -0.058321
2.77999997 -21.75000000 0.61000001 229 127 77 0.000000 0.000000 0.000000 0.000000 -60.708740 0.000000 8.000000 0.801931 -0.521491 -0.291468
2.78999996 -21.77000046 0.63999999 229 127 77 0.000000 0.000000 0.000000 0.000000 -60.708740 0.000000 8.000000 0.759012 -0.645378 -0.085953
2.77999997 -21.75000000 0.61000001 229 127 77 0.000000 0.000000 0.000000 0.000000 -60.708740 0.000000 8.000000 0.801931 -0.521491 -0.291468
2.77999997 -21.77000046 0.60000002 229 127 77 0.000000 0.000000 0.000000 0.000000 -60.708740 0.000000 8.000000 0.851580 -0.359625 0.381421
2.81999993 -21.76000023 0.54000002 229 127 77 0.000000 0.000000 0.000000 0.000000 -60.708740 0.000000 8.000000 -0.050361 0.997567 0.048218
2.81999993 -21.73999977 0.50000000 229 127 77 0.000000 0.000000 0.000000 0.000000 -60.708740 0.000000 8.000000 -0.448225 0.886553 -0.114531
2.81999993 -21.77000046 0.50000000 229 127 77 0.000000 0.000000 0.000000 0.000000 -60.708740 0.000000 8.000000 -0.611423 0.739135 0.282563
2.79999995 -21.75000000 0.52999997 229 127 77 0.000000 0.000000 0.000000 0.000000 -60.708740 0.000000 8.000000 -0.522898 0.848824 -0.077939
2.79999995 -21.76000023 0.56000000 229 127 77 0.000000 0.000000 0.000000 0.000000 -60.708740 0.000000 8.000000 0.748209 -0.641540 0.169147
2.80999994 -21.75000000 0.56000000 229 127 77 0.000000 0.000000 0.000000 0.000000 -60.708740 0.000000 8.000000 -0.615595 0.784920 -0.070313
2.79999995 -21.76000023 0.56000000 229 127 77 0.000000 0.000000 0.000000 0.000000 -60.708740 0.000000 8.000000 0.748209 -0.641540 0.169147
2.79999995 -21.76000023 0.55000001 229 127 77 0.000000 0.000000 0.000000 0.000000 -60.708740 0.000000 8.000000 0.786087 -0.613004 0.079330
2.80999994 -21.76000023 0.55000001 229 127 77 0.000000 0.000000 0.000000 0.000000 -60.708740 0.000000 8.000000 -0.309395 0.860457 -0.404831
2.79999995 -21.77000046 0.56000000 229 127 77 0.000000 0.000000 0.000000 0.000000 -60.708740 0.000000 8.000000 0.726420 -0.517926 0.451737
2.78999996 -21.77000046 0.51999998 229 127 77 0.000000 0.000000 0.000000 0.000000 -60.708740 0.000000 8.000000 0.826191 -0.559769 -0.063771
2.77999997 -21.78000069 0.64999998 229 127 77 0.000000 0.000000 0.000000 0.000000 -60.708740 0.000000 8.000000 0.981329 -0.145427 0.125874
2.78999996 -21.78000069 0.63000000 229 127 77 0.000000 0.000000 0.000000 0.000000 -60.708740 0.000000 8.000000 0.992872 0.119057 0.005461
2.77999997 -21.80999947 0.58999997 229 127 77 0.000000 0.000000 0.000000 0.000000 -60.708740 0.000000 8.000000 0.895704 0.444554 -0.009234
2.81999993 -21.79000092 0.51999998 229 127 77 0.000000 0.000000 0.000000 0.000000 -60.708740 0.000000 8.000000 0.985142 0.017203 0.170880
2.78999996 -21.78000069 0.51999998 229 127 77 0.000000 0.000000 0.000000 0.000000 -60.708740 0.000000 8.000000 0.831938 -0.522030 0.188051
2.93000007 -21.70999908 0.44999999 229 127 77 0.000000 0.000000 0.000000 0.000000 -60.708740 0.000000 8.000000 0.408302 0.900542 -0.149379
2.85999990 -21.72999954 0.46000001 229 127 77 0.000000 0.000000 0.000000 0.000000 -60.708740 0.000000 8.000000 0.040330 0.969137 -0.243201
2.89000010 -21.71999931 0.40000001 229 127 77 0.000000 0.000000 0.000000 0.000000 -60.708740 0.000000 8.000000 0.467762 0.883845 -0.003975
2.86999989 -21.70999908 0.44000000 229 127 77 0.000000 0.000000 0.000000 0.000000 -60.708740 0.000000 8.000000 0.265367 0.963045 -0.046097
2.93000007 -21.71999931 0.38000000 229 127 77 0.000000 0.000000 0.000000 0.000000 -60.708740 0.000000 8.000000 0.816121 0.573991 -0.066942
2.94000006 -21.72999954 0.36000001 229 127 77 0.000000 0.000000 0.000000 0.000000 -60.708740 0.000000 8.000000 0.472210 0.881189 -0.022871
2.92000008 -21.71999931 0.34999999 229 127 77 0.000000 0.000000 0.000000 0.000000 -60.708740 0.000000 8.000000 0.575823 0.812503 0.090920
2.84999990 -21.72999954 0.46000001 229 127 77 0.000000 0.000000 0.000000 0.000000 -60.708740 0.000000 8.000000 -0.209162 0.961620 -0.177591
2.82999992 -21.72999954 0.41999999 229 127 77 0.000000 0.000000 0.000000 0.000000 -60.708740 0.000000 8.000000 -0.068702 0.988609 0.133911
2.81999993 -21.72999954 0.41000000 229 127 77 0.000000 0.000000 0.000000 0.000000 -60.708740 0.000000 8.000000 -0.097536 0.983784 -0.150518
2.83999991 -21.72999954 0.40000001 229 127 77 0.000000 0.000000 0.000000 0.000000 -60.708740 0.000000 8.000000 0.141262 0.976333 -0.163764
2.82999992 -21.73999977 0.47000000 229 127 77 0.000000 0.000000 0.000000 0.000000 -60.708740 0.000000 8.000000 -0.423982 0.892519 0.153783
2.83999991 -21.73999977 0.44000000 229 127 77 0.000000 0.000000 0.000000 0.000000 -60.708740 0.000000 8.000000 -0.227597 0.973545 0.020257
2.81999993 -21.75000000 0.44000000 229 127 77 0.000000 0.000000 0.000000 0.000000 -60.708740 0.000000 8.000000 0.002950 0.999991 0.002950
2.83999991 -21.73999977 0.44000000 229 127 77 0.000000 0.000000 0.000000 0.000000 -60.708740 0.000000 8.000000 -0.227597 0.973545 0.020257
2.79999995 -21.76000023 0.47999999 229 127 77 0.000000 0.000000 0.000000 0.000000 -60.708740 0.000000 8.000000 -0.379080 0.925363 -0.001276
2.79999995 -21.77000046 0.44999999 229 127 77 0.000000 0.000000 0.000000 0.000000 -60.708740 0.000000 8.000000 -0.610597 0.767475 -0.195329
2.78999996 -21.77000046 0.47999999 229 127 77 0.000000 0.000000 0.000000 0.000000 -60.708740 0.000000 8.000000 0.863912 -0.491413 0.110317
2.79999995 -21.77000046 0.44999999 229 127 77 0.000000 0.000000 0.000000 0.000000 -60.708740 0.000000 8.000000 -0.610597 0.767475 -0.195329
2.78999996 -21.73999977 0.44000000 229 127 77 0.000000 0.000000 0.000000 0.000000 -60.708740 0.000000 8.000000 0.693379 -0.654768 0.300839
2.77999997 -21.77000046 0.41999999 229 127 77 0.000000 0.000000 0.000000 0.000000 -60.708740 0.000000 8.000000 -0.683483 0.699052 0.210183
2.82999992 -21.73999977 0.36000001 229 127 77 0.000000 0.000000 0.000000 0.000000 -60.708740 0.000000 8.000000 -0.363757 0.923807 -0.119422
2.84999990 -21.73999977 0.37000000 229 127 77 0.000000 0.000000 0.000000 0.000000 -60.708740 0.000000 8.000000 -0.097847 0.967036 -0.235088
2.84999990 -21.73999977 0.37000000 229 127 77 0.000000 0.000000 0.000000 0.000000 -60.708740 0.000000 8.000000 -0.097847 0.967036 -0.235088
2.81999993 -21.73999977 0.38999999 229 127 77 0.000000 0.000000 0.000000 0.000000 -60.708740 0.000000 8.000000 -0.166570 0.972717 0.161484
2.83999991 -21.73999977 0.34999999 229 127 77 0.000000 0.000000 0.000000 0.000000 -60.708740 0.000000 8.000000 0.013350 0.999189 0.037996
2.84999990 -21.73999977 0.34999999 229 127 77 0.000000 0.000000 0.000000 0.000000 -60.708740 0.000000 8.000000 -0.043709 0.981678 -0.185467
2.81999993 -21.76000023 0.33000001 229 127 77 0.000000 0.000000 0.000000 0.000000 -60.708740 0.000000 8.000000 -0.374476 0.921893 -0.099406
2.82999992 -21.73999977 0.34000000 229 127 77 0.000000 0.000000 0.000000 0.000000 -60.708740 0.000000 8.000000 -0.322729 0.938481 0.122880
2.79999995 -21.77000046 0.36000001 229 127 77 0.000000 0.000000 0.000000 0.000000 -60.708740 0.000000 8.000000 0.759391 -0.647420 -0.064598
2.79999995 -21.76000023 0.31999999 229 127 77 0.000000 0.000000 0.000000 0.000000 -60.708740 0.000000 8.000000 -0.375935 0.922994 0.082194
2.79999995 -21.73999977 0.31999999 229 127 77 0.000000 0.000000 0.000000 0.000000 -60.708740 0.000000 8.000000 0.821112 -0.569323 0.040566
2.79999995 -21.77000046 0.34999999 229 127 77 0.000000 0.000000 0.000000 0.000000 -60.708740 0.000000 8.000000 0.781071 -0.623450 0.035183
2.80999994 -21.76000023 0.34999999 229 127 77 0.000000 0.000000 0.000000 0.000000 -60.708740 0.000000 8.000000 -0.666987 0.744964 -0.012532
2.79999995 -21.76000023 0.31999999 229 127 77 0.000000 0.000000 0.000000 0.000000 -60.708740 0.000000 8.000000 -0.375935 0.922994 0.082194
2.79999995 -21.77000046 0.34999999 229 127 77 0.000000 0.000000 0.000000 0.000000 -60.708740 0.000000 8.000000 0.781071 -0.623450 0.035183
2.78999996 -21.78000069 0.47000000 229 127 77 0.000000 0.000000 0.000000 0.000000 -60.708740 0.000000 8.000000 0.850772 -0.402833 0.337509
2.79999995 -21.78000069 0.44000000 229 127 77 0.000000 0.000000 0.000000 0.000000 -60.708740 0.000000 8.000000 -0.704844 0.704844 -0.079931
2.80999994 -21.78000069 0.38999999 229 127 77 0.000000 0.000000 0.000000 0.000000 -60.708740 0.000000 8.000000 -0.610405 0.749205 0.257096
2.77999997 -21.79999924 0.38000000 229 127 77 0.000000 0.000000 0.000000 0.000000 -60.708740 0.000000 8.000000 0.984900 0.125962 -0.118764
2.79999995 -21.79000092 0.34000000 229 127 77 0.000000 0.000000 0.000000 0.000000 -60.708740 0.000000 8.000000 0.978752 -0.003475 0.205017
2.79999995 -21.78000069 0.34000000 229 127 77 0.000000 0.000000 0.000000 0.000000 -60.708740 0.000000 8.000000 0.829625 -0.503316 0.241653
2.76999998 -21.73999977 0.55000001 229 127 77 0.000000 0.000000 0.000000 0.000000 -60.708740 0.000000 8.000000 0.955320 -0.284920 0.078643
2.75000000 -21.80999947 0.62000000 229 127 77 0.000000 0.000000 0.000000 0.000000 -60.708740 0.000000 8.000000 0.999769 0.017081 -0.013062
2.74000001 -21.81999969 0.58999997 229 127 77 0.000000 0.000000 0.000000 0.000000 -60.708740 0.000000 8.000000 0.995293 0.054008 0.080461
2.73000002 -21.81999969 0.63999999 229 127 77 0.000000 0.000000 0.000000 0.000000 -60.708740 0.000000 8.000000 0.898619 0.433580 -0.067020
2.73000002 -21.84000015 0.57999998 229 127 77 0.000000 0.000000 0.000000 0.000000 -60.708740 0.000000 8.000000 0.904380 0.241071 -0.352109
2.75000000 -21.78000069 0.49000001 229 127 77 0.000000 0.000000 0.000000 0.000000 -60.708740 0.000000 8.000000 0.937307 -0.348502 0.001258
2.75999999 -21.80999947 0.49000001 229 127 77 0.000000 0.000000 0.000000 0.000000 -60.708740 0.000000 8.000000 0.990568 0.132453 0.035094
2.75000000 -21.79999924 0.50999999 229 127 77 0.000000 0.000000 0.000000 0.000000 -60.708740 0.000000 8.000000 0.966523 0.241315 -0.087177
2.76999998 -21.79000092 0.51999998 229 127 77 0.000000 0.000000 0.000000 0.000000 -60.708740 0.000000 8.000000 0.949253 0.160229 0.270638
2.72000003 -21.85000038 0.52999997 229 127 77 0.000000 0.000000 0.000000 0.000000 -60.708740 0.000000 8.000000 0.727425 0.680776 -0.086008
2.73000002 -21.81999969 0.52999997 229 127 77 0.000000 0.000000 0.000000 0.000000 -60.708740 0.000000 8.000000 0.909782 0.361894 -0.203295
2.72000003 -21.85000038 0.52999997 229 127 77 0.000000 0.000000 0.000000 0.000000 -60.708740 0.000000 8.000000 0.727425 0.680776 -0.086008
2.73000002 -21.85000038 0.50000000 229 127 77 0.000000 0.000000 0.000000 0.000000 -60.708740 0.000000 8.000000 0.976197 0.211167 0.049474
2.76999998 -21.77000046 0.31999999 229 127 77 0.000000 0.000000 0.000000 0.000000 -60.708740 0.000000 8.000000 0.831764 -0.544348 0.108870
2.76999998 -21.79000092 0.46000001 229 127 77 0.000000 0.000000 0.000000 0.000000 -60.708740 0.000000 8.000000 0.867233 -0.497681 0.014836
2.76999998 -21.79000092 0.44999999 229 127 77 0.000000 0.000000 0.000000 0.000000 -60.708740 0.000000 8.000000 0.953437 -0.280113 0.111782
2.76999998 -21.79000092 0.44999999 229 127 77 0.000000 0.000000 0.000000 0.000000 -60.708740 0.000000 8.000000 0.953437 -0.280113 0.111782
2.76999998 -21.78000069 0.40000001 229 127 77 0.000000 0.000000 0.000000 0.000000 -60.708740 0.000000 8.000000 0.830240 -0.442690 0.338713
2.74000001 -21.80999947 0.41000000 229 127 77 0.000000 0.000000 0.000000 0.000000 -60.708740 0.000000 8.000000 0.972194 0.205535 -0.112225
2.74000001 -21.82999992 0.44999999 229 127 77 0.000000 0.000000 0.000000 0.000000 -60.708740 0.000000 8.000000 0.990417 0.125093 -0.058530
2.74000001 -21.81999969 0.44999999 229 127 77 0.000000 0.000000 0.000000 0.000000 -60.708740 0.000000 8.000000 0.973917 0.189757 0.124410
2.74000001 -21.84000015 0.47000000 229 127 77 0.000000 0.000000 0.000000 0.000000 -60.708740 0.000000 8.000000 0.805706 0.587404 0.076118
2.73000002 -21.84000015 0.47000000 229 127 77 0.000000 0.000000 0.000000 0.000000 -60.708740 0.000000 8.000000 0.974143 0.103526 -0.200816
2.72000003 -21.85000038 0.41999999 229 127 77 0.000000 0.000000 0.000000 0.000000 -60.708740 0.000000 8.000000 0.712291 0.691472 0.120450
2.72000003 -21.85000038 0.41000000 229 127 77 0.000000 0.000000 0.000000 0.000000 -60.708740 0.000000 8.000000 0.692358 0.704478 0.156046
