//X Y Z R G B PointSourceId ScanDirectionFlag NumberOfReturns ReturnNumber GpsTime Intensity Classification Nx Ny Nz
-16.70000076 -8.85999966 -0.73000002 219 129 81 97.000000 1.000000 4.000000 1.000000 -60.708740 114.000000 178.000000 0.842504 0.538606 0.009497
-16.70000076 -8.88000011 -0.69999999 219 129 81 97.000000 1.000000 4.000000 1.000000 -60.708740 114.000000 178.000000 0.801502 0.575939 0.160902
-16.71999931 -8.85999966 -0.75999999 219 129 81 97.000000 1.000000 4.000000 1.000000 -60.708740 114.000000 178.000000 0.849783 0.499785 -0.167584
-16.70999908 -8.86999989 -0.74000001 219 129 81 97.000000 1.000000 4.000000 1.000000 -60.708740 114.000000 178.000000 0.727425 0.680776 -0.086008
-16.72999954 -8.84000015 -0.87000000 219 129 81 97.000000 1.000000 4.000000 1.000000 -60.708740 114.000000 178.000000 0.845288 0.484106 -0.226118
-16.72999954 -8.81999969 -0.92000002 219 129 81 97.000000 1.000000 4.000000 1.000000 -60.708740 114.000000 178.000000 0.835142 0.369601 -0.407348
-16.73999977 -8.80000019 -0.88999999 219 129 81 97.000000 1.000000 4.000000 1.000000 -60.708740 114.000000 178.000000 0.731984 0.544465 -0.409582
-16.73999977 -8.80000019 -0.88999999 219 129 81 97.000000 1.000000 4.000000 1.000000 -60.708740 114.000000 178.000000 0.731984 0.544465 -0.409582
-16.75000000 -8.77999973 -0.88999999 219 129 81 97.000000 1.000000 4.000000 1.000000 -60.708740 114.000000 178.000000 0.991358 0.079263 0.104535
-16.76000023 -8.77999973 -0.88000000 219 129 81 97.000000 1.000000 4.000000 1.000000 -60.708740 114.000000 178.000000 0.956375 0.236093 -0.172067
-16.75000000 -8.77000046 -0.86000001 219 129 81 97.000000 1.000000 4.000000 1.000000 -60.708740 114.000000 178.000000 0.942749 0.332809 -0.021512
-16.76000023 -8.77000046 -0.88999999 219 129 81 97.000000 1.000000 4.000000 1.000000 -60.708740 114.000000 178.000000 0.983340 0.104970 -0.148406
-16.73999977 -8.80000019 -0.88999999 219 129 81 97.000000 1.000000 4.000000 1.000000 -60.708740 114.000000 178.000000 0.731984 0.544465 -0.409582
-16.75000000 -8.78999996 -0.88999999 219 129 81 97.000000 1.000000 4.000000 1.000000 -60.708740 114.000000 178.000000 0.861568 0.436102 -0.259838
-16.75000000 -8.77000046 -0.88000000 219 129 81 97.000000 1.000000 4.000000 1.000000 -60.708740 114.000000 178.000000 0.990034 0.133603 -0.044534
-16.75000000 -8.77000046 -0.87000000 219 129 81 97.000000 1.000000 4.000000 1.000000 -60.708740 114.000000 178.000000 0.950907 0.296099 -0.090004
-16.75000000 -8.80000019 -0.89999998 219 129 81 97.000000 1.000000 4.000000 1.000000 -60.708740 114.000000 178.000000 0.774620 0.464772 -0.428895
-16.75000000 -8.77999973 -0.86000001 219 129 81 97.000000 1.000000 4.000000 1.000000 -60.708740 114.000000 178.000000 0.959821 0.242910 -0.140494
-16.76000023 -8.77000046 -0.86000001 219 129 81 97.000000 1.000000 4.000000 1.000000 -60.708740 114.000000 178.000000 0.931607 0.360916 -0.042997
-16.73999977 -8.78999996 -0.93000001 219 129 81 97.000000 1.000000 4.000000 1.000000 -60.708740 114.000000 178.000000 0.787982 0.351462 -0.505528
-16.76000023 -8.77000046 -0.94000000 219 129 81 97.000000 1.000000 4.000000 1.000000 -60.708740 114.000000 178.000000 0.775083 0.482599 -0.407853
-16.73999977 -8.80000019 -0.93000001 219 129 81 97.000000 1.000000 4.000000 1.000000 -60.708740 114.000000 178.000000 0.851217 0.393707 -0.347023
-16.75000000 -8.77999973 -0.94000000 219 129 81 97.000000 1.000000 4.000000 1.000000 -60.708740 114.000000 178.000000 0.878855 0.453182 -0.149130
-16.75000000 -8.80000019 -0.94000000 219 129 81 97.000000 1.000000 4.000000 1.000000 -60.708740 114.000000 178.000000 0.865944 0.496215 -0.062548
-16.75000000 -8.77999973 -0.93000001 219 129 81 97.000000 1.000000 4.000000 1.000000 -60.708740 114.000000 178.000000 0.870951 0.418117 -0.258115
-16.76000023 -8.78999996 -0.92000002 219 129 81 97.000000 1.000000 4.000000 1.000000 -60.708740 114.000000 178.000000 0.996168 -0.086670 0.011770
-16.75000000 -8.77999973 -0.94000000 219 129 81 97.000000 1.000000 4.000000 1.000000 -60.708740 114.000000 178.000000 0.878855 0.453182 -0.149130
-16.70000076 -8.78999996 -1.01999998 219 129 81 97.000000 1.000000 4.000000 1.000000 -60.708740 114.000000 178.000000 0.815741 0.560172 0.144129
-16.72999954 -8.81000042 -0.99000001 219 129 81 97.000000 1.000000 4.000000 1.000000 -60.708740 114.000000 178.000000 0.877806 0.462531 0.124583
-16.70999908 -8.82999992 -0.99000001 219 129 81 97.000000 1.000000 4.000000 1.000000 -60.708740 114.000000 178.000000 0.790386 0.431561 -0.434793
-16.72999954 -8.82999992 -0.99000001 219 129 81 97.000000 1.000000 4.000000 1.000000 -60.708740 114.000000 178.000000 0.822055 0.494481 -0.282338
-16.77000046 -8.77000046 -0.97000003 219 129 81 97.000000 1.000000 4.000000 1.000000 -60.708740 114.000000 178.000000 0.827194 0.029097 -0.561162
-16.75000000 -8.78999996 -0.94999999 219 129 81 97.000000 1.000000 4.000000 1.000000 -60.708740 114.000000 178.000000 0.958914 0.278476 0.054183
-16.75000000 -8.80000019 -0.95999998 219 129 81 97.000000 1.000000 4.000000 1.000000 -60.708740 114.000000 178.000000 0.954408 0.239606 -0.178031
-16.75000000 -8.80000019 -0.95999998 219 129 81 97.000000 1.000000 4.000000 1.000000 -60.708740 114.000000 178.000000 0.954408 0.239606 -0.178031
-16.73999977 -8.80000019 -0.94999999 219 129 81 97.000000 1.000000 4.000000 1.000000 -60.708740 114.000000 178.000000 0.885962 0.439380 -0.148381
-16.75000000 -8.77999973 -0.95999998 219 129 81 97.000000 1.000000 4.000000 1.000000 -60.708740 114.000000 178.000000 0.964781 0.262235 -0.020735
-16.75000000 -8.77000046 -0.97000003 219 129 81 97.000000 1.000000 4.000000 1.000000 -60.708740 114.000000 178.000000 0.994143 -0.070610 -0.081818
-16.75000000 -8.78999996 -0.98000002 219 129 81 97.000000 1.000000 4.000000 1.000000 -60.708740 114.000000 178.000000 0.977094 0.182044 0.110217
-16.78000069 -8.80000019 -1.00999999 219 129 81 97.000000 1.000000 4.000000 1.000000 -60.708740 114.000000 178.000000 0.932824 0.360149 -0.011454
-16.75000000 -8.78999996 -0.99000001 219 129 81 97.000000 1.000000 4.000000 1.000000 -60.708740 114.000000 178.000000 0.971054 0.223705 0.083733
-16.75000000 -8.77999973 -1.00000000 219 129 81 97.000000 1.000000 4.000000 1.000000 -60.708740 114.000000 178.000000 0.901797 0.428590 0.055433
-16.75000000 -8.77999973 -1.00999999 219 129 81 97.000000 1.000000 4.000000 1.000000 -60.708740 114.000000 178.000000 0.797909 0.601587 0.037862
-16.75000000 -8.78999996 -1.00000000 219 129 81 97.000000 1.000000 4.000000 1.000000 -60.708740 114.000000 178.000000 0.907896 0.368066 0.200632
-16.70000076 -8.97999954 -0.89999998 219 129 81 97.000000 1.000000 4.000000 1.000000 -60.708740 114.000000 178.000000 0.810216 0.581583 0.072877
-16.70000076 -8.97000027 -0.91000003 219 129 81 97.000000 1.000000 4.000000 1.000000 -60.708740 114.000000 178.000000 0.767167 0.566204 0.301444
-16.70000076 -8.96000004 -0.98000002 219 129 81 97.000000 1.000000 4.000000 1.000000 -60.708740 114.000000 178.000000 0.803771 0.584161 -0.112733
-16.70000076 -8.96000004 -0.98000002 219 129 81 97.000000 1.000000 4.000000 1.000000 -60.708740 114.000000 178.000000 0.803771 0.584161 -0.112733
-16.70000076 -8.94999981 -0.98000002 219 129 81 97.000000 1.000000 4.000000 1.000000 -60.708740 114.000000 178.000000 0.849354 0.498307 0.174036
-16.70999908 -8.94999981 -1.00999999 219 129 81 97.000000 1.000000 4.000000 1.000000 -60.708740 114.000000 178.000000 0.869958 0.493110 -0.004009
-16.72999954 -8.93999958 -0.99000001 219 129 81 97.000000 1.000000 4.000000 1.000000 -60.708740 114.000000 178.000000 0.823510 0.553410 0.124774
-16.72999954 -8.93999958 -1.01999998 219 129 81 97.000000 1.000000 4.000000 1.000000 -60.708740 114.000000 178.000000 0.901476 0.413353 -0.128379
-16.71999931 -8.94999981 -1.00999999 219 129 81 97.000000 1.000000 4.000000 1.000000 -60.708740 114.000000 178.000000 0.700982 0.709654 -0.070821
-16.70999908 -8.96000004 -1.00999999 219 129 81 97.000000 1.000000 4.000000 1.000000 -60.708740 114.000000 178.000000 0.769491 0.638216 -0.023741
-16.70999908 -8.97000027 -0.99000001 219 129 81 97.000000 1.000000 4.000000 1.000000 -60.708740 114.000000 178.000000 0.522739 0.834286 0.175245
-16.71999931 -8.93999958 -0.99000001 219 129 81 97.000000 1.000000 4.000000 1.000000 -60.708740 114.000000 178.000000 0.680398 0.732842 -0.001380
-16.67000008 -8.77999973 -1.10000002 219 129 81 97.000000 1.000000 4.000000 1.000000 -60.708740 114.000000 178.000000 0.943828 0.252147 -0.213567
-16.69000053 -8.85000038 -1.10000002 219 129 81 97.000000 1.000000 4.000000 1.000000 -60.708740 114.000000 178.000000 0.405796 0.894497 0.187626
-16.69000053 -8.85000038 -1.09000003 219 129 81 97.000000 1.000000 4.000000 1.000000 -60.708740 114.000000 178.000000 0.583479 0.766903 0.267230
-16.69000053 -8.85000038 -1.09000003 219 129 81 97.000000 1.000000 4.000000 1.000000 -60.708740 114.000000 178.000000 0.583479 0.766903 0.267230
-16.69000053 -8.81000042 -1.10000002 219 129 81 97.000000 1.000000 4.000000 1.000000 -60.708740 114.000000 178.000000 0.857070 0.505085 -0.101589
-16.68000031 -8.81999969 -1.11000001 219 129 81 97.000000 1.000000 4.000000 1.000000 -60.708740 114.000000 178.000000 0.762843 0.646547 -0.006922
-16.65999985 -8.77999973 -1.12000000 219 129 81 97.000000 1.000000 4.000000 1.000000 -60.708740 114.000000 178.000000 0.908004 0.415664 -0.052462
-16.67000008 -8.82999992 -1.13000000 219 129 81 97.000000 1.000000 4.000000 1.000000 -60.708740 114.000000 178.000000 0.339036 0.916970 0.210288
-16.67000008 -8.82999992 -1.12000000 219 129 81 97.000000 1.000000 4.000000 1.000000 -60.708740 114.000000 178.000000 0.376927 0.905492 -0.194962
-16.65999985 -8.85999966 -1.03999996 219 129 81 97.000000 1.000000 4.000000 1.000000 -60.708740 114.000000 178.000000 0.323816 0.939201 0.114209
-16.65999985 -8.86999989 -1.02999997 219 129 81 97.000000 1.000000 4.000000 1.000000 -60.708740 114.000000 178.000000 0.347689 0.922010 0.170325
-16.68000031 -8.85999966 -1.09000003 219 129 81 97.000000 1.000000 4.000000 1.000000 -60.708740 114.000000 178.000000 0.445303 0.894643 0.036324
-16.70000076 -8.77000046 -1.03999996 219 129 81 97.000000 1.000000 4.000000 1.000000 -60.708740 114.000000 178.000000 0.943402 -0.066547 -0.324906
-16.72999954 -8.81000042 -1.02999997 219 129 81 97.000000 1.000000 4.000000 1.000000 -60.708740 114.000000 178.000000 0.961580 0.088348 -0.259921
-16.72999954 -8.81000042 -1.02999997 219 129 81 97.000000 1.000000 4.000000 1.000000 -60.708740 114.000000 178.000000 0.961580 0.088348 -0.259921
-16.75000000 -8.78999996 -1.02999997 219 129 81 97.000000 1.000000 4.000000 1.000000 -60.708740 114.000000 178.000000 0.856290 0.512656 0.062860
-16.73999977 -8.78999996 -1.02999997 219 129 81 97.000000 1.000000 4.000000 1.000000 -60.708740 114.000000 178.000000 0.777874 0.600598 -0.184917
-16.76000023 -8.77999973 -1.05999994 219 129 81 97.000000 1.000000 4.000000 1.000000 -60.708740 114.000000 178.000000 -0.927039 0.046023 0.372130
-16.77000046 -8.77000046 -1.07000005 219 129 81 97.000000 1.000000 4.000000 1.000000 -60.708740 114.000000 178.000000 0.859603 0.505070 0.077378
-16.77000046 -8.78999996 -1.11000001 219 129 81 97.000000 1.000000 4.000000 1.000000 -60.708740 114.000000 178.000000 0.879534 0.288149 -0.378668
-16.77000046 -8.77999973 -1.07000005 219 129 81 97.000000 1.000000 4.000000 1.000000 -60.708740 114.000000 178.000000 0.928068 0.076115 -0.364550
-16.77000046 -8.77000046 -1.07000005 219 129 81 97.000000 1.000000 4.000000 1.000000 -60.708740 114.000000 178.000000 0.859603 0.505070 0.077378
-16.77000046 -8.77000046 -1.07000005 219 129 81 97.000000 1.000000 4.000000 1.000000 -60.708740 114.000000 178.000000 0.859603 0.505070 0.077378
-16.75000000 -8.84000015 -1.04999995 219 129 81 97.000000 1.000000 4.000000 1.000000 -60.708740 114.000000 178.000000 0.864440 0.445043 -0.233836
-16.76000023 -8.81000042 -1.04999995 219 129 81 97.000000 1.000000 4.000000 1.000000 -60.708740 114.000000 178.000000 0.730137 0.518215 -0.445367
-16.78000069 -8.77999973 -1.13000000 219 129 81 97.000000 1.000000 4.000000 1.000000 -60.708740 114.000000 178.000000 0.817878 0.252968 -0.516800
-16.78000069 -8.78999996 -1.13000000 219 129 81 97.000000 1.000000 4.000000 1.000000 -60.708740 114.000000 178.000000 0.861816 0.150708 -0.484314
-16.73999977 -8.93000031 -1.09000003 219 129 81 97.000000 1.000000 4.000000 1.000000 -60.708740 114.000000 178.000000 0.623218 0.688993 0.369984
-16.75000000 -8.92000008 -1.08000004 219 129 81 97.000000 1.000000 4.000000 1.000000 -60.708740 114.000000 178.000000 0.898220 0.428980 0.095792
-16.77000046 -8.92000008 -1.08000004 219 129 81 97.000000 1.000000 4.000000 1.000000 -60.708740 114.000000 178.000000 0.794612 0.600663 0.088290
-16.75000000 -8.92000008 -1.08000004 219 129 81 97.000000 1.000000 4.000000 1.000000 -60.708740 114.000000 178.000000 0.898220 0.428980 0.095792
-16.73999977 -8.93000031 -1.13000000 219 129 81 97.000000 1.000000 4.000000 1.000000 -60.708740 114.000000 178.000000 0.612799 0.781135 0.119607
-16.75000000 -8.93000031 -1.14999998 219 129 81 97.000000 1.000000 4.000000 1.000000 -60.708740 114.000000 178.000000 0.360916 0.931607 0.042997
-16.71999931 -8.94999981 -1.02999997 219 129 81 97.000000 1.000000 4.000000 1.000000 -60.708740 114.000000 178.000000 0.676929 0.719331 -0.155981
-16.72999954 -8.93999958 -1.03999996 219 129 81 97.000000 1.000000 4.000000 1.000000 -60.708740 114.000000 178.000000 0.889428 0.445417 -0.102572
-16.72999954 -8.93999958 -1.04999995 219 129 81 97.000000 1.000000 4.000000 1.000000 -60.708740 114.000000 178.000000 0.740086 0.667386 -0.082878
-16.71999931 -8.94999981 -1.03999996 219 129 81 97.000000 1.000000 4.000000 1.000000 -60.708740 114.000000 178.000000 0.754452 0.648975 0.098152
-16.72999954 -8.93999958 -1.05999994 219 129 81 97.000000 1.000000 4.000000 1.000000 -60.708740 114.000000 178.000000 0.556696 0.830209 -0.029009
-16.72999954 -8.93999958 -1.08000004 219 129 81 97.000000 1.000000 4.000000 1.000000 -60.708740 114.000000 178.000000 0.393128 0.878137 0.272629
-16.73999977 -8.93999958 -1.07000005 219 129 81 97.000000 1.000000 4.000000 1.000000 -60.708740 114.000000 178.000000 0.774845 0.628214 -0.070440
-16.73999977 -8.94999981 -1.11000001 219 129 81 97.000000 1.000000 4.000000 1.000000 -60.708740 114.000000 178.000000 0.539564 0.814696 0.212463
-16.75000000 -8.93999958 -1.13999999 219 129 81 97.000000 1.000000 4.000000 1.000000 -60.708740 114.000000 178.000000 0.378615 0.925070 0.029925
-16.73999977 -8.93999958 -1.13000000 219 129 81 97.000000 1.000000 4.000000 1.000000 -60.708740 114.000000 178.000000 0.551929 0.828614 0.093669
-16.87000084 -8.61999989 -1.00000000 219 129 81 97.000000 1.000000 4.000000 1.000000 -60.708740 114.000000 178.000000 0.802949 -0.097283 -0.588055
-16.87000084 -8.61999989 -1.00999999 219 129 81 97.000000 1.000000 4.000000 1.000000 -60.708740 114.000000 178.000000 0.973532 0.010646 -0.228301
-16.87000084 -8.56999969 -1.09000003 219 129 81 97.000000 1.000000 4.000000 1.000000 -60.708740 114.000000 178.000000 0.929753 -0.366974 0.029825
-16.87999916 -8.56999969 -1.02999997 219 129 81 97.000000 1.000000 4.000000 1.000000 -60.708740 114.000000 178.000000 -0.677385 0.667684 0.308784
-16.50000000 -9.14000034 -0.04000000 219 129 81 97.000000 1.000000 4.000000 1.000000 -60.708740 114.000000 178.000000 0.687660 0.696974 -0.203349
-16.48999977 -9.15999985 -0.08000000 219 129 81 97.000000 1.000000 4.000000 1.000000 -60.708740 114.000000 178.000000 0.490473 0.870896 0.031249
-16.48999977 -9.15999985 -0.08000000 219 129 81 97.000000 1.000000 4.000000 1.000000 -60.708740 114.000000 178.000000 0.490473 0.870896 0.031249
-16.51000023 -9.11999989 -0.13000000 219 129 81 97.000000 1.000000 4.000000 1.000000 -60.708740 114.000000 178.000000 0.783360 0.603622 -0.148284
-16.48999977 -9.11999989 -0.17000000 219 129 81 97.000000 1.000000 4.000000 1.000000 -60.708740 114.000000 178.000000 0.292993 0.939504 0.177447
-16.53000069 -9.17000008 -0.17000000 219 129 81 97.000000 1.000000 4.000000 1.000000 -60.708740 114.000000 178.000000 0.485786 0.834317 -0.260628
-16.51000023 -9.18999958 -0.10000000 219 129 81 97.000000 1.000000 4.000000 1.000000 -60.708740 114.000000 178.000000 0.437430 0.895559 0.081414
-16.53000069 -9.18999958 -0.10000000 219 129 81 97.000000 1.000000 4.000000 1.000000 -60.708740 114.000000 178.000000 0.612844 0.789545 -0.032255
-16.51000023 -9.21000004 -0.07000000 219 129 81 97.000000 1.000000 4.000000 1.000000 -60.708740 114.000000 178.000000 0.631984 0.715605 -0.297499
-16.51000023 -9.21000004 -0.07000000 219 129 81 97.000000 1.000000 4.000000 1.000000 -60.708740 114.000000 178.000000 0.631984 0.715605 -0.297499
-16.53000069 -9.18999958 -0.11000000 219 129 81 97.000000 1.000000 4.000000 1.000000 -60.708740 114.000000 178.000000 0.404292 0.889441 0.213172
-16.53000069 -9.19999981 -0.14000000 219 129 81 97.000000 1.000000 4.000000 1.000000 -60.708740 114.000000 178.000000 0.436174 0.899854 0.003929
-16.53000069 -9.19999981 -0.14000000 219 129 81 97.000000 1.000000 4.000000 1.000000 -60.708740 114.000000 178.000000 0.436174 0.899854 0.003929
-16.53000069 -9.19999981 -0.12000000 219 129 81 97.000000 1.000000 4.000000 1.000000 -60.708740 114.000000 178.000000 0.776160 0.586398 -0.231759
-16.52000046 -9.13000011 -0.25000000 219 129 81 97.000000 1.000000 4.000000 1.000000 -60.708740 114.000000 178.000000 0.467737 0.806167 -0.362376
-16.54000092 -9.18999958 -0.15000001 219 129 81 97.000000 1.000000 4.000000 1.000000 -60.708740 114.000000 178.000000 0.777440 0.626232 0.058486
-16.55999947 -9.19999981 -0.18000001 219 129 81 97.000000 1.000000 4.000000 1.000000 -60.708740 114.000000 178.000000 0.761625 0.637399 0.116832
-16.55999947 -9.14000034 -0.23999999 219 129 81 97.000000 1.000000 4.000000 1.000000 -60.708740 114.000000 178.000000 0.889665 0.437003 -0.132382
-16.56999969 -9.11999989 -0.25999999 219 129 81 97.000000 1.000000 4.000000 1.000000 -60.708740 114.000000 178.000000 0.797798 0.586046 0.141665
-16.56999969 -9.13000011 -0.25000000 219 129 81 97.000000 1.000000 4.000000 1.000000 -60.708740 114.000000 178.000000 0.887631 0.460401 -0.011941
-16.55999947 -9.14000034 -0.25999999 219 129 81 97.000000 1.000000 4.000000 1.000000 -60.708740 114.000000 178.000000 0.644410 0.693106 0.323017
-16.55999947 -9.13000011 -0.25000000 219 129 81 97.000000 1.000000 4.000000 1.000000 -60.708740 114.000000 178.000000 0.762033 0.625141 -0.168834
-16.56999969 -9.11999989 -0.25999999 219 129 81 97.000000 1.000000 4.000000 1.000000 -60.708740 114.000000 178.000000 0.797798 0.586046 0.141665
-16.55999947 -9.13000011 -0.23000000 219 129 81 97.000000 1.000000 4.000000 1.000000 -60.708740 114.000000 178.000000 0.816891 0.486357 -0.310072
-16.55999947 -9.15999985 -0.20000000 219 129 81 97.000000 1.000000 4.000000 1.000000 -60.708740 114.000000 178.000000 0.660589 0.704945 0.258216
-16.56999969 -9.14999962 -0.19000000 219 129 81 97.000000 1.000000 4.000000 1.000000 -60.708740 114.000000 178.000000 0.858740 0.507373 -0.071679
-16.56999969 -9.15999985 -0.20000000 219 129 81 97.000000 1.000000 4.000000 1.000000 -60.708740 114.000000 178.000000 0.710605 0.676694 0.192680
-16.54999924 -9.14999962 -0.25000000 219 129 81 97.000000 1.000000 4.000000 1.000000 -60.708740 114.000000 178.000000 0.643640 0.734031 -0.216625
-16.54000092 -9.14999962 -0.25999999 219 129 81 97.000000 1.000000 4.000000 1.000000 -60.708740 114.000000 178.000000 0.465392 0.793903 0.391315
-16.54999924 -9.14999962 -0.27000001 219 129 81 97.000000 1.000000 4.000000 1.000000 -60.708740 114.000000 178.000000 0.418076 0.876610 0.238258
-16.54999924 -9.14999962 -0.25999999 219 129 81 97.000000 1.000000 4.000000 1.000000 -60.708740 114.000000 178.000000 0.452981 0.891519 -0.001313
-16.54999924 -9.14999962 -0.25000000 219 129 81 97.000000 1.000000 4.000000 1.000000 -60.708740 114.000000 178.000000 0.643640 0.734031 -0.216625
-16.57999992 -9.11999989 -0.25000000 219 129 81 97.000000 1.000000 4.000000 1.000000 -60.708740 114.000000 178.000000 0.828805 0.483599 -0.281451
-16.57999992 -9.10999966 -0.27000001 219 129 81 97.000000 1.000000 4.000000 1.000000 -60.708740 114.000000 178.000000 0.862436 0.445567 0.240153
-16.57999992 -9.10999966 -0.25000000 219 129 81 97.000000 1.000000 4.000000 1.000000 -60.708740 114.000000 178.000000 0.511984 0.788039 -0.341858
-16.57999992 -9.14999962 -0.22000000 219 129 81 97.000000 1.000000 4.000000 1.000000 -60.708740 114.000000 178.000000 0.802901 0.594062 0.049388
-16.55999947 -9.11999989 -0.31000000 219 129 81 97.000000 1.000000 4.000000 1.000000 -60.708740 114.000000 178.000000 0.661268 0.745562 0.082840
-16.56999969 -9.10999966 -0.31000000 219 129 81 97.000000 1.000000 4.000000 1.000000 -60.708740 114.000000 178.000000 0.672956 0.724373 0.149714
-16.54999924 -9.14000034 -0.28000000 219 129 81 97.000000 1.000000 4.000000 1.000000 -60.708740 114.000000 178.000000 0.555949 0.802353 0.217143
-16.55999947 -9.13000011 -0.31000000 219 129 81 97.000000 1.000000 4.000000 1.000000 -60.708740 114.000000 178.000000 0.600256 0.777431 0.187866
-16.56999969 -9.10999966 -0.30000001 219 129 81 97.000000 1.000000 4.000000 1.000000 -60.708740 114.000000 178.000000 0.634837 0.684049 0.359249
-16.56999969 -9.11999989 -0.28000000 219 129 81 97.000000 1.000000 4.000000 1.000000 -60.708740 114.000000 178.000000 0.834809 0.549617 0.031842
-16.55999947 -9.10999966 -0.34999999 219 129 81 97.000000 1.000000 4.000000 1.000000 -60.708740 114.000000 178.000000 0.668505 0.709210 0.223879
-16.56999969 -9.10999966 -0.34000000 219 129 81 97.000000 1.000000 4.000000 1.000000 -60.708740 114.000000 178.000000 0.335208 0.941408 0.037245
-16.56999969 -9.10999966 -0.34000000 219 129 81 97.000000 1.000000 4.000000 1.000000 -60.708740 114.000000 178.000000 0.335208 0.941408 0.037245
-16.54999924 -9.11999989 -0.33000001 219 129 81 97.000000 1.000000 4.000000 1.000000 -60.708740 114.000000 178.000000 0.502954 0.859981 0.086423
-16.54999924 -9.14999962 -0.28000000 219 129 81 97.000000 1.000000 4.000000 1.000000 -60.708740 114.000000 178.000000 0.344688 0.886555 0.308563
-16.57999992 -9.13000011 -0.30000001 219 129 81 97.000000 1.000000 4.000000 1.000000 -60.708740 114.000000 178.000000 0.440725 0.879985 -0.177168
-16.51000023 -9.01000023 -0.17000000 219 129 81 97.000000 1.000000 4.000000 1.000000 -60.708740 114.000000 178.000000 0.971830 0.224078 -0.073042
-16.45999908 -9.09000015 -0.14000000 219 129 81 97.000000 1.000000 4.000000 1.000000 -60.708740 114.000000 178.000000 0.506618 0.755828 -0.414804
-16.47999954 -9.07999992 -0.17000000 219 129 81 97.000000 1.000000 4.000000 1.000000 -60.708740 114.000000 178.000000 0.513932 0.773329 -0.371263
-16.53000069 -9.00000000 -0.33000001 219 129 81 97.000000 1.000000 4.000000 1.000000 -60.708740 114.000000 178.000000 0.813063 0.580759 -0.040583
-16.46999931 -9.09000015 -0.19000000 219 129 81 97.000000 1.000000 4.000000 1.000000 -60.708740 114.000000 178.000000 0.330472 0.942169 -0.055727
-16.47999954 -9.09000015 -0.19000000 219 129 81 97.000000 1.000000 4.000000 1.000000 -60.708740 114.000000 178.000000 0.850448 0.522598 0.060246
-16.47999954 -9.06999969 -0.22000000 219 129 81 97.000000 1.000000 4.000000 1.000000 -60.708740 114.000000 178.000000 0.730422 0.639315 -0.240332
-16.47999954 -9.06999969 -0.22000000 219 129 81 97.000000 1.000000 4.000000 1.000000 -60.708740 114.000000 178.000000 0.730422 0.639315 -0.240332
-16.47999954 -9.09000015 -0.20000000 219 129 81 97.000000 1.000000 4.000000 1.000000 -60.708740 114.000000 178.000000 0.803086 0.592720 -0.061120
-16.52000046 -9.05000019 -0.20000000 219 129 81 97.000000 1.000000 4.000000 1.000000 -60.708740 114.000000 178.000000 0.754947 0.617967 0.219480
-16.53000069 -9.03999996 -0.27000001 219 129 81 97.000000 1.000000 4.000000 1.000000 -60.708740 114.000000 178.000000 0.598468 0.748484 0.285669
-16.51000023 -9.03999996 -0.23000000 219 129 81 97.000000 1.000000 4.000000 1.000000 -60.708740 114.000000 178.000000 0.639590 0.768348 -0.023792
-16.51000023 -9.02999973 -0.25000000 219 129 81 97.000000 1.000000 4.000000 1.000000 -60.708740 114.000000 178.000000 0.423961 0.905071 -0.033226
-16.52000046 -8.90999985 -0.38000000 219 129 81 97.000000 1.000000 4.000000 1.000000 -60.708740 114.000000 178.000000 0.960753 0.250914 0.118306
-16.53000069 -9.01000023 -0.40000001 219 129 81 97.000000 1.000000 4.000000 1.000000 -60.708740 114.000000 178.000000 0.667492 0.733196 -0.129915
-16.53000069 -9.02000046 -0.38999999 219 129 81 97.000000 1.000000 4.000000 1.000000 -60.708740 114.000000 178.000000 0.771946 0.565032 0.291270
-16.68000031 -8.76000023 -0.69000000 219 129 81 97.000000 1.000000 4.000000 1.000000 -60.708740 114.000000 178.000000 0.990281 -0.125076 -0.060817
-16.70000076 -8.71000004 -0.68000001 219 129 81 97.000000 1.000000 4.000000 1.000000 -60.708740 114.000000 178.000000 0.963743 -0.262387 -0.048498
-16.54999924 -9.10000038 -0.16000000 219 129 81 97.000000 1.000000 4.000000 1.000000 -60.708740 114.000000 178.000000 0.765018 0.630805 0.129740
-16.54999924 -9.10000038 -0.18000001 219 129 81 97.000000 1.000000 4.000000 1.000000 -60.708740 114.000000 178.000000 0.793299 0.495211 -0.354180
-16.54999924 -8.97999954 -0.33000001 219 129 81 97.000000 1.000000 4.000000 1.000000 -60.708740 114.000000 178.000000 0.919923 0.336973 -0.200478
-16.61000061 -9.01000023 -0.31999999 219 129 81 97.000000 1.000000 4.000000 1.000000 -60.708740 114.000000 178.000000 0.672462 0.609366 -0.420081
-16.61000061 -9.01000023 -0.31999999 219 129 81 97.000000 1.000000 4.000000 1.000000 -60.708740 114.000000 178.000000 0.672462 0.609366 -0.420081
-16.59000015 -9.05000019 -0.23999999 219 129 81 97.000000 1.000000 4.000000 1.000000 -60.708740 114.000000 178.000000 0.751240 0.580723 -0.313687
-16.60000038 -9.07999992 -0.25999999 219 129 81 97.000000 1.000000 4.000000 1.000000 -60.708740 114.000000 178.000000 0.907813 0.309448 -0.283050
-16.60000038 -9.10000038 -0.27000001 219 129 81 97.000000 1.000000 4.000000 1.000000 -60.708740 114.000000 178.000000 0.903367 0.392082 0.173780
-16.57999992 -9.09000015 -0.27000001 219 129 81 97.000000 1.000000 4.000000 1.000000 -60.708740 114.000000 178.000000 0.860242 0.447569 -0.244266
-16.54000092 -9.05000019 -0.31999999 219 129 81 97.000000 1.000000 4.000000 1.000000 -60.708740 114.000000 178.000000 0.562920 0.823820 -0.066643
-16.56999969 -9.10000038 -0.31000000 219 129 81 97.000000 1.000000 4.000000 1.000000 -60.708740 114.000000 178.000000 0.793462 0.606097 0.055358
-16.56999969 -9.10000038 -0.34000000 219 129 81 97.000000 1.000000 4.000000 1.000000 -60.708740 114.000000 178.000000 0.817540 0.520815 -0.245726
-16.59000015 -9.02000046 -0.30000001 219 129 81 97.000000 1.000000 4.000000 1.000000 -60.708740 114.000000 178.000000 0.755593 0.509738 -0.411396
-16.60000038 -9.02999973 -0.34000000 219 129 81 97.000000 1.000000 4.000000 1.000000 -60.708740 114.000000 178.000000 0.883424 0.464452 -0.062019
-16.60000038 -9.09000015 -0.31000000 219 129 81 97.000000 1.000000 4.000000 1.000000 -60.708740 114.000000 178.000000 0.862728 0.504511 0.034181
-16.60000038 -9.09000015 -0.30000001 219 129 81 97.000000 1.000000 4.000000 1.000000 -60.708740 114.000000 178.000000 0.735225 0.670654 0.098323
-16.59000015 -9.10000038 -0.28999999 219 129 81 97.000000 1.000000 4.000000 1.000000 -60.708740 114.000000 178.000000 0.474392 0.868993 -0.140722
-16.57999992 -9.10000038 -0.28999999 219 129 81 97.000000 1.000000 4.000000 1.000000 -60.708740 114.000000 178.000000 0.653230 0.745908 0.130048
-16.57999992 -9.10000038 -0.28000000 219 129 81 97.000000 1.000000 4.000000 1.000000 -60.708740 114.000000 178.000000 0.798018 0.581606 -0.157800
-16.61000061 -9.07999992 -0.31999999 219 129 81 97.000000 1.000000 4.000000 1.000000 -60.708740 114.000000 178.000000 0.853977 0.519514 -0.028786
-16.60000038 -9.09000015 -0.31999999 219 129 81 97.000000 1.000000 4.000000 1.000000 -60.708740 114.000000 178.000000 0.899132 0.436949 0.025234
-16.59000015 -9.09000015 -0.34999999 219 129 81 97.000000 1.000000 4.000000 1.000000 -60.708740 114.000000 178.000000 0.704039 0.709660 -0.026700
-16.62000084 -9.00000000 -0.34000000 219 129 81 97.000000 1.000000 4.000000 1.000000 -60.708740 114.000000 178.000000 0.851181 0.278596 -0.444831
-16.62999916 -9.06000042 -0.34999999 219 129 81 97.000000 1.000000 4.000000 1.000000 -60.708740 114.000000 178.000000 0.818899 0.443636 -0.364132
-16.62999916 -9.02000046 -0.34999999 219 129 81 97.000000 1.000000 4.000000 1.000000 -60.708740 114.000000 178.000000 0.826958 0.559289 -0.057760
-16.62000084 -9.03999996 -0.31999999 219 129 81 97.000000 1.000000 4.000000 1.000000 -60.708740 114.000000 178.000000 0.887024 0.396709 -0.236243
-16.60000038 -8.84000015 -0.50999999 219 129 81 97.000000 1.000000 4.000000 1.000000 -60.708740 114.000000 178.000000 0.938853 0.248970 -0.237843
-16.55999947 -8.92000008 -0.44999999 219 129 81 97.000000 1.000000 4.000000 1.000000 -60.708740 114.000000 178.000000 0.970083 0.190941 0.149934
-16.56999969 -8.90999985 -0.44000000 219 129 81 97.000000 1.000000 4.000000 1.000000 -60.708740 114.000000 178.000000 0.901308 0.404232 -0.155693
-16.57999992 -8.93000031 -0.47000000 219 129 81 97.000000 1.000000 4.000000 1.000000 -60.708740 114.000000 178.000000 0.694338 0.719485 0.015368
-16.59000015 -8.93000031 -0.47999999 219 129 81 97.000000 1.000000 4.000000 1.000000 -60.708740 114.000000 178.000000 0.704484 0.704484 -0.086055
-16.59000015 -8.89999962 -0.47999999 219 129 81 97.000000 1.000000 4.000000 1.000000 -60.708740 114.000000 178.000000 0.787410 0.613065 0.064308
-16.57999992 -8.90999985 -0.47999999 219 129 81 97.000000 1.000000 4.000000 1.000000 -60.708740 114.000000 178.000000 0.983150 0.151161 -0.102789
-16.59000015 -8.89999962 -0.49000001 219 129 81 97.000000 1.000000 4.000000 1.000000 -60.708740 114.000000 178.000000 0.826192 0.539340 -0.162848
-16.69000053 -8.81000042 -0.50000000 219 129 81 97.000000 1.000000 4.000000 1.000000 -60.708740 114.000000 178.000000 0.926442 -0.260428 -0.271813
-16.63999939 -8.84000015 -0.46000001 219 129 81 97.000000 1.000000 4.000000 1.000000 -60.708740 114.000000 178.000000 0.988772 -0.035436 -0.145172
-16.65999985 -8.93000031 -0.37000000 219 129 81 97.000000 1.000000 4.000000 1.000000 -60.708740 114.000000 178.000000 0.821269 0.316843 -0.474476
-16.63999939 -8.88000011 -0.47000000 219 129 81 97.000000 1.000000 4.000000 1.000000 -60.708740 114.000000 178.000000 0.925466 0.337424 -0.172212
-16.63999939 -8.86999989 -0.47999999 219 129 81 97.000000 1.000000 4.000000 1.000000 -60.708740 114.000000 178.000000 0.893961 -0.073004 -0.442159
-16.64999962 -8.89000034 -0.50999999 219 129 81 97.000000 1.000000 4.000000 1.000000 -60.708740 114.000000 178.000000 0.948041 0.082382 -0.307296
-16.67000008 -8.88000011 -0.47000000 219 129 81 97.000000 1.000000 4.000000 1.000000 -60.708740 114.000000 178.000000 0.874314 0.056630 -0.482047
-16.69000053 -8.86999989 -0.44000000 219 129 81 97.000000 1.000000 4.000000 1.000000 -60.708740 114.000000 178.000000 0.866457 0.476187 -0.149992
-16.68000031 -8.90999985 -0.51999998 219 129 81 97.000000 1.000000 4.000000 1.000000 -60.708740 114.000000 178.000000 0.993931 0.084231 -0.070754
-16.69000053 -8.90999985 -0.51999998 219 129 81 97.000000 1.000000 4.000000 1.000000 -60.708740 114.000000 178.000000 0.979985 0.186836 -0.068707
-16.60000038 -8.92000008 -0.56999999 219 129 81 97.000000 1.000000 4.000000 1.000000 -60.708740 114.000000 178.000000 0.891531 0.432214 -0.135513
-16.61000061 -8.89000034 -0.56999999 219 129 81 97.000000 1.000000 4.000000 1.000000 -60.708740 114.000000 178.000000 0.821356 0.567764 -0.054945
-16.60000038 -8.92000008 -0.56999999 219 129 81 97.000000 1.000000 4.000000 1.000000 -60.708740 114.000000 178.000000 0.891531 0.432214 -0.135513
-16.61000061 -8.89000034 -0.57999998 219 129 81 97.000000 1.000000 4.000000 1.000000 -60.708740 114.000000 178.000000 0.902988 0.421944 0.081090
-16.62999916 -8.85000038 -0.56000000 219 129 81 97.000000 1.000000 4.000000 1.000000 -60.708740 114.000000 178.000000 0.959933 -0.178746 -0.215819
-16.62999916 -8.85000038 -0.56000000 219 129 81 97.000000 1.000000 4.000000 1.000000 -60.708740 114.000000 178.000000 0.959933 -0.178746 -0.215819
-16.69000053 -8.84000015 -0.56999999 219 129 81 97.000000 1.000000 4.000000 1.000000 -60.708740 114.000000 178.000000 0.997801 -0.045790 -0.047920
-16.63999939 -8.81000042 -0.63999999 219 129 81 97.000000 1.000000 4.000000 1.000000 -60.708740 114.000000 178.000000 0.890748 0.345820 -0.294920
-16.63999939 -8.81000042 -0.63000000 219 129 81 97.000000 1.000000 4.000000 1.000000 -60.708740 114.000000 178.000000 0.902878 0.003920 -0.429880
-16.62999916 -8.85000038 -0.68000001 219 129 81 97.000000 1.000000 4.000000 1.000000 -60.708740 114.000000 178.000000 0.968805 0.238149 0.068577
-16.64999962 -8.84000015 -0.66000003 219 129 81 97.000000 1.000000 4.000000 1.000000 -60.708740 114.000000 178.000000 0.896906 0.249715 -0.364968
-16.62999916 -8.85000038 -0.67000002 219 129 81 97.000000 1.000000 4.000000 1.000000 -60.708740 114.000000 178.000000 0.921108 0.389255 0.006423
-16.64999962 -8.81000042 -0.66000003 219 129 81 97.000000 1.000000 4.000000 1.000000 -60.708740 114.000000 178.000000 0.918290 -0.085454 -0.386577
-16.64999962 -8.84000015 -0.68000001 219 129 81 97.000000 1.000000 4.000000 1.000000 -60.708740 114.000000 178.000000 0.999619 -0.011118 0.025268
-16.62999916 -8.85000038 -0.68000001 219 129 81 97.000000 1.000000 4.000000 1.000000 -60.708740 114.000000 178.000000 0.968805 0.238149 0.068577
-16.64999962 -8.81999969 -0.66000003 219 129 81 97.000000 1.000000 4.000000 1.000000 -60.708740 114.000000 178.000000 0.803956 0.428456 -0.412409
-16.65999985 -8.77000046 -0.63999999 219 129 81 97.000000 1.000000 4.000000 1.000000 -60.708740 114.000000 178.000000 0.965722 -0.257116 -0.035676
-16.67000008 -8.80000019 -0.63999999 219 129 81 97.000000 1.000000 4.000000 1.000000 -60.708740 114.000000 178.000000 0.945258 0.088084 -0.314210
-16.67000008 -8.78999996 -0.61000001 219 129 81 97.000000 1.000000 4.000000 1.000000 -60.708740 114.000000 178.000000 0.991779 0.094945 -0.085794
-16.69000053 -8.80000019 -0.69000000 219 129 81 97.000000 1.000000 4.000000 1.000000 -60.708740 114.000000 178.000000 0.954509 0.289051 0.073226
-16.65999985 -8.81999969 -0.61000001 219 129 81 97.000000 1.000000 4.000000 1.000000 -60.708740 114.000000 178.000000 0.950896 0.252223 -0.179389
-16.62000084 -8.88000011 -0.56999999 219 129 81 97.000000 1.000000 4.000000 1.000000 -60.708740 114.000000 178.000000 0.955394 0.283128 0.084033
-16.62000084 -8.86999989 -0.56999999 219 129 81 97.000000 1.000000 4.000000 1.000000 -60.708740 114.000000 178.000000 0.997670 0.066371 0.015803
-16.62000084 -8.85999966 -0.57999998 219 129 81 97.000000 1.000000 4.000000 1.000000 -60.708740 114.000000 178.000000 0.808321 0.543500 -0.226330
-16.68000031 -8.90999985 -0.56000000 219 129 81 97.000000 1.000000 4.000000 1.000000 -60.708740 114.000000 178.000000 0.993180 0.113790 -0.025409
-16.68000031 -8.90999985 -0.56000000 219 129 81 97.000000 1.000000 4.000000 1.000000 -60.708740 114.000000 178.000000 0.993180 0.113790 -0.025409
-16.69000053 -8.92000008 -0.52999997 219 129 81 97.000000 1.000000 4.000000 1.000000 -60.708740 114.000000 178.000000 0.886805 0.242126 -0.393640
-16.68000031 -8.92000008 -0.56999999 219 129 81 97.000000 1.000000 4.000000 1.000000 -60.708740 114.000000 178.000000 0.919328 0.392124 -0.032786
-16.67000008 -8.92000008 -0.60000002 219 129 81 97.000000 1.000000 4.000000 1.000000 -60.708740 114.000000 178.000000 0.947938 0.249601 0.197771
-16.62000084 -8.85999966 -0.61000001 219 129 81 97.000000 1.000000 4.000000 1.000000 -60.708740 114.000000 178.000000 0.885638 0.461298 0.053385
-16.62999916 -8.92000008 -0.63000000 219 129 81 97.000000 1.000000 4.000000 1.000000 -60.708740 114.000000 178.000000 0.917622 0.394405 0.049135
-16.62999916 -8.92000008 -0.62000000 219 129 81 97.000000 1.000000 4.000000 1.000000 -60.708740 114.000000 178.000000 0.905850 0.231932 -0.354463
-16.68000031 -8.90999985 -0.61000001 219 129 81 97.000000 1.000000 4.000000 1.000000 -60.708740 114.000000 178.000000 0.771134 0.609272 0.184767
-16.68000031 -8.89999962 -0.63000000 219 129 81 97.000000 1.000000 4.000000 1.000000 -60.708740 114.000000 178.000000 0.798394 0.553450 -0.237193
-16.69000053 -8.90999985 -0.63999999 219 129 81 97.000000 1.000000 4.000000 1.000000 -60.708740 114.000000 178.000000 0.986234 0.120447 -0.113292
-16.67000008 -8.92000008 -0.61000001 219 129 81 97.000000 1.000000 4.000000 1.000000 -60.708740 114.000000 178.000000 0.956127 0.147198 -0.253287
-16.68000031 -8.89999962 -0.62000000 219 129 81 97.000000 1.000000 4.000000 1.000000 -60.708740 114.000000 178.000000 0.706322 0.706322 0.047088
-16.68000031 -8.90999985 -0.64999998 219 129 81 97.000000 1.000000 4.000000 1.000000 -60.708740 114.000000 178.000000 0.775715 0.596822 0.205109
-16.69000053 -8.90999985 -0.67000002 219 129 81 97.000000 1.000000 4.000000 1.000000 -60.708740 114.000000 178.000000 0.934947 0.347795 0.070088
-16.69000053 -8.90999985 -0.66000003 219 129 81 97.000000 1.000000 4.000000 1.000000 -60.708740 114.000000 178.000000 0.947352 0.307922 0.087791
-16.65999985 -8.90999985 -0.67000002 219 129 81 97.000000 1.000000 4.000000 1.000000 -60.708740 114.000000 178.000000 0.869201 0.417156 0.265463
-16.65999985 -8.92000008 -0.66000003 219 129 81 97.000000 1.000000 4.000000 1.000000 -60.708740 114.000000 178.000000 0.803443 0.550536 0.226691
-16.55999947 -8.97000027 -0.36000001 219 129 81 97.000000 1.000000 4.000000 1.000000 -60.708740 114.000000 178.000000 0.672312 0.718256 -0.179181
-16.55999947 -8.97000027 -0.36000001 219 129 81 97.000000 1.000000 4.000000 1.000000 -60.708740 114.000000 178.000000 0.672312 0.718256 -0.179181
-16.56999969 -8.97000027 -0.37000000 219 129 81 97.000000 1.000000 4.000000 1.000000 -60.708740 114.000000 178.000000 0.737313 0.588230 -0.332196
-16.56999969 -8.94999981 -0.37000000 219 129 81 97.000000 1.000000 4.000000 1.000000 -60.708740 114.000000 178.000000 0.914048 0.268838 -0.303714
-16.56999969 -8.96000004 -0.38000000 219 129 81 97.000000 1.000000 4.000000 1.000000 -60.708740 114.000000 178.000000 0.888805 0.458269 -0.003962
-16.56999969 -8.97000027 -0.38000000 219 129 81 97.000000 1.000000 4.000000 1.000000 -60.708740 114.000000 178.000000 0.871313 0.479009 0.106604
-16.56999969 -8.94999981 -0.43000001 219 129 81 97.000000 1.000000 4.000000 1.000000 -60.708740 114.000000 178.000000 0.773425 0.535448 -0.339278
-16.56999969 -8.94999981 -0.43000001 219 129 81 97.000000 1.000000 4.000000 1.000000 -60.708740 114.000000 178.000000 0.773425 0.535448 -0.339278
-16.56999969 -8.94999981 -0.41999999 219 129 81 97.000000 1.000000 4.000000 1.000000 -60.708740 114.000000 178.000000 0.863952 0.492667 -0.104245
-16.54999924 -8.97999954 -0.38000000 219 129 81 97.000000 1.000000 4.000000 1.000000 -60.708740 114.000000 178.000000 0.603826 0.749632 -0.271009
-16.54999924 -8.97999954 -0.37000000 219 129 81 97.000000 1.000000 4.000000 1.000000 -60.708740 114.000000 178.000000 0.607005 0.759926 -0.232503
-16.55999947 -9.00000000 -0.37000000 219 129 81 97.000000 1.000000 4.000000 1.000000 -60.708740 114.000000 178.000000 0.511575 0.851664 0.113843
-16.57999992 -8.94999981 -0.38999999 219 129 81 97.000000 1.000000 4.000000 1.000000 -60.708740 114.000000 178.000000 0.989726 0.142973 -0.001108
-16.59000015 -8.98999977 -0.36000001 219 129 81 97.000000 1.000000 4.000000 1.000000 -60.708740 114.000000 178.000000 0.709352 0.700649 0.076883
-16.56999969 -8.97999954 -0.44999999 219 129 81 97.000000 1.000000 4.000000 1.000000 -60.708740 114.000000 178.000000 0.858212 0.471792 -0.202197
-16.56999969 -9.00000000 -0.50000000 219 129 81 97.000000 1.000000 4.000000 1.000000 -60.708740 114.000000 178.000000 0.838940 0.499116 0.216941
-16.55999947 -9.01000023 -0.49000001 219 129 81 97.000000 1.000000 4.000000 1.000000 -60.708740 114.000000 178.000000 0.755097 0.633552 -0.168643
-16.59000015 -8.93999958 -0.44000000 219 129 81 97.000000 1.000000 4.000000 1.000000 -60.708740 114.000000 178.000000 0.973795 0.225092 0.032500
-16.59000015 -8.93999958 -0.50999999 219 129 81 97.000000 1.000000 4.000000 1.000000 -60.708740 114.000000 178.000000 0.885961 0.462533 0.033712
-16.59000015 -8.98999977 -0.49000001 219 129 81 97.000000 1.000000 4.000000 1.000000 -60.708740 114.000000 178.000000 0.827604 0.534276 -0.172106
-16.61000061 -9.06999969 -0.38000000 219 129 81 97.000000 1.000000 4.000000 1.000000 -60.708740 114.000000 178.000000 0.741999 0.640186 0.198998
-16.59000015 -9.07999992 -0.38000000 219 129 81 97.000000 1.000000 4.000000 1.000000 -60.708740 114.000000 178.000000 0.808647 0.523978 0.267464
-16.60000038 -9.09000015 -0.36000001 219 129 81 97.000000 1.000000 4.000000 1.000000 -60.708740 114.000000 178.000000 0.416270 0.889504 0.188417
-16.59000015 -9.09000015 -0.37000000 219 129 81 97.000000 1.000000 4.000000 1.000000 -60.708740 114.000000 178.000000 0.670715 0.732901 0.114007
-16.60000038 -9.06000042 -0.41000000 219 129 81 97.000000 1.000000 4.000000 1.000000 -60.708740 114.000000 178.000000 0.810516 0.572215 0.125034
-16.64999962 -8.98999977 -0.36000001 219 129 81 97.000000 1.000000 4.000000 1.000000 -60.708740 114.000000 178.000000 0.661887 0.696975 -0.275919
-16.63999939 -9.00000000 -0.36000001 219 129 81 97.000000 1.000000 4.000000 1.000000 -60.708740 114.000000 178.000000 0.852030 0.294281 -0.432948
-16.65999985 -8.98999977 -0.43000001 219 129 81 97.000000 1.000000 4.000000 1.000000 -60.708740 114.000000 178.000000 0.649352 0.636066 -0.416847
-16.65999985 -9.01000023 -0.41999999 219 129 81 97.000000 1.000000 4.000000 1.000000 -60.708740 114.000000 178.000000 0.950907 0.296099 -0.090004
-16.65999985 -8.98999977 -0.41999999 219 129 81 97.000000 1.000000 4.000000 1.000000 -60.708740 114.000000 178.000000 0.866203 0.390941 -0.311220
-16.68000031 -8.97999954 -0.43000001 219 129 81 97.000000 1.000000 4.000000 1.000000 -60.708740 114.000000 178.000000 0.984808 0.147183 -0.092139
-16.64999962 -9.01000023 -0.44999999 219 129 81 97.000000 1.000000 4.000000 1.000000 -60.708740 114.000000 178.000000 0.780372 0.625129 -0.015247
-16.64999962 -8.98999977 -0.50999999 219 129 81 97.000000 1.000000 4.000000 1.000000 -60.708740 114.000000 178.000000 0.734789 0.616841 0.282121
-16.67000008 -8.97000027 -0.46000001 219 129 81 97.000000 1.000000 4.000000 1.000000 -60.708740 114.000000 178.000000 0.945940 0.223786 -0.234769
-16.67000008 -8.97000027 -0.46000001 219 129 81 97.000000 1.000000 4.000000 1.000000 -60.708740 114.000000 178.000000 0.945940 0.223786 -0.234769
-16.65999985 -8.96000004 -0.44999999 219 129 81 97.000000 1.000000 4.000000 1.000000 -60.708740 114.000000 178.000000 0.910198 0.321846 -0.260681
-16.67000008 -8.96000004 -0.44999999 219 129 81 97.000000 1.000000 4.000000 1.000000 -60.708740 114.000000 178.000000 0.984828 0.126260 -0.119045
-16.67000008 -8.97000027 -0.46000001 219 129 81 97.000000 1.000000 4.000000 1.000000 -60.708740 114.000000 178.000000 0.945940 0.223786 -0.234769
-16.67000008 -8.97000027 -0.47999999 219 129 81 97.000000 1.000000 4.000000 1.000000 -60.708740 114.000000 178.000000 0.935966 0.308302 0.170050
-16.67000008 -8.96000004 -0.47999999 219 129 81 97.000000 1.000000 4.000000 1.000000 -60.708740 114.000000 178.000000 0.969949 0.240352 0.037822
-16.67000008 -8.97000027 -0.49000001 219 129 81 97.000000 1.000000 4.000000 1.000000 -60.708740 114.000000 178.000000 0.968098 0.249009 0.027938
-16.67000008 -8.97000027 -0.50999999 219 129 81 97.000000 1.000000 4.000000 1.000000 -60.708740 114.000000 178.000000 0.897696 0.425668 0.113792
-16.67000008 -8.94999981 -0.51999998 219 129 81 97.000000 1.000000 4.000000 1.000000 -60.708740 114.000000 178.000000 0.857838 0.513619 0.017618
-16.65999985 -8.97000027 -0.49000001 219 129 81 97.000000 1.000000 4.000000 1.000000 -60.708740 114.000000 178.000000 0.838714 0.490395 0.236795
-16.65999985 -8.98999977 -0.44999999 219 129 81 97.000000 1.000000 4.000000 1.000000 -60.708740 114.000000 178.000000 0.825642 0.542989 0.153227
-16.65999985 -8.98999977 -0.44000000 219 129 81 97.000000 1.000000 4.000000 1.000000 -60.708740 114.000000 178.000000 0.669135 0.729282 -0.142849
-16.65999985 -8.98999977 -0.46000001 219 129 81 97.000000 1.000000 4.000000 1.000000 -60.708740 114.000000 178.000000 0.931371 0.359638 -0.056646
-16.65999985 -9.00000000 -0.47000000 219 129 81 97.000000 1.000000 4.000000 1.000000 -60.708740 114.000000 178.000000 0.872239 0.486415 -0.050984
-16.65999985 -8.98999977 -0.44999999 219 129 81 97.000000 1.000000 4.000000 1.000000 -60.708740 114.000000 178.000000 0.825642 0.542989 0.153227
-16.65999985 -8.98999977 -0.44000000 219 129 81 97.000000 1.000000 4.000000 1.000000 -60.708740 114.000000 178.000000 0.669135 0.729282 -0.142849
-16.62999916 -9.03999996 -0.38000000 219 129 81 97.000000 1.000000 4.000000 1.000000 -60.708740 114.000000 178.000000 0.892883 0.401870 0.203127
-16.62999916 -9.02999973 -0.38999999 219 129 81 97.000000 1.000000 4.000000 1.000000 -60.708740 114.000000 178.000000 0.894975 0.435656 -0.096039
-16.64999962 -9.02000046 -0.38999999 219 129 81 97.000000 1.000000 4.000000 1.000000 -60.708740 114.000000 178.000000 0.645389 0.697149 -0.312180
-16.63999939 -9.02000046 -0.37000000 219 129 81 97.000000 1.000000 4.000000 1.000000 -60.708740 114.000000 178.000000 0.964634 0.165776 -0.204936
-16.63999939 -9.02000046 -0.38999999 219 129 81 97.000000 1.000000 4.000000 1.000000 -60.708740 114.000000 178.000000 0.883455 0.445331 -0.145561
-16.63999939 -9.02000046 -0.37000000 219 129 81 97.000000 1.000000 4.000000 1.000000 -60.708740 114.000000 178.000000 0.964634 0.165776 -0.204936
-16.63999939 -9.02999973 -0.40000001 219 129 81 97.000000 1.000000 4.000000 1.000000 -60.708740 114.000000 178.000000 0.863193 0.484727 -0.141197
-16.64999962 -9.02000046 -0.41999999 219 129 81 97.000000 1.000000 4.000000 1.000000 -60.708740 114.000000 178.000000 0.614878 0.769736 0.171558
-16.62000084 -9.03999996 -0.44000000 219 129 81 97.000000 1.000000 4.000000 1.000000 -60.708740 114.000000 178.000000 0.619922 0.784306 0.023682
-16.62000084 -9.02999973 -0.44000000 219 129 81 97.000000 1.000000 4.000000 1.000000 -60.708740 114.000000 178.000000 0.704976 0.683379 0.189742
-16.62000084 -9.03999996 -0.44000000 219 129 81 97.000000 1.000000 4.000000 1.000000 -60.708740 114.000000 178.000000 0.619922 0.784306 0.023682
-16.60000038 -8.97000027 -0.55000001 219 129 81 97.000000 1.000000 4.000000 1.000000 -60.708740 114.000000 178.000000 0.798544 0.545385 0.254721
-16.60000038 -8.93999958 -0.54000002 219 129 81 97.000000 1.000000 4.000000 1.000000 -60.708740 114.000000 178.000000 0.947640 0.312423 -0.066114
-16.59000015 -8.94999981 -0.54000002 219 129 81 97.000000 1.000000 4.000000 1.000000 -60.708740 114.000000 178.000000 0.934436 0.348591 -0.072899
-16.64999962 -8.96000004 -0.57999998 219 129 81 97.000000 1.000000 4.000000 1.000000 -60.708740 114.000000 178.000000 0.519624 0.854343 -0.009448
-16.62000084 -8.98999977 -0.55000001 219 129 81 97.000000 1.000000 4.000000 1.000000 -60.708740 114.000000 178.000000 0.651647 0.742364 -0.155730
-16.67000008 -8.94999981 -0.55000001 219 129 81 97.000000 1.000000 4.000000 1.000000 -60.708740 114.000000 178.000000 0.852247 0.493562 -0.173414
-16.68000031 -8.94999981 -0.54000002 219 129 81 97.000000 1.000000 4.000000 1.000000 -60.708740 114.000000 178.000000 0.941789 0.291148 -0.168128
-16.67000008 -8.94999981 -0.54000002 219 129 81 97.000000 1.000000 4.000000 1.000000 -60.708740 114.000000 178.000000 0.756626 0.635807 -0.152533
-16.65999985 -8.96000004 -0.54000002 219 129 81 97.000000 1.000000 4.000000 1.000000 -60.708740 114.000000 178.000000 0.890028 0.448485 0.081921
-16.68000031 -8.93999958 -0.54000002 219 129 81 97.000000 1.000000 4.000000 1.000000 -60.708740 114.000000 178.000000 0.729145 0.679662 -0.080046
-16.67000008 -8.93999958 -0.52999997 219 129 81 97.000000 1.000000 4.000000 1.000000 -60.708740 114.000000 178.000000 0.772062 0.505497 -0.385218
-16.65999985 -8.96000004 -0.54000002 219 129 81 97.000000 1.000000 4.000000 1.000000 -60.708740 114.000000 178.000000 0.890028 0.448485 0.081921
