//X Y Z R G B PointSourceId ScanDirectionFlag NumberOfReturns ReturnNumber GpsTime Intensity Classification Nx Ny Nz
1.72000003 4.46000004 0.30000001 106 186 109 97.000000 1.000000 4.000000 1.000000 -60.708740 114.000000 231.000000 -0.001317 -0.462431 0.886654
1.69000006 4.48999977 0.30000001 106 186 109 97.000000 1.000000 4.000000 1.000000 -60.708740 114.000000 231.000000 0.301323 0.704162 -0.642931
1.71000004 4.48999977 0.30000001 106 186 109 97.000000 1.000000 4.000000 1.000000 -60.708740 114.000000 231.000000 -0.551530 -0.461552 0.694827
1.71000004 4.44999981 0.30000001 106 186 109 97.000000 1.000000 4.000000 1.000000 -60.708740 114.000000 231.000000 -0.317495 -0.384982 0.866594
1.74000001 4.48999977 0.15000001 106 186 109 97.000000 1.000000 4.000000 1.000000 -60.708740 114.000000 231.000000 0.216347 0.745543 -0.630365
1.75000000 4.44000006 0.20999999 106 186 109 97.000000 1.000000 4.000000 1.000000 -60.708740 114.000000 231.000000 -0.565134 -0.312185 0.763652
1.75000000 4.44000006 0.22000000 106 186 109 97.000000 1.000000 4.000000 1.000000 -60.708740 114.000000 231.000000 -0.261863 -0.684018 0.680843
1.73000002 4.44999981 0.22000000 106 186 109 97.000000 1.000000 4.000000 1.000000 -60.708740 114.000000 231.000000 0.537513 0.464292 -0.703926
1.74000001 4.44999981 0.23000000 106 186 109 97.000000 1.000000 4.000000 1.000000 -60.708740 114.000000 231.000000 -0.070670 -0.289104 0.954686
1.74000001 4.44000006 0.22000000 106 186 109 97.000000 1.000000 4.000000 1.000000 -60.708740 114.000000 231.000000 0.300699 0.702704 -0.644815
1.72000003 4.44000006 0.22000000 106 186 109 97.000000 1.000000 4.000000 1.000000 -60.708740 114.000000 231.000000 -0.055853 0.749002 -0.660210
1.72000003 4.40999985 0.20000000 106 186 109 97.000000 1.000000 4.000000 1.000000 -60.708740 114.000000 231.000000 0.503034 0.479792 -0.718858
1.66999996 4.46999979 0.25999999 106 186 109 97.000000 1.000000 4.000000 1.000000 -60.708740 114.000000 231.000000 0.046934 -0.740988 0.669876
1.62000000 4.46999979 0.27000001 106 186 109 97.000000 1.000000 4.000000 1.000000 -60.708740 114.000000 231.000000 -0.127095 -0.455542 0.881095
1.64999998 4.48000002 0.22000000 106 186 109 97.000000 1.000000 4.000000 1.000000 -60.708740 114.000000 231.000000 0.674380 0.341272 -0.654786
1.63999999 4.48000002 0.20999999 106 186 109 97.000000 1.000000 4.000000 1.000000 -60.708740 114.000000 231.000000 0.663939 0.337679 -0.667202
1.67999995 4.46000004 0.16000000 106 186 109 97.000000 1.000000 4.000000 1.000000 -60.708740 114.000000 231.000000 0.358593 0.643503 -0.676251
1.63999999 4.46999979 0.16000000 106 186 109 97.000000 1.000000 4.000000 1.000000 -60.708740 114.000000 231.000000 -0.001381 0.724826 -0.688930
1.65999997 4.46000004 0.15000001 106 186 109 97.000000 1.000000 4.000000 1.000000 -60.708740 114.000000 231.000000 -0.044076 -0.746448 0.663983
1.65999997 4.46999979 0.16000000 106 186 109 97.000000 1.000000 4.000000 1.000000 -60.708740 114.000000 231.000000 -0.091531 -0.600035 0.794720
1.65999997 4.44999981 0.23000000 106 186 109 97.000000 1.000000 4.000000 1.000000 -60.708740 114.000000 231.000000 0.681472 0.344821 -0.645519
1.62000000 4.48000002 0.19000000 106 186 109 97.000000 1.000000 4.000000 1.000000 -60.708740 114.000000 231.000000 -0.093136 -0.537320 0.838220
1.60000002 4.46999979 0.15000001 106 186 109 97.000000 1.000000 4.000000 1.000000 -60.708740 114.000000 231.000000 0.237291 0.671016 -0.702446
1.62000000 4.46999979 0.16000000 106 186 109 97.000000 1.000000 4.000000 1.000000 -60.708740 114.000000 231.000000 -0.416089 -0.244847 0.875740
1.61000001 4.46000004 0.15000001 106 186 109 97.000000 1.000000 4.000000 1.000000 -60.708740 114.000000 231.000000 -0.418336 -0.310279 0.853652
1.73000002 4.48000002 0.13000000 106 186 109 97.000000 1.000000 4.000000 1.000000 -60.708740 114.000000 231.000000 -0.175742 -0.542248 0.821634
1.74000001 4.46999979 0.13000000 106 186 109 97.000000 1.000000 4.000000 1.000000 -60.708740 114.000000 231.000000 -0.056900 -0.369191 0.927610
1.74000001 4.48999977 0.09000000 106 186 109 97.000000 1.000000 4.000000 1.000000 -60.708740 114.000000 231.000000 -0.092140 -0.647903 0.756130
1.75000000 4.48999977 0.10000000 106 186 109 97.000000 1.000000 4.000000 1.000000 -60.708740 114.000000 231.000000 -0.355796 -0.670601 0.650926
1.73000002 4.48999977 0.09000000 106 186 109 97.000000 1.000000 4.000000 1.000000 -60.708740 114.000000 231.000000 0.038181 0.742401 -0.668868
1.75999999 4.44999981 0.12000000 106 186 109 97.000000 1.000000 4.000000 1.000000 -60.708740 114.000000 231.000000 -0.252106 -0.143872 0.956945
1.74000001 4.44999981 0.09000000 106 186 109 97.000000 1.000000 4.000000 1.000000 -60.708740 114.000000 231.000000 0.428289 0.608270 -0.668264
1.71000004 4.46999979 0.13000000 106 186 109 97.000000 1.000000 4.000000 1.000000 -60.708740 114.000000 231.000000 -0.452296 -0.485190 0.748344
1.69000006 4.46999979 0.10000000 106 186 109 97.000000 1.000000 4.000000 1.000000 -60.708740 114.000000 231.000000 -0.250298 -0.444469 0.860115
1.69000006 4.46000004 0.10000000 106 186 109 97.000000 1.000000 4.000000 1.000000 -60.708740 114.000000 231.000000 0.504260 0.622315 -0.598704
1.72000003 4.42000008 0.13000000 106 186 109 97.000000 1.000000 4.000000 1.000000 -60.708740 114.000000 231.000000 -0.185968 -0.683930 0.705447
1.70000005 4.42999983 0.13000000 106 186 109 97.000000 1.000000 4.000000 1.000000 -60.708740 114.000000 231.000000 0.574844 0.527643 -0.625417
1.70000005 4.42000008 0.10000000 106 186 109 97.000000 1.000000 4.000000 1.000000 -60.708740 114.000000 231.000000 -0.123496 -0.378812 0.917197
1.70000005 4.42999983 0.10000000 106 186 109 97.000000 1.000000 4.000000 1.000000 -60.708740 114.000000 231.000000 -0.200003 -0.361156 0.910805
1.69000006 4.40000010 0.14000000 106 186 109 97.000000 1.000000 4.000000 1.000000 -60.708740 114.000000 231.000000 0.267302 0.754457 -0.599453
1.74000001 4.40000010 0.10000000 106 186 109 97.000000 1.000000 4.000000 1.000000 -60.708740 114.000000 231.000000 -0.064907 -0.725520 0.685133
1.75000000 4.38000011 0.08000000 106 186 109 97.000000 1.000000 4.000000 1.000000 -60.708740 114.000000 231.000000 -0.506102 -0.395443 0.766476
1.66999996 4.48000002 0.14000000 106 186 109 97.000000 1.000000 4.000000 1.000000 -60.708740 114.000000 231.000000 -0.191264 -0.601334 0.775767
1.66999996 4.48999977 0.11000000 106 186 109 97.000000 1.000000 4.000000 1.000000 -60.708740 114.000000 231.000000 -0.177688 -0.206644 0.962146
1.67999995 4.48000002 0.11000000 106 186 109 97.000000 1.000000 4.000000 1.000000 -60.708740 114.000000 231.000000 0.330430 0.820542 -0.466397
1.66999996 4.48999977 0.11000000 106 186 109 97.000000 1.000000 4.000000 1.000000 -60.708740 114.000000 231.000000 -0.177688 -0.206644 0.962146
1.66999996 4.46999979 0.09000000 106 186 109 97.000000 1.000000 4.000000 1.000000 -60.708740 114.000000 231.000000 -0.143996 -0.565591 0.812017
1.67999995 4.46000004 0.09000000 106 186 109 97.000000 1.000000 4.000000 1.000000 -60.708740 114.000000 231.000000 -0.242765 -0.394680 0.886168
1.67999995 4.46999979 0.09000000 106 186 109 97.000000 1.000000 4.000000 1.000000 -60.708740 114.000000 231.000000 -0.364628 -0.307135 0.879042
1.63999999 4.48000002 0.10000000 106 186 109 97.000000 1.000000 4.000000 1.000000 -60.708740 114.000000 231.000000 -0.611799 -0.517417 0.598316
1.63999999 4.44999981 0.13000000 106 186 109 97.000000 1.000000 4.000000 1.000000 -60.708740 114.000000 231.000000 0.679719 0.511887 -0.525313
1.65999997 4.44999981 0.12000000 106 186 109 97.000000 1.000000 4.000000 1.000000 -60.708740 114.000000 231.000000 -0.172054 -0.417845 0.892078
1.63999999 4.42000008 0.12000000 106 186 109 97.000000 1.000000 4.000000 1.000000 -60.708740 114.000000 231.000000 -0.123729 -0.387870 0.913372
1.63000000 4.48000002 0.09000000 106 186 109 97.000000 1.000000 4.000000 1.000000 -60.708740 114.000000 231.000000 -0.476752 -0.277976 0.833928
1.60000002 4.44999981 0.14000000 106 186 109 97.000000 1.000000 4.000000 1.000000 -60.708740 114.000000 231.000000 -0.140347 -0.362678 0.921286
1.62000000 4.44000006 0.14000000 106 186 109 97.000000 1.000000 4.000000 1.000000 -60.708740 114.000000 231.000000 0.731072 0.417520 -0.539640
1.61000001 4.42999983 0.08000000 106 186 109 97.000000 1.000000 4.000000 1.000000 -60.708740 114.000000 231.000000 -0.490567 -0.368328 0.789733
1.64999998 4.44999981 0.00000000 106 186 109 97.000000 1.000000 4.000000 1.000000 -60.708740 114.000000 231.000000 0.708755 0.308365 -0.634489
1.63000000 4.42999983 0.06000000 106 186 109 97.000000 1.000000 4.000000 1.000000 -60.708740 114.000000 231.000000 0.580357 0.549901 -0.600661
1.60000002 4.42000008 0.03000000 106 186 109 97.000000 1.000000 4.000000 1.000000 -60.708740 114.000000 231.000000 -0.145677 -0.635273 0.758423
1.62000000 4.42999983 -0.02000000 106 186 109 97.000000 1.000000 4.000000 1.000000 -60.708740 114.000000 231.000000 0.683214 0.179632 -0.707779
1.61000001 4.44000006 0.02000000 106 186 109 97.000000 1.000000 4.000000 1.000000 -60.708740 114.000000 231.000000 0.587385 0.696589 -0.411997
1.60000002 4.44999981 0.02000000 106 186 109 97.000000 1.000000 4.000000 1.000000 -60.708740 114.000000 231.000000 -0.507945 -0.305400 0.805433
1.60000002 4.44999981 0.02000000 106 186 109 97.000000 1.000000 4.000000 1.000000 -60.708740 114.000000 231.000000 -0.507945 -0.305400 0.805433
1.61000001 4.44000006 0.02000000 106 186 109 97.000000 1.000000 4.000000 1.000000 -60.708740 114.000000 231.000000 0.587385 0.696589 -0.411997
1.63999999 4.32999992 0.07000000 106 186 109 97.000000 1.000000 4.000000 1.000000 -60.708740 114.000000 231.000000 -0.526815 -0.212253 0.823052
1.60000002 4.36999989 0.07000000 106 186 109 97.000000 1.000000 4.000000 1.000000 -60.708740 114.000000 231.000000 -0.388773 -0.360669 0.847805
1.66999996 4.38000011 0.06000000 106 186 109 97.000000 1.000000 4.000000 1.000000 -60.708740 114.000000 231.000000 0.297869 0.697174 -0.652091
1.62000000 4.38000011 0.06000000 106 186 109 97.000000 1.000000 4.000000 1.000000 -60.708740 114.000000 231.000000 -0.220658 -0.288121 0.931824
0.93000001 5.86999989 0.27000001 106 186 109 97.000000 1.000000 4.000000 1.000000 -60.708740 114.000000 231.000000 0.933823 0.292607 -0.205805
0.94999999 5.84999990 0.23999999 106 186 109 97.000000 1.000000 4.000000 1.000000 -60.708740 114.000000 231.000000 0.990023 0.140798 -0.005543
0.99000001 5.84000015 0.15000001 106 186 109 97.000000 1.000000 4.000000 1.000000 -60.708740 114.000000 231.000000 0.859118 0.138098 -0.492793
0.99000001 5.84000015 0.15000001 106 186 109 97.000000 1.000000 4.000000 1.000000 -60.708740 114.000000 231.000000 0.859118 0.138098 -0.492793
0.94000000 5.84999990 0.23000000 106 186 109 97.000000 1.000000 4.000000 1.000000 -60.708740 114.000000 231.000000 0.885499 0.082016 -0.457346
0.95999998 5.84999990 0.12000000 106 186 109 97.000000 1.000000 4.000000 1.000000 -60.708740 114.000000 231.000000 0.803898 0.457307 -0.380287
0.97000003 5.86000013 -0.02000000 106 186 109 97.000000 1.000000 4.000000 1.000000 -60.708740 114.000000 231.000000 0.838007 0.504623 0.207607
0.99000001 5.82000017 0.16000000 106 186 109 97.000000 1.000000 4.000000 1.000000 -60.708740 114.000000 231.000000 0.888825 0.213731 -0.405351
1.00000000 5.82999992 0.16000000 106 186 109 97.000000 1.000000 4.000000 1.000000 -60.708740 114.000000 231.000000 0.949310 0.211109 -0.232901
1.00000000 5.80999994 0.17000000 106 186 109 97.000000 1.000000 4.000000 1.000000 -60.708740 114.000000 231.000000 0.960065 0.113025 -0.255931
0.94000000 5.82000017 0.20999999 106 186 109 97.000000 1.000000 4.000000 1.000000 -60.708740 114.000000 231.000000 0.962704 0.268173 0.035839
0.95999998 5.82000017 0.17000000 106 186 109 97.000000 1.000000 4.000000 1.000000 -60.708740 114.000000 231.000000 0.836359 0.376441 -0.398491
0.94999999 5.80999994 0.16000000 106 186 109 97.000000 1.000000 4.000000 1.000000 -60.708740 114.000000 231.000000 0.909646 0.358957 -0.209031
0.94000000 5.71000004 0.27000001 106 186 109 97.000000 1.000000 4.000000 1.000000 -60.708740 114.000000 231.000000 0.646169 0.619454 -0.445806
0.94999999 5.69999981 0.25999999 106 186 109 97.000000 1.000000 4.000000 1.000000 -60.708740 114.000000 231.000000 0.548122 0.744464 -0.381231
0.93000001 5.71000004 0.25999999 106 186 109 97.000000 1.000000 4.000000 1.000000 -60.708740 114.000000 231.000000 0.891923 0.429550 -0.141281
0.93000001 5.67999983 0.22000000 106 186 109 97.000000 1.000000 4.000000 1.000000 -60.708740 114.000000 231.000000 0.929295 0.093064 -0.357421
0.95999998 5.82999992 0.01000000 106 186 109 97.000000 1.000000 4.000000 1.000000 -60.708740 114.000000 231.000000 0.955999 0.006136 0.293304
0.95999998 5.78999996 0.04000000 106 186 109 97.000000 1.000000 4.000000 1.000000 -60.708740 114.000000 231.000000 0.990534 0.111853 0.079566
0.95999998 5.76000023 -0.01000000 106 186 109 97.000000 1.000000 4.000000 1.000000 -60.708740 114.000000 231.000000 0.985558 0.148249 -0.081833
0.95999998 5.76000023 0.00000000 106 186 109 97.000000 1.000000 4.000000 1.000000 -60.708740 114.000000 231.000000 0.980016 0.192183 -0.051328
0.98000002 5.75000000 0.14000000 106 186 109 97.000000 1.000000 4.000000 1.000000 -60.708740 114.000000 231.000000 0.936520 0.256178 -0.239380
0.95999998 5.71999979 0.07000000 106 186 109 97.000000 1.000000 4.000000 1.000000 -60.708740 114.000000 231.000000 0.938296 0.317305 0.137544
0.98000002 5.71000004 0.01000000 106 186 109 97.000000 1.000000 4.000000 1.000000 -60.708740 114.000000 231.000000 0.806660 0.528932 0.263686
0.75000000 6.67999983 -0.01000000 106 186 109 97.000000 1.000000 4.000000 1.000000 -60.708740 114.000000 231.000000 0.775338 -0.256349 0.577179
0.69999999 6.69000006 0.01000000 106 186 109 97.000000 1.000000 4.000000 1.000000 -60.708740 114.000000 231.000000 0.983409 0.124589 0.131847
0.70999998 6.67999983 0.01000000 106 186 109 97.000000 1.000000 4.000000 1.000000 -60.708740 114.000000 231.000000 0.995962 0.020502 0.087403
0.67000002 6.69000006 -0.02000000 106 186 109 97.000000 1.000000 4.000000 1.000000 -60.708740 114.000000 231.000000 0.928656 0.311431 0.201514
0.72000003 6.61999989 -0.02000000 106 186 109 97.000000 1.000000 4.000000 1.000000 -60.708740 114.000000 231.000000 0.821317 -0.299946 0.485253
0.70999998 6.67000008 -0.02000000 106 186 109 97.000000 1.000000 4.000000 1.000000 -60.708740 114.000000 231.000000 0.971715 0.042566 0.232287
0.69999999 6.67000008 0.01000000 106 186 109 97.000000 1.000000 4.000000 1.000000 -60.708740 114.000000 231.000000 0.819150 -0.265796 0.508277
0.69999999 6.65000010 0.00000000 106 186 109 97.000000 1.000000 4.000000 1.000000 -60.708740 114.000000 231.000000 0.886038 -0.031018 0.462574
0.69999999 6.63999987 0.00000000 106 186 109 97.000000 1.000000 4.000000 1.000000 -60.708740 114.000000 231.000000 0.968370 0.047988 0.244861
0.69999999 6.61000013 -0.01000000 106 186 109 97.000000 1.000000 4.000000 1.000000 -60.708740 114.000000 231.000000 0.904525 -0.185507 0.383956
0.74000001 6.57000017 -0.02000000 106 186 109 97.000000 1.000000 4.000000 1.000000 -60.708740 114.000000 231.000000 0.632623 0.073494 0.770965
0.74000001 6.57000017 -0.02000000 106 186 109 97.000000 1.000000 4.000000 1.000000 -60.708740 114.000000 231.000000 0.632623 0.073494 0.770965
0.70999998 6.59000015 0.03000000 106 186 109 97.000000 1.000000 4.000000 1.000000 -60.708740 114.000000 231.000000 0.909968 0.395578 0.124404
0.69000000 6.57000017 0.01000000 106 186 109 97.000000 1.000000 4.000000 1.000000 -60.708740 114.000000 231.000000 0.961840 -0.107158 0.251757
0.69000000 6.55000019 0.01000000 106 186 109 97.000000 1.000000 4.000000 1.000000 -60.708740 114.000000 231.000000 0.913459 0.117821 0.389502
0.64999998 6.65000010 0.01000000 106 186 109 97.000000 1.000000 4.000000 1.000000 -60.708740 114.000000 231.000000 0.998393 -0.001030 0.056668
0.64999998 6.65000010 0.02000000 106 186 109 97.000000 1.000000 4.000000 1.000000 -60.708740 114.000000 231.000000 0.963652 -0.195353 0.182242
0.67000002 6.59999990 0.04000000 106 186 109 97.000000 1.000000 4.000000 1.000000 -60.708740 114.000000 231.000000 0.992311 0.043828 0.115751
0.63000000 6.51999998 0.03000000 106 186 109 97.000000 1.000000 4.000000 1.000000 -60.708740 114.000000 231.000000 0.986450 0.026413 0.161920
0.68000001 6.46999979 0.09000000 106 186 109 97.000000 1.000000 4.000000 1.000000 -60.708740 114.000000 231.000000 0.718794 0.476429 0.506310
0.75000000 6.48999977 0.00000000 106 186 109 97.000000 1.000000 4.000000 1.000000 -60.708740 114.000000 231.000000 0.953518 -0.084325 0.289299
0.68000001 6.48000002 0.01000000 106 186 109 97.000000 1.000000 4.000000 1.000000 -60.708740 114.000000 231.000000 0.901084 0.426540 0.078176
0.68000001 6.48999977 0.02000000 106 186 109 97.000000 1.000000 4.000000 1.000000 -60.708740 114.000000 231.000000 0.998840 0.040536 -0.025984
0.68000001 6.48000002 0.01000000 106 186 109 97.000000 1.000000 4.000000 1.000000 -60.708740 114.000000 231.000000 0.901084 0.426540 0.078176
0.66000003 6.48999977 0.05000000 106 186 109 97.000000 1.000000 4.000000 1.000000 -60.708740 114.000000 231.000000 0.927912 0.233749 0.290415
0.63000000 6.46000004 0.03000000 106 186 109 97.000000 1.000000 4.000000 1.000000 -60.708740 114.000000 231.000000 0.917060 0.369352 0.150269
0.55000001 6.51000023 0.05000000 106 186 109 97.000000 1.000000 4.000000 1.000000 -60.708740 114.000000 231.000000 0.903616 0.419487 0.086648
0.85000002 6.23000002 0.15000001 106 186 109 97.000000 1.000000 4.000000 1.000000 -60.708740 114.000000 231.000000 0.974711 0.020232 0.222553
0.79000002 6.21000004 0.16000000 106 186 109 97.000000 1.000000 4.000000 1.000000 -60.708740 114.000000 231.000000 0.902199 0.427357 -0.058338
0.80000001 6.19999981 0.16000000 106 186 109 97.000000 1.000000 4.000000 1.000000 -60.708740 114.000000 231.000000 0.950441 0.287651 0.117977
0.89999998 6.25000000 0.10000000 106 186 109 97.000000 1.000000 4.000000 1.000000 -60.708740 114.000000 231.000000 0.907027 0.379719 -0.181978
0.89999998 6.21000004 0.13000000 106 186 109 97.000000 1.000000 4.000000 1.000000 -60.708740 114.000000 231.000000 0.976005 -0.029793 0.215698
0.85000002 6.23000002 0.14000000 106 186 109 97.000000 1.000000 4.000000 1.000000 -60.708740 114.000000 231.000000 0.850967 0.180327 0.493293
0.85000002 6.21000004 0.14000000 106 186 109 97.000000 1.000000 4.000000 1.000000 -60.708740 114.000000 231.000000 0.868047 0.216638 0.446723
0.85000002 6.19000006 0.14000000 106 186 109 97.000000 1.000000 4.000000 1.000000 -60.708740 114.000000 231.000000 0.822253 0.408741 0.396018
0.79000002 6.21999979 0.14000000 106 186 109 97.000000 1.000000 4.000000 1.000000 -60.708740 114.000000 231.000000 0.947919 0.191760 -0.254320
0.88000000 6.09999990 0.16000000 106 186 109 97.000000 1.000000 4.000000 1.000000 -60.708740 114.000000 231.000000 0.944110 0.319080 0.082725
0.85000002 6.03000021 0.20000000 106 186 109 97.000000 1.000000 4.000000 1.000000 -60.708740 114.000000 231.000000 0.991078 0.053603 -0.122031
0.80000001 6.11999989 0.20000000 106 186 109 97.000000 1.000000 4.000000 1.000000 -60.708740 114.000000 231.000000 0.976113 0.171226 0.133731
0.80000001 6.11000013 0.19000000 106 186 109 97.000000 1.000000 4.000000 1.000000 -60.708740 114.000000 231.000000 0.972103 0.191379 -0.135613
0.80000001 6.11000013 0.20000000 106 186 109 97.000000 1.000000 4.000000 1.000000 -60.708740 114.000000 231.000000 0.924532 0.237900 0.297731
0.77999997 6.01999998 0.22000000 106 186 109 97.000000 1.000000 4.000000 1.000000 -60.708740 114.000000 231.000000 0.986062 0.072036 0.149976
0.88000000 6.13999987 0.14000000 106 186 109 97.000000 1.000000 4.000000 1.000000 -60.708740 114.000000 231.000000 0.936916 0.318688 -0.143615
0.80000001 6.11999989 0.14000000 106 186 109 97.000000 1.000000 4.000000 1.000000 -60.708740 114.000000 231.000000 0.990377 0.044447 -0.131063
0.73000002 6.21000004 0.19000000 106 186 109 97.000000 1.000000 4.000000 1.000000 -60.708740 114.000000 231.000000 0.860672 0.360030 -0.360030
0.73000002 6.19999981 0.19000000 106 186 109 97.000000 1.000000 4.000000 1.000000 -60.708740 114.000000 231.000000 0.960515 0.145453 -0.237180
0.73000002 6.19999981 0.17000000 106 186 109 97.000000 1.000000 4.000000 1.000000 -60.708740 114.000000 231.000000 0.950112 -0.041973 0.309073
0.70999998 6.21999979 0.20999999 106 186 109 97.000000 1.000000 4.000000 1.000000 -60.708740 114.000000 231.000000 0.932974 0.132501 0.334669
0.68000001 6.19999981 0.23000000 106 186 109 97.000000 1.000000 4.000000 1.000000 -60.708740 114.000000 231.000000 0.941444 0.199867 -0.271544
0.69000000 6.19000006 0.22000000 106 186 109 97.000000 1.000000 4.000000 1.000000 -60.708740 114.000000 231.000000 0.964401 0.033255 0.262347
0.68000001 6.15999985 0.25000000 106 186 109 97.000000 1.000000 4.000000 1.000000 -60.708740 114.000000 231.000000 0.984535 0.043315 0.169747
0.74000001 6.11999989 0.22000000 106 186 109 97.000000 1.000000 4.000000 1.000000 -60.708740 114.000000 231.000000 0.938417 0.221049 0.265537
0.73000002 6.11999989 0.19000000 106 186 109 97.000000 1.000000 4.000000 1.000000 -60.708740 114.000000 231.000000 0.830186 0.374770 -0.412721
0.74000001 6.11999989 0.22000000 106 186 109 97.000000 1.000000 4.000000 1.000000 -60.708740 114.000000 231.000000 0.938417 0.221049 0.265537
0.68000001 6.17000008 0.23000000 106 186 109 97.000000 1.000000 4.000000 1.000000 -60.708740 114.000000 231.000000 0.894739 0.305194 -0.326036
0.69999999 6.17000008 0.20000000 106 186 109 97.000000 1.000000 4.000000 1.000000 -60.708740 114.000000 231.000000 0.950137 0.087564 -0.299287
0.69000000 6.03000021 0.27000001 106 186 109 97.000000 1.000000 4.000000 1.000000 -60.708740 114.000000 231.000000 0.667086 0.698777 -0.258278
0.70999998 6.01000023 0.27000001 106 186 109 97.000000 1.000000 4.000000 1.000000 -60.708740 114.000000 231.000000 0.849467 0.225616 -0.476973
0.69000000 6.03000021 0.27000001 106 186 109 97.000000 1.000000 4.000000 1.000000 -60.708740 114.000000 231.000000 0.667086 0.698777 -0.258278
0.70999998 6.01000023 0.27000001 106 186 109 97.000000 1.000000 4.000000 1.000000 -60.708740 114.000000 231.000000 0.849467 0.225616 -0.476973
0.61000001 6.05999994 0.30000001 106 186 109 97.000000 1.000000 4.000000 1.000000 -60.708740 114.000000 231.000000 0.807292 0.537678 -0.243272
0.61000001 6.05999994 0.30000001 106 186 109 97.000000 1.000000 4.000000 1.000000 -60.708740 114.000000 231.000000 0.807292 0.537678 -0.243272
0.61000001 6.03999996 0.28999999 106 186 109 97.000000 1.000000 4.000000 1.000000 -60.708740 114.000000 231.000000 0.780923 0.449721 -0.433486
0.73000002 6.07999992 0.14000000 106 186 109 97.000000 1.000000 4.000000 1.000000 -60.708740 114.000000 231.000000 0.994072 0.029723 0.104581
0.81999999 5.86000013 0.33000001 106 186 109 97.000000 1.000000 4.000000 1.000000 -60.708740 114.000000 231.000000 0.976005 0.215698 0.029793
0.76999998 5.84000015 0.37000000 106 186 109 97.000000 1.000000 4.000000 1.000000 -60.708740 114.000000 231.000000 0.729864 0.638434 -0.244339
0.76999998 5.82999992 0.36000001 106 186 109 97.000000 1.000000 4.000000 1.000000 -60.708740 114.000000 231.000000 0.898195 0.402242 -0.177332
0.76999998 5.82999992 0.37000000 106 186 109 97.000000 1.000000 4.000000 1.000000 -60.708740 114.000000 231.000000 0.893449 0.247439 -0.374863
0.76999998 5.82000017 0.36000001 106 186 109 97.000000 1.000000 4.000000 1.000000 -60.708740 114.000000 231.000000 0.711237 0.702951 -0.001381
0.79000002 5.80999994 0.33000001 106 186 109 97.000000 1.000000 4.000000 1.000000 -60.708740 114.000000 231.000000 0.968377 0.234872 -0.084152
0.77999997 5.82000017 0.31999999 106 186 109 97.000000 1.000000 4.000000 1.000000 -60.708740 114.000000 231.000000 0.725658 0.421510 -0.543830
0.75999999 5.78999996 0.37000000 106 186 109 97.000000 1.000000 4.000000 1.000000 -60.708740 114.000000 231.000000 0.950922 0.065625 -0.302391
0.76999998 5.78000021 0.37000000 106 186 109 97.000000 1.000000 4.000000 1.000000 -60.708740 114.000000 231.000000 0.601147 0.773342 -0.201407
0.75999999 5.78000021 0.37000000 106 186 109 97.000000 1.000000 4.000000 1.000000 -60.708740 114.000000 231.000000 0.697218 0.628640 -0.344527
0.75999999 5.78000021 0.36000001 106 186 109 97.000000 1.000000 4.000000 1.000000 -60.708740 114.000000 231.000000 0.778506 0.453451 -0.433948
0.75999999 5.78999996 0.38000000 106 186 109 97.000000 1.000000 4.000000 1.000000 -60.708740 114.000000 231.000000 0.774370 0.346132 -0.529663
0.77999997 5.76999998 0.34999999 106 186 109 97.000000 1.000000 4.000000 1.000000 -60.708740 114.000000 231.000000 0.816191 0.514589 -0.262736
0.81000000 5.73999977 0.34000000 106 186 109 97.000000 1.000000 4.000000 1.000000 -60.708740 114.000000 231.000000 0.893224 0.215606 -0.394544
0.81000000 5.73000002 0.33000001 106 186 109 97.000000 1.000000 4.000000 1.000000 -60.708740 114.000000 231.000000 0.860518 0.503958 -0.074400
0.81000000 5.71999979 0.33000001 106 186 109 97.000000 1.000000 4.000000 1.000000 -60.708740 114.000000 231.000000 0.949097 0.265963 -0.168758
0.81000000 5.71999979 0.34999999 106 186 109 97.000000 1.000000 4.000000 1.000000 -60.708740 114.000000 231.000000 0.816308 0.276265 -0.507266
0.81000000 5.67999983 0.33000001 106 186 109 97.000000 1.000000 4.000000 1.000000 -60.708740 114.000000 231.000000 0.620014 0.751200 -0.226453
0.81000000 5.69000006 0.34999999 106 186 109 97.000000 1.000000 4.000000 1.000000 -60.708740 114.000000 231.000000 0.635166 0.696896 -0.333016
0.82999998 5.67000008 0.31999999 106 186 109 97.000000 1.000000 4.000000 1.000000 -60.708740 114.000000 231.000000 0.661236 0.738853 -0.129859
0.81999999 5.67000008 0.33000001 106 186 109 97.000000 1.000000 4.000000 1.000000 -60.708740 114.000000 231.000000 0.661126 0.705519 -0.255255
0.81000000 5.67999983 0.33000001 106 186 109 97.000000 1.000000 4.000000 1.000000 -60.708740 114.000000 231.000000 0.620014 0.751200 -0.226453
0.80000001 5.69000006 0.33000001 106 186 109 97.000000 1.000000 4.000000 1.000000 -60.708740 114.000000 231.000000 0.776890 0.381147 -0.501167
0.72000003 5.96000004 0.33000001 106 186 109 97.000000 1.000000 4.000000 1.000000 -60.708740 114.000000 231.000000 0.971042 0.217322 -0.099240
0.72000003 5.94999981 0.33000001 106 186 109 97.000000 1.000000 4.000000 1.000000 -60.708740 114.000000 231.000000 0.985410 0.141794 0.094132
0.68000001 5.96999979 0.33000001 106 186 109 97.000000 1.000000 4.000000 1.000000 -60.708740 114.000000 231.000000 0.639068 0.748884 -0.175400
0.69000000 5.96000004 0.34000000 106 186 109 97.000000 1.000000 4.000000 1.000000 -60.708740 114.000000 231.000000 0.682438 0.458852 -0.568976
0.70999998 5.96000004 0.34999999 106 186 109 97.000000 1.000000 4.000000 1.000000 -60.708740 114.000000 231.000000 0.977932 0.082004 -0.192159
0.72000003 5.88000011 0.36000001 106 186 109 97.000000 1.000000 4.000000 1.000000 -60.708740 114.000000 231.000000 0.850303 0.419730 -0.317508
0.74000001 5.88000011 0.31999999 106 186 109 97.000000 1.000000 4.000000 1.000000 -60.708740 114.000000 231.000000 0.822253 0.396018 -0.408741
0.72000003 5.90000010 0.34999999 106 186 109 97.000000 1.000000 4.000000 1.000000 -60.708740 114.000000 231.000000 0.696975 0.661887 -0.275919
0.72000003 5.86000013 0.38999999 106 186 109 97.000000 1.000000 4.000000 1.000000 -60.708740 114.000000 231.000000 0.632822 0.575446 -0.518071
0.68000001 5.90000010 0.36000001 106 186 109 97.000000 1.000000 4.000000 1.000000 -60.708740 114.000000 231.000000 0.611497 0.709336 -0.350591
0.70999998 5.88000011 0.36000001 106 186 109 97.000000 1.000000 4.000000 1.000000 -60.708740 114.000000 231.000000 0.881952 0.419483 -0.214929
0.68000001 5.90999985 0.36000001 106 186 109 97.000000 1.000000 4.000000 1.000000 -60.708740 114.000000 231.000000 0.911980 0.133085 -0.388047
0.70999998 5.92000008 0.34000000 106 186 109 97.000000 1.000000 4.000000 1.000000 -60.708740 114.000000 231.000000 0.651951 0.742710 -0.152777
0.67000002 5.92000008 0.37000000 106 186 109 97.000000 1.000000 4.000000 1.000000 -60.708740 114.000000 231.000000 0.908327 0.282298 -0.308626
0.67000002 5.92000008 0.36000001 106 186 109 97.000000 1.000000 4.000000 1.000000 -60.708740 114.000000 231.000000 0.866779 0.242698 -0.435651
0.74000001 5.80000019 0.38000000 106 186 109 97.000000 1.000000 4.000000 1.000000 -60.708740 114.000000 231.000000 0.651174 0.405948 -0.641232
0.74000001 5.80999994 0.37000000 106 186 109 97.000000 1.000000 4.000000 1.000000 -60.708740 114.000000 231.000000 0.876819 0.298330 -0.377078
0.74000001 5.80000019 0.36000001 106 186 109 97.000000 1.000000 4.000000 1.000000 -60.708740 114.000000 231.000000 0.818642 0.334107 -0.467117
0.75000000 5.78000021 0.37000000 106 186 109 97.000000 1.000000 4.000000 1.000000 -60.708740 114.000000 231.000000 0.704460 0.585675 -0.400899
0.92000002 5.96999979 0.23999999 106 186 109 97.000000 1.000000 4.000000 1.000000 -60.708740 114.000000 231.000000 0.863949 0.320720 -0.388240
0.89999998 5.96999979 0.20000000 106 186 109 97.000000 1.000000 4.000000 1.000000 -60.708740 114.000000 231.000000 0.940741 0.151118 -0.303596
0.88999999 5.94000006 0.20999999 106 186 109 97.000000 1.000000 4.000000 1.000000 -60.708740 114.000000 231.000000 0.718905 0.499747 -0.483144
0.88999999 5.94000006 0.20999999 106 186 109 97.000000 1.000000 4.000000 1.000000 -60.708740 114.000000 231.000000 0.718905 0.499747 -0.483144
0.88999999 5.94000006 0.22000000 106 186 109 97.000000 1.000000 4.000000 1.000000 -60.708740 114.000000 231.000000 0.988952 0.092458 0.115865
0.88999999 5.92999983 0.20999999 106 186 109 97.000000 1.000000 4.000000 1.000000 -60.708740 114.000000 231.000000 0.981764 0.142691 0.125617
0.88999999 5.88999987 0.25000000 106 186 109 97.000000 1.000000 4.000000 1.000000 -60.708740 114.000000 231.000000 0.739124 0.484482 -0.467946
0.75999999 5.98000002 0.28999999 106 186 109 97.000000 1.000000 4.000000 1.000000 -60.708740 114.000000 231.000000 0.842686 0.456133 -0.286049
0.77999997 5.98000002 0.25000000 106 186 109 97.000000 1.000000 4.000000 1.000000 -60.708740 114.000000 231.000000 0.943267 0.233400 -0.236162
0.77999997 5.98000002 0.25000000 106 186 109 97.000000 1.000000 4.000000 1.000000 -60.708740 114.000000 231.000000 0.943267 0.233400 -0.236162
0.77999997 5.98999977 0.25000000 106 186 109 97.000000 1.000000 4.000000 1.000000 -60.708740 114.000000 231.000000 0.999987 0.000981 -0.004907
0.82999998 5.98999977 0.19000000 106 186 109 97.000000 1.000000 4.000000 1.000000 -60.708740 114.000000 231.000000 0.873797 0.305449 -0.378392
0.79000002 6.00000000 0.22000000 106 186 109 97.000000 1.000000 4.000000 1.000000 -60.708740 114.000000 231.000000 0.892718 0.309535 -0.327479
0.80000001 5.98000002 0.23000000 106 186 109 97.000000 1.000000 4.000000 1.000000 -60.708740 114.000000 231.000000 0.745773 0.485658 -0.456025
0.82999998 5.88999987 0.25999999 106 186 109 97.000000 1.000000 4.000000 1.000000 -60.708740 114.000000 231.000000 0.740930 0.624520 -0.246977
0.81000000 5.84000015 0.31000000 106 186 109 97.000000 1.000000 4.000000 1.000000 -60.708740 114.000000 231.000000 0.918692 0.361568 -0.158977
0.83999997 5.84999990 0.28000000 106 186 109 97.000000 1.000000 4.000000 1.000000 -60.708740 114.000000 231.000000 0.884454 0.423893 -0.195079
0.80000001 5.88999987 0.30000001 106 186 109 97.000000 1.000000 4.000000 1.000000 -60.708740 114.000000 231.000000 0.770626 0.620406 -0.145713
0.80000001 5.84000015 0.30000001 106 186 109 97.000000 1.000000 4.000000 1.000000 -60.708740 114.000000 231.000000 0.740101 0.405333 -0.536615
0.89999998 5.76000023 0.25000000 106 186 109 97.000000 1.000000 4.000000 1.000000 -60.708740 114.000000 231.000000 0.955461 0.292539 -0.038922
0.86000001 5.76999998 0.15000001 106 186 109 97.000000 1.000000 4.000000 1.000000 -60.708740 114.000000 231.000000 0.921149 0.254358 -0.294595
0.92000002 5.73000002 0.27000001 106 186 109 97.000000 1.000000 4.000000 1.000000 -60.708740 114.000000 231.000000 0.915524 0.398112 -0.057639
0.89999998 5.75000000 0.25000000 106 186 109 97.000000 1.000000 4.000000 1.000000 -60.708740 114.000000 231.000000 0.929239 0.040515 -0.367252
0.91000003 5.73999977 0.25000000 106 186 109 97.000000 1.000000 4.000000 1.000000 -60.708740 114.000000 231.000000 0.819935 0.538035 -0.195511
0.86000001 5.71999979 0.28000000 106 186 109 97.000000 1.000000 4.000000 1.000000 -60.708740 114.000000 231.000000 0.713811 0.276262 -0.643547
0.87000000 5.71999979 0.28999999 106 186 109 97.000000 1.000000 4.000000 1.000000 -60.708740 114.000000 231.000000 0.875575 0.282785 -0.391665
0.87000000 5.67999983 0.28000000 106 186 109 97.000000 1.000000 4.000000 1.000000 -60.708740 114.000000 231.000000 0.785941 0.605367 -0.125810
0.87000000 5.67999983 0.28000000 106 186 109 97.000000 1.000000 4.000000 1.000000 -60.708740 114.000000 231.000000 0.785941 0.605367 -0.125810
0.88999999 5.67999983 0.19000000 106 186 109 97.000000 1.000000 4.000000 1.000000 -60.708740 114.000000 231.000000 0.731295 0.437456 -0.523297
0.85000002 5.67000008 0.20000000 106 186 109 97.000000 1.000000 4.000000 1.000000 -60.708740 114.000000 231.000000 0.989301 0.145780 0.005564
0.83999997 5.76999998 0.28999999 106 186 109 97.000000 1.000000 4.000000 1.000000 -60.708740 114.000000 231.000000 0.797363 0.507702 -0.326266
0.81999999 5.78000021 0.31000000 106 186 109 97.000000 1.000000 4.000000 1.000000 -60.708740 114.000000 231.000000 0.796258 0.523979 -0.302356
0.79000002 5.82000017 0.31000000 106 186 109 97.000000 1.000000 4.000000 1.000000 -60.708740 114.000000 231.000000 0.786172 0.614331 -0.067304
0.75999999 5.80999994 0.28999999 106 186 109 97.000000 1.000000 4.000000 1.000000 -60.708740 114.000000 231.000000 0.725979 0.627054 -0.282414
0.79000002 5.78000021 0.28999999 106 186 109 97.000000 1.000000 4.000000 1.000000 -60.708740 114.000000 231.000000 0.847167 0.527904 -0.060212
0.83999997 5.73000002 0.30000001 106 186 109 97.000000 1.000000 4.000000 1.000000 -60.708740 114.000000 231.000000 0.790160 0.601112 -0.119632
0.82999998 5.73999977 0.31000000 106 186 109 97.000000 1.000000 4.000000 1.000000 -60.708740 114.000000 231.000000 0.661065 0.728552 -0.179454
0.81999999 5.75000000 0.28999999 106 186 109 97.000000 1.000000 4.000000 1.000000 -60.708740 114.000000 231.000000 0.650015 0.475334 -0.592907
0.81000000 5.73000002 0.31000000 106 186 109 97.000000 1.000000 4.000000 1.000000 -60.708740 114.000000 231.000000 0.961162 0.270131 -0.056539
0.83999997 5.73000002 0.30000001 106 186 109 97.000000 1.000000 4.000000 1.000000 -60.708740 114.000000 231.000000 0.790160 0.601112 -0.119632
0.81000000 5.71000004 0.30000001 106 186 109 97.000000 1.000000 4.000000 1.000000 -60.708740 114.000000 231.000000 0.865747 0.304927 -0.396865
0.82999998 5.69999981 0.25999999 106 186 109 97.000000 1.000000 4.000000 1.000000 -60.708740 114.000000 231.000000 0.707623 0.487844 -0.511154
0.72000003 5.98999977 0.28000000 106 186 109 97.000000 1.000000 4.000000 1.000000 -60.708740 114.000000 231.000000 0.990155 0.121032 -0.070314
0.72000003 5.98999977 0.28999999 106 186 109 97.000000 1.000000 4.000000 1.000000 -60.708740 114.000000 231.000000 0.955431 0.021121 -0.294457
0.73000002 5.98000002 0.31000000 106 186 109 97.000000 1.000000 4.000000 1.000000 -60.708740 114.000000 231.000000 0.997522 0.056665 -0.041697
0.72000003 5.98999977 0.28999999 106 186 109 97.000000 1.000000 4.000000 1.000000 -60.708740 114.000000 231.000000 0.955431 0.021121 -0.294457
0.68000001 6.00000000 0.25999999 106 186 109 97.000000 1.000000 4.000000 1.000000 -60.708740 114.000000 231.000000 0.965391 0.061196 -0.253525
0.68000001 5.96999979 0.27000001 106 186 109 97.000000 1.000000 4.000000 1.000000 -60.708740 114.000000 231.000000 0.925131 0.217427 -0.311219
0.74000001 5.88999987 0.31000000 106 186 109 97.000000 1.000000 4.000000 1.000000 -60.708740 114.000000 231.000000 0.983996 0.178186 0.001135
0.63999999 5.73000002 0.02000000 106 186 109 97.000000 1.000000 4.000000 1.000000 -60.708740 114.000000 231.000000 0.769041 0.601926 0.215084
0.60000002 5.73999977 0.04000000 106 186 109 97.000000 1.000000 4.000000 1.000000 -60.708740 114.000000 231.000000 0.934127 0.355919 -0.026983
0.63000000 5.73999977 0.03000000 106 186 109 97.000000 1.000000 4.000000 1.000000 -60.708740 114.000000 231.000000 0.972258 0.231259 -0.035113
0.63000000 5.75000000 -0.01000000 106 186 109 97.000000 1.000000 4.000000 1.000000 -60.708740 114.000000 231.000000 0.839562 0.542761 0.023359
0.60000002 5.69000006 0.00000000 106 186 109 97.000000 1.000000 4.000000 1.000000 -60.708740 114.000000 231.000000 0.999802 0.015042 -0.013037
0.60000002 5.69000006 0.00000000 106 186 109 97.000000 1.000000 4.000000 1.000000 -60.708740 114.000000 231.000000 0.999802 0.015042 -0.013037
0.58999997 5.76000023 0.04000000 106 186 109 97.000000 1.000000 4.000000 1.000000 -60.708740 114.000000 231.000000 0.987192 0.105474 -0.119696
0.57999998 5.69999981 0.06000000 106 186 109 97.000000 1.000000 4.000000 1.000000 -60.708740 114.000000 231.000000 0.966539 -0.008426 -0.256380
0.57999998 5.69999981 0.05000000 106 186 109 97.000000 1.000000 4.000000 1.000000 -60.708740 114.000000 231.000000 0.976644 0.168387 -0.133462
0.47000000 5.78000021 -0.02000000 106 186 109 97.000000 1.000000 4.000000 1.000000 -60.708740 114.000000 231.000000 0.768995 0.639218 -0.006903
1.33000004 5.40000010 0.16000000 106 186 109 97.000000 1.000000 4.000000 1.000000 -60.708740 114.000000 231.000000 0.595736 0.769946 -0.228651
1.33000004 5.38999987 0.15000001 106 186 109 97.000000 1.000000 4.000000 1.000000 -60.708740 114.000000 231.000000 0.649084 0.547928 -0.527697
1.29999995 5.40999985 0.18000001 106 186 109 97.000000 1.000000 4.000000 1.000000 -60.708740 114.000000 231.000000 0.878881 0.367587 -0.304053
1.26999998 5.34999990 0.20000000 106 186 109 97.000000 1.000000 4.000000 1.000000 -60.708740 114.000000 231.000000 0.769543 0.120102 -0.627200
1.27999997 5.34999990 0.20000000 106 186 109 97.000000 1.000000 4.000000 1.000000 -60.708740 114.000000 231.000000 -0.319675 -0.474000 0.820446
1.27999997 5.36999989 0.15000001 106 186 109 97.000000 1.000000 4.000000 1.000000 -60.708740 114.000000 231.000000 0.511876 0.816823 -0.266051
1.26999998 5.42000008 0.10000000 106 186 109 97.000000 1.000000 4.000000 1.000000 -60.708740 114.000000 231.000000 0.787171 0.511421 -0.344688
1.27999997 5.42000008 0.12000000 106 186 109 97.000000 1.000000 4.000000 1.000000 -60.708740 114.000000 231.000000 0.890830 0.370311 -0.263233
1.32000005 5.34999990 0.13000000 106 186 109 97.000000 1.000000 4.000000 1.000000 -60.708740 114.000000 231.000000 0.823433 0.336643 -0.456760
1.28999996 5.40999985 0.13000000 106 186 109 97.000000 1.000000 4.000000 1.000000 -60.708740 114.000000 231.000000 -0.738949 -0.325008 0.590189
1.27999997 5.38999987 0.08000000 106 186 109 97.000000 1.000000 4.000000 1.000000 -60.708740 114.000000 231.000000 0.816760 0.293156 -0.496954
1.28999996 5.38000011 0.08000000 106 186 109 97.000000 1.000000 4.000000 1.000000 -60.708740 114.000000 231.000000 0.750247 0.431761 -0.500712
1.28999996 5.30000019 0.09000000 106 186 109 97.000000 1.000000 4.000000 1.000000 -60.708740 114.000000 231.000000 0.757650 0.420553 -0.499100
1.26999998 5.28999996 0.11000000 106 186 109 97.000000 1.000000 4.000000 1.000000 -60.708740 114.000000 231.000000 0.761347 0.456808 -0.460083
1.29999995 5.32999992 0.01000000 106 186 109 97.000000 1.000000 4.000000 1.000000 -60.708740 114.000000 231.000000 0.517441 0.681549 -0.517441
1.30999994 5.23000002 0.10000000 106 186 109 97.000000 1.000000 4.000000 1.000000 -60.708740 114.000000 231.000000 0.857943 0.363273 -0.363273
1.32000005 5.19000006 0.12000000 106 186 109 97.000000 1.000000 4.000000 1.000000 -60.708740 114.000000 231.000000 0.675026 0.706205 -0.213576
1.30999994 5.19000006 0.13000000 106 186 109 97.000000 1.000000 4.000000 1.000000 -60.708740 114.000000 231.000000 0.615627 0.659005 -0.432107
1.29999995 5.21000004 0.12000000 106 186 109 97.000000 1.000000 4.000000 1.000000 -60.708740 114.000000 231.000000 0.525741 0.805090 -0.274641
1.29999995 5.21999979 0.12000000 106 186 109 97.000000 1.000000 4.000000 1.000000 -60.708740 114.000000 231.000000 0.871935 0.457288 -0.174975
1.27999997 5.21000004 0.10000000 106 186 109 97.000000 1.000000 4.000000 1.000000 -60.708740 114.000000 231.000000 0.746388 0.599348 -0.289285
1.29999995 5.19999981 0.12000000 106 186 109 97.000000 1.000000 4.000000 1.000000 -60.708740 114.000000 231.000000 0.591581 0.632031 -0.500569
1.28999996 5.19000006 -0.02000000 106 186 109 97.000000 1.000000 4.000000 1.000000 -60.708740 114.000000 231.000000 0.692403 0.452147 -0.562264
0.94000000 5.51999998 0.33000001 106 186 109 97.000000 1.000000 4.000000 1.000000 -60.708740 114.000000 231.000000 0.546585 0.706075 -0.450226
0.94000000 5.59000015 0.31999999 106 186 109 97.000000 1.000000 4.000000 1.000000 -60.708740 114.000000 231.000000 0.839567 0.174475 -0.514477
0.94000000 5.53000021 0.31999999 106 186 109 97.000000 1.000000 4.000000 1.000000 -60.708740 114.000000 231.000000 0.834771 0.416599 -0.360005
0.93000001 5.42000008 0.34999999 106 186 109 97.000000 1.000000 4.000000 1.000000 -60.708740 114.000000 231.000000 0.678566 0.684922 -0.265387
0.93000001 5.36000013 0.31999999 106 186 109 97.000000 1.000000 4.000000 1.000000 -60.708740 114.000000 231.000000 0.557066 0.802605 -0.213312
1.11000001 5.65000010 0.11000000 106 186 109 97.000000 1.000000 4.000000 1.000000 -60.708740 114.000000 231.000000 0.741875 0.542076 -0.394684
1.25000000 5.34000015 0.12000000 106 186 109 97.000000 1.000000 4.000000 1.000000 -60.708740 114.000000 231.000000 0.805639 0.220280 -0.549930
1.25000000 5.36000013 0.09000000 106 186 109 97.000000 1.000000 4.000000 1.000000 -60.708740 114.000000 231.000000 0.618453 0.697195 -0.362541
1.23000002 5.34999990 0.01000000 106 186 109 97.000000 1.000000 4.000000 1.000000 -60.708740 114.000000 231.000000 0.620170 0.576235 -0.532299
1.14999998 5.42000008 0.06000000 106 186 109 97.000000 1.000000 4.000000 1.000000 -60.708740 114.000000 231.000000 0.531262 0.618963 -0.578486
1.15999997 5.34000015 0.14000000 106 186 109 97.000000 1.000000 4.000000 1.000000 -60.708740 114.000000 231.000000 0.720825 0.414021 -0.555876
0.97000003 5.63000011 0.28000000 106 186 109 97.000000 1.000000 4.000000 1.000000 -60.708740 114.000000 231.000000 0.834045 0.428803 -0.347126
0.97000003 5.61000013 0.25999999 106 186 109 97.000000 1.000000 4.000000 1.000000 -60.708740 114.000000 231.000000 0.930924 0.364942 0.014085
0.95999998 5.63000011 0.28000000 106 186 109 97.000000 1.000000 4.000000 1.000000 -60.708740 114.000000 231.000000 0.618601 0.724647 -0.303677
0.94999999 5.65999985 0.27000001 106 186 109 97.000000 1.000000 4.000000 1.000000 -60.708740 114.000000 231.000000 0.892790 0.318533 -0.318533
0.93000001 5.65000010 0.20000000 106 186 109 97.000000 1.000000 4.000000 1.000000 -60.708740 114.000000 231.000000 0.907366 0.367851 -0.203400
0.94999999 5.63999987 0.23000000 106 186 109 97.000000 1.000000 4.000000 1.000000 -60.708740 114.000000 231.000000 0.964854 0.154950 -0.212242
0.93000001 5.61999989 0.20999999 106 186 109 97.000000 1.000000 4.000000 1.000000 -60.708740 114.000000 231.000000 0.657119 0.576449 -0.485696
1.00000000 5.51999998 0.23000000 106 186 109 97.000000 1.000000 4.000000 1.000000 -60.708740 114.000000 231.000000 0.787236 0.402509 -0.467169
0.93000001 5.53000021 0.23000000 106 186 109 97.000000 1.000000 4.000000 1.000000 -60.708740 114.000000 231.000000 0.898131 0.134791 -0.418560
0.94999999 5.53000021 0.18000001 106 186 109 97.000000 1.000000 4.000000 1.000000 -60.708740 114.000000 231.000000 0.802107 0.478703 -0.357026
1.01999998 5.57000017 0.08000000 106 186 109 97.000000 1.000000 4.000000 1.000000 -60.708740 114.000000 231.000000 0.863559 0.314440 -0.394200
1.00999999 5.53999996 0.06000000 106 186 109 97.000000 1.000000 4.000000 1.000000 -60.708740 114.000000 231.000000 0.670715 0.526150 -0.522788
0.93000001 5.42999983 0.23999999 106 186 109 97.000000 1.000000 4.000000 1.000000 -60.708740 114.000000 231.000000 0.718027 0.688540 -0.101733
0.93000001 5.42999983 0.23999999 106 186 109 97.000000 1.000000 4.000000 1.000000 -60.708740 114.000000 231.000000 0.718027 0.688540 -0.101733
1.00999999 5.50000000 0.15000001 106 186 109 97.000000 1.000000 4.000000 1.000000 -60.708740 114.000000 231.000000 0.764284 0.273750 -0.583894
0.98000002 5.42999983 0.23000000 106 186 109 97.000000 1.000000 4.000000 1.000000 -60.708740 114.000000 231.000000 0.546434 0.712523 -0.440137
0.94999999 5.48000002 0.19000000 106 186 109 97.000000 1.000000 4.000000 1.000000 -60.708740 114.000000 231.000000 0.817059 0.212283 -0.536052
0.93000001 5.42999983 0.23000000 106 186 109 97.000000 1.000000 4.000000 1.000000 -60.708740 114.000000 231.000000 0.772933 0.616845 -0.148583
0.94999999 5.44999981 0.20999999 106 186 109 97.000000 1.000000 4.000000 1.000000 -60.708740 114.000000 231.000000 0.722374 0.622625 -0.300855
0.94999999 5.42000008 0.20999999 106 186 109 97.000000 1.000000 4.000000 1.000000 -60.708740 114.000000 231.000000 0.978453 0.184914 -0.091845
0.97000003 5.34000015 0.28999999 106 186 109 97.000000 1.000000 4.000000 1.000000 -60.708740 114.000000 231.000000 0.727331 0.684462 -0.050013
0.94000000 5.36000013 0.23999999 106 186 109 97.000000 1.000000 4.000000 1.000000 -60.708740 114.000000 231.000000 0.503813 0.713319 -0.487185
0.93000001 5.34999990 0.27000001 106 186 109 97.000000 1.000000 4.000000 1.000000 -60.708740 114.000000 231.000000 0.537483 0.761569 -0.362111
1.00999999 5.34999990 0.15000001 106 186 109 97.000000 1.000000 4.000000 1.000000 -60.708740 114.000000 231.000000 0.864213 0.462599 -0.197832
0.95999998 5.34000015 0.22000000 106 186 109 97.000000 1.000000 4.000000 1.000000 -60.708740 114.000000 231.000000 0.929543 0.221454 -0.294802
1.08000004 5.38000011 0.05000000 106 186 109 97.000000 1.000000 4.000000 1.000000 -60.708740 114.000000 231.000000 -0.728131 -0.254293 0.636522
1.05999994 5.30000019 0.34000000 106 186 109 97.000000 1.000000 4.000000 1.000000 -60.708740 114.000000 231.000000 0.810129 0.256567 -0.527128
1.05999994 5.28999996 0.34000000 106 186 109 97.000000 1.000000 4.000000 1.000000 -60.708740 114.000000 231.000000 0.917300 0.213226 -0.336296
0.93000001 5.30000019 0.31999999 106 186 109 97.000000 1.000000 4.000000 1.000000 -60.708740 114.000000 231.000000 0.784965 0.304114 -0.539763
0.94000000 5.28999996 0.31999999 106 186 109 97.000000 1.000000 4.000000 1.000000 -60.708740 114.000000 231.000000 0.928927 0.282224 -0.239677
0.94000000 5.26999998 0.31999999 106 186 109 97.000000 1.000000 4.000000 1.000000 -60.708740 114.000000 231.000000 0.882592 0.189442 -0.430282
1.00999999 5.21999979 0.31999999 106 186 109 97.000000 1.000000 4.000000 1.000000 -60.708740 114.000000 231.000000 0.736987 0.598298 -0.314469
1.00000000 5.23000002 0.31999999 106 186 109 97.000000 1.000000 4.000000 1.000000 -60.708740 114.000000 231.000000 0.939536 0.259517 -0.223435
1.07000005 5.15999985 0.37000000 106 186 109 97.000000 1.000000 4.000000 1.000000 -60.708740 114.000000 231.000000 0.769176 0.283881 -0.572521
1.08000004 5.15000010 0.38000000 106 186 109 97.000000 1.000000 4.000000 1.000000 -60.708740 114.000000 231.000000 0.720148 0.343005 -0.603104
1.07000005 5.13000011 0.34000000 106 186 109 97.000000 1.000000 4.000000 1.000000 -60.708740 114.000000 231.000000 0.688511 0.649631 -0.322385
1.05999994 5.09000015 0.34000000 106 186 109 97.000000 1.000000 4.000000 1.000000 -60.708740 114.000000 231.000000 0.312930 0.752636 -0.579321
1.01999998 5.09000015 0.38999999 106 186 109 97.000000 1.000000 4.000000 1.000000 -60.708740 114.000000 231.000000 0.548770 0.698890 -0.458699
1.03999996 5.09000015 0.33000001 106 186 109 97.000000 1.000000 4.000000 1.000000 -60.708740 114.000000 231.000000 0.738446 0.444389 -0.507165
1.02999997 5.07999992 0.40000001 106 186 109 97.000000 1.000000 4.000000 1.000000 -60.708740 114.000000 231.000000 -0.506081 -0.569972 0.647313
1.05999994 5.05000019 0.31999999 106 186 109 97.000000 1.000000 4.000000 1.000000 -60.708740 114.000000 231.000000 0.603997 0.576927 -0.549857
0.99000001 5.15999985 0.31999999 106 186 109 97.000000 1.000000 4.000000 1.000000 -60.708740 114.000000 231.000000 0.662176 0.182828 -0.726703
