//X Y Z R G B PointSourceId ScanDirectionFlag NumberOfReturns ReturnNumber GpsTime Intensity Classification Nx Ny Nz
15.27999973 8.73999977 0.50000000 212 88 105 0.000000 0.000000 0.000000 0.000000 -60.708740 0.000000 248.000000 0.558953 0.535312 0.633255
15.31000042 8.75000000 0.49000001 212 88 105 0.000000 0.000000 0.000000 0.000000 -60.708740 0.000000 248.000000 0.904386 0.374777 0.204029
15.27999973 8.72000027 0.52999997 212 88 105 0.000000 0.000000 0.000000 0.000000 -60.708740 0.000000 248.000000 0.595680 0.135179 0.791765
15.23999977 8.78999996 0.50999999 212 88 105 0.000000 0.000000 0.000000 0.000000 -60.708740 0.000000 248.000000 0.745614 0.391652 0.539136
15.25000000 8.78999996 0.50000000 212 88 105 0.000000 0.000000 0.000000 0.000000 -60.708740 0.000000 248.000000 0.630276 0.304660 0.714097
15.25000000 8.80000019 0.49000001 212 88 105 0.000000 0.000000 0.000000 0.000000 -60.708740 0.000000 248.000000 0.878738 -0.006647 0.477257
15.25000000 8.77999973 0.50000000 212 88 105 0.000000 0.000000 0.000000 0.000000 -60.708740 0.000000 248.000000 0.526770 0.298978 0.795692
15.25000000 8.77999973 0.50000000 212 88 105 0.000000 0.000000 0.000000 0.000000 -60.708740 0.000000 248.000000 0.526770 0.298978 0.795692
15.25000000 8.81000042 0.50000000 212 88 105 0.000000 0.000000 0.000000 0.000000 -60.708740 0.000000 248.000000 0.791571 -0.020867 0.610720
15.25000000 8.78999996 0.49000001 212 88 105 0.000000 0.000000 0.000000 0.000000 -60.708740 0.000000 248.000000 0.833408 0.398586 0.382832
15.22000027 8.82999992 0.52999997 212 88 105 0.000000 0.000000 0.000000 0.000000 -60.708740 0.000000 248.000000 0.626339 0.073433 0.776084
15.19999981 8.81999969 0.54000002 212 88 105 0.000000 0.000000 0.000000 0.000000 -60.708740 0.000000 248.000000 0.616650 0.525420 0.586240
15.21000004 8.81000042 0.54000002 212 88 105 0.000000 0.000000 0.000000 0.000000 -60.708740 0.000000 248.000000 0.543779 0.447329 0.710072
15.22000027 8.81000042 0.54000002 212 88 105 0.000000 0.000000 0.000000 0.000000 -60.708740 0.000000 248.000000 0.894435 0.206408 0.396713
15.19999981 8.80000019 0.52999997 212 88 105 0.000000 0.000000 0.000000 0.000000 -60.708740 0.000000 248.000000 0.751758 -0.044054 0.657966
15.19999981 8.78999996 0.52999997 212 88 105 0.000000 0.000000 0.000000 0.000000 -60.708740 0.000000 248.000000 0.515038 -0.104729 0.850745
15.19999981 8.81000042 0.51999998 212 88 105 0.000000 0.000000 0.000000 0.000000 -60.708740 0.000000 248.000000 0.500304 0.180707 0.846783
15.22999954 8.81000042 0.50999999 212 88 105 0.000000 0.000000 0.000000 0.000000 -60.708740 0.000000 248.000000 0.608040 0.402599 0.684252
15.22999954 8.81000042 0.50999999 212 88 105 0.000000 0.000000 0.000000 0.000000 -60.708740 0.000000 248.000000 0.608040 0.402599 0.684252
15.19999981 8.81000042 0.50000000 212 88 105 0.000000 0.000000 0.000000 0.000000 -60.708740 0.000000 248.000000 0.429376 0.199195 0.880885
15.19999981 8.78999996 0.50999999 212 88 105 0.000000 0.000000 0.000000 0.000000 -60.708740 0.000000 248.000000 0.815964 0.176465 0.550512
15.22999954 8.80000019 0.50999999 212 88 105 0.000000 0.000000 0.000000 0.000000 -60.708740 0.000000 248.000000 0.793368 0.237545 0.560481
15.27000046 8.76000023 0.49000001 212 88 105 0.000000 0.000000 0.000000 0.000000 -60.708740 0.000000 248.000000 0.782308 -0.214479 0.584802
15.26000023 8.77000046 0.50000000 212 88 105 0.000000 0.000000 0.000000 0.000000 -60.708740 0.000000 248.000000 0.697963 0.301430 0.649606
15.23999977 8.76000023 0.49000001 212 88 105 0.000000 0.000000 0.000000 0.000000 -60.708740 0.000000 248.000000 0.820101 -0.043458 0.570566
15.25000000 8.73999977 0.51999998 212 88 105 0.000000 0.000000 0.000000 0.000000 -60.708740 0.000000 248.000000 0.831675 -0.099455 0.546283
15.23999977 8.71000004 0.52999997 212 88 105 0.000000 0.000000 0.000000 0.000000 -60.708740 0.000000 248.000000 0.666336 0.176158 0.724545
15.27000046 8.69999981 0.49000001 212 88 105 0.000000 0.000000 0.000000 0.000000 -60.708740 0.000000 248.000000 0.729490 0.507831 0.458206
15.25000000 8.72000027 0.49000001 212 88 105 0.000000 0.000000 0.000000 0.000000 -60.708740 0.000000 248.000000 0.874496 0.174313 0.452628
15.27000046 8.69999981 0.49000001 212 88 105 0.000000 0.000000 0.000000 0.000000 -60.708740 0.000000 248.000000 0.729490 0.507831 0.458206
15.25000000 8.69999981 0.49000001 212 88 105 0.000000 0.000000 0.000000 0.000000 -60.708740 0.000000 248.000000 0.802900 -0.186686 0.566128
15.23999977 8.71000004 0.51999998 212 88 105 0.000000 0.000000 0.000000 0.000000 -60.708740 0.000000 248.000000 0.835222 0.046014 0.547984
15.22000027 8.73999977 0.51999998 212 88 105 0.000000 0.000000 0.000000 0.000000 -60.708740 0.000000 248.000000 0.776026 0.038027 0.629553
15.22999954 8.73999977 0.50000000 212 88 105 0.000000 0.000000 0.000000 0.000000 -60.708740 0.000000 248.000000 0.811331 -0.137941 0.568080
15.22999954 8.73999977 0.49000001 212 88 105 0.000000 0.000000 0.000000 0.000000 -60.708740 0.000000 248.000000 0.905451 0.142669 0.399755
15.19999981 8.77000046 0.50999999 212 88 105 0.000000 0.000000 0.000000 0.000000 -60.708740 0.000000 248.000000 0.643773 -0.142561 0.751819
15.22000027 8.77000046 0.51999998 212 88 105 0.000000 0.000000 0.000000 0.000000 -60.708740 0.000000 248.000000 0.828927 0.305559 0.468524
15.19999981 8.75000000 0.50000000 212 88 105 0.000000 0.000000 0.000000 0.000000 -60.708740 0.000000 248.000000 0.709585 0.550053 0.440375
15.22999954 8.76000023 0.50000000 212 88 105 0.000000 0.000000 0.000000 0.000000 -60.708740 0.000000 248.000000 0.552257 0.140655 0.821723
15.31999969 8.84000015 0.44000000 212 88 105 0.000000 0.000000 0.000000 0.000000 -60.708740 0.000000 248.000000 0.686299 0.070797 0.723865
15.31999969 8.78999996 0.46000001 212 88 105 0.000000 0.000000 0.000000 0.000000 -60.708740 0.000000 248.000000 0.636150 0.286828 0.716270
15.31999969 8.81000042 0.44000000 212 88 105 0.000000 0.000000 0.000000 0.000000 -60.708740 0.000000 248.000000 0.906041 0.228328 0.356308
15.28999996 8.82999992 0.47999999 212 88 105 0.000000 0.000000 0.000000 0.000000 -60.708740 0.000000 248.000000 0.707936 0.136777 0.692906
15.30000019 8.84000015 0.44999999 212 88 105 0.000000 0.000000 0.000000 0.000000 -60.708740 0.000000 248.000000 0.951164 0.092892 0.294377
15.31000042 8.85000038 0.44999999 212 88 105 0.000000 0.000000 0.000000 0.000000 -60.708740 0.000000 248.000000 0.759955 0.175140 0.625935
15.28999996 8.84000015 0.41000000 212 88 105 0.000000 0.000000 0.000000 0.000000 -60.708740 0.000000 248.000000 0.704844 0.079931 0.704844
15.30000019 8.81000042 0.44000000 212 88 105 0.000000 0.000000 0.000000 0.000000 -60.708740 0.000000 248.000000 0.714810 0.286244 0.638052
15.30000019 8.75000000 0.47999999 212 88 105 0.000000 0.000000 0.000000 0.000000 -60.708740 0.000000 248.000000 0.575945 0.555677 0.599591
15.31000042 8.73999977 0.47999999 212 88 105 0.000000 0.000000 0.000000 0.000000 -60.708740 0.000000 248.000000 0.641546 0.527044 0.557354
15.31000042 8.76000023 0.44999999 212 88 105 0.000000 0.000000 0.000000 0.000000 -60.708740 0.000000 248.000000 0.681994 -0.041118 0.730201
15.31000042 8.73999977 0.47999999 212 88 105 0.000000 0.000000 0.000000 0.000000 -60.708740 0.000000 248.000000 0.641546 0.527044 0.557354
15.28999996 8.73999977 0.46000001 212 88 105 0.000000 0.000000 0.000000 0.000000 -60.708740 0.000000 248.000000 0.526046 0.201626 0.826210
15.28999996 8.77000046 0.46000001 212 88 105 0.000000 0.000000 0.000000 0.000000 -60.708740 0.000000 248.000000 0.531202 0.409502 0.741709
15.25000000 8.82999992 0.46000001 212 88 105 0.000000 0.000000 0.000000 0.000000 -60.708740 0.000000 248.000000 0.736865 0.206322 0.643787
15.26000023 8.85000038 0.47999999 212 88 105 0.000000 0.000000 0.000000 0.000000 -60.708740 0.000000 248.000000 0.756498 0.113993 0.643985
15.26000023 8.85000038 0.47999999 212 88 105 0.000000 0.000000 0.000000 0.000000 -60.708740 0.000000 248.000000 0.756498 0.113993 0.643985
15.25000000 8.85000038 0.47999999 212 88 105 0.000000 0.000000 0.000000 0.000000 -60.708740 0.000000 248.000000 0.965221 0.061343 0.254137
15.27000046 8.78999996 0.47999999 212 88 105 0.000000 0.000000 0.000000 0.000000 -60.708740 0.000000 248.000000 0.936462 -0.016563 0.350377
15.27000046 8.78999996 0.47999999 212 88 105 0.000000 0.000000 0.000000 0.000000 -60.708740 0.000000 248.000000 0.936462 -0.016563 0.350377
15.27000046 8.80000019 0.46000001 212 88 105 0.000000 0.000000 0.000000 0.000000 -60.708740 0.000000 248.000000 0.846434 -0.117199 0.519436
15.27000046 8.78999996 0.47999999 212 88 105 0.000000 0.000000 0.000000 0.000000 -60.708740 0.000000 248.000000 0.936462 -0.016563 0.350377
15.22000027 8.81999969 0.47999999 212 88 105 0.000000 0.000000 0.000000 0.000000 -60.708740 0.000000 248.000000 0.710072 0.543779 0.447329
15.22999954 8.82999992 0.47000000 212 88 105 0.000000 0.000000 0.000000 0.000000 -60.708740 0.000000 248.000000 0.557148 0.399371 0.728072
15.22000027 8.85000038 0.47999999 212 88 105 0.000000 0.000000 0.000000 0.000000 -60.708740 0.000000 248.000000 0.640198 -0.091874 0.762696
15.22000027 8.85000038 0.47999999 212 88 105 0.000000 0.000000 0.000000 0.000000 -60.708740 0.000000 248.000000 0.640198 -0.091874 0.762696
15.22000027 8.85000038 0.47999999 212 88 105 0.000000 0.000000 0.000000 0.000000 -60.708740 0.000000 248.000000 0.640198 -0.091874 0.762696
15.22999954 8.77999973 0.47999999 212 88 105 0.000000 0.000000 0.000000 0.000000 -60.708740 0.000000 248.000000 0.942107 -0.061243 0.329672
15.22999954 8.77999973 0.44000000 212 88 105 0.000000 0.000000 0.000000 0.000000 -60.708740 0.000000 248.000000 0.684922 0.265387 0.678566
15.26000023 8.73999977 0.47999999 212 88 105 0.000000 0.000000 0.000000 0.000000 -60.708740 0.000000 248.000000 0.580357 0.069871 0.811359
15.21000004 8.77000046 0.44999999 212 88 105 0.000000 0.000000 0.000000 0.000000 -60.708740 0.000000 248.000000 0.567418 0.411916 0.712995
15.14000034 8.98999977 0.49000001 212 88 105 0.000000 0.000000 0.000000 0.000000 -60.708740 0.000000 248.000000 0.738047 0.247065 0.627890
15.14999962 9.02000046 0.49000001 212 88 105 0.000000 0.000000 0.000000 0.000000 -60.708740 0.000000 248.000000 0.772933 0.148583 0.616845
15.14999962 8.97999954 0.50000000 212 88 105 0.000000 0.000000 0.000000 0.000000 -60.708740 0.000000 248.000000 0.466805 0.152693 0.871079
15.10999966 8.97999954 0.49000001 212 88 105 0.000000 0.000000 0.000000 0.000000 -60.708740 0.000000 248.000000 0.804279 0.187006 0.564060
15.11999989 8.96000004 0.51999998 212 88 105 0.000000 0.000000 0.000000 0.000000 -60.708740 0.000000 248.000000 0.461530 0.362517 0.809674
15.17000008 8.85999966 0.57999998 212 88 105 0.000000 0.000000 0.000000 0.000000 -60.708740 0.000000 248.000000 0.838057 0.233557 0.493064
15.18000031 8.93000031 0.49000001 212 88 105 0.000000 0.000000 0.000000 0.000000 -60.708740 0.000000 248.000000 0.628032 0.510171 0.587623
15.18999958 8.88000011 0.52999997 212 88 105 0.000000 0.000000 0.000000 0.000000 -60.708740 0.000000 248.000000 0.822312 0.366000 0.435714
15.15999985 8.89999962 0.52999997 212 88 105 0.000000 0.000000 0.000000 0.000000 -60.708740 0.000000 248.000000 0.688417 0.530969 0.494119
15.18000031 8.89999962 0.49000001 212 88 105 0.000000 0.000000 0.000000 0.000000 -60.708740 0.000000 248.000000 0.788258 0.467775 0.399794
15.14000034 8.85999966 0.56000000 212 88 105 0.000000 0.000000 0.000000 0.000000 -60.708740 0.000000 248.000000 0.452281 0.357064 0.817280
15.14000034 8.85999966 0.51999998 212 88 105 0.000000 0.000000 0.000000 0.000000 -60.708740 0.000000 248.000000 0.595633 0.397638 0.697930
15.07999992 8.98999977 0.54000002 212 88 105 0.000000 0.000000 0.000000 0.000000 -60.708740 0.000000 248.000000 0.469695 0.388992 0.792510
15.09000015 8.94999981 0.50000000 212 88 105 0.000000 0.000000 0.000000 0.000000 -60.708740 0.000000 248.000000 0.806200 0.141048 0.574584
15.06000042 9.02000046 0.50000000 212 88 105 0.000000 0.000000 0.000000 0.000000 -60.708740 0.000000 248.000000 0.600218 -0.001367 0.799835
15.05000019 8.96000004 0.50000000 212 88 105 0.000000 0.000000 0.000000 0.000000 -60.708740 0.000000 248.000000 0.415383 0.313468 0.853929
15.07999992 8.88000011 0.63999999 212 88 105 0.000000 0.000000 0.000000 0.000000 -60.708740 0.000000 248.000000 0.723133 -0.199752 0.661194
15.07999992 8.89000034 0.57999998 212 88 105 0.000000 0.000000 0.000000 0.000000 -60.708740 0.000000 248.000000 0.383152 0.370641 0.846062
15.07999992 8.88000011 0.57999998 212 88 105 0.000000 0.000000 0.000000 0.000000 -60.708740 0.000000 248.000000 0.405246 0.493130 0.769804
15.02999973 8.86999989 0.56999999 212 88 105 0.000000 0.000000 0.000000 0.000000 -60.708740 0.000000 248.000000 0.539476 0.509225 0.670564
15.07999992 8.93999958 0.51999998 212 88 105 0.000000 0.000000 0.000000 0.000000 -60.708740 0.000000 248.000000 0.683825 0.546726 0.483192
15.10000038 8.90999985 0.50000000 212 88 105 0.000000 0.000000 0.000000 0.000000 -60.708740 0.000000 248.000000 0.648966 0.554571 0.520859
15.09000015 8.85999966 0.56000000 212 88 105 0.000000 0.000000 0.000000 0.000000 -60.708740 0.000000 248.000000 0.649902 -0.156037 0.743828
15.09000015 8.85999966 0.52999997 212 88 105 0.000000 0.000000 0.000000 0.000000 -60.708740 0.000000 248.000000 0.492760 -0.034125 0.869496
15.03999996 8.93000031 0.56000000 212 88 105 0.000000 0.000000 0.000000 0.000000 -60.708740 0.000000 248.000000 0.753717 0.464710 0.464710
15.05000019 8.93999958 0.54000002 212 88 105 0.000000 0.000000 0.000000 0.000000 -60.708740 0.000000 248.000000 0.736980 0.092306 0.669582
15.03999996 8.93000031 0.55000001 212 88 105 0.000000 0.000000 0.000000 0.000000 -60.708740 0.000000 248.000000 0.911266 0.166331 0.376733
15.02999973 8.93000031 0.49000001 212 88 105 0.000000 0.000000 0.000000 0.000000 -60.708740 0.000000 248.000000 0.713451 0.400389 0.575045
15.03999996 8.93999958 0.50999999 212 88 105 0.000000 0.000000 0.000000 0.000000 -60.708740 0.000000 248.000000 0.595915 0.061156 0.800716
15.06000042 8.92000008 0.50999999 212 88 105 0.000000 0.000000 0.000000 0.000000 -60.708740 0.000000 248.000000 0.395580 0.216172 0.892629
15.06000042 8.92000008 0.50000000 212 88 105 0.000000 0.000000 0.000000 0.000000 -60.708740 0.000000 248.000000 0.467190 0.374073 0.801126
15.17000008 8.94999981 0.47000000 212 88 105 0.000000 0.000000 0.000000 0.000000 -60.708740 0.000000 248.000000 0.952963 0.214315 0.214315
15.18999958 8.97000027 0.47999999 212 88 105 0.000000 0.000000 0.000000 0.000000 -60.708740 0.000000 248.000000 0.901636 0.320221 0.290708
15.17000008 8.94999981 0.47000000 212 88 105 0.000000 0.000000 0.000000 0.000000 -60.708740 0.000000 248.000000 0.952963 0.214315 0.214315
15.14000034 8.98999977 0.46000001 212 88 105 0.000000 0.000000 0.000000 0.000000 -60.708740 0.000000 248.000000 0.486117 0.459751 0.743182
15.14000034 8.98999977 0.41000000 212 88 105 0.000000 0.000000 0.000000 0.000000 -60.708740 0.000000 248.000000 0.900092 0.140329 0.412483
15.15999985 8.90999985 0.44999999 212 88 105 0.000000 0.000000 0.000000 0.000000 -60.708740 0.000000 248.000000 0.748906 -0.189149 0.635109
15.17000008 8.92000008 0.47000000 212 88 105 0.000000 0.000000 0.000000 0.000000 -60.708740 0.000000 248.000000 0.463893 0.211680 0.860229
15.18000031 8.89999962 0.47999999 212 88 105 0.000000 0.000000 0.000000 0.000000 -60.708740 0.000000 248.000000 0.795130 0.213778 0.567510
15.10999966 8.85999966 0.44999999 212 88 105 0.000000 0.000000 0.000000 0.000000 -60.708740 0.000000 248.000000 0.523166 0.499766 0.690312
15.10999966 8.85999966 0.47999999 212 88 105 0.000000 0.000000 0.000000 0.000000 -60.708740 0.000000 248.000000 0.847309 0.209939 0.487845
15.11999989 8.89000034 0.43000001 212 88 105 0.000000 0.000000 0.000000 0.000000 -60.708740 0.000000 248.000000 0.740487 0.126643 0.660031
15.06999969 9.01000023 0.43000001 212 88 105 0.000000 0.000000 0.000000 0.000000 -60.708740 0.000000 248.000000 0.715318 0.560029 0.417957
15.10000038 8.94999981 0.47000000 212 88 105 0.000000 0.000000 0.000000 0.000000 -60.708740 0.000000 248.000000 0.773602 0.035228 0.632691
15.10000038 8.94999981 0.44999999 212 88 105 0.000000 0.000000 0.000000 0.000000 -60.708740 0.000000 248.000000 0.576718 0.427137 0.696383
15.05000019 8.94999981 0.46000001 212 88 105 0.000000 0.000000 0.000000 0.000000 -60.708740 0.000000 248.000000 0.442260 0.406879 0.799284
15.03999996 8.96000004 0.46000001 212 88 105 0.000000 0.000000 0.000000 0.000000 -60.708740 0.000000 248.000000 0.913943 0.235344 0.330637
15.09000015 9.01000023 0.34000000 212 88 105 0.000000 0.000000 0.000000 0.000000 -60.708740 0.000000 248.000000 0.685473 0.058919 0.725710
15.10000038 8.90999985 0.46000001 212 88 105 0.000000 0.000000 0.000000 0.000000 -60.708740 0.000000 248.000000 0.744277 -0.192618 0.639492
15.07999992 8.90999985 0.46000001 212 88 105 0.000000 0.000000 0.000000 0.000000 -60.708740 0.000000 248.000000 0.448466 0.278943 0.849158
15.06999969 8.93999958 0.43000001 212 88 105 0.000000 0.000000 0.000000 0.000000 -60.708740 0.000000 248.000000 0.854207 0.212422 0.474560
15.06999969 8.92000008 0.41999999 212 88 105 0.000000 0.000000 0.000000 0.000000 -60.708740 0.000000 248.000000 0.820368 0.023518 0.571352
15.10000038 8.89999962 0.46000001 212 88 105 0.000000 0.000000 0.000000 0.000000 -60.708740 0.000000 248.000000 0.829469 0.099536 0.549613
15.09000015 8.89000034 0.46000001 212 88 105 0.000000 0.000000 0.000000 0.000000 -60.708740 0.000000 248.000000 0.874320 0.235452 0.424413
15.10000038 8.89000034 0.44999999 212 88 105 0.000000 0.000000 0.000000 0.000000 -60.708740 0.000000 248.000000 0.581864 0.058045 0.811212
15.05000019 8.89999962 0.34000000 212 88 105 0.000000 0.000000 0.000000 0.000000 -60.708740 0.000000 248.000000 0.702546 0.172958 0.690301
15.11999989 8.81999969 0.61000001 212 88 105 0.000000 0.000000 0.000000 0.000000 -60.708740 0.000000 248.000000 0.538035 -0.195511 0.819935
15.11999989 8.85000038 0.57999998 212 88 105 0.000000 0.000000 0.000000 0.000000 -60.708740 0.000000 248.000000 0.523567 0.004038 0.851975
15.10999966 8.78999996 0.64999998 212 88 105 0.000000 0.000000 0.000000 0.000000 -60.708740 0.000000 248.000000 0.822242 0.336157 0.459256
15.15999985 8.81999969 0.50999999 212 88 105 0.000000 0.000000 0.000000 0.000000 -60.708740 0.000000 248.000000 0.872970 0.134192 0.468951
15.17000008 8.81999969 0.50000000 212 88 105 0.000000 0.000000 0.000000 0.000000 -60.708740 0.000000 248.000000 0.453017 0.482669 0.749537
15.18000031 8.77999973 0.50000000 212 88 105 0.000000 0.000000 0.000000 0.000000 -60.708740 0.000000 248.000000 0.948626 0.174569 0.263883
15.18000031 8.77999973 0.50000000 212 88 105 0.000000 0.000000 0.000000 0.000000 -60.708740 0.000000 248.000000 0.948626 0.174569 0.263883
15.15999985 8.81000042 0.51999998 212 88 105 0.000000 0.000000 0.000000 0.000000 -60.708740 0.000000 248.000000 0.867246 0.291114 0.403902
15.15999985 8.81000042 0.51999998 212 88 105 0.000000 0.000000 0.000000 0.000000 -60.708740 0.000000 248.000000 0.867246 0.291114 0.403902
15.14999962 8.84000015 0.55000001 212 88 105 0.000000 0.000000 0.000000 0.000000 -60.708740 0.000000 248.000000 0.802576 0.281137 0.526150
15.10999966 8.85000038 0.55000001 212 88 105 0.000000 0.000000 0.000000 0.000000 -60.708740 0.000000 248.000000 0.435151 0.001307 0.900357
15.14999962 8.85000038 0.55000001 212 88 105 0.000000 0.000000 0.000000 0.000000 -60.708740 0.000000 248.000000 0.725997 0.240949 0.644106
15.13000011 8.85000038 0.52999997 212 88 105 0.000000 0.000000 0.000000 0.000000 -60.708740 0.000000 248.000000 0.525978 0.136256 0.839513
15.13000011 8.85000038 0.52999997 212 88 105 0.000000 0.000000 0.000000 0.000000 -60.708740 0.000000 248.000000 0.525978 0.136256 0.839513
15.14000034 8.82999992 0.52999997 212 88 105 0.000000 0.000000 0.000000 0.000000 -60.708740 0.000000 248.000000 0.444950 0.053067 0.893982
15.13000011 8.82999992 0.54000002 212 88 105 0.000000 0.000000 0.000000 0.000000 -60.708740 0.000000 248.000000 0.774524 0.088642 0.626303
15.14999962 8.84000015 0.51999998 212 88 105 0.000000 0.000000 0.000000 0.000000 -60.708740 0.000000 248.000000 0.676037 -0.001382 0.736866
15.14999962 8.81999969 0.51999998 212 88 105 0.000000 0.000000 0.000000 0.000000 -60.708740 0.000000 248.000000 0.783673 0.235258 0.574901
15.14999962 8.85000038 0.51999998 212 88 105 0.000000 0.000000 0.000000 0.000000 -60.708740 0.000000 248.000000 0.584600 0.046486 0.809989
15.10999966 8.80000019 0.55000001 212 88 105 0.000000 0.000000 0.000000 0.000000 -60.708740 0.000000 248.000000 0.614527 0.129452 0.778202
15.14999962 8.81000042 0.54000002 212 88 105 0.000000 0.000000 0.000000 0.000000 -60.708740 0.000000 248.000000 0.417579 0.058110 0.906781
15.10999966 8.80000019 0.55000001 212 88 105 0.000000 0.000000 0.000000 0.000000 -60.708740 0.000000 248.000000 0.614527 0.129452 0.778202
15.14999962 8.77999973 0.56000000 212 88 105 0.000000 0.000000 0.000000 0.000000 -60.708740 0.000000 248.000000 0.719930 0.507110 0.473857
15.10999966 8.69999981 0.57999998 212 88 105 0.000000 0.000000 0.000000 0.000000 -60.708740 0.000000 248.000000 0.536564 -0.202162 0.819286
15.18999958 8.75000000 0.50000000 212 88 105 0.000000 0.000000 0.000000 0.000000 -60.708740 0.000000 248.000000 0.873595 0.381343 0.302340
15.18000031 8.75000000 0.50999999 212 88 105 0.000000 0.000000 0.000000 0.000000 -60.708740 0.000000 248.000000 0.569171 -0.131575 0.811623
15.17000008 8.72999954 0.51999998 212 88 105 0.000000 0.000000 0.000000 0.000000 -60.708740 0.000000 248.000000 0.716786 0.223312 0.660567
15.18000031 8.72000027 0.50999999 212 88 105 0.000000 0.000000 0.000000 0.000000 -60.708740 0.000000 248.000000 0.739701 -0.047033 0.671290
15.18999958 8.72000027 0.50000000 212 88 105 0.000000 0.000000 0.000000 0.000000 -60.708740 0.000000 248.000000 0.771730 -0.214971 0.598516
15.18000031 8.69999981 0.50999999 212 88 105 0.000000 0.000000 0.000000 0.000000 -60.708740 0.000000 248.000000 0.505882 0.116742 0.854666
15.11999989 8.73999977 0.56000000 212 88 105 0.000000 0.000000 0.000000 0.000000 -60.708740 0.000000 248.000000 0.561161 0.513976 0.648789
15.13000011 8.73999977 0.49000001 212 88 105 0.000000 0.000000 0.000000 0.000000 -60.708740 0.000000 248.000000 0.902134 0.047056 0.428883
15.11999989 8.69999981 0.54000002 212 88 105 0.000000 0.000000 0.000000 0.000000 -60.708740 0.000000 248.000000 0.475193 0.232283 0.848667
15.13000011 8.71000004 0.50999999 212 88 105 0.000000 0.000000 0.000000 0.000000 -60.708740 0.000000 248.000000 0.611820 0.497209 0.615191
15.11999989 8.72999954 0.51999998 212 88 105 0.000000 0.000000 0.000000 0.000000 -60.708740 0.000000 248.000000 0.734343 0.041191 0.677527
15.07999992 8.85000038 0.63999999 212 88 105 0.000000 0.000000 0.000000 0.000000 -60.708740 0.000000 248.000000 0.662640 -0.117111 0.739725
15.06999969 8.82999992 0.63000000 212 88 105 0.000000 0.000000 0.000000 0.000000 -60.708740 0.000000 248.000000 0.231145 0.142343 0.962450
15.09000015 8.84000015 0.62000000 212 88 105 0.000000 0.000000 0.000000 0.000000 -60.708740 0.000000 248.000000 0.483792 0.097893 0.869691
15.06999969 8.82999992 0.58999997 212 88 105 0.000000 0.000000 0.000000 0.000000 -60.708740 0.000000 248.000000 0.634843 0.026627 0.772182
15.06999969 8.81000042 0.57999998 212 88 105 0.000000 0.000000 0.000000 0.000000 -60.708740 0.000000 248.000000 0.704203 -0.111190 0.701238
15.07999992 8.78999996 0.56999999 212 88 105 0.000000 0.000000 0.000000 0.000000 -60.708740 0.000000 248.000000 0.546432 0.469564 0.693485
15.06999969 8.81000042 0.60000002 212 88 105 0.000000 0.000000 0.000000 0.000000 -60.708740 0.000000 248.000000 0.684271 0.098594 0.722532
15.10000038 8.81000042 0.57999998 212 88 105 0.000000 0.000000 0.000000 0.000000 -60.708740 0.000000 248.000000 0.793604 0.261404 0.549418
15.06999969 8.81000042 0.60000002 212 88 105 0.000000 0.000000 0.000000 0.000000 -60.708740 0.000000 248.000000 0.684271 0.098594 0.722532
15.02999973 8.81999969 0.63000000 212 88 105 0.000000 0.000000 0.000000 0.000000 -60.708740 0.000000 248.000000 0.671804 -0.133164 0.728661
15.06000042 8.82999992 0.60000002 212 88 105 0.000000 0.000000 0.000000 0.000000 -60.708740 0.000000 248.000000 0.842494 0.223147 0.490316
15.02999973 8.85000038 0.57999998 212 88 105 0.000000 0.000000 0.000000 0.000000 -60.708740 0.000000 248.000000 0.632122 0.233713 0.738783
15.06000042 8.80000019 0.61000001 212 88 105 0.000000 0.000000 0.000000 0.000000 -60.708740 0.000000 248.000000 0.656277 0.020990 0.754228
15.03999996 8.81000042 0.63000000 212 88 105 0.000000 0.000000 0.000000 0.000000 -60.708740 0.000000 248.000000 0.410499 0.220810 0.884722
15.05000019 8.78999996 0.63000000 212 88 105 0.000000 0.000000 0.000000 0.000000 -60.708740 0.000000 248.000000 0.753370 0.372617 0.541840
15.05000019 8.78999996 0.63000000 212 88 105 0.000000 0.000000 0.000000 0.000000 -60.708740 0.000000 248.000000 0.753370 0.372617 0.541840
15.03999996 8.80000019 0.63000000 212 88 105 0.000000 0.000000 0.000000 0.000000 -60.708740 0.000000 248.000000 0.627025 0.095004 0.773184
15.03999996 8.80000019 0.63000000 212 88 105 0.000000 0.000000 0.000000 0.000000 -60.708740 0.000000 248.000000 0.627025 0.095004 0.773184
15.07999992 8.81999969 0.52999997 212 88 105 0.000000 0.000000 0.000000 0.000000 -60.708740 0.000000 248.000000 0.461262 0.491020 0.739011
15.07999992 8.84000015 0.56000000 212 88 105 0.000000 0.000000 0.000000 0.000000 -60.708740 0.000000 248.000000 0.382779 0.392230 0.836442
15.09000015 8.82999992 0.51999998 212 88 105 0.000000 0.000000 0.000000 0.000000 -60.708740 0.000000 248.000000 0.559975 0.163639 0.812189
15.09000015 8.75000000 0.57999998 212 88 105 0.000000 0.000000 0.000000 0.000000 -60.708740 0.000000 248.000000 0.703931 0.365913 0.608761
15.06999969 8.75000000 0.57999998 212 88 105 0.000000 0.000000 0.000000 0.000000 -60.708740 0.000000 248.000000 0.591519 -0.026444 0.805857
15.07999992 8.75000000 0.60000002 212 88 105 0.000000 0.000000 0.000000 0.000000 -60.708740 0.000000 248.000000 0.584709 -0.151037 0.797059
15.10000038 8.73999977 0.57999998 212 88 105 0.000000 0.000000 0.000000 0.000000 -60.708740 0.000000 248.000000 0.816730 0.300569 0.492556
15.07999992 8.75000000 0.60000002 212 88 105 0.000000 0.000000 0.000000 0.000000 -60.708740 0.000000 248.000000 0.584709 -0.151037 0.797059
15.03999996 8.76000023 0.63000000 212 88 105 0.000000 0.000000 0.000000 0.000000 -60.708740 0.000000 248.000000 0.474150 -0.118896 0.872379
15.02999973 8.75000000 0.63000000 212 88 105 0.000000 0.000000 0.000000 0.000000 -60.708740 0.000000 248.000000 0.431844 -0.055503 0.900239
15.02999973 8.75000000 0.63000000 212 88 105 0.000000 0.000000 0.000000 0.000000 -60.708740 0.000000 248.000000 0.431844 -0.055503 0.900239
15.06000042 8.76000023 0.57999998 212 88 105 0.000000 0.000000 0.000000 0.000000 -60.708740 0.000000 248.000000 0.475631 0.137340 0.868857
15.09000015 8.76000023 0.56000000 212 88 105 0.000000 0.000000 0.000000 0.000000 -60.708740 0.000000 248.000000 0.698813 0.404750 0.589778
15.06999969 8.75000000 0.54000002 212 88 105 0.000000 0.000000 0.000000 0.000000 -60.708740 0.000000 248.000000 0.694276 0.490176 0.526981
15.06999969 8.76000023 0.52999997 212 88 105 0.000000 0.000000 0.000000 0.000000 -60.708740 0.000000 248.000000 0.585342 0.115895 0.802461
15.07999992 8.75000000 0.52999997 212 88 105 0.000000 0.000000 0.000000 0.000000 -60.708740 0.000000 248.000000 0.355888 0.292820 0.887468
15.09000015 8.71000004 0.54000002 212 88 105 0.000000 0.000000 0.000000 0.000000 -60.708740 0.000000 248.000000 0.762683 0.175067 0.622629
15.09000015 8.72999954 0.54000002 212 88 105 0.000000 0.000000 0.000000 0.000000 -60.708740 0.000000 248.000000 0.551256 0.524283 0.649033
15.07999992 8.72000027 0.55000001 212 88 105 0.000000 0.000000 0.000000 0.000000 -60.708740 0.000000 248.000000 0.557861 -0.118600 0.821417
15.10000038 8.71000004 0.54000002 212 88 105 0.000000 0.000000 0.000000 0.000000 -60.708740 0.000000 248.000000 0.450032 -0.099540 0.887447
15.02999973 8.76000023 0.50999999 212 88 105 0.000000 0.000000 0.000000 0.000000 -60.708740 0.000000 248.000000 0.590255 0.125744 0.797363
15.18000031 8.82999992 0.46000001 212 88 105 0.000000 0.000000 0.000000 0.000000 -60.708740 0.000000 248.000000 0.555260 0.105833 0.824916
15.18999958 8.82999992 0.46000001 212 88 105 0.000000 0.000000 0.000000 0.000000 -60.708740 0.000000 248.000000 0.717928 0.032441 0.695361
15.15999985 8.81999969 0.41000000 212 88 105 0.000000 0.000000 0.000000 0.000000 -60.708740 0.000000 248.000000 0.899586 0.239205 0.365411
15.15999985 8.84000015 0.40000001 212 88 105 0.000000 0.000000 0.000000 0.000000 -60.708740 0.000000 248.000000 0.816172 -0.091007 0.570598
15.14999962 8.81999969 0.44000000 212 88 105 0.000000 0.000000 0.000000 0.000000 -60.708740 0.000000 248.000000 0.945823 -0.066169 0.317869
15.14000034 8.72000027 0.47999999 212 88 105 0.000000 0.000000 0.000000 0.000000 -60.708740 0.000000 248.000000 0.924911 0.079201 0.371844
15.18999958 8.72000027 0.44999999 212 88 105 0.000000 0.000000 0.000000 0.000000 -60.708740 0.000000 248.000000 0.824640 -0.118223 0.553166
15.13000011 8.71000004 0.34000000 212 88 105 0.000000 0.000000 0.000000 0.000000 -60.708740 0.000000 248.000000 0.619922 0.023682 0.784306
15.11999989 8.76000023 0.33000001 212 88 105 0.000000 0.000000 0.000000 0.000000 -60.708740 0.000000 248.000000 0.543882 0.405858 0.734487
15.05000019 8.78999996 0.34999999 212 88 105 0.000000 0.000000 0.000000 0.000000 -60.708740 0.000000 248.000000 0.935686 -0.032176 0.351365
15.05000019 8.81000042 0.33000001 212 88 105 0.000000 0.000000 0.000000 0.000000 -60.708740 0.000000 248.000000 0.704680 0.202886 0.679900
15.05000019 8.81000042 0.34999999 212 88 105 0.000000 0.000000 0.000000 0.000000 -60.708740 0.000000 248.000000 0.822961 0.159813 0.545156
15.06000042 8.81000042 0.31999999 212 88 105 0.000000 0.000000 0.000000 0.000000 -60.708740 0.000000 248.000000 0.494934 0.300103 0.815462
15.10000038 8.77000046 0.36000001 212 88 105 0.000000 0.000000 0.000000 0.000000 -60.708740 0.000000 248.000000 0.784082 -0.187996 0.591500
15.09000015 8.72999954 0.37000000 212 88 105 0.000000 0.000000 0.000000 0.000000 -60.708740 0.000000 248.000000 0.799412 0.052351 0.598498
15.06000042 8.71000004 0.33000001 212 88 105 0.000000 0.000000 0.000000 0.000000 -60.708740 0.000000 248.000000 0.560782 0.251493 0.788844
15.22999954 8.90999985 0.23000000 212 88 105 0.000000 0.000000 0.000000 0.000000 -60.708740 0.000000 248.000000 0.751447 0.064656 0.656618
15.19999981 8.89000034 0.18000001 212 88 105 0.000000 0.000000 0.000000 0.000000 -60.708740 0.000000 248.000000 0.708245 0.337027 0.620325
15.27999973 8.85999966 0.11000000 212 88 105 0.000000 0.000000 0.000000 0.000000 -60.708740 0.000000 248.000000 0.962851 0.155467 0.220789
15.23999977 9.00000000 0.09000000 212 88 105 0.000000 0.000000 0.000000 0.000000 -60.708740 0.000000 248.000000 0.999482 -0.007089 -0.031392
15.25000000 8.97000027 0.07000000 212 88 105 0.000000 0.000000 0.000000 0.000000 -60.708740 0.000000 248.000000 0.999393 -0.033619 0.009169
15.23999977 8.96000004 0.05000000 212 88 105 0.000000 0.000000 0.000000 0.000000 -60.708740 0.000000 248.000000 0.912064 0.409578 0.019628
15.25000000 8.96000004 0.05000000 212 88 105 0.000000 0.000000 0.000000 0.000000 -60.708740 0.000000 248.000000 0.989880 0.110245 -0.089356
15.22999954 8.96000004 0.04000000 212 88 105 0.000000 0.000000 0.000000 0.000000 -60.708740 0.000000 248.000000 0.842116 0.443629 -0.306649
15.26000023 8.85999966 0.10000000 212 88 105 0.000000 0.000000 0.000000 0.000000 -60.708740 0.000000 248.000000 0.896243 0.006580 0.443515
15.23999977 8.90999985 0.06000000 212 88 105 0.000000 0.000000 0.000000 0.000000 -60.708740 0.000000 248.000000 0.791072 0.611597 0.012425
15.35999966 8.80000019 0.16000000 212 88 105 0.000000 0.000000 0.000000 0.000000 -60.708740 0.000000 248.000000 0.779278 0.603751 0.167961
15.31000042 8.80000019 0.16000000 212 88 105 0.000000 0.000000 0.000000 0.000000 -60.708740 0.000000 248.000000 0.988454 -0.066363 0.136218
15.28999996 8.72999954 0.23999999 212 88 105 0.000000 0.000000 0.000000 0.000000 -60.708740 0.000000 248.000000 0.718529 0.573837 0.392971
15.27999973 8.77000046 0.16000000 212 88 105 0.000000 0.000000 0.000000 0.000000 -60.708740 0.000000 248.000000 0.973517 0.206201 -0.098726
15.31000042 8.75000000 0.16000000 212 88 105 0.000000 0.000000 0.000000 0.000000 -60.708740 0.000000 248.000000 0.884477 0.398238 0.243119
15.30000019 8.76000023 0.15000001 212 88 105 0.000000 0.000000 0.000000 0.000000 -60.708740 0.000000 248.000000 0.926036 -0.065289 0.371747
15.22000027 8.77999973 0.27000001 212 88 105 0.000000 0.000000 0.000000 0.000000 -60.708740 0.000000 248.000000 0.824083 0.438140 0.359054
15.23999977 8.85000038 0.17000000 212 88 105 0.000000 0.000000 0.000000 0.000000 -60.708740 0.000000 248.000000 0.994917 0.076532 -0.065440
15.23999977 8.82999992 0.17000000 212 88 105 0.000000 0.000000 0.000000 0.000000 -60.708740 0.000000 248.000000 0.993143 0.066661 -0.096038
15.25000000 8.81000042 0.17000000 212 88 105 0.000000 0.000000 0.000000 0.000000 -60.708740 0.000000 248.000000 0.857536 0.424933 0.289936
15.25000000 8.80000019 0.18000001 212 88 105 0.000000 0.000000 0.000000 0.000000 -60.708740 0.000000 248.000000 0.879622 0.218051 0.422752
15.22999954 8.77999973 0.22000000 212 88 105 0.000000 0.000000 0.000000 0.000000 -60.708740 0.000000 248.000000 0.947241 0.316601 0.049990
15.22000027 8.78999996 0.22000000 212 88 105 0.000000 0.000000 0.000000 0.000000 -60.708740 0.000000 248.000000 0.989620 -0.005566 0.143601
15.22999954 8.78999996 0.15000001 212 88 105 0.000000 0.000000 0.000000 0.000000 -60.708740 0.000000 248.000000 0.843962 0.246602 0.476356
15.22999954 8.77999973 0.16000000 212 88 105 0.000000 0.000000 0.000000 0.000000 -60.708740 0.000000 248.000000 0.846373 0.060355 0.529159
15.21000004 8.75000000 0.28000000 212 88 105 0.000000 0.000000 0.000000 0.000000 -60.708740 0.000000 248.000000 0.917773 0.111454 0.381144
15.22999954 8.77000046 0.25999999 212 88 105 0.000000 0.000000 0.000000 0.000000 -60.708740 0.000000 248.000000 0.854880 -0.045723 0.516807
15.23999977 8.73999977 0.20000000 212 88 105 0.000000 0.000000 0.000000 0.000000 -60.708740 0.000000 248.000000 0.915814 0.395189 0.071485
15.26000023 8.77000046 0.18000001 212 88 105 0.000000 0.000000 0.000000 0.000000 -60.708740 0.000000 248.000000 0.928370 0.006385 0.371603
15.26000023 8.73999977 0.17000000 212 88 105 0.000000 0.000000 0.000000 0.000000 -60.708740 0.000000 248.000000 0.889991 0.182077 0.418048
15.23999977 8.72000027 0.20000000 212 88 105 0.000000 0.000000 0.000000 0.000000 -60.708740 0.000000 248.000000 0.850419 0.288618 0.439872
15.25000000 8.72000027 0.19000000 212 88 105 0.000000 0.000000 0.000000 0.000000 -60.708740 0.000000 248.000000 0.784445 0.365645 0.500949
15.21000004 8.73999977 0.22000000 212 88 105 0.000000 0.000000 0.000000 0.000000 -60.708740 0.000000 248.000000 0.925489 0.378668 -0.008985
15.22999954 8.76000023 0.20999999 212 88 105 0.000000 0.000000 0.000000 0.000000 -60.708740 0.000000 248.000000 0.919991 -0.088330 0.381857
15.21000004 8.73999977 0.22000000 212 88 105 0.000000 0.000000 0.000000 0.000000 -60.708740 0.000000 248.000000 0.925489 0.378668 -0.008985
15.22999954 8.77000046 0.15000001 212 88 105 0.000000 0.000000 0.000000 0.000000 -60.708740 0.000000 248.000000 0.864649 0.091984 0.493883
15.21000004 8.72999954 0.22000000 212 88 105 0.000000 0.000000 0.000000 0.000000 -60.708740 0.000000 248.000000 0.880322 0.012023 0.474225
15.31999969 8.84000015 0.12000000 212 88 105 0.000000 0.000000 0.000000 0.000000 -60.708740 0.000000 248.000000 0.937114 0.117646 0.328598
15.31000042 8.82999992 0.13000000 212 88 105 0.000000 0.000000 0.000000 0.000000 -60.708740 0.000000 248.000000 0.954334 0.016091 0.298307
15.31000042 8.80000019 0.14000000 212 88 105 0.000000 0.000000 0.000000 0.000000 -60.708740 0.000000 248.000000 0.979681 0.194504 0.048924
15.31000042 8.77999973 0.13000000 212 88 105 0.000000 0.000000 0.000000 0.000000 -60.708740 0.000000 248.000000 0.805461 0.490902 0.332034
15.28999996 8.81000042 0.09000000 212 88 105 0.000000 0.000000 0.000000 0.000000 -60.708740 0.000000 248.000000 0.951381 -0.047123 0.304391
15.35999966 8.76000023 0.11000000 212 88 105 0.000000 0.000000 0.000000 0.000000 -60.708740 0.000000 248.000000 0.936739 0.158186 0.312246
15.32999992 8.76000023 0.12000000 212 88 105 0.000000 0.000000 0.000000 0.000000 -60.708740 0.000000 248.000000 0.850172 0.501232 0.161163
15.34000015 8.76000023 0.10000000 212 88 105 0.000000 0.000000 0.000000 0.000000 -60.708740 0.000000 248.000000 0.917162 0.225343 0.328686
15.34000015 8.73999977 0.08000000 212 88 105 0.000000 0.000000 0.000000 0.000000 -60.708740 0.000000 248.000000 0.997792 -0.050049 0.043660
15.34000015 8.76000023 0.10000000 212 88 105 0.000000 0.000000 0.000000 0.000000 -60.708740 0.000000 248.000000 0.917162 0.225343 0.328686
15.34000015 8.77000046 0.09000000 212 88 105 0.000000 0.000000 0.000000 0.000000 -60.708740 0.000000 248.000000 0.859645 0.129019 0.494332
15.31999969 8.71000004 0.13000000 212 88 105 0.000000 0.000000 0.000000 0.000000 -60.708740 0.000000 248.000000 0.984269 0.138545 -0.109631
15.30000019 8.76000023 0.12000000 212 88 105 0.000000 0.000000 0.000000 0.000000 -60.708740 0.000000 248.000000 0.925363 -0.001276 0.379080
15.31000042 8.76000023 0.10000000 212 88 105 0.000000 0.000000 0.000000 0.000000 -60.708740 0.000000 248.000000 0.800802 0.292206 0.522812
15.35000038 8.75000000 0.03000000 212 88 105 0.000000 0.000000 0.000000 0.000000 -60.708740 0.000000 248.000000 0.985965 0.120414 0.115645
15.35999966 8.76000023 0.06000000 212 88 105 0.000000 0.000000 0.000000 0.000000 -60.708740 0.000000 248.000000 0.833954 0.364165 0.414613
15.34000015 8.76000023 0.04000000 212 88 105 0.000000 0.000000 0.000000 0.000000 -60.708740 0.000000 248.000000 0.951082 0.109487 0.288886
15.25000000 8.82999992 0.13000000 212 88 105 0.000000 0.000000 0.000000 0.000000 -60.708740 0.000000 248.000000 0.993786 0.107227 -0.029847
15.26000023 8.85000038 0.11000000 212 88 105 0.000000 0.000000 0.000000 0.000000 -60.708740 0.000000 248.000000 0.991733 0.116741 -0.053270
15.26000023 8.81000042 0.13000000 212 88 105 0.000000 0.000000 0.000000 0.000000 -60.708740 0.000000 248.000000 0.955212 0.092022 0.281250
15.26000023 8.81000042 0.13000000 212 88 105 0.000000 0.000000 0.000000 0.000000 -60.708740 0.000000 248.000000 0.955212 0.092022 0.281250
15.22000027 8.81999969 0.11000000 212 88 105 0.000000 0.000000 0.000000 0.000000 -60.708740 0.000000 248.000000 0.993784 0.045730 0.101498
15.22000027 8.81999969 0.11000000 212 88 105 0.000000 0.000000 0.000000 0.000000 -60.708740 0.000000 248.000000 0.993784 0.045730 0.101498
15.22999954 8.78999996 0.14000000 212 88 105 0.000000 0.000000 0.000000 0.000000 -60.708740 0.000000 248.000000 0.843702 0.436612 0.312310
15.26000023 8.73999977 0.14000000 212 88 105 0.000000 0.000000 0.000000 0.000000 -60.708740 0.000000 248.000000 0.830294 0.497560 0.251091
15.27000046 8.72000027 0.11000000 212 88 105 0.000000 0.000000 0.000000 0.000000 -60.708740 0.000000 248.000000 0.983442 0.181190 0.003419
15.26000023 8.72000027 0.13000000 212 88 105 0.000000 0.000000 0.000000 0.000000 -60.708740 0.000000 248.000000 0.962797 0.040997 0.267098
15.27000046 8.72000027 0.10000000 212 88 105 0.000000 0.000000 0.000000 0.000000 -60.708740 0.000000 248.000000 0.785639 0.396869 0.474623
15.22999954 8.75000000 0.14000000 212 88 105 0.000000 0.000000 0.000000 0.000000 -60.708740 0.000000 248.000000 0.934759 0.118032 0.335102
15.14000034 8.96000004 0.20000000 212 88 105 0.000000 0.000000 0.000000 0.000000 -60.708740 0.000000 248.000000 0.998670 -0.009314 0.050710
15.18000031 8.92000008 0.30000001 212 88 105 0.000000 0.000000 0.000000 0.000000 -60.708740 0.000000 248.000000 0.950403 0.310105 0.023854
15.18999958 8.92000008 0.30000001 212 88 105 0.000000 0.000000 0.000000 0.000000 -60.708740 0.000000 248.000000 0.956509 0.263729 0.124648
15.18000031 8.93000031 0.28000000 212 88 105 0.000000 0.000000 0.000000 0.000000 -60.708740 0.000000 248.000000 0.966707 0.243252 0.079404
15.14999962 8.93999958 0.25000000 212 88 105 0.000000 0.000000 0.000000 0.000000 -60.708740 0.000000 248.000000 0.893327 -0.096162 0.438998
15.14999962 8.93999958 0.25000000 212 88 105 0.000000 0.000000 0.000000 0.000000 -60.708740 0.000000 248.000000 0.893327 -0.096162 0.438998
15.14000034 8.88000011 0.25999999 212 88 105 0.000000 0.000000 0.000000 0.000000 -60.708740 0.000000 248.000000 0.808921 0.134574 0.572308
15.14000034 8.86999989 0.25000000 212 88 105 0.000000 0.000000 0.000000 0.000000 -60.708740 0.000000 248.000000 0.976608 0.187380 0.105479
15.15999985 8.93999958 0.23000000 212 88 105 0.000000 0.000000 0.000000 0.000000 -60.708740 0.000000 248.000000 0.731966 0.310482 0.606486
15.17000008 8.86999989 0.20999999 212 88 105 0.000000 0.000000 0.000000 0.000000 -60.708740 0.000000 248.000000 0.766108 0.436142 0.472079
15.18999958 8.88000011 0.20000000 212 88 105 0.000000 0.000000 0.000000 0.000000 -60.708740 0.000000 248.000000 0.733483 0.229898 0.639648
15.11999989 8.92000008 0.20999999 212 88 105 0.000000 0.000000 0.000000 0.000000 -60.708740 0.000000 248.000000 0.905172 0.225929 0.360028
15.09000015 8.93000031 0.28000000 212 88 105 0.000000 0.000000 0.000000 0.000000 -60.708740 0.000000 248.000000 0.867978 -0.039765 0.495008
15.09000015 8.90999985 0.27000001 212 88 105 0.000000 0.000000 0.000000 0.000000 -60.708740 0.000000 248.000000 0.684630 -0.001383 0.728889
15.05000019 8.90999985 0.28999999 212 88 105 0.000000 0.000000 0.000000 0.000000 -60.708740 0.000000 248.000000 0.690228 0.006944 0.723559
15.02999973 8.93999958 0.30000001 212 88 105 0.000000 0.000000 0.000000 0.000000 -60.708740 0.000000 248.000000 0.981788 0.075707 0.174246
15.05000019 8.88000011 0.31000000 212 88 105 0.000000 0.000000 0.000000 0.000000 -60.708740 0.000000 248.000000 0.943004 -0.050311 0.328955
15.05000019 8.85999966 0.31000000 212 88 105 0.000000 0.000000 0.000000 0.000000 -60.708740 0.000000 248.000000 0.869201 -0.068364 0.489710
15.05000019 8.86999989 0.31000000 212 88 105 0.000000 0.000000 0.000000 0.000000 -60.708740 0.000000 248.000000 0.788444 -0.006880 0.615069
15.03999996 8.86999989 0.27000001 212 88 105 0.000000 0.000000 0.000000 0.000000 -60.708740 0.000000 248.000000 0.817359 0.034811 0.575076
15.09000015 8.86999989 0.19000000 212 88 105 0.000000 0.000000 0.000000 0.000000 -60.708740 0.000000 248.000000 0.982639 0.132395 0.129966
15.15999985 8.96000004 0.07000000 212 88 105 0.000000 0.000000 0.000000 0.000000 -60.708740 0.000000 248.000000 0.813207 0.558612 -0.163240
15.13000011 9.02000046 0.11000000 212 88 105 0.000000 0.000000 0.000000 0.000000 -60.708740 0.000000 248.000000 0.845622 0.531812 0.045822
15.14000034 9.01000023 0.08000000 212 88 105 0.000000 0.000000 0.000000 0.000000 -60.708740 0.000000 248.000000 0.819933 0.572458 -0.001360
15.18999958 9.02000046 0.02000000 212 88 105 0.000000 0.000000 0.000000 0.000000 -60.708740 0.000000 248.000000 0.985130 0.132867 0.108927
15.17000008 8.94999981 0.06000000 212 88 105 0.000000 0.000000 0.000000 0.000000 -60.708740 0.000000 248.000000 0.872855 0.487890 0.009357
15.17000008 8.90999985 0.11000000 212 88 105 0.000000 0.000000 0.000000 0.000000 -60.708740 0.000000 248.000000 0.997611 -0.062816 -0.028747
15.18000031 8.93999958 0.11000000 212 88 105 0.000000 0.000000 0.000000 0.000000 -60.708740 0.000000 248.000000 0.868637 0.444036 -0.219776
15.14999962 8.92000008 0.12000000 212 88 105 0.000000 0.000000 0.000000 0.000000 -60.708740 0.000000 248.000000 0.958896 -0.124277 0.255095
15.10999966 8.89000034 0.14000000 212 88 105 0.000000 0.000000 0.000000 0.000000 -60.708740 0.000000 248.000000 0.817760 0.046288 0.573695
15.14000034 8.86999989 0.14000000 212 88 105 0.000000 0.000000 0.000000 0.000000 -60.708740 0.000000 248.000000 0.890089 0.191464 0.413621
15.13000011 8.89999962 0.14000000 212 88 105 0.000000 0.000000 0.000000 0.000000 -60.708740 0.000000 248.000000 0.898794 0.011844 0.438211
15.14999962 8.88000011 0.09000000 212 88 105 0.000000 0.000000 0.000000 0.000000 -60.708740 0.000000 248.000000 0.960763 0.038530 0.274681
15.18000031 8.93999958 0.06000000 212 88 105 0.000000 0.000000 0.000000 0.000000 -60.708740 0.000000 248.000000 0.874063 0.431802 -0.222624
15.06999969 8.98999977 0.03000000 212 88 105 0.000000 0.000000 0.000000 0.000000 -60.708740 0.000000 248.000000 0.972528 0.198037 0.122354
15.07999992 8.98999977 0.04000000 212 88 105 0.000000 0.000000 0.000000 0.000000 -60.708740 0.000000 248.000000 0.941638 0.307557 -0.136842
15.06999969 8.98999977 0.03000000 212 88 105 0.000000 0.000000 0.000000 0.000000 -60.708740 0.000000 248.000000 0.972528 0.198037 0.122354
15.15999985 8.84000015 0.25000000 212 88 105 0.000000 0.000000 0.000000 0.000000 -60.708740 0.000000 248.000000 0.908361 0.412892 0.066333
15.15999985 8.81999969 0.25000000 212 88 105 0.000000 0.000000 0.000000 0.000000 -60.708740 0.000000 248.000000 0.765849 0.256331 0.589720
15.15999985 8.81999969 0.25000000 212 88 105 0.000000 0.000000 0.000000 0.000000 -60.708740 0.000000 248.000000 0.765849 0.256331 0.589720
15.15999985 8.81000042 0.25000000 212 88 105 0.000000 0.000000 0.000000 0.000000 -60.708740 0.000000 248.000000 0.955618 -0.083826 0.282430
15.14999962 8.84000015 0.23999999 212 88 105 0.000000 0.000000 0.000000 0.000000 -60.708740 0.000000 248.000000 0.918881 0.182644 0.349713
15.14999962 8.80000019 0.28000000 212 88 105 0.000000 0.000000 0.000000 0.000000 -60.708740 0.000000 248.000000 0.733048 0.213222 0.645892
15.11999989 8.80000019 0.23999999 212 88 105 0.000000 0.000000 0.000000 0.000000 -60.708740 0.000000 248.000000 0.863596 0.240476 0.443141
15.10999966 8.81000042 0.25999999 212 88 105 0.000000 0.000000 0.000000 0.000000 -60.708740 0.000000 248.000000 0.966712 0.048274 0.251271
15.18999958 8.84000015 0.22000000 212 88 105 0.000000 0.000000 0.000000 0.000000 -60.708740 0.000000 248.000000 0.963953 0.236149 0.122591
15.17000008 8.82999992 0.20999999 212 88 105 0.000000 0.000000 0.000000 0.000000 -60.708740 0.000000 248.000000 0.749433 0.155943 0.643453
15.15999985 8.78999996 0.22000000 212 88 105 0.000000 0.000000 0.000000 0.000000 -60.708740 0.000000 248.000000 0.947903 0.311657 0.065952
15.14999962 8.84000015 0.20000000 212 88 105 0.000000 0.000000 0.000000 0.000000 -60.708740 0.000000 248.000000 0.830691 0.467753 0.301927
15.18999958 8.75000000 0.25000000 212 88 105 0.000000 0.000000 0.000000 0.000000 -60.708740 0.000000 248.000000 0.903750 0.372815 0.210343
15.15999985 8.69999981 0.25999999 212 88 105 0.000000 0.000000 0.000000 0.000000 -60.708740 0.000000 248.000000 0.823921 0.201807 0.529555
15.18000031 8.71000004 0.23999999 212 88 105 0.000000 0.000000 0.000000 0.000000 -60.708740 0.000000 248.000000 0.940860 0.287065 0.179931
15.10999966 8.76000023 0.28999999 212 88 105 0.000000 0.000000 0.000000 0.000000 -60.708740 0.000000 248.000000 0.577404 0.320065 0.751108
15.14999962 8.71000004 0.25999999 212 88 105 0.000000 0.000000 0.000000 0.000000 -60.708740 0.000000 248.000000 0.674517 0.185915 0.714466
15.15999985 8.73999977 0.23000000 212 88 105 0.000000 0.000000 0.000000 0.000000 -60.708740 0.000000 248.000000 0.943997 0.121849 0.306632
15.18999958 8.77000046 0.20999999 212 88 105 0.000000 0.000000 0.000000 0.000000 -60.708740 0.000000 248.000000 0.832992 0.230792 0.502852
15.18999958 8.77000046 0.20999999 212 88 105 0.000000 0.000000 0.000000 0.000000 -60.708740 0.000000 248.000000 0.832992 0.230792 0.502852
15.18999958 8.72999954 0.20999999 212 88 105 0.000000 0.000000 0.000000 0.000000 -60.708740 0.000000 248.000000 0.976475 0.118172 0.180368
15.14000034 8.71000004 0.17000000 212 88 105 0.000000 0.000000 0.000000 0.000000 -60.708740 0.000000 248.000000 0.931326 0.029709 0.362972
15.10000038 8.81999969 0.27000001 212 88 105 0.000000 0.000000 0.000000 0.000000 -60.708740 0.000000 248.000000 0.596736 0.232151 0.768122
15.06999969 8.81999969 0.25999999 212 88 105 0.000000 0.000000 0.000000 0.000000 -60.708740 0.000000 248.000000 0.764543 0.029459 0.643899
