//X Y Z R G B PointSourceId ScanDirectionFlag NumberOfReturns ReturnNumber GpsTime Intensity Classification Nx Ny Nz
-8.10000038 -19.47999954 -0.47999999 116 96 149 0.000000 0.000000 0.000000 0.000000 -60.708740 0.000000 46.000000 0.462562 0.886466 -0.014663
-8.10000038 -19.47999954 -0.47000000 116 96 149 0.000000 0.000000 0.000000 0.000000 -60.708740 0.000000 46.000000 0.554500 0.823703 0.118508
-8.10000038 -19.48999977 -0.50000000 116 96 149 0.000000 0.000000 0.000000 0.000000 -60.708740 0.000000 46.000000 0.424612 0.828704 -0.364630
-8.10000038 -19.47999954 -0.49000001 116 96 149 0.000000 0.000000 0.000000 0.000000 -60.708740 0.000000 46.000000 0.431414 0.842582 -0.322393
-8.10000038 -19.47999954 -0.49000001 116 96 149 0.000000 0.000000 0.000000 0.000000 -60.708740 0.000000 46.000000 0.431414 0.842582 -0.322393
-8.10000038 -19.50000000 -0.51999998 116 96 149 0.000000 0.000000 0.000000 0.000000 -60.708740 0.000000 46.000000 0.302875 0.920108 -0.248329
-7.96999979 -19.35000038 -0.60000002 116 96 149 0.000000 0.000000 0.000000 0.000000 -60.708740 0.000000 46.000000 0.548768 0.742066 -0.384957
-7.98999977 -19.42000008 -0.54000002 116 96 149 0.000000 0.000000 0.000000 0.000000 -60.708740 0.000000 46.000000 0.552567 0.806657 -0.209700
-8.01000023 -19.40999985 -0.52999997 116 96 149 0.000000 0.000000 0.000000 0.000000 -60.708740 0.000000 46.000000 0.471043 0.863826 -0.178672
-7.98999977 -19.38999939 -0.56999999 116 96 149 0.000000 0.000000 0.000000 0.000000 -60.708740 0.000000 46.000000 0.619936 0.779638 0.088562
-8.02999973 -19.36000061 -0.54000002 116 96 149 0.000000 0.000000 0.000000 0.000000 -60.708740 0.000000 46.000000 0.399163 0.852687 -0.337037
-8.05000019 -19.36000061 -0.52999997 116 96 149 0.000000 0.000000 0.000000 0.000000 -60.708740 0.000000 46.000000 0.653741 0.647121 -0.392245
-8.02000046 -19.37999916 -0.57999998 116 96 149 0.000000 0.000000 0.000000 0.000000 -60.708740 0.000000 46.000000 0.776646 0.594451 -0.208444
-8.02999973 -19.36000061 -0.58999997 116 96 149 0.000000 0.000000 0.000000 0.000000 -60.708740 0.000000 46.000000 0.711095 0.630472 0.311205
-8.05000019 -19.36000061 -0.57999998 116 96 149 0.000000 0.000000 0.000000 0.000000 -60.708740 0.000000 46.000000 0.477667 0.818182 0.320021
-8.02000046 -19.37999916 -0.60000002 116 96 149 0.000000 0.000000 0.000000 0.000000 -60.708740 0.000000 46.000000 0.738752 0.657172 -0.149563
-8.03999996 -19.36000061 -0.57999998 116 96 149 0.000000 0.000000 0.000000 0.000000 -60.708740 0.000000 46.000000 0.512673 0.798373 0.315857
-8.03999996 -19.38999939 -0.61000001 116 96 149 0.000000 0.000000 0.000000 0.000000 -60.708740 0.000000 46.000000 0.349196 0.935948 0.045434
-8.05000019 -19.39999962 -0.63999999 116 96 149 0.000000 0.000000 0.000000 0.000000 -60.708740 0.000000 46.000000 0.434809 0.898241 0.064063
-8.05000019 -19.39999962 -0.69000000 116 96 149 0.000000 0.000000 0.000000 0.000000 -60.708740 0.000000 46.000000 0.478672 0.877339 -0.033900
-8.02999973 -19.39999962 -0.66000003 116 96 149 0.000000 0.000000 0.000000 0.000000 -60.708740 0.000000 46.000000 0.277757 0.919621 -0.277757
-8.01000023 -19.44000053 -0.56000000 116 96 149 0.000000 0.000000 0.000000 0.000000 -60.708740 0.000000 46.000000 0.235225 0.969527 0.068452
-8.00000000 -19.45000076 -0.55000001 116 96 149 0.000000 0.000000 0.000000 0.000000 -60.708740 0.000000 46.000000 0.690212 0.723542 0.009721
-7.98999977 -19.43000031 -0.54000002 116 96 149 0.000000 0.000000 0.000000 0.000000 -60.708740 0.000000 46.000000 0.708588 0.684102 -0.172938
-7.98999977 -19.44000053 -0.58999997 116 96 149 0.000000 0.000000 0.000000 0.000000 -60.708740 0.000000 46.000000 0.526253 0.745935 -0.408215
-7.98999977 -19.44000053 -0.58999997 116 96 149 0.000000 0.000000 0.000000 0.000000 -60.708740 0.000000 46.000000 0.526253 0.745935 -0.408215
-8.00000000 -19.44000053 -0.56999999 116 96 149 0.000000 0.000000 0.000000 0.000000 -60.708740 0.000000 46.000000 0.177296 0.979406 0.096596
-8.05000019 -19.43000031 -0.60000002 116 96 149 0.000000 0.000000 0.000000 0.000000 -60.708740 0.000000 46.000000 0.422600 0.906315 -0.001300
-7.96999979 -19.45000076 -0.63000000 116 96 149 0.000000 0.000000 0.000000 0.000000 -60.708740 0.000000 46.000000 0.659063 0.712543 0.240660
-8.02999973 -19.44000053 -0.62000000 116 96 149 0.000000 0.000000 0.000000 0.000000 -60.708740 0.000000 46.000000 0.750345 0.637258 0.175743
-8.02000046 -19.44000053 -0.63999999 116 96 149 0.000000 0.000000 0.000000 0.000000 -60.708740 0.000000 46.000000 0.753185 0.650412 0.098369
-8.06000042 -19.35000038 -0.57999998 116 96 149 0.000000 0.000000 0.000000 0.000000 -60.708740 0.000000 46.000000 0.770741 0.621083 -0.142176
-8.13000011 -19.40999985 -0.52999997 116 96 149 0.000000 0.000000 0.000000 0.000000 -60.708740 0.000000 46.000000 0.811304 0.568947 0.134478
-8.10999966 -19.40999985 -0.54000002 116 96 149 0.000000 0.000000 0.000000 0.000000 -60.708740 0.000000 46.000000 0.754005 0.620305 0.216096
-8.07999992 -19.50000000 -0.52999997 116 96 149 0.000000 0.000000 0.000000 0.000000 -60.708740 0.000000 46.000000 0.378753 0.894565 -0.237274
-8.07999992 -19.50000000 -0.52999997 116 96 149 0.000000 0.000000 0.000000 0.000000 -60.708740 0.000000 46.000000 0.378753 0.894565 -0.237274
-8.09000015 -19.47999954 -0.60000002 116 96 149 0.000000 0.000000 0.000000 0.000000 -60.708740 0.000000 46.000000 0.432900 0.901326 0.014474
-8.10999966 -19.43000031 -0.55000001 116 96 149 0.000000 0.000000 0.000000 0.000000 -60.708740 0.000000 46.000000 0.508889 0.860035 -0.037035
-8.10000038 -19.43000031 -0.55000001 116 96 149 0.000000 0.000000 0.000000 0.000000 -60.708740 0.000000 46.000000 0.305064 0.946887 -0.101688
-8.10999966 -19.50000000 -0.54000002 116 96 149 0.000000 0.000000 0.000000 0.000000 -60.708740 0.000000 46.000000 0.542954 0.835203 -0.087388
-8.10000038 -19.50000000 -0.52999997 116 96 149 0.000000 0.000000 0.000000 0.000000 -60.708740 0.000000 46.000000 0.313358 0.916969 -0.246932
-8.10000038 -19.47999954 -0.56999999 116 96 149 0.000000 0.000000 0.000000 0.000000 -60.708740 0.000000 46.000000 0.598117 0.776476 0.198347
-7.82000017 -19.56999969 -0.07000000 116 96 149 0.000000 0.000000 0.000000 0.000000 -60.708740 0.000000 46.000000 0.162417 0.965405 -0.203995
-7.88000011 -19.59000015 -0.09000000 116 96 149 0.000000 0.000000 0.000000 0.000000 -60.708740 0.000000 46.000000 0.205945 0.978530 0.008145
-7.80999994 -19.59000015 -0.13000000 116 96 149 0.000000 0.000000 0.000000 0.000000 -60.708740 0.000000 46.000000 0.195750 0.928052 -0.316862
-7.80999994 -19.59000015 -0.13000000 116 96 149 0.000000 0.000000 0.000000 0.000000 -60.708740 0.000000 46.000000 0.195750 0.928052 -0.316862
-7.86999989 -19.59000015 -0.11000000 116 96 149 0.000000 0.000000 0.000000 0.000000 -60.708740 0.000000 46.000000 0.157272 0.911044 -0.381136
-7.84000015 -19.60000038 -0.10000000 116 96 149 0.000000 0.000000 0.000000 0.000000 -60.708740 0.000000 46.000000 -0.174626 0.981518 -0.078281
-7.80999994 -19.61000061 -0.18000001 116 96 149 0.000000 0.000000 0.000000 0.000000 -60.708740 0.000000 46.000000 -0.228945 0.972715 -0.037552
-7.82000017 -19.52000046 -0.23000000 116 96 149 0.000000 0.000000 0.000000 0.000000 -60.708740 0.000000 46.000000 -0.141650 0.888534 -0.436397
-7.82000017 -19.59000015 -0.20999999 116 96 149 0.000000 0.000000 0.000000 0.000000 -60.708740 0.000000 46.000000 -0.237189 0.971404 -0.010727
-7.88000011 -19.52000046 -0.20999999 116 96 149 0.000000 0.000000 0.000000 0.000000 -60.708740 0.000000 46.000000 0.121485 0.929562 -0.348074
-7.84999990 -19.56999969 -0.23000000 116 96 149 0.000000 0.000000 0.000000 0.000000 -60.708740 0.000000 46.000000 0.415620 0.820094 -0.393327
-7.82000017 -19.52000046 -0.28000000 116 96 149 0.000000 0.000000 0.000000 0.000000 -60.708740 0.000000 46.000000 -0.024597 0.980374 -0.195606
-7.80999994 -19.52000046 -0.30000001 116 96 149 0.000000 0.000000 0.000000 0.000000 -60.708740 0.000000 46.000000 0.097148 0.989039 0.111194
-7.82999992 -19.59000015 -0.28999999 116 96 149 0.000000 0.000000 0.000000 0.000000 -60.708740 0.000000 46.000000 0.362231 0.928969 -0.076189
-7.84000015 -19.56999969 -0.31000000 116 96 149 0.000000 0.000000 0.000000 0.000000 -60.708740 0.000000 46.000000 0.354281 0.934942 0.019185
-7.82999992 -19.57999992 -0.28000000 116 96 149 0.000000 0.000000 0.000000 0.000000 -60.708740 0.000000 46.000000 0.397654 0.780701 -0.482055
-7.80999994 -19.59000015 -0.28000000 116 96 149 0.000000 0.000000 0.000000 0.000000 -60.708740 0.000000 46.000000 0.031661 0.981506 -0.188796
-7.82000017 -19.57999992 -0.28000000 116 96 149 0.000000 0.000000 0.000000 0.000000 -60.708740 0.000000 46.000000 0.470303 0.790304 -0.392728
-7.80999994 -19.59000015 -0.28000000 116 96 149 0.000000 0.000000 0.000000 0.000000 -60.708740 0.000000 46.000000 0.031661 0.981506 -0.188796
-7.84000015 -19.57999992 -0.31999999 116 96 149 0.000000 0.000000 0.000000 0.000000 -60.708740 0.000000 46.000000 0.201299 0.775999 -0.597750
-7.86000013 -19.54999924 -0.28000000 116 96 149 0.000000 0.000000 0.000000 0.000000 -60.708740 0.000000 46.000000 0.407229 0.891817 -0.197046
-7.84999990 -19.54000092 -0.30000001 116 96 149 0.000000 0.000000 0.000000 0.000000 -60.708740 0.000000 46.000000 0.059972 0.920902 -0.385153
-7.86000013 -19.52000046 -0.34999999 116 96 149 0.000000 0.000000 0.000000 0.000000 -60.708740 0.000000 46.000000 -0.318204 -0.775522 0.545264
-7.86999989 -19.55999947 -0.33000001 116 96 149 0.000000 0.000000 0.000000 0.000000 -60.708740 0.000000 46.000000 0.569131 0.806394 -0.160678
-7.88000011 -19.57999992 -0.33000001 116 96 149 0.000000 0.000000 0.000000 0.000000 -60.708740 0.000000 46.000000 0.037455 0.839279 -0.542410
-7.80999994 -19.61000061 -0.20999999 116 96 149 0.000000 0.000000 0.000000 0.000000 -60.708740 0.000000 46.000000 -0.150062 0.944986 -0.290661
-7.80999994 -19.62000084 -0.23000000 116 96 149 0.000000 0.000000 0.000000 0.000000 -60.708740 0.000000 46.000000 -0.013376 0.999105 0.040129
-7.82999992 -19.60000038 -0.23000000 116 96 149 0.000000 0.000000 0.000000 0.000000 -60.708740 0.000000 46.000000 -0.095838 0.994733 -0.036352
-7.84000015 -19.60000038 -0.27000001 116 96 149 0.000000 0.000000 0.000000 0.000000 -60.708740 0.000000 46.000000 0.411879 0.850180 -0.327949
-7.82999992 -19.60000038 -0.23000000 116 96 149 0.000000 0.000000 0.000000 0.000000 -60.708740 0.000000 46.000000 -0.095838 0.994733 -0.036352
-7.82000017 -19.62000084 -0.23000000 116 96 149 0.000000 0.000000 0.000000 0.000000 -60.708740 0.000000 46.000000 0.044239 0.998978 0.009259
-7.84999990 -19.61000061 -0.30000001 116 96 149 0.000000 0.000000 0.000000 0.000000 -60.708740 0.000000 46.000000 -0.064536 0.997668 -0.022217
-7.88999987 -19.52000046 -0.23000000 116 96 149 0.000000 0.000000 0.000000 0.000000 -60.708740 0.000000 46.000000 -0.186616 0.877240 -0.442294
-7.88999987 -19.54999924 -0.31000000 116 96 149 0.000000 0.000000 0.000000 0.000000 -60.708740 0.000000 46.000000 -0.206425 0.947370 -0.244703
-7.90999985 -19.55999947 -0.30000001 116 96 149 0.000000 0.000000 0.000000 0.000000 -60.708740 0.000000 46.000000 0.241315 0.966523 0.087177
-7.82000017 -19.52000046 -0.37000000 116 96 149 0.000000 0.000000 0.000000 0.000000 -60.708740 0.000000 46.000000 0.191464 0.890089 -0.413621
-7.82999992 -19.54999924 -0.38999999 116 96 149 0.000000 0.000000 0.000000 0.000000 -60.708740 0.000000 46.000000 0.297752 0.881164 -0.367278
-7.82000017 -19.54999924 -0.38999999 116 96 149 0.000000 0.000000 0.000000 0.000000 -60.708740 0.000000 46.000000 0.356285 0.933129 -0.048288
-7.82999992 -19.52000046 -0.38000000 116 96 149 0.000000 0.000000 0.000000 0.000000 -60.708740 0.000000 46.000000 0.200609 0.891760 -0.405611
-7.82000017 -19.51000023 -0.37000000 116 96 149 0.000000 0.000000 0.000000 0.000000 -60.708740 0.000000 46.000000 0.345023 0.809293 -0.475400
-7.82000017 -19.54999924 -0.38999999 116 96 149 0.000000 0.000000 0.000000 0.000000 -60.708740 0.000000 46.000000 0.356285 0.933129 -0.048288
-7.80999994 -19.54999924 -0.43000001 116 96 149 0.000000 0.000000 0.000000 0.000000 -60.708740 0.000000 46.000000 -0.032484 0.998636 -0.040868
-7.84000015 -19.54999924 -0.40000001 116 96 149 0.000000 0.000000 0.000000 0.000000 -60.708740 0.000000 46.000000 0.006311 0.937806 -0.347102
-7.80999994 -19.54999924 -0.40000001 116 96 149 0.000000 0.000000 0.000000 0.000000 -60.708740 0.000000 46.000000 -0.102169 0.984430 -0.143037
-7.80999994 -19.54999924 -0.40000001 116 96 149 0.000000 0.000000 0.000000 0.000000 -60.708740 0.000000 46.000000 -0.102169 0.984430 -0.143037
-7.82999992 -19.54999924 -0.40000001 116 96 149 0.000000 0.000000 0.000000 0.000000 -60.708740 0.000000 46.000000 0.424689 0.877691 -0.222030
-7.82999992 -19.59000015 -0.37000000 116 96 149 0.000000 0.000000 0.000000 0.000000 -60.708740 0.000000 46.000000 0.291555 0.925865 -0.240355
-7.82999992 -19.59000015 -0.38000000 116 96 149 0.000000 0.000000 0.000000 0.000000 -60.708740 0.000000 46.000000 0.331602 0.889774 -0.313596
-7.82000017 -19.59000015 -0.36000001 116 96 149 0.000000 0.000000 0.000000 0.000000 -60.708740 0.000000 46.000000 0.001085 0.993231 0.116148
-7.82999992 -19.57999992 -0.41999999 116 96 149 0.000000 0.000000 0.000000 0.000000 -60.708740 0.000000 46.000000 0.509085 0.850419 -0.132741
-7.86000013 -19.57999992 -0.38000000 116 96 149 0.000000 0.000000 0.000000 0.000000 -60.708740 0.000000 46.000000 0.125131 0.867287 -0.481826
-7.86999989 -19.57999992 -0.41999999 116 96 149 0.000000 0.000000 0.000000 0.000000 -60.708740 0.000000 46.000000 0.026562 0.997680 -0.062687
-7.82999992 -19.54999924 -0.50000000 116 96 149 0.000000 0.000000 0.000000 0.000000 -60.708740 0.000000 46.000000 -0.028554 0.866127 -0.499009
-7.80999994 -19.59000015 -0.47000000 116 96 149 0.000000 0.000000 0.000000 0.000000 -60.708740 0.000000 46.000000 0.517634 0.855516 0.012164
-7.80999994 -19.59000015 -0.47000000 116 96 149 0.000000 0.000000 0.000000 0.000000 -60.708740 0.000000 46.000000 0.517634 0.855516 0.012164
-7.88000011 -19.56999969 -0.44000000 116 96 149 0.000000 0.000000 0.000000 0.000000 -60.708740 0.000000 46.000000 0.119537 0.984068 0.131612
-7.86999989 -19.56999969 -0.51999998 116 96 149 0.000000 0.000000 0.000000 0.000000 -60.708740 0.000000 46.000000 -0.053099 0.998467 -0.015617
-7.84999990 -19.56999969 -0.50999999 116 96 149 0.000000 0.000000 0.000000 0.000000 -60.708740 0.000000 46.000000 -0.163658 0.956670 -0.240831
-7.80999994 -19.67000008 -0.38999999 116 96 149 0.000000 0.000000 0.000000 0.000000 -60.708740 0.000000 46.000000 0.366362 0.929594 0.040417
-7.86000013 -19.67000008 -0.38000000 116 96 149 0.000000 0.000000 0.000000 0.000000 -60.708740 0.000000 46.000000 -0.101061 0.866847 -0.488224
-7.86999989 -19.65999985 -0.37000000 116 96 149 0.000000 0.000000 0.000000 0.000000 -60.708740 0.000000 46.000000 0.160826 0.854296 -0.494282
-7.88000011 -19.65999985 -0.41999999 116 96 149 0.000000 0.000000 0.000000 0.000000 -60.708740 0.000000 46.000000 0.150658 0.858603 -0.490003
-7.82999992 -19.62000084 -0.51999998 116 96 149 0.000000 0.000000 0.000000 0.000000 -60.708740 0.000000 46.000000 0.307405 0.950278 -0.049746
-7.80999994 -19.67000008 -0.46000001 116 96 149 0.000000 0.000000 0.000000 0.000000 -60.708740 0.000000 46.000000 0.193474 0.956695 -0.217491
-7.86999989 -19.61000061 -0.44999999 116 96 149 0.000000 0.000000 0.000000 0.000000 -60.708740 0.000000 46.000000 -0.148249 0.985558 -0.081833
-7.86000013 -19.60000038 -0.50000000 116 96 149 0.000000 0.000000 0.000000 0.000000 -60.708740 0.000000 46.000000 0.502852 0.832992 -0.230792
-7.86999989 -19.60000038 -0.50999999 116 96 149 0.000000 0.000000 0.000000 0.000000 -60.708740 0.000000 46.000000 -0.024194 0.941033 -0.337448
-7.88000011 -19.67000008 -0.46000001 116 96 149 0.000000 0.000000 0.000000 0.000000 -60.708740 0.000000 46.000000 0.027631 0.993612 -0.109419
-7.86000013 -19.65999985 -0.47000000 116 96 149 0.000000 0.000000 0.000000 0.000000 -60.708740 0.000000 46.000000 0.362340 0.917835 0.162137
-7.86000013 -19.67000008 -0.46000001 116 96 149 0.000000 0.000000 0.000000 0.000000 -60.708740 0.000000 46.000000 0.344364 0.919722 0.188479
-7.86000013 -19.67000008 -0.46000001 116 96 149 0.000000 0.000000 0.000000 0.000000 -60.708740 0.000000 46.000000 0.344364 0.919722 0.188479
-7.86000013 -19.67000008 -0.50000000 116 96 149 0.000000 0.000000 0.000000 0.000000 -60.708740 0.000000 46.000000 0.388002 0.913682 -0.120990
-7.88000011 -19.63999939 -0.51999998 116 96 149 0.000000 0.000000 0.000000 0.000000 -60.708740 0.000000 46.000000 0.264957 0.950885 -0.160050
-7.90999985 -19.52000046 -0.36000001 116 96 149 0.000000 0.000000 0.000000 0.000000 -60.708740 0.000000 46.000000 0.407303 0.910682 0.069012
-7.88999987 -19.57999992 -0.50000000 116 96 149 0.000000 0.000000 0.000000 0.000000 -60.708740 0.000000 46.000000 0.470326 0.877095 -0.097455
-7.90000010 -19.64999962 -0.41999999 116 96 149 0.000000 0.000000 0.000000 0.000000 -60.708740 0.000000 46.000000 -0.005980 0.967613 -0.252369
-7.88999987 -19.65999985 -0.43000001 116 96 149 0.000000 0.000000 0.000000 0.000000 -60.708740 0.000000 46.000000 0.310393 0.814583 -0.490011
-7.88999987 -19.64999962 -0.41999999 116 96 149 0.000000 0.000000 0.000000 0.000000 -60.708740 0.000000 46.000000 0.024154 0.985699 0.166775
-7.92999983 -19.60000038 -0.41000000 116 96 149 0.000000 0.000000 0.000000 0.000000 -60.708740 0.000000 46.000000 0.380452 0.924692 0.014186
-7.90000010 -19.67000008 -0.44999999 116 96 149 0.000000 0.000000 0.000000 0.000000 -60.708740 0.000000 46.000000 -0.087849 0.983191 -0.160054
-7.94999981 -19.64999962 -0.51999998 116 96 149 0.000000 0.000000 0.000000 0.000000 -60.708740 0.000000 46.000000 0.341819 0.876577 -0.338781
-7.80999994 -19.56999969 -0.55000001 116 96 149 0.000000 0.000000 0.000000 0.000000 -60.708740 0.000000 46.000000 -0.185147 0.962500 -0.198278
-7.80999994 -19.56999969 -0.52999997 116 96 149 0.000000 0.000000 0.000000 0.000000 -60.708740 0.000000 46.000000 0.192487 0.981099 -0.019832
-7.86999989 -19.56999969 -0.54000002 116 96 149 0.000000 0.000000 0.000000 0.000000 -60.708740 0.000000 46.000000 0.408158 0.880605 -0.240709
-7.86000013 -19.59000015 -0.57999998 116 96 149 0.000000 0.000000 0.000000 0.000000 -60.708740 0.000000 46.000000 -0.099508 0.922831 -0.372131
-7.84000015 -19.54999924 -0.63000000 116 96 149 0.000000 0.000000 0.000000 0.000000 -60.708740 0.000000 46.000000 0.262344 0.780749 -0.567104
-7.82000017 -19.54999924 -0.63000000 116 96 149 0.000000 0.000000 0.000000 0.000000 -60.708740 0.000000 46.000000 0.456350 0.873081 -0.171681
-7.82000017 -19.54999924 -0.62000000 116 96 149 0.000000 0.000000 0.000000 0.000000 -60.708740 0.000000 46.000000 0.494277 0.849679 -0.183674
-7.82999992 -19.54999924 -0.63999999 116 96 149 0.000000 0.000000 0.000000 0.000000 -60.708740 0.000000 46.000000 0.151684 0.905849 -0.395512
-7.84000015 -19.57999992 -0.62000000 116 96 149 0.000000 0.000000 0.000000 0.000000 -60.708740 0.000000 46.000000 0.250818 0.963804 0.090396
-7.80999994 -19.56999969 -0.67000002 116 96 149 0.000000 0.000000 0.000000 0.000000 -60.708740 0.000000 46.000000 0.048709 0.996906 0.061698
-7.82000017 -19.56999969 -0.67000002 116 96 149 0.000000 0.000000 0.000000 0.000000 -60.708740 0.000000 46.000000 0.282763 0.957337 -0.059596
-7.84999990 -19.54999924 -0.64999998 116 96 149 0.000000 0.000000 0.000000 0.000000 -60.708740 0.000000 46.000000 0.646265 0.763010 -0.012508
-7.86000013 -19.53000069 -0.68000001 116 96 149 0.000000 0.000000 0.000000 0.000000 -60.708740 0.000000 46.000000 0.496448 0.725578 -0.476524
-7.88000011 -19.56999969 -0.66000003 116 96 149 0.000000 0.000000 0.000000 0.000000 -60.708740 0.000000 46.000000 0.649664 0.758179 0.055685
-7.88000011 -19.56999969 -0.66000003 116 96 149 0.000000 0.000000 0.000000 0.000000 -60.708740 0.000000 46.000000 0.649664 0.758179 0.055685
-7.84000015 -19.61000061 -0.56000000 116 96 149 0.000000 0.000000 0.000000 0.000000 -60.708740 0.000000 46.000000 -0.025140 0.903721 -0.427382
-7.82000017 -19.62000084 -0.54000002 116 96 149 0.000000 0.000000 0.000000 0.000000 -60.708740 0.000000 46.000000 0.029605 0.935760 -0.351393
-7.82999992 -19.61000061 -0.60000002 116 96 149 0.000000 0.000000 0.000000 0.000000 -60.708740 0.000000 46.000000 0.335697 0.841585 -0.423134
-7.82999992 -19.67000008 -0.55000001 116 96 149 0.000000 0.000000 0.000000 0.000000 -60.708740 0.000000 46.000000 0.109594 0.983938 -0.140907
-7.82000017 -19.67000008 -0.55000001 116 96 149 0.000000 0.000000 0.000000 0.000000 -60.708740 0.000000 46.000000 0.030596 0.965600 -0.258227
-7.84000015 -19.67000008 -0.56000000 116 96 149 0.000000 0.000000 0.000000 0.000000 -60.708740 0.000000 46.000000 0.184090 0.977283 0.105018
-7.88000011 -19.67000008 -0.56000000 116 96 149 0.000000 0.000000 0.000000 0.000000 -60.708740 0.000000 46.000000 0.075548 0.997014 0.015961
-7.84999990 -19.67000008 -0.54000002 116 96 149 0.000000 0.000000 0.000000 0.000000 -60.708740 0.000000 46.000000 0.322303 0.943229 0.080247
-7.86999989 -19.67000008 -0.54000002 116 96 149 0.000000 0.000000 0.000000 0.000000 -60.708740 0.000000 46.000000 0.268003 0.954511 -0.130701
-7.86000013 -19.67000008 -0.52999997 116 96 149 0.000000 0.000000 0.000000 0.000000 -60.708740 0.000000 46.000000 -0.001187 0.969932 -0.243373
-7.86000013 -19.65999985 -0.57999998 116 96 149 0.000000 0.000000 0.000000 0.000000 -60.708740 0.000000 46.000000 0.072946 0.973030 -0.218839
-7.84000015 -19.61000061 -0.62000000 116 96 149 0.000000 0.000000 0.000000 0.000000 -60.708740 0.000000 46.000000 0.247499 0.953875 -0.169905
-7.84000015 -19.64999962 -0.61000001 116 96 149 0.000000 0.000000 0.000000 0.000000 -60.708740 0.000000 46.000000 0.052942 0.984723 0.165885
-7.84000015 -19.63999939 -0.63999999 116 96 149 0.000000 0.000000 0.000000 0.000000 -60.708740 0.000000 46.000000 0.518557 0.818855 -0.246121
-7.82999992 -19.64999962 -0.63999999 116 96 149 0.000000 0.000000 0.000000 0.000000 -60.708740 0.000000 46.000000 0.299682 0.952605 0.052285
-7.84000015 -19.64999962 -0.61000001 116 96 149 0.000000 0.000000 0.000000 0.000000 -60.708740 0.000000 46.000000 0.052942 0.984723 0.165885
-7.84000015 -19.64999962 -0.64999998 116 96 149 0.000000 0.000000 0.000000 0.000000 -60.708740 0.000000 46.000000 0.003545 0.972520 -0.232790
-7.82000017 -19.65999985 -0.69000000 116 96 149 0.000000 0.000000 0.000000 0.000000 -60.708740 0.000000 46.000000 0.448608 0.893198 0.030800
-7.82000017 -19.64999962 -0.68000001 116 96 149 0.000000 0.000000 0.000000 0.000000 -60.708740 0.000000 46.000000 0.040950 0.998560 0.034650
-7.86000013 -19.65999985 -0.63000000 116 96 149 0.000000 0.000000 0.000000 0.000000 -60.708740 0.000000 46.000000 0.459218 0.883327 -0.094090
-7.86000013 -19.65999985 -0.62000000 116 96 149 0.000000 0.000000 0.000000 0.000000 -60.708740 0.000000 46.000000 0.233635 0.964229 -0.125208
-7.86000013 -19.64999962 -0.67000002 116 96 149 0.000000 0.000000 0.000000 0.000000 -60.708740 0.000000 46.000000 0.408033 0.912462 -0.030371
-7.92999983 -19.56999969 -0.56000000 116 96 149 0.000000 0.000000 0.000000 0.000000 -60.708740 0.000000 46.000000 0.373511 0.799923 -0.469694
-7.90000010 -19.56999969 -0.55000001 116 96 149 0.000000 0.000000 0.000000 0.000000 -60.708740 0.000000 46.000000 0.281320 0.959437 -0.018427
-7.88999987 -19.56999969 -0.58999997 116 96 149 0.000000 0.000000 0.000000 0.000000 -60.708740 0.000000 46.000000 0.407303 0.910682 0.069012
-7.90999985 -19.54999924 -0.54000002 116 96 149 0.000000 0.000000 0.000000 0.000000 -60.708740 0.000000 46.000000 0.035489 0.996922 0.069903
-7.92999983 -19.55999947 -0.55000001 116 96 149 0.000000 0.000000 0.000000 0.000000 -60.708740 0.000000 46.000000 0.143274 0.900780 -0.409961
-7.90999985 -19.54999924 -0.63000000 116 96 149 0.000000 0.000000 0.000000 0.000000 -60.708740 0.000000 46.000000 0.590934 0.781260 0.201071
-7.92000008 -19.54999924 -0.63000000 116 96 149 0.000000 0.000000 0.000000 0.000000 -60.708740 0.000000 46.000000 0.146410 0.965270 -0.216376
-7.88999987 -19.51000023 -0.68000001 116 96 149 0.000000 0.000000 0.000000 0.000000 -60.708740 0.000000 46.000000 0.326749 0.944922 0.018924
-7.90000010 -19.56999969 -0.61000001 116 96 149 0.000000 0.000000 0.000000 0.000000 -60.708740 0.000000 46.000000 0.412747 0.909645 0.046751
-7.88999987 -19.56999969 -0.61000001 116 96 149 0.000000 0.000000 0.000000 0.000000 -60.708740 0.000000 46.000000 0.592798 0.804009 -0.046466
-7.90999985 -19.56999969 -0.63000000 116 96 149 0.000000 0.000000 0.000000 0.000000 -60.708740 0.000000 46.000000 0.539658 0.771631 -0.336682
-7.88999987 -19.59000015 -0.63999999 116 96 149 0.000000 0.000000 0.000000 0.000000 -60.708740 0.000000 46.000000 0.287551 0.957260 -0.031120
-7.90999985 -19.55999947 -0.64999998 116 96 149 0.000000 0.000000 0.000000 0.000000 -60.708740 0.000000 46.000000 0.175766 0.861105 -0.477079
-7.94000006 -19.54999924 -0.63000000 116 96 149 0.000000 0.000000 0.000000 0.000000 -60.708740 0.000000 46.000000 0.593911 0.798205 0.100688
-7.92000008 -19.61000061 -0.52999997 116 96 149 0.000000 0.000000 0.000000 0.000000 -60.708740 0.000000 46.000000 0.137961 0.984923 -0.104371
-7.92000008 -19.61000061 -0.52999997 116 96 149 0.000000 0.000000 0.000000 0.000000 -60.708740 0.000000 46.000000 0.137961 0.984923 -0.104371
-7.88999987 -19.62000084 -0.57999998 116 96 149 0.000000 0.000000 0.000000 0.000000 -60.708740 0.000000 46.000000 0.453797 0.889983 -0.044702
-7.88999987 -19.65999985 -0.56000000 116 96 149 0.000000 0.000000 0.000000 0.000000 -60.708740 0.000000 46.000000 0.139840 0.990067 -0.014543
-7.90999985 -19.63999939 -0.56000000 116 96 149 0.000000 0.000000 0.000000 0.000000 -60.708740 0.000000 46.000000 0.364266 0.929733 0.053917
-7.88999987 -19.67000008 -0.56000000 116 96 149 0.000000 0.000000 0.000000 0.000000 -60.708740 0.000000 46.000000 0.194364 0.971818 -0.133387
-7.90000010 -19.65999985 -0.56000000 116 96 149 0.000000 0.000000 0.000000 0.000000 -60.708740 0.000000 46.000000 0.382667 0.923813 0.011596
-7.90999985 -19.67000008 -0.58999997 116 96 149 0.000000 0.000000 0.000000 0.000000 -60.708740 0.000000 46.000000 0.362203 0.927723 0.090214
-7.88999987 -19.67000008 -0.58999997 116 96 149 0.000000 0.000000 0.000000 0.000000 -60.708740 0.000000 46.000000 0.161882 0.919209 -0.358956
-7.88999987 -19.67000008 -0.60000002 116 96 149 0.000000 0.000000 0.000000 0.000000 -60.708740 0.000000 46.000000 0.281795 0.956044 0.081064
-7.90000010 -19.65999985 -0.56999999 116 96 149 0.000000 0.000000 0.000000 0.000000 -60.708740 0.000000 46.000000 0.562146 0.812652 0.153584
-7.88999987 -19.67000008 -0.58999997 116 96 149 0.000000 0.000000 0.000000 0.000000 -60.708740 0.000000 46.000000 0.161882 0.919209 -0.358956
-7.90000010 -19.67000008 -0.60000002 116 96 149 0.000000 0.000000 0.000000 0.000000 -60.708740 0.000000 46.000000 0.251054 0.965107 -0.074433
-7.90000010 -19.67000008 -0.57999998 116 96 149 0.000000 0.000000 0.000000 0.000000 -60.708740 0.000000 46.000000 0.275943 0.960180 -0.043701
-7.96000004 -19.64999962 -0.54000002 116 96 149 0.000000 0.000000 0.000000 0.000000 -60.708740 0.000000 46.000000 0.524382 0.815189 -0.245949
-7.90999985 -19.60000038 -0.68000001 116 96 149 0.000000 0.000000 0.000000 0.000000 -60.708740 0.000000 46.000000 0.524382 0.815189 -0.245949
-7.88999987 -19.62000084 -0.68000001 116 96 149 0.000000 0.000000 0.000000 0.000000 -60.708740 0.000000 46.000000 0.496268 0.863875 -0.086246
-7.90000010 -19.60000038 -0.64999998 116 96 149 0.000000 0.000000 0.000000 0.000000 -60.708740 0.000000 46.000000 0.429870 0.901513 0.049859
-7.92000008 -19.67000008 -0.61000001 116 96 149 0.000000 0.000000 0.000000 0.000000 -60.708740 0.000000 46.000000 0.474112 0.842355 -0.256235
-7.90000010 -19.67000008 -0.63000000 116 96 149 0.000000 0.000000 0.000000 0.000000 -60.708740 0.000000 46.000000 0.427956 0.891695 0.147423
-7.84000015 -19.68000031 -0.43000001 116 96 149 0.000000 0.000000 0.000000 0.000000 -60.708740 0.000000 46.000000 0.212141 0.975848 0.052126
-7.82999992 -19.68000031 -0.41999999 116 96 149 0.000000 0.000000 0.000000 0.000000 -60.708740 0.000000 46.000000 0.094131 0.979207 -0.179705
-7.84000015 -19.68000031 -0.43000001 116 96 149 0.000000 0.000000 0.000000 0.000000 -60.708740 0.000000 46.000000 0.212141 0.975848 0.052126
-7.84000015 -19.68000031 -0.41000000 116 96 149 0.000000 0.000000 0.000000 0.000000 -60.708740 0.000000 46.000000 -0.166237 0.981649 -0.093433
-7.82000017 -19.68000031 -0.43000001 116 96 149 0.000000 0.000000 0.000000 0.000000 -60.708740 0.000000 46.000000 0.053319 0.998419 -0.017773
-7.82999992 -19.68000031 -0.41999999 116 96 149 0.000000 0.000000 0.000000 0.000000 -60.708740 0.000000 46.000000 0.094131 0.979207 -0.179705
-7.84999990 -19.68000031 -0.41999999 116 96 149 0.000000 0.000000 0.000000 0.000000 -60.708740 0.000000 46.000000 0.097208 0.978231 0.183341
-7.80999994 -19.69000053 -0.50999999 116 96 149 0.000000 0.000000 0.000000 0.000000 -60.708740 0.000000 46.000000 0.338330 0.939805 -0.047962
-7.80999994 -19.68000031 -0.50000000 116 96 149 0.000000 0.000000 0.000000 0.000000 -60.708740 0.000000 46.000000 0.302413 0.949133 0.087713
-7.82999992 -19.68000031 -0.49000001 116 96 149 0.000000 0.000000 0.000000 0.000000 -60.708740 0.000000 46.000000 0.139657 0.975082 0.172369
-7.82999992 -19.68000031 -0.50999999 116 96 149 0.000000 0.000000 0.000000 0.000000 -60.708740 0.000000 46.000000 0.037687 0.971353 -0.234632
-7.82999992 -19.68000031 -0.49000001 116 96 149 0.000000 0.000000 0.000000 0.000000 -60.708740 0.000000 46.000000 0.139657 0.975082 0.172369
-7.80999994 -19.68000031 -0.51999998 116 96 149 0.000000 0.000000 0.000000 0.000000 -60.708740 0.000000 46.000000 0.099369 0.994786 -0.022931
-7.84000015 -19.70000076 -0.55000001 116 96 149 0.000000 0.000000 0.000000 0.000000 -60.708740 0.000000 46.000000 0.509370 0.858253 0.062799
-7.82000017 -19.68000031 -0.56000000 116 96 149 0.000000 0.000000 0.000000 0.000000 -60.708740 0.000000 46.000000 0.199871 0.804061 -0.559944
-7.82999992 -19.68000031 -0.60000002 116 96 149 0.000000 0.000000 0.000000 0.000000 -60.708740 0.000000 46.000000 0.017753 0.845323 -0.533960
-7.80999994 -19.69000053 -0.56999999 116 96 149 0.000000 0.000000 0.000000 0.000000 -60.708740 0.000000 46.000000 0.517637 0.767531 -0.378086
-7.84000015 -19.69000053 -0.56999999 116 96 149 0.000000 0.000000 0.000000 0.000000 -60.708740 0.000000 46.000000 0.445258 0.894552 -0.039011
-7.84000015 -19.69000053 -0.56999999 116 96 149 0.000000 0.000000 0.000000 0.000000 -60.708740 0.000000 46.000000 0.445258 0.894552 -0.039011
-7.80999994 -19.71999931 -0.60000002 116 96 149 0.000000 0.000000 0.000000 0.000000 -60.708740 0.000000 46.000000 0.404959 0.792171 -0.456588
-7.84999990 -19.68000031 -0.54000002 116 96 149 0.000000 0.000000 0.000000 0.000000 -60.708740 0.000000 46.000000 0.462132 0.880454 0.105994
-7.86999989 -19.69000053 -0.55000001 116 96 149 0.000000 0.000000 0.000000 0.000000 -60.708740 0.000000 46.000000 -0.057457 0.953785 -0.294946
-7.86000013 -19.69000053 -0.56999999 116 96 149 0.000000 0.000000 0.000000 0.000000 -60.708740 0.000000 46.000000 -0.098133 0.905309 -0.413263
-7.88000011 -19.68000031 -0.58999997 116 96 149 0.000000 0.000000 0.000000 0.000000 -60.708740 0.000000 46.000000 0.372892 0.923416 0.090850
-7.80999994 -19.68000031 -0.61000001 116 96 149 0.000000 0.000000 0.000000 0.000000 -60.708740 0.000000 46.000000 -0.059289 0.959975 -0.273738
-7.80999994 -19.70999908 -0.63999999 116 96 149 0.000000 0.000000 0.000000 0.000000 -60.708740 0.000000 46.000000 0.229960 0.972158 -0.045019
-7.86000013 -19.69000053 -0.62000000 116 96 149 0.000000 0.000000 0.000000 0.000000 -60.708740 0.000000 46.000000 0.319395 0.914829 -0.247134
-7.88000011 -19.68000031 -0.61000001 116 96 149 0.000000 0.000000 0.000000 0.000000 -60.708740 0.000000 46.000000 0.288802 0.950804 -0.112092
-7.88000011 -19.68000031 -0.61000001 116 96 149 0.000000 0.000000 0.000000 0.000000 -60.708740 0.000000 46.000000 0.288802 0.950804 -0.112092
-7.88000011 -19.68000031 -0.63000000 116 96 149 0.000000 0.000000 0.000000 0.000000 -60.708740 0.000000 46.000000 0.252849 0.953868 -0.161877
-7.84999990 -19.70000076 -0.63000000 116 96 149 0.000000 0.000000 0.000000 0.000000 -60.708740 0.000000 46.000000 -0.018549 0.955908 -0.293079
-7.86999989 -19.69000053 -0.66000003 116 96 149 0.000000 0.000000 0.000000 0.000000 -60.708740 0.000000 46.000000 0.220209 0.973103 0.067662
-7.86999989 -19.70000076 -0.64999998 116 96 149 0.000000 0.000000 0.000000 0.000000 -60.708740 0.000000 46.000000 0.084188 0.996404 0.009591
-7.86000013 -19.70000076 -0.67000002 116 96 149 0.000000 0.000000 0.000000 0.000000 -60.708740 0.000000 46.000000 0.180949 0.981440 0.063512
-7.88000011 -19.70000076 -0.68000001 116 96 149 0.000000 0.000000 0.000000 0.000000 -60.708740 0.000000 46.000000 0.270420 0.947148 0.172579
-7.88000011 -19.70000076 -0.66000003 116 96 149 0.000000 0.000000 0.000000 0.000000 -60.708740 0.000000 46.000000 0.182535 0.971394 -0.151900
-7.86000013 -19.68000031 -0.66000003 116 96 149 0.000000 0.000000 0.000000 0.000000 -60.708740 0.000000 46.000000 0.286681 0.930654 0.227368
-7.86999989 -19.70000076 -0.64999998 116 96 149 0.000000 0.000000 0.000000 0.000000 -60.708740 0.000000 46.000000 0.084188 0.996404 0.009591
-7.86000013 -19.70999908 -0.64999998 116 96 149 0.000000 0.000000 0.000000 0.000000 -60.708740 0.000000 46.000000 0.543102 0.834101 -0.096519
-7.88000011 -19.70000076 -0.64999998 116 96 149 0.000000 0.000000 0.000000 0.000000 -60.708740 0.000000 46.000000 0.134269 0.975021 -0.176934
-7.86999989 -19.69000053 -0.67000002 116 96 149 0.000000 0.000000 0.000000 0.000000 -60.708740 0.000000 46.000000 0.140189 0.830804 -0.538621
-7.92000008 -19.69000053 -0.55000001 116 96 149 0.000000 0.000000 0.000000 0.000000 -60.708740 0.000000 46.000000 0.544471 0.806681 -0.229819
-7.90999985 -19.70000076 -0.63999999 116 96 149 0.000000 0.000000 0.000000 0.000000 -60.708740 0.000000 46.000000 0.359638 0.931371 -0.056646
-7.90000010 -19.70000076 -0.66000003 116 96 149 0.000000 0.000000 0.000000 0.000000 -60.708740 0.000000 46.000000 0.189217 0.981344 0.034083
-7.90000010 -19.70000076 -0.67000002 116 96 149 0.000000 0.000000 0.000000 0.000000 -60.708740 0.000000 46.000000 0.131026 0.984498 0.116601
-7.88999987 -19.70000076 -0.66000003 116 96 149 0.000000 0.000000 0.000000 0.000000 -60.708740 0.000000 46.000000 0.132310 0.985769 -0.103702
-8.03999996 -19.54999924 -0.49000001 116 96 149 0.000000 0.000000 0.000000 0.000000 -60.708740 0.000000 46.000000 0.400694 0.906834 0.130753
-8.03999996 -19.54000092 -0.50999999 116 96 149 0.000000 0.000000 0.000000 0.000000 -60.708740 0.000000 46.000000 0.575979 0.803378 0.151101
-8.03999996 -19.53000069 -0.51999998 116 96 149 0.000000 0.000000 0.000000 0.000000 -60.708740 0.000000 46.000000 0.296936 0.953986 0.041697
-8.02000046 -19.54999924 -0.51999998 116 96 149 0.000000 0.000000 0.000000 0.000000 -60.708740 0.000000 46.000000 0.162825 0.980620 0.108958
-8.05000019 -19.53000069 -0.50999999 116 96 149 0.000000 0.000000 0.000000 0.000000 -60.708740 0.000000 46.000000 0.640839 0.764686 0.067684
-8.11999989 -19.51000023 -0.43000001 116 96 149 0.000000 0.000000 0.000000 0.000000 -60.708740 0.000000 46.000000 0.309216 0.913131 0.265664
-8.06000042 -19.51000023 -0.50000000 116 96 149 0.000000 0.000000 0.000000 0.000000 -60.708740 0.000000 46.000000 0.604821 0.775451 -0.181294
-8.06999969 -19.51000023 -0.47000000 116 96 149 0.000000 0.000000 0.000000 0.000000 -60.708740 0.000000 46.000000 0.626962 0.753279 -0.198718
-8.01000023 -19.54000092 -0.52999997 116 96 149 0.000000 0.000000 0.000000 0.000000 -60.708740 0.000000 46.000000 0.313836 0.909394 0.272964
-7.98999977 -19.54000092 -0.52999997 116 96 149 0.000000 0.000000 0.000000 0.000000 -60.708740 0.000000 46.000000 0.087274 0.930475 -0.355809
-7.96999979 -19.54000092 -0.58999997 116 96 149 0.000000 0.000000 0.000000 0.000000 -60.708740 0.000000 46.000000 0.358519 0.843851 -0.399224
-7.98999977 -19.51000023 -0.57999998 116 96 149 0.000000 0.000000 0.000000 0.000000 -60.708740 0.000000 46.000000 0.546965 0.779783 -0.304578
-7.98999977 -19.52000046 -0.58999997 116 96 149 0.000000 0.000000 0.000000 0.000000 -60.708740 0.000000 46.000000 0.776604 0.629866 0.012459
-7.98999977 -19.56999969 -0.54000002 116 96 149 0.000000 0.000000 0.000000 0.000000 -60.708740 0.000000 46.000000 0.266820 0.941475 -0.205991
-8.05000019 -19.54999924 -0.56000000 116 96 149 0.000000 0.000000 0.000000 0.000000 -60.708740 0.000000 46.000000 0.243432 0.926750 -0.286139
-8.02000046 -19.52000046 -0.55000001 116 96 149 0.000000 0.000000 0.000000 0.000000 -60.708740 0.000000 46.000000 0.202314 0.970852 0.128514
-8.06999969 -19.52000046 -0.52999997 116 96 149 0.000000 0.000000 0.000000 0.000000 -60.708740 0.000000 46.000000 0.761293 0.648407 0.001377
-8.06000042 -19.54999924 -0.52999997 116 96 149 0.000000 0.000000 0.000000 0.000000 -60.708740 0.000000 46.000000 0.390567 0.911322 -0.130189
-8.17000008 -19.18000031 -0.03000000 116 96 149 0.000000 0.000000 0.000000 0.000000 -60.708740 0.000000 46.000000 0.267363 0.940617 0.209180
-8.14000034 -19.18000031 -0.04000000 116 96 149 0.000000 0.000000 0.000000 0.000000 -60.708740 0.000000 46.000000 0.517038 0.806202 0.287593
-8.15999985 -19.19000053 -0.10000000 116 96 149 0.000000 0.000000 0.000000 0.000000 -60.708740 0.000000 46.000000 0.332088 0.942411 -0.039748
-8.15999985 -19.25000000 -0.03000000 116 96 149 0.000000 0.000000 0.000000 0.000000 -60.708740 0.000000 46.000000 0.287291 0.943568 0.164750
-8.14000034 -19.25000000 -0.04000000 116 96 149 0.000000 0.000000 0.000000 0.000000 -60.708740 0.000000 46.000000 0.525604 0.792376 -0.309646
-8.19999981 -19.25000000 -0.03000000 116 96 149 0.000000 0.000000 0.000000 0.000000 -60.708740 0.000000 46.000000 0.296049 0.955037 0.016103
-8.21000004 -19.25000000 -0.03000000 116 96 149 0.000000 0.000000 0.000000 0.000000 -60.708740 0.000000 46.000000 0.519750 0.853382 0.039981
-8.19999981 -19.25000000 -0.05000000 116 96 149 0.000000 0.000000 0.000000 0.000000 -60.708740 0.000000 46.000000 0.341040 0.929229 0.142215
-8.22000027 -19.25000000 -0.04000000 116 96 149 0.000000 0.000000 0.000000 0.000000 -60.708740 0.000000 46.000000 0.457847 0.832875 -0.310961
-8.14000034 -19.20000076 -0.11000000 116 96 149 0.000000 0.000000 0.000000 0.000000 -60.708740 0.000000 46.000000 0.351661 0.910265 -0.218522
-8.14000034 -19.18000031 -0.15000001 116 96 149 0.000000 0.000000 0.000000 0.000000 -60.708740 0.000000 46.000000 0.751583 0.659209 -0.023793
-8.14000034 -19.25000000 -0.15000001 116 96 149 0.000000 0.000000 0.000000 0.000000 -60.708740 0.000000 46.000000 0.265386 0.933765 -0.240111
-8.17000008 -19.21999931 -0.17000000 116 96 149 0.000000 0.000000 0.000000 0.000000 -60.708740 0.000000 46.000000 0.494481 0.822055 0.282338
-8.19999981 -19.19000053 -0.14000000 116 96 149 0.000000 0.000000 0.000000 0.000000 -60.708740 0.000000 46.000000 0.497681 0.867233 0.014836
-8.21000004 -19.18000031 -0.14000000 116 96 149 0.000000 0.000000 0.000000 0.000000 -60.708740 0.000000 46.000000 0.847822 0.473380 0.238973
-8.19999981 -19.19000053 -0.16000000 116 96 149 0.000000 0.000000 0.000000 0.000000 -60.708740 0.000000 46.000000 0.867230 0.496922 0.031313
-8.18000031 -19.20999908 -0.18000001 116 96 149 0.000000 0.000000 0.000000 0.000000 -60.708740 0.000000 46.000000 0.483305 0.862941 0.147474
-8.18000031 -19.20999908 -0.18000001 116 96 149 0.000000 0.000000 0.000000 0.000000 -60.708740 0.000000 46.000000 0.483305 0.862941 0.147474
-8.15999985 -19.26000023 -0.03000000 116 96 149 0.000000 0.000000 0.000000 0.000000 -60.708740 0.000000 46.000000 0.195333 0.937876 -0.286765
-8.14999962 -19.29000092 -0.04000000 116 96 149 0.000000 0.000000 0.000000 0.000000 -60.708740 0.000000 46.000000 0.663322 0.656771 -0.358685
-8.15999985 -19.26000023 -0.06000000 116 96 149 0.000000 0.000000 0.000000 0.000000 -60.708740 0.000000 46.000000 0.782241 0.616179 0.091771
-8.17000008 -19.27000046 -0.06000000 116 96 149 0.000000 0.000000 0.000000 0.000000 -60.708740 0.000000 46.000000 0.297652 0.952229 -0.068292
-8.15999985 -19.29000092 -0.07000000 116 96 149 0.000000 0.000000 0.000000 0.000000 -60.708740 0.000000 46.000000 0.380203 0.882130 -0.278014
-8.15999985 -19.29000092 -0.09000000 116 96 149 0.000000 0.000000 0.000000 0.000000 -60.708740 0.000000 46.000000 0.598117 0.776476 0.198347
-8.17000008 -19.29000092 -0.08000000 116 96 149 0.000000 0.000000 0.000000 0.000000 -60.708740 0.000000 46.000000 0.472622 0.864265 0.172264
-8.19999981 -19.26000023 -0.04000000 116 96 149 0.000000 0.000000 0.000000 0.000000 -60.708740 0.000000 46.000000 0.660333 0.733197 -0.162427
-8.18999958 -19.26000023 -0.03000000 116 96 149 0.000000 0.000000 0.000000 0.000000 -60.708740 0.000000 46.000000 0.541808 0.828213 -0.143203
-8.18999958 -19.27000046 -0.03000000 116 96 149 0.000000 0.000000 0.000000 0.000000 -60.708740 0.000000 46.000000 0.620150 0.660052 -0.423963
-8.22000027 -19.26000023 -0.10000000 116 96 149 0.000000 0.000000 0.000000 0.000000 -60.708740 0.000000 46.000000 0.545103 0.834108 0.084412
-8.19999981 -19.27000046 -0.10000000 116 96 149 0.000000 0.000000 0.000000 0.000000 -60.708740 0.000000 46.000000 0.252415 0.966141 0.053467
-8.22000027 -19.29999924 -0.04000000 116 96 149 0.000000 0.000000 0.000000 0.000000 -60.708740 0.000000 46.000000 0.476477 0.764655 -0.433905
-8.18000031 -19.30999947 -0.06000000 116 96 149 0.000000 0.000000 0.000000 0.000000 -60.708740 0.000000 46.000000 0.538895 0.730063 -0.420239
-8.18000031 -19.30999947 -0.10000000 116 96 149 0.000000 0.000000 0.000000 0.000000 -60.708740 0.000000 46.000000 0.201213 0.958095 -0.203878
-8.19999981 -19.34000015 -0.10000000 116 96 149 0.000000 0.000000 0.000000 0.000000 -60.708740 0.000000 46.000000 0.302887 0.943662 0.133270
-8.14999962 -19.34000015 -0.11000000 116 96 149 0.000000 0.000000 0.000000 0.000000 -60.708740 0.000000 46.000000 0.513737 0.856228 0.054297
-8.15999985 -19.30999947 -0.14000000 116 96 149 0.000000 0.000000 0.000000 0.000000 -60.708740 0.000000 46.000000 0.723303 0.637460 -0.265476
-8.14000034 -19.30999947 -0.11000000 116 96 149 0.000000 0.000000 0.000000 0.000000 -60.708740 0.000000 46.000000 0.694928 0.688710 -0.206768
-8.14999962 -19.29999924 -0.14000000 116 96 149 0.000000 0.000000 0.000000 0.000000 -60.708740 0.000000 46.000000 0.642391 0.658905 -0.391380
-8.14999962 -19.31999969 -0.15000001 116 96 149 0.000000 0.000000 0.000000 0.000000 -60.708740 0.000000 46.000000 0.752202 0.652882 0.089096
-8.14000034 -19.32999992 -0.15000001 116 96 149 0.000000 0.000000 0.000000 0.000000 -60.708740 0.000000 46.000000 0.406376 0.911308 0.066154
-8.21000004 -19.27000046 -0.14000000 116 96 149 0.000000 0.000000 0.000000 0.000000 -60.708740 0.000000 46.000000 0.620912 0.751630 0.222532
-8.18999958 -19.28000069 -0.14000000 116 96 149 0.000000 0.000000 0.000000 0.000000 -60.708740 0.000000 46.000000 0.527515 0.843737 0.099179
-8.22000027 -19.27000046 -0.14000000 116 96 149 0.000000 0.000000 0.000000 0.000000 -60.708740 0.000000 46.000000 0.331042 0.898117 0.289476
-8.22000027 -19.26000023 -0.15000001 116 96 149 0.000000 0.000000 0.000000 0.000000 -60.708740 0.000000 46.000000 0.412177 0.910501 0.033133
-8.22000027 -19.26000023 -0.15000001 116 96 149 0.000000 0.000000 0.000000 0.000000 -60.708740 0.000000 46.000000 0.412177 0.910501 0.033133
-8.21000004 -19.29999924 -0.11000000 116 96 149 0.000000 0.000000 0.000000 0.000000 -60.708740 0.000000 46.000000 0.509510 0.855807 0.089413
-8.21000004 -19.29999924 -0.13000000 116 96 149 0.000000 0.000000 0.000000 0.000000 -60.708740 0.000000 46.000000 0.608028 0.703083 -0.368750
-8.18999958 -19.31999969 -0.18000001 116 96 149 0.000000 0.000000 0.000000 0.000000 -60.708740 0.000000 46.000000 0.507400 0.820840 -0.262234
-8.18999958 -19.31999969 -0.18000001 116 96 149 0.000000 0.000000 0.000000 0.000000 -60.708740 0.000000 46.000000 0.507400 0.820840 -0.262234
-8.18000031 -19.32999992 -0.18000001 116 96 149 0.000000 0.000000 0.000000 0.000000 -60.708740 0.000000 46.000000 0.776005 0.614524 -0.142043
-8.18999958 -19.29999924 -0.16000000 116 96 149 0.000000 0.000000 0.000000 0.000000 -60.708740 0.000000 46.000000 0.840024 0.542259 0.017757
-8.18999958 -19.29999924 -0.17000000 116 96 149 0.000000 0.000000 0.000000 0.000000 -60.708740 0.000000 46.000000 0.296652 0.901762 -0.314362
-8.18999958 -19.29999924 -0.16000000 116 96 149 0.000000 0.000000 0.000000 0.000000 -60.708740 0.000000 46.000000 0.840024 0.542259 0.017757
-8.23999977 -19.20000076 -0.04000000 116 96 149 0.000000 0.000000 0.000000 0.000000 -60.708740 0.000000 46.000000 0.760781 0.635230 0.133025
-8.23999977 -19.20999908 -0.10000000 116 96 149 0.000000 0.000000 0.000000 0.000000 -60.708740 0.000000 46.000000 0.427567 0.821755 -0.376704
-8.22999954 -19.23999977 -0.04000000 116 96 149 0.000000 0.000000 0.000000 0.000000 -60.708740 0.000000 46.000000 0.573424 0.791724 -0.210614
-8.26000023 -19.23999977 -0.10000000 116 96 149 0.000000 0.000000 0.000000 0.000000 -60.708740 0.000000 46.000000 0.790733 0.604336 0.097567
-8.27000046 -19.21999931 -0.08000000 116 96 149 0.000000 0.000000 0.000000 0.000000 -60.708740 0.000000 46.000000 0.375297 0.901005 -0.217585
-8.23999977 -19.23999977 -0.11000000 116 96 149 0.000000 0.000000 0.000000 0.000000 -60.708740 0.000000 46.000000 0.803222 0.592821 -0.058287
-8.25000000 -19.27000046 -0.06000000 116 96 149 0.000000 0.000000 0.000000 0.000000 -60.708740 0.000000 46.000000 0.416203 0.864423 0.282043
-8.25000000 -19.32999992 -0.05000000 116 96 149 0.000000 0.000000 0.000000 0.000000 -60.708740 0.000000 46.000000 0.699023 0.707853 0.101542
-8.23999977 -19.29999924 -0.08000000 116 96 149 0.000000 0.000000 0.000000 0.000000 -60.708740 0.000000 46.000000 0.374792 0.862175 -0.340860
-8.23999977 -19.34000015 -0.08000000 116 96 149 0.000000 0.000000 0.000000 0.000000 -60.708740 0.000000 46.000000 0.162130 0.981314 -0.103617
-8.23999977 -19.34000015 -0.08000000 116 96 149 0.000000 0.000000 0.000000 0.000000 -60.708740 0.000000 46.000000 0.162130 0.981314 -0.103617
-8.27999973 -19.29999924 -0.05000000 116 96 149 0.000000 0.000000 0.000000 0.000000 -60.708740 0.000000 46.000000 0.828889 0.559398 -0.004083
-8.23999977 -19.26000023 -0.17000000 116 96 149 0.000000 0.000000 0.000000 0.000000 -60.708740 0.000000 46.000000 0.376069 0.921844 -0.093678
-8.25000000 -19.26000023 -0.18000001 116 96 149 0.000000 0.000000 0.000000 0.000000 -60.708740 0.000000 46.000000 0.762220 0.645394 0.049865
-8.22999954 -19.26000023 -0.17000000 116 96 149 0.000000 0.000000 0.000000 0.000000 -60.708740 0.000000 46.000000 0.427127 0.876578 -0.221749
-8.22999954 -19.27000046 -0.16000000 116 96 149 0.000000 0.000000 0.000000 0.000000 -60.708740 0.000000 46.000000 0.322855 0.887476 -0.328862
-8.25000000 -19.26000023 -0.18000001 116 96 149 0.000000 0.000000 0.000000 0.000000 -60.708740 0.000000 46.000000 0.762220 0.645394 0.049865
-8.22999954 -19.27000046 -0.18000001 116 96 149 0.000000 0.000000 0.000000 0.000000 -60.708740 0.000000 46.000000 0.783547 0.537791 -0.311184
-8.25000000 -19.32999992 -0.11000000 116 96 149 0.000000 0.000000 0.000000 0.000000 -60.708740 0.000000 46.000000 0.595275 0.767140 -0.239048
-8.23999977 -19.34000015 -0.11000000 116 96 149 0.000000 0.000000 0.000000 0.000000 -60.708740 0.000000 46.000000 0.436166 0.885374 -0.160845
-8.26000023 -19.32999992 -0.11000000 116 96 149 0.000000 0.000000 0.000000 0.000000 -60.708740 0.000000 46.000000 0.809977 0.569213 -0.141189
-8.23999977 -19.34000015 -0.11000000 116 96 149 0.000000 0.000000 0.000000 0.000000 -60.708740 0.000000 46.000000 0.436166 0.885374 -0.160845
-8.27000046 -19.32999992 -0.15000001 116 96 149 0.000000 0.000000 0.000000 0.000000 -60.708740 0.000000 46.000000 0.552657 0.829699 -0.078543
-8.17000008 -19.21999931 -0.19000000 116 96 149 0.000000 0.000000 0.000000 0.000000 -60.708740 0.000000 46.000000 0.479814 0.819617 -0.313059
-8.15999985 -19.22999954 -0.25999999 116 96 149 0.000000 0.000000 0.000000 0.000000 -60.708740 0.000000 46.000000 0.583408 0.803839 0.116094
-8.17000008 -19.23999977 -0.23000000 116 96 149 0.000000 0.000000 0.000000 0.000000 -60.708740 0.000000 46.000000 0.703928 0.669283 0.237792
