//X Y Z R G B PointSourceId ScanDirectionFlag NumberOfReturns ReturnNumber GpsTime Intensity Classification Nx Ny Nz
-0.99000001 -21.38999939 -0.47000000 115 179 108 0.000000 0.000000 0.000000 0.000000 -60.708740 0.000000 187.000000 0.990809 -0.001100 0.135260
-0.99000001 -21.36000061 -0.50000000 115 179 108 0.000000 0.000000 0.000000 0.000000 -60.708740 0.000000 187.000000 0.863517 0.172703 -0.473827
-0.99000001 -21.43000031 -0.46000001 115 179 108 0.000000 0.000000 0.000000 0.000000 -60.708740 0.000000 187.000000 0.880780 0.164509 -0.444030
-0.97000003 -21.42000008 -0.51999998 115 179 108 0.000000 0.000000 0.000000 0.000000 -60.708740 0.000000 187.000000 0.989089 0.137022 -0.054118
-1.00000000 -21.42000008 -0.51999998 115 179 108 0.000000 0.000000 0.000000 0.000000 -60.708740 0.000000 187.000000 0.947191 0.290722 -0.135313
-0.99000001 -21.39999962 -0.51999998 115 179 108 0.000000 0.000000 0.000000 0.000000 -60.708740 0.000000 187.000000 0.975456 -0.020149 -0.219270
-0.92000002 -21.46999931 -0.38000000 115 179 108 0.000000 0.000000 0.000000 0.000000 -60.708740 0.000000 187.000000 0.888822 0.310263 -0.337243
-0.94000000 -21.45999908 -0.36000001 115 179 108 0.000000 0.000000 0.000000 0.000000 -60.708740 0.000000 187.000000 0.813521 0.525302 -0.249480
-0.94999999 -21.44000053 -0.37000000 115 179 108 0.000000 0.000000 0.000000 0.000000 -60.708740 0.000000 187.000000 0.734452 0.443972 -0.513291
-0.94999999 -21.44000053 -0.36000001 115 179 108 0.000000 0.000000 0.000000 0.000000 -60.708740 0.000000 187.000000 0.875317 0.377737 -0.301886
-0.92000002 -21.46999931 -0.37000000 115 179 108 0.000000 0.000000 0.000000 0.000000 -60.708740 0.000000 187.000000 0.598202 0.797122 0.082163
-0.94000000 -21.45999908 -0.36000001 115 179 108 0.000000 0.000000 0.000000 0.000000 -60.708740 0.000000 187.000000 0.813521 0.525302 -0.249480
-0.94000000 -21.45999908 -0.38999999 115 179 108 0.000000 0.000000 0.000000 0.000000 -60.708740 0.000000 187.000000 0.774445 0.607080 0.178016
-0.92000002 -21.46999931 -0.38999999 115 179 108 0.000000 0.000000 0.000000 0.000000 -60.708740 0.000000 187.000000 0.816511 0.522133 -0.246348
-0.92000002 -21.47999954 -0.40000001 115 179 108 0.000000 0.000000 0.000000 0.000000 -60.708740 0.000000 187.000000 0.605913 0.773799 0.184674
-0.94000000 -21.46999931 -0.41999999 115 179 108 0.000000 0.000000 0.000000 0.000000 -60.708740 0.000000 187.000000 0.712291 0.691472 -0.120450
-0.93000001 -21.46999931 -0.40000001 115 179 108 0.000000 0.000000 0.000000 0.000000 -60.708740 0.000000 187.000000 0.863944 0.503176 -0.020344
-0.94000000 -21.44000053 -0.40000001 115 179 108 0.000000 0.000000 0.000000 0.000000 -60.708740 0.000000 187.000000 0.799661 0.600092 0.020788
-0.94000000 -21.45999908 -0.41999999 115 179 108 0.000000 0.000000 0.000000 0.000000 -60.708740 0.000000 187.000000 0.832127 0.552421 -0.048949
-0.94000000 -21.45999908 -0.40000001 115 179 108 0.000000 0.000000 0.000000 0.000000 -60.708740 0.000000 187.000000 0.734374 0.678421 -0.020982
-0.93000001 -21.46999931 -0.41000000 115 179 108 0.000000 0.000000 0.000000 0.000000 -60.708740 0.000000 187.000000 0.671443 0.740951 -0.012511
-0.98000002 -21.45999908 -0.36000001 115 179 108 0.000000 0.000000 0.000000 0.000000 -60.708740 0.000000 187.000000 0.963835 0.114528 -0.240637
-0.97000003 -21.45999908 -0.41999999 115 179 108 0.000000 0.000000 0.000000 0.000000 -60.708740 0.000000 187.000000 0.941411 0.337203 -0.006268
-0.94000000 -21.45000076 -0.47999999 115 179 108 0.000000 0.000000 0.000000 0.000000 -60.708740 0.000000 187.000000 0.715892 0.682735 0.146193
-0.94999999 -21.45000076 -0.47999999 115 179 108 0.000000 0.000000 0.000000 0.000000 -60.708740 0.000000 187.000000 0.780323 0.562779 0.272719
-0.94999999 -21.44000053 -0.46000001 115 179 108 0.000000 0.000000 0.000000 0.000000 -60.708740 0.000000 187.000000 0.678338 0.668671 -0.304527
-0.95999998 -21.44000053 -0.46000001 115 179 108 0.000000 0.000000 0.000000 0.000000 -60.708740 0.000000 187.000000 0.742667 0.619677 -0.253863
-0.95999998 -21.45000076 -0.47000000 115 179 108 0.000000 0.000000 0.000000 0.000000 -60.708740 0.000000 187.000000 0.625935 0.759955 -0.175140
-0.92000002 -21.44000053 -0.47999999 115 179 108 0.000000 0.000000 0.000000 0.000000 -60.708740 0.000000 187.000000 0.697282 0.648972 -0.304357
-0.93000001 -21.45000076 -0.50999999 115 179 108 0.000000 0.000000 0.000000 0.000000 -60.708740 0.000000 187.000000 0.814638 0.568931 -0.112616
-0.94000000 -21.45999908 -0.50999999 115 179 108 0.000000 0.000000 0.000000 0.000000 -60.708740 0.000000 187.000000 0.798454 0.588100 -0.128878
-0.94000000 -21.44000053 -0.51999998 115 179 108 0.000000 0.000000 0.000000 0.000000 -60.708740 0.000000 187.000000 0.686975 0.667759 -0.286640
-0.94999999 -21.45000076 -0.50999999 115 179 108 0.000000 0.000000 0.000000 0.000000 -60.708740 0.000000 187.000000 0.716491 0.653503 -0.244079
-0.93000001 -21.44000053 -0.50999999 115 179 108 0.000000 0.000000 0.000000 0.000000 -60.708740 0.000000 187.000000 0.899738 0.415155 0.134606
-0.94000000 -21.44000053 -0.51999998 115 179 108 0.000000 0.000000 0.000000 0.000000 -60.708740 0.000000 187.000000 0.686975 0.667759 -0.286640
-0.99000001 -21.45000076 -0.51999998 115 179 108 0.000000 0.000000 0.000000 0.000000 -60.708740 0.000000 187.000000 0.984200 0.156659 0.082515
-1.00999999 -21.37000084 -0.43000001 115 179 108 0.000000 0.000000 0.000000 0.000000 -60.708740 0.000000 187.000000 0.939319 -0.298437 -0.169160
-1.00999999 -21.37000084 -0.38000000 115 179 108 0.000000 0.000000 0.000000 0.000000 -60.708740 0.000000 187.000000 0.896709 -0.196200 -0.396761
-1.00999999 -21.37999916 -0.44999999 115 179 108 0.000000 0.000000 0.000000 0.000000 -60.708740 0.000000 187.000000 0.925466 0.166612 -0.340224
-1.02999997 -21.36000061 -0.44000000 115 179 108 0.000000 0.000000 0.000000 0.000000 -60.708740 0.000000 187.000000 0.906811 0.009133 -0.421439
-0.95999998 -21.42000008 -0.56000000 115 179 108 0.000000 0.000000 0.000000 0.000000 -60.708740 0.000000 187.000000 0.801445 0.597991 0.009623
-0.94999999 -21.43000031 -0.56999999 115 179 108 0.000000 0.000000 0.000000 0.000000 -60.708740 0.000000 187.000000 0.769736 0.614878 0.171558
-0.99000001 -21.38999939 -0.56000000 115 179 108 0.000000 0.000000 0.000000 0.000000 -60.708740 0.000000 187.000000 0.809084 0.392526 -0.437386
-1.00000000 -21.37000084 -0.55000001 115 179 108 0.000000 0.000000 0.000000 0.000000 -60.708740 0.000000 187.000000 0.893592 0.234845 -0.382546
-0.99000001 -21.37999916 -0.56000000 115 179 108 0.000000 0.000000 0.000000 0.000000 -60.708740 0.000000 187.000000 0.999928 0.010901 -0.004955
-0.99000001 -21.38999939 -0.55000001 115 179 108 0.000000 0.000000 0.000000 0.000000 -60.708740 0.000000 187.000000 0.819804 0.040501 -0.571210
-1.00000000 -21.37000084 -0.58999997 115 179 108 0.000000 0.000000 0.000000 0.000000 -60.708740 0.000000 187.000000 0.902210 0.098398 -0.419923
-0.98000002 -21.38999939 -0.60000002 115 179 108 0.000000 0.000000 0.000000 0.000000 -60.708740 0.000000 187.000000 0.947654 0.318402 -0.023912
-0.97000003 -21.43000031 -0.52999997 115 179 108 0.000000 0.000000 0.000000 0.000000 -60.708740 0.000000 187.000000 0.915325 0.300273 -0.268360
-0.97000003 -21.40999985 -0.52999997 115 179 108 0.000000 0.000000 0.000000 0.000000 -60.708740 0.000000 187.000000 0.956129 0.278170 -0.091861
-0.98000002 -21.40999985 -0.58999997 115 179 108 0.000000 0.000000 0.000000 0.000000 -60.708740 0.000000 187.000000 0.776117 0.437684 -0.453955
-0.97000003 -21.42000008 -0.58999997 115 179 108 0.000000 0.000000 0.000000 0.000000 -60.708740 0.000000 187.000000 0.925729 0.357949 -0.122059
-0.97000003 -21.40999985 -0.57999998 115 179 108 0.000000 0.000000 0.000000 0.000000 -60.708740 0.000000 187.000000 0.909772 0.404800 -0.091938
-0.98000002 -21.43000031 -0.60000002 115 179 108 0.000000 0.000000 0.000000 0.000000 -60.708740 0.000000 187.000000 0.859548 0.347214 -0.374992
-0.97000003 -21.42000008 -0.57999998 115 179 108 0.000000 0.000000 0.000000 0.000000 -60.708740 0.000000 187.000000 0.893490 0.423081 0.150588
-0.98000002 -21.43000031 -0.60000002 115 179 108 0.000000 0.000000 0.000000 0.000000 -60.708740 0.000000 187.000000 0.859548 0.347214 -0.374992
-0.97000003 -21.42000008 -0.58999997 115 179 108 0.000000 0.000000 0.000000 0.000000 -60.708740 0.000000 187.000000 0.925729 0.357949 -0.122059
-0.97000003 -21.43000031 -0.56999999 115 179 108 0.000000 0.000000 0.000000 0.000000 -60.708740 0.000000 187.000000 0.824751 0.535259 -0.182440
-0.98000002 -21.42000008 -0.60000002 115 179 108 0.000000 0.000000 0.000000 0.000000 -60.708740 0.000000 187.000000 0.765033 0.562949 -0.312750
-0.94999999 -21.43000031 -0.67000002 115 179 108 0.000000 0.000000 0.000000 0.000000 -60.708740 0.000000 187.000000 0.523979 0.796258 -0.302356
-0.99000001 -21.38999939 -0.63999999 115 179 108 0.000000 0.000000 0.000000 0.000000 -60.708740 0.000000 187.000000 0.902140 0.398886 -0.164415
-1.00000000 -21.37000084 -0.62000000 115 179 108 0.000000 0.000000 0.000000 0.000000 -60.708740 0.000000 187.000000 0.951020 0.049785 -0.305092
-1.00000000 -21.38999939 -0.64999998 115 179 108 0.000000 0.000000 0.000000 0.000000 -60.708740 0.000000 187.000000 0.874179 0.241411 -0.421345
-1.00000000 -21.37999916 -0.66000003 115 179 108 0.000000 0.000000 0.000000 0.000000 -60.708740 0.000000 187.000000 0.985747 -0.148277 0.079477
-1.00000000 -21.37000084 -0.69000000 115 179 108 0.000000 0.000000 0.000000 0.000000 -60.708740 0.000000 187.000000 0.959701 0.271469 -0.072647
-0.97000003 -21.42000008 -0.63000000 115 179 108 0.000000 0.000000 0.000000 0.000000 -60.708740 0.000000 187.000000 0.683483 0.699052 -0.210183
-1.00000000 -21.40999985 -0.61000001 115 179 108 0.000000 0.000000 0.000000 0.000000 -60.708740 0.000000 187.000000 0.943095 0.308087 -0.125118
-0.98000002 -21.39999962 -0.68000001 115 179 108 0.000000 0.000000 0.000000 0.000000 -60.708740 0.000000 187.000000 0.718165 0.641730 -0.269113
-0.98000002 -21.42000008 -0.66000003 115 179 108 0.000000 0.000000 0.000000 0.000000 -60.708740 0.000000 187.000000 0.805690 0.586612 -0.082154
-0.99000001 -21.39999962 -0.64999998 115 179 108 0.000000 0.000000 0.000000 0.000000 -60.708740 0.000000 187.000000 0.767381 0.534743 -0.353803
-0.93000001 -21.45000076 -0.56000000 115 179 108 0.000000 0.000000 0.000000 0.000000 -60.708740 0.000000 187.000000 0.443325 0.890845 -0.099294
-0.94999999 -21.45999908 -0.52999997 115 179 108 0.000000 0.000000 0.000000 0.000000 -60.708740 0.000000 187.000000 0.807845 0.580775 0.100435
-0.93000001 -21.45000076 -0.56000000 115 179 108 0.000000 0.000000 0.000000 0.000000 -60.708740 0.000000 187.000000 0.443325 0.890845 -0.099294
-0.95999998 -21.44000053 -0.56000000 115 179 108 0.000000 0.000000 0.000000 0.000000 -60.708740 0.000000 187.000000 0.792378 0.609841 -0.015211
-0.95999998 -21.45999908 -0.57999998 115 179 108 0.000000 0.000000 0.000000 0.000000 -60.708740 0.000000 187.000000 0.957988 0.286786 -0.003661
-0.92000002 -21.44000053 -0.60000002 115 179 108 0.000000 0.000000 0.000000 0.000000 -60.708740 0.000000 187.000000 0.592717 0.773177 -0.225575
-0.92000002 -21.44000053 -0.60000002 115 179 108 0.000000 0.000000 0.000000 0.000000 -60.708740 0.000000 187.000000 0.592717 0.773177 -0.225575
-0.94999999 -21.44000053 -0.57999998 115 179 108 0.000000 0.000000 0.000000 0.000000 -60.708740 0.000000 187.000000 0.786264 0.615646 0.052607
-0.97000003 -21.44000053 -0.58999997 115 179 108 0.000000 0.000000 0.000000 0.000000 -60.708740 0.000000 187.000000 0.734474 0.673146 -0.086151
-0.92000002 -21.45000076 -0.63999999 115 179 108 0.000000 0.000000 0.000000 0.000000 -60.708740 0.000000 187.000000 0.547497 0.834616 0.060520
-0.94999999 -21.45000076 -0.69000000 115 179 108 0.000000 0.000000 0.000000 0.000000 -60.708740 0.000000 187.000000 0.462703 0.812514 -0.354580
-0.92000002 -21.45999908 -0.69000000 115 179 108 0.000000 0.000000 0.000000 0.000000 -60.708740 0.000000 187.000000 0.363687 0.882809 -0.297288
-0.93000001 -21.45000076 -0.68000001 115 179 108 0.000000 0.000000 0.000000 0.000000 -60.708740 0.000000 187.000000 0.332075 0.870740 -0.362681
-0.92000002 -21.45000076 -0.66000003 115 179 108 0.000000 0.000000 0.000000 0.000000 -60.708740 0.000000 187.000000 0.381136 0.911044 -0.157272
-1.00999999 -21.36000061 -0.56999999 115 179 108 0.000000 0.000000 0.000000 0.000000 -60.708740 0.000000 187.000000 0.976695 -0.056883 -0.206958
-1.00999999 -21.37999916 -0.56000000 115 179 108 0.000000 0.000000 0.000000 0.000000 -60.708740 0.000000 187.000000 0.975451 0.151904 -0.159437
-1.00999999 -21.37000084 -0.56999999 115 179 108 0.000000 0.000000 0.000000 0.000000 -60.708740 0.000000 187.000000 0.994949 0.031742 -0.095226
-1.00999999 -21.37999916 -0.56999999 115 179 108 0.000000 0.000000 0.000000 0.000000 -60.708740 0.000000 187.000000 0.922078 -0.030082 -0.385834
-0.76999998 -21.53000069 -0.04000000 115 179 108 0.000000 0.000000 0.000000 0.000000 -60.708740 0.000000 187.000000 0.172020 0.984141 0.043298
-0.76999998 -21.53000069 -0.04000000 115 179 108 0.000000 0.000000 0.000000 0.000000 -60.708740 0.000000 187.000000 0.172020 0.984141 0.043298
-0.76999998 -21.53000069 -0.05000000 115 179 108 0.000000 0.000000 0.000000 0.000000 -60.708740 0.000000 187.000000 0.372004 0.928080 0.016734
-0.76999998 -21.53000069 -0.04000000 115 179 108 0.000000 0.000000 0.000000 0.000000 -60.708740 0.000000 187.000000 0.172020 0.984141 0.043298
-0.76999998 -21.53000069 -0.09000000 115 179 108 0.000000 0.000000 0.000000 0.000000 -60.708740 0.000000 187.000000 0.227195 0.862136 0.452885
-0.82999998 -21.54000092 -0.10000000 115 179 108 0.000000 0.000000 0.000000 0.000000 -60.708740 0.000000 187.000000 0.252654 0.942965 -0.216758
-0.81000000 -21.55999947 -0.08000000 115 179 108 0.000000 0.000000 0.000000 0.000000 -60.708740 0.000000 187.000000 0.610301 0.746627 0.264728
-0.81000000 -21.56999969 -0.04000000 115 179 108 0.000000 0.000000 0.000000 0.000000 -60.708740 0.000000 187.000000 0.596206 0.720347 0.354456
-0.80000001 -21.53000069 -0.11000000 115 179 108 0.000000 0.000000 0.000000 0.000000 -60.708740 0.000000 187.000000 0.327156 0.911673 0.248638
-0.77999997 -21.54000092 -0.15000001 115 179 108 0.000000 0.000000 0.000000 0.000000 -60.708740 0.000000 187.000000 0.122317 0.986847 -0.105691
-0.85000002 -21.54999924 -0.05000000 115 179 108 0.000000 0.000000 0.000000 0.000000 -60.708740 0.000000 187.000000 0.746315 0.543814 -0.383772
-0.85000002 -21.53000069 -0.08000000 115 179 108 0.000000 0.000000 0.000000 0.000000 -60.708740 0.000000 187.000000 0.735344 0.675141 -0.058770
-0.85000002 -21.53000069 -0.08000000 115 179 108 0.000000 0.000000 0.000000 0.000000 -60.708740 0.000000 187.000000 0.735344 0.675141 -0.058770
-0.88000000 -21.53000069 -0.06000000 115 179 108 0.000000 0.000000 0.000000 0.000000 -60.708740 0.000000 187.000000 0.903409 0.265881 -0.336391
-0.83999997 -21.54000092 -0.11000000 115 179 108 0.000000 0.000000 0.000000 0.000000 -60.708740 0.000000 187.000000 0.369898 0.897482 -0.240213
-0.83999997 -21.53000069 -0.15000001 115 179 108 0.000000 0.000000 0.000000 0.000000 -60.708740 0.000000 187.000000 0.678772 0.732846 -0.046959
-0.85000002 -21.54000092 -0.12000000 115 179 108 0.000000 0.000000 0.000000 0.000000 -60.708740 0.000000 187.000000 0.592215 0.805020 -0.035001
-0.85000002 -21.53000069 -0.15000001 115 179 108 0.000000 0.000000 0.000000 0.000000 -60.708740 0.000000 187.000000 0.519255 0.836494 0.175080
-0.75000000 -21.26000023 -0.81000000 115 179 108 0.000000 0.000000 0.000000 0.000000 -60.708740 0.000000 187.000000 0.688668 0.712674 0.133533
-0.75000000 -21.25000000 -0.81000000 115 179 108 0.000000 0.000000 0.000000 0.000000 -60.708740 0.000000 187.000000 0.796463 0.594047 -0.112942
-0.75000000 -21.26000023 -0.81000000 115 179 108 0.000000 0.000000 0.000000 0.000000 -60.708740 0.000000 187.000000 0.688668 0.712674 0.133533
-0.75000000 -21.30999947 -0.75000000 115 179 108 0.000000 0.000000 0.000000 0.000000 -60.708740 0.000000 187.000000 0.867398 0.466834 -0.172301
-0.73000002 -21.29000092 -0.72000003 115 179 108 0.000000 0.000000 0.000000 0.000000 -60.708740 0.000000 187.000000 0.763173 0.611468 -0.208983
-0.75000000 -21.32999992 -0.77999997 115 179 108 0.000000 0.000000 0.000000 0.000000 -60.708740 0.000000 187.000000 0.989010 0.139313 -0.049508
-0.75000000 -21.37999916 -0.73000002 115 179 108 0.000000 0.000000 0.000000 0.000000 -60.708740 0.000000 187.000000 0.969410 0.240197 -0.050503
-0.79000002 -21.27000046 -0.69999999 115 179 108 0.000000 0.000000 0.000000 0.000000 -60.708740 0.000000 187.000000 0.596630 0.794033 0.116380
-0.79000002 -21.27000046 -0.69999999 115 179 108 0.000000 0.000000 0.000000 0.000000 -60.708740 0.000000 187.000000 0.596630 0.794033 0.116380
-0.79000002 -21.22999954 -0.72000003 115 179 108 0.000000 0.000000 0.000000 0.000000 -60.708740 0.000000 187.000000 0.636606 0.695219 0.333770
-0.76999998 -21.26000023 -0.75000000 115 179 108 0.000000 0.000000 0.000000 0.000000 -60.708740 0.000000 187.000000 0.809963 0.570084 0.137709
-0.79000002 -21.22999954 -0.74000001 115 179 108 0.000000 0.000000 0.000000 0.000000 -60.708740 0.000000 187.000000 0.665569 0.734369 -0.133114
-0.81000000 -21.20999908 -0.72000003 115 179 108 0.000000 0.000000 0.000000 0.000000 -60.708740 0.000000 187.000000 0.423345 0.822907 0.378949
-0.81000000 -21.20999908 -0.70999998 115 179 108 0.000000 0.000000 0.000000 0.000000 -60.708740 0.000000 187.000000 0.171820 0.948390 0.266523
-0.81000000 -21.20999908 -0.70999998 115 179 108 0.000000 0.000000 0.000000 0.000000 -60.708740 0.000000 187.000000 0.171820 0.948390 0.266523
-0.81000000 -21.20999908 -0.72000003 115 179 108 0.000000 0.000000 0.000000 0.000000 -60.708740 0.000000 187.000000 0.423345 0.822907 0.378949
-0.81000000 -21.23999977 -0.70999998 115 179 108 0.000000 0.000000 0.000000 0.000000 -60.708740 0.000000 187.000000 0.567546 0.823148 -0.017865
-0.76999998 -21.26000023 -0.80000001 115 179 108 0.000000 0.000000 0.000000 0.000000 -60.708740 0.000000 187.000000 0.798695 0.569624 0.193947
-0.75999999 -21.22999954 -0.85000002 115 179 108 0.000000 0.000000 0.000000 0.000000 -60.708740 0.000000 187.000000 0.665988 0.745961 -0.001379
-0.75999999 -21.22999954 -0.85000002 115 179 108 0.000000 0.000000 0.000000 0.000000 -60.708740 0.000000 187.000000 0.665988 0.745961 -0.001379
-0.76999998 -21.30999947 -0.76999998 115 179 108 0.000000 0.000000 0.000000 0.000000 -60.708740 0.000000 187.000000 0.708588 0.684102 -0.172938
-0.76999998 -21.30999947 -0.76999998 115 179 108 0.000000 0.000000 0.000000 0.000000 -60.708740 0.000000 187.000000 0.708588 0.684102 -0.172938
-0.75999999 -21.29999924 -0.75999999 115 179 108 0.000000 0.000000 0.000000 0.000000 -60.708740 0.000000 187.000000 0.935828 0.319250 -0.149349
-0.76999998 -21.35000038 -0.69999999 115 179 108 0.000000 0.000000 0.000000 0.000000 -60.708740 0.000000 187.000000 0.997003 -0.028914 -0.071750
-0.77999997 -21.31999969 -0.75000000 115 179 108 0.000000 0.000000 0.000000 0.000000 -60.708740 0.000000 187.000000 0.936019 0.333617 -0.112106
-0.77999997 -21.31999969 -0.75000000 115 179 108 0.000000 0.000000 0.000000 0.000000 -60.708740 0.000000 187.000000 0.936019 0.333617 -0.112106
-0.76999998 -21.35000038 -0.75000000 115 179 108 0.000000 0.000000 0.000000 0.000000 -60.708740 0.000000 187.000000 0.973223 0.229343 -0.015448
-0.80000001 -21.35000038 -0.70999998 115 179 108 0.000000 0.000000 0.000000 0.000000 -60.708740 0.000000 187.000000 0.899850 0.315763 -0.300938
-0.75999999 -21.28000069 -0.77999997 115 179 108 0.000000 0.000000 0.000000 0.000000 -60.708740 0.000000 187.000000 0.679463 0.726627 0.101698
-0.75999999 -21.28000069 -0.79000002 115 179 108 0.000000 0.000000 0.000000 0.000000 -60.708740 0.000000 187.000000 0.777862 0.562406 0.280411
-0.76999998 -21.35000038 -0.81000000 115 179 108 0.000000 0.000000 0.000000 0.000000 -60.708740 0.000000 187.000000 0.981430 0.078466 -0.175040
-0.75999999 -21.32999992 -0.77999997 115 179 108 0.000000 0.000000 0.000000 0.000000 -60.708740 0.000000 187.000000 0.999928 -0.004955 -0.010901
-0.76999998 -21.35000038 -0.79000002 115 179 108 0.000000 0.000000 0.000000 0.000000 -60.708740 0.000000 187.000000 0.983664 0.102340 0.148091
-0.76999998 -21.31999969 -0.77999997 115 179 108 0.000000 0.000000 0.000000 0.000000 -60.708740 0.000000 187.000000 0.913864 0.406019 0.001289
-0.76999998 -21.35000038 -0.81999999 115 179 108 0.000000 0.000000 0.000000 0.000000 -60.708740 0.000000 187.000000 0.998417 0.055064 0.011428
-0.76999998 -21.34000015 -0.82999998 115 179 108 0.000000 0.000000 0.000000 0.000000 -60.708740 0.000000 187.000000 0.974400 -0.193879 0.113826
-0.80000001 -21.38999939 -0.75999999 115 179 108 0.000000 0.000000 0.000000 0.000000 -60.708740 0.000000 187.000000 0.989447 -0.117431 -0.084876
-0.80000001 -21.36000061 -0.75000000 115 179 108 0.000000 0.000000 0.000000 0.000000 -60.708740 0.000000 187.000000 0.992232 0.124166 0.007692
-0.80000001 -21.38999939 -0.75999999 115 179 108 0.000000 0.000000 0.000000 0.000000 -60.708740 0.000000 187.000000 0.989447 -0.117431 -0.084876
-0.81000000 -21.38999939 -0.75000000 115 179 108 0.000000 0.000000 0.000000 0.000000 -60.708740 0.000000 187.000000 0.968481 -0.238684 0.071230
-0.81999999 -21.39999962 -0.76999998 115 179 108 0.000000 0.000000 0.000000 0.000000 -60.708740 0.000000 187.000000 0.880921 -0.473112 0.011994
-0.81999999 -21.42000008 -0.75000000 115 179 108 0.000000 0.000000 0.000000 0.000000 -60.708740 0.000000 187.000000 0.832949 -0.548180 0.075464
-0.76999998 -21.36000061 -0.81000000 115 179 108 0.000000 0.000000 0.000000 0.000000 -60.708740 0.000000 187.000000 0.993652 -0.048062 -0.101712
-0.75999999 -21.36000061 -0.81999999 115 179 108 0.000000 0.000000 0.000000 0.000000 -60.708740 0.000000 187.000000 0.968906 -0.136952 0.206069
-0.76999998 -21.37000084 -0.82999998 115 179 108 0.000000 0.000000 0.000000 0.000000 -60.708740 0.000000 187.000000 0.980768 -0.066025 0.183669
-0.80000001 -21.37999916 -0.79000002 115 179 108 0.000000 0.000000 0.000000 0.000000 -60.708740 0.000000 187.000000 0.953654 -0.044327 -0.297621
-0.88999999 -21.45000076 -0.69999999 115 179 108 0.000000 0.000000 0.000000 0.000000 -60.708740 0.000000 187.000000 0.582673 0.811830 -0.037727
-0.88999999 -21.45000076 -0.69999999 115 179 108 0.000000 0.000000 0.000000 0.000000 -60.708740 0.000000 187.000000 0.582673 0.811830 -0.037727
-0.91000003 -21.45000076 -0.74000001 115 179 108 0.000000 0.000000 0.000000 0.000000 -60.708740 0.000000 187.000000 0.592299 0.772631 0.228525
-0.88000000 -21.45000076 -0.74000001 115 179 108 0.000000 0.000000 0.000000 0.000000 -60.708740 0.000000 187.000000 0.351978 0.899827 0.257725
-0.85000002 -21.44000053 -0.77999997 115 179 108 0.000000 0.000000 0.000000 0.000000 -60.708740 0.000000 187.000000 -0.629454 0.775042 -0.055666
-0.94000000 -21.42000008 -0.72000003 115 179 108 0.000000 0.000000 0.000000 0.000000 -60.708740 0.000000 187.000000 0.652239 0.749853 -0.110925
-0.95999998 -21.42000008 -0.72000003 115 179 108 0.000000 0.000000 0.000000 0.000000 -60.708740 0.000000 187.000000 0.510336 0.829104 -0.228349
-0.94000000 -21.43000031 -0.69999999 115 179 108 0.000000 0.000000 0.000000 0.000000 -60.708740 0.000000 187.000000 0.327469 0.926188 -0.186924
-0.94000000 -21.43000031 -0.69999999 115 179 108 0.000000 0.000000 0.000000 0.000000 -60.708740 0.000000 187.000000 0.327469 0.926188 -0.186924
-0.99000001 -21.37999916 -0.72000003 115 179 108 0.000000 0.000000 0.000000 0.000000 -60.708740 0.000000 187.000000 0.902867 0.337286 -0.266589
-1.00000000 -21.37000084 -0.69999999 115 179 108 0.000000 0.000000 0.000000 0.000000 -60.708740 0.000000 187.000000 0.985126 0.169770 0.026563
-1.00000000 -21.37999916 -0.72000003 115 179 108 0.000000 0.000000 0.000000 0.000000 -60.708740 0.000000 187.000000 0.911162 0.388893 -0.136183
-0.99000001 -21.39999962 -0.72000003 115 179 108 0.000000 0.000000 0.000000 0.000000 -60.708740 0.000000 187.000000 0.827993 0.372043 -0.419538
-0.99000001 -21.39999962 -0.72000003 115 179 108 0.000000 0.000000 0.000000 0.000000 -60.708740 0.000000 187.000000 0.827993 0.372043 -0.419538
-1.00000000 -21.40999985 -0.72000003 115 179 108 0.000000 0.000000 0.000000 0.000000 -60.708740 0.000000 187.000000 0.926442 0.260428 -0.271813
-0.93000001 -21.45000076 -0.69999999 115 179 108 0.000000 0.000000 0.000000 0.000000 -60.708740 0.000000 187.000000 0.361745 0.887100 -0.286694
-0.92000002 -21.45000076 -0.69999999 115 179 108 0.000000 0.000000 0.000000 0.000000 -60.708740 0.000000 187.000000 0.565406 0.816697 0.115419
-0.93000001 -21.45000076 -0.72000003 115 179 108 0.000000 0.000000 0.000000 0.000000 -60.708740 0.000000 187.000000 0.648855 0.690925 0.318764
-0.92000002 -21.45000076 -0.73000002 115 179 108 0.000000 0.000000 0.000000 0.000000 -60.708740 0.000000 187.000000 0.551015 0.769493 0.322898
-0.93000001 -21.45000076 -0.73000002 115 179 108 0.000000 0.000000 0.000000 0.000000 -60.708740 0.000000 187.000000 0.585580 0.807844 0.066964
-0.94999999 -21.44000053 -0.70999998 115 179 108 0.000000 0.000000 0.000000 0.000000 -60.708740 0.000000 187.000000 0.528717 0.832543 -0.165317
-0.92000002 -21.45000076 -0.73000002 115 179 108 0.000000 0.000000 0.000000 0.000000 -60.708740 0.000000 187.000000 0.551015 0.769493 0.322898
-0.92000002 -21.45000076 -0.74000001 115 179 108 0.000000 0.000000 0.000000 0.000000 -60.708740 0.000000 187.000000 0.551924 0.827162 -0.105749
-0.92000002 -21.44000053 -0.74000001 115 179 108 0.000000 0.000000 0.000000 0.000000 -60.708740 0.000000 187.000000 0.461764 0.855398 -0.234667
-0.93000001 -21.45000076 -0.75000000 115 179 108 0.000000 0.000000 0.000000 0.000000 -60.708740 0.000000 187.000000 0.291472 0.868312 -0.401346
-0.92000002 -21.45000076 -0.74000001 115 179 108 0.000000 0.000000 0.000000 0.000000 -60.708740 0.000000 187.000000 0.551924 0.827162 -0.105749
-1.01999998 -21.37999916 -0.69999999 115 179 108 0.000000 0.000000 0.000000 0.000000 -60.708740 0.000000 187.000000 0.997963 0.026401 -0.058082
-0.68000001 -21.52000046 0.88000000 115 179 108 0.000000 0.000000 0.000000 0.000000 -60.708740 0.000000 187.000000 0.988083 0.071161 0.136488
-0.69000000 -21.52000046 0.86000001 115 179 108 0.000000 0.000000 0.000000 0.000000 -60.708740 0.000000 187.000000 0.974518 0.200380 -0.100812
-0.66000003 -21.50000000 0.75999999 115 179 108 0.000000 0.000000 0.000000 0.000000 -60.708740 0.000000 187.000000 0.985692 -0.167899 -0.014848
-0.69000000 -21.45999908 0.80000001 115 179 108 0.000000 0.000000 0.000000 0.000000 -60.708740 0.000000 187.000000 0.925561 -0.378228 -0.016781
-0.69999999 -21.47999954 0.77999997 115 179 108 0.000000 0.000000 0.000000 0.000000 -60.708740 0.000000 187.000000 0.967488 -0.221689 -0.121737
-0.69000000 -21.46999931 0.80000001 115 179 108 0.000000 0.000000 0.000000 0.000000 -60.708740 0.000000 187.000000 0.975515 -0.215843 -0.042204
-0.70999998 -21.45000076 0.77999997 115 179 108 0.000000 0.000000 0.000000 0.000000 -60.708740 0.000000 187.000000 0.927537 -0.316686 -0.198456
-0.68000001 -21.47999954 0.74000001 115 179 108 0.000000 0.000000 0.000000 0.000000 -60.708740 0.000000 187.000000 0.969854 -0.196021 0.144773
-0.68000001 -21.46999931 0.75000000 115 179 108 0.000000 0.000000 0.000000 0.000000 -60.708740 0.000000 187.000000 0.989931 -0.133589 -0.046813
-0.69000000 -21.52000046 0.81000000 115 179 108 0.000000 0.000000 0.000000 0.000000 -60.708740 0.000000 187.000000 0.989830 0.012275 -0.141723
-0.67000002 -21.52000046 0.74000001 115 179 108 0.000000 0.000000 0.000000 0.000000 -60.708740 0.000000 187.000000 0.878599 0.382591 -0.285809
-0.67000002 -21.46999931 0.66000003 115 179 108 0.000000 0.000000 0.000000 0.000000 -60.708740 0.000000 187.000000 0.871205 -0.171890 -0.459843
-0.69999999 -21.52000046 0.70999998 115 179 108 0.000000 0.000000 0.000000 0.000000 -60.708740 0.000000 187.000000 0.956552 -0.290802 0.021037
-0.67000002 -21.50000000 0.72000003 115 179 108 0.000000 0.000000 0.000000 0.000000 -60.708740 0.000000 187.000000 0.998116 0.003116 0.061279
-0.69999999 -21.51000023 0.69999999 115 179 108 0.000000 0.000000 0.000000 0.000000 -60.708740 0.000000 187.000000 0.965116 0.207090 -0.160201
-0.69000000 -21.52000046 0.66000003 115 179 108 0.000000 0.000000 0.000000 0.000000 -60.708740 0.000000 187.000000 0.988460 -0.097322 -0.116082
-0.68000001 -21.53000069 0.88000000 115 179 108 0.000000 0.000000 0.000000 0.000000 -60.708740 0.000000 187.000000 0.994570 0.052229 0.090011
-0.68000001 -21.53000069 0.88999999 115 179 108 0.000000 0.000000 0.000000 0.000000 -60.708740 0.000000 187.000000 0.997237 0.065340 0.035348
-0.67000002 -21.53000069 0.86000001 115 179 108 0.000000 0.000000 0.000000 0.000000 -60.708740 0.000000 187.000000 0.972390 -0.230716 0.035030
-0.69000000 -21.55999947 0.77999997 115 179 108 0.000000 0.000000 0.000000 0.000000 -60.708740 0.000000 187.000000 0.995247 -0.074173 0.063102
-0.69000000 -21.53000069 0.81000000 115 179 108 0.000000 0.000000 0.000000 0.000000 -60.708740 0.000000 187.000000 0.969226 0.184063 -0.163468
-0.69000000 -21.54000092 0.81000000 115 179 108 0.000000 0.000000 0.000000 0.000000 -60.708740 0.000000 187.000000 0.993265 -0.045912 -0.106381
-0.69000000 -21.53000069 0.81000000 115 179 108 0.000000 0.000000 0.000000 0.000000 -60.708740 0.000000 187.000000 0.969226 0.184063 -0.163468
-0.69000000 -21.55999947 0.77999997 115 179 108 0.000000 0.000000 0.000000 0.000000 -60.708740 0.000000 187.000000 0.995247 -0.074173 0.063102
-0.69000000 -21.55999947 0.77999997 115 179 108 0.000000 0.000000 0.000000 0.000000 -60.708740 0.000000 187.000000 0.995247 -0.074173 0.063102
-0.69000000 -21.53000069 0.81000000 115 179 108 0.000000 0.000000 0.000000 0.000000 -60.708740 0.000000 187.000000 0.969226 0.184063 -0.163468
-0.69000000 -21.54000092 0.75000000 115 179 108 0.000000 0.000000 0.000000 0.000000 -60.708740 0.000000 187.000000 0.975467 0.092961 -0.199556
-0.72000003 -21.62000084 0.80000001 115 179 108 0.000000 0.000000 0.000000 0.000000 -60.708740 0.000000 187.000000 0.661109 0.750185 -0.012526
-0.75000000 -21.61000061 0.66000003 115 179 108 0.000000 0.000000 0.000000 0.000000 -60.708740 0.000000 187.000000 0.686203 0.686203 -0.241354
-0.76999998 -21.40999985 0.89999998 115 179 108 0.000000 0.000000 0.000000 0.000000 -60.708740 0.000000 187.000000 0.943578 -0.285395 -0.167960
-0.76999998 -21.40999985 0.89999998 115 179 108 0.000000 0.000000 0.000000 0.000000 -60.708740 0.000000 187.000000 0.943578 -0.285395 -0.167960
-0.80000001 -21.43000031 0.89999998 115 179 108 0.000000 0.000000 0.000000 0.000000 -60.708740 0.000000 187.000000 0.975346 -0.186078 0.118640
-0.80000001 -21.43000031 0.82999998 115 179 108 0.000000 0.000000 0.000000 0.000000 -60.708740 0.000000 187.000000 0.895559 -0.081414 -0.437430
-0.80000001 -21.43000031 0.82999998 115 179 108 0.000000 0.000000 0.000000 0.000000 -60.708740 0.000000 187.000000 0.895559 -0.081414 -0.437430
-0.79000002 -21.47999954 0.88999999 115 179 108 0.000000 0.000000 0.000000 0.000000 -60.708740 0.000000 187.000000 0.997014 0.015961 0.075548
-0.76999998 -21.45000076 0.82999998 115 179 108 0.000000 0.000000 0.000000 0.000000 -60.708740 0.000000 187.000000 0.933570 0.072832 -0.350916
-0.82999998 -21.46999931 0.88000000 115 179 108 0.000000 0.000000 0.000000 0.000000 -60.708740 0.000000 187.000000 0.902995 -0.414512 0.113049
-0.86000001 -21.46999931 0.85000002 115 179 108 0.000000 0.000000 0.000000 0.000000 -60.708740 0.000000 187.000000 0.951334 -0.308039 0.008660
-0.88999999 -21.47999954 0.82999998 115 179 108 0.000000 0.000000 0.000000 0.000000 -60.708740 0.000000 187.000000 0.958029 -0.219244 0.184696
-0.76999998 -21.40999985 0.66000003 115 179 108 0.000000 0.000000 0.000000 0.000000 -60.708740 0.000000 187.000000 -0.671779 0.740750 0.001379
-0.86000001 -21.42000008 0.67000002 115 179 108 0.000000 0.000000 0.000000 0.000000 -60.708740 0.000000 187.000000 0.911615 -0.378540 0.160206
-0.86000001 -21.42000008 0.69000000 115 179 108 0.000000 0.000000 0.000000 0.000000 -60.708740 0.000000 187.000000 0.913275 -0.398792 0.083025
-0.87000000 -21.51000023 0.74000001 115 179 108 0.000000 0.000000 0.000000 0.000000 -60.708740 0.000000 187.000000 0.948752 -0.312846 0.044692
-0.89999998 -21.48999977 0.80000001 115 179 108 0.000000 0.000000 0.000000 0.000000 -60.708740 0.000000 187.000000 0.975864 -0.206927 0.069792
-0.85000002 -21.45999908 0.73000002 115 179 108 0.000000 0.000000 0.000000 0.000000 -60.708740 0.000000 187.000000 0.930690 -0.362589 0.048433
-0.83999997 -21.45999908 0.69000000 115 179 108 0.000000 0.000000 0.000000 0.000000 -60.708740 0.000000 187.000000 0.918904 -0.372828 0.128896
-0.87000000 -21.52000046 0.73000002 115 179 108 0.000000 0.000000 0.000000 0.000000 -60.708740 0.000000 187.000000 0.996313 0.078969 -0.033535
-0.87000000 -21.52000046 0.68000001 115 179 108 0.000000 0.000000 0.000000 0.000000 -60.708740 0.000000 187.000000 0.964188 0.173999 0.200164
-0.86000001 -21.53000069 0.88000000 115 179 108 0.000000 0.000000 0.000000 0.000000 -60.708740 0.000000 187.000000 0.994974 -0.091454 0.040769
-0.86000001 -21.54999924 0.88999999 115 179 108 0.000000 0.000000 0.000000 0.000000 -60.708740 0.000000 187.000000 0.961370 0.243270 0.128790
-0.86000001 -21.53000069 0.81999999 115 179 108 0.000000 0.000000 0.000000 0.000000 -60.708740 0.000000 187.000000 0.986576 -0.148984 0.066867
-0.87000000 -21.57999992 0.83999997 115 179 108 0.000000 0.000000 0.000000 0.000000 -60.708740 0.000000 187.000000 0.985448 0.096753 0.139754
-0.88000000 -21.55999947 0.82999998 115 179 108 0.000000 0.000000 0.000000 0.000000 -60.708740 0.000000 187.000000 0.971080 0.068037 0.228853
-0.77999997 -21.62000084 0.73000002 115 179 108 0.000000 0.000000 0.000000 0.000000 -60.708740 0.000000 187.000000 0.804274 0.552073 -0.219907
-0.77999997 -21.63999939 0.68000001 115 179 108 0.000000 0.000000 0.000000 0.000000 -60.708740 0.000000 187.000000 0.736064 0.657145 0.162389
-0.88000000 -21.54999924 0.80000001 115 179 108 0.000000 0.000000 0.000000 0.000000 -60.708740 0.000000 187.000000 0.990745 -0.088810 0.102650
-0.88000000 -21.60000038 0.77999997 115 179 108 0.000000 0.000000 0.000000 0.000000 -60.708740 0.000000 187.000000 0.903691 0.420991 0.078164
-0.88999999 -21.57999992 0.75000000 115 179 108 0.000000 0.000000 0.000000 0.000000 -60.708740 0.000000 187.000000 0.986316 -0.059812 0.153635
-0.86000001 -21.55999947 0.72000003 115 179 108 0.000000 0.000000 0.000000 0.000000 -60.708740 0.000000 187.000000 0.981605 0.183977 0.051039
-0.86000001 -21.55999947 0.72000003 115 179 108 0.000000 0.000000 0.000000 0.000000 -60.708740 0.000000 187.000000 0.981605 0.183977 0.051039
-0.86000001 -21.53000069 0.69000000 115 179 108 0.000000 0.000000 0.000000 0.000000 -60.708740 0.000000 187.000000 0.961884 0.242743 0.125915
-0.87000000 -21.57999992 0.69999999 115 179 108 0.000000 0.000000 0.000000 0.000000 -60.708740 0.000000 187.000000 0.962926 0.250027 0.101293
-0.85000002 -21.59000015 0.66000003 115 179 108 0.000000 0.000000 0.000000 0.000000 -60.708740 0.000000 187.000000 0.744869 0.432452 -0.508090
-0.73000002 -21.35000038 0.38999999 115 179 108 0.000000 0.000000 0.000000 0.000000 -60.708740 0.000000 187.000000 0.735285 -0.593076 -0.328050
-0.73000002 -21.35000038 0.38999999 115 179 108 0.000000 0.000000 0.000000 0.000000 -60.708740 0.000000 187.000000 0.735285 -0.593076 -0.328050
-0.64999998 -21.48999977 0.52999997 115 179 108 0.000000 0.000000 0.000000 0.000000 -60.708740 0.000000 187.000000 0.980397 -0.003456 -0.197001
-0.69999999 -21.40999985 0.63999999 115 179 108 0.000000 0.000000 0.000000 0.000000 -60.708740 0.000000 187.000000 0.825310 -0.564397 0.017852
-0.72000003 -21.38999939 0.50999999 115 179 108 0.000000 0.000000 0.000000 0.000000 -60.708740 0.000000 187.000000 0.737941 -0.399376 -0.544006
-0.72000003 -21.38999939 0.50999999 115 179 108 0.000000 0.000000 0.000000 0.000000 -60.708740 0.000000 187.000000 0.737941 -0.399376 -0.544006
-0.67000002 -21.45999908 0.63999999 115 179 108 0.000000 0.000000 0.000000 0.000000 -60.708740 0.000000 187.000000 0.989149 -0.117950 -0.087587
-0.69000000 -21.47999954 0.57999998 115 179 108 0.000000 0.000000 0.000000 0.000000 -60.708740 0.000000 187.000000 0.997461 -0.018020 -0.068900
-0.67000002 -21.48999977 0.63999999 115 179 108 0.000000 0.000000 0.000000 0.000000 -60.708740 0.000000 187.000000 0.997963 -0.026401 -0.058082
-0.69000000 -21.50000000 0.61000001 115 179 108 0.000000 0.000000 0.000000 0.000000 -60.708740 0.000000 187.000000 0.990050 -0.125629 -0.063391
-0.69000000 -21.50000000 0.61000001 115 179 108 0.000000 0.000000 0.000000 0.000000 -60.708740 0.000000 187.000000 0.990050 -0.125629 -0.063391
-0.69000000 -21.51000023 0.58999997 115 179 108 0.000000 0.000000 0.000000 0.000000 -60.708740 0.000000 187.000000 0.977395 -0.128244 -0.168087
-0.69000000 -21.48999977 0.60000002 115 179 108 0.000000 0.000000 0.000000 0.000000 -60.708740 0.000000 187.000000 0.929515 0.227781 -0.290031
-0.68000001 -21.46999931 0.54000002 115 179 108 0.000000 0.000000 0.000000 0.000000 -60.708740 0.000000 187.000000 0.875568 -0.033937 -0.481902
-0.67000002 -21.44000053 0.49000001 115 179 108 0.000000 0.000000 0.000000 0.000000 -60.708740 0.000000 187.000000 0.850604 -0.498528 -0.167162
-0.67000002 -21.47999954 0.50000000 115 179 108 0.000000 0.000000 0.000000 0.000000 -60.708740 0.000000 187.000000 0.994189 -0.072691 -0.079401
-0.67000002 -21.44000053 0.50000000 115 179 108 0.000000 0.000000 0.000000 0.000000 -60.708740 0.000000 187.000000 -0.767374 0.551802 0.326576
-0.67000002 -21.48999977 0.55000001 115 179 108 0.000000 0.000000 0.000000 0.000000 -60.708740 0.000000 187.000000 0.920802 0.200669 -0.334449
-0.69000000 -21.48999977 0.51999998 115 179 108 0.000000 0.000000 0.000000 0.000000 -60.708740 0.000000 187.000000 0.942640 -0.179747 -0.281283
-0.64999998 -21.37000084 0.38000000 115 179 108 0.000000 0.000000 0.000000 0.000000 -60.708740 0.000000 187.000000 -0.325122 0.934211 -0.146785
-0.68000001 -21.44000053 0.47000000 115 179 108 0.000000 0.000000 0.000000 0.000000 -60.708740 0.000000 187.000000 0.912495 -0.408325 0.024946
-0.67000002 -21.45000076 0.44999999 115 179 108 0.000000 0.000000 0.000000 0.000000 -60.708740 0.000000 187.000000 0.892505 -0.450880 -0.011900
-0.69999999 -21.47999954 0.47000000 115 179 108 0.000000 0.000000 0.000000 0.000000 -60.708740 0.000000 187.000000 0.980160 -0.197434 -0.017524
-0.68000001 -21.45000076 0.41999999 115 179 108 0.000000 0.000000 0.000000 0.000000 -60.708740 0.000000 187.000000 0.844502 -0.404299 -0.351225
-0.68000001 -21.45000076 0.41999999 115 179 108 0.000000 0.000000 0.000000 0.000000 -60.708740 0.000000 187.000000 0.844502 -0.404299 -0.351225
-0.69000000 -21.48999977 0.47000000 115 179 108 0.000000 0.000000 0.000000 0.000000 -60.708740 0.000000 187.000000 0.976198 -0.216803 -0.005860
-0.69999999 -21.48999977 0.46000001 115 179 108 0.000000 0.000000 0.000000 0.000000 -60.708740 0.000000 187.000000 0.950390 -0.298545 -0.087347
-0.70999998 -21.35000038 0.20000000 115 179 108 0.000000 0.000000 0.000000 0.000000 -60.708740 0.000000 187.000000 -0.432431 0.896842 0.093160
-0.70999998 -21.35000038 0.07000000 115 179 108 0.000000 0.000000 0.000000 0.000000 -60.708740 0.000000 187.000000 -0.325252 0.934584 -0.144099
-0.70999998 -21.32999992 0.00000000 115 179 108 0.000000 0.000000 0.000000 0.000000 -60.708740 0.000000 187.000000 0.109578 0.962998 0.246228
-0.69000000 -21.34000015 0.02000000 115 179 108 0.000000 0.000000 0.000000 0.000000 -60.708740 0.000000 187.000000 0.062263 0.975456 0.211206
-0.74000001 -21.30999947 0.02000000 115 179 108 0.000000 0.000000 0.000000 0.000000 -60.708740 0.000000 187.000000 -0.272978 0.961031 0.043627
-0.74000001 -21.31999969 0.02000000 115 179 108 0.000000 0.000000 0.000000 0.000000 -60.708740 0.000000 187.000000 -0.528771 0.819979 0.219172
-0.66000003 -21.44000053 0.30000001 115 179 108 0.000000 0.000000 0.000000 0.000000 -60.708740 0.000000 187.000000 -0.140980 0.966163 -0.215996
-0.66000003 -21.44000053 0.30000001 115 179 108 0.000000 0.000000 0.000000 0.000000 -60.708740 0.000000 187.000000 -0.140980 0.966163 -0.215996
-0.64999998 -21.47999954 0.20999999 115 179 108 0.000000 0.000000 0.000000 0.000000 -60.708740 0.000000 187.000000 0.711827 -0.576398 -0.401332
-0.69999999 -21.37999916 0.31000000 115 179 108 0.000000 0.000000 0.000000 0.000000 -60.708740 0.000000 187.000000 0.558370 -0.675746 -0.481238
-0.73000002 -21.36000061 0.30000001 115 179 108 0.000000 0.000000 0.000000 0.000000 -60.708740 0.000000 187.000000 -0.410769 0.887792 -0.207593
-0.74000001 -21.36000061 0.30000001 115 179 108 0.000000 0.000000 0.000000 0.000000 -60.708740 0.000000 187.000000 -0.605879 0.790969 -0.085315
-0.69000000 -21.37999916 0.20000000 115 179 108 0.000000 0.000000 0.000000 0.000000 -60.708740 0.000000 187.000000 -0.088303 0.944977 0.314992
-0.67000002 -21.38999939 0.15000001 115 179 108 0.000000 0.000000 0.000000 0.000000 -60.708740 0.000000 187.000000 0.174780 0.939959 0.293135
-0.67000002 -21.38999939 0.15000001 115 179 108 0.000000 0.000000 0.000000 0.000000 -60.708740 0.000000 187.000000 0.174780 0.939959 0.293135
-0.67000002 -21.40999985 0.23000000 115 179 108 0.000000 0.000000 0.000000 0.000000 -60.708740 0.000000 187.000000 0.138365 0.965969 -0.218539
-0.69999999 -21.40999985 0.16000000 115 179 108 0.000000 0.000000 0.000000 0.000000 -60.708740 0.000000 187.000000 -0.322216 0.914630 -0.244190
-0.68000001 -21.45000076 0.31000000 115 179 108 0.000000 0.000000 0.000000 0.000000 -60.708740 0.000000 187.000000 0.922010 -0.344874 -0.175956
-0.68000001 -21.46999931 0.31000000 115 179 108 0.000000 0.000000 0.000000 0.000000 -60.708740 0.000000 187.000000 0.814029 -0.150305 -0.561040
-0.69000000 -21.46999931 0.18000001 115 179 108 0.000000 0.000000 0.000000 0.000000 -60.708740 0.000000 187.000000 0.122836 0.988541 0.087740
-0.68000001 -21.52000046 0.23000000 115 179 108 0.000000 0.000000 0.000000 0.000000 -60.708740 0.000000 187.000000 0.007604 0.993934 -0.109713
-0.72000003 -21.51000023 0.20000000 115 179 108 0.000000 0.000000 0.000000 0.000000 -60.708740 0.000000 187.000000 0.632532 0.697574 0.336592
-0.66000003 -21.45000076 0.10000000 115 179 108 0.000000 0.000000 0.000000 0.000000 -60.708740 0.000000 187.000000 0.950067 -0.301050 -0.082105
-0.69000000 -21.38999939 0.14000000 115 179 108 0.000000 0.000000 0.000000 0.000000 -60.708740 0.000000 187.000000 0.029613 0.994784 -0.097614
-0.69000000 -21.40999985 0.13000000 115 179 108 0.000000 0.000000 0.000000 0.000000 -60.708740 0.000000 187.000000 -0.256897 0.962407 -0.088189
-0.73000002 -21.37999916 0.12000000 115 179 108 0.000000 0.000000 0.000000 0.000000 -60.708740 0.000000 187.000000 -0.223678 0.969273 -0.102361
-0.69000000 -21.37999916 0.03000000 115 179 108 0.000000 0.000000 0.000000 0.000000 -60.708740 0.000000 187.000000 0.403520 0.840013 0.362697
-0.73000002 -21.36000061 0.02000000 115 179 108 0.000000 0.000000 0.000000 0.000000 -60.708740 0.000000 187.000000 -0.226135 0.968970 -0.099803
-0.73000002 -21.36000061 0.02000000 115 179 108 0.000000 0.000000 0.000000 0.000000 -60.708740 0.000000 187.000000 -0.226135 0.968970 -0.099803
-0.67000002 -21.46999931 0.12000000 115 179 108 0.000000 0.000000 0.000000 0.000000 -60.708740 0.000000 187.000000 -0.551903 0.802346 0.227254
-0.68000001 -21.45999908 0.09000000 115 179 108 0.000000 0.000000 0.000000 0.000000 -60.708740 0.000000 187.000000 0.791623 -0.561446 -0.241064
-0.68000001 -21.45999908 0.10000000 115 179 108 0.000000 0.000000 0.000000 0.000000 -60.708740 0.000000 187.000000 0.760871 -0.646239 -0.058749
-0.68000001 -21.45999908 0.09000000 115 179 108 0.000000 0.000000 0.000000 0.000000 -60.708740 0.000000 187.000000 0.791623 -0.561446 -0.241064
-0.67000002 -21.50000000 0.13000000 115 179 108 0.000000 0.000000 0.000000 0.000000 -60.708740 0.000000 187.000000 -0.533926 0.844574 0.040218
-0.70999998 -21.51000023 0.07000000 115 179 108 0.000000 0.000000 0.000000 0.000000 -60.708740 0.000000 187.000000 -0.244324 0.960310 0.134574
-0.69999999 -21.51000023 0.07000000 115 179 108 0.000000 0.000000 0.000000 0.000000 -60.708740 0.000000 187.000000 -0.130181 0.989608 0.061058
-0.67000002 -21.48999977 0.08000000 115 179 108 0.000000 0.000000 0.000000 0.000000 -60.708740 0.000000 187.000000 -0.498528 0.850604 0.167162
-0.70999998 -21.51000023 0.07000000 115 179 108 0.000000 0.000000 0.000000 0.000000 -60.708740 0.000000 187.000000 -0.244324 0.960310 0.134574
-0.72000003 -21.51000023 0.08000000 115 179 108 0.000000 0.000000 0.000000 0.000000 -60.708740 0.000000 187.000000 0.098085 0.982060 0.161053
-0.70999998 -21.45999908 0.00000000 115 179 108 0.000000 0.000000 0.000000 0.000000 -60.708740 0.000000 187.000000 -0.649280 0.732958 0.202997
-0.70999998 -21.45000076 0.00000000 115 179 108 0.000000 0.000000 0.000000 0.000000 -60.708740 0.000000 187.000000 0.682542 -0.646704 -0.340456
-0.69999999 -21.51000023 0.04000000 115 179 108 0.000000 0.000000 0.000000 0.000000 -60.708740 0.000000 187.000000 -0.268586 0.953942 0.133631
-0.67000002 -21.48999977 0.01000000 115 179 108 0.000000 0.000000 0.000000 0.000000 -60.708740 0.000000 187.000000 0.514619 -0.767870 -0.381500
-0.69999999 -21.48999977 0.00000000 115 179 108 0.000000 0.000000 0.000000 0.000000 -60.708740 0.000000 187.000000 -0.306454 0.950135 -0.057701
-0.72000003 -21.51000023 0.06000000 115 179 108 0.000000 0.000000 0.000000 0.000000 -60.708740 0.000000 187.000000 0.094511 0.984589 0.147150
-0.74000001 -21.52000046 0.03000000 115 179 108 0.000000 0.000000 0.000000 0.000000 -60.708740 0.000000 187.000000 0.384451 0.922941 -0.019417
-0.72000003 -21.50000000 -0.02000000 115 179 108 0.000000 0.000000 0.000000 0.000000 -60.708740 0.000000 187.000000 -0.246269 0.948340 0.200009
-0.74000001 -21.50000000 -0.02000000 115 179 108 0.000000 0.000000 0.000000 0.000000 -60.708740 0.000000 187.000000 -0.053142 0.942302 0.330519
-0.68000001 -21.54000092 0.62000000 115 179 108 0.000000 0.000000 0.000000 0.000000 -60.708740 0.000000 187.000000 0.883319 0.142193 -0.446687
-0.68000001 -21.54999924 0.60000002 115 179 108 0.000000 0.000000 0.000000 0.000000 -60.708740 0.000000 187.000000 0.754732 0.553470 -0.352208
-0.73000002 -21.57999992 0.56999999 115 179 108 0.000000 0.000000 0.000000 0.000000 -60.708740 0.000000 187.000000 0.703222 0.703222 -0.104673
-0.72000003 -21.55999947 0.49000001 115 179 108 0.000000 0.000000 0.000000 0.000000 -60.708740 0.000000 187.000000 0.697143 0.716702 0.018162
-0.69000000 -21.57999992 0.44999999 115 179 108 0.000000 0.000000 0.000000 0.000000 -60.708740 0.000000 187.000000 0.722189 0.691458 0.018159
-0.70999998 -21.54999924 0.25000000 115 179 108 0.000000 0.000000 0.000000 0.000000 -60.708740 0.000000 187.000000 0.417561 0.883813 -0.210994
-0.69999999 -21.54000092 0.20999999 115 179 108 0.000000 0.000000 0.000000 0.000000 -60.708740 0.000000 187.000000 0.590603 0.789988 0.164644
-0.70999998 -21.54000092 0.17000000 115 179 108 0.000000 0.000000 0.000000 0.000000 -60.708740 0.000000 187.000000 0.619971 0.782446 0.058434
-0.74000001 -21.54999924 0.12000000 115 179 108 0.000000 0.000000 0.000000 0.000000 -60.708740 0.000000 187.000000 0.225945 0.933250 -0.279273
-0.72000003 -21.53000069 0.00000000 115 179 108 0.000000 0.000000 0.000000 0.000000 -60.708740 0.000000 187.000000 -0.088902 0.993672 -0.068646
-0.73000002 -21.53000069 0.03000000 115 179 108 0.000000 0.000000 0.000000 0.000000 -60.708740 0.000000 187.000000 0.030596 0.965600 -0.258227
-0.70999998 -21.53000069 0.06000000 115 179 108 0.000000 0.000000 0.000000 0.000000 -60.708740 0.000000 187.000000 0.017949 0.997762 -0.064406
-0.77999997 -21.35000038 0.38999999 115 179 108 0.000000 0.000000 0.000000 0.000000 -60.708740 0.000000 187.000000 0.809391 -0.563120 0.166683
-0.86000001 -21.46999931 0.60000002 115 179 108 0.000000 0.000000 0.000000 0.000000 -60.708740 0.000000 187.000000 0.977116 -0.189000 0.097588
-0.87000000 -21.48999977 0.63999999 115 179 108 0.000000 0.000000 0.000000 0.000000 -60.708740 0.000000 187.000000 0.987464 -0.081210 0.135350
-0.87000000 -21.48999977 0.63999999 115 179 108 0.000000 0.000000 0.000000 0.000000 -60.708740 0.000000 187.000000 0.987464 -0.081210 0.135350
