//X Y Z R G B PointSourceId ScanDirectionFlag NumberOfReturns ReturnNumber GpsTime Intensity Classification Nx Ny Nz
-13.22999954 -0.66000003 0.23999999 42 216 126 97.000000 1.000000 4.000000 1.000000 -60.708740 114.000000 206.000000 0.797867 0.312485 0.515521
-13.22999954 -0.68000001 0.30000001 42 216 126 97.000000 1.000000 4.000000 1.000000 -60.708740 114.000000 206.000000 0.975099 0.054644 0.214935
-13.22999954 -0.69999999 0.28999999 42 216 126 97.000000 1.000000 4.000000 1.000000 -60.708740 114.000000 206.000000 0.897696 0.113792 0.425668
-13.23999977 -0.67000002 0.28000000 42 216 126 97.000000 1.000000 4.000000 1.000000 -60.708740 114.000000 206.000000 0.902494 0.036100 0.429186
-13.21000004 -0.63000000 0.20999999 42 216 126 97.000000 1.000000 4.000000 1.000000 -60.708740 114.000000 206.000000 0.885442 0.373054 0.277169
-13.19999981 -0.64999998 0.23000000 42 216 126 97.000000 1.000000 4.000000 1.000000 -60.708740 114.000000 206.000000 0.747416 0.394151 0.534803
-13.21000004 -0.66000003 0.20000000 42 216 126 97.000000 1.000000 4.000000 1.000000 -60.708740 114.000000 206.000000 0.907365 0.151463 0.392106
-13.18000031 -0.63000000 0.16000000 42 216 126 97.000000 1.000000 4.000000 1.000000 -60.708740 114.000000 206.000000 0.940325 0.335178 0.058689
-13.18999958 -0.63000000 0.16000000 42 216 126 97.000000 1.000000 4.000000 1.000000 -60.708740 114.000000 206.000000 0.944930 0.325969 0.029172
-13.18999958 -0.63000000 0.18000001 42 216 126 97.000000 1.000000 4.000000 1.000000 -60.708740 114.000000 206.000000 0.993691 0.107456 0.032126
-13.18000031 -0.63999999 0.15000001 42 216 126 97.000000 1.000000 4.000000 1.000000 -60.708740 114.000000 206.000000 0.904316 -0.151902 0.398921
-13.18000031 -0.63999999 0.18000001 42 216 126 97.000000 1.000000 4.000000 1.000000 -60.708740 114.000000 206.000000 0.835866 0.469884 0.283791
-13.19999981 -0.69999999 0.23000000 42 216 126 97.000000 1.000000 4.000000 1.000000 -60.708740 114.000000 206.000000 0.992395 0.122260 -0.014319
-13.19999981 -0.69999999 0.22000000 42 216 126 97.000000 1.000000 4.000000 1.000000 -60.708740 114.000000 206.000000 0.969064 0.005960 0.246736
-13.18999958 -0.67000002 0.20999999 42 216 126 97.000000 1.000000 4.000000 1.000000 -60.708740 114.000000 206.000000 0.888049 0.169497 0.427364
-13.18000031 -0.69000000 0.23000000 42 216 126 97.000000 1.000000 4.000000 1.000000 -60.708740 114.000000 206.000000 0.746964 0.278718 0.603623
-13.19999981 -0.69999999 0.23000000 42 216 126 97.000000 1.000000 4.000000 1.000000 -60.708740 114.000000 206.000000 0.992395 0.122260 -0.014319
-13.18999958 -0.67000002 0.17000000 42 216 126 97.000000 1.000000 4.000000 1.000000 -60.708740 114.000000 206.000000 0.956221 -0.003673 0.292621
-13.22000027 -0.66000003 0.20999999 42 216 126 97.000000 1.000000 4.000000 1.000000 -60.708740 114.000000 206.000000 0.904526 0.298567 0.304450
-13.31000042 -0.67000002 0.28000000 42 216 126 97.000000 1.000000 4.000000 1.000000 -60.708740 114.000000 206.000000 0.860339 0.176214 0.478295
-13.34000015 -0.67000002 0.31000000 42 216 126 97.000000 1.000000 4.000000 1.000000 -60.708740 114.000000 206.000000 0.889219 0.222673 0.399632
-13.28999996 -0.63999999 0.17000000 42 216 126 97.000000 1.000000 4.000000 1.000000 -60.708740 114.000000 206.000000 0.931607 0.360916 -0.042997
-13.34000015 -0.64999998 0.16000000 42 216 126 97.000000 1.000000 4.000000 1.000000 -60.708740 114.000000 206.000000 0.779795 0.276803 0.561516
-13.34000015 -0.67000002 0.17000000 42 216 126 97.000000 1.000000 4.000000 1.000000 -60.708740 114.000000 206.000000 0.961730 0.150475 0.228983
-13.18000031 -0.60000002 0.13000000 42 216 126 97.000000 1.000000 4.000000 1.000000 -60.708740 114.000000 206.000000 0.737872 0.574986 0.353462
-13.21000004 -0.62000000 0.03000000 42 216 126 97.000000 1.000000 4.000000 1.000000 -60.708740 114.000000 206.000000 0.972342 0.228141 0.050020
-13.18000031 -0.69999999 0.13000000 42 216 126 97.000000 1.000000 4.000000 1.000000 -60.708740 114.000000 206.000000 0.940178 0.335126 0.061288
-13.28999996 -0.69000000 0.11000000 42 216 126 97.000000 1.000000 4.000000 1.000000 -60.708740 114.000000 206.000000 0.864499 0.080124 0.496208
-13.34000015 -0.67000002 0.10000000 42 216 126 97.000000 1.000000 4.000000 1.000000 -60.708740 114.000000 206.000000 0.894373 0.249833 0.371054
-13.30000019 -0.64999998 0.01000000 42 216 126 97.000000 1.000000 4.000000 1.000000 -60.708740 114.000000 206.000000 0.939466 0.089030 0.330873
-13.31999969 -0.69000000 0.03000000 42 216 126 97.000000 1.000000 4.000000 1.000000 -60.708740 114.000000 206.000000 0.979475 0.056485 0.193491
-13.31999969 -0.68000001 0.03000000 42 216 126 97.000000 1.000000 4.000000 1.000000 -60.708740 114.000000 206.000000 0.984462 -0.175594 -0.001133
-13.31000042 -0.69999999 -0.02000000 42 216 126 97.000000 1.000000 4.000000 1.000000 -60.708740 114.000000 206.000000 0.999995 0.002938 -0.000979
-13.31000042 -0.68000001 0.00000000 42 216 126 97.000000 1.000000 4.000000 1.000000 -60.708740 114.000000 206.000000 0.913231 -0.196409 0.356977
-13.31999969 -0.69000000 0.02000000 42 216 126 97.000000 1.000000 4.000000 1.000000 -60.708740 114.000000 206.000000 0.925152 0.148859 0.349193
-13.36999989 -0.67000002 -0.01000000 42 216 126 97.000000 1.000000 4.000000 1.000000 -60.708740 114.000000 206.000000 0.823042 -0.084746 0.561622
-13.21000004 -0.72000003 0.34000000 42 216 126 97.000000 1.000000 4.000000 1.000000 -60.708740 114.000000 206.000000 0.870479 0.082970 0.485162
-13.19999981 -0.70999998 0.33000001 42 216 126 97.000000 1.000000 4.000000 1.000000 -60.708740 114.000000 206.000000 0.849818 0.255711 0.460892
-13.21000004 -0.70999998 0.33000001 42 216 126 97.000000 1.000000 4.000000 1.000000 -60.708740 114.000000 206.000000 0.902610 0.429371 0.030574
-13.25000000 -0.74000001 0.38999999 42 216 126 97.000000 1.000000 4.000000 1.000000 -60.708740 114.000000 206.000000 0.981649 0.166237 0.093433
-13.25000000 -0.72000003 0.38000000 42 216 126 97.000000 1.000000 4.000000 1.000000 -60.708740 114.000000 206.000000 0.971779 0.047672 0.231027
-13.23999977 -0.73000002 0.38000000 42 216 126 97.000000 1.000000 4.000000 1.000000 -60.708740 114.000000 206.000000 0.954585 0.059901 0.291856
-13.22999954 -0.75000000 0.34000000 42 216 126 97.000000 1.000000 4.000000 1.000000 -60.708740 114.000000 206.000000 0.984584 0.162320 0.065165
-13.23999977 -0.79000002 0.31999999 42 216 126 97.000000 1.000000 4.000000 1.000000 -60.708740 114.000000 206.000000 0.974834 -0.049774 0.217304
-13.22000027 -0.80000001 0.37000000 42 216 126 97.000000 1.000000 4.000000 1.000000 -60.708740 114.000000 206.000000 0.964799 -0.245979 0.093039
-13.22999954 -0.80000001 0.34999999 42 216 126 97.000000 1.000000 4.000000 1.000000 -60.708740 114.000000 206.000000 0.945435 0.268760 0.184176
-13.42000008 -1.00000000 0.50000000 42 216 126 97.000000 1.000000 4.000000 1.000000 -60.708740 114.000000 206.000000 -0.661674 0.736694 -0.139537
-13.40999985 -0.97000003 0.52999997 42 216 126 97.000000 1.000000 4.000000 1.000000 -60.708740 114.000000 206.000000 -0.829342 0.465623 -0.308848
-13.43999958 -1.00000000 0.56999999 42 216 126 97.000000 1.000000 4.000000 1.000000 -60.708740 114.000000 206.000000 0.858887 -0.366768 0.357483
-13.43000031 -1.00000000 0.55000001 42 216 126 97.000000 1.000000 4.000000 1.000000 -60.708740 114.000000 206.000000 0.856545 -0.456319 0.241046
-13.43999958 -1.00000000 0.54000002 42 216 126 97.000000 1.000000 4.000000 1.000000 -60.708740 114.000000 206.000000 0.792090 -0.596659 -0.128807
-13.43000031 -1.02999997 0.54000002 42 216 126 97.000000 1.000000 4.000000 1.000000 -60.708740 114.000000 206.000000 0.865440 -0.471658 -0.168974
-13.43000031 -1.03999996 0.52999997 42 216 126 97.000000 1.000000 4.000000 1.000000 -60.708740 114.000000 206.000000 0.793430 -0.601260 -0.094629
-13.43000031 -1.03999996 0.52999997 42 216 126 97.000000 1.000000 4.000000 1.000000 -60.708740 114.000000 206.000000 0.793430 -0.601260 -0.094629
-13.43000031 -1.02999997 0.54000002 42 216 126 97.000000 1.000000 4.000000 1.000000 -60.708740 114.000000 206.000000 0.865440 -0.471658 -0.168974
-13.43000031 -1.03999996 0.51999998 42 216 126 97.000000 1.000000 4.000000 1.000000 -60.708740 114.000000 206.000000 0.958313 -0.200701 -0.203359
-13.43000031 -1.00999999 0.50999999 42 216 126 97.000000 1.000000 4.000000 1.000000 -60.708740 114.000000 206.000000 0.795894 -0.603636 -0.046651
-13.43000031 -1.01999998 0.50000000 42 216 126 97.000000 1.000000 4.000000 1.000000 -60.708740 114.000000 206.000000 0.908688 -0.239894 0.341667
-13.39999962 -0.94000000 0.41000000 42 216 126 97.000000 1.000000 4.000000 1.000000 -60.708740 114.000000 206.000000 0.845131 -0.421787 0.328403
-13.40999985 -0.94000000 0.43000001 42 216 126 97.000000 1.000000 4.000000 1.000000 -60.708740 114.000000 206.000000 0.921549 -0.342935 0.182052
-13.39000034 -0.95999998 0.38000000 42 216 126 97.000000 1.000000 4.000000 1.000000 -60.708740 114.000000 206.000000 -0.697513 0.709311 0.101751
-13.42000008 -1.01999998 0.46000001 42 216 126 97.000000 1.000000 4.000000 1.000000 -60.708740 114.000000 206.000000 -0.653253 0.756766 -0.023780
-13.42000008 -1.00999999 0.47000000 42 216 126 97.000000 1.000000 4.000000 1.000000 -60.708740 114.000000 206.000000 0.698068 -0.712521 -0.070818
-13.42000008 -1.03999996 0.43000001 42 216 126 97.000000 1.000000 4.000000 1.000000 -60.708740 114.000000 206.000000 -0.654859 0.754296 -0.046877
-13.40999985 -0.98000002 0.37000000 42 216 126 97.000000 1.000000 4.000000 1.000000 -60.708740 114.000000 206.000000 -0.548279 0.831724 0.087324
-13.40999985 -1.00000000 0.38999999 42 216 126 97.000000 1.000000 4.000000 1.000000 -60.708740 114.000000 206.000000 0.786002 -0.468360 -0.403535
-13.39999962 -1.00000000 0.37000000 42 216 126 97.000000 1.000000 4.000000 1.000000 -60.708740 114.000000 206.000000 0.983438 -0.178489 0.031498
-13.42000008 -0.98000002 0.38000000 42 216 126 97.000000 1.000000 4.000000 1.000000 -60.708740 114.000000 206.000000 -0.630194 0.773746 0.064598
-13.40999985 -1.00000000 0.36000001 42 216 126 97.000000 1.000000 4.000000 1.000000 -60.708740 114.000000 206.000000 0.959890 -0.264131 -0.094056
-13.40999985 -1.00000000 0.34999999 42 216 126 97.000000 1.000000 4.000000 1.000000 -60.708740 114.000000 206.000000 0.955865 -0.275153 0.103020
-13.40999985 -0.97000003 0.34000000 42 216 126 97.000000 1.000000 4.000000 1.000000 -60.708740 114.000000 206.000000 0.953133 -0.246013 -0.176108
-13.42000008 -1.00000000 0.33000001 42 216 126 97.000000 1.000000 4.000000 1.000000 -60.708740 114.000000 206.000000 0.780176 -0.625522 0.006904
-13.42000008 -0.97000003 0.31999999 42 216 126 97.000000 1.000000 4.000000 1.000000 -60.708740 114.000000 206.000000 -0.769934 0.565893 0.294902
-13.40999985 -1.00999999 0.37000000 42 216 126 97.000000 1.000000 4.000000 1.000000 -60.708740 114.000000 206.000000 0.791072 -0.611597 0.012425
-13.44999981 -0.95999998 0.34999999 42 216 126 97.000000 1.000000 4.000000 1.000000 -60.708740 114.000000 206.000000 0.859704 -0.450321 -0.241081
-13.46000004 -1.02999997 0.47999999 42 216 126 97.000000 1.000000 4.000000 1.000000 -60.708740 114.000000 206.000000 0.650629 -0.698823 -0.297201
-13.43999958 -1.00999999 0.43000001 42 216 126 97.000000 1.000000 4.000000 1.000000 -60.708740 114.000000 206.000000 -0.545956 0.836387 0.048871
-13.43999958 -1.01999998 0.41999999 42 216 126 97.000000 1.000000 4.000000 1.000000 -60.708740 114.000000 206.000000 0.747800 -0.662983 0.035340
-13.43000031 -0.99000001 0.38999999 42 216 126 97.000000 1.000000 4.000000 1.000000 -60.708740 114.000000 206.000000 0.842074 -0.516492 0.155392
-13.43999958 -1.01999998 0.38000000 42 216 126 97.000000 1.000000 4.000000 1.000000 -60.708740 114.000000 206.000000 0.864687 -0.501327 -0.031418
-13.43000031 -1.00999999 0.38000000 42 216 126 97.000000 1.000000 4.000000 1.000000 -60.708740 114.000000 206.000000 0.717161 -0.687465 -0.114330
-13.43999958 -1.00999999 0.37000000 42 216 126 97.000000 1.000000 4.000000 1.000000 -60.708740 114.000000 206.000000 -0.607401 0.777049 0.165104
-13.46000004 -1.02999997 0.36000001 42 216 126 97.000000 1.000000 4.000000 1.000000 -60.708740 114.000000 206.000000 -0.716488 0.696704 -0.035330
-13.44999981 -1.02999997 0.37000000 42 216 126 97.000000 1.000000 4.000000 1.000000 -60.708740 114.000000 206.000000 -0.507840 0.835283 0.210716
-13.43999958 -1.00999999 0.33000001 42 216 126 97.000000 1.000000 4.000000 1.000000 -60.708740 114.000000 206.000000 -0.380296 0.920070 -0.094052
-13.46000004 -1.02999997 0.33000001 42 216 126 97.000000 1.000000 4.000000 1.000000 -60.708740 114.000000 206.000000 0.859616 -0.509147 -0.042774
-13.21000004 -0.74000001 0.30000001 42 216 126 97.000000 1.000000 4.000000 1.000000 -60.708740 114.000000 206.000000 0.890412 0.219292 0.398846
-13.21000004 -0.73000002 0.28000000 42 216 126 97.000000 1.000000 4.000000 1.000000 -60.708740 114.000000 206.000000 0.938422 0.345470 0.003769
-13.18000031 -0.70999998 0.30000001 42 216 126 97.000000 1.000000 4.000000 1.000000 -60.708740 114.000000 206.000000 0.964030 -0.168738 0.205363
-13.21000004 -0.75000000 0.30000001 42 216 126 97.000000 1.000000 4.000000 1.000000 -60.708740 114.000000 206.000000 0.996315 -0.085761 -0.001059
-13.21000004 -0.70999998 0.25000000 42 216 126 97.000000 1.000000 4.000000 1.000000 -60.708740 114.000000 206.000000 0.917470 -0.168226 0.360485
-13.21000004 -0.72000003 0.25000000 42 216 126 97.000000 1.000000 4.000000 1.000000 -60.708740 114.000000 206.000000 0.906100 0.250312 0.341068
-13.18000031 -0.77999997 0.27000001 42 216 126 97.000000 1.000000 4.000000 1.000000 -60.708740 114.000000 206.000000 0.939319 -0.217833 0.265007
-13.22999954 -0.70999998 0.31000000 42 216 126 97.000000 1.000000 4.000000 1.000000 -60.708740 114.000000 206.000000 0.921803 -0.217984 0.320565
-13.22000027 -0.77999997 0.28999999 42 216 126 97.000000 1.000000 4.000000 1.000000 -60.708740 114.000000 206.000000 0.819114 -0.118691 0.561217
-13.18999958 -0.75000000 0.23000000 42 216 126 97.000000 1.000000 4.000000 1.000000 -60.708740 114.000000 206.000000 0.987046 -0.038097 -0.155849
-13.19999981 -0.70999998 0.20999999 42 216 126 97.000000 1.000000 4.000000 1.000000 -60.708740 114.000000 206.000000 0.908482 -0.294050 0.296976
-13.18000031 -0.74000001 0.17000000 42 216 126 97.000000 1.000000 4.000000 1.000000 -60.708740 114.000000 206.000000 0.890837 0.153990 0.427429
-13.18000031 -0.75000000 0.16000000 42 216 126 97.000000 1.000000 4.000000 1.000000 -60.708740 114.000000 206.000000 0.974786 0.208267 -0.080103
-13.18999958 -0.75999999 0.22000000 42 216 126 97.000000 1.000000 4.000000 1.000000 -60.708740 114.000000 206.000000 0.981212 0.120971 -0.150298
-13.21000004 -0.81999999 0.28999999 42 216 126 97.000000 1.000000 4.000000 1.000000 -60.708740 114.000000 206.000000 0.978582 -0.054165 0.198605
-13.22999954 -0.81000000 0.30000001 42 216 126 97.000000 1.000000 4.000000 1.000000 -60.708740 114.000000 206.000000 0.866204 -0.172064 0.469132
-13.21000004 -0.81999999 0.30000001 42 216 126 97.000000 1.000000 4.000000 1.000000 -60.708740 114.000000 206.000000 0.952996 0.240601 0.184147
-13.22000027 -0.81999999 0.28000000 42 216 126 97.000000 1.000000 4.000000 1.000000 -60.708740 114.000000 206.000000 0.940078 -0.108625 0.323194
-13.22999954 -0.81999999 0.30000001 42 216 126 97.000000 1.000000 4.000000 1.000000 -60.708740 114.000000 206.000000 -0.835162 0.333751 -0.437167
-13.21000004 -0.81000000 0.28000000 42 216 126 97.000000 1.000000 4.000000 1.000000 -60.708740 114.000000 206.000000 0.945399 -0.258582 0.198383
-13.21000004 -0.80000001 0.28000000 42 216 126 97.000000 1.000000 4.000000 1.000000 -60.708740 114.000000 206.000000 0.958981 -0.192327 0.208244
-13.32999992 -0.73000002 0.20999999 42 216 126 97.000000 1.000000 4.000000 1.000000 -60.708740 114.000000 206.000000 0.998378 -0.013562 -0.055292
-13.34000015 -0.72000003 0.16000000 42 216 126 97.000000 1.000000 4.000000 1.000000 -60.708740 114.000000 206.000000 0.981413 -0.154832 0.113381
-13.32999992 -0.70999998 0.09000000 42 216 126 97.000000 1.000000 4.000000 1.000000 -60.708740 114.000000 206.000000 0.949375 -0.277964 0.146368
-13.34000015 -0.70999998 0.04000000 42 216 126 97.000000 1.000000 4.000000 1.000000 -60.708740 114.000000 206.000000 0.932669 0.051016 0.357109
-13.31999969 -0.72000003 0.04000000 42 216 126 97.000000 1.000000 4.000000 1.000000 -60.708740 114.000000 206.000000 0.985004 0.144467 0.094322
-13.32999992 -0.72000003 0.04000000 42 216 126 97.000000 1.000000 4.000000 1.000000 -60.708740 114.000000 206.000000 0.902485 0.317569 0.290981
-13.32999992 -0.70999998 0.05000000 42 216 126 97.000000 1.000000 4.000000 1.000000 -60.708740 114.000000 206.000000 0.992728 0.087360 0.082822
-13.30000019 -0.73000002 0.01000000 42 216 126 97.000000 1.000000 4.000000 1.000000 -60.708740 114.000000 206.000000 0.967267 -0.230666 -0.105775
-13.28999996 -0.87000000 -0.02000000 42 216 126 97.000000 1.000000 4.000000 1.000000 -60.708740 114.000000 206.000000 0.901412 -0.372545 0.220605
-13.34000015 -0.94999999 0.25000000 42 216 126 97.000000 1.000000 4.000000 1.000000 -60.708740 114.000000 206.000000 0.830846 -0.453903 0.321973
-13.34000015 -0.94999999 0.25000000 42 216 126 97.000000 1.000000 4.000000 1.000000 -60.708740 114.000000 206.000000 0.830846 -0.453903 0.321973
-13.38000011 -0.87000000 0.09000000 42 216 126 97.000000 1.000000 4.000000 1.000000 -60.708740 114.000000 206.000000 0.756146 -0.643244 0.120330
-13.38000011 -0.83999997 0.00000000 42 216 126 97.000000 1.000000 4.000000 1.000000 -60.708740 114.000000 206.000000 -0.618039 0.784924 0.043843
-13.38000011 -0.86000001 0.01000000 42 216 126 97.000000 1.000000 4.000000 1.000000 -60.708740 114.000000 206.000000 -0.555778 0.810194 0.186269
-13.35000038 -0.82999998 0.01000000 42 216 126 97.000000 1.000000 4.000000 1.000000 -60.708740 114.000000 206.000000 0.947987 -0.227790 -0.222334
-13.35999966 -0.88999999 0.28999999 42 216 126 97.000000 1.000000 4.000000 1.000000 -60.708740 114.000000 206.000000 0.998385 -0.013534 -0.055177
-13.36999989 -0.91000003 0.30000001 42 216 126 97.000000 1.000000 4.000000 1.000000 -60.708740 114.000000 206.000000 0.876892 -0.477679 -0.053687
-13.38000011 -0.88000000 0.28000000 42 216 126 97.000000 1.000000 4.000000 1.000000 -60.708740 114.000000 206.000000 0.963612 -0.197967 -0.179612
-13.36999989 -0.93000001 0.31000000 42 216 126 97.000000 1.000000 4.000000 1.000000 -60.708740 114.000000 206.000000 -0.700592 0.712007 -0.047087
-13.38000011 -0.94000000 0.28000000 42 216 126 97.000000 1.000000 4.000000 1.000000 -60.708740 114.000000 206.000000 0.733395 -0.604447 -0.311088
-13.38000011 -0.95999998 0.27000001 42 216 126 97.000000 1.000000 4.000000 1.000000 -60.708740 114.000000 206.000000 0.858563 -0.497822 0.122652
-13.38000011 -0.93000001 0.25000000 42 216 126 97.000000 1.000000 4.000000 1.000000 -60.708740 114.000000 206.000000 0.805813 -0.440554 0.395698
-13.36999989 -0.92000002 0.25000000 42 216 126 97.000000 1.000000 4.000000 1.000000 -60.708740 114.000000 206.000000 0.762109 -0.645300 0.052707
-13.42000008 -0.95999998 0.30000001 42 216 126 97.000000 1.000000 4.000000 1.000000 -60.708740 114.000000 206.000000 -0.633649 0.717066 0.290355
-13.40999985 -0.94999999 0.30000001 42 216 126 97.000000 1.000000 4.000000 1.000000 -60.708740 114.000000 206.000000 0.799704 -0.600124 0.018018
-13.40999985 -0.94999999 0.28999999 42 216 126 97.000000 1.000000 4.000000 1.000000 -60.708740 114.000000 206.000000 -0.629010 0.773610 0.076638
-13.40999985 -0.93000001 0.31000000 42 216 126 97.000000 1.000000 4.000000 1.000000 -60.708740 114.000000 206.000000 0.904791 -0.425397 0.019755
-13.42000008 -0.95999998 0.28999999 42 216 126 97.000000 1.000000 4.000000 1.000000 -60.708740 114.000000 206.000000 -0.528140 0.837081 0.142701
-13.40999985 -0.94999999 0.28000000 42 216 126 97.000000 1.000000 4.000000 1.000000 -60.708740 114.000000 206.000000 -0.647400 0.751579 -0.126503
-13.40999985 -0.94999999 0.27000001 42 216 126 97.000000 1.000000 4.000000 1.000000 -60.708740 114.000000 206.000000 -0.633115 0.773496 -0.029480
-13.39000034 -0.93000001 0.25000000 42 216 126 97.000000 1.000000 4.000000 1.000000 -60.708740 114.000000 206.000000 0.822532 -0.543860 0.166304
-13.39000034 -0.93000001 0.25999999 42 216 126 97.000000 1.000000 4.000000 1.000000 -60.708740 114.000000 206.000000 0.893362 -0.430348 0.129246
-13.35999966 -0.94999999 0.23000000 42 216 126 97.000000 1.000000 4.000000 1.000000 -60.708740 114.000000 206.000000 0.634704 -0.693443 -0.341011
-13.38000011 -0.93000001 0.19000000 42 216 126 97.000000 1.000000 4.000000 1.000000 -60.708740 114.000000 206.000000 0.880940 -0.430911 0.195601
-13.38000011 -0.94000000 0.19000000 42 216 126 97.000000 1.000000 4.000000 1.000000 -60.708740 114.000000 206.000000 0.752902 -0.649765 0.104611
-13.36999989 -0.92000002 0.17000000 42 216 126 97.000000 1.000000 4.000000 1.000000 -60.708740 114.000000 206.000000 0.827557 -0.511274 -0.231839
-13.36999989 -0.92000002 0.16000000 42 216 126 97.000000 1.000000 4.000000 1.000000 -60.708740 114.000000 206.000000 0.809874 -0.538373 0.232935
-13.39000034 -0.95999998 0.23000000 42 216 126 97.000000 1.000000 4.000000 1.000000 -60.708740 114.000000 206.000000 -0.678370 0.605392 0.416310
-13.39000034 -0.94999999 0.19000000 42 216 126 97.000000 1.000000 4.000000 1.000000 -60.708740 114.000000 206.000000 -0.541203 0.840180 0.034604
-13.39000034 -0.94999999 0.19000000 42 216 126 97.000000 1.000000 4.000000 1.000000 -60.708740 114.000000 206.000000 -0.541203 0.840180 0.034604
-13.39999962 -0.94000000 0.20999999 42 216 126 97.000000 1.000000 4.000000 1.000000 -60.708740 114.000000 206.000000 0.753849 -0.652173 -0.079888
-13.40999985 -0.94000000 0.20000000 42 216 126 97.000000 1.000000 4.000000 1.000000 -60.708740 114.000000 206.000000 -0.554033 0.766011 0.325996
-13.39999962 -0.94000000 0.20999999 42 216 126 97.000000 1.000000 4.000000 1.000000 -60.708740 114.000000 206.000000 0.753849 -0.652173 -0.079888
-13.40999985 -0.94999999 0.23000000 42 216 126 97.000000 1.000000 4.000000 1.000000 -60.708740 114.000000 206.000000 0.799991 -0.536980 0.267707
-13.39000034 -0.94000000 0.17000000 42 216 126 97.000000 1.000000 4.000000 1.000000 -60.708740 114.000000 206.000000 -0.441711 0.876036 0.193526
-13.39000034 -0.94000000 0.17000000 42 216 126 97.000000 1.000000 4.000000 1.000000 -60.708740 114.000000 206.000000 -0.441711 0.876036 0.193526
-13.39000034 -0.95999998 0.17000000 42 216 126 97.000000 1.000000 4.000000 1.000000 -60.708740 114.000000 206.000000 -0.582222 0.803319 0.125288
-13.39999962 -0.94999999 0.17000000 42 216 126 97.000000 1.000000 4.000000 1.000000 -60.708740 114.000000 206.000000 -0.430040 0.797265 0.423597
-13.39000034 -0.94000000 0.17000000 42 216 126 97.000000 1.000000 4.000000 1.000000 -60.708740 114.000000 206.000000 -0.441711 0.876036 0.193526
-13.39000034 -0.92000002 0.15000001 42 216 126 97.000000 1.000000 4.000000 1.000000 -60.708740 114.000000 206.000000 0.896642 -0.438085 -0.064143
-13.42000008 -0.98000002 0.28000000 42 216 126 97.000000 1.000000 4.000000 1.000000 -60.708740 114.000000 206.000000 0.740384 -0.567899 -0.359615
-13.42000008 -0.98000002 0.31000000 42 216 126 97.000000 1.000000 4.000000 1.000000 -60.708740 114.000000 206.000000 0.921145 -0.331726 0.203592
-13.42000008 -0.97000003 0.30000001 42 216 126 97.000000 1.000000 4.000000 1.000000 -60.708740 114.000000 206.000000 0.701867 -0.545155 -0.458464
-13.42000008 -0.97000003 0.28000000 42 216 126 97.000000 1.000000 4.000000 1.000000 -60.708740 114.000000 206.000000 0.933559 -0.338364 -0.118224
-13.42000008 -0.97000003 0.27000001 42 216 126 97.000000 1.000000 4.000000 1.000000 -60.708740 114.000000 206.000000 0.727538 -0.685157 0.035317
-13.39999962 -0.98000002 0.25999999 42 216 126 97.000000 1.000000 4.000000 1.000000 -60.708740 114.000000 206.000000 0.683733 -0.566713 -0.459723
-13.40999985 -1.01999998 0.25000000 42 216 126 97.000000 1.000000 4.000000 1.000000 -60.708740 114.000000 206.000000 -0.794902 0.465977 0.388583
-13.39000034 -0.97000003 0.20999999 42 216 126 97.000000 1.000000 4.000000 1.000000 -60.708740 114.000000 206.000000 0.452293 -0.796744 -0.400786
-13.36999989 -1.01999998 0.23000000 42 216 126 97.000000 1.000000 4.000000 1.000000 -60.708740 114.000000 206.000000 -0.496033 0.728289 0.472807
-13.43000031 -0.95999998 0.28999999 42 216 126 97.000000 1.000000 4.000000 1.000000 -60.708740 114.000000 206.000000 -0.488343 0.829408 0.271302
-13.43000031 -0.95999998 0.20999999 42 216 126 97.000000 1.000000 4.000000 1.000000 -60.708740 114.000000 206.000000 0.795246 -0.532799 -0.289324
-13.43999958 -0.99000001 0.30000001 42 216 126 97.000000 1.000000 4.000000 1.000000 -60.708740 114.000000 206.000000 0.658254 -0.705838 -0.261715
-13.43000031 -0.98000002 0.30000001 42 216 126 97.000000 1.000000 4.000000 1.000000 -60.708740 114.000000 206.000000 0.882610 -0.431791 -0.185890
-13.46000004 -0.99000001 0.28999999 42 216 126 97.000000 1.000000 4.000000 1.000000 -60.708740 114.000000 206.000000 -0.653015 0.738257 0.168962
-13.43999958 -0.99000001 0.30000001 42 216 126 97.000000 1.000000 4.000000 1.000000 -60.708740 114.000000 206.000000 0.658254 -0.705838 -0.261715
-13.43999958 -0.98000002 0.31000000 42 216 126 97.000000 1.000000 4.000000 1.000000 -60.708740 114.000000 206.000000 -0.440278 0.897744 0.014544
-13.43000031 -0.98000002 0.27000001 42 216 126 97.000000 1.000000 4.000000 1.000000 -60.708740 114.000000 206.000000 0.694787 -0.642962 -0.322291
-13.43999958 -0.98000002 0.25999999 42 216 126 97.000000 1.000000 4.000000 1.000000 -60.708740 114.000000 206.000000 -0.595779 0.754654 0.274853
-13.44999981 -1.01999998 0.28999999 42 216 126 97.000000 1.000000 4.000000 1.000000 -60.708740 114.000000 206.000000 -0.505035 0.810258 0.297357
-13.47000027 -0.99000001 0.27000001 42 216 126 97.000000 1.000000 4.000000 1.000000 -60.708740 114.000000 206.000000 0.746473 -0.642669 -0.172498
-13.47000027 -1.01999998 0.30000001 42 216 126 97.000000 1.000000 4.000000 1.000000 -60.708740 114.000000 206.000000 0.779995 -0.569694 -0.258952
-13.35000038 -0.88999999 0.08000000 42 216 126 97.000000 1.000000 4.000000 1.000000 -60.708740 114.000000 206.000000 0.671745 -0.652132 -0.351400
-13.38000011 -0.93000001 0.09000000 42 216 126 97.000000 1.000000 4.000000 1.000000 -60.708740 114.000000 206.000000 0.896159 -0.421806 -0.137761
-13.39000034 -0.91000003 0.07000000 42 216 126 97.000000 1.000000 4.000000 1.000000 -60.708740 114.000000 206.000000 0.829862 -0.530812 -0.171953
-13.42000008 -0.93000001 0.14000000 42 216 126 97.000000 1.000000 4.000000 1.000000 -60.708740 114.000000 206.000000 0.886806 -0.452509 -0.093864
-13.39999962 -0.93000001 0.14000000 42 216 126 97.000000 1.000000 4.000000 1.000000 -60.708740 114.000000 206.000000 0.741752 -0.650739 -0.162306
-13.38000011 -0.89999998 0.00000000 42 216 126 97.000000 1.000000 4.000000 1.000000 -60.708740 114.000000 206.000000 -0.629577 0.636257 0.445881
-13.38000011 -0.89999998 0.00000000 42 216 126 97.000000 1.000000 4.000000 1.000000 -60.708740 114.000000 206.000000 -0.629577 0.636257 0.445881
-13.38000011 -0.89999998 0.01000000 42 216 126 97.000000 1.000000 4.000000 1.000000 -60.708740 114.000000 206.000000 0.832196 -0.539684 0.127243
-13.36999989 -0.88999999 0.02000000 42 216 126 97.000000 1.000000 4.000000 1.000000 -60.708740 114.000000 206.000000 -0.422766 0.903984 -0.063891
-13.38000011 -0.89999998 0.00000000 42 216 126 97.000000 1.000000 4.000000 1.000000 -60.708740 114.000000 206.000000 -0.629577 0.636257 0.445881
-13.35999966 -0.88999999 0.02000000 42 216 126 97.000000 1.000000 4.000000 1.000000 -60.708740 114.000000 206.000000 0.816019 -0.562212 -0.134282
-13.38000011 -0.89999998 -0.02000000 42 216 126 97.000000 1.000000 4.000000 1.000000 -60.708740 114.000000 206.000000 -0.687286 0.719663 0.098604
-13.39999962 -0.91000003 0.04000000 42 216 126 97.000000 1.000000 4.000000 1.000000 -60.708740 114.000000 206.000000 -0.566372 0.818415 0.097051
-13.39999962 -0.91000003 0.06000000 42 216 126 97.000000 1.000000 4.000000 1.000000 -60.708740 114.000000 206.000000 -0.276395 0.908156 0.314418
-13.39000034 -0.89999998 -0.01000000 42 216 126 97.000000 1.000000 4.000000 1.000000 -60.708740 114.000000 206.000000 -0.493968 0.832514 0.250831
-13.39000034 -0.89999998 -0.01000000 42 216 126 97.000000 1.000000 4.000000 1.000000 -60.708740 114.000000 206.000000 -0.493968 0.832514 0.250831
-13.39000034 -0.94999999 0.04000000 42 216 126 97.000000 1.000000 4.000000 1.000000 -60.708740 114.000000 206.000000 -0.268645 0.866646 0.420422
-13.42000008 -0.94000000 0.06000000 42 216 126 97.000000 1.000000 4.000000 1.000000 -60.708740 114.000000 206.000000 -0.720825 0.555876 0.414021
-13.44999981 -0.94999999 0.08000000 42 216 126 97.000000 1.000000 4.000000 1.000000 -60.708740 114.000000 206.000000 -0.512122 0.858113 -0.037070
-13.43000031 -0.94000000 0.13000000 42 216 126 97.000000 1.000000 4.000000 1.000000 -60.708740 114.000000 206.000000 0.805527 -0.588049 -0.072970
-13.44999981 -0.95999998 0.08000000 42 216 126 97.000000 1.000000 4.000000 1.000000 -60.708740 114.000000 206.000000 -0.524122 0.846878 -0.089972
-13.44999981 -0.97000003 0.13000000 42 216 126 97.000000 1.000000 4.000000 1.000000 -60.708740 114.000000 206.000000 -0.683946 0.693337 0.226939
-13.65999985 -0.92000002 0.13000000 42 216 126 97.000000 1.000000 4.000000 1.000000 -60.708740 114.000000 206.000000 0.745208 0.439229 0.501740
-13.67000008 -0.93000001 0.07000000 42 216 126 97.000000 1.000000 4.000000 1.000000 -60.708740 114.000000 206.000000 0.690803 0.390741 0.608369
-13.84000015 -0.87000000 0.18000001 42 216 126 97.000000 1.000000 4.000000 1.000000 -60.708740 114.000000 206.000000 0.725870 0.324944 0.606238
-13.72999954 -0.82999998 0.08000000 42 216 126 97.000000 1.000000 4.000000 1.000000 -60.708740 114.000000 206.000000 0.813150 0.557631 0.166838
-13.76000023 -0.86000001 0.07000000 42 216 126 97.000000 1.000000 4.000000 1.000000 -60.708740 114.000000 206.000000 0.943952 -0.034488 0.328276
-13.73999977 -0.85000002 0.10000000 42 216 126 97.000000 1.000000 4.000000 1.000000 -60.708740 114.000000 206.000000 0.698050 0.307916 0.646462
-13.69999981 -0.87000000 0.01000000 42 216 126 97.000000 1.000000 4.000000 1.000000 -60.708740 114.000000 206.000000 0.809857 0.586353 0.017936
-13.75000000 -0.86000001 0.05000000 42 216 126 97.000000 1.000000 4.000000 1.000000 -60.708740 114.000000 206.000000 0.948717 0.118092 0.293240
-13.81000042 -0.86000001 0.00000000 42 216 126 97.000000 1.000000 4.000000 1.000000 -60.708740 114.000000 206.000000 0.994777 0.058909 0.083361
-13.81000042 -0.87000000 0.03000000 42 216 126 97.000000 1.000000 4.000000 1.000000 -60.708740 114.000000 206.000000 0.835405 0.023397 0.549137
-13.80000019 -0.86000001 0.01000000 42 216 126 97.000000 1.000000 4.000000 1.000000 -60.708740 114.000000 206.000000 0.979798 0.192610 0.053835
-13.81000042 -0.83999997 0.02000000 42 216 126 97.000000 1.000000 4.000000 1.000000 -60.708740 114.000000 206.000000 0.976420 -0.110702 0.185333
-13.80000019 -0.86000001 0.02000000 42 216 126 97.000000 1.000000 4.000000 1.000000 -60.708740 114.000000 206.000000 0.977545 0.206995 -0.039485
-13.71000004 -0.97000003 0.15000001 42 216 126 97.000000 1.000000 4.000000 1.000000 -60.708740 114.000000 206.000000 0.304357 0.697282 0.648972
-13.82999992 -0.89999998 0.25999999 42 216 126 97.000000 1.000000 4.000000 1.000000 -60.708740 114.000000 206.000000 0.910358 0.410132 0.055132
-13.71000004 -0.88999999 0.12000000 42 216 126 97.000000 1.000000 4.000000 1.000000 -60.708740 114.000000 206.000000 0.889870 0.245123 0.384768
-13.69999981 -0.95999998 0.14000000 42 216 126 97.000000 1.000000 4.000000 1.000000 -60.708740 114.000000 206.000000 0.562646 0.436507 0.702062
-13.72999954 -0.88999999 0.13000000 42 216 126 97.000000 1.000000 4.000000 1.000000 -60.708740 114.000000 206.000000 0.943144 0.301752 0.139374
-13.72000027 -0.88999999 0.12000000 42 216 126 97.000000 1.000000 4.000000 1.000000 -60.708740 114.000000 206.000000 0.903206 0.348065 0.251135
-13.72999954 -0.94000000 0.14000000 42 216 126 97.000000 1.000000 4.000000 1.000000 -60.708740 114.000000 206.000000 0.895032 0.341036 0.287423
-13.75000000 -0.95999998 0.09000000 42 216 126 97.000000 1.000000 4.000000 1.000000 -60.708740 114.000000 206.000000 0.863286 0.279613 0.420183
-13.71000004 -0.95999998 -0.02000000 42 216 126 97.000000 1.000000 4.000000 1.000000 -60.708740 114.000000 206.000000 0.703969 0.709612 0.029626
-13.69999981 -0.97000003 0.04000000 42 216 126 97.000000 1.000000 4.000000 1.000000 -60.708740 114.000000 206.000000 0.211323 0.912859 0.349330
-13.68000031 -0.99000001 0.05000000 42 216 126 97.000000 1.000000 4.000000 1.000000 -60.708740 114.000000 206.000000 0.767868 0.570734 0.290931
-13.69999981 -0.98000002 0.06000000 42 216 126 97.000000 1.000000 4.000000 1.000000 -60.708740 114.000000 206.000000 0.269588 0.903047 0.334407
-13.71000004 -0.99000001 -0.01000000 42 216 126 97.000000 1.000000 4.000000 1.000000 -60.708740 114.000000 206.000000 0.410336 0.662850 0.626302
-13.69999981 -1.02999997 0.05000000 42 216 126 97.000000 1.000000 4.000000 1.000000 -60.708740 114.000000 206.000000 0.414657 0.566643 0.712021
-13.68000031 -1.00999999 0.02000000 42 216 126 97.000000 1.000000 4.000000 1.000000 -60.708740 114.000000 206.000000 0.658797 0.706421 0.258757
-13.75000000 -0.97000003 0.00000000 42 216 126 97.000000 1.000000 4.000000 1.000000 -60.708740 114.000000 206.000000 0.662705 0.746082 0.064689
-13.72000027 -0.99000001 0.00000000 42 216 126 97.000000 1.000000 4.000000 1.000000 -60.708740 114.000000 206.000000 0.671588 0.412902 0.615208
-13.76000023 -0.97000003 0.00000000 42 216 126 97.000000 1.000000 4.000000 1.000000 -60.708740 114.000000 206.000000 0.771099 0.634772 0.049703
-13.77000046 -0.94000000 0.10000000 42 216 126 97.000000 1.000000 4.000000 1.000000 -60.708740 114.000000 206.000000 0.750465 0.415465 0.513995
-13.84000015 -0.89999998 0.07000000 42 216 126 97.000000 1.000000 4.000000 1.000000 -60.708740 114.000000 206.000000 0.800615 0.367416 0.473309
-13.77000046 -0.89999998 0.00000000 42 216 126 97.000000 1.000000 4.000000 1.000000 -60.708740 114.000000 206.000000 0.888104 0.354942 0.292041
-13.80000019 -0.88000000 0.00000000 42 216 126 97.000000 1.000000 4.000000 1.000000 -60.708740 114.000000 206.000000 0.932994 0.115436 0.340876
-13.81999969 -0.91000003 0.05000000 42 216 126 97.000000 1.000000 4.000000 1.000000 -60.708740 114.000000 206.000000 0.742711 0.355916 0.567190
-13.82999992 -0.94000000 0.04000000 42 216 126 97.000000 1.000000 4.000000 1.000000 -60.708740 114.000000 206.000000 0.598191 0.761477 0.249639
-13.81999969 -0.95999998 0.02000000 42 216 126 97.000000 1.000000 4.000000 1.000000 -60.708740 114.000000 206.000000 0.811957 0.362111 0.457823
-13.82999992 -0.97000003 0.02000000 42 216 126 97.000000 1.000000 4.000000 1.000000 -60.708740 114.000000 206.000000 0.593215 0.492386 0.636908
-13.81999969 -0.97000003 0.00000000 42 216 126 97.000000 1.000000 4.000000 1.000000 -60.708740 114.000000 206.000000 0.873278 0.352054 0.336814
-13.92000008 -0.82999998 0.23999999 42 216 126 97.000000 1.000000 4.000000 1.000000 -60.708740 114.000000 206.000000 0.971765 0.166843 0.166843
-13.92000008 -0.85000002 0.23999999 42 216 126 97.000000 1.000000 4.000000 1.000000 -60.708740 114.000000 206.000000 0.942031 -0.047812 0.332101
-13.92000008 -0.86000001 0.23999999 42 216 126 97.000000 1.000000 4.000000 1.000000 -60.708740 114.000000 206.000000 0.879767 0.198942 0.431778
-13.92000008 -0.83999997 0.23999999 42 216 126 97.000000 1.000000 4.000000 1.000000 -60.708740 114.000000 206.000000 0.919835 -0.335134 0.203932
-13.89000034 -0.86000001 0.25000000 42 216 126 97.000000 1.000000 4.000000 1.000000 -60.708740 114.000000 206.000000 0.871120 0.449658 0.197375
-13.92000008 -0.86000001 0.23999999 42 216 126 97.000000 1.000000 4.000000 1.000000 -60.708740 114.000000 206.000000 0.879767 0.198942 0.431778
-13.89000034 -0.83999997 0.23000000 42 216 126 97.000000 1.000000 4.000000 1.000000 -60.708740 114.000000 206.000000 0.975269 -0.029916 0.218987
-13.89999962 -0.86000001 0.19000000 42 216 126 97.000000 1.000000 4.000000 1.000000 -60.708740 114.000000 206.000000 0.993015 -0.093980 0.071334
-13.89999962 -0.85000002 0.19000000 42 216 126 97.000000 1.000000 4.000000 1.000000 -60.708740 114.000000 206.000000 0.975909 0.146574 0.161608
-13.92000008 -0.83999997 0.20999999 42 216 126 97.000000 1.000000 4.000000 1.000000 -60.708740 114.000000 206.000000 0.870893 0.071065 0.486307
-13.89000034 -0.86000001 0.18000001 42 216 126 97.000000 1.000000 4.000000 1.000000 -60.708740 114.000000 206.000000 0.965341 0.248591 -0.079499
-13.93999958 -0.81000000 0.20000000 42 216 126 97.000000 1.000000 4.000000 1.000000 -60.708740 114.000000 206.000000 0.996248 0.057833 0.064380
-13.93000031 -0.82999998 0.18000001 42 216 126 97.000000 1.000000 4.000000 1.000000 -60.708740 114.000000 206.000000 0.994492 0.025163 -0.101747
-13.93000031 -0.86000001 0.09000000 42 216 126 97.000000 1.000000 4.000000 1.000000 -60.708740 114.000000 206.000000 0.971136 -0.055248 0.232041
-13.88000011 -0.91000003 0.28000000 42 216 126 97.000000 1.000000 4.000000 1.000000 -60.708740 114.000000 206.000000 0.918844 -0.167961 0.357093
-13.88000011 -0.91000003 0.28000000 42 216 126 97.000000 1.000000 4.000000 1.000000 -60.708740 114.000000 206.000000 0.918844 -0.167961 0.357093
-13.89999962 -0.92000002 0.23999999 42 216 126 97.000000 1.000000 4.000000 1.000000 -60.708740 114.000000 206.000000 0.755674 0.607996 0.243512
-13.89000034 -0.88000000 0.20000000 42 216 126 97.000000 1.000000 4.000000 1.000000 -60.708740 114.000000 206.000000 0.896241 0.364698 0.252483
-13.89999962 -0.91000003 0.19000000 42 216 126 97.000000 1.000000 4.000000 1.000000 -60.708740 114.000000 206.000000 0.956138 0.283633 -0.073154
-13.89000034 -0.88999999 0.20000000 42 216 126 97.000000 1.000000 4.000000 1.000000 -60.708740 114.000000 206.000000 0.939468 0.128416 0.317662
-13.89000034 -0.88000000 0.20999999 42 216 126 97.000000 1.000000 4.000000 1.000000 -60.708740 114.000000 206.000000 0.965588 0.167646 0.198836
-13.93999958 -0.91000003 0.18000001 42 216 126 97.000000 1.000000 4.000000 1.000000 -60.708740 114.000000 206.000000 0.951469 0.278122 0.131742
-13.93000031 -0.91000003 0.18000001 42 216 126 97.000000 1.000000 4.000000 1.000000 -60.708740 114.000000 206.000000 0.925909 -0.169493 0.337586
-13.93000031 -0.91000003 0.18000001 42 216 126 97.000000 1.000000 4.000000 1.000000 -60.708740 114.000000 206.000000 0.925909 -0.169493 0.337586
-13.96000004 -0.94000000 0.19000000 42 216 126 97.000000 1.000000 4.000000 1.000000 -60.708740 114.000000 206.000000 0.843188 -0.057522 0.534533
-13.96000004 -0.94000000 0.18000001 42 216 126 97.000000 1.000000 4.000000 1.000000 -60.708740 114.000000 206.000000 0.922564 0.128633 0.363770
-13.96000004 -0.94999999 0.18000001 42 216 126 97.000000 1.000000 4.000000 1.000000 -60.708740 114.000000 206.000000 0.903110 0.086864 0.420532
-13.94999981 -0.93000001 0.17000000 42 216 126 97.000000 1.000000 4.000000 1.000000 -60.708740 114.000000 206.000000 0.908370 -0.151631 0.389707
-14.00000000 -0.91000003 0.18000001 42 216 126 97.000000 1.000000 4.000000 1.000000 -60.708740 114.000000 206.000000 0.954880 -0.108717 0.276378
-14.00000000 -0.91000003 0.18000001 42 216 126 97.000000 1.000000 4.000000 1.000000 -60.708740 114.000000 206.000000 0.954880 -0.108717 0.276378
-13.97999954 -0.91000003 0.16000000 42 216 126 97.000000 1.000000 4.000000 1.000000 -60.708740 114.000000 206.000000 0.814014 0.153841 0.560102
-14.00000000 -0.93000001 0.19000000 42 216 126 97.000000 1.000000 4.000000 1.000000 -60.708740 114.000000 206.000000 0.869958 -0.004009 0.493110
-13.97999954 -0.97000003 0.23000000 42 216 126 97.000000 1.000000 4.000000 1.000000 -60.708740 114.000000 206.000000 0.869805 0.492573 0.028496
-13.90999985 -0.91000003 0.12000000 42 216 126 97.000000 1.000000 4.000000 1.000000 -60.708740 114.000000 206.000000 0.807145 0.540679 0.237031
-13.90999985 -0.89999998 0.13000000 42 216 126 97.000000 1.000000 4.000000 1.000000 -60.708740 114.000000 206.000000 0.876058 0.451923 0.168191
-13.90999985 -0.91000003 0.13000000 42 216 126 97.000000 1.000000 4.000000 1.000000 -60.708740 114.000000 206.000000 0.780068 0.475177 0.407063
-13.92000008 -0.88000000 0.14000000 42 216 126 97.000000 1.000000 4.000000 1.000000 -60.708740 114.000000 206.000000 0.858995 0.031510 0.511013
-13.90999985 -0.89999998 0.13000000 42 216 126 97.000000 1.000000 4.000000 1.000000 -60.708740 114.000000 206.000000 0.876058 0.451923 0.168191
-14.03999996 -0.93000001 0.19000000 42 216 126 97.000000 1.000000 4.000000 1.000000 -60.708740 114.000000 206.000000 0.734356 0.179373 0.654635
-14.03999996 -0.91000003 0.20000000 42 216 126 97.000000 1.000000 4.000000 1.000000 -60.708740 114.000000 206.000000 0.913554 -0.257073 0.315169
-12.78999996 -0.23999999 -0.50999999 42 216 126 97.000000 1.000000 4.000000 1.000000 -60.708740 114.000000 206.000000 0.914244 0.108937 0.390243
-12.78999996 -0.28000000 -0.44000000 42 216 126 97.000000 1.000000 4.000000 1.000000 -60.708740 114.000000 206.000000 0.964075 -0.051135 0.260662
-12.77999973 -0.28000000 -0.47000000 42 216 126 97.000000 1.000000 4.000000 1.000000 -60.708740 114.000000 206.000000 0.781313 0.174468 0.599259
-12.78999996 -0.28000000 -0.44000000 42 216 126 97.000000 1.000000 4.000000 1.000000 -60.708740 114.000000 206.000000 0.964075 -0.051135 0.260662
-12.77999973 -0.27000001 -0.50000000 42 216 126 97.000000 1.000000 4.000000 1.000000 -60.708740 114.000000 206.000000 0.981315 0.191618 -0.017420
-12.81000042 -0.27000001 -0.51999998 42 216 126 97.000000 1.000000 4.000000 1.000000 -60.708740 114.000000 206.000000 0.926891 0.192692 0.322091
-12.80000019 -0.25999999 -0.49000001 42 216 126 97.000000 1.000000 4.000000 1.000000 -60.708740 114.000000 206.000000 0.958721 0.259572 0.116090
-12.81000042 -0.25999999 -0.51999998 42 216 126 97.000000 1.000000 4.000000 1.000000 -60.708740 114.000000 206.000000 0.884174 0.059128 0.463401
-12.78999996 -0.28999999 -0.49000001 42 216 126 97.000000 1.000000 4.000000 1.000000 -60.708740 114.000000 206.000000 0.953654 0.297621 0.044327
-12.77000046 -0.28000000 -0.58999997 42 216 126 97.000000 1.000000 4.000000 1.000000 -60.708740 114.000000 206.000000 0.872483 0.094743 0.479371
-12.81999969 -0.25000000 -0.54000002 42 216 126 97.000000 1.000000 4.000000 1.000000 -60.708740 114.000000 206.000000 0.769703 0.035178 0.637432
-12.80000019 -0.25999999 -0.55000001 42 216 126 97.000000 1.000000 4.000000 1.000000 -60.708740 114.000000 206.000000 0.995263 0.092659 -0.029433
-12.78999996 -0.28000000 -0.64999998 42 216 126 97.000000 1.000000 4.000000 1.000000 -60.708740 114.000000 206.000000 0.923232 0.110788 0.367925
-12.77999973 -0.27000001 -0.61000001 42 216 126 97.000000 1.000000 4.000000 1.000000 -60.708740 114.000000 206.000000 0.958720 0.211424 0.190148
-12.77000046 -0.28000000 -0.61000001 42 216 126 97.000000 1.000000 4.000000 1.000000 -60.708740 114.000000 206.000000 0.868013 0.404259 0.288321
-12.76000023 -0.28999999 -0.54000002 42 216 126 97.000000 1.000000 4.000000 1.000000 -60.708740 114.000000 206.000000 0.818779 0.544345 0.182454
-12.77000046 -0.28999999 -0.60000002 42 216 126 97.000000 1.000000 4.000000 1.000000 -60.708740 114.000000 206.000000 0.900123 0.110591 0.421364
-12.77000046 -0.28999999 -0.58999997 42 216 126 97.000000 1.000000 4.000000 1.000000 -60.708740 114.000000 206.000000 0.860702 0.312563 0.401866
-12.77999973 -0.28999999 -0.57999998 42 216 126 97.000000 1.000000 4.000000 1.000000 -60.708740 114.000000 206.000000 0.838378 0.333784 0.430942
-12.77000046 -0.30000001 -0.60000002 42 216 126 97.000000 1.000000 4.000000 1.000000 -60.708740 114.000000 206.000000 0.994638 -0.047574 0.091830
-12.78999996 -0.34000000 -0.57999998 42 216 126 97.000000 1.000000 4.000000 1.000000 -60.708740 114.000000 206.000000 0.838170 -0.066432 0.541348
-12.82999992 -0.33000001 -0.56000000 42 216 126 97.000000 1.000000 4.000000 1.000000 -60.708740 114.000000 206.000000 0.924647 0.085041 0.371209
-12.82999992 -0.31000000 -0.56000000 42 216 126 97.000000 1.000000 4.000000 1.000000 -60.708740 114.000000 206.000000 0.990782 0.070032 0.115955
-12.82999992 -0.33000001 -0.56999999 42 216 126 97.000000 1.000000 4.000000 1.000000 -60.708740 114.000000 206.000000 0.943904 0.318155 -0.088450
-12.77000046 -0.28999999 -0.61000001 42 216 126 97.000000 1.000000 4.000000 1.000000 -60.708740 114.000000 206.000000 0.996481 -0.005295 0.083658
-12.77999973 -0.31000000 -0.63000000 42 216 126 97.000000 1.000000 4.000000 1.000000 -60.708740 114.000000 206.000000 0.994388 0.072542 -0.077006
-12.77999973 -0.33000001 -0.62000000 42 216 126 97.000000 1.000000 4.000000 1.000000 -60.708740 114.000000 206.000000 0.905432 -0.124936 0.405690
-12.77999973 -0.28999999 -0.61000001 42 216 126 97.000000 1.000000 4.000000 1.000000 -60.708740 114.000000 206.000000 0.999273 -0.033891 0.017459
-12.77999973 -0.34999999 -0.69000000 42 216 126 97.000000 1.000000 4.000000 1.000000 -60.708740 114.000000 206.000000 0.979890 0.187279 0.068870
-12.80000019 -0.31999999 -0.62000000 42 216 126 97.000000 1.000000 4.000000 1.000000 -60.708740 114.000000 206.000000 0.960290 0.278398 -0.018396
-12.80000019 -0.30000001 -0.62000000 42 216 126 97.000000 1.000000 4.000000 1.000000 -60.708740 114.000000 206.000000 0.751589 0.553546 0.358750
-12.80000019 -0.30000001 -0.62000000 42 216 126 97.000000 1.000000 4.000000 1.000000 -60.708740 114.000000 206.000000 0.751589 0.553546 0.358750
-12.82999992 -0.31999999 -0.63000000 42 216 126 97.000000 1.000000 4.000000 1.000000 -60.708740 114.000000 206.000000 0.942340 0.239390 0.233855
-12.80000019 -0.31999999 -0.62000000 42 216 126 97.000000 1.000000 4.000000 1.000000 -60.708740 114.000000 206.000000 0.960290 0.278398 -0.018396
-12.82999992 -0.31999999 -0.63000000 42 216 126 97.000000 1.000000 4.000000 1.000000 -60.708740 114.000000 206.000000 0.942340 0.239390 0.233855
-12.81999969 -0.33000001 -0.64999998 42 216 126 97.000000 1.000000 4.000000 1.000000 -60.708740 114.000000 206.000000 0.992110 0.041666 -0.118242
-12.81000042 -0.31000000 -0.66000003 42 216 126 97.000000 1.000000 4.000000 1.000000 -60.708740 114.000000 206.000000 0.976897 -0.071956 0.201233
-12.82999992 -0.28999999 -0.64999998 42 216 126 97.000000 1.000000 4.000000 1.000000 -60.708740 114.000000 206.000000 0.998283 0.036973 -0.045425
-12.80000019 -0.34000000 -0.63000000 42 216 126 97.000000 1.000000 4.000000 1.000000 -60.708740 114.000000 206.000000 0.954159 -0.270543 0.128013
-12.81999969 -0.37000000 -0.66000003 42 216 126 97.000000 1.000000 4.000000 1.000000 -60.708740 114.000000 206.000000 0.866811 -0.255656 0.428111
-12.84000015 -0.30000001 -0.55000001 42 216 126 97.000000 1.000000 4.000000 1.000000 -60.708740 114.000000 206.000000 0.987575 0.147382 -0.054543
-12.84000015 -0.30000001 -0.60000002 42 216 126 97.000000 1.000000 4.000000 1.000000 -60.708740 114.000000 206.000000 0.870638 0.100841 0.481478
-12.84000015 -0.30000001 -0.60000002 42 216 126 97.000000 1.000000 4.000000 1.000000 -60.708740 114.000000 206.000000 0.870638 0.100841 0.481478
-12.84000015 -0.31999999 -0.60000002 42 216 126 97.000000 1.000000 4.000000 1.000000 -60.708740 114.000000 206.000000 0.986894 -0.137953 0.083715
-12.84000015 -0.31000000 -0.68000001 42 216 126 97.000000 1.000000 4.000000 1.000000 -60.708740 114.000000 206.000000 0.955853 -0.177802 0.233950
-12.85999966 -0.36000001 -0.67000002 42 216 126 97.000000 1.000000 4.000000 1.000000 -60.708740 114.000000 206.000000 0.844241 -0.236632 0.480897
-13.06999969 -0.37000000 -0.58999997 42 216 126 97.000000 1.000000 4.000000 1.000000 -60.708740 114.000000 206.000000 0.656230 0.491753 0.572313
-12.77999973 -0.31999999 -0.70999998 42 216 126 97.000000 1.000000 4.000000 1.000000 -60.708740 114.000000 206.000000 0.869568 0.386645 0.307176
-12.78999996 -0.31999999 -0.70999998 42 216 126 97.000000 1.000000 4.000000 1.000000 -60.708740 114.000000 206.000000 0.768315 0.082786 0.634695
-12.77000046 -0.33000001 -0.73000002 42 216 126 97.000000 1.000000 4.000000 1.000000 -60.708740 114.000000 206.000000 0.966139 0.241851 0.089903
