//X Y Z R G B PointSourceId ScanDirectionFlag NumberOfReturns ReturnNumber GpsTime Intensity Classification Nx Ny Nz
-14.71000004 -0.77999997 -0.07000000 194 235 41 97.000000 1.000000 4.000000 1.000000 -60.708740 114.000000 206.000000 0.780854 0.164629 0.602632
-14.75000000 -0.75000000 -0.06000000 194 235 41 97.000000 1.000000 4.000000 1.000000 -60.708740 114.000000 206.000000 0.192948 0.164459 0.967329
-14.76000023 -0.75000000 -0.06000000 194 235 41 97.000000 1.000000 4.000000 1.000000 -60.708740 114.000000 206.000000 0.411666 0.443953 0.795887
-14.73999977 -0.79000002 -0.04000000 194 235 41 97.000000 1.000000 4.000000 1.000000 -60.708740 114.000000 206.000000 0.341911 0.445903 0.827205
-14.76000023 -0.76999998 -0.05000000 194 235 41 97.000000 1.000000 4.000000 1.000000 -60.708740 114.000000 206.000000 0.585236 0.390707 0.710526
-14.75000000 -0.79000002 -0.05000000 194 235 41 97.000000 1.000000 4.000000 1.000000 -60.708740 114.000000 206.000000 0.299316 0.065516 0.951902
-14.72000027 -0.82999998 -0.06000000 194 235 41 97.000000 1.000000 4.000000 1.000000 -60.708740 114.000000 206.000000 0.523690 0.346441 0.778284
-14.68999958 -0.80000001 -0.10000000 194 235 41 97.000000 1.000000 4.000000 1.000000 -60.708740 114.000000 206.000000 0.714543 0.055846 0.697359
-14.71000004 -0.83999997 -0.04000000 194 235 41 97.000000 1.000000 4.000000 1.000000 -60.708740 114.000000 206.000000 0.677244 -0.012516 0.735652
-14.75000000 -0.81000000 -0.03000000 194 235 41 97.000000 1.000000 4.000000 1.000000 -60.708740 114.000000 206.000000 0.521059 0.504305 0.688603
-14.76000023 -0.81999999 -0.03000000 194 235 41 97.000000 1.000000 4.000000 1.000000 -60.708740 114.000000 206.000000 0.615485 0.215497 0.758116
-14.75000000 -0.81000000 -0.03000000 194 235 41 97.000000 1.000000 4.000000 1.000000 -60.708740 114.000000 206.000000 0.521059 0.504305 0.688603
-14.73999977 -0.82999998 -0.05000000 194 235 41 97.000000 1.000000 4.000000 1.000000 -60.708740 114.000000 206.000000 0.772639 0.218321 0.596125
-14.77000046 -0.72000003 -0.06000000 194 235 41 97.000000 1.000000 4.000000 1.000000 -60.708740 114.000000 206.000000 0.803612 0.122385 0.582434
-14.77999973 -0.72000003 -0.03000000 194 235 41 97.000000 1.000000 4.000000 1.000000 -60.708740 114.000000 206.000000 0.439107 -0.285034 0.852021
-14.77999973 -0.72000003 -0.03000000 194 235 41 97.000000 1.000000 4.000000 1.000000 -60.708740 114.000000 206.000000 0.439107 -0.285034 0.852021
-14.81000042 -0.70999998 -0.03000000 194 235 41 97.000000 1.000000 4.000000 1.000000 -60.708740 114.000000 206.000000 0.492989 -0.135245 0.859459
-14.84000015 -0.79000002 -0.05000000 194 235 41 97.000000 1.000000 4.000000 1.000000 -60.708740 114.000000 206.000000 0.465791 0.022820 0.884600
-14.81000042 -0.75999999 -0.03000000 194 235 41 97.000000 1.000000 4.000000 1.000000 -60.708740 114.000000 206.000000 0.232932 0.310100 0.921727
-14.84000015 -0.80000001 -0.04000000 194 235 41 97.000000 1.000000 4.000000 1.000000 -60.708740 114.000000 206.000000 0.708866 0.505380 0.492036
-14.80000019 -0.81999999 -0.13000000 194 235 41 97.000000 1.000000 4.000000 1.000000 -60.708740 114.000000 206.000000 0.462229 0.332868 0.821915
-14.81000042 -0.85000002 -0.12000000 194 235 41 97.000000 1.000000 4.000000 1.000000 -60.708740 114.000000 206.000000 0.784873 0.076327 0.614937
-14.75000000 -0.79000002 -0.34999999 194 235 41 97.000000 1.000000 4.000000 1.000000 -60.708740 114.000000 206.000000 0.713673 0.077036 0.696231
-14.77000046 -0.79000002 -0.34999999 194 235 41 97.000000 1.000000 4.000000 1.000000 -60.708740 114.000000 206.000000 0.587385 0.411997 0.696589
-14.77000046 -0.80000001 -0.33000001 194 235 41 97.000000 1.000000 4.000000 1.000000 -60.708740 114.000000 206.000000 0.651073 -0.055806 0.756961
-14.81000042 -0.85000002 -0.31999999 194 235 41 97.000000 1.000000 4.000000 1.000000 -60.708740 114.000000 206.000000 0.719024 -0.046986 0.693395
-14.68999958 -0.88000000 -0.07000000 194 235 41 97.000000 1.000000 4.000000 1.000000 -60.708740 114.000000 206.000000 0.841803 0.219931 0.492948
-14.72000027 -0.91000003 -0.27000001 194 235 41 97.000000 1.000000 4.000000 1.000000 -60.708740 114.000000 206.000000 0.571437 -0.063808 0.818162
-14.71000004 -0.95999998 -0.23999999 194 235 41 97.000000 1.000000 4.000000 1.000000 -60.708740 114.000000 206.000000 0.624332 0.293709 0.723840
-14.73999977 -0.91000003 -0.25999999 194 235 41 97.000000 1.000000 4.000000 1.000000 -60.708740 114.000000 206.000000 0.649796 -0.168917 0.741102
-14.76000023 -0.88999999 -0.28999999 194 235 41 97.000000 1.000000 4.000000 1.000000 -60.708740 114.000000 206.000000 0.541905 -0.268596 0.796364
-14.75000000 -0.91000003 -0.31999999 194 235 41 97.000000 1.000000 4.000000 1.000000 -60.708740 114.000000 206.000000 0.533852 0.530484 0.658474
-14.76000023 -0.95999998 -0.28999999 194 235 41 97.000000 1.000000 4.000000 1.000000 -60.708740 114.000000 206.000000 0.338034 0.092191 0.936608
-14.76000023 -0.94999999 -0.28000000 194 235 41 97.000000 1.000000 4.000000 1.000000 -60.708740 114.000000 206.000000 0.642485 0.478089 0.598869
-14.73999977 -0.93000001 -0.31000000 194 235 41 97.000000 1.000000 4.000000 1.000000 -60.708740 114.000000 206.000000 0.560539 0.334385 0.757616
-14.73999977 -0.94999999 -0.30000001 194 235 41 97.000000 1.000000 4.000000 1.000000 -60.708740 114.000000 206.000000 0.733901 0.417251 0.535995
-14.76000023 -0.94999999 -0.28999999 194 235 41 97.000000 1.000000 4.000000 1.000000 -60.708740 114.000000 206.000000 0.441111 0.392990 0.806833
-14.73999977 -0.94000000 -0.31000000 194 235 41 97.000000 1.000000 4.000000 1.000000 -60.708740 114.000000 206.000000 0.266820 0.205991 0.941475
-14.71000004 -0.97000003 -0.23999999 194 235 41 97.000000 1.000000 4.000000 1.000000 -60.708740 114.000000 206.000000 0.760671 0.364928 0.536849
-14.68999958 -0.98000002 -0.25999999 194 235 41 97.000000 1.000000 4.000000 1.000000 -60.708740 114.000000 206.000000 0.277419 0.131409 0.951720
-14.72000027 -0.98000002 -0.25000000 194 235 41 97.000000 1.000000 4.000000 1.000000 -60.708740 114.000000 206.000000 0.362917 0.465237 0.807370
-14.69999981 -1.01999998 -0.23000000 194 235 41 97.000000 1.000000 4.000000 1.000000 -60.708740 114.000000 206.000000 0.477639 0.143727 0.866720
-14.69999981 -0.99000001 -0.28999999 194 235 41 97.000000 1.000000 4.000000 1.000000 -60.708740 114.000000 206.000000 0.320151 0.471553 0.821670
-14.77000046 -0.94000000 -0.28000000 194 235 41 97.000000 1.000000 4.000000 1.000000 -60.708740 114.000000 206.000000 0.328570 0.343711 0.879719
-14.80000019 -0.94000000 -0.30000001 194 235 41 97.000000 1.000000 4.000000 1.000000 -60.708740 114.000000 206.000000 0.558331 0.406808 0.723031
-14.80000019 -0.92000002 -0.31000000 194 235 41 97.000000 1.000000 4.000000 1.000000 -60.708740 114.000000 206.000000 0.551857 0.403597 0.729769
-14.77000046 -0.92000002 -0.33000001 194 235 41 97.000000 1.000000 4.000000 1.000000 -60.708740 114.000000 206.000000 0.680084 0.373799 0.630683
-14.77999973 -0.92000002 -0.31999999 194 235 41 97.000000 1.000000 4.000000 1.000000 -60.708740 114.000000 206.000000 0.152823 0.288064 0.945338
-14.77000046 -0.93000001 -0.33000001 194 235 41 97.000000 1.000000 4.000000 1.000000 -60.708740 114.000000 206.000000 0.439570 0.552365 0.708288
-14.81000042 -0.88999999 -0.31000000 194 235 41 97.000000 1.000000 4.000000 1.000000 -60.708740 114.000000 206.000000 0.522030 0.188051 0.831938
-14.81999969 -0.92000002 -0.28000000 194 235 41 97.000000 1.000000 4.000000 1.000000 -60.708740 114.000000 206.000000 0.808053 0.196307 0.555441
-14.81999969 -0.94000000 -0.28999999 194 235 41 97.000000 1.000000 4.000000 1.000000 -60.708740 114.000000 206.000000 0.829656 0.247819 0.500256
-14.77999973 -0.88999999 -0.37000000 194 235 41 97.000000 1.000000 4.000000 1.000000 -60.708740 114.000000 206.000000 0.566109 0.087869 0.819634
-14.88000011 -0.54000002 -0.09000000 194 235 41 97.000000 1.000000 4.000000 1.000000 -60.708740 114.000000 206.000000 0.255388 0.213974 0.942864
-14.89999962 -0.49000001 -0.09000000 194 235 41 97.000000 1.000000 4.000000 1.000000 -60.708740 114.000000 206.000000 0.161877 0.252849 0.953868
-14.92000008 -0.50000000 -0.05000000 194 235 41 97.000000 1.000000 4.000000 1.000000 -60.708740 114.000000 206.000000 0.511885 -0.360096 0.779939
-14.92000008 -0.50000000 -0.08000000 194 235 41 97.000000 1.000000 4.000000 1.000000 -60.708740 114.000000 206.000000 0.361006 -0.011481 0.932493
-14.92000008 -0.50999999 -0.12000000 194 235 41 97.000000 1.000000 4.000000 1.000000 -60.708740 114.000000 206.000000 0.611130 0.052464 0.789790
-14.93999958 -0.50000000 -0.05000000 194 235 41 97.000000 1.000000 4.000000 1.000000 -60.708740 114.000000 206.000000 0.284220 0.078450 0.955544
-14.85999966 -0.52999997 -0.30000001 194 235 41 97.000000 1.000000 4.000000 1.000000 -60.708740 114.000000 206.000000 0.349420 -0.166992 0.921965
-14.89999962 -0.50999999 -0.30000001 194 235 41 97.000000 1.000000 4.000000 1.000000 -60.708740 114.000000 206.000000 0.502422 -0.348324 0.791355
-14.86999989 -0.52999997 -0.30000001 194 235 41 97.000000 1.000000 4.000000 1.000000 -60.708740 114.000000 206.000000 0.154849 -0.396357 0.904944
-14.85999966 -0.57999998 -0.06000000 194 235 41 97.000000 1.000000 4.000000 1.000000 -60.708740 114.000000 206.000000 0.377873 -0.144688 0.914482
-14.88000011 -0.56999999 -0.04000000 194 235 41 97.000000 1.000000 4.000000 1.000000 -60.708740 114.000000 206.000000 0.375935 0.082194 0.922994
-14.86999989 -0.57999998 -0.05000000 194 235 41 97.000000 1.000000 4.000000 1.000000 -60.708740 114.000000 206.000000 0.703898 0.186371 0.685415
-14.88000011 -0.56000000 -0.04000000 194 235 41 97.000000 1.000000 4.000000 1.000000 -60.708740 114.000000 206.000000 0.130937 -0.271133 0.953594
-14.85999966 -0.56999999 -0.06000000 194 235 41 97.000000 1.000000 4.000000 1.000000 -60.708740 114.000000 206.000000 0.178871 -0.036242 0.983205
-14.85999966 -0.58999997 -0.05000000 194 235 41 97.000000 1.000000 4.000000 1.000000 -60.708740 114.000000 206.000000 0.709170 -0.047088 0.703463
-14.88000011 -0.58999997 -0.04000000 194 235 41 97.000000 1.000000 4.000000 1.000000 -60.708740 114.000000 206.000000 0.604731 0.106889 0.789225
-14.89999962 -0.57999998 -0.09000000 194 235 41 97.000000 1.000000 4.000000 1.000000 -60.708740 114.000000 206.000000 0.735465 -0.055913 0.675252
-14.92000008 -0.56999999 -0.25999999 194 235 41 97.000000 1.000000 4.000000 1.000000 -60.708740 114.000000 206.000000 0.180880 -0.046107 0.982424
-14.90999985 -0.56999999 -0.27000001 194 235 41 97.000000 1.000000 4.000000 1.000000 -60.708740 114.000000 206.000000 0.539473 -0.188891 0.820542
-14.89999962 -0.58999997 -0.25000000 194 235 41 97.000000 1.000000 4.000000 1.000000 -60.708740 114.000000 206.000000 0.163135 -0.090630 0.982432
-14.89000034 -0.56999999 -0.28000000 194 235 41 97.000000 1.000000 4.000000 1.000000 -60.708740 114.000000 206.000000 0.361118 -0.327597 0.873083
-14.86999989 -0.58999997 -0.31999999 194 235 41 97.000000 1.000000 4.000000 1.000000 -60.708740 114.000000 206.000000 0.418792 -0.331609 0.845369
-13.42000008 -1.04999995 0.49000001 194 235 41 97.000000 1.000000 4.000000 1.000000 -60.708740 114.000000 206.000000 0.338468 0.188352 0.921935
-13.46000004 -1.05999994 0.50000000 194 235 41 97.000000 1.000000 4.000000 1.000000 -60.708740 114.000000 206.000000 0.638440 0.076729 0.765838
-13.43000031 -1.05999994 0.50000000 194 235 41 97.000000 1.000000 4.000000 1.000000 -60.708740 114.000000 206.000000 0.543589 0.176177 0.820654
-13.46000004 -1.05999994 0.50000000 194 235 41 97.000000 1.000000 4.000000 1.000000 -60.708740 114.000000 206.000000 0.638440 0.076729 0.765838
-13.43000031 -1.04999995 0.49000001 194 235 41 97.000000 1.000000 4.000000 1.000000 -60.708740 114.000000 206.000000 0.435714 0.366000 0.822312
-13.43000031 -1.04999995 0.50000000 194 235 41 97.000000 1.000000 4.000000 1.000000 -60.708740 114.000000 206.000000 0.716138 0.500133 0.486841
-13.47999954 -1.07000005 0.50999999 194 235 41 97.000000 1.000000 4.000000 1.000000 -60.708740 114.000000 206.000000 0.430834 0.169722 0.886328
-13.47000027 -1.04999995 0.50999999 194 235 41 97.000000 1.000000 4.000000 1.000000 -60.708740 114.000000 206.000000 0.384430 -0.038049 0.922370
-13.47000027 -1.05999994 0.50999999 194 235 41 97.000000 1.000000 4.000000 1.000000 -60.708740 114.000000 206.000000 0.388954 0.515893 0.763262
-13.51000023 -1.11000001 0.44000000 194 235 41 97.000000 1.000000 4.000000 1.000000 -60.708740 114.000000 206.000000 0.842214 0.117417 0.526202
-13.92000008 -1.61000001 0.00000000 194 235 41 97.000000 1.000000 4.000000 1.000000 -60.708740 114.000000 206.000000 0.421998 0.906171 0.027780
-14.07999992 -1.48000002 0.08000000 194 235 41 97.000000 1.000000 4.000000 1.000000 -60.708740 114.000000 206.000000 0.383807 0.915872 0.117775
-14.03999996 -1.55999994 0.04000000 194 235 41 97.000000 1.000000 4.000000 1.000000 -60.708740 114.000000 206.000000 0.429936 0.897439 -0.098788
-14.02999973 -1.59000003 0.03000000 194 235 41 97.000000 1.000000 4.000000 1.000000 -60.708740 114.000000 206.000000 0.516392 0.817233 0.255870
-14.09000015 -1.60000002 0.01000000 194 235 41 97.000000 1.000000 4.000000 1.000000 -60.708740 114.000000 206.000000 0.629992 0.768678 0.110654
-14.15999985 -1.55999994 0.06000000 194 235 41 97.000000 1.000000 4.000000 1.000000 -60.708740 114.000000 206.000000 0.611785 0.789810 -0.043800
-14.18000031 -1.59000003 0.02000000 194 235 41 97.000000 1.000000 4.000000 1.000000 -60.708740 114.000000 206.000000 0.481128 0.811407 0.331867
-14.14000034 -1.59000003 0.01000000 194 235 41 97.000000 1.000000 4.000000 1.000000 -60.708740 114.000000 206.000000 0.486549 0.860593 0.150494
-14.14999962 -1.58000004 0.01000000 194 235 41 97.000000 1.000000 4.000000 1.000000 -60.708740 114.000000 206.000000 0.424225 0.905278 -0.022467
-14.14000034 -1.59000003 -0.01000000 194 235 41 97.000000 1.000000 4.000000 1.000000 -60.708740 114.000000 206.000000 0.334155 0.939068 0.080567
-14.17000008 -1.62000000 -0.02000000 194 235 41 97.000000 1.000000 4.000000 1.000000 -60.708740 114.000000 206.000000 0.779531 0.618652 0.097990
-14.14000034 -1.60000002 0.01000000 194 235 41 97.000000 1.000000 4.000000 1.000000 -60.708740 114.000000 206.000000 0.308664 0.950986 0.018745
-14.15999985 -1.63999999 -0.02000000 194 235 41 97.000000 1.000000 4.000000 1.000000 -60.708740 114.000000 206.000000 0.463020 0.858171 0.221707
-14.32999992 -1.13999999 0.18000001 194 235 41 97.000000 1.000000 4.000000 1.000000 -60.708740 114.000000 206.000000 0.770212 0.411974 0.486878
-14.31999969 -1.17999995 0.19000000 194 235 41 97.000000 1.000000 4.000000 1.000000 -60.708740 114.000000 206.000000 0.689977 0.677287 -0.255371
-14.34000015 -1.19000006 0.23000000 194 235 41 97.000000 1.000000 4.000000 1.000000 -60.708740 114.000000 206.000000 0.680589 0.664423 0.308771
-14.30000019 -1.21000004 0.07000000 194 235 41 97.000000 1.000000 4.000000 1.000000 -60.708740 114.000000 206.000000 0.512135 0.663257 0.545718
-14.30000019 -1.20000005 0.09000000 194 235 41 97.000000 1.000000 4.000000 1.000000 -60.708740 114.000000 206.000000 0.838816 0.544208 0.015003
-14.31999969 -1.19000006 0.09000000 194 235 41 97.000000 1.000000 4.000000 1.000000 -60.708740 114.000000 206.000000 0.644929 0.674468 0.359388
-14.30000019 -1.21000004 0.06000000 194 235 41 97.000000 1.000000 4.000000 1.000000 -60.708740 114.000000 206.000000 0.543298 0.712767 0.443610
-14.22999954 -1.32000005 0.15000001 194 235 41 97.000000 1.000000 4.000000 1.000000 -60.708740 114.000000 206.000000 0.676068 0.619867 0.398368
-14.22999954 -1.30999994 0.16000000 194 235 41 97.000000 1.000000 4.000000 1.000000 -60.708740 114.000000 206.000000 0.466893 0.779239 0.418088
-14.23999977 -1.30999994 0.14000000 194 235 41 97.000000 1.000000 4.000000 1.000000 -60.708740 114.000000 206.000000 0.602838 0.797834 -0.006866
-14.23999977 -1.29999995 0.13000000 194 235 41 97.000000 1.000000 4.000000 1.000000 -60.708740 114.000000 206.000000 0.442052 0.891120 -0.102444
-14.22999954 -1.32000005 0.10000000 194 235 41 97.000000 1.000000 4.000000 1.000000 -60.708740 114.000000 206.000000 0.631682 0.773634 -0.049683
-14.31000042 -1.27999997 0.11000000 194 235 41 97.000000 1.000000 4.000000 1.000000 -60.708740 114.000000 206.000000 0.730169 0.559523 0.392158
-14.31000042 -1.27999997 0.12000000 194 235 41 97.000000 1.000000 4.000000 1.000000 -60.708740 114.000000 206.000000 0.738508 0.600139 0.307310
-14.32999992 -1.27999997 -0.01000000 194 235 41 97.000000 1.000000 4.000000 1.000000 -60.708740 114.000000 206.000000 0.504668 0.541554 0.672332
-14.31999969 -1.27999997 -0.02000000 194 235 41 97.000000 1.000000 4.000000 1.000000 -60.708740 114.000000 206.000000 0.368731 0.765075 0.527918
-14.27999973 -1.36000001 0.11000000 194 235 41 97.000000 1.000000 4.000000 1.000000 -60.708740 114.000000 206.000000 0.656780 0.753978 0.012497
-14.30000019 -1.36000001 0.13000000 194 235 41 97.000000 1.000000 4.000000 1.000000 -60.708740 114.000000 206.000000 0.826714 0.548704 0.124373
-14.28999996 -1.37000000 0.14000000 194 235 41 97.000000 1.000000 4.000000 1.000000 -60.708740 114.000000 206.000000 0.704058 0.649530 -0.287076
-14.30000019 -1.36000001 0.14000000 194 235 41 97.000000 1.000000 4.000000 1.000000 -60.708740 114.000000 206.000000 0.641228 0.702605 -0.308500
-14.31999969 -1.35000002 0.11000000 194 235 41 97.000000 1.000000 4.000000 1.000000 -60.708740 114.000000 206.000000 0.732085 0.662362 -0.159149
-14.32999992 -1.34000003 0.08000000 194 235 41 97.000000 1.000000 4.000000 1.000000 -60.708740 114.000000 206.000000 0.851185 0.523912 -0.031627
-14.28999996 -1.30999994 0.01000000 194 235 41 97.000000 1.000000 4.000000 1.000000 -60.708740 114.000000 206.000000 0.631931 0.381139 0.674830
-14.31000042 -1.33000004 0.04000000 194 235 41 97.000000 1.000000 4.000000 1.000000 -60.708740 114.000000 206.000000 0.888891 0.436573 0.138844
-14.32999992 -1.30999994 0.02000000 194 235 41 97.000000 1.000000 4.000000 1.000000 -60.708740 114.000000 206.000000 0.587850 0.624906 0.513737
-14.31999969 -1.33000004 0.02000000 194 235 41 97.000000 1.000000 4.000000 1.000000 -60.708740 114.000000 206.000000 0.925582 0.323600 0.196421
-14.34000015 -1.38000000 -0.01000000 194 235 41 97.000000 1.000000 4.000000 1.000000 -60.708740 114.000000 206.000000 0.773158 0.596525 0.215369
-14.31000042 -1.36000001 0.00000000 194 235 41 97.000000 1.000000 4.000000 1.000000 -60.708740 114.000000 206.000000 0.713998 0.700080 -0.009743
-14.34000015 -1.38000000 -0.01000000 194 235 41 97.000000 1.000000 4.000000 1.000000 -60.708740 114.000000 206.000000 0.773158 0.596525 0.215369
-14.36999989 -1.08000004 0.18000001 194 235 41 97.000000 1.000000 4.000000 1.000000 -60.708740 114.000000 206.000000 0.717247 0.480938 0.504237
-14.40999985 -1.10000002 0.19000000 194 235 41 97.000000 1.000000 4.000000 1.000000 -60.708740 114.000000 206.000000 0.357073 0.846683 0.394495
-14.39999962 -1.10000002 0.15000001 194 235 41 97.000000 1.000000 4.000000 1.000000 -60.708740 114.000000 206.000000 0.460289 0.637710 0.617624
-14.39999962 -1.10000002 0.15000001 194 235 41 97.000000 1.000000 4.000000 1.000000 -60.708740 114.000000 206.000000 0.460289 0.637710 0.617624
-14.38000011 -1.17999995 0.25000000 194 235 41 97.000000 1.000000 4.000000 1.000000 -60.708740 114.000000 206.000000 0.486998 0.810606 -0.325194
-14.35999966 -1.16999996 0.16000000 194 235 41 97.000000 1.000000 4.000000 1.000000 -60.708740 114.000000 206.000000 0.699997 0.631784 0.332945
-14.39000034 -1.19000006 0.16000000 194 235 41 97.000000 1.000000 4.000000 1.000000 -60.708740 114.000000 206.000000 0.547411 0.823342 0.149833
-14.46000004 -1.15999997 0.16000000 194 235 41 97.000000 1.000000 4.000000 1.000000 -60.708740 114.000000 206.000000 0.623961 0.735099 0.265144
-14.38000011 -1.10000002 0.14000000 194 235 41 97.000000 1.000000 4.000000 1.000000 -60.708740 114.000000 206.000000 0.848219 0.415550 0.328393
-14.40999985 -1.05999994 0.13000000 194 235 41 97.000000 1.000000 4.000000 1.000000 -60.708740 114.000000 206.000000 0.763036 0.403576 0.504878
-14.42000008 -1.08000004 0.11000000 194 235 41 97.000000 1.000000 4.000000 1.000000 -60.708740 114.000000 206.000000 0.732657 0.313996 0.603838
-14.40999985 -1.05999994 0.07000000 194 235 41 97.000000 1.000000 4.000000 1.000000 -60.708740 114.000000 206.000000 0.669471 0.675923 0.308118
-14.42000008 -1.09000003 0.12000000 194 235 41 97.000000 1.000000 4.000000 1.000000 -60.708740 114.000000 206.000000 0.872206 0.480488 0.091589
-14.38000011 -1.11000001 0.03000000 194 235 41 97.000000 1.000000 4.000000 1.000000 -60.708740 114.000000 206.000000 0.485247 0.596065 0.639720
-14.43000031 -1.04999995 0.04000000 194 235 41 97.000000 1.000000 4.000000 1.000000 -60.708740 114.000000 206.000000 0.341768 0.562055 0.753186
-14.42000008 -1.04999995 0.03000000 194 235 41 97.000000 1.000000 4.000000 1.000000 -60.708740 114.000000 206.000000 0.812420 0.368702 0.451699
-14.43000031 -1.04999995 0.04000000 194 235 41 97.000000 1.000000 4.000000 1.000000 -60.708740 114.000000 206.000000 0.341768 0.562055 0.753186
-14.42000008 -1.04999995 0.03000000 194 235 41 97.000000 1.000000 4.000000 1.000000 -60.708740 114.000000 206.000000 0.812420 0.368702 0.451699
-14.39999962 -1.12000000 0.05000000 194 235 41 97.000000 1.000000 4.000000 1.000000 -60.708740 114.000000 206.000000 0.420524 0.784220 0.456244
-14.35000038 -1.13000000 0.13000000 194 235 41 97.000000 1.000000 4.000000 1.000000 -60.708740 114.000000 206.000000 0.780500 0.597212 0.184815
-14.38000011 -1.15999997 0.08000000 194 235 41 97.000000 1.000000 4.000000 1.000000 -60.708740 114.000000 206.000000 0.527412 0.460861 0.713753
-14.35999966 -1.16999996 0.07000000 194 235 41 97.000000 1.000000 4.000000 1.000000 -60.708740 114.000000 206.000000 0.421948 0.504039 0.753595
-14.39000034 -1.14999998 0.08000000 194 235 41 97.000000 1.000000 4.000000 1.000000 -60.708740 114.000000 206.000000 0.779029 0.511288 0.362902
-14.36999989 -1.17999995 0.08000000 194 235 41 97.000000 1.000000 4.000000 1.000000 -60.708740 114.000000 206.000000 0.854943 0.497128 0.148112
-14.35999966 -1.21000004 0.10000000 194 235 41 97.000000 1.000000 4.000000 1.000000 -60.708740 114.000000 206.000000 0.846947 0.382140 0.369662
-14.42000008 -1.13000000 0.08000000 194 235 41 97.000000 1.000000 4.000000 1.000000 -60.708740 114.000000 206.000000 0.515881 0.696189 0.499186
-14.39999962 -1.13000000 0.07000000 194 235 41 97.000000 1.000000 4.000000 1.000000 -60.708740 114.000000 206.000000 0.722896 0.486916 0.490240
-14.39999962 -1.13999999 0.08000000 194 235 41 97.000000 1.000000 4.000000 1.000000 -60.708740 114.000000 206.000000 0.663631 0.566187 0.488903
-14.42000008 -1.15999997 0.07000000 194 235 41 97.000000 1.000000 4.000000 1.000000 -60.708740 114.000000 206.000000 0.678408 0.406381 0.612060
-14.39999962 -1.13000000 0.07000000 194 235 41 97.000000 1.000000 4.000000 1.000000 -60.708740 114.000000 206.000000 0.722896 0.486916 0.490240
-14.42000008 -1.21000004 0.13000000 194 235 41 97.000000 1.000000 4.000000 1.000000 -60.708740 114.000000 206.000000 0.855044 0.517419 -0.034312
-14.43000031 -1.21000004 0.14000000 194 235 41 97.000000 1.000000 4.000000 1.000000 -60.708740 114.000000 206.000000 0.862318 0.461796 0.207733
-14.40999985 -1.17999995 0.12000000 194 235 41 97.000000 1.000000 4.000000 1.000000 -60.708740 114.000000 206.000000 0.588063 0.621763 0.517293
-14.40999985 -1.17999995 0.07000000 194 235 41 97.000000 1.000000 4.000000 1.000000 -60.708740 114.000000 206.000000 0.881860 0.250035 0.399757
-14.42000008 -1.17999995 0.08000000 194 235 41 97.000000 1.000000 4.000000 1.000000 -60.708740 114.000000 206.000000 0.664309 0.384079 0.641231
-14.43000031 -1.20000005 0.10000000 194 235 41 97.000000 1.000000 4.000000 1.000000 -60.708740 114.000000 206.000000 0.499365 0.772634 0.392010
-14.36999989 -1.13000000 0.04000000 194 235 41 97.000000 1.000000 4.000000 1.000000 -60.708740 114.000000 206.000000 0.741584 0.149525 0.653984
-14.39000034 -1.13999999 0.05000000 194 235 41 97.000000 1.000000 4.000000 1.000000 -60.708740 114.000000 206.000000 0.622883 0.293027 0.725363
-14.39000034 -1.13999999 0.05000000 194 235 41 97.000000 1.000000 4.000000 1.000000 -60.708740 114.000000 206.000000 0.622883 0.293027 0.725363
-14.42000008 -1.13000000 0.04000000 194 235 41 97.000000 1.000000 4.000000 1.000000 -60.708740 114.000000 206.000000 0.829333 0.251734 0.498835
-14.47000027 -1.05999994 0.09000000 194 235 41 97.000000 1.000000 4.000000 1.000000 -60.708740 114.000000 206.000000 0.877691 0.424689 0.222030
-14.44999981 -1.11000001 0.07000000 194 235 41 97.000000 1.000000 4.000000 1.000000 -60.708740 114.000000 206.000000 0.733048 0.213222 0.645892
-14.47000027 -1.09000003 0.08000000 194 235 41 97.000000 1.000000 4.000000 1.000000 -60.708740 114.000000 206.000000 0.318298 0.625285 0.712534
-14.44999981 -1.11000001 0.07000000 194 235 41 97.000000 1.000000 4.000000 1.000000 -60.708740 114.000000 206.000000 0.733048 0.213222 0.645892
-14.48999977 -1.08000004 0.10000000 194 235 41 97.000000 1.000000 4.000000 1.000000 -60.708740 114.000000 206.000000 0.347230 0.702612 0.621102
-14.50000000 -1.10000002 0.08000000 194 235 41 97.000000 1.000000 4.000000 1.000000 -60.708740 114.000000 206.000000 0.709808 0.659220 0.248196
-14.50000000 -1.10000002 0.08000000 194 235 41 97.000000 1.000000 4.000000 1.000000 -60.708740 114.000000 206.000000 0.709808 0.659220 0.248196
-14.43999958 -1.11000001 0.04000000 194 235 41 97.000000 1.000000 4.000000 1.000000 -60.708740 114.000000 206.000000 0.481851 0.629596 0.609449
-14.48999977 -1.10000002 0.04000000 194 235 41 97.000000 1.000000 4.000000 1.000000 -60.708740 114.000000 206.000000 0.861382 0.472945 0.185323
-14.47999954 -1.12000000 0.04000000 194 235 41 97.000000 1.000000 4.000000 1.000000 -60.708740 114.000000 206.000000 0.555541 0.689004 0.465453
-14.47999954 -1.12000000 0.04000000 194 235 41 97.000000 1.000000 4.000000 1.000000 -60.708740 114.000000 206.000000 0.555541 0.689004 0.465453
-14.48999977 -1.11000001 0.04000000 194 235 41 97.000000 1.000000 4.000000 1.000000 -60.708740 114.000000 206.000000 0.372521 0.423247 0.825887
-14.47999954 -1.11000001 0.06000000 194 235 41 97.000000 1.000000 4.000000 1.000000 -60.708740 114.000000 206.000000 0.462834 0.556403 0.690073
-14.48999977 -1.11000001 0.04000000 194 235 41 97.000000 1.000000 4.000000 1.000000 -60.708740 114.000000 206.000000 0.372521 0.423247 0.825887
-14.44999981 -1.13000000 0.07000000 194 235 41 97.000000 1.000000 4.000000 1.000000 -60.708740 114.000000 206.000000 0.555583 0.333350 0.761712
-14.47000027 -1.13000000 0.08000000 194 235 41 97.000000 1.000000 4.000000 1.000000 -60.708740 114.000000 206.000000 0.776516 0.620919 0.107156
-14.44999981 -1.13000000 0.07000000 194 235 41 97.000000 1.000000 4.000000 1.000000 -60.708740 114.000000 206.000000 0.555583 0.333350 0.761712
-14.47000027 -1.13999999 0.09000000 194 235 41 97.000000 1.000000 4.000000 1.000000 -60.708740 114.000000 206.000000 0.737882 0.490271 0.463859
-14.43999958 -1.19000006 0.11000000 194 235 41 97.000000 1.000000 4.000000 1.000000 -60.708740 114.000000 206.000000 0.904252 0.319061 0.283774
-14.43999958 -1.20000005 0.11000000 194 235 41 97.000000 1.000000 4.000000 1.000000 -60.708740 114.000000 206.000000 0.665116 0.690759 0.283676
-14.43999958 -1.19000006 0.10000000 194 235 41 97.000000 1.000000 4.000000 1.000000 -60.708740 114.000000 206.000000 0.755045 0.655660 0.004141
-14.46000004 -1.15999997 0.06000000 194 235 41 97.000000 1.000000 4.000000 1.000000 -60.708740 114.000000 206.000000 0.778622 0.623185 0.073401
-14.44999981 -1.16999996 0.05000000 194 235 41 97.000000 1.000000 4.000000 1.000000 -60.708740 114.000000 206.000000 0.564172 0.638272 0.523754
-14.46000004 -1.13999999 0.00000000 194 235 41 97.000000 1.000000 4.000000 1.000000 -60.708740 114.000000 206.000000 0.652597 0.681891 0.330367
-14.47000027 -1.13999999 0.01000000 194 235 41 97.000000 1.000000 4.000000 1.000000 -60.708740 114.000000 206.000000 0.701679 0.481675 0.525009
-14.44999981 -1.14999998 0.01000000 194 235 41 97.000000 1.000000 4.000000 1.000000 -60.708740 114.000000 206.000000 0.629654 0.713393 0.307580
-14.46000004 -1.13000000 0.00000000 194 235 41 97.000000 1.000000 4.000000 1.000000 -60.708740 114.000000 206.000000 0.875302 0.427958 0.225163
-14.51000023 -1.16999996 0.06000000 194 235 41 97.000000 1.000000 4.000000 1.000000 -60.708740 114.000000 206.000000 0.558704 0.688790 0.461973
-14.48999977 -1.21000004 0.01000000 194 235 41 97.000000 1.000000 4.000000 1.000000 -60.708740 114.000000 206.000000 0.384881 0.774633 0.501807
-14.47999954 -1.17999995 0.02000000 194 235 41 97.000000 1.000000 4.000000 1.000000 -60.708740 114.000000 206.000000 0.882342 0.404593 0.240367
-14.40999985 -1.24000001 0.25000000 194 235 41 97.000000 1.000000 4.000000 1.000000 -60.708740 114.000000 206.000000 0.512112 0.792895 0.330240
-14.36999989 -1.25999999 0.16000000 194 235 41 97.000000 1.000000 4.000000 1.000000 -60.708740 114.000000 206.000000 0.771365 0.613758 0.168215
-14.35000038 -1.27999997 0.17000000 194 235 41 97.000000 1.000000 4.000000 1.000000 -60.708740 114.000000 206.000000 0.671185 0.567411 0.477027
-14.35999966 -1.26999998 0.17000000 194 235 41 97.000000 1.000000 4.000000 1.000000 -60.708740 114.000000 206.000000 0.609118 0.731263 0.306970
-14.40999985 -1.27999997 0.17000000 194 235 41 97.000000 1.000000 4.000000 1.000000 -60.708740 114.000000 206.000000 0.825986 0.553077 -0.108873
-14.35999966 -1.30999994 0.18000001 194 235 41 97.000000 1.000000 4.000000 1.000000 -60.708740 114.000000 206.000000 0.724883 0.677056 -0.127041
-14.38000011 -1.36000001 0.18000001 194 235 41 97.000000 1.000000 4.000000 1.000000 -60.708740 114.000000 206.000000 0.790870 0.610422 0.043702
-14.38000011 -1.36000001 0.16000000 194 235 41 97.000000 1.000000 4.000000 1.000000 -60.708740 114.000000 206.000000 0.847115 0.497512 0.186754
-14.42000008 -1.29999995 0.20000000 194 235 41 97.000000 1.000000 4.000000 1.000000 -60.708740 114.000000 206.000000 0.406599 0.877715 -0.253562
-14.43000031 -1.37000000 0.20999999 194 235 41 97.000000 1.000000 4.000000 1.000000 -60.708740 114.000000 206.000000 0.689178 0.704459 0.169620
-14.43000031 -1.36000001 0.18000001 194 235 41 97.000000 1.000000 4.000000 1.000000 -60.708740 114.000000 206.000000 0.521688 0.806815 -0.277294
-14.43999958 -1.28999996 0.23000000 194 235 41 97.000000 1.000000 4.000000 1.000000 -60.708740 114.000000 206.000000 0.664818 0.733851 -0.139567
-14.51000023 -1.24000001 0.16000000 194 235 41 97.000000 1.000000 4.000000 1.000000 -60.708740 114.000000 206.000000 0.622558 0.691549 0.366307
-14.50000000 -1.32000005 0.25000000 194 235 41 97.000000 1.000000 4.000000 1.000000 -60.708740 114.000000 206.000000 0.451148 0.864825 -0.220328
-14.50000000 -1.30999994 0.25000000 194 235 41 97.000000 1.000000 4.000000 1.000000 -60.708740 114.000000 206.000000 0.609899 0.789869 0.064275
-14.50000000 -1.30999994 0.23999999 194 235 41 97.000000 1.000000 4.000000 1.000000 -60.708740 114.000000 206.000000 0.670080 0.682935 0.290850
-14.50000000 -1.32000005 0.25000000 194 235 41 97.000000 1.000000 4.000000 1.000000 -60.708740 114.000000 206.000000 0.451148 0.864825 -0.220328
-14.50000000 -1.32000005 0.23999999 194 235 41 97.000000 1.000000 4.000000 1.000000 -60.708740 114.000000 206.000000 0.547766 0.828223 -0.118318
-14.47000027 -1.33000004 0.22000000 194 235 41 97.000000 1.000000 4.000000 1.000000 -60.708740 114.000000 206.000000 0.840318 0.502380 0.203668
-14.44999981 -1.32000005 0.20999999 194 235 41 97.000000 1.000000 4.000000 1.000000 -60.708740 114.000000 206.000000 0.430911 0.880940 -0.195601
-14.47000027 -1.29999995 0.15000001 194 235 41 97.000000 1.000000 4.000000 1.000000 -60.708740 114.000000 206.000000 0.723767 0.665374 -0.182863
-14.44999981 -1.35000002 0.20000000 194 235 41 97.000000 1.000000 4.000000 1.000000 -60.708740 114.000000 206.000000 0.826585 0.541658 0.152851
-14.43999958 -1.36000001 0.20000000 194 235 41 97.000000 1.000000 4.000000 1.000000 -60.708740 114.000000 206.000000 0.849738 0.517294 0.101739
-14.46000004 -1.38000000 0.16000000 194 235 41 97.000000 1.000000 4.000000 1.000000 -60.708740 114.000000 206.000000 0.512003 0.829904 0.221613
-14.46000004 -1.38000000 0.16000000 194 235 41 97.000000 1.000000 4.000000 1.000000 -60.708740 114.000000 206.000000 0.512003 0.829904 0.221613
-14.46000004 -1.38000000 0.16000000 194 235 41 97.000000 1.000000 4.000000 1.000000 -60.708740 114.000000 206.000000 0.512003 0.829904 0.221613
-14.47999954 -1.29999995 0.22000000 194 235 41 97.000000 1.000000 4.000000 1.000000 -60.708740 114.000000 206.000000 0.597343 0.784863 0.164836
-14.51000023 -1.33000004 0.15000001 194 235 41 97.000000 1.000000 4.000000 1.000000 -60.708740 114.000000 206.000000 0.340323 0.934881 0.100886
-14.50000000 -1.37000000 0.15000001 194 235 41 97.000000 1.000000 4.000000 1.000000 -60.708740 114.000000 206.000000 0.580082 0.813238 0.046350
-14.40999985 -1.25000000 0.11000000 194 235 41 97.000000 1.000000 4.000000 1.000000 -60.708740 114.000000 206.000000 0.664369 0.736032 0.129888
-14.40999985 -1.22000003 0.09000000 194 235 41 97.000000 1.000000 4.000000 1.000000 -60.708740 114.000000 206.000000 0.891190 0.378126 0.250601
-14.39999962 -1.25999999 0.11000000 194 235 41 97.000000 1.000000 4.000000 1.000000 -60.708740 114.000000 206.000000 0.512430 0.842167 0.167839
-14.42000008 -1.23000002 0.04000000 194 235 41 97.000000 1.000000 4.000000 1.000000 -60.708740 114.000000 206.000000 0.654638 0.567129 0.499814
-14.40999985 -1.26999998 0.02000000 194 235 41 97.000000 1.000000 4.000000 1.000000 -60.708740 114.000000 206.000000 0.621007 0.634398 0.460315
-14.35000038 -1.35000002 0.12000000 194 235 41 97.000000 1.000000 4.000000 1.000000 -60.708740 114.000000 206.000000 0.774811 0.615952 0.142373
-14.35000038 -1.35000002 0.12000000 194 235 41 97.000000 1.000000 4.000000 1.000000 -60.708740 114.000000 206.000000 0.774811 0.615952 0.142373
-14.38000011 -1.37000000 0.11000000 194 235 41 97.000000 1.000000 4.000000 1.000000 -60.708740 114.000000 206.000000 0.593495 0.803130 -0.052409
-14.43000031 -1.30999994 0.08000000 194 235 41 97.000000 1.000000 4.000000 1.000000 -60.708740 114.000000 206.000000 0.518403 0.792758 0.320612
-14.39999962 -1.34000003 0.09000000 194 235 41 97.000000 1.000000 4.000000 1.000000 -60.708740 114.000000 206.000000 0.576024 0.596295 0.559132
-14.39000034 -1.32000005 0.00000000 194 235 41 97.000000 1.000000 4.000000 1.000000 -60.708740 114.000000 206.000000 0.885364 0.409425 0.220232
-14.35999966 -1.29999995 0.02000000 194 235 41 97.000000 1.000000 4.000000 1.000000 -60.708740 114.000000 206.000000 0.759230 0.427989 0.490302
-14.38000011 -1.35000002 0.04000000 194 235 41 97.000000 1.000000 4.000000 1.000000 -60.708740 114.000000 206.000000 0.535312 0.558953 0.633255
-14.35999966 -1.37000000 0.02000000 194 235 41 97.000000 1.000000 4.000000 1.000000 -60.708740 114.000000 206.000000 0.408585 0.870331 0.274921
-14.35000038 -1.37000000 -0.02000000 194 235 41 97.000000 1.000000 4.000000 1.000000 -60.708740 114.000000 206.000000 0.354150 0.709933 0.608747
-14.35000038 -1.37000000 -0.01000000 194 235 41 97.000000 1.000000 4.000000 1.000000 -60.708740 114.000000 206.000000 0.570314 0.810290 0.134802
-14.39999962 -1.32000005 0.03000000 194 235 41 97.000000 1.000000 4.000000 1.000000 -60.708740 114.000000 206.000000 0.630214 0.776391 -0.006895
-14.39999962 -1.32000005 0.03000000 194 235 41 97.000000 1.000000 4.000000 1.000000 -60.708740 114.000000 206.000000 0.630214 0.776391 -0.006895
-14.43000031 -1.30999994 0.04000000 194 235 41 97.000000 1.000000 4.000000 1.000000 -60.708740 114.000000 206.000000 0.599012 0.716530 0.357449
-14.39999962 -1.30999994 -0.01000000 194 235 41 97.000000 1.000000 4.000000 1.000000 -60.708740 114.000000 206.000000 0.834855 0.545703 0.072288
-14.42000008 -1.38000000 0.03000000 194 235 41 97.000000 1.000000 4.000000 1.000000 -60.708740 114.000000 206.000000 0.773325 0.621925 0.123198
-14.42000008 -1.34000003 0.04000000 194 235 41 97.000000 1.000000 4.000000 1.000000 -60.708740 114.000000 206.000000 0.537462 0.838440 0.090294
-14.40999985 -1.37000000 0.04000000 194 235 41 97.000000 1.000000 4.000000 1.000000 -60.708740 114.000000 206.000000 0.834911 0.363210 0.413525
-14.39999962 -1.38000000 0.05000000 194 235 41 97.000000 1.000000 4.000000 1.000000 -60.708740 114.000000 206.000000 0.866934 0.423598 0.262661
-14.42000008 -1.38000000 0.03000000 194 235 41 97.000000 1.000000 4.000000 1.000000 -60.708740 114.000000 206.000000 0.773325 0.621925 0.123198
-14.39999962 -1.38000000 0.04000000 194 235 41 97.000000 1.000000 4.000000 1.000000 -60.708740 114.000000 206.000000 0.872191 0.489017 0.012058
-14.39999962 -1.38000000 0.05000000 194 235 41 97.000000 1.000000 4.000000 1.000000 -60.708740 114.000000 206.000000 0.866934 0.423598 0.262661
-14.43000031 -1.34000003 0.06000000 194 235 41 97.000000 1.000000 4.000000 1.000000 -60.708740 114.000000 206.000000 0.789894 0.554339 0.262251
-14.42000008 -1.36000001 -0.01000000 194 235 41 97.000000 1.000000 4.000000 1.000000 -60.708740 114.000000 206.000000 0.569163 0.602942 0.559030
-14.40999985 -1.38000000 0.02000000 194 235 41 97.000000 1.000000 4.000000 1.000000 -60.708740 114.000000 206.000000 0.381648 0.728898 0.568377
-14.43000031 -1.36000001 0.02000000 194 235 41 97.000000 1.000000 4.000000 1.000000 -60.708740 114.000000 206.000000 0.454011 0.618193 0.641647
-14.44999981 -1.24000001 0.11000000 194 235 41 97.000000 1.000000 4.000000 1.000000 -60.708740 114.000000 206.000000 0.554341 0.829385 0.069470
-14.43999958 -1.25000000 0.08000000 194 235 41 97.000000 1.000000 4.000000 1.000000 -60.708740 114.000000 206.000000 0.653326 0.656617 0.376855
-14.44999981 -1.22000003 0.08000000 194 235 41 97.000000 1.000000 4.000000 1.000000 -60.708740 114.000000 206.000000 0.913403 0.341985 0.220775
-14.43999958 -1.24000001 0.08000000 194 235 41 97.000000 1.000000 4.000000 1.000000 -60.708740 114.000000 206.000000 0.570941 0.503573 0.648414
-14.51000023 -1.23000002 0.12000000 194 235 41 97.000000 1.000000 4.000000 1.000000 -60.708740 114.000000 206.000000 0.389922 0.761898 0.517177
-14.43999958 -1.23000002 0.06000000 194 235 41 97.000000 1.000000 4.000000 1.000000 -60.708740 114.000000 206.000000 0.394081 0.578755 0.713963
-14.47000027 -1.25000000 0.01000000 194 235 41 97.000000 1.000000 4.000000 1.000000 -60.708740 114.000000 206.000000 0.752902 0.649765 0.104611
-14.44999981 -1.26999998 0.03000000 194 235 41 97.000000 1.000000 4.000000 1.000000 -60.708740 114.000000 206.000000 0.877240 0.442294 0.186616
-14.43999958 -1.28999996 0.03000000 194 235 41 97.000000 1.000000 4.000000 1.000000 -60.708740 114.000000 206.000000 0.769332 0.398491 0.499334
-14.47000027 -1.26999998 0.04000000 194 235 41 97.000000 1.000000 4.000000 1.000000 -60.708740 114.000000 206.000000 0.685104 0.438400 0.581755
-14.43999958 -1.27999997 -0.01000000 194 235 41 97.000000 1.000000 4.000000 1.000000 -60.708740 114.000000 206.000000 0.836471 0.201177 0.509748
-14.48999977 -1.22000003 0.05000000 194 235 41 97.000000 1.000000 4.000000 1.000000 -60.708740 114.000000 206.000000 0.435947 0.772296 0.462071
-14.48999977 -1.27999997 0.00000000 194 235 41 97.000000 1.000000 4.000000 1.000000 -60.708740 114.000000 206.000000 0.710725 0.656906 0.251682
-14.46000004 -1.32000005 0.08000000 194 235 41 97.000000 1.000000 4.000000 1.000000 -60.708740 114.000000 206.000000 0.719355 0.400007 0.567911
-14.44999981 -1.36000001 0.12000000 194 235 41 97.000000 1.000000 4.000000 1.000000 -60.708740 114.000000 206.000000 0.875740 0.416089 0.244847
-14.44999981 -1.38000000 0.14000000 194 235 41 97.000000 1.000000 4.000000 1.000000 -60.708740 114.000000 206.000000 0.704605 0.663437 0.251758
-14.44999981 -1.38000000 0.09000000 194 235 41 97.000000 1.000000 4.000000 1.000000 -60.708740 114.000000 206.000000 0.595811 0.743560 0.303526
-14.44999981 -1.38000000 0.09000000 194 235 41 97.000000 1.000000 4.000000 1.000000 -60.708740 114.000000 206.000000 0.595811 0.743560 0.303526
-14.50000000 -1.33000004 0.11000000 194 235 41 97.000000 1.000000 4.000000 1.000000 -60.708740 114.000000 206.000000 0.503695 0.684422 0.527122
-14.50000000 -1.29999995 0.08000000 194 235 41 97.000000 1.000000 4.000000 1.000000 -60.708740 114.000000 206.000000 0.698400 0.710113 -0.089313
-14.47999954 -1.33000004 0.10000000 194 235 41 97.000000 1.000000 4.000000 1.000000 -60.708740 114.000000 206.000000 0.350886 0.814500 0.462026
-14.50000000 -1.38000000 0.09000000 194 235 41 97.000000 1.000000 4.000000 1.000000 -60.708740 114.000000 206.000000 0.814451 0.451056 0.364989
-14.48999977 -1.36000001 0.10000000 194 235 41 97.000000 1.000000 4.000000 1.000000 -60.708740 114.000000 206.000000 0.802739 0.596202 -0.012392
-14.50000000 -1.34000003 0.07000000 194 235 41 97.000000 1.000000 4.000000 1.000000 -60.708740 114.000000 206.000000 0.788461 0.509047 0.345253
-14.44999981 -1.33000004 0.04000000 194 235 41 97.000000 1.000000 4.000000 1.000000 -60.708740 114.000000 206.000000 0.638859 0.762225 0.104274
-14.44999981 -1.33000004 0.06000000 194 235 41 97.000000 1.000000 4.000000 1.000000 -60.708740 114.000000 206.000000 0.561683 0.826496 -0.037631
-14.43999958 -1.33000004 0.06000000 194 235 41 97.000000 1.000000 4.000000 1.000000 -60.708740 114.000000 206.000000 0.431343 0.732125 0.527196
-14.43999958 -1.29999995 0.04000000 194 235 41 97.000000 1.000000 4.000000 1.000000 -60.708740 114.000000 206.000000 0.383579 0.689784 0.614056
-14.46000004 -1.32000005 0.05000000 194 235 41 97.000000 1.000000 4.000000 1.000000 -60.708740 114.000000 206.000000 0.884965 0.389504 0.255192
-14.43999958 -1.33000004 0.01000000 194 235 41 97.000000 1.000000 4.000000 1.000000 -60.708740 114.000000 206.000000 0.753025 0.615257 0.233265
-14.43999958 -1.29999995 0.02000000 194 235 41 97.000000 1.000000 4.000000 1.000000 -60.708740 114.000000 206.000000 0.529016 0.821728 0.211911
-14.47000027 -1.37000000 0.05000000 194 235 41 97.000000 1.000000 4.000000 1.000000 -60.708740 114.000000 206.000000 0.705184 0.677164 0.210154
-14.43999958 -1.37000000 0.01000000 194 235 41 97.000000 1.000000 4.000000 1.000000 -60.708740 114.000000 206.000000 0.671618 0.635314 0.381189
-14.50000000 -1.30999994 0.00000000 194 235 41 97.000000 1.000000 4.000000 1.000000 -60.708740 114.000000 206.000000 0.545547 0.767628 0.336340
-14.48999977 -1.35000002 0.06000000 194 235 41 97.000000 1.000000 4.000000 1.000000 -60.708740 114.000000 206.000000 0.480021 0.740651 0.470124
-14.47999954 -1.36000001 0.05000000 194 235 41 97.000000 1.000000 4.000000 1.000000 -60.708740 114.000000 206.000000 0.723722 0.413791 0.552271
-14.47999954 -1.35000002 0.06000000 194 235 41 97.000000 1.000000 4.000000 1.000000 -60.708740 114.000000 206.000000 0.436964 0.761005 0.479515
-14.50000000 -1.36000001 0.01000000 194 235 41 97.000000 1.000000 4.000000 1.000000 -60.708740 114.000000 206.000000 0.902055 0.359355 0.239081
-14.48999977 -1.37000000 0.00000000 194 235 41 97.000000 1.000000 4.000000 1.000000 -60.708740 114.000000 206.000000 0.694504 0.719456 0.006931
-14.26000023 -1.38999999 0.17000000 194 235 41 97.000000 1.000000 4.000000 1.000000 -60.708740 114.000000 206.000000 0.372960 0.919229 -0.126169
-14.26000023 -1.38999999 0.15000001 194 235 41 97.000000 1.000000 4.000000 1.000000 -60.708740 114.000000 206.000000 0.612205 0.784616 0.097894
-14.26000023 -1.46000004 0.15000001 194 235 41 97.000000 1.000000 4.000000 1.000000 -60.708740 114.000000 206.000000 0.359027 0.880146 -0.310551
-14.26000023 -1.46000004 0.15000001 194 235 41 97.000000 1.000000 4.000000 1.000000 -60.708740 114.000000 206.000000 0.359027 0.880146 -0.310551
-14.30000019 -1.39999998 0.15000001 194 235 41 97.000000 1.000000 4.000000 1.000000 -60.708740 114.000000 206.000000 0.826406 0.556207 -0.087671
-14.30000019 -1.39999998 0.15000001 194 235 41 97.000000 1.000000 4.000000 1.000000 -60.708740 114.000000 206.000000 0.826406 0.556207 -0.087671
-14.31000042 -1.49000001 0.15000001 194 235 41 97.000000 1.000000 4.000000 1.000000 -60.708740 114.000000 206.000000 0.657881 0.751661 0.046890
-14.21000004 -1.46000004 0.12000000 194 235 41 97.000000 1.000000 4.000000 1.000000 -60.708740 114.000000 206.000000 0.729043 0.613169 -0.304170
-14.22000027 -1.44000006 0.07000000 194 235 41 97.000000 1.000000 4.000000 1.000000 -60.708740 114.000000 206.000000 0.725284 0.667261 -0.169487
-14.26000023 -1.46000004 0.11000000 194 235 41 97.000000 1.000000 4.000000 1.000000 -60.708740 114.000000 206.000000 0.679926 0.686266 -0.258340
-14.21000004 -1.46000004 0.06000000 194 235 41 97.000000 1.000000 4.000000 1.000000 -60.708740 114.000000 206.000000 0.861614 0.506591 -0.031406
-14.22000027 -1.53999996 0.12000000 194 235 41 97.000000 1.000000 4.000000 1.000000 -60.708740 114.000000 206.000000 0.391429 0.908625 -0.145550
-14.19999981 -1.50999999 0.11000000 194 235 41 97.000000 1.000000 4.000000 1.000000 -60.708740 114.000000 206.000000 0.524935 0.839602 0.139689
-14.19999981 -1.50999999 0.11000000 194 235 41 97.000000 1.000000 4.000000 1.000000 -60.708740 114.000000 206.000000 0.524935 0.839602 0.139689
-14.19999981 -1.50999999 0.12000000 194 235 41 97.000000 1.000000 4.000000 1.000000 -60.708740 114.000000 206.000000 0.553566 0.829637 0.072575
-14.22000027 -1.52999997 0.11000000 194 235 41 97.000000 1.000000 4.000000 1.000000 -60.708740 114.000000 206.000000 0.746919 0.625291 0.226103
-14.21000004 -1.53999996 0.11000000 194 235 41 97.000000 1.000000 4.000000 1.000000 -60.708740 114.000000 206.000000 0.732125 0.592518 -0.336031
-14.22000027 -1.50999999 0.08000000 194 235 41 97.000000 1.000000 4.000000 1.000000 -60.708740 114.000000 206.000000 0.394579 0.864389 0.311671
-14.26000023 -1.50000000 0.06000000 194 235 41 97.000000 1.000000 4.000000 1.000000 -60.708740 114.000000 206.000000 0.654272 0.733949 0.182338
-14.26000023 -1.50999999 0.06000000 194 235 41 97.000000 1.000000 4.000000 1.000000 -60.708740 114.000000 206.000000 0.710904 0.689862 -0.136770
-14.23999977 -1.52999997 0.05000000 194 235 41 97.000000 1.000000 4.000000 1.000000 -60.708740 114.000000 206.000000 0.760024 0.638063 0.123448
-14.23999977 -1.52999997 0.05000000 194 235 41 97.000000 1.000000 4.000000 1.000000 -60.708740 114.000000 206.000000 0.760024 0.638063 0.123448
-14.27000046 -1.40999997 0.13000000 194 235 41 97.000000 1.000000 4.000000 1.000000 -60.708740 114.000000 206.000000 0.570108 0.699754 0.430490
-14.28999996 -1.39999998 0.11000000 194 235 41 97.000000 1.000000 4.000000 1.000000 -60.708740 114.000000 206.000000 0.777104 0.628684 0.029404
-14.34000015 -1.39999998 0.13000000 194 235 41 97.000000 1.000000 4.000000 1.000000 -60.708740 114.000000 206.000000 0.530352 0.847185 0.031683
-14.32999992 -1.46000004 0.11000000 194 235 41 97.000000 1.000000 4.000000 1.000000 -60.708740 114.000000 206.000000 0.547435 0.830541 -0.102554
-14.31999969 -1.42999995 0.09000000 194 235 41 97.000000 1.000000 4.000000 1.000000 -60.708740 114.000000 206.000000 0.690352 0.708479 0.146530
-14.30000019 -1.40999997 0.04000000 194 235 41 97.000000 1.000000 4.000000 1.000000 -60.708740 114.000000 206.000000 0.654436 0.705390 0.272284
-14.30000019 -1.42999995 0.00000000 194 235 41 97.000000 1.000000 4.000000 1.000000 -60.708740 114.000000 206.000000 0.486448 0.864637 0.125582
-14.31000042 -1.39999998 0.03000000 194 235 41 97.000000 1.000000 4.000000 1.000000 -60.708740 114.000000 206.000000 0.669963 0.741084 -0.044095
-14.31000042 -1.39999998 0.01000000 194 235 41 97.000000 1.000000 4.000000 1.000000 -60.708740 114.000000 206.000000 0.625055 0.517229 0.584620
-14.31999969 -1.45000005 0.04000000 194 235 41 97.000000 1.000000 4.000000 1.000000 -60.708740 114.000000 206.000000 0.592554 0.790572 -0.154514
-14.34000015 -1.46000004 0.03000000 194 235 41 97.000000 1.000000 4.000000 1.000000 -60.708740 114.000000 206.000000 0.739501 0.673154 -0.001382
-14.34000015 -1.44000006 -0.01000000 194 235 41 97.000000 1.000000 4.000000 1.000000 -60.708740 114.000000 206.000000 0.881562 0.462574 0.094202
-14.31000042 -1.46000004 -0.01000000 194 235 41 97.000000 1.000000 4.000000 1.000000 -60.708740 114.000000 206.000000 0.715574 0.393154 0.577394
