//X Y Z R G B PointSourceId ScanDirectionFlag NumberOfReturns ReturnNumber GpsTime Intensity Classification Nx Ny Nz
12.44999981 -7.53000021 0.00000000 84 22 202 97.000000 1.000000 4.000000 1.000000 -60.708740 114.000000 206.000000 0.790866 -0.605122 -0.091421
12.43999958 -7.55999994 0.01000000 84 22 202 97.000000 1.000000 4.000000 1.000000 -60.708740 114.000000 206.000000 0.796108 -0.601726 -0.064318
12.39000034 -7.55999994 0.13000000 84 22 202 97.000000 1.000000 4.000000 1.000000 -60.708740 114.000000 206.000000 -0.492508 0.630343 0.600086
12.38000011 -7.53999996 0.08000000 84 22 202 97.000000 1.000000 4.000000 1.000000 -60.708740 114.000000 206.000000 0.849950 -0.414875 -0.324752
12.36999989 -7.55000019 0.11000000 84 22 202 97.000000 1.000000 4.000000 1.000000 -60.708740 114.000000 206.000000 -0.257749 0.834985 0.486174
12.38000011 -7.55999994 0.12000000 84 22 202 97.000000 1.000000 4.000000 1.000000 -60.708740 114.000000 206.000000 0.565715 -0.558960 -0.606243
12.85999966 -7.78999996 0.52999997 84 22 202 97.000000 1.000000 4.000000 1.000000 -60.708740 114.000000 206.000000 0.814389 -0.561289 -0.147394
12.85000038 -7.82000017 0.56000000 84 22 202 97.000000 1.000000 4.000000 1.000000 -60.708740 114.000000 206.000000 0.706293 -0.350700 -0.614948
12.77000046 -7.76999998 0.55000001 84 22 202 97.000000 1.000000 4.000000 1.000000 -60.708740 114.000000 206.000000 0.801250 -0.396611 -0.447994
12.77000046 -7.76999998 0.55000001 84 22 202 97.000000 1.000000 4.000000 1.000000 -60.708740 114.000000 206.000000 0.801250 -0.396611 -0.447994
12.78999996 -7.90000010 0.51999998 84 22 202 97.000000 1.000000 4.000000 1.000000 -60.708740 114.000000 206.000000 0.759705 -0.625190 -0.178844
12.61999989 -7.78999996 0.57999998 84 22 202 97.000000 1.000000 4.000000 1.000000 -60.708740 114.000000 206.000000 -0.489833 0.637961 0.594196
12.63000011 -7.76999998 0.56999999 84 22 202 97.000000 1.000000 4.000000 1.000000 -60.708740 114.000000 206.000000 -0.600607 0.791509 0.113073
12.60999966 -7.80000019 0.52999997 84 22 202 97.000000 1.000000 4.000000 1.000000 -60.708740 114.000000 206.000000 -0.663565 0.747738 0.023849
12.63000011 -7.76999998 0.56000000 84 22 202 97.000000 1.000000 4.000000 1.000000 -60.708740 114.000000 206.000000 0.724429 -0.479085 -0.495662
12.57999992 -7.76999998 0.61000001 84 22 202 97.000000 1.000000 4.000000 1.000000 -60.708740 114.000000 206.000000 0.613958 -0.556453 -0.559835
12.53999996 -7.76000023 0.56000000 84 22 202 97.000000 1.000000 4.000000 1.000000 -60.708740 114.000000 206.000000 0.524421 -0.591870 -0.612105
12.31999969 -6.90000010 0.37000000 84 22 202 97.000000 1.000000 4.000000 1.000000 -60.708740 114.000000 206.000000 -0.258186 0.887982 0.380564
12.31999969 -6.90999985 0.36000001 84 22 202 97.000000 1.000000 4.000000 1.000000 -60.708740 114.000000 206.000000 0.302107 0.950405 -0.073906
12.32999992 -6.96999979 0.44000000 84 22 202 97.000000 1.000000 4.000000 1.000000 -60.708740 114.000000 206.000000 0.366361 0.857934 0.360178
12.26000023 -6.96000004 0.40000001 84 22 202 97.000000 1.000000 4.000000 1.000000 -60.708740 114.000000 206.000000 -0.040476 0.928345 0.369510
12.28999996 -7.00000000 0.44999999 84 22 202 97.000000 1.000000 4.000000 1.000000 -60.708740 114.000000 206.000000 0.304502 -0.835429 -0.457534
12.27000046 -6.98999977 0.36000001 84 22 202 97.000000 1.000000 4.000000 1.000000 -60.708740 114.000000 206.000000 -0.141222 0.986180 0.086632
12.32999992 -7.01999998 0.47000000 84 22 202 97.000000 1.000000 4.000000 1.000000 -60.708740 114.000000 206.000000 0.276874 0.906799 0.317893
12.31999969 -7.01999998 0.43000001 84 22 202 97.000000 1.000000 4.000000 1.000000 -60.708740 114.000000 206.000000 -0.263219 0.879904 0.395581
12.31000042 -7.05000019 0.44999999 84 22 202 97.000000 1.000000 4.000000 1.000000 -60.708740 114.000000 206.000000 -0.139023 0.887170 0.440002
12.27000046 -7.01999998 0.41000000 84 22 202 97.000000 1.000000 4.000000 1.000000 -60.708740 114.000000 206.000000 0.145045 0.942116 0.302290
12.27999973 -7.01000023 0.41999999 84 22 202 97.000000 1.000000 4.000000 1.000000 -60.708740 114.000000 206.000000 -0.303890 0.853051 0.424212
12.27999973 -7.01000023 0.41000000 84 22 202 97.000000 1.000000 4.000000 1.000000 -60.708740 114.000000 206.000000 0.101486 0.859060 0.501714
12.01000023 -7.07000017 0.02000000 84 22 202 97.000000 1.000000 4.000000 1.000000 -60.708740 114.000000 206.000000 -0.474629 0.850693 0.225942
11.92000008 -6.90999985 0.14000000 84 22 202 97.000000 1.000000 4.000000 1.000000 -60.708740 114.000000 206.000000 -0.258253 0.925999 0.275374
11.84000015 -6.86999989 0.07000000 84 22 202 97.000000 1.000000 4.000000 1.000000 -60.708740 114.000000 206.000000 -0.322777 0.941765 0.094309
11.86999989 -6.88000011 0.07000000 84 22 202 97.000000 1.000000 4.000000 1.000000 -60.708740 114.000000 206.000000 -0.654638 0.755567 -0.023830
11.85000038 -6.90999985 0.07000000 84 22 202 97.000000 1.000000 4.000000 1.000000 -60.708740 114.000000 206.000000 -0.481844 0.875957 0.022945
11.85000038 -6.90999985 0.08000000 84 22 202 97.000000 1.000000 4.000000 1.000000 -60.708740 114.000000 206.000000 -0.468351 0.875115 0.121743
11.86999989 -6.88000011 0.07000000 84 22 202 97.000000 1.000000 4.000000 1.000000 -60.708740 114.000000 206.000000 -0.654638 0.755567 -0.023830
11.85000038 -6.90999985 0.08000000 84 22 202 97.000000 1.000000 4.000000 1.000000 -60.708740 114.000000 206.000000 -0.468351 0.875115 0.121743
11.85000038 -6.90999985 0.06000000 84 22 202 97.000000 1.000000 4.000000 1.000000 -60.708740 114.000000 206.000000 -0.297239 0.816228 0.495399
11.96000004 -7.07000017 0.17000000 84 22 202 97.000000 1.000000 4.000000 1.000000 -60.708740 114.000000 206.000000 -0.431282 0.819595 0.377173
11.96000004 -7.07000017 0.16000000 84 22 202 97.000000 1.000000 4.000000 1.000000 -60.708740 114.000000 206.000000 -0.419891 0.698712 0.579217
11.93000031 -7.05000019 0.16000000 84 22 202 97.000000 1.000000 4.000000 1.000000 -60.708740 114.000000 206.000000 -0.538035 0.819935 0.195511
11.94999981 -7.07000017 0.16000000 84 22 202 97.000000 1.000000 4.000000 1.000000 -60.708740 114.000000 206.000000 -0.485613 0.705892 0.515651
11.96000004 -7.05000019 0.15000001 84 22 202 97.000000 1.000000 4.000000 1.000000 -60.708740 114.000000 206.000000 -0.631411 0.621362 0.463928
11.90999985 -6.98999977 0.15000001 84 22 202 97.000000 1.000000 4.000000 1.000000 -60.708740 114.000000 206.000000 0.860857 -0.471316 -0.191797
11.89000034 -7.07999992 0.18000001 84 22 202 97.000000 1.000000 4.000000 1.000000 -60.708740 114.000000 206.000000 -0.467013 0.843089 0.266644
11.85000038 -7.03000021 0.15000001 84 22 202 97.000000 1.000000 4.000000 1.000000 -60.708740 114.000000 206.000000 0.829278 -0.557928 0.031842
11.86999989 -7.07000017 0.19000000 84 22 202 97.000000 1.000000 4.000000 1.000000 -60.708740 114.000000 206.000000 0.664397 -0.509651 -0.546656
11.86999989 -7.07999992 0.15000001 84 22 202 97.000000 1.000000 4.000000 1.000000 -60.708740 114.000000 206.000000 0.844966 -0.518070 -0.132801
11.94999981 -7.05999994 0.13000000 84 22 202 97.000000 1.000000 4.000000 1.000000 -60.708740 114.000000 206.000000 0.722192 -0.691579 -0.012524
11.89999962 -6.92000008 0.11000000 84 22 202 97.000000 1.000000 4.000000 1.000000 -60.708740 114.000000 206.000000 -0.229121 0.966404 0.116480
11.85000038 -6.92000008 0.09000000 84 22 202 97.000000 1.000000 4.000000 1.000000 -60.708740 114.000000 206.000000 0.699606 -0.535975 -0.472526
11.86999989 -6.94000006 0.10000000 84 22 202 97.000000 1.000000 4.000000 1.000000 -60.708740 114.000000 206.000000 -0.392106 0.907365 0.151463
11.86999989 -6.94000006 0.09000000 84 22 202 97.000000 1.000000 4.000000 1.000000 -60.708740 114.000000 206.000000 -0.301248 0.769855 0.562648
11.85000038 -6.94999981 0.10000000 84 22 202 97.000000 1.000000 4.000000 1.000000 -60.708740 114.000000 206.000000 -0.608082 0.770441 0.191461
11.85000038 -6.92000008 0.08000000 84 22 202 97.000000 1.000000 4.000000 1.000000 -60.708740 114.000000 206.000000 -0.471745 0.869462 0.146604
11.85000038 -6.92000008 0.08000000 84 22 202 97.000000 1.000000 4.000000 1.000000 -60.708740 114.000000 206.000000 -0.471745 0.869462 0.146604
11.85000038 -6.96999979 0.09000000 84 22 202 97.000000 1.000000 4.000000 1.000000 -60.708740 114.000000 206.000000 0.494925 -0.662697 -0.562034
11.84000015 -6.92000008 0.06000000 84 22 202 97.000000 1.000000 4.000000 1.000000 -60.708740 114.000000 206.000000 0.635017 -0.624964 -0.454062
11.88000011 -7.01999998 0.11000000 84 22 202 97.000000 1.000000 4.000000 1.000000 -60.708740 114.000000 206.000000 -0.545547 0.767628 0.336340
11.92000008 -7.01999998 0.11000000 84 22 202 97.000000 1.000000 4.000000 1.000000 -60.708740 114.000000 206.000000 -0.498449 0.861991 0.092305
11.90999985 -7.03000021 0.12000000 84 22 202 97.000000 1.000000 4.000000 1.000000 -60.708740 114.000000 206.000000 0.675693 -0.612606 -0.410064
11.90999985 -7.07999992 0.11000000 84 22 202 97.000000 1.000000 4.000000 1.000000 -60.708740 114.000000 206.000000 0.736030 -0.628857 -0.250597
11.85000038 -7.01999998 0.11000000 84 22 202 97.000000 1.000000 4.000000 1.000000 -60.708740 114.000000 206.000000 0.827180 -0.455343 -0.329296
11.85999966 -7.05999994 0.14000000 84 22 202 97.000000 1.000000 4.000000 1.000000 -60.708740 114.000000 206.000000 -0.605284 0.500751 0.618773
11.82999992 -6.90000010 0.13000000 84 22 202 97.000000 1.000000 4.000000 1.000000 -60.708740 114.000000 206.000000 0.709749 -0.421879 -0.564159
11.80000019 -6.88999987 0.08000000 84 22 202 97.000000 1.000000 4.000000 1.000000 -60.708740 114.000000 206.000000 0.780381 -0.413715 -0.468877
11.80000019 -6.90000010 0.08000000 84 22 202 97.000000 1.000000 4.000000 1.000000 -60.708740 114.000000 206.000000 -0.547070 0.799563 0.247818
11.78999996 -6.90999985 0.08000000 84 22 202 97.000000 1.000000 4.000000 1.000000 -60.708740 114.000000 206.000000 -0.482531 0.869694 0.103908
11.78999996 -6.90000010 0.08000000 84 22 202 97.000000 1.000000 4.000000 1.000000 -60.708740 114.000000 206.000000 0.639409 -0.416861 -0.646052
11.78999996 -6.90999985 0.08000000 84 22 202 97.000000 1.000000 4.000000 1.000000 -60.708740 114.000000 206.000000 -0.482531 0.869694 0.103908
11.77999973 -7.07999992 0.28999999 84 22 202 97.000000 1.000000 4.000000 1.000000 -60.708740 114.000000 206.000000 0.701070 -0.646274 -0.301380
11.77000046 -7.03000021 0.20000000 84 22 202 97.000000 1.000000 4.000000 1.000000 -60.708740 114.000000 206.000000 0.903158 -0.411548 -0.122200
11.76000023 -7.03999996 0.20000000 84 22 202 97.000000 1.000000 4.000000 1.000000 -60.708740 114.000000 206.000000 0.804104 -0.579014 -0.134758
11.77000046 -7.03000021 0.20000000 84 22 202 97.000000 1.000000 4.000000 1.000000 -60.708740 114.000000 206.000000 0.903158 -0.411548 -0.122200
11.76000023 -7.03000021 0.19000000 84 22 202 97.000000 1.000000 4.000000 1.000000 -60.708740 114.000000 206.000000 -0.558242 0.774540 0.297411
11.76000023 -7.03999996 0.18000001 84 22 202 97.000000 1.000000 4.000000 1.000000 -60.708740 114.000000 206.000000 0.683787 -0.604315 -0.408948
11.77000046 -7.01999998 0.18000001 84 22 202 97.000000 1.000000 4.000000 1.000000 -60.708740 114.000000 206.000000 0.695184 -0.358224 -0.623212
11.76000023 -7.03000021 0.17000000 84 22 202 97.000000 1.000000 4.000000 1.000000 -60.708740 114.000000 206.000000 0.674265 -0.377522 -0.634699
11.78999996 -7.05999994 0.17000000 84 22 202 97.000000 1.000000 4.000000 1.000000 -60.708740 114.000000 206.000000 0.745331 -0.569959 -0.345873
11.72000027 -7.03999996 0.19000000 84 22 202 97.000000 1.000000 4.000000 1.000000 -60.708740 114.000000 206.000000 0.935802 -0.097730 -0.338709
11.75000000 -7.01000023 0.15000001 84 22 202 97.000000 1.000000 4.000000 1.000000 -60.708740 114.000000 206.000000 -0.624579 0.637974 0.450433
11.75000000 -7.07999992 0.20999999 84 22 202 97.000000 1.000000 4.000000 1.000000 -60.708740 114.000000 206.000000 0.916701 -0.399521 0.006465
11.72000027 -7.07999992 0.23000000 84 22 202 97.000000 1.000000 4.000000 1.000000 -60.708740 114.000000 206.000000 -0.562128 0.767121 0.309091
11.73999977 -7.07999992 0.16000000 84 22 202 97.000000 1.000000 4.000000 1.000000 -60.708740 114.000000 206.000000 0.985249 -0.159292 -0.062537
11.71000004 -7.07999992 0.20000000 84 22 202 97.000000 1.000000 4.000000 1.000000 -60.708740 114.000000 206.000000 0.962320 -0.023292 -0.270921
11.69999981 -7.05000019 0.18000001 84 22 202 97.000000 1.000000 4.000000 1.000000 -60.708740 114.000000 206.000000 0.832994 -0.414135 -0.366895
11.81000042 -6.94000006 0.12000000 84 22 202 97.000000 1.000000 4.000000 1.000000 -60.708740 114.000000 206.000000 -0.437301 0.876085 0.203086
11.80000019 -6.94000006 0.10000000 84 22 202 97.000000 1.000000 4.000000 1.000000 -60.708740 114.000000 206.000000 0.725642 -0.483208 -0.489850
11.80000019 -6.92999983 0.10000000 84 22 202 97.000000 1.000000 4.000000 1.000000 -60.708740 114.000000 206.000000 0.835429 -0.304502 -0.457534
11.81999969 -6.98999977 0.12000000 84 22 202 97.000000 1.000000 4.000000 1.000000 -60.708740 114.000000 206.000000 0.865181 -0.501457 0.001337
11.77000046 -6.94999981 0.10000000 84 22 202 97.000000 1.000000 4.000000 1.000000 -60.708740 114.000000 206.000000 -0.501231 0.747738 0.435495
11.77000046 -6.96999979 0.12000000 84 22 202 97.000000 1.000000 4.000000 1.000000 -60.708740 114.000000 206.000000 -0.807816 0.443099 0.388711
11.77999973 -7.00000000 0.09000000 84 22 202 97.000000 1.000000 4.000000 1.000000 -60.708740 114.000000 206.000000 -0.529747 0.800122 0.281379
11.78999996 -6.96999979 0.07000000 84 22 202 97.000000 1.000000 4.000000 1.000000 -60.708740 114.000000 206.000000 0.785710 -0.498530 -0.366234
11.81999969 -7.01000023 0.13000000 84 22 202 97.000000 1.000000 4.000000 1.000000 -60.708740 114.000000 206.000000 -0.689795 0.723512 -0.026693
11.72000027 -6.98999977 0.11000000 84 22 202 97.000000 1.000000 4.000000 1.000000 -60.708740 114.000000 206.000000 -0.680486 0.729608 0.067904
11.72000027 -7.03000021 0.13000000 84 22 202 97.000000 1.000000 4.000000 1.000000 -60.708740 114.000000 206.000000 0.883265 -0.167340 -0.437995
11.72999954 -7.03000021 0.14000000 84 22 202 97.000000 1.000000 4.000000 1.000000 -60.708740 114.000000 206.000000 0.582227 -0.442092 -0.682324
11.72000027 -7.03999996 0.14000000 84 22 202 97.000000 1.000000 4.000000 1.000000 -60.708740 114.000000 206.000000 0.846281 -0.510712 -0.151595
12.28999996 -7.40000010 0.66000003 84 22 202 97.000000 1.000000 4.000000 1.000000 -60.708740 114.000000 206.000000 -0.715958 0.353902 0.601796
12.22000027 -7.36000013 0.68000001 84 22 202 97.000000 1.000000 4.000000 1.000000 -60.708740 114.000000 206.000000 0.749275 -0.628274 -0.209425
12.18000031 -7.36000013 0.72000003 84 22 202 97.000000 1.000000 4.000000 1.000000 -60.708740 114.000000 206.000000 0.612855 -0.468457 -0.636362
12.18999958 -7.34999990 0.70999998 84 22 202 97.000000 1.000000 4.000000 1.000000 -60.708740 114.000000 206.000000 0.648090 -0.577390 -0.496589
12.18000031 -7.34999990 0.69999999 84 22 202 97.000000 1.000000 4.000000 1.000000 -60.708740 114.000000 206.000000 0.676251 -0.643503 -0.358593
12.18999958 -7.34999990 0.70999998 84 22 202 97.000000 1.000000 4.000000 1.000000 -60.708740 114.000000 206.000000 0.648090 -0.577390 -0.496589
12.18000031 -7.34000015 0.69999999 84 22 202 97.000000 1.000000 4.000000 1.000000 -60.708740 114.000000 206.000000 0.617217 -0.479310 -0.623944
12.18000031 -7.34999990 0.67000002 84 22 202 97.000000 1.000000 4.000000 1.000000 -60.708740 114.000000 206.000000 0.740120 -0.655707 -0.149230
12.17000008 -7.36000013 0.67000002 84 22 202 97.000000 1.000000 4.000000 1.000000 -60.708740 114.000000 206.000000 0.686436 -0.610349 -0.395321
12.14999962 -7.38000011 0.67000002 84 22 202 97.000000 1.000000 4.000000 1.000000 -60.708740 114.000000 206.000000 0.698191 -0.541556 -0.468238
12.15999985 -7.40999985 0.72000003 84 22 202 97.000000 1.000000 4.000000 1.000000 -60.708740 114.000000 206.000000 0.803533 -0.309051 -0.508746
12.15999985 -7.40999985 0.72000003 84 22 202 97.000000 1.000000 4.000000 1.000000 -60.708740 114.000000 206.000000 0.803533 -0.309051 -0.508746
12.17000008 -7.40999985 0.68000001 84 22 202 97.000000 1.000000 4.000000 1.000000 -60.708740 114.000000 206.000000 -0.794516 0.532310 0.292218
12.13000011 -7.36999989 0.66000003 84 22 202 97.000000 1.000000 4.000000 1.000000 -60.708740 114.000000 206.000000 0.674752 -0.661745 -0.326808
12.10000038 -7.36999989 0.69000000 84 22 202 97.000000 1.000000 4.000000 1.000000 -60.708740 114.000000 206.000000 0.872502 -0.356030 -0.334638
12.09000015 -7.40999985 0.69999999 84 22 202 97.000000 1.000000 4.000000 1.000000 -60.708740 114.000000 206.000000 0.960645 -0.132007 -0.244409
12.10999966 -7.38999987 0.68000001 84 22 202 97.000000 1.000000 4.000000 1.000000 -60.708740 114.000000 206.000000 0.933256 0.120902 -0.338254
12.09000015 -7.40000010 0.69000000 84 22 202 97.000000 1.000000 4.000000 1.000000 -60.708740 114.000000 206.000000 0.961751 0.001207 -0.273924
12.09000015 -7.38999987 0.69000000 84 22 202 97.000000 1.000000 4.000000 1.000000 -60.708740 114.000000 206.000000 0.926058 -0.073497 -0.370156
12.09000015 -7.40000010 0.69000000 84 22 202 97.000000 1.000000 4.000000 1.000000 -60.708740 114.000000 206.000000 0.961751 0.001207 -0.273924
12.06000042 -7.36000013 0.69000000 84 22 202 97.000000 1.000000 4.000000 1.000000 -60.708740 114.000000 206.000000 0.998178 0.037048 -0.047633
12.05000019 -7.38000011 0.66000003 84 22 202 97.000000 1.000000 4.000000 1.000000 -60.708740 114.000000 206.000000 0.806549 -0.540279 -0.239952
12.07999992 -7.38999987 0.66000003 84 22 202 97.000000 1.000000 4.000000 1.000000 -60.708740 114.000000 206.000000 0.972071 -0.220303 0.080902
12.02000046 -7.36000013 0.72000003 84 22 202 97.000000 1.000000 4.000000 1.000000 -60.708740 114.000000 206.000000 0.892936 -0.268921 -0.361037
12.02999973 -7.36000013 0.69999999 84 22 202 97.000000 1.000000 4.000000 1.000000 -60.708740 114.000000 206.000000 -0.749293 0.092018 0.655814
12.02999973 -7.40000010 0.73000002 84 22 202 97.000000 1.000000 4.000000 1.000000 -60.708740 114.000000 206.000000 0.799491 -0.097570 -0.592701
12.02999973 -7.40000010 0.73000002 84 22 202 97.000000 1.000000 4.000000 1.000000 -60.708740 114.000000 206.000000 0.799491 -0.097570 -0.592701
12.01000023 -7.40000010 0.69000000 84 22 202 97.000000 1.000000 4.000000 1.000000 -60.708740 114.000000 206.000000 0.938524 0.278646 -0.203786
11.93000031 -7.26999998 0.67000002 84 22 202 97.000000 1.000000 4.000000 1.000000 -60.708740 114.000000 206.000000 0.889377 0.030947 -0.456125
11.98999977 -7.36999989 0.68000001 84 22 202 97.000000 1.000000 4.000000 1.000000 -60.708740 114.000000 206.000000 0.893616 -0.111174 -0.434846
11.93000031 -7.40000010 0.70999998 84 22 202 97.000000 1.000000 4.000000 1.000000 -60.708740 114.000000 206.000000 0.982842 -0.183633 0.017324
11.88000011 -7.32999992 0.67000002 84 22 202 97.000000 1.000000 4.000000 1.000000 -60.708740 114.000000 206.000000 0.993965 0.054785 -0.095036
11.84000015 -7.32999992 0.66000003 84 22 202 97.000000 1.000000 4.000000 1.000000 -60.708740 114.000000 206.000000 0.967263 -0.081758 -0.240244
11.90999985 -7.38000011 0.70999998 84 22 202 97.000000 1.000000 4.000000 1.000000 -60.708740 114.000000 206.000000 0.856003 -0.231802 -0.462090
11.89000034 -7.36000013 0.68000001 84 22 202 97.000000 1.000000 4.000000 1.000000 -60.708740 114.000000 206.000000 0.904847 -0.425734 0.001302
11.90999985 -7.38999987 0.70999998 84 22 202 97.000000 1.000000 4.000000 1.000000 -60.708740 114.000000 206.000000 0.842214 -0.117417 -0.526202
11.88000011 -7.40000010 0.72000003 84 22 202 97.000000 1.000000 4.000000 1.000000 -60.708740 114.000000 206.000000 0.784496 -0.238624 -0.572385
11.90999985 -7.38999987 0.70999998 84 22 202 97.000000 1.000000 4.000000 1.000000 -60.708740 114.000000 206.000000 0.842214 -0.117417 -0.526202
11.89999962 -7.40999985 0.69000000 84 22 202 97.000000 1.000000 4.000000 1.000000 -60.708740 114.000000 206.000000 0.940731 -0.316269 -0.122470
11.89000034 -7.42000008 0.68000001 84 22 202 97.000000 1.000000 4.000000 1.000000 -60.708740 114.000000 206.000000 0.982598 0.183434 -0.029209
11.89000034 -7.42000008 0.68000001 84 22 202 97.000000 1.000000 4.000000 1.000000 -60.708740 114.000000 206.000000 0.982598 0.183434 -0.029209
11.89999962 -7.42000008 0.68000001 84 22 202 97.000000 1.000000 4.000000 1.000000 -60.708740 114.000000 206.000000 0.992651 0.094160 0.076009
11.85999966 -7.36000013 0.69999999 84 22 202 97.000000 1.000000 4.000000 1.000000 -60.708740 114.000000 206.000000 0.957057 -0.289457 -0.016013
11.85999966 -7.38000011 0.67000002 84 22 202 97.000000 1.000000 4.000000 1.000000 -60.708740 114.000000 206.000000 0.782336 -0.004125 -0.622844
11.86999989 -7.38000011 0.68000001 84 22 202 97.000000 1.000000 4.000000 1.000000 -60.708740 114.000000 206.000000 -0.798807 0.481846 0.360184
11.86999989 -7.38000011 0.68000001 84 22 202 97.000000 1.000000 4.000000 1.000000 -60.708740 114.000000 206.000000 -0.798807 0.481846 0.360184
11.84000015 -7.40000010 0.70999998 84 22 202 97.000000 1.000000 4.000000 1.000000 -60.708740 114.000000 206.000000 0.794993 -0.430554 -0.427329
11.84000015 -7.38999987 0.69000000 84 22 202 97.000000 1.000000 4.000000 1.000000 -60.708740 114.000000 206.000000 0.935305 -0.040214 -0.351550
11.84000015 -7.40000010 0.67000002 84 22 202 97.000000 1.000000 4.000000 1.000000 -60.708740 114.000000 206.000000 0.799120 -0.200162 -0.566871
11.84000015 -7.38999987 0.69000000 84 22 202 97.000000 1.000000 4.000000 1.000000 -60.708740 114.000000 206.000000 0.935305 -0.040214 -0.351550
11.86999989 -7.38999987 0.68000001 84 22 202 97.000000 1.000000 4.000000 1.000000 -60.708740 114.000000 206.000000 0.824283 -0.323094 -0.464940
11.89000034 -7.44000006 0.68000001 84 22 202 97.000000 1.000000 4.000000 1.000000 -60.708740 114.000000 206.000000 0.955252 -0.177690 -0.236475
11.85999966 -7.42999983 0.69000000 84 22 202 97.000000 1.000000 4.000000 1.000000 -60.708740 114.000000 206.000000 0.971714 -0.025286 -0.234801
11.81000042 -7.44000006 0.69000000 84 22 202 97.000000 1.000000 4.000000 1.000000 -60.708740 114.000000 206.000000 0.999192 0.013323 0.037918
11.81000042 -7.42999983 0.69000000 84 22 202 97.000000 1.000000 4.000000 1.000000 -60.708740 114.000000 206.000000 0.939511 0.019070 -0.341987
11.80000019 -7.46999979 0.67000002 84 22 202 97.000000 1.000000 4.000000 1.000000 -60.708740 114.000000 206.000000 0.951402 -0.239542 -0.193528
11.77999973 -7.46000004 0.68000001 84 22 202 97.000000 1.000000 4.000000 1.000000 -60.708740 114.000000 206.000000 0.988852 0.061441 0.135634
11.78999996 -7.44000006 0.69000000 84 22 202 97.000000 1.000000 4.000000 1.000000 -60.708740 114.000000 206.000000 0.990473 -0.053693 0.126808
11.77999973 -7.46000004 0.67000002 84 22 202 97.000000 1.000000 4.000000 1.000000 -60.708740 114.000000 206.000000 0.974846 -0.215415 0.057201
12.25000000 -7.23999977 0.56999999 84 22 202 97.000000 1.000000 4.000000 1.000000 -60.708740 114.000000 206.000000 -0.476068 0.686540 0.549566
12.34000015 -7.25000000 0.41999999 84 22 202 97.000000 1.000000 4.000000 1.000000 -60.708740 114.000000 206.000000 -0.069362 0.986355 0.149305
12.31999969 -7.23999977 0.46000001 84 22 202 97.000000 1.000000 4.000000 1.000000 -60.708740 114.000000 206.000000 0.081467 0.994348 0.068075
12.32999992 -7.23999977 0.46000001 84 22 202 97.000000 1.000000 4.000000 1.000000 -60.708740 114.000000 206.000000 -0.163486 0.982129 -0.093248
12.32999992 -7.25000000 0.44000000 84 22 202 97.000000 1.000000 4.000000 1.000000 -60.708740 114.000000 206.000000 0.174697 0.977562 -0.117704
12.31999969 -7.26000023 0.61000001 84 22 202 97.000000 1.000000 4.000000 1.000000 -60.708740 114.000000 206.000000 -0.112475 0.991828 -0.060214
12.30000019 -7.28999996 0.60000002 84 22 202 97.000000 1.000000 4.000000 1.000000 -60.708740 114.000000 206.000000 -0.611233 0.778613 0.141973
12.31999969 -7.30000019 0.56999999 84 22 202 97.000000 1.000000 4.000000 1.000000 -60.708740 114.000000 206.000000 -0.375361 0.848845 0.372246
12.30000019 -7.32000017 0.57999998 84 22 202 97.000000 1.000000 4.000000 1.000000 -60.708740 114.000000 206.000000 -0.184310 0.946126 0.266226
12.31000042 -7.32000017 0.57999998 84 22 202 97.000000 1.000000 4.000000 1.000000 -60.708740 114.000000 206.000000 -0.603414 0.752288 0.264489
12.31000042 -7.32000017 0.57999998 84 22 202 97.000000 1.000000 4.000000 1.000000 -60.708740 114.000000 206.000000 -0.603414 0.752288 0.264489
12.31000042 -7.32000017 0.58999997 84 22 202 97.000000 1.000000 4.000000 1.000000 -60.708740 114.000000 206.000000 -0.548940 0.796041 0.254921
12.31000042 -7.32000017 0.57999998 84 22 202 97.000000 1.000000 4.000000 1.000000 -60.708740 114.000000 206.000000 -0.603414 0.752288 0.264489
12.26000023 -7.30000019 0.56999999 84 22 202 97.000000 1.000000 4.000000 1.000000 -60.708740 114.000000 206.000000 -0.615646 0.786264 -0.052607
12.31999969 -7.28000021 0.55000001 84 22 202 97.000000 1.000000 4.000000 1.000000 -60.708740 114.000000 206.000000 -0.059264 0.880688 0.469976
12.30000019 -7.28000021 0.52999997 84 22 202 97.000000 1.000000 4.000000 1.000000 -60.708740 114.000000 206.000000 0.056111 0.995700 0.073715
12.30000019 -7.28000021 0.54000002 84 22 202 97.000000 1.000000 4.000000 1.000000 -60.708740 114.000000 206.000000 -0.472837 0.849891 0.232618
12.32999992 -7.30000019 0.49000001 84 22 202 97.000000 1.000000 4.000000 1.000000 -60.708740 114.000000 206.000000 0.057180 0.852127 0.520202
12.34000015 -7.32999992 0.51999998 84 22 202 97.000000 1.000000 4.000000 1.000000 -60.708740 114.000000 206.000000 0.231117 0.964493 -0.127824
12.27999973 -7.28999996 0.56000000 84 22 202 97.000000 1.000000 4.000000 1.000000 -60.708740 114.000000 206.000000 0.664423 -0.680589 -0.308771
12.28999996 -7.28000021 0.54000002 84 22 202 97.000000 1.000000 4.000000 1.000000 -60.708740 114.000000 206.000000 -0.593875 0.800940 0.076212
12.27000046 -7.28000021 0.51999998 84 22 202 97.000000 1.000000 4.000000 1.000000 -60.708740 114.000000 206.000000 -0.214956 0.946079 0.242339
12.28999996 -7.26999998 0.49000001 84 22 202 97.000000 1.000000 4.000000 1.000000 -60.708740 114.000000 206.000000 -0.241037 0.830580 0.502033
12.28999996 -7.28000021 0.50999999 84 22 202 97.000000 1.000000 4.000000 1.000000 -60.708740 114.000000 206.000000 -0.608420 0.750648 0.257591
12.27000046 -7.32000017 0.50999999 84 22 202 97.000000 1.000000 4.000000 1.000000 -60.708740 114.000000 206.000000 0.567735 -0.706773 -0.422077
12.31000042 -7.38999987 0.63000000 84 22 202 97.000000 1.000000 4.000000 1.000000 -60.708740 114.000000 206.000000 0.712351 -0.681844 -0.166266
12.28999996 -7.34000015 0.57999998 84 22 202 97.000000 1.000000 4.000000 1.000000 -60.708740 114.000000 206.000000 -0.430843 0.782021 0.450353
12.26000023 -7.36000013 0.56999999 84 22 202 97.000000 1.000000 4.000000 1.000000 -60.708740 114.000000 206.000000 -0.620439 0.689560 0.373580
12.26000023 -7.34999990 0.58999997 84 22 202 97.000000 1.000000 4.000000 1.000000 -60.708740 114.000000 206.000000 -0.594789 0.716040 0.365394
12.27999973 -7.40999985 0.62000000 84 22 202 97.000000 1.000000 4.000000 1.000000 -60.708740 114.000000 206.000000 -0.659034 0.724162 0.203137
12.31999969 -7.34999990 0.52999997 84 22 202 97.000000 1.000000 4.000000 1.000000 -60.708740 114.000000 206.000000 0.037399 0.838015 0.544364
12.27999973 -7.34000015 0.54000002 84 22 202 97.000000 1.000000 4.000000 1.000000 -60.708740 114.000000 206.000000 -0.705546 0.708352 -0.021040
12.25000000 -7.26999998 0.57999998 84 22 202 97.000000 1.000000 4.000000 1.000000 -60.708740 114.000000 206.000000 0.578216 -0.638903 -0.507414
12.25000000 -7.30999994 0.61000001 84 22 202 97.000000 1.000000 4.000000 1.000000 -60.708740 114.000000 206.000000 0.646462 -0.704211 -0.293555
12.22999954 -7.32000017 0.56999999 84 22 202 97.000000 1.000000 4.000000 1.000000 -60.708740 114.000000 206.000000 0.832867 -0.505833 -0.224645
12.21000004 -7.28999996 0.63000000 84 22 202 97.000000 1.000000 4.000000 1.000000 -60.708740 114.000000 206.000000 -0.364644 0.831894 0.418315
12.23999977 -7.30000019 0.52999997 84 22 202 97.000000 1.000000 4.000000 1.000000 -60.708740 114.000000 206.000000 0.632013 -0.661872 -0.403095
12.22999954 -7.30999994 0.54000002 84 22 202 97.000000 1.000000 4.000000 1.000000 -60.708740 114.000000 206.000000 -0.403597 0.729769 0.551857
12.22000027 -7.30999994 0.52999997 84 22 202 97.000000 1.000000 4.000000 1.000000 -60.708740 114.000000 206.000000 -0.345513 0.889958 0.297650
12.22000027 -7.30999994 0.51999998 84 22 202 97.000000 1.000000 4.000000 1.000000 -60.708740 114.000000 206.000000 -0.384129 0.654504 0.651206
12.22000027 -7.30000019 0.50000000 84 22 202 97.000000 1.000000 4.000000 1.000000 -60.708740 114.000000 206.000000 -0.613797 0.720685 0.322284
12.25000000 -7.30000019 0.51999998 84 22 202 97.000000 1.000000 4.000000 1.000000 -60.708740 114.000000 206.000000 -0.337548 0.940219 -0.045265
12.18000031 -7.26999998 0.55000001 84 22 202 97.000000 1.000000 4.000000 1.000000 -60.708740 114.000000 206.000000 0.791075 -0.609934 0.046700
12.19999981 -7.28000021 0.50000000 84 22 202 97.000000 1.000000 4.000000 1.000000 -60.708740 114.000000 206.000000 -0.460331 0.624376 0.631071
12.18000031 -7.28000021 0.49000001 84 22 202 97.000000 1.000000 4.000000 1.000000 -60.708740 114.000000 206.000000 0.708288 -0.439570 -0.552365
12.19999981 -7.28000021 0.50000000 84 22 202 97.000000 1.000000 4.000000 1.000000 -60.708740 114.000000 206.000000 -0.460331 0.624376 0.631071
12.21000004 -7.32000017 0.54000002 84 22 202 97.000000 1.000000 4.000000 1.000000 -60.708740 114.000000 206.000000 0.704675 -0.599549 -0.379440
12.21000004 -7.32000017 0.54000002 84 22 202 97.000000 1.000000 4.000000 1.000000 -60.708740 114.000000 206.000000 0.704675 -0.599549 -0.379440
12.18000031 -7.32000017 0.50000000 84 22 202 97.000000 1.000000 4.000000 1.000000 -60.708740 114.000000 206.000000 -0.555843 0.670034 0.492030
12.18999958 -7.30999994 0.51999998 84 22 202 97.000000 1.000000 4.000000 1.000000 -60.708740 114.000000 206.000000 0.862189 -0.243959 -0.443975
12.22999954 -7.34999990 0.60000002 84 22 202 97.000000 1.000000 4.000000 1.000000 -60.708740 114.000000 206.000000 -0.739220 0.413239 0.531778
12.23999977 -7.34000015 0.60000002 84 22 202 97.000000 1.000000 4.000000 1.000000 -60.708740 114.000000 206.000000 -0.522492 0.795648 0.306507
12.22000027 -7.34999990 0.56999999 84 22 202 97.000000 1.000000 4.000000 1.000000 -60.708740 114.000000 206.000000 0.855920 -0.516807 -0.017634
12.25000000 -7.36000013 0.58999997 84 22 202 97.000000 1.000000 4.000000 1.000000 -60.708740 114.000000 206.000000 -0.438314 0.834210 0.334627
12.22000027 -7.34000015 0.57999998 84 22 202 97.000000 1.000000 4.000000 1.000000 -60.708740 114.000000 206.000000 -0.548768 0.742066 0.384957
12.21000004 -7.36000013 0.57999998 84 22 202 97.000000 1.000000 4.000000 1.000000 -60.708740 114.000000 206.000000 -0.611549 0.362338 0.703363
12.18999958 -7.38000011 0.52999997 84 22 202 97.000000 1.000000 4.000000 1.000000 -60.708740 114.000000 206.000000 0.953133 -0.237947 -0.186863
12.18999958 -7.38999987 0.56000000 84 22 202 97.000000 1.000000 4.000000 1.000000 -60.708740 114.000000 206.000000 0.963274 -0.237253 -0.125757
12.34000015 -7.26000023 0.44000000 84 22 202 97.000000 1.000000 4.000000 1.000000 -60.708740 114.000000 206.000000 0.229185 0.873300 0.429909
12.31000042 -7.30000019 0.47999999 84 22 202 97.000000 1.000000 4.000000 1.000000 -60.708740 114.000000 206.000000 -0.118496 0.991979 -0.044013
12.32999992 -7.28999996 0.47999999 84 22 202 97.000000 1.000000 4.000000 1.000000 -60.708740 114.000000 206.000000 0.281671 0.929939 0.236377
12.31999969 -7.38000011 0.31999999 84 22 202 97.000000 1.000000 4.000000 1.000000 -60.708740 114.000000 206.000000 0.764129 0.620759 0.175399
12.30000019 -7.38000011 0.34000000 84 22 202 97.000000 1.000000 4.000000 1.000000 -60.708740 114.000000 206.000000 0.071868 0.986127 0.149627
12.30000019 -7.38999987 0.36000001 84 22 202 97.000000 1.000000 4.000000 1.000000 -60.708740 114.000000 206.000000 -0.069529 0.977065 0.201268
12.22000027 -7.28999996 0.47999999 84 22 202 97.000000 1.000000 4.000000 1.000000 -60.708740 114.000000 206.000000 -0.668783 0.558157 0.491111
12.25000000 -7.30999994 0.47000000 84 22 202 97.000000 1.000000 4.000000 1.000000 -60.708740 114.000000 206.000000 -0.633161 0.602931 0.485368
12.21000004 -7.28999996 0.46000001 84 22 202 97.000000 1.000000 4.000000 1.000000 -60.708740 114.000000 206.000000 -0.592335 0.534958 0.602461
12.18999958 -7.30000019 0.46000001 84 22 202 97.000000 1.000000 4.000000 1.000000 -60.708740 114.000000 206.000000 0.830662 -0.485976 -0.271712
12.18000031 -7.32999992 0.36000001 84 22 202 97.000000 1.000000 4.000000 1.000000 -60.708740 114.000000 206.000000 0.899696 -0.435935 0.022526
12.18999958 -7.32999992 0.33000001 84 22 202 97.000000 1.000000 4.000000 1.000000 -60.708740 114.000000 206.000000 0.951581 -0.140135 -0.273596
12.21000004 -7.30999994 0.34000000 84 22 202 97.000000 1.000000 4.000000 1.000000 -60.708740 114.000000 206.000000 0.838114 -0.433940 -0.330546
12.21000004 -7.36000013 0.36000001 84 22 202 97.000000 1.000000 4.000000 1.000000 -60.708740 114.000000 206.000000 0.713576 -0.595467 -0.369091
12.18999958 -7.34000015 0.34000000 84 22 202 97.000000 1.000000 4.000000 1.000000 -60.708740 114.000000 206.000000 0.927390 -0.322265 -0.189981
12.02999973 -7.25000000 0.60000002 84 22 202 97.000000 1.000000 4.000000 1.000000 -60.708740 114.000000 206.000000 0.977584 -0.172661 -0.120490
12.02999973 -7.25000000 0.60000002 84 22 202 97.000000 1.000000 4.000000 1.000000 -60.708740 114.000000 206.000000 0.977584 -0.172661 -0.120490
12.02999973 -7.25000000 0.61000001 84 22 202 97.000000 1.000000 4.000000 1.000000 -60.708740 114.000000 206.000000 0.917046 -0.240419 -0.318159
12.10000038 -7.23999977 0.47999999 84 22 202 97.000000 1.000000 4.000000 1.000000 -60.708740 114.000000 206.000000 0.685276 -0.672497 -0.279542
12.10999966 -7.23999977 0.47999999 84 22 202 97.000000 1.000000 4.000000 1.000000 -60.708740 114.000000 206.000000 -0.389918 0.861520 0.325189
12.15999985 -7.30999994 0.56999999 84 22 202 97.000000 1.000000 4.000000 1.000000 -60.708740 114.000000 206.000000 0.595026 -0.500631 -0.628739
12.17000008 -7.28999996 0.49000001 84 22 202 97.000000 1.000000 4.000000 1.000000 -60.708740 114.000000 206.000000 -0.430001 0.736439 0.522262
12.17000008 -7.28999996 0.49000001 84 22 202 97.000000 1.000000 4.000000 1.000000 -60.708740 114.000000 206.000000 -0.430001 0.736439 0.522262
12.17000008 -7.28999996 0.49000001 84 22 202 97.000000 1.000000 4.000000 1.000000 -60.708740 114.000000 206.000000 -0.430001 0.736439 0.522262
12.14999962 -7.32999992 0.52999997 84 22 202 97.000000 1.000000 4.000000 1.000000 -60.708740 114.000000 206.000000 0.875906 -0.482479 -0.001329
12.14999962 -7.32000017 0.55000001 84 22 202 97.000000 1.000000 4.000000 1.000000 -60.708740 114.000000 206.000000 0.852127 -0.520202 -0.057180
12.14000034 -7.32999992 0.50999999 84 22 202 97.000000 1.000000 4.000000 1.000000 -60.708740 114.000000 206.000000 0.870944 -0.347459 -0.347459
12.14000034 -7.32999992 0.50999999 84 22 202 97.000000 1.000000 4.000000 1.000000 -60.708740 114.000000 206.000000 0.870944 -0.347459 -0.347459
12.14999962 -7.32999992 0.51999998 84 22 202 97.000000 1.000000 4.000000 1.000000 -60.708740 114.000000 206.000000 -0.604101 0.566873 0.560105
12.14000034 -7.32000017 0.49000001 84 22 202 97.000000 1.000000 4.000000 1.000000 -60.708740 114.000000 206.000000 0.884009 -0.127103 -0.449859
12.17000008 -7.30999994 0.51999998 84 22 202 97.000000 1.000000 4.000000 1.000000 -60.708740 114.000000 206.000000 -0.618111 0.786061 0.006883
12.11999989 -7.32999992 0.52999997 84 22 202 97.000000 1.000000 4.000000 1.000000 -60.708740 114.000000 206.000000 0.750252 -0.188714 -0.633648
12.11999989 -7.32999992 0.52999997 84 22 202 97.000000 1.000000 4.000000 1.000000 -60.708740 114.000000 206.000000 0.750252 -0.188714 -0.633648
12.10999966 -7.30000019 0.56000000 84 22 202 97.000000 1.000000 4.000000 1.000000 -60.708740 114.000000 206.000000 -0.581356 0.784908 0.214346
12.11999989 -7.32999992 0.52999997 84 22 202 97.000000 1.000000 4.000000 1.000000 -60.708740 114.000000 206.000000 0.750252 -0.188714 -0.633648
12.10000038 -7.30999994 0.51999998 84 22 202 97.000000 1.000000 4.000000 1.000000 -60.708740 114.000000 206.000000 0.800211 -0.288834 -0.525583
12.14000034 -7.36000013 0.61000001 84 22 202 97.000000 1.000000 4.000000 1.000000 -60.708740 114.000000 206.000000 0.779690 -0.588241 -0.214608
12.14000034 -7.36999989 0.60000002 84 22 202 97.000000 1.000000 4.000000 1.000000 -60.708740 114.000000 206.000000 0.810515 -0.345544 -0.472933
12.10000038 -7.36000013 0.63999999 84 22 202 97.000000 1.000000 4.000000 1.000000 -60.708740 114.000000 206.000000 0.764298 -0.198379 -0.613591
12.11999989 -7.36000013 0.61000001 84 22 202 97.000000 1.000000 4.000000 1.000000 -60.708740 114.000000 206.000000 0.957891 -0.187848 -0.217158
12.10000038 -7.34999990 0.64999998 84 22 202 97.000000 1.000000 4.000000 1.000000 -60.708740 114.000000 206.000000 0.885968 -0.453514 -0.096881
12.10999966 -7.36999989 0.62000000 84 22 202 97.000000 1.000000 4.000000 1.000000 -60.708740 114.000000 206.000000 0.978507 -0.203311 0.034480
12.09000015 -7.36999989 0.63000000 84 22 202 97.000000 1.000000 4.000000 1.000000 -60.708740 114.000000 206.000000 0.894526 -0.443870 0.052939
12.10000038 -7.36000013 0.63999999 84 22 202 97.000000 1.000000 4.000000 1.000000 -60.708740 114.000000 206.000000 0.764298 -0.198379 -0.613591
12.10999966 -7.36999989 0.61000001 84 22 202 97.000000 1.000000 4.000000 1.000000 -60.708740 114.000000 206.000000 0.961586 -0.245263 -0.123280
12.13000011 -7.36000013 0.58999997 84 22 202 97.000000 1.000000 4.000000 1.000000 -60.708740 114.000000 206.000000 0.751644 -0.411030 -0.515834
12.10000038 -7.34000015 0.58999997 84 22 202 97.000000 1.000000 4.000000 1.000000 -60.708740 114.000000 206.000000 0.981611 -0.187366 0.036531
12.10999966 -7.36000013 0.60000002 84 22 202 97.000000 1.000000 4.000000 1.000000 -60.708740 114.000000 206.000000 0.838360 0.020582 -0.544728
12.10000038 -7.36000013 0.57999998 84 22 202 97.000000 1.000000 4.000000 1.000000 -60.708740 114.000000 206.000000 0.877468 -0.398849 -0.266401
12.15999985 -7.36000013 0.56000000 84 22 202 97.000000 1.000000 4.000000 1.000000 -60.708740 114.000000 206.000000 0.837154 -0.369102 -0.403656
12.15999985 -7.34000015 0.55000001 84 22 202 97.000000 1.000000 4.000000 1.000000 -60.708740 114.000000 206.000000 -0.572306 0.548671 0.609447
12.14999962 -7.38000011 0.55000001 84 22 202 97.000000 1.000000 4.000000 1.000000 -60.708740 114.000000 206.000000 0.846051 -0.219459 -0.485836
12.14999962 -7.38000011 0.55000001 84 22 202 97.000000 1.000000 4.000000 1.000000 -60.708740 114.000000 206.000000 0.846051 -0.219459 -0.485836
12.14000034 -7.40000010 0.55000001 84 22 202 97.000000 1.000000 4.000000 1.000000 -60.708740 114.000000 206.000000 0.846477 -0.196960 -0.494655
12.10999966 -7.34999990 0.55000001 84 22 202 97.000000 1.000000 4.000000 1.000000 -60.708740 114.000000 206.000000 0.937484 -0.336431 -0.089094
12.13000011 -7.36000013 0.55000001 84 22 202 97.000000 1.000000 4.000000 1.000000 -60.708740 114.000000 206.000000 0.940410 -0.325885 -0.097100
12.10999966 -7.34999990 0.56000000 84 22 202 97.000000 1.000000 4.000000 1.000000 -60.708740 114.000000 206.000000 0.928841 -0.171801 -0.328237
12.10000038 -7.38999987 0.56000000 84 22 202 97.000000 1.000000 4.000000 1.000000 -60.708740 114.000000 206.000000 0.859886 0.179081 -0.478043
12.10000038 -7.38999987 0.56000000 84 22 202 97.000000 1.000000 4.000000 1.000000 -60.708740 114.000000 206.000000 0.859886 0.179081 -0.478043
12.07999992 -7.26999998 0.58999997 84 22 202 97.000000 1.000000 4.000000 1.000000 -60.708740 114.000000 206.000000 0.932369 -0.293030 -0.211711
12.07999992 -7.32000017 0.56999999 84 22 202 97.000000 1.000000 4.000000 1.000000 -60.708740 114.000000 206.000000 0.774572 -0.161558 -0.611504
12.05000019 -7.32999992 0.60000002 84 22 202 97.000000 1.000000 4.000000 1.000000 -60.708740 114.000000 206.000000 0.856326 -0.173040 -0.486583
12.02999973 -7.28000021 0.63000000 84 22 202 97.000000 1.000000 4.000000 1.000000 -60.708740 114.000000 206.000000 0.766034 -0.194963 -0.612520
12.01000023 -7.26000023 0.57999998 84 22 202 97.000000 1.000000 4.000000 1.000000 -60.708740 114.000000 206.000000 0.937295 -0.290214 -0.193013
12.02999973 -7.30999994 0.57999998 84 22 202 97.000000 1.000000 4.000000 1.000000 -60.708740 114.000000 206.000000 0.853185 -0.278246 -0.441197
12.06999969 -7.28999996 0.55000001 84 22 202 97.000000 1.000000 4.000000 1.000000 -60.708740 114.000000 206.000000 0.836895 -0.486781 -0.250301
12.06999969 -7.28999996 0.55000001 84 22 202 97.000000 1.000000 4.000000 1.000000 -60.708740 114.000000 206.000000 0.836895 -0.486781 -0.250301
12.06999969 -7.30999994 0.56000000 84 22 202 97.000000 1.000000 4.000000 1.000000 -60.708740 114.000000 206.000000 0.726703 -0.182828 -0.662176
12.07999992 -7.32999992 0.55000001 84 22 202 97.000000 1.000000 4.000000 1.000000 -60.708740 114.000000 206.000000 0.904368 -0.426589 0.011813
12.05000019 -7.32999992 0.56000000 84 22 202 97.000000 1.000000 4.000000 1.000000 -60.708740 114.000000 206.000000 0.921840 -0.369560 -0.116776
12.06999969 -7.32000017 0.51999998 84 22 202 97.000000 1.000000 4.000000 1.000000 -60.708740 114.000000 206.000000 0.947903 -0.311657 0.065952
12.02999973 -7.28999996 0.55000001 84 22 202 97.000000 1.000000 4.000000 1.000000 -60.708740 114.000000 206.000000 0.790955 -0.604505 -0.094681
12.02000046 -7.32000017 0.56000000 84 22 202 97.000000 1.000000 4.000000 1.000000 -60.708740 114.000000 206.000000 0.794901 -0.358107 -0.489787
12.03999996 -7.32000017 0.55000001 84 22 202 97.000000 1.000000 4.000000 1.000000 -60.708740 114.000000 206.000000 0.716000 -0.396681 -0.574446
12.02000046 -7.32999992 0.52999997 84 22 202 97.000000 1.000000 4.000000 1.000000 -60.708740 114.000000 206.000000 0.858296 -0.425310 -0.287122
12.02000046 -7.32000017 0.50999999 84 22 202 97.000000 1.000000 4.000000 1.000000 -60.708740 114.000000 206.000000 0.813524 -0.429937 -0.391578
12.02000046 -7.32999992 0.50999999 84 22 202 97.000000 1.000000 4.000000 1.000000 -60.708740 114.000000 206.000000 0.818580 -0.323331 -0.474745
12.07999992 -7.38000011 0.64999998 84 22 202 97.000000 1.000000 4.000000 1.000000 -60.708740 114.000000 206.000000 0.942945 0.162389 -0.290662
12.05000019 -7.36000013 0.61000001 84 22 202 97.000000 1.000000 4.000000 1.000000 -60.708740 114.000000 206.000000 0.831067 -0.133853 -0.539826
12.05000019 -7.36999989 0.62000000 84 22 202 97.000000 1.000000 4.000000 1.000000 -60.708740 114.000000 206.000000 0.752347 -0.421249 -0.506482
12.07999992 -7.36999989 0.57999998 84 22 202 97.000000 1.000000 4.000000 1.000000 -60.708740 114.000000 206.000000 0.955600 0.191656 -0.223822
12.06000042 -7.36999989 0.58999997 84 22 202 97.000000 1.000000 4.000000 1.000000 -60.708740 114.000000 206.000000 0.789710 0.046620 -0.611707
12.06999969 -7.38000011 0.60000002 84 22 202 97.000000 1.000000 4.000000 1.000000 -60.708740 114.000000 206.000000 0.918904 0.128896 -0.372828
12.06000042 -7.36999989 0.58999997 84 22 202 97.000000 1.000000 4.000000 1.000000 -60.708740 114.000000 206.000000 0.789710 0.046620 -0.611707
12.05000019 -7.34999990 0.60000002 84 22 202 97.000000 1.000000 4.000000 1.000000 -60.708740 114.000000 206.000000 0.959117 -0.279586 0.043881
12.07999992 -7.36999989 0.57999998 84 22 202 97.000000 1.000000 4.000000 1.000000 -60.708740 114.000000 206.000000 0.955600 0.191656 -0.223822
12.06000042 -7.40000010 0.61000001 84 22 202 97.000000 1.000000 4.000000 1.000000 -60.708740 114.000000 206.000000 0.948015 -0.160933 -0.274532
12.07999992 -7.38999987 0.56999999 84 22 202 97.000000 1.000000 4.000000 1.000000 -60.708740 114.000000 206.000000 0.845199 0.210166 -0.491395
12.07999992 -7.40000010 0.57999998 84 22 202 97.000000 1.000000 4.000000 1.000000 -60.708740 114.000000 206.000000 0.992728 -0.082822 -0.087360
12.01000023 -7.38000011 0.62000000 84 22 202 97.000000 1.000000 4.000000 1.000000 -60.708740 114.000000 206.000000 0.838765 -0.326447 -0.435783
12.03999996 -7.36999989 0.58999997 84 22 202 97.000000 1.000000 4.000000 1.000000 -60.708740 114.000000 206.000000 0.946207 -0.201292 -0.253326
12.03999996 -7.38999987 0.62000000 84 22 202 97.000000 1.000000 4.000000 1.000000 -60.708740 114.000000 206.000000 -0.758479 0.502923 0.414461
12.01000023 -7.38999987 0.58999997 84 22 202 97.000000 1.000000 4.000000 1.000000 -60.708740 114.000000 206.000000 0.918966 -0.314951 -0.237292
12.07999992 -7.36999989 0.55000001 84 22 202 97.000000 1.000000 4.000000 1.000000 -60.708740 114.000000 206.000000 0.985181 0.111327 -0.130480
12.06000042 -7.36999989 0.56000000 84 22 202 97.000000 1.000000 4.000000 1.000000 -60.708740 114.000000 206.000000 0.973059 -0.034967 -0.227891
12.06999969 -7.36999989 0.52999997 84 22 202 97.000000 1.000000 4.000000 1.000000 -60.708740 114.000000 206.000000 0.808351 -0.167089 -0.564491
12.06000042 -7.34999990 0.50999999 84 22 202 97.000000 1.000000 4.000000 1.000000 -60.708740 114.000000 206.000000 0.952059 -0.299365 0.062957
12.07999992 -7.40000010 0.56000000 84 22 202 97.000000 1.000000 4.000000 1.000000 -60.708740 114.000000 206.000000 0.974147 0.075124 -0.213056
12.05000019 -7.38999987 0.56000000 84 22 202 97.000000 1.000000 4.000000 1.000000 -60.708740 114.000000 206.000000 0.889126 -0.019995 -0.457226
12.05000019 -7.38999987 0.56000000 84 22 202 97.000000 1.000000 4.000000 1.000000 -60.708740 114.000000 206.000000 0.889126 -0.019995 -0.457226
12.01000023 -7.38000011 0.54000002 84 22 202 97.000000 1.000000 4.000000 1.000000 -60.708740 114.000000 206.000000 0.758257 -0.149239 -0.634645
12.01000023 -7.38000011 0.55000001 84 22 202 97.000000 1.000000 4.000000 1.000000 -60.708740 114.000000 206.000000 0.881210 -0.121006 -0.456976
12.01000023 -7.38000011 0.54000002 84 22 202 97.000000 1.000000 4.000000 1.000000 -60.708740 114.000000 206.000000 0.758257 -0.149239 -0.634645
12.01000023 -7.38000011 0.54000002 84 22 202 97.000000 1.000000 4.000000 1.000000 -60.708740 114.000000 206.000000 0.758257 -0.149239 -0.634645
12.01000023 -7.38000011 0.55000001 84 22 202 97.000000 1.000000 4.000000 1.000000 -60.708740 114.000000 206.000000 0.881210 -0.121006 -0.456976
12.02000046 -7.34999990 0.50999999 84 22 202 97.000000 1.000000 4.000000 1.000000 -60.708740 114.000000 206.000000 0.888222 0.090635 -0.450386
12.17000008 -7.26999998 0.47000000 84 22 202 97.000000 1.000000 4.000000 1.000000 -60.708740 114.000000 206.000000 -0.574267 0.770436 0.276851
12.17000008 -7.30999994 0.46000001 84 22 202 97.000000 1.000000 4.000000 1.000000 -60.708740 114.000000 206.000000 0.728106 -0.681785 0.070929
12.17000008 -7.32000017 0.40000001 84 22 202 97.000000 1.000000 4.000000 1.000000 -60.708740 114.000000 206.000000 0.897169 -0.348487 -0.271375
12.10000038 -7.26000023 0.47000000 84 22 202 97.000000 1.000000 4.000000 1.000000 -60.708740 114.000000 206.000000 0.750561 -0.282058 -0.597580
12.09000015 -7.26000023 0.47000000 84 22 202 97.000000 1.000000 4.000000 1.000000 -60.708740 114.000000 206.000000 -0.472807 0.728289 0.496033
12.34000015 -7.23000002 0.28999999 84 22 202 97.000000 1.000000 4.000000 1.000000 -60.708740 114.000000 206.000000 0.194260 0.870461 0.452284
12.31000042 -7.25000000 0.27000001 84 22 202 97.000000 1.000000 4.000000 1.000000 -60.708740 114.000000 206.000000 0.625042 0.778811 -0.052680
12.30000019 -7.23999977 0.23999999 84 22 202 97.000000 1.000000 4.000000 1.000000 -60.708740 114.000000 206.000000 -0.138472 0.976790 0.163422
12.30000019 -7.23999977 0.23999999 84 22 202 97.000000 1.000000 4.000000 1.000000 -60.708740 114.000000 206.000000 -0.138472 0.976790 0.163422
12.28999996 -7.23000002 0.25000000 84 22 202 97.000000 1.000000 4.000000 1.000000 -60.708740 114.000000 206.000000 0.297156 0.947435 -0.118596
12.30000019 -7.25000000 0.19000000 84 22 202 97.000000 1.000000 4.000000 1.000000 -60.708740 114.000000 206.000000 0.097280 0.995252 -0.003207
