//X Y Z R G B PointSourceId ScanDirectionFlag NumberOfReturns ReturnNumber GpsTime Intensity Classification Nx Ny Nz
0.94999999 4.98000002 -0.55000001 12 46 226 97.000000 1.000000 4.000000 1.000000 -60.708740 114.000000 231.000000 0.358693 -0.134337 0.923739
0.95999998 4.96000004 -0.52999997 12 46 226 97.000000 1.000000 4.000000 1.000000 -60.708740 114.000000 231.000000 0.611911 -0.250113 0.750339
0.94999999 4.96000004 -0.52999997 12 46 226 97.000000 1.000000 4.000000 1.000000 -60.708740 114.000000 231.000000 0.413667 -0.299870 0.859627
0.94999999 4.96000004 -0.56000000 12 46 226 97.000000 1.000000 4.000000 1.000000 -60.708740 114.000000 231.000000 0.377438 -0.340465 0.861176
0.94999999 4.96000004 -0.52999997 12 46 226 97.000000 1.000000 4.000000 1.000000 -60.708740 114.000000 231.000000 0.413667 -0.299870 0.859627
0.94999999 4.94000006 -0.52999997 12 46 226 97.000000 1.000000 4.000000 1.000000 -60.708740 114.000000 231.000000 0.568884 -0.238464 0.787087
0.94000000 4.92999983 -0.52999997 12 46 226 97.000000 1.000000 4.000000 1.000000 -60.708740 114.000000 231.000000 0.702610 -0.159339 0.693505
0.95999998 4.92000008 -0.58999997 12 46 226 97.000000 1.000000 4.000000 1.000000 -60.708740 114.000000 231.000000 0.620393 0.188416 0.761322
0.98000002 4.98000002 -0.61000001 12 46 226 97.000000 1.000000 4.000000 1.000000 -60.708740 114.000000 231.000000 0.190655 -0.403140 0.895058
0.98000002 4.98000002 -0.61000001 12 46 226 97.000000 1.000000 4.000000 1.000000 -60.708740 114.000000 231.000000 0.190655 -0.403140 0.895058
1.00000000 4.98999977 -0.63999999 12 46 226 97.000000 1.000000 4.000000 1.000000 -60.708740 114.000000 231.000000 0.427300 -0.492787 0.758008
0.99000001 4.98999977 -0.63999999 12 46 226 97.000000 1.000000 4.000000 1.000000 -60.708740 114.000000 231.000000 0.583662 -0.316753 0.747667
0.98000002 4.98000002 -0.61000001 12 46 226 97.000000 1.000000 4.000000 1.000000 -60.708740 114.000000 231.000000 0.190655 -0.403140 0.895058
0.99000001 4.88999987 -0.56000000 12 46 226 97.000000 1.000000 4.000000 1.000000 -60.708740 114.000000 231.000000 0.357656 0.218648 0.907896
0.99000001 4.90999985 -0.56000000 12 46 226 97.000000 1.000000 4.000000 1.000000 -60.708740 114.000000 231.000000 0.150532 0.196850 0.968809
1.00999999 4.90999985 -0.52999997 12 46 226 97.000000 1.000000 4.000000 1.000000 -60.708740 114.000000 231.000000 0.552609 -0.176172 0.814608
0.99000001 4.88000011 -0.56000000 12 46 226 97.000000 1.000000 4.000000 1.000000 -60.708740 114.000000 231.000000 0.444585 -0.003934 0.895728
0.98000002 4.90000010 -0.60000002 12 46 226 97.000000 1.000000 4.000000 1.000000 -60.708740 114.000000 231.000000 0.568780 -0.004092 0.822480
0.94000000 4.88999987 -0.56000000 12 46 226 97.000000 1.000000 4.000000 1.000000 -60.708740 114.000000 231.000000 0.778821 0.064543 0.623917
0.93000001 4.90000010 -0.52999997 12 46 226 97.000000 1.000000 4.000000 1.000000 -60.708740 114.000000 231.000000 0.717978 0.261515 0.645071
0.94000000 4.88999987 -0.56999999 12 46 226 97.000000 1.000000 4.000000 1.000000 -60.708740 114.000000 231.000000 0.729936 0.092156 0.677275
0.94999999 4.90999985 -0.56999999 12 46 226 97.000000 1.000000 4.000000 1.000000 -60.708740 114.000000 231.000000 0.396721 0.441694 0.804686
0.94999999 4.86999989 -0.55000001 12 46 226 97.000000 1.000000 4.000000 1.000000 -60.708740 114.000000 231.000000 0.171184 0.260146 0.950274
0.94000000 4.86999989 -0.58999997 12 46 226 97.000000 1.000000 4.000000 1.000000 -60.708740 114.000000 231.000000 0.784469 0.167777 0.597043
0.95999998 4.86999989 -0.60000002 12 46 226 97.000000 1.000000 4.000000 1.000000 -60.708740 114.000000 231.000000 0.396536 0.412461 0.820144
0.99000001 4.88000011 -0.63000000 12 46 226 97.000000 1.000000 4.000000 1.000000 -60.708740 114.000000 231.000000 0.518415 0.397397 0.757180
0.99000001 4.88000011 -0.63999999 12 46 226 97.000000 1.000000 4.000000 1.000000 -60.708740 114.000000 231.000000 0.624584 0.073565 0.777485
1.00999999 4.88000011 -0.64999998 12 46 226 97.000000 1.000000 4.000000 1.000000 -60.708740 114.000000 231.000000 0.707101 0.004151 0.707101
0.97000003 4.86999989 -0.61000001 12 46 226 97.000000 1.000000 4.000000 1.000000 -60.708740 114.000000 231.000000 0.570613 0.434198 0.697046
1.00999999 4.86000013 -0.64999998 12 46 226 97.000000 1.000000 4.000000 1.000000 -60.708740 114.000000 231.000000 0.369392 -0.008947 0.929231
1.00999999 4.82999992 -0.67000002 12 46 226 97.000000 1.000000 4.000000 1.000000 -60.708740 114.000000 231.000000 0.701550 0.001384 0.712619
1.02999997 4.82000017 -0.41999999 12 46 226 97.000000 1.000000 4.000000 1.000000 -60.708740 114.000000 231.000000 0.082206 0.803309 0.589862
0.98000002 4.82000017 -0.38000000 12 46 226 97.000000 1.000000 4.000000 1.000000 -60.708740 114.000000 231.000000 0.026695 0.720765 0.692665
0.93000001 4.82000017 -0.46000001 12 46 226 97.000000 1.000000 4.000000 1.000000 -60.708740 114.000000 231.000000 0.410250 0.109864 0.905331
0.93000001 4.67999983 -0.44999999 12 46 226 97.000000 1.000000 4.000000 1.000000 -60.708740 114.000000 231.000000 -0.006697 0.869293 0.494251
0.93000001 4.67999983 -0.44000000 12 46 226 97.000000 1.000000 4.000000 1.000000 -60.708740 114.000000 231.000000 -0.023869 0.675341 0.737119
1.03999996 4.76000023 -0.60000002 12 46 226 97.000000 1.000000 4.000000 1.000000 -60.708740 114.000000 231.000000 0.376423 0.462921 0.802502
1.05999994 4.80000019 -0.66000003 12 46 226 97.000000 1.000000 4.000000 1.000000 -60.708740 114.000000 231.000000 0.118752 0.573236 0.810740
1.07000005 4.76999998 -0.63000000 12 46 226 97.000000 1.000000 4.000000 1.000000 -60.708740 114.000000 231.000000 0.670720 0.453279 0.587089
1.07000005 4.76999998 -0.63999999 12 46 226 97.000000 1.000000 4.000000 1.000000 -60.708740 114.000000 231.000000 0.330913 0.443832 0.832772
1.08000004 4.76000023 -0.61000001 12 46 226 97.000000 1.000000 4.000000 1.000000 -60.708740 114.000000 231.000000 0.520533 0.574440 0.631715
1.08000004 4.76000023 -0.64999998 12 46 226 97.000000 1.000000 4.000000 1.000000 -60.708740 114.000000 231.000000 0.321748 0.619243 0.716252
1.07000005 4.76999998 -0.69000000 12 46 226 97.000000 1.000000 4.000000 1.000000 -60.708740 114.000000 231.000000 0.270248 0.094393 0.958152
1.03999996 4.78999996 -0.68000001 12 46 226 97.000000 1.000000 4.000000 1.000000 -60.708740 114.000000 231.000000 0.116064 0.155159 0.981048
1.03999996 4.82000017 -0.64999998 12 46 226 97.000000 1.000000 4.000000 1.000000 -60.708740 114.000000 231.000000 0.706463 0.136493 0.694464
1.04999995 4.80999994 -0.66000003 12 46 226 97.000000 1.000000 4.000000 1.000000 -60.708740 114.000000 231.000000 0.437716 0.120407 0.891014
1.07000005 4.73000002 -0.69000000 12 46 226 97.000000 1.000000 4.000000 1.000000 -60.708740 114.000000 231.000000 0.224342 0.574007 0.787519
1.05999994 4.73999977 -0.69000000 12 46 226 97.000000 1.000000 4.000000 1.000000 -60.708740 114.000000 231.000000 0.255656 0.428111 0.866811
1.09000003 4.67000008 -0.67000002 12 46 226 97.000000 1.000000 4.000000 1.000000 -60.708740 114.000000 231.000000 0.393099 0.560865 0.728631
1.01999998 4.71000004 -0.63000000 12 46 226 97.000000 1.000000 4.000000 1.000000 -60.708740 114.000000 231.000000 0.097342 0.466962 0.878904
1.04999995 4.73000002 -0.68000001 12 46 226 97.000000 1.000000 4.000000 1.000000 -60.708740 114.000000 231.000000 0.364947 0.603881 0.708619
1.02999997 4.71000004 -0.64999998 12 46 226 97.000000 1.000000 4.000000 1.000000 -60.708740 114.000000 231.000000 0.603414 0.264489 0.752288
1.01999998 4.69000006 -0.67000002 12 46 226 97.000000 1.000000 4.000000 1.000000 -60.708740 114.000000 231.000000 0.519356 0.546248 0.657178
0.97000003 4.76000023 -0.63999999 12 46 226 97.000000 1.000000 4.000000 1.000000 -60.708740 114.000000 231.000000 0.407805 0.708292 0.576210
0.97000003 4.75000000 -0.66000003 12 46 226 97.000000 1.000000 4.000000 1.000000 -60.708740 114.000000 231.000000 0.465638 0.508722 0.724142
1.00999999 4.76000023 -0.69000000 12 46 226 97.000000 1.000000 4.000000 1.000000 -60.708740 114.000000 231.000000 0.672460 0.477933 0.565135
0.99000001 4.75000000 -0.64999998 12 46 226 97.000000 1.000000 4.000000 1.000000 -60.708740 114.000000 231.000000 0.197261 0.248957 0.948213
0.94000000 4.76000023 -0.61000001 12 46 226 97.000000 1.000000 4.000000 1.000000 -60.708740 114.000000 231.000000 0.247238 0.117794 0.961768
0.93000001 4.75000000 -0.63000000 12 46 226 97.000000 1.000000 4.000000 1.000000 -60.708740 114.000000 231.000000 0.622046 0.413039 0.665175
0.97000003 4.71000004 -0.60000002 12 46 226 97.000000 1.000000 4.000000 1.000000 -60.708740 114.000000 231.000000 0.489038 0.696003 0.525758
0.97000003 4.69999981 -0.56999999 12 46 226 97.000000 1.000000 4.000000 1.000000 -60.708740 114.000000 231.000000 0.023885 0.689844 0.723564
0.93000001 4.71000004 -0.60000002 12 46 226 97.000000 1.000000 4.000000 1.000000 -60.708740 114.000000 231.000000 0.199102 0.754735 0.625087
0.94999999 4.71000004 -0.60000002 12 46 226 97.000000 1.000000 4.000000 1.000000 -60.708740 114.000000 231.000000 0.491943 0.774446 0.397776
0.93000001 4.67000008 -0.58999997 12 46 226 97.000000 1.000000 4.000000 1.000000 -60.708740 114.000000 231.000000 0.348002 0.847376 0.401060
0.94999999 4.67999983 -0.60000002 12 46 226 97.000000 1.000000 4.000000 1.000000 -60.708740 114.000000 231.000000 0.468961 0.259850 0.844129
0.94000000 4.67999983 -0.58999997 12 46 226 97.000000 1.000000 4.000000 1.000000 -60.708740 114.000000 231.000000 0.386943 0.778742 0.493797
0.94000000 4.67999983 -0.58999997 12 46 226 97.000000 1.000000 4.000000 1.000000 -60.708740 114.000000 231.000000 0.386943 0.778742 0.493797
0.94999999 4.67000008 -0.58999997 12 46 226 97.000000 1.000000 4.000000 1.000000 -60.708740 114.000000 231.000000 0.467698 0.581689 0.665505
0.94000000 4.67000008 -0.57999998 12 46 226 97.000000 1.000000 4.000000 1.000000 -60.708740 114.000000 231.000000 0.472807 0.496033 0.728289
0.99000001 4.71000004 -0.66000003 12 46 226 97.000000 1.000000 4.000000 1.000000 -60.708740 114.000000 231.000000 0.366824 0.552681 0.748321
0.99000001 4.71000004 -0.64999998 12 46 226 97.000000 1.000000 4.000000 1.000000 -60.708740 114.000000 231.000000 0.467283 0.601271 0.648167
0.98000002 4.73999977 -0.64999998 12 46 226 97.000000 1.000000 4.000000 1.000000 -60.708740 114.000000 231.000000 0.142636 0.305649 0.941400
0.97000003 4.71999979 -0.64999998 12 46 226 97.000000 1.000000 4.000000 1.000000 -60.708740 114.000000 231.000000 0.455657 0.579168 0.675974
0.97000003 4.67000008 -0.61000001 12 46 226 97.000000 1.000000 4.000000 1.000000 -60.708740 114.000000 231.000000 0.220184 0.403425 0.888126
0.98000002 4.69000006 -0.63000000 12 46 226 97.000000 1.000000 4.000000 1.000000 -60.708740 114.000000 231.000000 0.483919 0.434707 0.759507
0.97000003 4.69999981 -0.61000001 12 46 226 97.000000 1.000000 4.000000 1.000000 -60.708740 114.000000 231.000000 0.068577 0.499636 0.863517
0.98000002 4.69999981 -0.63999999 12 46 226 97.000000 1.000000 4.000000 1.000000 -60.708740 114.000000 231.000000 0.579138 0.521731 0.626415
0.94000000 4.73000002 -0.62000000 12 46 226 97.000000 1.000000 4.000000 1.000000 -60.708740 114.000000 231.000000 0.524415 0.273948 0.806190
0.93000001 4.71999979 -0.63999999 12 46 226 97.000000 1.000000 4.000000 1.000000 -60.708740 114.000000 231.000000 0.262389 0.669491 0.694934
0.93000001 4.71999979 -0.61000001 12 46 226 97.000000 1.000000 4.000000 1.000000 -60.708740 114.000000 231.000000 0.090745 0.453725 0.886509
0.94000000 4.71000004 -0.62000000 12 46 226 97.000000 1.000000 4.000000 1.000000 -60.708740 114.000000 231.000000 0.468926 0.552364 0.689204
0.93000001 4.71999979 -0.63999999 12 46 226 97.000000 1.000000 4.000000 1.000000 -60.708740 114.000000 231.000000 0.262389 0.669491 0.694934
0.95999998 4.71000004 -0.61000001 12 46 226 97.000000 1.000000 4.000000 1.000000 -60.708740 114.000000 231.000000 0.162626 0.648985 0.743217
0.94000000 4.71999979 -0.62000000 12 46 226 97.000000 1.000000 4.000000 1.000000 -60.708740 114.000000 231.000000 0.470797 0.717009 0.514051
0.93000001 4.73000002 -0.61000001 12 46 226 97.000000 1.000000 4.000000 1.000000 -60.708740 114.000000 231.000000 0.111454 0.381144 0.917773
0.93000001 4.73999977 -0.62000000 12 46 226 97.000000 1.000000 4.000000 1.000000 -60.708740 114.000000 231.000000 0.284699 0.755486 0.590074
0.95999998 4.73999977 -0.68000001 12 46 226 97.000000 1.000000 4.000000 1.000000 -60.708740 114.000000 231.000000 0.552312 0.589471 0.589471
0.95999998 4.67000008 -0.61000001 12 46 226 97.000000 1.000000 4.000000 1.000000 -60.708740 114.000000 231.000000 0.330913 0.443832 0.832772
1.24000001 4.50000000 -0.14000000 12 46 226 97.000000 1.000000 4.000000 1.000000 -60.708740 114.000000 231.000000 0.607388 -0.566782 0.556631
1.24000001 4.51999998 -0.15000001 12 46 226 97.000000 1.000000 4.000000 1.000000 -60.708740 114.000000 231.000000 0.386998 -0.584613 0.713064
1.11000001 4.61999989 -0.15000001 12 46 226 97.000000 1.000000 4.000000 1.000000 -60.708740 114.000000 231.000000 -0.585992 0.688914 -0.426628
1.10000002 4.63999987 -0.17000000 12 46 226 97.000000 1.000000 4.000000 1.000000 -60.708740 114.000000 231.000000 -0.017034 0.910683 -0.412755
1.24000001 4.65000010 -0.19000000 12 46 226 97.000000 1.000000 4.000000 1.000000 -60.708740 114.000000 231.000000 -0.108296 0.844710 -0.524153
1.21000004 4.61000013 -0.20000000 12 46 226 97.000000 1.000000 4.000000 1.000000 -60.708740 114.000000 231.000000 0.009603 0.816283 -0.577572
1.22000003 4.61000013 -0.22000000 12 46 226 97.000000 1.000000 4.000000 1.000000 -60.708740 114.000000 231.000000 -0.203762 0.978765 0.022378
1.25999999 4.55999994 -0.20000000 12 46 226 97.000000 1.000000 4.000000 1.000000 -60.708740 114.000000 231.000000 0.593928 -0.709094 0.380048
1.10000002 4.61999989 -0.20999999 12 46 226 97.000000 1.000000 4.000000 1.000000 -60.708740 114.000000 231.000000 -0.416299 0.908409 -0.038571
1.08000004 4.65999985 -0.10000000 12 46 226 97.000000 1.000000 4.000000 1.000000 -60.708740 114.000000 231.000000 0.475285 -0.432820 0.766010
1.07000005 4.65999985 -0.10000000 12 46 226 97.000000 1.000000 4.000000 1.000000 -60.708740 114.000000 231.000000 0.149267 -0.658884 0.737287
1.03999996 4.63000011 -0.08000000 12 46 226 97.000000 1.000000 4.000000 1.000000 -60.708740 114.000000 231.000000 -0.635942 0.722009 -0.272546
1.01999998 4.65999985 -0.07000000 12 46 226 97.000000 1.000000 4.000000 1.000000 -60.708740 114.000000 231.000000 0.680389 -0.677187 0.280160
1.05999994 4.61999989 -0.18000001 12 46 226 97.000000 1.000000 4.000000 1.000000 -60.708740 114.000000 231.000000 -0.451214 0.890085 0.064459
1.08000004 4.59999990 -0.15000001 12 46 226 97.000000 1.000000 4.000000 1.000000 -60.708740 114.000000 231.000000 0.288157 -0.756213 0.587458
1.04999995 4.61000013 -0.18000001 12 46 226 97.000000 1.000000 4.000000 1.000000 -60.708740 114.000000 231.000000 -0.246683 0.931756 -0.266417
1.02999997 4.59999990 -0.16000000 12 46 226 97.000000 1.000000 4.000000 1.000000 -60.708740 114.000000 231.000000 -0.361677 0.920252 -0.149419
1.02999997 4.59999990 -0.16000000 12 46 226 97.000000 1.000000 4.000000 1.000000 -60.708740 114.000000 231.000000 -0.361677 0.920252 -0.149419
1.07000005 4.51999998 -0.04000000 12 46 226 97.000000 1.000000 4.000000 1.000000 -60.708740 114.000000 231.000000 -0.393299 0.781743 -0.483936
1.08000004 4.53000021 -0.09000000 12 46 226 97.000000 1.000000 4.000000 1.000000 -60.708740 114.000000 231.000000 -0.397601 0.747752 -0.531771
1.04999995 4.55000019 -0.05000000 12 46 226 97.000000 1.000000 4.000000 1.000000 -60.708740 114.000000 231.000000 -0.130324 0.833195 -0.537403
1.01999998 4.57000017 -0.06000000 12 46 226 97.000000 1.000000 4.000000 1.000000 -60.708740 114.000000 231.000000 0.025506 0.887323 -0.460442
1.03999996 4.55999994 -0.08000000 12 46 226 97.000000 1.000000 4.000000 1.000000 -60.708740 114.000000 231.000000 -0.184696 0.958029 -0.219244
1.04999995 4.51999998 -0.04000000 12 46 226 97.000000 1.000000 4.000000 1.000000 -60.708740 114.000000 231.000000 -0.350812 0.792932 -0.498186
1.03999996 4.51999998 -0.04000000 12 46 226 97.000000 1.000000 4.000000 1.000000 -60.708740 114.000000 231.000000 -0.074263 0.986642 -0.144990
1.07000005 4.53000021 -0.13000000 12 46 226 97.000000 1.000000 4.000000 1.000000 -60.708740 114.000000 231.000000 -0.075719 0.989012 -0.126976
1.02999997 4.53000021 -0.11000000 12 46 226 97.000000 1.000000 4.000000 1.000000 -60.708740 114.000000 231.000000 -0.639025 0.758190 -0.129592
1.03999996 4.51999998 -0.17000000 12 46 226 97.000000 1.000000 4.000000 1.000000 -60.708740 114.000000 231.000000 -0.481196 0.739156 -0.471274
1.02999997 4.51999998 -0.11000000 12 46 226 97.000000 1.000000 4.000000 1.000000 -60.708740 114.000000 231.000000 -0.080151 0.867605 -0.490752
0.97000003 4.63999987 -0.05000000 12 46 226 97.000000 1.000000 4.000000 1.000000 -60.708740 114.000000 231.000000 -0.625816 0.592079 -0.507737
0.99000001 4.61999989 -0.03000000 12 46 226 97.000000 1.000000 4.000000 1.000000 -60.708740 114.000000 231.000000 -0.633855 0.708047 -0.311283
0.97000003 4.63999987 -0.05000000 12 46 226 97.000000 1.000000 4.000000 1.000000 -60.708740 114.000000 231.000000 -0.625816 0.592079 -0.507737
0.97000003 4.63000011 -0.06000000 12 46 226 97.000000 1.000000 4.000000 1.000000 -60.708740 114.000000 231.000000 0.581165 -0.628332 0.517152
1.00999999 4.63000011 -0.10000000 12 46 226 97.000000 1.000000 4.000000 1.000000 -60.708740 114.000000 231.000000 -0.341068 0.906100 -0.250312
1.00000000 4.63999987 -0.08000000 12 46 226 97.000000 1.000000 4.000000 1.000000 -60.708740 114.000000 231.000000 0.104769 -0.668456 0.736335
0.98000002 4.61999989 -0.09000000 12 46 226 97.000000 1.000000 4.000000 1.000000 -60.708740 114.000000 231.000000 -0.539786 0.760240 -0.361479
0.99000001 4.61000013 -0.07000000 12 46 226 97.000000 1.000000 4.000000 1.000000 -60.708740 114.000000 231.000000 -0.003944 0.892572 -0.450887
0.94999999 4.61000013 -0.07000000 12 46 226 97.000000 1.000000 4.000000 1.000000 -60.708740 114.000000 231.000000 -0.377134 0.775309 -0.506622
1.00999999 4.61999989 -0.11000000 12 46 226 97.000000 1.000000 4.000000 1.000000 -60.708740 114.000000 231.000000 -0.310594 0.835014 -0.454185
0.97000003 4.65000010 -0.15000001 12 46 226 97.000000 1.000000 4.000000 1.000000 -60.708740 114.000000 231.000000 0.020338 0.996565 -0.080282
0.95999998 4.61000013 -0.13000000 12 46 226 97.000000 1.000000 4.000000 1.000000 -60.708740 114.000000 231.000000 -0.097353 0.977227 -0.188545
1.00999999 4.50000000 -0.03000000 12 46 226 97.000000 1.000000 4.000000 1.000000 -60.708740 114.000000 231.000000 -0.462026 0.814500 -0.350886
1.00999999 4.50000000 -0.03000000 12 46 226 97.000000 1.000000 4.000000 1.000000 -60.708740 114.000000 231.000000 -0.462026 0.814500 -0.350886
1.00999999 4.57000017 -0.13000000 12 46 226 97.000000 1.000000 4.000000 1.000000 -60.708740 114.000000 231.000000 -0.556887 0.830587 -0.001355
0.99000001 4.51000023 -0.14000000 12 46 226 97.000000 1.000000 4.000000 1.000000 -60.708740 114.000000 231.000000 0.110448 0.986903 -0.117573
0.98000002 4.50000000 -0.15000001 12 46 226 97.000000 1.000000 4.000000 1.000000 -60.708740 114.000000 231.000000 -0.285023 0.928807 -0.236810
0.99000001 4.51000023 -0.15000001 12 46 226 97.000000 1.000000 4.000000 1.000000 -60.708740 114.000000 231.000000 0.034434 0.945015 -0.325208
0.99000001 4.51000023 -0.17000000 12 46 226 97.000000 1.000000 4.000000 1.000000 -60.708740 114.000000 231.000000 -0.102889 0.987495 0.119446
0.94999999 4.57000017 -0.14000000 12 46 226 97.000000 1.000000 4.000000 1.000000 -60.708740 114.000000 231.000000 -0.249416 0.943921 -0.216344
0.94999999 4.57000017 -0.16000000 12 46 226 97.000000 1.000000 4.000000 1.000000 -60.708740 114.000000 231.000000 -0.321475 0.912059 -0.254562
0.95999998 4.53000021 -0.13000000 12 46 226 97.000000 1.000000 4.000000 1.000000 -60.708740 114.000000 231.000000 -0.198780 0.962306 -0.185616
0.95999998 4.53000021 -0.13000000 12 46 226 97.000000 1.000000 4.000000 1.000000 -60.708740 114.000000 231.000000 -0.198780 0.962306 -0.185616
0.95999998 4.53000021 -0.12000000 12 46 226 97.000000 1.000000 4.000000 1.000000 -60.708740 114.000000 231.000000 -0.311837 0.946037 0.088156
0.95999998 4.50000000 -0.12000000 12 46 226 97.000000 1.000000 4.000000 1.000000 -60.708740 114.000000 231.000000 -0.110905 0.942026 -0.316681
0.94000000 4.53000021 -0.18000001 12 46 226 97.000000 1.000000 4.000000 1.000000 -60.708740 114.000000 231.000000 -0.148779 0.976443 -0.156281
0.93000001 4.53000021 -0.18000001 12 46 226 97.000000 1.000000 4.000000 1.000000 -60.708740 114.000000 231.000000 -0.189109 0.968700 -0.160807
1.09000003 4.63000011 -0.20000000 12 46 226 97.000000 1.000000 4.000000 1.000000 -60.708740 114.000000 231.000000 -0.521853 0.848900 -0.083895
1.09000003 4.63999987 -0.19000000 12 46 226 97.000000 1.000000 4.000000 1.000000 -60.708740 114.000000 231.000000 -0.304349 0.782384 -0.543366
1.07000005 4.61000013 -0.20999999 12 46 226 97.000000 1.000000 4.000000 1.000000 -60.708740 114.000000 231.000000 -0.348714 0.807297 -0.476098
1.08000004 4.63000011 -0.20000000 12 46 226 97.000000 1.000000 4.000000 1.000000 -60.708740 114.000000 231.000000 -0.229955 0.960557 -0.156370
1.01999998 4.50000000 -0.20999999 12 46 226 97.000000 1.000000 4.000000 1.000000 -60.708740 114.000000 231.000000 -0.406430 0.904272 0.130789
0.97000003 4.65000010 -0.20000000 12 46 226 97.000000 1.000000 4.000000 1.000000 -60.708740 114.000000 231.000000 -0.232072 0.971265 0.052799
0.99000001 4.63000011 -0.23000000 12 46 226 97.000000 1.000000 4.000000 1.000000 -60.708740 114.000000 231.000000 -0.045343 0.969361 -0.241421
0.94999999 4.65000010 -0.20999999 12 46 226 97.000000 1.000000 4.000000 1.000000 -60.708740 114.000000 231.000000 0.109946 0.993865 0.011974
0.95999998 4.63000011 -0.23999999 12 46 226 97.000000 1.000000 4.000000 1.000000 -60.708740 114.000000 231.000000 -0.390221 0.850402 -0.352909
0.94000000 4.65999985 -0.23000000 12 46 226 97.000000 1.000000 4.000000 1.000000 -60.708740 114.000000 231.000000 -0.316269 0.940731 0.122470
0.94000000 4.59000015 -0.19000000 12 46 226 97.000000 1.000000 4.000000 1.000000 -60.708740 114.000000 231.000000 0.181851 0.934244 -0.306787
0.95999998 4.59000015 -0.23999999 12 46 226 97.000000 1.000000 4.000000 1.000000 -60.708740 114.000000 231.000000 0.025331 0.971025 0.237630
0.93000001 4.65000010 -0.30000001 12 46 226 97.000000 1.000000 4.000000 1.000000 -60.708740 114.000000 231.000000 -0.035084 0.990268 0.134677
0.95999998 4.63999987 -0.30000001 12 46 226 97.000000 1.000000 4.000000 1.000000 -60.708740 114.000000 231.000000 -0.244910 0.942282 0.228306
0.95999998 4.63000011 -0.28000000 12 46 226 97.000000 1.000000 4.000000 1.000000 -60.708740 114.000000 231.000000 -0.025406 0.969042 -0.245587
0.93000001 4.63999987 -0.30000001 12 46 226 97.000000 1.000000 4.000000 1.000000 -60.708740 114.000000 231.000000 -0.202247 0.970531 0.131015
1.00999999 4.50000000 -0.19000000 12 46 226 97.000000 1.000000 4.000000 1.000000 -60.708740 114.000000 231.000000 0.035799 0.999296 -0.011251
0.93000001 4.57000017 -0.23000000 12 46 226 97.000000 1.000000 4.000000 1.000000 -60.708740 114.000000 231.000000 -0.259717 0.905340 0.336017
0.93000001 4.51999998 -0.27000001 12 46 226 97.000000 1.000000 4.000000 1.000000 -60.708740 114.000000 231.000000 0.105474 0.987192 -0.119696
0.94000000 4.51000023 -0.27000001 12 46 226 97.000000 1.000000 4.000000 1.000000 -60.708740 114.000000 231.000000 0.102031 0.971181 0.215398
1.01999998 4.46999979 -0.16000000 12 46 226 97.000000 1.000000 4.000000 1.000000 -60.708740 114.000000 231.000000 -0.046356 0.991572 0.120979
0.97000003 4.46999979 -0.07000000 12 46 226 97.000000 1.000000 4.000000 1.000000 -60.708740 114.000000 231.000000 -0.282122 0.923698 -0.259208
0.98000002 4.46000004 -0.14000000 12 46 226 97.000000 1.000000 4.000000 1.000000 -60.708740 114.000000 231.000000 -0.592509 0.801967 -0.076036
0.99000001 4.48000002 -0.14000000 12 46 226 97.000000 1.000000 4.000000 1.000000 -60.708740 114.000000 231.000000 -0.032095 0.999094 0.027954
0.97000003 4.44000006 -0.16000000 12 46 226 97.000000 1.000000 4.000000 1.000000 -60.708740 114.000000 231.000000 -0.257410 0.953619 0.156047
0.95999998 4.48999977 -0.14000000 12 46 226 97.000000 1.000000 4.000000 1.000000 -60.708740 114.000000 231.000000 0.145154 0.927600 -0.344221
0.93000001 4.44000006 -0.16000000 12 46 226 97.000000 1.000000 4.000000 1.000000 -60.708740 114.000000 231.000000 -0.355415 0.920144 -0.164362
1.02999997 4.48999977 -0.19000000 12 46 226 97.000000 1.000000 4.000000 1.000000 -60.708740 114.000000 231.000000 -0.027463 0.994160 0.104359
0.98000002 4.44000006 -0.25000000 12 46 226 97.000000 1.000000 4.000000 1.000000 -60.708740 114.000000 231.000000 -0.233950 0.955853 0.177802
0.93000001 4.48000002 -0.23000000 12 46 226 97.000000 1.000000 4.000000 1.000000 -60.708740 114.000000 231.000000 -0.412747 0.909645 -0.046751
0.94000000 4.44000006 -0.27000001 12 46 226 97.000000 1.000000 4.000000 1.000000 -60.708740 114.000000 231.000000 -0.416731 0.885000 0.207629
0.95999998 4.48000002 -0.31000000 12 46 226 97.000000 1.000000 4.000000 1.000000 -60.708740 114.000000 231.000000 -0.299414 0.845496 0.442140
0.93000001 4.32999992 -0.23000000 12 46 226 97.000000 1.000000 4.000000 1.000000 -60.708740 114.000000 231.000000 -0.290565 0.955440 -0.052023
0.93000001 4.65999985 -0.43000001 12 46 226 97.000000 1.000000 4.000000 1.000000 -60.708740 114.000000 231.000000 -0.234203 0.792566 0.563017
0.94999999 4.61000013 -0.44000000 12 46 226 97.000000 1.000000 4.000000 1.000000 -60.708740 114.000000 231.000000 -0.247630 0.877960 0.409715
0.93000001 4.63000011 -0.49000001 12 46 226 97.000000 1.000000 4.000000 1.000000 -60.708740 114.000000 231.000000 0.297675 0.898950 0.321371
0.93000001 4.63000011 -0.49000001 12 46 226 97.000000 1.000000 4.000000 1.000000 -60.708740 114.000000 231.000000 0.297675 0.898950 0.321371
0.94999999 4.51999998 -0.38999999 12 46 226 97.000000 1.000000 4.000000 1.000000 -60.708740 114.000000 231.000000 0.131149 0.923565 0.360315
0.93000001 4.55000019 -0.43000001 12 46 226 97.000000 1.000000 4.000000 1.000000 -60.708740 114.000000 231.000000 0.416522 0.825125 0.381680
0.98000002 4.65000010 -0.60000002 12 46 226 97.000000 1.000000 4.000000 1.000000 -60.708740 114.000000 231.000000 0.299454 0.600509 0.741429
0.93000001 4.65999985 -0.56000000 12 46 226 97.000000 1.000000 4.000000 1.000000 -60.708740 114.000000 231.000000 0.618097 0.424838 0.661414
0.95999998 4.65999985 -0.60000002 12 46 226 97.000000 1.000000 4.000000 1.000000 -60.708740 114.000000 231.000000 0.409749 0.341198 0.845984
0.94999999 4.65999985 -0.56999999 12 46 226 97.000000 1.000000 4.000000 1.000000 -60.708740 114.000000 231.000000 0.377469 0.631313 0.677467
0.94000000 4.65999985 -0.57999998 12 46 226 97.000000 1.000000 4.000000 1.000000 -60.708740 114.000000 231.000000 0.513624 0.467082 0.719739
0.98000002 4.65999985 -0.61000001 12 46 226 97.000000 1.000000 4.000000 1.000000 -60.708740 114.000000 231.000000 0.378085 0.390636 0.839318
1.42999995 4.98999977 -0.80000001 12 46 226 97.000000 1.000000 4.000000 1.000000 -60.708740 114.000000 231.000000 0.645228 -0.142883 0.750510
1.46000004 4.98999977 -0.81999999 12 46 226 97.000000 1.000000 4.000000 1.000000 -60.708740 114.000000 231.000000 0.489229 -0.306751 0.816430
1.42999995 4.94000006 -0.83999997 12 46 226 97.000000 1.000000 4.000000 1.000000 -60.708740 114.000000 231.000000 0.151972 0.047564 0.987240
1.42999995 4.98999977 -0.79000002 12 46 226 97.000000 1.000000 4.000000 1.000000 -60.708740 114.000000 231.000000 0.503657 -0.204185 0.839428
1.44000006 4.88000011 -0.81999999 12 46 226 97.000000 1.000000 4.000000 1.000000 -60.708740 114.000000 231.000000 0.423014 0.166029 0.890783
1.55999994 4.84000015 -0.98000002 12 46 226 97.000000 1.000000 4.000000 1.000000 -60.708740 114.000000 231.000000 0.148583 0.616845 0.772933
1.58000004 4.86000013 -0.95999998 12 46 226 97.000000 1.000000 4.000000 1.000000 -60.708740 114.000000 231.000000 0.568969 0.609489 0.552085
1.52999997 4.84999990 -0.98000002 12 46 226 97.000000 1.000000 4.000000 1.000000 -60.708740 114.000000 231.000000 0.183669 0.066025 0.980768
1.54999995 4.84999990 -0.98000002 12 46 226 97.000000 1.000000 4.000000 1.000000 -60.708740 114.000000 231.000000 0.019995 0.457226 0.889126
1.48000002 4.98000002 -0.88000000 12 46 226 97.000000 1.000000 4.000000 1.000000 -60.708740 114.000000 231.000000 0.356339 0.125200 0.925931
1.44000006 4.98000002 -0.88000000 12 46 226 97.000000 1.000000 4.000000 1.000000 -60.708740 114.000000 231.000000 0.124165 -0.186874 0.974506
1.42999995 4.96999979 -0.88999999 12 46 226 97.000000 1.000000 4.000000 1.000000 -60.708740 114.000000 231.000000 0.161910 -0.028707 0.986388
1.42999995 4.92000008 -0.91000003 12 46 226 97.000000 1.000000 4.000000 1.000000 -60.708740 114.000000 231.000000 0.717760 0.226743 0.658337
1.42999995 4.90999985 -0.86000001 12 46 226 97.000000 1.000000 4.000000 1.000000 -60.708740 114.000000 231.000000 0.174502 0.134329 0.975451
1.45000005 4.86000013 -0.86000001 12 46 226 97.000000 1.000000 4.000000 1.000000 -60.708740 114.000000 231.000000 0.556169 0.283630 0.781172
1.46000004 4.82999992 -0.94000000 12 46 226 97.000000 1.000000 4.000000 1.000000 -60.708740 114.000000 231.000000 0.153093 0.698771 0.698771
1.46000004 4.82999992 -0.94000000 12 46 226 97.000000 1.000000 4.000000 1.000000 -60.708740 114.000000 231.000000 0.153093 0.698771 0.698771
1.49000001 4.86000013 -0.98000002 12 46 226 97.000000 1.000000 4.000000 1.000000 -60.708740 114.000000 231.000000 0.562613 0.582888 0.586267
1.48000002 4.84000015 -0.95999998 12 46 226 97.000000 1.000000 4.000000 1.000000 -60.708740 114.000000 231.000000 0.416563 0.251141 0.873730
1.48000002 4.84000015 -0.95999998 12 46 226 97.000000 1.000000 4.000000 1.000000 -60.708740 114.000000 231.000000 0.416563 0.251141 0.873730
1.49000001 4.84999990 -0.99000001 12 46 226 97.000000 1.000000 4.000000 1.000000 -60.708740 114.000000 231.000000 0.178746 0.215819 0.959933
1.47000003 4.86000013 -0.97000003 12 46 226 97.000000 1.000000 4.000000 1.000000 -60.708740 114.000000 231.000000 0.497250 0.483945 0.720097
1.42999995 4.84000015 -0.95999998 12 46 226 97.000000 1.000000 4.000000 1.000000 -60.708740 114.000000 231.000000 0.637227 0.311354 0.704983
1.47000003 4.84999990 -0.95999998 12 46 226 97.000000 1.000000 4.000000 1.000000 -60.708740 114.000000 231.000000 0.587354 0.100564 0.803058
1.57000005 4.80000019 -0.97000003 12 46 226 97.000000 1.000000 4.000000 1.000000 -60.708740 114.000000 231.000000 0.169193 0.675246 0.717925
1.55999994 4.80999994 -0.97000003 12 46 226 97.000000 1.000000 4.000000 1.000000 -60.708740 114.000000 231.000000 0.162158 0.750170 0.641054
1.58000004 4.80999994 -1.00000000 12 46 226 97.000000 1.000000 4.000000 1.000000 -60.708740 114.000000 231.000000 0.629390 0.622677 0.464910
1.59000003 4.82000017 -1.00999999 12 46 226 97.000000 1.000000 4.000000 1.000000 -60.708740 114.000000 231.000000 0.272104 0.736750 0.618998
1.58000004 4.82000017 -1.01999998 12 46 226 97.000000 1.000000 4.000000 1.000000 -60.708740 114.000000 231.000000 0.548171 0.625759 0.554918
1.59000003 4.75000000 -1.01999998 12 46 226 97.000000 1.000000 4.000000 1.000000 -60.708740 114.000000 231.000000 0.202666 0.537903 0.818283
1.45000005 4.82000017 -0.93000001 12 46 226 97.000000 1.000000 4.000000 1.000000 -60.708740 114.000000 231.000000 0.206461 0.438172 0.874859
1.49000001 4.80999994 -1.01999998 12 46 226 97.000000 1.000000 4.000000 1.000000 -60.708740 114.000000 231.000000 0.242717 0.305910 0.920602
1.38000000 4.98000002 -0.75000000 12 46 226 97.000000 1.000000 4.000000 1.000000 -60.708740 114.000000 231.000000 0.490587 0.138296 0.860348
1.40999997 4.96999979 -0.77999997 12 46 226 97.000000 1.000000 4.000000 1.000000 -60.708740 114.000000 231.000000 0.793462 -0.055358 0.606097
1.41999996 4.98999977 -0.80000001 12 46 226 97.000000 1.000000 4.000000 1.000000 -60.708740 114.000000 231.000000 0.411111 -0.274580 0.869249
1.39999998 4.96000004 -0.77999997 12 46 226 97.000000 1.000000 4.000000 1.000000 -60.708740 114.000000 231.000000 0.431388 -0.147618 0.890007
1.37000000 4.94000006 -0.83999997 12 46 226 97.000000 1.000000 4.000000 1.000000 -60.708740 114.000000 231.000000 0.769262 0.161711 0.618130
1.36000001 4.82999992 -0.76999998 12 46 226 97.000000 1.000000 4.000000 1.000000 -60.708740 114.000000 231.000000 0.433690 0.297873 0.850403
1.41999996 4.90999985 -0.75000000 12 46 226 97.000000 1.000000 4.000000 1.000000 -60.708740 114.000000 231.000000 0.322216 0.244190 0.914630
1.35000002 4.84999990 -0.75999999 12 46 226 97.000000 1.000000 4.000000 1.000000 -60.708740 114.000000 231.000000 0.594747 0.129035 0.793490
1.38999999 4.90000010 -0.81000000 12 46 226 97.000000 1.000000 4.000000 1.000000 -60.708740 114.000000 231.000000 0.505795 0.562928 0.653669
1.41999996 4.90999985 -0.81999999 12 46 226 97.000000 1.000000 4.000000 1.000000 -60.708740 114.000000 231.000000 0.315430 0.176474 0.932395
1.39999998 4.84999990 -0.80000001 12 46 226 97.000000 1.000000 4.000000 1.000000 -60.708740 114.000000 231.000000 0.462599 0.197832 0.864213
1.40999997 4.84000015 -0.85000002 12 46 226 97.000000 1.000000 4.000000 1.000000 -60.708740 114.000000 231.000000 0.588273 0.058119 0.806571
1.38000000 4.90999985 -0.83999997 12 46 226 97.000000 1.000000 4.000000 1.000000 -60.708740 114.000000 231.000000 0.460620 -0.140063 0.876477
1.38000000 4.90000010 -0.83999997 12 46 226 97.000000 1.000000 4.000000 1.000000 -60.708740 114.000000 231.000000 0.045451 0.241996 0.969212
1.37000000 4.84999990 -0.82999998 12 46 226 97.000000 1.000000 4.000000 1.000000 -60.708740 114.000000 231.000000 0.621079 0.377260 0.686976
1.33000004 4.86000013 -0.75999999 12 46 226 97.000000 1.000000 4.000000 1.000000 -60.708740 114.000000 231.000000 0.207086 0.559898 0.802265
1.34000003 4.84000015 -0.75000000 12 46 226 97.000000 1.000000 4.000000 1.000000 -60.708740 114.000000 231.000000 0.601316 0.141750 0.786337
1.38000000 4.98999977 -0.88000000 12 46 226 97.000000 1.000000 4.000000 1.000000 -60.708740 114.000000 231.000000 0.808153 -0.026428 0.588380
1.41999996 4.96000004 -0.97000003 12 46 226 97.000000 1.000000 4.000000 1.000000 -60.708740 114.000000 231.000000 0.572944 -0.266742 0.774973
1.40999997 4.92999983 -0.97000003 12 46 226 97.000000 1.000000 4.000000 1.000000 -60.708740 114.000000 231.000000 0.536952 -0.166021 0.827115
1.35000002 4.98000002 -0.97000003 12 46 226 97.000000 1.000000 4.000000 1.000000 -60.708740 114.000000 231.000000 0.346977 -0.056302 0.936182
1.36000001 4.98000002 -0.97000003 12 46 226 97.000000 1.000000 4.000000 1.000000 -60.708740 114.000000 231.000000 0.351690 0.064542 0.933889
1.35000002 4.98999977 -1.00000000 12 46 226 97.000000 1.000000 4.000000 1.000000 -60.708740 114.000000 231.000000 0.719159 0.041135 0.693627
1.35000002 4.96999979 -1.00000000 12 46 226 97.000000 1.000000 4.000000 1.000000 -60.708740 114.000000 231.000000 0.567491 -0.237880 0.788268
1.35000002 4.92000008 -0.97000003 12 46 226 97.000000 1.000000 4.000000 1.000000 -60.708740 114.000000 231.000000 0.643520 -0.035203 0.764620
1.35000002 4.92000008 -0.97000003 12 46 226 97.000000 1.000000 4.000000 1.000000 -60.708740 114.000000 231.000000 0.643520 -0.035203 0.764620
1.35000002 4.94999981 -1.00000000 12 46 226 97.000000 1.000000 4.000000 1.000000 -60.708740 114.000000 231.000000 0.611497 0.350591 0.709336
1.39999998 4.90999985 -0.93000001 12 46 226 97.000000 1.000000 4.000000 1.000000 -60.708740 114.000000 231.000000 0.708245 0.337027 0.620325
1.37000000 4.88000011 -0.88000000 12 46 226 97.000000 1.000000 4.000000 1.000000 -60.708740 114.000000 231.000000 0.373693 -0.108138 0.921227
1.35000002 4.84000015 -0.92000002 12 46 226 97.000000 1.000000 4.000000 1.000000 -60.708740 114.000000 231.000000 0.266129 0.266129 0.926472
1.36000001 4.84999990 -0.93000001 12 46 226 97.000000 1.000000 4.000000 1.000000 -60.708740 114.000000 231.000000 0.123496 0.378812 0.917197
1.38000000 4.86999989 -0.94000000 12 46 226 97.000000 1.000000 4.000000 1.000000 -60.708740 114.000000 231.000000 0.659758 0.166082 0.732895
1.38000000 4.86999989 -0.94000000 12 46 226 97.000000 1.000000 4.000000 1.000000 -60.708740 114.000000 231.000000 0.659758 0.166082 0.732895
1.40999997 4.84000015 -0.99000001 12 46 226 97.000000 1.000000 4.000000 1.000000 -60.708740 114.000000 231.000000 0.686976 0.377260 0.621079
1.36000001 4.90000010 -0.98000002 12 46 226 97.000000 1.000000 4.000000 1.000000 -60.708740 114.000000 231.000000 0.197185 0.155944 0.967884
1.38000000 4.90000010 -0.95999998 12 46 226 97.000000 1.000000 4.000000 1.000000 -60.708740 114.000000 231.000000 0.404220 -0.223580 0.886915
1.36000001 4.88999987 -1.00999999 12 46 226 97.000000 1.000000 4.000000 1.000000 -60.708740 114.000000 231.000000 0.551016 0.447804 0.704168
1.37000000 4.88999987 -1.01999998 12 46 226 97.000000 1.000000 4.000000 1.000000 -60.708740 114.000000 231.000000 0.136961 0.313248 0.939743
1.36000001 4.86999989 -0.97000003 12 46 226 97.000000 1.000000 4.000000 1.000000 -60.708740 114.000000 231.000000 0.127260 0.453274 0.882240
1.35000002 4.86999989 -0.97000003 12 46 226 97.000000 1.000000 4.000000 1.000000 -60.708740 114.000000 231.000000 0.702669 0.411682 0.580322
1.36000001 4.86999989 -0.97000003 12 46 226 97.000000 1.000000 4.000000 1.000000 -60.708740 114.000000 231.000000 0.127260 0.453274 0.882240
1.35000002 4.86000013 -0.95999998 12 46 226 97.000000 1.000000 4.000000 1.000000 -60.708740 114.000000 231.000000 0.386261 0.367495 0.846020
1.30999994 4.96000004 -0.95999998 12 46 226 97.000000 1.000000 4.000000 1.000000 -60.708740 114.000000 231.000000 0.277047 0.213006 0.936949
1.33000004 4.96000004 -1.00000000 12 46 226 97.000000 1.000000 4.000000 1.000000 -60.708740 114.000000 231.000000 0.151567 -0.028490 0.988036
1.34000003 4.94000006 -0.94999999 12 46 226 97.000000 1.000000 4.000000 1.000000 -60.708740 114.000000 231.000000 0.296595 0.054736 0.953433
1.32000005 4.94999981 -0.95999998 12 46 226 97.000000 1.000000 4.000000 1.000000 -60.708740 114.000000 231.000000 0.232478 0.392399 0.889931
1.34000003 4.94999981 -1.00999999 12 46 226 97.000000 1.000000 4.000000 1.000000 -60.708740 114.000000 231.000000 0.485132 0.033973 0.873781
1.28999996 4.94999981 -0.98000002 12 46 226 97.000000 1.000000 4.000000 1.000000 -60.708740 114.000000 231.000000 0.619202 0.300755 0.725351
1.30999994 4.86000013 -0.94000000 12 46 226 97.000000 1.000000 4.000000 1.000000 -60.708740 114.000000 231.000000 0.030078 0.227393 0.973338
1.29999995 4.86999989 -0.94000000 12 46 226 97.000000 1.000000 4.000000 1.000000 -60.708740 114.000000 231.000000 0.198340 0.008119 0.980100
1.32000005 4.90999985 -0.95999998 12 46 226 97.000000 1.000000 4.000000 1.000000 -60.708740 114.000000 231.000000 0.132658 0.256121 0.957499
1.32000005 4.86999989 -0.94999999 12 46 226 97.000000 1.000000 4.000000 1.000000 -60.708740 114.000000 231.000000 0.468618 0.323457 0.822054
1.33000004 4.84999990 -0.95999998 12 46 226 97.000000 1.000000 4.000000 1.000000 -60.708740 114.000000 231.000000 0.339930 0.489946 0.802746
1.36000001 4.80000019 -0.80000001 12 46 226 97.000000 1.000000 4.000000 1.000000 -60.708740 114.000000 231.000000 0.405383 0.703216 0.584083
1.38000000 4.80000019 -0.85000002 12 46 226 97.000000 1.000000 4.000000 1.000000 -60.708740 114.000000 231.000000 0.223376 0.635761 0.738858
1.35000002 4.73000002 -0.85000002 12 46 226 97.000000 1.000000 4.000000 1.000000 -60.708740 114.000000 231.000000 0.193360 0.293517 0.936194
1.35000002 4.73000002 -0.83999997 12 46 226 97.000000 1.000000 4.000000 1.000000 -60.708740 114.000000 231.000000 0.356111 0.803245 0.477476
1.32000005 4.78999996 -0.72000003 12 46 226 97.000000 1.000000 4.000000 1.000000 -60.708740 114.000000 231.000000 0.554875 0.400103 0.729405
1.30999994 4.80000019 -0.75999999 12 46 226 97.000000 1.000000 4.000000 1.000000 -60.708740 114.000000 231.000000 0.333222 0.376219 0.864536
1.32000005 4.78999996 -0.75000000 12 46 226 97.000000 1.000000 4.000000 1.000000 -60.708740 114.000000 231.000000 0.609391 0.545245 0.575630
1.33000004 4.78999996 -0.83999997 12 46 226 97.000000 1.000000 4.000000 1.000000 -60.708740 114.000000 231.000000 0.518146 0.218569 0.826893
1.30999994 4.75000000 -0.77999997 12 46 226 97.000000 1.000000 4.000000 1.000000 -60.708740 114.000000 231.000000 0.377469 0.631313 0.677467
1.29999995 4.78999996 -0.82999998 12 46 226 97.000000 1.000000 4.000000 1.000000 -60.708740 114.000000 231.000000 0.149755 0.718521 0.679191
1.26999998 4.80999994 -0.83999997 12 46 226 97.000000 1.000000 4.000000 1.000000 -60.708740 114.000000 231.000000 0.559298 0.626887 0.542401
1.28999996 4.80999994 -0.83999997 12 46 226 97.000000 1.000000 4.000000 1.000000 -60.708740 114.000000 231.000000 0.094867 0.400093 0.911551
1.28999996 4.80000019 -0.83999997 12 46 226 97.000000 1.000000 4.000000 1.000000 -60.708740 114.000000 231.000000 0.200059 0.554363 0.807873
1.28999996 4.80999994 -0.83999997 12 46 226 97.000000 1.000000 4.000000 1.000000 -60.708740 114.000000 231.000000 0.094867 0.400093 0.911551
1.28999996 4.82000017 -0.81999999 12 46 226 97.000000 1.000000 4.000000 1.000000 -60.708740 114.000000 231.000000 -0.001308 0.438294 0.898831
1.28999996 4.76999998 -0.83999997 12 46 226 97.000000 1.000000 4.000000 1.000000 -60.708740 114.000000 231.000000 0.389860 0.755252 0.526882
1.29999995 4.76000023 -0.85000002 12 46 226 97.000000 1.000000 4.000000 1.000000 -60.708740 114.000000 231.000000 0.607142 0.383372 0.695992
1.32000005 4.73000002 -0.76999998 12 46 226 97.000000 1.000000 4.000000 1.000000 -60.708740 114.000000 231.000000 0.182456 0.663896 0.725226
1.32000005 4.73000002 -0.76999998 12 46 226 97.000000 1.000000 4.000000 1.000000 -60.708740 114.000000 231.000000 0.182456 0.663896 0.725226
1.30999994 4.73000002 -0.76999998 12 46 226 97.000000 1.000000 4.000000 1.000000 -60.708740 114.000000 231.000000 0.205930 0.813041 0.544570
1.33000004 4.71999979 -0.75999999 12 46 226 97.000000 1.000000 4.000000 1.000000 -60.708740 114.000000 231.000000 0.282074 0.540510 0.792643
1.30999994 4.73000002 -0.76999998 12 46 226 97.000000 1.000000 4.000000 1.000000 -60.708740 114.000000 231.000000 0.205930 0.813041 0.544570
1.32000005 4.67000008 -0.70999998 12 46 226 97.000000 1.000000 4.000000 1.000000 -60.708740 114.000000 231.000000 -0.001292 0.913437 0.406977
1.26999998 4.71000004 -0.70999998 12 46 226 97.000000 1.000000 4.000000 1.000000 -60.708740 114.000000 231.000000 0.456760 0.823433 0.336643
1.29999995 4.73000002 -0.75999999 12 46 226 97.000000 1.000000 4.000000 1.000000 -60.708740 114.000000 231.000000 0.379567 0.603036 0.701624
1.28999996 4.71000004 -0.74000001 12 46 226 97.000000 1.000000 4.000000 1.000000 -60.708740 114.000000 231.000000 -0.133021 0.656137 0.742825
1.28999996 4.73000002 -0.75999999 12 46 226 97.000000 1.000000 4.000000 1.000000 -60.708740 114.000000 231.000000 0.104519 0.740466 0.663917
1.27999997 4.71999979 -0.74000001 12 46 226 97.000000 1.000000 4.000000 1.000000 -60.708740 114.000000 231.000000 0.443330 0.496069 0.746575
1.29999995 4.71999979 -0.75000000 12 46 226 97.000000 1.000000 4.000000 1.000000 -60.708740 114.000000 231.000000 0.107850 0.743131 0.660397
1.30999994 4.71000004 -0.82999998 12 46 226 97.000000 1.000000 4.000000 1.000000 -60.708740 114.000000 231.000000 0.492213 0.666924 0.559410
1.32000005 4.69000006 -0.81000000 12 46 226 97.000000 1.000000 4.000000 1.000000 -60.708740 114.000000 231.000000 0.592294 0.704483 0.391013
1.30999994 4.69999981 -0.81999999 12 46 226 97.000000 1.000000 4.000000 1.000000 -60.708740 114.000000 231.000000 0.564582 0.631995 0.530876
1.33000004 4.69000006 -0.83999997 12 46 226 97.000000 1.000000 4.000000 1.000000 -60.708740 114.000000 231.000000 0.364239 0.857123 0.364239
1.40999997 4.80999994 -0.94000000 12 46 226 97.000000 1.000000 4.000000 1.000000 -60.708740 114.000000 231.000000 0.336560 0.395496 0.854582
1.38999999 4.76000023 -0.94000000 12 46 226 97.000000 1.000000 4.000000 1.000000 -60.708740 114.000000 231.000000 0.453706 0.657957 0.601035
1.37000000 4.78999996 -0.87000000 12 46 226 97.000000 1.000000 4.000000 1.000000 -60.708740 114.000000 231.000000 0.601440 0.457362 0.655050
1.38000000 4.82000017 -0.89999998 12 46 226 97.000000 1.000000 4.000000 1.000000 -60.708740 114.000000 231.000000 0.661245 0.286593 0.693267
1.36000001 4.78999996 -0.91000003 12 46 226 97.000000 1.000000 4.000000 1.000000 -60.708740 114.000000 231.000000 0.496060 0.482788 0.721693
1.37000000 4.76999998 -0.86000001 12 46 226 97.000000 1.000000 4.000000 1.000000 -60.708740 114.000000 231.000000 0.651206 0.384129 0.654504
1.35000002 4.78000021 -0.89999998 12 46 226 97.000000 1.000000 4.000000 1.000000 -60.708740 114.000000 231.000000 0.628274 0.209425 0.749275
1.38999999 4.78999996 -0.97000003 12 46 226 97.000000 1.000000 4.000000 1.000000 -60.708740 114.000000 231.000000 0.423862 0.486051 0.764261
1.38999999 4.78000021 -0.94999999 12 46 226 97.000000 1.000000 4.000000 1.000000 -60.708740 114.000000 231.000000 0.436557 0.475798 0.763566
1.36000001 4.80000019 -0.94999999 12 46 226 97.000000 1.000000 4.000000 1.000000 -60.708740 114.000000 231.000000 0.534220 0.179077 0.826160
1.37000000 4.80000019 -0.95999998 12 46 226 97.000000 1.000000 4.000000 1.000000 -60.708740 114.000000 231.000000 0.332559 0.083471 0.939381
1.37000000 4.73999977 -0.87000000 12 46 226 97.000000 1.000000 4.000000 1.000000 -60.708740 114.000000 231.000000 0.226198 0.848620 0.478203
1.35000002 4.69999981 -0.88000000 12 46 226 97.000000 1.000000 4.000000 1.000000 -60.708740 114.000000 231.000000 0.111170 0.689257 0.715937
1.39999998 4.73999977 -0.87000000 12 46 226 97.000000 1.000000 4.000000 1.000000 -60.708740 114.000000 231.000000 0.593395 0.364537 0.717632
1.34000003 4.76999998 -0.88999999 12 46 226 97.000000 1.000000 4.000000 1.000000 -60.708740 114.000000 231.000000 0.624924 0.409433 0.664707
1.33000004 4.78000021 -0.88999999 12 46 226 97.000000 1.000000 4.000000 1.000000 -60.708740 114.000000 231.000000 0.420463 0.401279 0.813748
1.27999997 4.76999998 -0.91000003 12 46 226 97.000000 1.000000 4.000000 1.000000 -60.708740 114.000000 231.000000 0.470803 0.334476 0.816376
1.34000003 4.80999994 -0.95999998 12 46 226 97.000000 1.000000 4.000000 1.000000 -60.708740 114.000000 231.000000 0.247768 0.699115 0.670708
1.33000004 4.80999994 -0.94999999 12 46 226 97.000000 1.000000 4.000000 1.000000 -60.708740 114.000000 231.000000 0.576776 0.389447 0.718095
1.34000003 4.80000019 -0.94999999 12 46 226 97.000000 1.000000 4.000000 1.000000 -60.708740 114.000000 231.000000 0.225035 0.578883 0.783743
1.34000003 4.80999994 -0.95999998 12 46 226 97.000000 1.000000 4.000000 1.000000 -60.708740 114.000000 231.000000 0.247768 0.699115 0.670708
1.34000003 4.82000017 -0.95999998 12 46 226 97.000000 1.000000 4.000000 1.000000 -60.708740 114.000000 231.000000 0.249549 0.005970 0.968344
1.30999994 4.73000002 -0.88999999 12 46 226 97.000000 1.000000 4.000000 1.000000 -60.708740 114.000000 231.000000 0.311354 0.704983 0.637227
1.34000003 4.69999981 -0.88000000 12 46 226 97.000000 1.000000 4.000000 1.000000 -60.708740 114.000000 231.000000 0.120647 0.677706 0.725368
1.29999995 4.71999979 -0.91000003 12 46 226 97.000000 1.000000 4.000000 1.000000 -60.708740 114.000000 231.000000 0.282783 0.733318 0.618287
1.44000006 4.98000002 -1.16999996 12 46 226 97.000000 1.000000 4.000000 1.000000 -60.708740 114.000000 231.000000 0.162180 0.256003 0.952974
1.42999995 4.96000004 -1.15999997 12 46 226 97.000000 1.000000 4.000000 1.000000 -60.708740 114.000000 231.000000 0.399727 -0.167627 0.901177
1.47000003 4.84000015 -1.17999995 12 46 226 97.000000 1.000000 4.000000 1.000000 -60.708740 114.000000 231.000000 0.484237 0.053804 0.873281
1.45000005 4.82999992 -1.19000006 12 46 226 97.000000 1.000000 4.000000 1.000000 -60.708740 114.000000 231.000000 0.183633 -0.017324 0.982842
1.47000003 4.84000015 -1.17999995 12 46 226 97.000000 1.000000 4.000000 1.000000 -60.708740 114.000000 231.000000 0.484237 0.053804 0.873281
1.45000005 4.82999992 -1.19000006 12 46 226 97.000000 1.000000 4.000000 1.000000 -60.708740 114.000000 231.000000 0.183633 -0.017324 0.982842
