//X Y Z R G B PointSourceId ScanDirectionFlag NumberOfReturns ReturnNumber GpsTime Intensity Classification Nx Ny Nz
-5.55999994 -3.64000010 -0.16000000 69 179 131 0.000000 0.000000 0.000000 0.000000 -60.708740 0.000000 198.000000 0.848802 0.114234 0.516222
-5.57000017 -3.65000010 -0.06000000 69 179 131 0.000000 0.000000 0.000000 0.000000 -60.708740 0.000000 198.000000 0.750510 0.142883 0.645228
-5.57000017 -3.66000009 -0.06000000 69 179 131 0.000000 0.000000 0.000000 0.000000 -60.708740 0.000000 198.000000 0.757849 0.168580 0.630275
-5.55999994 -3.73000002 -0.04000000 69 179 131 0.000000 0.000000 0.000000 0.000000 -60.708740 0.000000 198.000000 0.638387 -0.425036 0.641721
-5.55999994 -3.69000006 -0.08000000 69 179 131 0.000000 0.000000 0.000000 0.000000 -60.708740 0.000000 198.000000 0.847896 -0.494980 0.189917
-5.57000017 -3.73000002 -0.08000000 69 179 131 0.000000 0.000000 0.000000 0.000000 -60.708740 0.000000 198.000000 0.643220 -0.388577 0.659755
-5.55000019 -3.70000005 -0.07000000 69 179 131 0.000000 0.000000 0.000000 0.000000 -60.708740 0.000000 198.000000 0.775341 0.104063 0.622911
-5.55000019 -3.70000005 -0.07000000 69 179 131 0.000000 0.000000 0.000000 0.000000 -60.708740 0.000000 198.000000 0.775341 0.104063 0.622911
-5.57999992 -3.66000009 -0.05000000 69 179 131 0.000000 0.000000 0.000000 0.000000 -60.708740 0.000000 198.000000 0.885288 0.157417 0.437589
-5.57999992 -3.73000002 -0.08000000 69 179 131 0.000000 0.000000 0.000000 0.000000 -60.708740 0.000000 198.000000 0.673735 -0.525883 0.519162
-5.55000019 -3.65000010 -0.11000000 69 179 131 0.000000 0.000000 0.000000 0.000000 -60.708740 0.000000 198.000000 0.869057 -0.042560 0.492878
-5.53999996 -3.66000009 -0.12000000 69 179 131 0.000000 0.000000 0.000000 0.000000 -60.708740 0.000000 198.000000 0.877945 -0.142720 0.456993
-5.53999996 -3.65000010 -0.12000000 69 179 131 0.000000 0.000000 0.000000 0.000000 -60.708740 0.000000 198.000000 0.829510 -0.081381 0.552531
-5.55999994 -3.67000008 -0.16000000 69 179 131 0.000000 0.000000 0.000000 0.000000 -60.708740 0.000000 198.000000 0.885116 -0.099910 0.454519
-5.55999994 -3.68000007 -0.16000000 69 179 131 0.000000 0.000000 0.000000 0.000000 -60.708740 0.000000 198.000000 0.719338 0.032504 0.693900
-5.55999994 -3.70000005 -0.12000000 69 179 131 0.000000 0.000000 0.000000 0.000000 -60.708740 0.000000 198.000000 0.837132 -0.450524 0.310222
-5.55999994 -3.70000005 -0.12000000 69 179 131 0.000000 0.000000 0.000000 0.000000 -60.708740 0.000000 198.000000 0.837132 -0.450524 0.310222
-5.53999996 -3.70000005 -0.17000000 69 179 131 0.000000 0.000000 0.000000 0.000000 -60.708740 0.000000 198.000000 0.763119 -0.256471 0.593188
-5.51999998 -3.60999990 -0.20999999 69 179 131 0.000000 0.000000 0.000000 0.000000 -60.708740 0.000000 198.000000 0.845065 0.305464 0.438814
-5.48999977 -3.64000010 -0.31999999 69 179 131 0.000000 0.000000 0.000000 0.000000 -60.708740 0.000000 198.000000 0.720464 -0.428966 0.544903
-5.53000021 -3.63000011 -0.30000001 69 179 131 0.000000 0.000000 0.000000 0.000000 -60.708740 0.000000 198.000000 -0.703405 0.344358 -0.621803
-5.53000021 -3.67000008 -0.23000000 69 179 131 0.000000 0.000000 0.000000 0.000000 -60.708740 0.000000 198.000000 0.843962 -0.246602 0.476356
-5.53000021 -3.65000010 -0.23000000 69 179 131 0.000000 0.000000 0.000000 0.000000 -60.708740 0.000000 198.000000 0.724475 -0.089279 0.683495
-5.53000021 -3.68000007 -0.31000000 69 179 131 0.000000 0.000000 0.000000 0.000000 -60.708740 0.000000 198.000000 0.795648 -0.306507 0.522492
-5.51999998 -3.68000007 -0.28000000 69 179 131 0.000000 0.000000 0.000000 0.000000 -60.708740 0.000000 198.000000 0.849100 -0.271773 0.452956
-5.53000021 -3.73000002 -0.34999999 69 179 131 0.000000 0.000000 0.000000 0.000000 -60.708740 0.000000 198.000000 0.898622 0.025295 0.437995
-5.55999994 -3.58999991 -0.20000000 69 179 131 0.000000 0.000000 0.000000 0.000000 -60.708740 0.000000 198.000000 0.848077 -0.177366 0.499307
-5.55000019 -3.56999993 -0.22000000 69 179 131 0.000000 0.000000 0.000000 0.000000 -60.708740 0.000000 198.000000 0.780406 0.352389 0.516516
-5.55999994 -3.58999991 -0.20000000 69 179 131 0.000000 0.000000 0.000000 0.000000 -60.708740 0.000000 198.000000 0.848077 -0.177366 0.499307
-5.55000019 -3.57999992 -0.25000000 69 179 131 0.000000 0.000000 0.000000 0.000000 -60.708740 0.000000 198.000000 0.851612 0.215541 0.477807
-5.55999994 -3.63000011 -0.19000000 69 179 131 0.000000 0.000000 0.000000 0.000000 -60.708740 0.000000 198.000000 0.801502 0.160902 0.575939
-5.55000019 -3.60999990 -0.27000001 69 179 131 0.000000 0.000000 0.000000 0.000000 -60.708740 0.000000 198.000000 0.636562 -0.095118 0.765338
-5.55999994 -3.60999990 -0.25999999 69 179 131 0.000000 0.000000 0.000000 0.000000 -60.708740 0.000000 198.000000 0.829545 -0.066647 0.554448
-5.55999994 -3.64000010 -0.25999999 69 179 131 0.000000 0.000000 0.000000 0.000000 -60.708740 0.000000 198.000000 0.683981 -0.341174 0.644803
-5.55000019 -3.60999990 -0.27000001 69 179 131 0.000000 0.000000 0.000000 0.000000 -60.708740 0.000000 198.000000 0.636562 -0.095118 0.765338
-5.57000017 -3.56999993 -0.30000001 69 179 131 0.000000 0.000000 0.000000 0.000000 -60.708740 0.000000 198.000000 0.654638 0.499814 0.567129
-5.57000017 -3.59999990 -0.34000000 69 179 131 0.000000 0.000000 0.000000 0.000000 -60.708740 0.000000 198.000000 0.784992 0.161217 0.598161
-5.55999994 -3.56999993 -0.31999999 69 179 131 0.000000 0.000000 0.000000 0.000000 -60.708740 0.000000 198.000000 0.840645 0.190987 0.506793
-5.55999994 -3.57999992 -0.31999999 69 179 131 0.000000 0.000000 0.000000 0.000000 -60.708740 0.000000 198.000000 0.857575 0.208762 0.470089
-5.55000019 -3.63000011 -0.28999999 69 179 131 0.000000 0.000000 0.000000 0.000000 -60.708740 0.000000 198.000000 0.782832 -0.012470 0.622109
-5.55000019 -3.64000010 -0.31000000 69 179 131 0.000000 0.000000 0.000000 0.000000 -60.708740 0.000000 198.000000 0.891642 -0.282279 0.353968
-5.55999994 -3.64000010 -0.34000000 69 179 131 0.000000 0.000000 0.000000 0.000000 -60.708740 0.000000 198.000000 0.670082 0.009711 0.742223
-5.55999994 -3.67000008 -0.23999999 69 179 131 0.000000 0.000000 0.000000 0.000000 -60.708740 0.000000 198.000000 0.877417 0.155180 0.453937
-5.55999994 -3.69000006 -0.20000000 69 179 131 0.000000 0.000000 0.000000 0.000000 -60.708740 0.000000 198.000000 0.682294 -0.293788 0.669451
-5.53999996 -3.72000003 -0.22000000 69 179 131 0.000000 0.000000 0.000000 0.000000 -60.708740 0.000000 198.000000 0.890692 0.053196 0.451484
-5.57000017 -3.73000002 -0.19000000 69 179 131 0.000000 0.000000 0.000000 0.000000 -60.708740 0.000000 198.000000 0.746315 -0.543814 0.383772
-5.55999994 -3.69000006 -0.23000000 69 179 131 0.000000 0.000000 0.000000 0.000000 -60.708740 0.000000 198.000000 0.789003 -0.419613 0.448776
-5.55999994 -3.69000006 -0.23000000 69 179 131 0.000000 0.000000 0.000000 0.000000 -60.708740 0.000000 198.000000 0.789003 -0.419613 0.448776
-5.53999996 -3.71000004 -0.27000001 69 179 131 0.000000 0.000000 0.000000 0.000000 -60.708740 0.000000 198.000000 0.655340 -0.621989 0.428555
-5.57000017 -3.73000002 -0.23999999 69 179 131 0.000000 0.000000 0.000000 0.000000 -60.708740 0.000000 198.000000 0.688436 -0.279527 0.669268
-5.55999994 -3.73000002 -0.27000001 69 179 131 0.000000 0.000000 0.000000 0.000000 -60.708740 0.000000 198.000000 0.855572 -0.023197 0.517164
-5.55000019 -3.72000003 -0.25000000 69 179 131 0.000000 0.000000 0.000000 0.000000 -60.708740 0.000000 198.000000 0.741118 -0.236594 0.628305
-5.53999996 -3.71000004 -0.27000001 69 179 131 0.000000 0.000000 0.000000 0.000000 -60.708740 0.000000 198.000000 0.655340 -0.621989 0.428555
-5.57000017 -3.72000003 -0.23999999 69 179 131 0.000000 0.000000 0.000000 0.000000 -60.708740 0.000000 198.000000 0.679406 -0.334001 0.653338
-5.55000019 -3.73000002 -0.25000000 69 179 131 0.000000 0.000000 0.000000 0.000000 -60.708740 0.000000 198.000000 0.699638 -0.411844 0.583859
-5.55999994 -3.68000007 -0.28000000 69 179 131 0.000000 0.000000 0.000000 0.000000 -60.708740 0.000000 198.000000 0.875837 -0.130872 0.464524
-5.55999994 -3.71000004 -0.28999999 69 179 131 0.000000 0.000000 0.000000 0.000000 -60.708740 0.000000 198.000000 0.742324 -0.264324 0.615701
-5.55999994 -3.70000005 -0.28999999 69 179 131 0.000000 0.000000 0.000000 0.000000 -60.708740 0.000000 198.000000 0.763199 -0.426542 0.485375
-5.53999996 -3.71000004 -0.30000001 69 179 131 0.000000 0.000000 0.000000 0.000000 -60.708740 0.000000 198.000000 0.777168 -0.283326 0.561904
-5.55999994 -3.69000006 -0.31000000 69 179 131 0.000000 0.000000 0.000000 0.000000 -60.708740 0.000000 198.000000 0.809391 -0.563120 0.166683
-5.53999996 -3.70000005 -0.30000001 69 179 131 0.000000 0.000000 0.000000 0.000000 -60.708740 0.000000 198.000000 0.814990 0.009588 0.579396
-5.53999996 -3.70000005 -0.33000001 69 179 131 0.000000 0.000000 0.000000 0.000000 -60.708740 0.000000 198.000000 0.756793 -0.616934 0.216004
-5.53999996 -3.71000004 -0.34000000 69 179 131 0.000000 0.000000 0.000000 0.000000 -60.708740 0.000000 198.000000 0.638063 -0.123448 0.760024
-5.55000019 -3.71000004 -0.33000001 69 179 131 0.000000 0.000000 0.000000 0.000000 -60.708740 0.000000 198.000000 0.773949 -0.586325 0.239221
-5.53999996 -3.71000004 -0.34000000 69 179 131 0.000000 0.000000 0.000000 0.000000 -60.708740 0.000000 198.000000 0.638063 -0.123448 0.760024
-5.65999985 -3.40000010 -0.03000000 69 179 131 0.000000 0.000000 0.000000 0.000000 -60.708740 0.000000 198.000000 0.503496 0.809697 0.301466
-5.63000011 -3.43000007 -0.06000000 69 179 131 0.000000 0.000000 0.000000 0.000000 -60.708740 0.000000 198.000000 0.763262 0.515893 0.388954
-5.63000011 -3.40000010 -0.03000000 69 179 131 0.000000 0.000000 0.000000 0.000000 -60.708740 0.000000 198.000000 0.770289 0.336097 0.541936
-5.65999985 -3.40000010 -0.04000000 69 179 131 0.000000 0.000000 0.000000 0.000000 -60.708740 0.000000 198.000000 0.516247 0.775179 0.364124
-5.65999985 -3.40000010 -0.03000000 69 179 131 0.000000 0.000000 0.000000 0.000000 -60.708740 0.000000 198.000000 0.503496 0.809697 0.301466
-5.61999989 -3.42000008 -0.09000000 69 179 131 0.000000 0.000000 0.000000 0.000000 -60.708740 0.000000 198.000000 0.654037 0.446619 0.610546
-5.61999989 -3.44000006 -0.06000000 69 179 131 0.000000 0.000000 0.000000 0.000000 -60.708740 0.000000 198.000000 0.667845 0.473685 0.574113
-5.61999989 -3.47000003 -0.06000000 69 179 131 0.000000 0.000000 0.000000 0.000000 -60.708740 0.000000 198.000000 0.566534 0.430300 0.702767
-5.61999989 -3.44000006 -0.07000000 69 179 131 0.000000 0.000000 0.000000 0.000000 -60.708740 0.000000 198.000000 0.966428 0.153956 0.205706
-5.65000010 -3.42000008 -0.11000000 69 179 131 0.000000 0.000000 0.000000 0.000000 -60.708740 0.000000 198.000000 0.847966 0.203331 0.489501
-5.65000010 -3.41000009 -0.11000000 69 179 131 0.000000 0.000000 0.000000 0.000000 -60.708740 0.000000 198.000000 0.885617 0.268233 0.379122
-5.65000010 -3.41000009 -0.11000000 69 179 131 0.000000 0.000000 0.000000 0.000000 -60.708740 0.000000 198.000000 0.885617 0.268233 0.379122
-5.63999987 -3.42000008 -0.16000000 69 179 131 0.000000 0.000000 0.000000 0.000000 -60.708740 0.000000 198.000000 0.884410 0.323932 0.335986
-5.65999985 -3.40000010 -0.18000001 69 179 131 0.000000 0.000000 0.000000 0.000000 -60.708740 0.000000 198.000000 0.600786 0.486351 0.634444
-5.63999987 -3.42000008 -0.16000000 69 179 131 0.000000 0.000000 0.000000 0.000000 -60.708740 0.000000 198.000000 0.884410 0.323932 0.335986
-5.63999987 -3.44000006 -0.18000001 69 179 131 0.000000 0.000000 0.000000 0.000000 -60.708740 0.000000 198.000000 0.705390 0.398124 0.586448
-5.63999987 -3.44000006 -0.18000001 69 179 131 0.000000 0.000000 0.000000 0.000000 -60.708740 0.000000 198.000000 0.705390 0.398124 0.586448
-5.63000011 -3.44000006 -0.15000001 69 179 131 0.000000 0.000000 0.000000 0.000000 -60.708740 0.000000 198.000000 0.530213 0.800826 0.278480
-5.63999987 -3.47000003 -0.18000001 69 179 131 0.000000 0.000000 0.000000 0.000000 -60.708740 0.000000 198.000000 0.842610 0.139214 0.520220
-5.67000008 -3.40000010 -0.18000001 69 179 131 0.000000 0.000000 0.000000 0.000000 -60.708740 0.000000 198.000000 0.516292 0.650830 0.556653
-5.67000008 -3.40000010 -0.18000001 69 179 131 0.000000 0.000000 0.000000 0.000000 -60.708740 0.000000 198.000000 0.516292 0.650830 0.556653
-5.61999989 -3.43000007 -0.20000000 69 179 131 0.000000 0.000000 0.000000 0.000000 -60.708740 0.000000 198.000000 0.764999 0.453758 0.457034
-5.63999987 -3.42000008 -0.20000000 69 179 131 0.000000 0.000000 0.000000 0.000000 -60.708740 0.000000 198.000000 0.579575 0.582954 0.569436
-5.61999989 -3.43000007 -0.22000000 69 179 131 0.000000 0.000000 0.000000 0.000000 -60.708740 0.000000 198.000000 0.702186 0.355185 0.617073
-5.63999987 -3.42000008 -0.20000000 69 179 131 0.000000 0.000000 0.000000 0.000000 -60.708740 0.000000 198.000000 0.579575 0.582954 0.569436
-5.63999987 -3.42000008 -0.27000001 69 179 131 0.000000 0.000000 0.000000 0.000000 -60.708740 0.000000 198.000000 0.762776 0.400171 0.507973
-5.61999989 -3.47000003 -0.20999999 69 179 131 0.000000 0.000000 0.000000 0.000000 -60.708740 0.000000 198.000000 0.888740 0.157006 0.430686
-5.63999987 -3.42000008 -0.28000000 69 179 131 0.000000 0.000000 0.000000 0.000000 -60.708740 0.000000 198.000000 0.689004 0.465453 0.555541
-5.63000011 -3.43000007 -0.31000000 69 179 131 0.000000 0.000000 0.000000 0.000000 -60.708740 0.000000 198.000000 0.474707 0.615610 0.629029
-5.63000011 -3.40000010 -0.31999999 69 179 131 0.000000 0.000000 0.000000 0.000000 -60.708740 0.000000 198.000000 0.765895 0.429489 0.478480
-5.65000010 -3.41000009 -0.33000001 69 179 131 0.000000 0.000000 0.000000 0.000000 -60.708740 0.000000 198.000000 0.380269 0.887294 0.260969
-5.63000011 -3.42000008 -0.33000001 69 179 131 0.000000 0.000000 0.000000 0.000000 -60.708740 0.000000 198.000000 0.369195 0.916669 0.153012
-5.63000011 -3.42000008 -0.33000001 69 179 131 0.000000 0.000000 0.000000 0.000000 -60.708740 0.000000 198.000000 0.369195 0.916669 0.153012
-5.61999989 -3.46000004 -0.28999999 69 179 131 0.000000 0.000000 0.000000 0.000000 -60.708740 0.000000 198.000000 0.907880 0.169604 0.383390
-5.63000011 -3.45000005 -0.34000000 69 179 131 0.000000 0.000000 0.000000 0.000000 -60.708740 0.000000 198.000000 0.637595 0.446819 0.627555
-5.63000011 -3.45000005 -0.34000000 69 179 131 0.000000 0.000000 0.000000 0.000000 -60.708740 0.000000 198.000000 0.637595 0.446819 0.627555
-5.61999989 -3.46000004 -0.34999999 69 179 131 0.000000 0.000000 0.000000 0.000000 -60.708740 0.000000 198.000000 0.780029 0.321942 0.536570
-5.61000013 -3.47000003 -0.38000000 69 179 131 0.000000 0.000000 0.000000 0.000000 -60.708740 0.000000 198.000000 0.847508 0.248908 0.468802
-5.57999992 -3.47000003 -0.38000000 69 179 131 0.000000 0.000000 0.000000 0.000000 -60.708740 0.000000 198.000000 0.441498 0.674742 0.591441
-5.59000015 -3.47000003 -0.37000000 69 179 131 0.000000 0.000000 0.000000 0.000000 -60.708740 0.000000 198.000000 0.591706 0.694468 0.409388
-5.61000013 -3.47000003 -0.38000000 69 179 131 0.000000 0.000000 0.000000 0.000000 -60.708740 0.000000 198.000000 0.847508 0.248908 0.468802
-5.57999992 -3.46000004 -0.47999999 69 179 131 0.000000 0.000000 0.000000 0.000000 -60.708740 0.000000 198.000000 0.402493 0.687385 0.604567
-5.59999990 -3.44000006 -0.46000001 69 179 131 0.000000 0.000000 0.000000 0.000000 -60.708740 0.000000 198.000000 0.405449 0.911923 0.063309
-5.59000015 -3.46000004 -0.50999999 69 179 131 0.000000 0.000000 0.000000 0.000000 -60.708740 0.000000 198.000000 0.472255 0.880912 0.031123
-5.61000013 -3.47000003 -0.50999999 69 179 131 0.000000 0.000000 0.000000 0.000000 -60.708740 0.000000 198.000000 0.586525 0.808757 0.043603
-5.59000015 -3.46000004 -0.50999999 69 179 131 0.000000 0.000000 0.000000 0.000000 -60.708740 0.000000 198.000000 0.472255 0.880912 0.031123
-5.55000019 -3.50999999 -0.36000001 69 179 131 0.000000 0.000000 0.000000 0.000000 -60.708740 0.000000 198.000000 0.670035 0.392095 0.630329
-5.55999994 -3.51999998 -0.38000000 69 179 131 0.000000 0.000000 0.000000 0.000000 -60.708740 0.000000 198.000000 0.668975 0.691327 0.273018
-5.57000017 -3.53999996 -0.37000000 69 179 131 0.000000 0.000000 0.000000 0.000000 -60.708740 0.000000 198.000000 0.748922 0.578200 0.323728
-5.57000017 -3.54999995 -0.43000001 69 179 131 0.000000 0.000000 0.000000 0.000000 -60.708740 0.000000 198.000000 0.674830 0.631931 0.381139
-5.55999994 -3.55999994 -0.40000001 69 179 131 0.000000 0.000000 0.000000 0.000000 -60.708740 0.000000 198.000000 0.660847 0.600618 0.450045
-5.57999992 -3.48000002 -0.37000000 69 179 131 0.000000 0.000000 0.000000 0.000000 -60.708740 0.000000 198.000000 0.717343 0.490989 0.494317
-5.59999990 -3.48000002 -0.38999999 69 179 131 0.000000 0.000000 0.000000 0.000000 -60.708740 0.000000 198.000000 0.761128 0.358655 0.540417
-5.59999990 -3.48000002 -0.38999999 69 179 131 0.000000 0.000000 0.000000 0.000000 -60.708740 0.000000 198.000000 0.761128 0.358655 0.540417
-5.59000015 -3.49000001 -0.41999999 69 179 131 0.000000 0.000000 0.000000 0.000000 -60.708740 0.000000 198.000000 0.730594 0.455586 0.508600
-5.55000019 -3.50000000 -0.44000000 69 179 131 0.000000 0.000000 0.000000 0.000000 -60.708740 0.000000 198.000000 0.487006 0.737938 0.467196
-5.55000019 -3.50000000 -0.51999998 69 179 131 0.000000 0.000000 0.000000 0.000000 -60.708740 0.000000 198.000000 0.720685 0.322284 0.613797
-5.57000017 -3.48000002 -0.51999998 69 179 131 0.000000 0.000000 0.000000 0.000000 -60.708740 0.000000 198.000000 0.823517 0.251845 0.508325
-5.57000017 -3.49000001 -0.50999999 69 179 131 0.000000 0.000000 0.000000 0.000000 -60.708740 0.000000 198.000000 0.512694 0.849649 0.123453
-5.53999996 -3.55999994 -0.46000001 69 179 131 0.000000 0.000000 0.000000 0.000000 -60.708740 0.000000 198.000000 0.688055 0.568104 0.451484
-5.53999996 -3.55999994 -0.50000000 69 179 131 0.000000 0.000000 0.000000 0.000000 -60.708740 0.000000 198.000000 0.629111 0.588632 0.507674
-5.57999992 -3.49000001 -0.44000000 69 179 131 0.000000 0.000000 0.000000 0.000000 -60.708740 0.000000 198.000000 0.637826 0.759741 0.126376
-5.57999992 -3.50000000 -0.46000001 69 179 131 0.000000 0.000000 0.000000 0.000000 -60.708740 0.000000 198.000000 0.670232 0.707727 0.223411
-5.57999992 -3.51999998 -0.44999999 69 179 131 0.000000 0.000000 0.000000 0.000000 -60.708740 0.000000 198.000000 0.705672 0.294164 0.644589
-5.57999992 -3.50999999 -0.47000000 69 179 131 0.000000 0.000000 0.000000 0.000000 -60.708740 0.000000 198.000000 0.646830 0.495623 0.579627
-5.57999992 -3.48000002 -0.44999999 69 179 131 0.000000 0.000000 0.000000 0.000000 -60.708740 0.000000 198.000000 0.594763 0.497040 0.631830
-5.57999992 -3.48000002 -0.44999999 69 179 131 0.000000 0.000000 0.000000 0.000000 -60.708740 0.000000 198.000000 0.594763 0.497040 0.631830
-5.57999992 -3.48000002 -0.44999999 69 179 131 0.000000 0.000000 0.000000 0.000000 -60.708740 0.000000 198.000000 0.594763 0.497040 0.631830
-5.57999992 -3.51999998 -0.44999999 69 179 131 0.000000 0.000000 0.000000 0.000000 -60.708740 0.000000 198.000000 0.705672 0.294164 0.644589
-5.59999990 -3.48000002 -0.50999999 69 179 131 0.000000 0.000000 0.000000 0.000000 -60.708740 0.000000 198.000000 0.617740 0.785832 -0.029416
-5.57999992 -3.51999998 -0.50000000 69 179 131 0.000000 0.000000 0.000000 0.000000 -60.708740 0.000000 198.000000 0.503023 0.766744 0.398837
-5.59999990 -3.48000002 -0.50000000 69 179 131 0.000000 0.000000 0.000000 0.000000 -60.708740 0.000000 198.000000 0.370724 0.843124 0.389495
-5.59999990 -3.49000001 -0.49000001 69 179 131 0.000000 0.000000 0.000000 0.000000 -60.708740 0.000000 198.000000 0.439889 0.715443 0.542807
-5.59999990 -3.48000002 -0.50000000 69 179 131 0.000000 0.000000 0.000000 0.000000 -60.708740 0.000000 198.000000 0.370724 0.843124 0.389495
-5.51999998 -3.55999994 -0.62000000 69 179 131 0.000000 0.000000 0.000000 0.000000 -60.708740 0.000000 198.000000 0.741002 0.156080 0.653112
-5.53000021 -3.54999995 -0.62000000 69 179 131 0.000000 0.000000 0.000000 0.000000 -60.708740 0.000000 198.000000 0.708158 0.677166 0.199896
-5.51999998 -3.52999997 -0.67000002 69 179 131 0.000000 0.000000 0.000000 0.000000 -60.708740 0.000000 198.000000 0.630513 0.637203 0.443199
-5.53000021 -3.55999994 -0.67000002 69 179 131 0.000000 0.000000 0.000000 0.000000 -60.708740 0.000000 198.000000 0.621079 0.686976 0.377260
-5.51999998 -3.55999994 -0.68000001 69 179 131 0.000000 0.000000 0.000000 0.000000 -60.708740 0.000000 198.000000 0.569967 0.736548 0.364191
-5.59000015 -3.43000007 -0.57999998 69 179 131 0.000000 0.000000 0.000000 0.000000 -60.708740 0.000000 198.000000 0.440859 0.858836 0.260854
-5.59999990 -3.46000004 -0.54000002 69 179 131 0.000000 0.000000 0.000000 0.000000 -60.708740 0.000000 198.000000 0.489965 0.863546 -0.119258
-5.57999992 -3.46000004 -0.58999997 69 179 131 0.000000 0.000000 0.000000 0.000000 -60.708740 0.000000 198.000000 0.422853 0.900133 0.104667
-5.57999992 -3.47000003 -0.56999999 69 179 131 0.000000 0.000000 0.000000 0.000000 -60.708740 0.000000 198.000000 0.630762 0.689742 0.355520
-5.57999992 -3.47000003 -0.57999998 69 179 131 0.000000 0.000000 0.000000 0.000000 -60.708740 0.000000 198.000000 0.537587 0.788144 0.299717
-5.57000017 -3.46000004 -0.69000000 69 179 131 0.000000 0.000000 0.000000 0.000000 -60.708740 0.000000 198.000000 0.485248 0.872896 0.050862
-5.59999990 -3.43000007 -0.61000001 69 179 131 0.000000 0.000000 0.000000 0.000000 -60.708740 0.000000 198.000000 0.288189 0.927030 0.239921
-5.59999990 -3.41000009 -0.63999999 69 179 131 0.000000 0.000000 0.000000 0.000000 -60.708740 0.000000 198.000000 0.238796 0.959144 0.151722
-5.59999990 -3.43000007 -0.61000001 69 179 131 0.000000 0.000000 0.000000 0.000000 -60.708740 0.000000 198.000000 0.288189 0.927030 0.239921
-5.61000013 -3.42000008 -0.66000003 69 179 131 0.000000 0.000000 0.000000 0.000000 -60.708740 0.000000 198.000000 0.420372 0.896318 -0.141074
-5.59999990 -3.45000005 -0.64999998 69 179 131 0.000000 0.000000 0.000000 0.000000 -60.708740 0.000000 198.000000 0.548600 0.835896 0.017785
-5.57999992 -3.45000005 -0.66000003 69 179 131 0.000000 0.000000 0.000000 0.000000 -60.708740 0.000000 198.000000 0.564164 0.773938 0.287644
-5.55999994 -3.50999999 -0.56000000 69 179 131 0.000000 0.000000 0.000000 0.000000 -60.708740 0.000000 198.000000 0.455235 0.840554 0.293650
-5.55999994 -3.49000001 -0.58999997 69 179 131 0.000000 0.000000 0.000000 0.000000 -60.708740 0.000000 198.000000 0.642977 0.592613 0.485171
-5.55999994 -3.49000001 -0.58999997 69 179 131 0.000000 0.000000 0.000000 0.000000 -60.708740 0.000000 198.000000 0.642977 0.592613 0.485171
-5.55000019 -3.52999997 -0.54000002 69 179 131 0.000000 0.000000 0.000000 0.000000 -60.708740 0.000000 198.000000 0.671620 0.275987 0.687573
-5.55000019 -3.52999997 -0.54000002 69 179 131 0.000000 0.000000 0.000000 0.000000 -60.708740 0.000000 198.000000 0.671620 0.275987 0.687573
-5.55000019 -3.53999996 -0.54000002 69 179 131 0.000000 0.000000 0.000000 0.000000 -60.708740 0.000000 198.000000 0.750940 0.345465 0.562800
-5.57000017 -3.52999997 -0.52999997 69 179 131 0.000000 0.000000 0.000000 0.000000 -60.708740 0.000000 198.000000 0.609745 0.485444 0.626542
-5.53999996 -3.54999995 -0.58999997 69 179 131 0.000000 0.000000 0.000000 0.000000 -60.708740 0.000000 198.000000 0.696078 0.175932 0.696078
-5.55999994 -3.52999997 -0.56999999 69 179 131 0.000000 0.000000 0.000000 0.000000 -60.708740 0.000000 198.000000 0.619862 0.449441 0.643253
-5.53999996 -3.54999995 -0.58999997 69 179 131 0.000000 0.000000 0.000000 0.000000 -60.708740 0.000000 198.000000 0.696078 0.175932 0.696078
-5.59999990 -3.50999999 -0.52999997 69 179 131 0.000000 0.000000 0.000000 0.000000 -60.708740 0.000000 198.000000 0.487814 0.665505 0.564925
-5.61000013 -3.48000002 -0.54000002 69 179 131 0.000000 0.000000 0.000000 0.000000 -60.708740 0.000000 198.000000 0.631411 0.463928 0.621362
-5.59000015 -3.50999999 -0.52999997 69 179 131 0.000000 0.000000 0.000000 0.000000 -60.708740 0.000000 198.000000 0.497940 0.784779 0.369023
-5.57999992 -3.48000002 -0.60000002 69 179 131 0.000000 0.000000 0.000000 0.000000 -60.708740 0.000000 198.000000 0.310277 0.840397 0.444366
-5.57000017 -3.48000002 -0.62000000 69 179 131 0.000000 0.000000 0.000000 0.000000 -60.708740 0.000000 198.000000 0.534699 0.735417 0.416243
-5.57000017 -3.53999996 -0.63999999 69 179 131 0.000000 0.000000 0.000000 0.000000 -60.708740 0.000000 198.000000 0.459343 0.689850 0.559563
-5.53999996 -3.52999997 -0.63000000 69 179 131 0.000000 0.000000 0.000000 0.000000 -60.708740 0.000000 198.000000 0.542401 0.626887 0.559298
-5.55000019 -3.52999997 -0.67000002 69 179 131 0.000000 0.000000 0.000000 0.000000 -60.708740 0.000000 198.000000 0.600149 0.763114 0.239746
-5.53999996 -3.54999995 -0.68000001 69 179 131 0.000000 0.000000 0.000000 0.000000 -60.708740 0.000000 198.000000 0.682961 0.283101 0.673364
-5.57999992 -3.48000002 -0.63000000 69 179 131 0.000000 0.000000 0.000000 0.000000 -60.708740 0.000000 198.000000 0.552803 0.831314 -0.057672
-5.57999992 -3.48000002 -0.63000000 69 179 131 0.000000 0.000000 0.000000 0.000000 -60.708740 0.000000 198.000000 0.552803 0.831314 -0.057672
-5.53000021 -3.58999991 -0.36000001 69 179 131 0.000000 0.000000 0.000000 0.000000 -60.708740 0.000000 198.000000 0.687746 0.258898 0.678216
-5.53000021 -3.59999990 -0.36000001 69 179 131 0.000000 0.000000 0.000000 0.000000 -60.708740 0.000000 198.000000 0.831938 -0.188051 0.522030
-5.53000021 -3.56999993 -0.36000001 69 179 131 0.000000 0.000000 0.000000 0.000000 -60.708740 0.000000 198.000000 0.800826 0.278480 0.530213
-5.51999998 -3.63000011 -0.38000000 69 179 131 0.000000 0.000000 0.000000 0.000000 -60.708740 0.000000 198.000000 0.805098 -0.288323 0.518351
-5.50000000 -3.63000011 -0.38999999 69 179 131 0.000000 0.000000 0.000000 0.000000 -60.708740 0.000000 198.000000 0.824688 -0.234967 0.514470
-5.53000021 -3.64000010 -0.44000000 69 179 131 0.000000 0.000000 0.000000 0.000000 -60.708740 0.000000 198.000000 0.773962 -0.480671 0.412236
-5.53000021 -3.64000010 -0.44000000 69 179 131 0.000000 0.000000 0.000000 0.000000 -60.708740 0.000000 198.000000 0.773962 -0.480671 0.412236
-5.51999998 -3.65000010 -0.38000000 69 179 131 0.000000 0.000000 0.000000 0.000000 -60.708740 0.000000 198.000000 0.879615 -0.082508 0.468476
-5.51000023 -3.66000009 -0.41999999 69 179 131 0.000000 0.000000 0.000000 0.000000 -60.708740 0.000000 198.000000 0.864193 -0.059839 0.499590
-5.53000021 -3.72000003 -0.38999999 69 179 131 0.000000 0.000000 0.000000 0.000000 -60.708740 0.000000 198.000000 0.829279 0.063573 0.555207
-5.53000021 -3.68000007 -0.44000000 69 179 131 0.000000 0.000000 0.000000 0.000000 -60.708740 0.000000 198.000000 0.791851 0.004117 0.610700
-5.51999998 -3.72000003 -0.46000001 69 179 131 0.000000 0.000000 0.000000 0.000000 -60.708740 0.000000 198.000000 0.624078 -0.185537 0.759014
-5.53000021 -3.73000002 -0.46000001 69 179 131 0.000000 0.000000 0.000000 0.000000 -60.708740 0.000000 198.000000 0.682683 -0.508238 0.525012
-5.53000021 -3.73000002 -0.46000001 69 179 131 0.000000 0.000000 0.000000 0.000000 -60.708740 0.000000 198.000000 0.682683 -0.508238 0.525012
-5.53000021 -3.69000006 -0.50999999 69 179 131 0.000000 0.000000 0.000000 0.000000 -60.708740 0.000000 198.000000 0.720873 -0.169169 0.672104
-5.51999998 -3.69000006 -0.51999998 69 179 131 0.000000 0.000000 0.000000 0.000000 -60.708740 0.000000 198.000000 0.692583 -0.297281 0.657231
-5.51000023 -3.70000005 -0.50000000 69 179 131 0.000000 0.000000 0.000000 0.000000 -60.708740 0.000000 198.000000 0.835142 -0.369601 0.407348
-5.51999998 -3.70000005 -0.51999998 69 179 131 0.000000 0.000000 0.000000 0.000000 -60.708740 0.000000 198.000000 -0.689507 0.589819 -0.420350
-5.55999994 -3.57999992 -0.37000000 69 179 131 0.000000 0.000000 0.000000 0.000000 -60.708740 0.000000 198.000000 0.763732 0.253528 0.593664
-5.57000017 -3.56999993 -0.38999999 69 179 131 0.000000 0.000000 0.000000 0.000000 -60.708740 0.000000 198.000000 0.846611 0.104928 0.521766
-5.55000019 -3.57999992 -0.41000000 69 179 131 0.000000 0.000000 0.000000 0.000000 -60.708740 0.000000 198.000000 0.635449 0.438644 0.635449
-5.55000019 -3.59999990 -0.41000000 69 179 131 0.000000 0.000000 0.000000 0.000000 -60.708740 0.000000 198.000000 0.845010 0.259177 0.467746
-5.55000019 -3.58999991 -0.40000001 69 179 131 0.000000 0.000000 0.000000 0.000000 -60.708740 0.000000 198.000000 0.827164 0.355855 0.434933
-5.55000019 -3.56999993 -0.41000000 69 179 131 0.000000 0.000000 0.000000 0.000000 -60.708740 0.000000 198.000000 0.755377 -0.107490 0.646414
-5.55000019 -3.58999991 -0.41000000 69 179 131 0.000000 0.000000 0.000000 0.000000 -60.708740 0.000000 198.000000 0.777862 0.376802 0.502942
-5.55000019 -3.61999989 -0.41000000 69 179 131 0.000000 0.000000 0.000000 0.000000 -60.708740 0.000000 198.000000 0.725710 -0.058919 0.685473
-5.57000017 -3.58999991 -0.49000001 69 179 131 0.000000 0.000000 0.000000 0.000000 -60.708740 0.000000 198.000000 0.743128 0.380547 0.550405
-5.57000017 -3.58999991 -0.49000001 69 179 131 0.000000 0.000000 0.000000 0.000000 -60.708740 0.000000 198.000000 0.743128 0.380547 0.550405
-5.53999996 -3.67000008 -0.38000000 69 179 131 0.000000 0.000000 0.000000 0.000000 -60.708740 0.000000 198.000000 0.717785 -0.041219 0.695044
-5.55999994 -3.72000003 -0.40000001 69 179 131 0.000000 0.000000 0.000000 0.000000 -60.708740 0.000000 198.000000 0.863067 -0.137801 0.485928
-5.55000019 -3.67000008 -0.46000001 69 179 131 0.000000 0.000000 0.000000 0.000000 -60.708740 0.000000 198.000000 0.827137 -0.162447 0.538011
-5.55000019 -3.68000007 -0.46000001 69 179 131 0.000000 0.000000 0.000000 0.000000 -60.708740 0.000000 198.000000 0.879526 0.183541 0.439029
-5.53999996 -3.65000010 -0.49000001 69 179 131 0.000000 0.000000 0.000000 0.000000 -60.708740 0.000000 198.000000 0.862507 -0.448625 0.234131
-5.53999996 -3.69000006 -0.46000001 69 179 131 0.000000 0.000000 0.000000 0.000000 -60.708740 0.000000 198.000000 0.812893 -0.219742 0.539368
-5.53999996 -3.69000006 -0.46000001 69 179 131 0.000000 0.000000 0.000000 0.000000 -60.708740 0.000000 198.000000 0.812893 -0.219742 0.539368
-5.55000019 -3.72000003 -0.47999999 69 179 131 0.000000 0.000000 0.000000 0.000000 -60.708740 0.000000 198.000000 0.774331 -0.504857 0.381484
-5.53000021 -3.57999992 -0.56999999 69 179 131 0.000000 0.000000 0.000000 0.000000 -60.708740 0.000000 198.000000 0.818044 0.272681 0.506408
-5.50000000 -3.63000011 -0.56000000 69 179 131 0.000000 0.000000 0.000000 0.000000 -60.708740 0.000000 198.000000 0.709074 -0.193103 0.678178
-5.51999998 -3.63000011 -0.57999998 69 179 131 0.000000 0.000000 0.000000 0.000000 -60.708740 0.000000 198.000000 0.702951 0.001381 0.711237
-5.50000000 -3.56999993 -0.63999999 69 179 131 0.000000 0.000000 0.000000 0.000000 -60.708740 0.000000 198.000000 0.675770 0.152691 0.721124
-5.51000023 -3.56999993 -0.63999999 69 179 131 0.000000 0.000000 0.000000 0.000000 -60.708740 0.000000 198.000000 0.726673 0.648536 0.226597
-5.53000021 -3.57999992 -0.62000000 69 179 131 0.000000 0.000000 0.000000 0.000000 -60.708740 0.000000 198.000000 0.749248 0.592689 0.295546
-5.53000021 -3.58999991 -0.66000003 69 179 131 0.000000 0.000000 0.000000 0.000000 -60.708740 0.000000 198.000000 0.628932 0.504157 0.591837
-5.53000021 -3.59999990 -0.66000003 69 179 131 0.000000 0.000000 0.000000 0.000000 -60.708740 0.000000 198.000000 0.871323 0.100592 0.480290
-5.53000021 -3.56999993 -0.67000002 69 179 131 0.000000 0.000000 0.000000 0.000000 -60.708740 0.000000 198.000000 0.800761 0.094464 0.591488
-5.53000021 -3.56999993 -0.67000002 69 179 131 0.000000 0.000000 0.000000 0.000000 -60.708740 0.000000 198.000000 0.800761 0.094464 0.591488
-5.51000023 -3.60999990 -0.63999999 69 179 131 0.000000 0.000000 0.000000 0.000000 -60.708740 0.000000 198.000000 0.730602 0.427147 0.532697
-5.50000000 -3.60999990 -0.64999998 69 179 131 0.000000 0.000000 0.000000 0.000000 -60.708740 0.000000 198.000000 0.724864 0.353473 0.591294
-5.50000000 -3.64000010 -0.66000003 69 179 131 0.000000 0.000000 0.000000 0.000000 -60.708740 0.000000 198.000000 0.773740 -0.447955 0.447955
-5.51999998 -3.71000004 -0.54000002 69 179 131 0.000000 0.000000 0.000000 0.000000 -60.708740 0.000000 198.000000 0.826120 -0.378969 0.417024
-5.51999998 -3.70000005 -0.58999997 69 179 131 0.000000 0.000000 0.000000 0.000000 -60.708740 0.000000 198.000000 0.848812 -0.262472 0.458942
-5.48999977 -3.72000003 -0.61000001 69 179 131 0.000000 0.000000 0.000000 0.000000 -60.708740 0.000000 198.000000 0.736609 -0.629351 0.247639
-5.48000002 -3.71000004 -0.66000003 69 179 131 0.000000 0.000000 0.000000 0.000000 -60.708740 0.000000 198.000000 0.825323 -0.391276 0.407117
-5.51000023 -3.68000007 -0.68000001 69 179 131 0.000000 0.000000 0.000000 0.000000 -60.708740 0.000000 198.000000 0.724302 -0.442537 0.528724
-5.51999998 -3.70000005 -0.61000001 69 179 131 0.000000 0.000000 0.000000 0.000000 -60.708740 0.000000 198.000000 -0.606579 0.717162 -0.343132
-5.51999998 -3.73000002 -0.62000000 69 179 131 0.000000 0.000000 0.000000 0.000000 -60.708740 0.000000 198.000000 0.753737 -0.195756 0.627344
-5.51000023 -3.70000005 -0.62000000 69 179 131 0.000000 0.000000 0.000000 0.000000 -60.708740 0.000000 198.000000 0.859663 -0.353434 0.368868
-5.51999998 -3.70000005 -0.61000001 69 179 131 0.000000 0.000000 0.000000 0.000000 -60.708740 0.000000 198.000000 -0.606579 0.717162 -0.343132
-5.50000000 -3.71000004 -0.63000000 69 179 131 0.000000 0.000000 0.000000 0.000000 -60.708740 0.000000 198.000000 0.736439 -0.430001 0.522262
-5.51000023 -3.70000005 -0.62000000 69 179 131 0.000000 0.000000 0.000000 0.000000 -60.708740 0.000000 198.000000 0.859663 -0.353434 0.368868
-5.50000000 -3.71000004 -0.63999999 69 179 131 0.000000 0.000000 0.000000 0.000000 -60.708740 0.000000 198.000000 -0.719739 0.513624 -0.467082
-5.51999998 -3.70000005 -0.61000001 69 179 131 0.000000 0.000000 0.000000 0.000000 -60.708740 0.000000 198.000000 -0.606579 0.717162 -0.343132
-5.50000000 -3.72000003 -0.64999998 69 179 131 0.000000 0.000000 0.000000 0.000000 -60.708740 0.000000 198.000000 0.814500 -0.518602 0.260079
-5.50000000 -3.72000003 -0.64999998 69 179 131 0.000000 0.000000 0.000000 0.000000 -60.708740 0.000000 198.000000 0.814500 -0.518602 0.260079
-5.53999996 -3.57999992 -0.55000001 69 179 131 0.000000 0.000000 0.000000 0.000000 -60.708740 0.000000 198.000000 0.828260 0.235109 0.508635
-5.53999996 -3.57999992 -0.55000001 69 179 131 0.000000 0.000000 0.000000 0.000000 -60.708740 0.000000 198.000000 0.828260 0.235109 0.508635
-5.53999996 -3.56999993 -0.56999999 69 179 131 0.000000 0.000000 0.000000 0.000000 -60.708740 0.000000 198.000000 0.721913 0.353623 0.594804
-5.53999996 -3.57999992 -0.56999999 69 179 131 0.000000 0.000000 0.000000 0.000000 -60.708740 0.000000 198.000000 0.862179 0.201723 0.464710
-5.53999996 -3.61999989 -0.58999997 69 179 131 0.000000 0.000000 0.000000 0.000000 -60.708740 0.000000 198.000000 0.868225 0.252163 0.427317
-5.53999996 -3.57999992 -0.61000001 69 179 131 0.000000 0.000000 0.000000 0.000000 -60.708740 0.000000 198.000000 0.858203 0.227748 0.460021
-5.55000019 -3.61999989 -0.66000003 69 179 131 0.000000 0.000000 0.000000 0.000000 -60.708740 0.000000 198.000000 0.828621 -0.345653 0.440353
-5.53999996 -3.65000010 -0.52999997 69 179 131 0.000000 0.000000 0.000000 0.000000 -60.708740 0.000000 198.000000 0.789636 -0.479595 0.382707
-5.53999996 -3.69000006 -0.64999998 69 179 131 0.000000 0.000000 0.000000 0.000000 -60.708740 0.000000 198.000000 0.816059 -0.533282 0.222841
-5.65000010 -3.42000008 -0.36000001 69 179 131 0.000000 0.000000 0.000000 0.000000 -60.708740 0.000000 198.000000 0.346977 0.936182 0.056302
-5.63000011 -3.42000008 -0.40000001 69 179 131 0.000000 0.000000 0.000000 0.000000 -60.708740 0.000000 198.000000 0.338286 0.939685 0.050549
-5.61999989 -3.41000009 -0.41999999 69 179 131 0.000000 0.000000 0.000000 0.000000 -60.708740 0.000000 198.000000 0.290325 0.911824 0.290325
-5.61999989 -3.44000006 -0.38000000 69 179 131 0.000000 0.000000 0.000000 0.000000 -60.708740 0.000000 198.000000 0.324080 0.911203 0.254323
-5.63000011 -3.44000006 -0.38999999 69 179 131 0.000000 0.000000 0.000000 0.000000 -60.708740 0.000000 198.000000 0.577291 0.567133 0.587448
-5.63000011 -3.40000010 -0.44000000 69 179 131 0.000000 0.000000 0.000000 0.000000 -60.708740 0.000000 198.000000 0.361001 0.772185 0.522884
-5.65999985 -3.40000010 -0.50000000 69 179 131 0.000000 0.000000 0.000000 0.000000 -60.708740 0.000000 198.000000 0.338402 0.868209 0.362902
-5.63999987 -3.40000010 -0.52999997 69 179 131 0.000000 0.000000 0.000000 0.000000 -60.708740 0.000000 198.000000 0.383138 0.923427 0.022079
-5.61999989 -3.43000007 -0.61000001 69 179 131 0.000000 0.000000 0.000000 0.000000 -60.708740 0.000000 198.000000 0.349340 0.826718 0.441021
-5.44999981 -3.59999990 -0.94000000 69 179 131 0.000000 0.000000 0.000000 0.000000 -60.708740 0.000000 198.000000 0.590814 0.570499 0.570499
-5.44999981 -3.57999992 -0.93000001 69 179 131 0.000000 0.000000 0.000000 0.000000 -60.708740 0.000000 198.000000 0.649761 0.410463 0.639790
-5.44999981 -3.59999990 -0.92000002 69 179 131 0.000000 0.000000 0.000000 0.000000 -60.708740 0.000000 198.000000 0.804939 0.557500 0.203144
-5.42999983 -3.63000011 -0.94000000 69 179 131 0.000000 0.000000 0.000000 0.000000 -60.708740 0.000000 198.000000 0.657477 0.212942 0.722758
-5.44999981 -3.57999992 -0.95999998 69 179 131 0.000000 0.000000 0.000000 0.000000 -60.708740 0.000000 198.000000 0.702977 0.690778 0.169263
-5.42999983 -3.59999990 -1.00999999 69 179 131 0.000000 0.000000 0.000000 0.000000 -60.708740 0.000000 198.000000 0.677788 0.427989 0.597853
-5.42000008 -3.60999990 -0.95999998 69 179 131 0.000000 0.000000 0.000000 0.000000 -60.708740 0.000000 198.000000 0.850238 0.483055 0.209174
-5.44000006 -3.64000010 -1.01999998 69 179 131 0.000000 0.000000 0.000000 0.000000 -60.708740 0.000000 198.000000 0.872645 -0.158795 0.461817
-5.42999983 -3.66000009 -0.91000003 69 179 131 0.000000 0.000000 0.000000 0.000000 -60.708740 0.000000 198.000000 0.819194 0.215900 0.531328
-5.40000010 -3.65000010 -1.01999998 69 179 131 0.000000 0.000000 0.000000 0.000000 -60.708740 0.000000 198.000000 0.877837 -0.382259 0.288583
-5.44999981 -3.67000008 -0.97000003 69 179 131 0.000000 0.000000 0.000000 0.000000 -60.708740 0.000000 198.000000 0.796751 -0.135017 0.589032
-5.44000006 -3.67000008 -0.98000002 69 179 131 0.000000 0.000000 0.000000 0.000000 -60.708740 0.000000 198.000000 0.848047 -0.157810 0.505878
-5.42999983 -3.68000007 -0.94999999 69 179 131 0.000000 0.000000 0.000000 0.000000 -60.708740 0.000000 198.000000 -0.647313 0.506081 -0.569972
-5.42999983 -3.67000008 -1.01999998 69 179 131 0.000000 0.000000 0.000000 0.000000 -60.708740 0.000000 198.000000 0.833639 -0.146071 0.532644
-5.42999983 -3.68000007 -1.00000000 69 179 131 0.000000 0.000000 0.000000 0.000000 -60.708740 0.000000 198.000000 0.780406 -0.516516 0.352389
-5.42999983 -3.68000007 -1.00000000 69 179 131 0.000000 0.000000 0.000000 0.000000 -60.708740 0.000000 198.000000 0.780406 -0.516516 0.352389
-5.44999981 -3.69000006 -0.97000003 69 179 131 0.000000 0.000000 0.000000 0.000000 -60.708740 0.000000 198.000000 0.764983 -0.460300 0.450472
-5.44999981 -3.69000006 -0.95999998 69 179 131 0.000000 0.000000 0.000000 0.000000 -60.708740 0.000000 198.000000 -0.618307 0.777680 -0.113627
-5.44999981 -3.69000006 -0.94999999 69 179 131 0.000000 0.000000 0.000000 0.000000 -60.708740 0.000000 198.000000 0.791896 -0.602308 0.100628
-5.44999981 -3.69000006 -0.97000003 69 179 131 0.000000 0.000000 0.000000 0.000000 -60.708740 0.000000 198.000000 0.764983 -0.460300 0.450472
-5.44999981 -3.69000006 -0.94999999 69 179 131 0.000000 0.000000 0.000000 0.000000 -60.708740 0.000000 198.000000 0.791896 -0.602308 0.100628
-5.44999981 -3.70000005 -1.00000000 69 179 131 0.000000 0.000000 0.000000 0.000000 -60.708740 0.000000 198.000000 -0.417036 0.682876 -0.599801
-5.42999983 -3.71000004 -1.01999998 69 179 131 0.000000 0.000000 0.000000 0.000000 -60.708740 0.000000 198.000000 0.851217 -0.347023 0.393707
-5.36000013 -3.64000010 -1.14999998 69 179 131 0.000000 0.000000 0.000000 0.000000 -60.708740 0.000000 198.000000 0.639955 0.061562 0.765942
-5.36000013 -3.65000010 -1.14999998 69 179 131 0.000000 0.000000 0.000000 0.000000 -60.708740 0.000000 198.000000 0.841620 -0.099268 0.530868
-5.36000013 -3.66000009 -1.13999999 69 179 131 0.000000 0.000000 0.000000 0.000000 -60.708740 0.000000 198.000000 0.817133 -0.090793 0.569255
-5.36000013 -3.65000010 -1.13999999 69 179 131 0.000000 0.000000 0.000000 0.000000 -60.708740 0.000000 198.000000 0.833656 -0.357731 0.420768
-5.32999992 -3.67000008 -1.17999995 69 179 131 0.000000 0.000000 0.000000 0.000000 -60.708740 0.000000 198.000000 0.930486 -0.056593 0.361929
-5.32999992 -3.67000008 -1.17999995 69 179 131 0.000000 0.000000 0.000000 0.000000 -60.708740 0.000000 198.000000 0.930486 -0.056593 0.361929
-5.34000015 -3.67000008 -1.17999995 69 179 131 0.000000 0.000000 0.000000 0.000000 -60.708740 0.000000 198.000000 0.762220 -0.049865 0.645394
-5.34000015 -3.65000010 -1.16999996 69 179 131 0.000000 0.000000 0.000000 0.000000 -60.708740 0.000000 198.000000 0.909116 -0.145177 0.390426
-5.38000011 -3.59999990 -1.10000002 69 179 131 0.000000 0.000000 0.000000 0.000000 -60.708740 0.000000 198.000000 0.852777 0.071887 0.517304
-5.38000011 -3.63000011 -1.05999994 69 179 131 0.000000 0.000000 0.000000 0.000000 -60.708740 0.000000 198.000000 0.708552 0.279902 0.647773
-5.38999987 -3.60999990 -1.10000002 69 179 131 0.000000 0.000000 0.000000 0.000000 -60.708740 0.000000 198.000000 0.616770 0.528901 0.582974
-5.38999987 -3.60999990 -1.08000004 69 179 131 0.000000 0.000000 0.000000 0.000000 -60.708740 0.000000 198.000000 0.672718 0.629744 0.388424
-5.38999987 -3.63000011 -1.10000002 69 179 131 0.000000 0.000000 0.000000 0.000000 -60.708740 0.000000 198.000000 0.852601 0.074691 0.517197
-5.38999987 -3.60999990 -1.08000004 69 179 131 0.000000 0.000000 0.000000 0.000000 -60.708740 0.000000 198.000000 0.672718 0.629744 0.388424
-5.40999985 -3.59999990 -1.02999997 69 179 131 0.000000 0.000000 0.000000 0.000000 -60.708740 0.000000 198.000000 0.762312 0.312949 0.566518
-5.42000008 -3.58999991 -1.03999996 69 179 131 0.000000 0.000000 0.000000 0.000000 -60.708740 0.000000 198.000000 0.806860 0.571215 0.150634
-5.42000008 -3.59999990 -1.04999995 69 179 131 0.000000 0.000000 0.000000 0.000000 -60.708740 0.000000 198.000000 0.811014 0.484069 0.328532
-5.40999985 -3.59999990 -1.07000005 69 179 131 0.000000 0.000000 0.000000 0.000000 -60.708740 0.000000 198.000000 0.678276 0.648857 0.344858
-5.40999985 -3.59999990 -1.07000005 69 179 131 0.000000 0.000000 0.000000 0.000000 -60.708740 0.000000 198.000000 0.678276 0.648857 0.344858
-5.42000008 -3.63000011 -1.03999996 69 179 131 0.000000 0.000000 0.000000 0.000000 -60.708740 0.000000 198.000000 0.693077 0.101534 0.713678
-5.40999985 -3.60999990 -1.02999997 69 179 131 0.000000 0.000000 0.000000 0.000000 -60.708740 0.000000 198.000000 0.837144 0.146168 0.527091
-5.42000008 -3.60999990 -1.04999995 69 179 131 0.000000 0.000000 0.000000 0.000000 -60.708740 0.000000 198.000000 0.867811 0.398064 0.297404
-5.44000006 -3.60999990 -1.04999995 69 179 131 0.000000 0.000000 0.000000 0.000000 -60.708740 0.000000 198.000000 0.834622 0.152693 0.529236
-5.40999985 -3.60999990 -1.07000005 69 179 131 0.000000 0.000000 0.000000 0.000000 -60.708740 0.000000 198.000000 0.619534 0.592524 0.514872
-5.42999983 -3.60999990 -1.07000005 69 179 131 0.000000 0.000000 0.000000 0.000000 -60.708740 0.000000 198.000000 0.639889 0.643213 0.420498
-5.38000011 -3.63000011 -1.12000000 69 179 131 0.000000 0.000000 0.000000 0.000000 -60.708740 0.000000 198.000000 0.787171 0.511421 0.344688
-5.40000010 -3.65000010 -1.02999997 69 179 131 0.000000 0.000000 0.000000 0.000000 -60.708740 0.000000 198.000000 0.795229 -0.486777 0.361468
-5.42999983 -3.67000008 -1.02999997 69 179 131 0.000000 0.000000 0.000000 0.000000 -60.708740 0.000000 198.000000 0.623944 -0.479310 0.617217
-5.42000008 -3.66000009 -1.04999995 69 179 131 0.000000 0.000000 0.000000 0.000000 -60.708740 0.000000 198.000000 0.794874 0.079343 0.601565
-5.42000008 -3.66000009 -1.04999995 69 179 131 0.000000 0.000000 0.000000 0.000000 -60.708740 0.000000 198.000000 0.794874 0.079343 0.601565
-5.42000008 -3.67000008 -1.03999996 69 179 131 0.000000 0.000000 0.000000 0.000000 -60.708740 0.000000 198.000000 0.751574 -0.617197 0.232816
-5.42999983 -3.72000003 -1.02999997 69 179 131 0.000000 0.000000 0.000000 0.000000 -60.708740 0.000000 198.000000 -0.551950 0.831454 0.063524
-5.38000011 -3.65000010 -1.12000000 69 179 131 0.000000 0.000000 0.000000 0.000000 -60.708740 0.000000 198.000000 0.867410 -0.435968 0.239858
-5.59999990 -3.38000011 -0.75999999 69 179 131 0.000000 0.000000 0.000000 0.000000 -60.708740 0.000000 198.000000 0.127415 0.880454 0.456691
-5.59000015 -3.39000010 -0.81000000 69 179 131 0.000000 0.000000 0.000000 0.000000 -60.708740 0.000000 198.000000 0.003794 0.934701 0.355414
-5.59999990 -3.39000010 -0.80000001 69 179 131 0.000000 0.000000 0.000000 0.000000 -60.708740 0.000000 198.000000 0.287672 0.909743 0.299354
-5.59999990 -3.38000011 -0.81000000 69 179 131 0.000000 0.000000 0.000000 0.000000 -60.708740 0.000000 198.000000 0.234322 0.954695 0.183441
-5.57999992 -3.38000011 -0.85000002 69 179 131 0.000000 0.000000 0.000000 0.000000 -60.708740 0.000000 198.000000 0.015665 0.967639 0.251851
-5.59999990 -3.39000010 -0.81000000 69 179 131 0.000000 0.000000 0.000000 0.000000 -60.708740 0.000000 198.000000 0.145806 0.988497 0.040183
-5.59999990 -3.38000011 -0.81999999 69 179 131 0.000000 0.000000 0.000000 0.000000 -60.708740 0.000000 198.000000 0.055989 0.995718 0.073554
-5.75000000 -3.22000003 -0.75999999 69 179 131 0.000000 0.000000 0.000000 0.000000 -60.708740 0.000000 198.000000 -0.018377 0.995600 0.091885
-5.73999977 -3.20000005 -0.76999998 69 179 131 0.000000 0.000000 0.000000 0.000000 -60.708740 0.000000 198.000000 -0.011273 0.999217 0.037919
-5.75000000 -3.22000003 -0.72000003 69 179 131 0.000000 0.000000 0.000000 0.000000 -60.708740 0.000000 198.000000 -0.135555 0.990764 0.003306
-5.76999998 -3.22000003 -0.69999999 69 179 131 0.000000 0.000000 0.000000 0.000000 -60.708740 0.000000 198.000000 -0.321037 0.907407 0.271196
-5.76999998 -3.22000003 -0.69999999 69 179 131 0.000000 0.000000 0.000000 0.000000 -60.708740 0.000000 198.000000 -0.321037 0.907407 0.271196
-5.75000000 -3.22000003 -0.74000001 69 179 131 0.000000 0.000000 0.000000 0.000000 -60.708740 0.000000 198.000000 -0.117542 0.986642 0.112793
-5.73000002 -3.22000003 -0.75999999 69 179 131 0.000000 0.000000 0.000000 0.000000 -60.708740 0.000000 198.000000 0.005194 0.998232 0.059208
-5.75000000 -3.22000003 -0.75999999 69 179 131 0.000000 0.000000 0.000000 0.000000 -60.708740 0.000000 198.000000 -0.018377 0.995600 0.091885
-5.73000002 -3.22000003 -0.79000002 69 179 131 0.000000 0.000000 0.000000 0.000000 -60.708740 0.000000 198.000000 -0.046766 0.998711 0.019746
-5.76999998 -3.21000004 -0.82999998 69 179 131 0.000000 0.000000 0.000000 0.000000 -60.708740 0.000000 198.000000 -0.024630 0.996962 0.073889
-5.76999998 -3.22000003 -0.82999998 69 179 131 0.000000 0.000000 0.000000 0.000000 -60.708740 0.000000 198.000000 -0.027517 0.993903 0.106765
-5.76000023 -3.22000003 -0.81000000 69 179 131 0.000000 0.000000 0.000000 0.000000 -60.708740 0.000000 198.000000 -0.128632 0.981279 0.143333
-5.76000023 -3.21000004 -0.81999999 69 179 131 0.000000 0.000000 0.000000 0.000000 -60.708740 0.000000 198.000000 -0.096949 0.985045 0.142431
-5.76000023 -3.22000003 -0.81000000 69 179 131 0.000000 0.000000 0.000000 0.000000 -60.708740 0.000000 198.000000 -0.128632 0.981279 0.143333
-5.76999998 -3.22000003 -0.82999998 69 179 131 0.000000 0.000000 0.000000 0.000000 -60.708740 0.000000 198.000000 -0.027517 0.993903 0.106765
-5.63000011 -3.39000010 -0.73000002 69 179 131 0.000000 0.000000 0.000000 0.000000 -60.708740 0.000000 198.000000 0.213579 0.955063 -0.205520
