//X Y Z R G B PointSourceId ScanDirectionFlag NumberOfReturns ReturnNumber GpsTime Intensity Classification Nx Ny Nz
17.42000008 -3.84999990 0.01000000 31 55 212 97.000000 1.000000 4.000000 1.000000 -60.708740 114.000000 18.000000 -0.753992 0.595257 0.277787
17.42000008 -3.93000007 0.28000000 31 55 212 97.000000 1.000000 4.000000 1.000000 -60.708740 114.000000 18.000000 0.882865 -0.275237 0.380519
17.42000008 -3.92000008 0.28999999 31 55 212 97.000000 1.000000 4.000000 1.000000 -60.708740 114.000000 18.000000 0.981973 -0.161437 -0.098319
17.44000053 -3.90000010 0.31000000 31 55 212 97.000000 1.000000 4.000000 1.000000 -60.708740 114.000000 18.000000 0.982827 -0.144213 0.115128
17.42000008 -3.94000006 0.27000001 31 55 212 97.000000 1.000000 4.000000 1.000000 -60.708740 114.000000 18.000000 0.909297 -0.092168 0.405813
17.42000008 -3.91000009 0.27000001 31 55 212 97.000000 1.000000 4.000000 1.000000 -60.708740 114.000000 18.000000 0.894861 0.156565 0.417985
17.42000008 -3.94000006 0.27000001 31 55 212 97.000000 1.000000 4.000000 1.000000 -60.708740 114.000000 18.000000 0.909297 -0.092168 0.405813
17.43000031 -3.95000005 0.25999999 31 55 212 97.000000 1.000000 4.000000 1.000000 -60.708740 114.000000 18.000000 0.767923 -0.548976 0.330030
17.38999939 -3.93000007 0.30000001 31 55 212 97.000000 1.000000 4.000000 1.000000 -60.708740 114.000000 18.000000 0.850279 0.272151 0.450510
17.40999985 -3.93000007 0.31000000 31 55 212 97.000000 1.000000 4.000000 1.000000 -60.708740 114.000000 18.000000 0.938157 0.134410 0.319055
17.39999962 -3.92000008 0.25999999 31 55 212 97.000000 1.000000 4.000000 1.000000 -60.708740 114.000000 18.000000 0.975839 -0.151965 -0.156988
17.40999985 -3.96000004 0.30000001 31 55 212 97.000000 1.000000 4.000000 1.000000 -60.708740 114.000000 18.000000 0.912393 -0.366956 0.181336
17.38999939 -3.96000004 0.27000001 31 55 212 97.000000 1.000000 4.000000 1.000000 -60.708740 114.000000 18.000000 0.922881 -0.172777 0.344149
17.39999962 -3.98000002 0.27000001 31 55 212 97.000000 1.000000 4.000000 1.000000 -60.708740 114.000000 18.000000 0.928500 -0.349730 0.124806
17.44000053 -3.91000009 0.23000000 31 55 212 97.000000 1.000000 4.000000 1.000000 -60.708740 114.000000 18.000000 0.952354 -0.301346 0.047046
17.42000008 -3.91000009 0.15000001 31 55 212 97.000000 1.000000 4.000000 1.000000 -60.708740 114.000000 18.000000 0.738455 -0.596877 -0.313723
17.37999916 -3.92000008 0.16000000 31 55 212 97.000000 1.000000 4.000000 1.000000 -60.708740 114.000000 18.000000 0.886328 -0.430834 -0.169722
17.39999962 -3.90000010 0.10000000 31 55 212 97.000000 1.000000 4.000000 1.000000 -60.708740 114.000000 18.000000 0.675154 -0.470765 -0.567933
17.39999962 -3.90000010 0.10000000 31 55 212 97.000000 1.000000 4.000000 1.000000 -60.708740 114.000000 18.000000 0.675154 -0.470765 -0.567933
17.40999985 -3.91000009 0.13000000 31 55 212 97.000000 1.000000 4.000000 1.000000 -60.708740 114.000000 18.000000 -0.514957 0.849608 0.113954
17.56999969 -4.09999990 0.49000001 31 55 212 97.000000 1.000000 4.000000 1.000000 -60.708740 114.000000 18.000000 0.978248 -0.145432 0.147918
17.56999969 -4.09999990 0.49000001 31 55 212 97.000000 1.000000 4.000000 1.000000 -60.708740 114.000000 18.000000 0.978248 -0.145432 0.147918
17.56999969 -4.11000013 0.49000001 31 55 212 97.000000 1.000000 4.000000 1.000000 -60.708740 114.000000 18.000000 0.950033 -0.028941 0.310805
17.55999947 -4.15000010 0.50999999 31 55 212 97.000000 1.000000 4.000000 1.000000 -60.708740 114.000000 18.000000 0.918022 -0.384447 0.097138
17.54999924 -4.11999989 0.50999999 31 55 212 97.000000 1.000000 4.000000 1.000000 -60.708740 114.000000 18.000000 0.781260 -0.590934 0.201071
17.56999969 -4.11999989 0.49000001 31 55 212 97.000000 1.000000 4.000000 1.000000 -60.708740 114.000000 18.000000 0.849149 -0.258570 0.460530
17.55999947 -4.15000010 0.51999998 31 55 212 97.000000 1.000000 4.000000 1.000000 -60.708740 114.000000 18.000000 0.953550 -0.178372 -0.242746
17.55999947 -4.17000008 0.50000000 31 55 212 97.000000 1.000000 4.000000 1.000000 -60.708740 114.000000 18.000000 0.773707 -0.454451 0.441420
17.54999924 -4.17999983 0.51999998 31 55 212 97.000000 1.000000 4.000000 1.000000 -60.708740 114.000000 18.000000 0.943451 -0.265045 0.199127
17.55999947 -4.23000002 0.52999997 31 55 212 97.000000 1.000000 4.000000 1.000000 -60.708740 114.000000 18.000000 0.931324 -0.363537 -0.021838
17.57999992 -4.07999992 0.47999999 31 55 212 97.000000 1.000000 4.000000 1.000000 -60.708740 114.000000 18.000000 0.989090 0.110937 -0.096924
17.56999969 -4.09999990 0.47999999 31 55 212 97.000000 1.000000 4.000000 1.000000 -60.708740 114.000000 18.000000 0.825534 -0.524511 0.208284
17.56999969 -4.09999990 0.47000000 31 55 212 97.000000 1.000000 4.000000 1.000000 -60.708740 114.000000 18.000000 0.952964 -0.298994 0.049620
17.53000069 -4.15000010 0.49000001 31 55 212 97.000000 1.000000 4.000000 1.000000 -60.708740 114.000000 18.000000 0.847264 -0.503017 -0.170640
17.48999977 -4.21999979 0.56999999 31 55 212 97.000000 1.000000 4.000000 1.000000 -60.708740 114.000000 18.000000 0.968200 -0.079114 -0.237341
17.54000092 -4.15999985 0.54000002 31 55 212 97.000000 1.000000 4.000000 1.000000 -60.708740 114.000000 18.000000 0.970852 -0.081008 -0.225577
17.52000046 -4.19000006 0.51999998 31 55 212 97.000000 1.000000 4.000000 1.000000 -60.708740 114.000000 18.000000 0.835866 -0.291074 0.465408
17.42000008 -4.07000017 0.58999997 31 55 212 97.000000 1.000000 4.000000 1.000000 -60.708740 114.000000 18.000000 0.949133 0.087713 0.302413
17.39999962 -4.07999992 0.64999998 31 55 212 97.000000 1.000000 4.000000 1.000000 -60.708740 114.000000 18.000000 0.941887 -0.162677 0.293913
17.39999962 -4.09999990 0.63999999 31 55 212 97.000000 1.000000 4.000000 1.000000 -60.708740 114.000000 18.000000 0.960252 -0.251464 0.121172
17.39999962 -4.09000015 0.63999999 31 55 212 97.000000 1.000000 4.000000 1.000000 -60.708740 114.000000 18.000000 0.985031 0.159639 0.065038
17.39999962 -4.07000017 0.63000000 31 55 212 97.000000 1.000000 4.000000 1.000000 -60.708740 114.000000 18.000000 0.968004 -0.081609 0.237293
17.37999916 -4.07999992 0.60000002 31 55 212 97.000000 1.000000 4.000000 1.000000 -60.708740 114.000000 18.000000 0.913257 0.138882 0.382979
17.42000008 -4.09000015 0.49000001 31 55 212 97.000000 1.000000 4.000000 1.000000 -60.708740 114.000000 18.000000 0.905769 -0.309752 0.289200
17.50000000 -4.28999996 0.55000001 31 55 212 97.000000 1.000000 4.000000 1.000000 -60.708740 114.000000 18.000000 0.772102 -0.602578 -0.201887
17.50000000 -4.28000021 0.56000000 31 55 212 97.000000 1.000000 4.000000 1.000000 -60.708740 114.000000 18.000000 0.991779 -0.094945 -0.085794
17.50000000 -4.28999996 0.51999998 31 55 212 97.000000 1.000000 4.000000 1.000000 -60.708740 114.000000 18.000000 0.887412 -0.316826 0.334844
17.48999977 -4.34000015 0.56999999 31 55 212 97.000000 1.000000 4.000000 1.000000 -60.708740 114.000000 18.000000 0.875510 -0.420544 0.237959
17.48999977 -4.32999992 0.56999999 31 55 212 97.000000 1.000000 4.000000 1.000000 -60.708740 114.000000 18.000000 -0.610062 0.782244 -0.126168
17.48999977 -4.34000015 0.54000002 31 55 212 97.000000 1.000000 4.000000 1.000000 -60.708740 114.000000 18.000000 0.858836 -0.440859 -0.260854
17.47999954 -4.32999992 0.50999999 31 55 212 97.000000 1.000000 4.000000 1.000000 -60.708740 114.000000 18.000000 0.950696 -0.286928 0.117680
17.48999977 -4.38000011 0.55000001 31 55 212 97.000000 1.000000 4.000000 1.000000 -60.708740 114.000000 18.000000 0.743722 -0.667225 -0.041082
17.34000015 -3.89000010 0.33000001 31 55 212 97.000000 1.000000 4.000000 1.000000 -60.708740 114.000000 18.000000 0.916423 0.222992 0.332329
17.36000061 -3.98000002 0.50999999 31 55 212 97.000000 1.000000 4.000000 1.000000 -60.708740 114.000000 18.000000 0.867459 0.480639 0.128459
17.36000061 -3.95000005 0.50999999 31 55 212 97.000000 1.000000 4.000000 1.000000 -60.708740 114.000000 18.000000 0.899009 0.248662 0.360486
17.34000015 -4.05000019 0.57999998 31 55 212 97.000000 1.000000 4.000000 1.000000 -60.708740 114.000000 18.000000 0.881476 0.202282 0.426711
17.29999924 -3.99000001 0.57999998 31 55 212 97.000000 1.000000 4.000000 1.000000 -60.708740 114.000000 18.000000 0.635688 0.665409 0.391320
17.32999992 -4.03000021 0.61000001 31 55 212 97.000000 1.000000 4.000000 1.000000 -60.708740 114.000000 18.000000 0.862261 0.198067 0.466127
17.32999992 -4.03999996 0.62000000 31 55 212 97.000000 1.000000 4.000000 1.000000 -60.708740 114.000000 18.000000 0.901935 0.332136 0.276042
17.32999992 -4.05000019 0.60000002 31 55 212 97.000000 1.000000 4.000000 1.000000 -60.708740 114.000000 18.000000 0.815389 -0.147037 0.559930
17.35000038 -4.01000023 0.55000001 31 55 212 97.000000 1.000000 4.000000 1.000000 -60.708740 114.000000 18.000000 0.973063 0.042412 0.226604
17.35000038 -4.00000000 0.51999998 31 55 212 97.000000 1.000000 4.000000 1.000000 -60.708740 114.000000 18.000000 0.848047 0.505878 0.157810
17.34000015 -4.03000021 0.56000000 31 55 212 97.000000 1.000000 4.000000 1.000000 -60.708740 114.000000 18.000000 0.995666 -0.005336 0.092843
17.34000015 -4.05999994 0.51999998 31 55 212 97.000000 1.000000 4.000000 1.000000 -60.708740 114.000000 18.000000 0.778122 -0.262518 0.570623
17.37000084 -4.05000019 0.50000000 31 55 212 97.000000 1.000000 4.000000 1.000000 -60.708740 114.000000 18.000000 0.884217 -0.217722 0.413227
17.37000084 -4.03999996 0.49000001 31 55 212 97.000000 1.000000 4.000000 1.000000 -60.708740 114.000000 18.000000 0.986666 0.131476 0.095942
17.37000084 -4.05999994 0.50000000 31 55 212 97.000000 1.000000 4.000000 1.000000 -60.708740 114.000000 18.000000 0.979369 -0.195394 0.051546
17.32999992 -3.99000001 0.54000002 31 55 212 97.000000 1.000000 4.000000 1.000000 -60.708740 114.000000 18.000000 0.900542 0.408302 0.149379
17.31999969 -4.01999998 0.49000001 31 55 212 97.000000 1.000000 4.000000 1.000000 -60.708740 114.000000 18.000000 0.973160 -0.039993 0.226626
17.32999992 -4.03999996 0.54000002 31 55 212 97.000000 1.000000 4.000000 1.000000 -60.708740 114.000000 18.000000 0.878599 -0.285809 0.382591
17.32999992 -4.05999994 0.54000002 31 55 212 97.000000 1.000000 4.000000 1.000000 -60.708740 114.000000 18.000000 0.928370 0.006385 0.371603
17.32999992 -4.03999996 0.51999998 31 55 212 97.000000 1.000000 4.000000 1.000000 -60.708740 114.000000 18.000000 0.971999 0.233038 0.030186
17.32999992 -3.98000002 0.43000001 31 55 212 97.000000 1.000000 4.000000 1.000000 -60.708740 114.000000 18.000000 0.960310 0.244324 0.134574
17.32999992 -3.97000003 0.40000001 31 55 212 97.000000 1.000000 4.000000 1.000000 -60.708740 114.000000 18.000000 0.885040 0.280989 0.371146
17.34000015 -3.94000006 0.37000000 31 55 212 97.000000 1.000000 4.000000 1.000000 -60.708740 114.000000 18.000000 0.878819 -0.039513 0.475516
17.34000015 -3.94000006 0.37000000 31 55 212 97.000000 1.000000 4.000000 1.000000 -60.708740 114.000000 18.000000 0.878819 -0.039513 0.475516
17.35000038 -3.91000009 0.33000001 31 55 212 97.000000 1.000000 4.000000 1.000000 -60.708740 114.000000 18.000000 0.991757 0.092870 0.088284
17.34000015 -3.93000007 0.34000000 31 55 212 97.000000 1.000000 4.000000 1.000000 -60.708740 114.000000 18.000000 0.819071 -0.023481 0.573212
17.34000015 -3.94000006 0.31999999 31 55 212 97.000000 1.000000 4.000000 1.000000 -60.708740 114.000000 18.000000 0.760990 0.104507 0.640291
17.35000038 -3.96000004 0.36000001 31 55 212 97.000000 1.000000 4.000000 1.000000 -60.708740 114.000000 18.000000 0.754591 -0.250480 0.606508
17.35000038 -3.96000004 0.36000001 31 55 212 97.000000 1.000000 4.000000 1.000000 -60.708740 114.000000 18.000000 0.754591 -0.250480 0.606508
17.35000038 -3.95000005 0.36000001 31 55 212 97.000000 1.000000 4.000000 1.000000 -60.708740 114.000000 18.000000 0.995838 0.073562 -0.053799
17.35000038 -3.97000003 0.38000000 31 55 212 97.000000 1.000000 4.000000 1.000000 -60.708740 114.000000 18.000000 0.883239 0.271420 0.382387
17.36000061 -3.98000002 0.34999999 31 55 212 97.000000 1.000000 4.000000 1.000000 -60.708740 114.000000 18.000000 0.966321 -0.193264 -0.169917
17.36000061 -3.98000002 0.34999999 31 55 212 97.000000 1.000000 4.000000 1.000000 -60.708740 114.000000 18.000000 0.966321 -0.193264 -0.169917
17.32999992 -3.98000002 0.36000001 31 55 212 97.000000 1.000000 4.000000 1.000000 -60.708740 114.000000 18.000000 0.768434 -0.308332 0.560749
17.36000061 -4.00000000 0.47999999 31 55 212 97.000000 1.000000 4.000000 1.000000 -60.708740 114.000000 18.000000 0.991821 0.108427 0.067339
17.36000061 -4.00000000 0.41999999 31 55 212 97.000000 1.000000 4.000000 1.000000 -60.708740 114.000000 18.000000 0.992193 -0.081065 -0.094766
17.36000061 -3.99000001 0.41999999 31 55 212 97.000000 1.000000 4.000000 1.000000 -60.708740 114.000000 18.000000 0.958214 0.118960 0.260143
17.34000015 -4.00000000 0.40000001 31 55 212 97.000000 1.000000 4.000000 1.000000 -60.708740 114.000000 18.000000 0.966054 -0.247481 -0.074119
17.36000061 -4.03999996 0.46000001 31 55 212 97.000000 1.000000 4.000000 1.000000 -60.708740 114.000000 18.000000 0.798205 -0.100688 0.593911
17.37000084 -4.05000019 0.47999999 31 55 212 97.000000 1.000000 4.000000 1.000000 -60.708740 114.000000 18.000000 0.986414 -0.091401 0.136507
17.32999992 -4.01000023 0.47000000 31 55 212 97.000000 1.000000 4.000000 1.000000 -60.708740 114.000000 18.000000 0.926284 0.251847 0.280304
17.36000061 -3.88000011 0.23999999 31 55 212 97.000000 1.000000 4.000000 1.000000 -60.708740 114.000000 18.000000 0.913410 0.208574 0.349541
17.36000061 -3.89000010 0.23999999 31 55 212 97.000000 1.000000 4.000000 1.000000 -60.708740 114.000000 18.000000 0.906811 0.009133 0.421439
17.35000038 -3.84999990 0.19000000 31 55 212 97.000000 1.000000 4.000000 1.000000 -60.708740 114.000000 18.000000 0.993796 -0.090958 0.064007
17.36000061 -3.89000010 0.19000000 31 55 212 97.000000 1.000000 4.000000 1.000000 -60.708740 114.000000 18.000000 0.957388 -0.260630 0.124421
17.36000061 -3.86999989 0.16000000 31 55 212 97.000000 1.000000 4.000000 1.000000 -60.708740 114.000000 18.000000 0.750210 -0.618649 -0.233364
17.36000061 -3.78999996 0.07000000 31 55 212 97.000000 1.000000 4.000000 1.000000 -60.708740 114.000000 18.000000 0.842359 -0.485918 -0.233058
17.36000061 -3.80999994 0.08000000 31 55 212 97.000000 1.000000 4.000000 1.000000 -60.708740 114.000000 18.000000 -0.476420 0.847815 0.232883
17.37000084 -3.76999998 0.04000000 31 55 212 97.000000 1.000000 4.000000 1.000000 -60.708740 114.000000 18.000000 0.926214 -0.368609 -0.079083
17.37000084 -3.78999996 0.04000000 31 55 212 97.000000 1.000000 4.000000 1.000000 -60.708740 114.000000 18.000000 -0.556047 0.829144 -0.057716
17.32999992 -3.75000000 -0.02000000 31 55 212 97.000000 1.000000 4.000000 1.000000 -60.708740 114.000000 18.000000 0.987298 0.150013 0.052330
17.37000084 -3.83999991 0.14000000 31 55 212 97.000000 1.000000 4.000000 1.000000 -60.708740 114.000000 18.000000 0.899334 -0.423792 0.107696
17.37000084 -3.84999990 0.07000000 31 55 212 97.000000 1.000000 4.000000 1.000000 -60.708740 114.000000 18.000000 -0.510385 0.713208 0.480460
17.37000084 -3.84999990 0.07000000 31 55 212 97.000000 1.000000 4.000000 1.000000 -60.708740 114.000000 18.000000 -0.510385 0.713208 0.480460
17.36000061 -3.86999989 0.13000000 31 55 212 97.000000 1.000000 4.000000 1.000000 -60.708740 114.000000 18.000000 -0.606189 0.780675 0.151923
17.35000038 -3.92000008 0.28000000 31 55 212 97.000000 1.000000 4.000000 1.000000 -60.708740 114.000000 18.000000 0.906368 0.104101 0.409462
17.34000015 -3.92000008 0.28999999 31 55 212 97.000000 1.000000 4.000000 1.000000 -60.708740 114.000000 18.000000 0.978341 0.206029 0.020014
17.35000038 -3.92000008 0.28000000 31 55 212 97.000000 1.000000 4.000000 1.000000 -60.708740 114.000000 18.000000 0.906368 0.104101 0.409462
17.35000038 -3.93000007 0.31000000 31 55 212 97.000000 1.000000 4.000000 1.000000 -60.708740 114.000000 18.000000 0.965105 -0.043251 0.258267
17.36000061 -3.91000009 0.28999999 31 55 212 97.000000 1.000000 4.000000 1.000000 -60.708740 114.000000 18.000000 0.980831 -0.164897 0.103824
17.34000015 -3.92000008 0.28999999 31 55 212 97.000000 1.000000 4.000000 1.000000 -60.708740 114.000000 18.000000 0.978341 0.206029 0.020014
17.35000038 -3.91000009 0.27000001 31 55 212 97.000000 1.000000 4.000000 1.000000 -60.708740 114.000000 18.000000 0.925729 -0.001273 0.378186
17.35000038 -3.93000007 0.25000000 31 55 212 97.000000 1.000000 4.000000 1.000000 -60.708740 114.000000 18.000000 0.938398 -0.100399 0.330648
17.36000061 -3.91000009 0.25999999 31 55 212 97.000000 1.000000 4.000000 1.000000 -60.708740 114.000000 18.000000 0.781653 -0.377071 0.496827
17.34000015 -3.94000006 0.27000001 31 55 212 97.000000 1.000000 4.000000 1.000000 -60.708740 114.000000 18.000000 0.711093 -0.699507 0.070965
17.35000038 -3.91000009 0.27000001 31 55 212 97.000000 1.000000 4.000000 1.000000 -60.708740 114.000000 18.000000 0.925729 -0.001273 0.378186
17.34000015 -3.95000005 0.25999999 31 55 212 97.000000 1.000000 4.000000 1.000000 -60.708740 114.000000 18.000000 -0.619048 0.784689 -0.032286
17.32999992 -3.96000004 0.25999999 31 55 212 97.000000 1.000000 4.000000 1.000000 -60.708740 114.000000 18.000000 0.833095 -0.551210 0.046050
17.09000015 -4.01000023 0.19000000 31 55 212 97.000000 1.000000 4.000000 1.000000 -60.708740 114.000000 18.000000 0.906635 -0.060803 0.417512
17.04999924 -4.05000019 0.20999999 31 55 212 97.000000 1.000000 4.000000 1.000000 -60.708740 114.000000 18.000000 0.757001 -0.049896 0.651506
17.07999992 -4.01999998 0.02000000 31 55 212 97.000000 1.000000 4.000000 1.000000 -60.708740 114.000000 18.000000 0.810103 0.061006 0.583104
17.07999992 -4.03000021 0.04000000 31 55 212 97.000000 1.000000 4.000000 1.000000 -60.708740 114.000000 18.000000 0.501046 0.290575 0.815181
17.35000038 -4.09000015 0.62000000 31 55 212 97.000000 1.000000 4.000000 1.000000 -60.708740 114.000000 18.000000 0.859467 0.344095 0.378042
17.37000084 -4.09999990 0.63000000 31 55 212 97.000000 1.000000 4.000000 1.000000 -60.708740 114.000000 18.000000 0.980927 0.194345 0.003450
17.35000038 -4.07999992 0.61000001 31 55 212 97.000000 1.000000 4.000000 1.000000 -60.708740 114.000000 18.000000 0.959327 0.107746 0.260927
17.32999992 -4.07999992 0.63999999 31 55 212 97.000000 1.000000 4.000000 1.000000 -60.708740 114.000000 18.000000 0.774867 0.448607 0.445345
17.31999969 -4.07000017 0.61000001 31 55 212 97.000000 1.000000 4.000000 1.000000 -60.708740 114.000000 18.000000 0.710635 0.333364 0.619569
17.32999992 -4.07999992 0.58999997 31 55 212 97.000000 1.000000 4.000000 1.000000 -60.708740 114.000000 18.000000 0.966936 0.224124 0.121667
17.31999969 -4.07000017 0.56999999 31 55 212 97.000000 1.000000 4.000000 1.000000 -60.708740 114.000000 18.000000 0.946065 0.322146 0.034379
17.32999992 -4.11000013 0.63999999 31 55 212 97.000000 1.000000 4.000000 1.000000 -60.708740 114.000000 18.000000 0.948411 0.299429 0.104206
17.05999947 -4.26000023 0.34000000 31 55 212 97.000000 1.000000 4.000000 1.000000 -60.708740 114.000000 18.000000 0.632031 0.591581 0.500569
17.04999924 -4.13000011 0.17000000 31 55 212 97.000000 1.000000 4.000000 1.000000 -60.708740 114.000000 18.000000 0.650624 0.563202 0.509403
17.06999969 -4.13000011 0.15000001 31 55 212 97.000000 1.000000 4.000000 1.000000 -60.708740 114.000000 18.000000 0.411030 0.515834 0.751644
17.04999924 -4.11999989 0.15000001 31 55 212 97.000000 1.000000 4.000000 1.000000 -60.708740 114.000000 18.000000 0.688818 0.172586 0.704091
17.06999969 -4.19999981 0.22000000 31 55 212 97.000000 1.000000 4.000000 1.000000 -60.708740 114.000000 18.000000 0.615975 0.568722 0.545096
17.11000061 -4.07999992 0.05000000 31 55 212 97.000000 1.000000 4.000000 1.000000 -60.708740 114.000000 18.000000 0.448572 0.400339 0.799069
17.05999947 -4.09000015 0.04000000 31 55 212 97.000000 1.000000 4.000000 1.000000 -60.708740 114.000000 18.000000 0.507857 0.491206 0.707670
17.07999992 -4.09000015 0.03000000 31 55 212 97.000000 1.000000 4.000000 1.000000 -60.708740 114.000000 18.000000 0.428598 0.652070 0.625387
17.06999969 -4.09999990 0.03000000 31 55 212 97.000000 1.000000 4.000000 1.000000 -60.708740 114.000000 18.000000 0.784980 0.296548 0.543936
17.07999992 -4.19999981 0.03000000 31 55 212 97.000000 1.000000 4.000000 1.000000 -60.708740 114.000000 18.000000 0.508319 0.790540 0.341552
17.04999924 -4.19999981 0.05000000 31 55 212 97.000000 1.000000 4.000000 1.000000 -60.708740 114.000000 18.000000 0.468670 0.727018 0.501791
17.06999969 -4.19999981 0.00000000 31 55 212 97.000000 1.000000 4.000000 1.000000 -60.708740 114.000000 18.000000 0.628523 0.311838 0.712542
17.05999947 -4.28999996 0.25000000 31 55 212 97.000000 1.000000 4.000000 1.000000 -60.708740 114.000000 18.000000 0.513188 0.463364 0.722449
17.05999947 -4.30000019 0.25999999 31 55 212 97.000000 1.000000 4.000000 1.000000 -60.708740 114.000000 18.000000 0.087315 0.837361 0.539632
17.06999969 -4.26999998 0.01000000 31 55 212 97.000000 1.000000 4.000000 1.000000 -60.708740 114.000000 18.000000 0.520732 0.691519 0.500639
17.04999924 -4.28000021 0.05000000 31 55 212 97.000000 1.000000 4.000000 1.000000 -60.708740 114.000000 18.000000 0.297098 0.426405 0.854349
17.48999977 -4.44999981 0.56999999 31 55 212 97.000000 1.000000 4.000000 1.000000 -60.708740 114.000000 18.000000 0.756676 -0.649613 -0.073787
17.50000000 -4.50000000 0.58999997 31 55 212 97.000000 1.000000 4.000000 1.000000 -60.708740 114.000000 18.000000 0.784468 -0.440147 -0.436898
17.42000008 -4.51000023 0.57999998 31 55 212 97.000000 1.000000 4.000000 1.000000 -60.708740 114.000000 18.000000 0.825534 -0.524511 -0.208284
17.04999924 -4.46999979 0.27000001 31 55 212 97.000000 1.000000 4.000000 1.000000 -60.708740 114.000000 18.000000 0.553797 0.658161 0.510032
16.98999977 -3.95000005 0.20000000 31 55 212 97.000000 1.000000 4.000000 1.000000 -60.708740 114.000000 18.000000 0.966972 -0.190288 0.169576
16.87999916 -4.23000002 0.38000000 31 55 212 97.000000 1.000000 4.000000 1.000000 -60.708740 114.000000 18.000000 0.708486 0.004159 0.705713
16.96999931 -4.28999996 0.38999999 31 55 212 97.000000 1.000000 4.000000 1.000000 -60.708740 114.000000 18.000000 0.529193 0.797739 0.289081
16.95999908 -4.38000011 0.40000001 31 55 212 97.000000 1.000000 4.000000 1.000000 -60.708740 114.000000 18.000000 0.469135 0.686172 0.555950
16.95999908 -4.38000011 0.41000000 31 55 212 97.000000 1.000000 4.000000 1.000000 -60.708740 114.000000 18.000000 0.558275 0.458286 0.691595
16.95999908 -4.34000015 0.34999999 31 55 212 97.000000 1.000000 4.000000 1.000000 -60.708740 114.000000 18.000000 0.175743 0.637258 0.750345
16.95999908 -4.34000015 0.34999999 31 55 212 97.000000 1.000000 4.000000 1.000000 -60.708740 114.000000 18.000000 0.175743 0.637258 0.750345
16.96999931 -4.36999989 0.33000001 31 55 212 97.000000 1.000000 4.000000 1.000000 -60.708740 114.000000 18.000000 0.758422 0.437362 0.483228
16.87999916 -4.28000021 0.44000000 31 55 212 97.000000 1.000000 4.000000 1.000000 -60.708740 114.000000 18.000000 0.805151 0.311620 0.504603
16.87999916 -4.28000021 0.36000001 31 55 212 97.000000 1.000000 4.000000 1.000000 -60.708740 114.000000 18.000000 0.730041 0.652542 0.203048
16.88999939 -4.30000019 0.38999999 31 55 212 97.000000 1.000000 4.000000 1.000000 -60.708740 114.000000 18.000000 0.702171 0.175925 0.689932
16.92000008 -4.34000015 0.38000000 31 55 212 97.000000 1.000000 4.000000 1.000000 -60.708740 114.000000 18.000000 0.529493 0.357853 0.769141
16.93000031 -4.34999990 0.38000000 31 55 212 97.000000 1.000000 4.000000 1.000000 -60.708740 114.000000 18.000000 0.541481 0.682299 0.491188
16.92000008 -4.38999987 0.36000001 31 55 212 97.000000 1.000000 4.000000 1.000000 -60.708740 114.000000 18.000000 0.663361 0.456165 0.593182
16.95000076 -4.36999989 0.38000000 31 55 212 97.000000 1.000000 4.000000 1.000000 -60.708740 114.000000 18.000000 0.593660 0.449843 0.667240
16.86000061 -4.26999998 0.37000000 31 55 212 97.000000 1.000000 4.000000 1.000000 -60.708740 114.000000 18.000000 0.507789 0.622506 0.595514
16.86000061 -4.26999998 0.37000000 31 55 212 97.000000 1.000000 4.000000 1.000000 -60.708740 114.000000 18.000000 0.507789 0.622506 0.595514
16.85000038 -4.23999977 0.31999999 31 55 212 97.000000 1.000000 4.000000 1.000000 -60.708740 114.000000 18.000000 0.715519 0.067938 0.695282
16.86000061 -4.25000000 0.31999999 31 55 212 97.000000 1.000000 4.000000 1.000000 -60.708740 114.000000 18.000000 0.498430 0.462000 0.733569
16.84000015 -4.34999990 0.38999999 31 55 212 97.000000 1.000000 4.000000 1.000000 -60.708740 114.000000 18.000000 0.831525 0.516485 0.204473
16.86000061 -4.38000011 0.31999999 31 55 212 97.000000 1.000000 4.000000 1.000000 -60.708740 114.000000 18.000000 0.679742 0.290859 0.673314
16.81999969 -4.34000015 0.33000001 31 55 212 97.000000 1.000000 4.000000 1.000000 -60.708740 114.000000 18.000000 0.815263 0.508561 0.276970
16.81999969 -4.34000015 0.33000001 31 55 212 97.000000 1.000000 4.000000 1.000000 -60.708740 114.000000 18.000000 0.815263 0.508561 0.276970
16.97999954 -4.15999985 0.23999999 31 55 212 97.000000 1.000000 4.000000 1.000000 -60.708740 114.000000 18.000000 0.730495 0.618603 0.289321
17.04000092 -4.17999983 0.20000000 31 55 212 97.000000 1.000000 4.000000 1.000000 -60.708740 114.000000 18.000000 0.679001 0.301599 0.669324
17.00000000 -4.15999985 0.22000000 31 55 212 97.000000 1.000000 4.000000 1.000000 -60.708740 114.000000 18.000000 0.535019 0.551897 0.639660
17.01000023 -4.23000002 0.23000000 31 55 212 97.000000 1.000000 4.000000 1.000000 -60.708740 114.000000 18.000000 0.776476 0.279911 0.564566
17.02000046 -4.21999979 0.19000000 31 55 212 97.000000 1.000000 4.000000 1.000000 -60.708740 114.000000 18.000000 0.707758 0.568527 0.419351
17.02000046 -4.21999979 0.20000000 31 55 212 97.000000 1.000000 4.000000 1.000000 -60.708740 114.000000 18.000000 0.801082 0.501672 0.326485
17.01000023 -4.19999981 0.18000001 31 55 212 97.000000 1.000000 4.000000 1.000000 -60.708740 114.000000 18.000000 0.724386 0.566697 0.392581
17.00000000 -4.13999987 0.13000000 31 55 212 97.000000 1.000000 4.000000 1.000000 -60.708740 114.000000 18.000000 0.797621 0.456013 0.394782
17.04000092 -4.09000015 0.05000000 31 55 212 97.000000 1.000000 4.000000 1.000000 -60.708740 114.000000 18.000000 0.480266 0.267158 0.835447
17.04000092 -4.19000006 0.04000000 31 55 212 97.000000 1.000000 4.000000 1.000000 -60.708740 114.000000 18.000000 0.167870 0.781882 0.600400
17.01000023 -4.26999998 0.28000000 31 55 212 97.000000 1.000000 4.000000 1.000000 -60.708740 114.000000 18.000000 0.639046 0.662164 0.391354
17.04000092 -4.26000023 0.25000000 31 55 212 97.000000 1.000000 4.000000 1.000000 -60.708740 114.000000 18.000000 0.563353 0.330909 0.757056
16.96999931 -4.26999998 0.30000001 31 55 212 97.000000 1.000000 4.000000 1.000000 -60.708740 114.000000 18.000000 0.347967 0.811923 0.468722
17.01000023 -4.32000017 0.31000000 31 55 212 97.000000 1.000000 4.000000 1.000000 -60.708740 114.000000 18.000000 0.741539 0.493809 0.454172
17.00000000 -4.40000010 0.23999999 31 55 212 97.000000 1.000000 4.000000 1.000000 -60.708740 114.000000 18.000000 0.641386 0.520179 0.563948
16.92000008 -4.26999998 0.28999999 31 55 212 97.000000 1.000000 4.000000 1.000000 -60.708740 114.000000 18.000000 0.484807 0.332212 0.809072
16.92000008 -4.28000021 0.30000001 31 55 212 97.000000 1.000000 4.000000 1.000000 -60.708740 114.000000 18.000000 0.696339 0.610737 0.376978
17.04000092 -4.25000000 0.04000000 31 55 212 97.000000 1.000000 4.000000 1.000000 -60.708740 114.000000 18.000000 0.739648 0.577088 0.346253
17.02000046 -4.28000021 0.04000000 31 55 212 97.000000 1.000000 4.000000 1.000000 -60.708740 114.000000 18.000000 0.286508 0.815686 0.502563
16.96999931 -4.42000008 0.37000000 31 55 212 97.000000 1.000000 4.000000 1.000000 -60.708740 114.000000 18.000000 0.742273 0.556297 0.373584
16.95000076 -4.42000008 0.38000000 31 55 212 97.000000 1.000000 4.000000 1.000000 -60.708740 114.000000 18.000000 0.283696 0.687603 0.668370
16.97999954 -4.44999981 0.31000000 31 55 212 97.000000 1.000000 4.000000 1.000000 -60.708740 114.000000 18.000000 0.454248 0.390043 0.800953
16.96999931 -4.46000004 0.28000000 31 55 212 97.000000 1.000000 4.000000 1.000000 -60.708740 114.000000 18.000000 0.309381 0.521981 0.794871
17.87999916 -3.14000010 -0.31999999 31 55 212 97.000000 1.000000 4.000000 1.000000 -60.708740 114.000000 18.000000 0.522968 0.486210 0.700075
17.92000008 -3.19000006 -0.28000000 31 55 212 97.000000 1.000000 4.000000 1.000000 -60.708740 114.000000 18.000000 0.847889 0.435570 0.302264
17.89999962 -3.16000009 -0.28000000 31 55 212 97.000000 1.000000 4.000000 1.000000 -60.708740 114.000000 18.000000 0.802634 0.223382 0.553063
17.87999916 -3.31999993 -0.20999999 31 55 212 97.000000 1.000000 4.000000 1.000000 -60.708740 114.000000 18.000000 0.780500 0.184815 0.597212
17.92000008 -3.33999991 -0.19000000 31 55 212 97.000000 1.000000 4.000000 1.000000 -60.708740 114.000000 18.000000 0.917072 0.180013 0.355773
17.87999916 -3.32999992 -0.20999999 31 55 212 97.000000 1.000000 4.000000 1.000000 -60.708740 114.000000 18.000000 0.707727 0.432592 0.558558
17.87000084 -3.17000008 -0.28999999 31 55 212 97.000000 1.000000 4.000000 1.000000 -60.708740 114.000000 18.000000 0.754170 0.299426 0.584442
17.82999992 -3.18000007 -0.28000000 31 55 212 97.000000 1.000000 4.000000 1.000000 -60.708740 114.000000 18.000000 0.579249 0.170901 0.797034
17.75000000 -3.18000007 -0.25999999 31 55 212 97.000000 1.000000 4.000000 1.000000 -60.708740 114.000000 18.000000 0.653345 0.340521 0.676155
17.86000061 -3.31999993 -0.18000001 31 55 212 97.000000 1.000000 4.000000 1.000000 -60.708740 114.000000 18.000000 0.503835 0.477230 0.720002
17.85000038 -3.34999990 -0.16000000 31 55 212 97.000000 1.000000 4.000000 1.000000 -60.708740 114.000000 18.000000 0.856721 0.025961 0.515126
17.79999924 -3.33999991 -0.15000001 31 55 212 97.000000 1.000000 4.000000 1.000000 -60.708740 114.000000 18.000000 0.641007 0.395867 0.657570
17.80999947 -3.36999989 -0.12000000 31 55 212 97.000000 1.000000 4.000000 1.000000 -60.708740 114.000000 18.000000 0.679907 0.311692 0.663758
17.82999992 -3.36999989 -0.11000000 31 55 212 97.000000 1.000000 4.000000 1.000000 -60.708740 114.000000 18.000000 0.809589 -0.009622 0.586918
17.78000069 -3.36999989 -0.15000001 31 55 212 97.000000 1.000000 4.000000 1.000000 -60.708740 114.000000 18.000000 0.461304 0.629050 0.625695
17.87000084 -3.29999995 -0.20999999 31 55 212 97.000000 1.000000 4.000000 1.000000 -60.708740 114.000000 18.000000 0.719331 0.155981 0.676929
17.79999924 -3.23000002 -0.23999999 31 55 212 97.000000 1.000000 4.000000 1.000000 -60.708740 114.000000 18.000000 0.608906 0.504329 0.612279
17.80999947 -3.28999996 -0.20999999 31 55 212 97.000000 1.000000 4.000000 1.000000 -60.708740 114.000000 18.000000 0.486764 0.530255 0.694183
17.80999947 -3.29999995 -0.20999999 31 55 212 97.000000 1.000000 4.000000 1.000000 -60.708740 114.000000 18.000000 0.702042 0.265852 0.660651
17.79999924 -3.27999997 -0.27000001 31 55 212 97.000000 1.000000 4.000000 1.000000 -60.708740 114.000000 18.000000 0.403095 0.632013 0.661872
17.79999924 -3.29999995 -0.31999999 31 55 212 97.000000 1.000000 4.000000 1.000000 -60.708740 114.000000 18.000000 0.554142 0.402863 0.728442
17.87000084 -3.33999991 -0.19000000 31 55 212 97.000000 1.000000 4.000000 1.000000 -60.708740 114.000000 18.000000 0.762776 0.400171 0.507973
17.84000015 -3.31999993 -0.20000000 31 55 212 97.000000 1.000000 4.000000 1.000000 -60.708740 114.000000 18.000000 0.731689 0.110862 0.672563
17.79999924 -3.34999990 -0.25999999 31 55 212 97.000000 1.000000 4.000000 1.000000 -60.708740 114.000000 18.000000 0.773338 0.470515 0.424929
17.80999947 -3.34999990 -0.28000000 31 55 212 97.000000 1.000000 4.000000 1.000000 -60.708740 114.000000 18.000000 0.713354 0.564394 0.415434
17.76000023 -3.28999996 -0.20000000 31 55 212 97.000000 1.000000 4.000000 1.000000 -60.708740 114.000000 18.000000 0.495814 0.519186 0.696143
17.76000023 -3.29999995 -0.20000000 31 55 212 97.000000 1.000000 4.000000 1.000000 -60.708740 114.000000 18.000000 0.526538 0.191605 0.828279
17.76000023 -3.26999998 -0.25999999 31 55 212 97.000000 1.000000 4.000000 1.000000 -60.708740 114.000000 18.000000 0.613520 0.475688 0.630329
17.72999954 -3.28999996 -0.28999999 31 55 212 97.000000 1.000000 4.000000 1.000000 -60.708740 114.000000 18.000000 0.642391 0.195644 0.740984
17.72999954 -3.35999990 -0.23999999 31 55 212 97.000000 1.000000 4.000000 1.000000 -60.708740 114.000000 18.000000 0.719298 0.315198 0.619081
17.75000000 -3.35999990 -0.25999999 31 55 212 97.000000 1.000000 4.000000 1.000000 -60.708740 114.000000 18.000000 0.504676 0.265537 0.821457
17.27000046 -3.03999996 -0.44999999 31 55 212 97.000000 1.000000 4.000000 1.000000 -60.708740 114.000000 18.000000 0.854252 -0.517011 0.054349
17.23999977 -3.00000000 -0.50999999 31 55 212 97.000000 1.000000 4.000000 1.000000 -60.708740 114.000000 18.000000 -0.629583 0.752729 -0.192415
17.25000000 -2.99000001 -0.52999997 31 55 212 97.000000 1.000000 4.000000 1.000000 -60.708740 114.000000 18.000000 0.789579 -0.599962 0.128881
17.23999977 -2.99000001 -0.52999997 31 55 212 97.000000 1.000000 4.000000 1.000000 -60.708740 114.000000 18.000000 0.828889 -0.559398 -0.004083
17.23999977 -3.02999997 -0.61000001 31 55 212 97.000000 1.000000 4.000000 1.000000 -60.708740 114.000000 18.000000 0.961772 -0.264836 -0.069694
17.48999977 -3.04999995 -0.74000001 31 55 212 97.000000 1.000000 4.000000 1.000000 -60.708740 114.000000 18.000000 -0.449949 0.664051 0.597144
17.51000023 -3.02999997 -0.75999999 31 55 212 97.000000 1.000000 4.000000 1.000000 -60.708740 114.000000 18.000000 -0.614099 0.769528 0.175239
17.50000000 -3.04999995 -0.74000001 31 55 212 97.000000 1.000000 4.000000 1.000000 -60.708740 114.000000 18.000000 0.713080 -0.659560 -0.237693
17.45000076 -3.03999996 -0.79000002 31 55 212 97.000000 1.000000 4.000000 1.000000 -60.708740 114.000000 18.000000 -0.687197 0.693430 0.216599
17.43000031 -3.04999995 -0.85000002 31 55 212 97.000000 1.000000 4.000000 1.000000 -60.708740 114.000000 18.000000 0.824684 -0.564985 -0.026246
17.45999908 -3.04999995 -0.91000003 31 55 212 97.000000 1.000000 4.000000 1.000000 -60.708740 114.000000 18.000000 -0.826891 0.422141 -0.371548
17.36000061 -3.01999998 -0.74000001 31 55 212 97.000000 1.000000 4.000000 1.000000 -60.708740 114.000000 18.000000 0.734372 -0.678632 -0.012541
17.29000092 -3.02999997 -0.73000002 31 55 212 97.000000 1.000000 4.000000 1.000000 -60.708740 114.000000 18.000000 0.985890 -0.164892 0.028827
17.70999908 -3.19000006 -0.23999999 31 55 212 97.000000 1.000000 4.000000 1.000000 -60.708740 114.000000 18.000000 0.307571 0.607090 0.732695
17.70999908 -3.25999999 -0.22000000 31 55 212 97.000000 1.000000 4.000000 1.000000 -60.708740 114.000000 18.000000 0.469289 0.827142 0.309197
17.69000053 -3.26999998 -0.27000001 31 55 212 97.000000 1.000000 4.000000 1.000000 -60.708740 114.000000 18.000000 0.402509 0.467169 0.787236
17.63999939 -3.30999994 -0.25000000 31 55 212 97.000000 1.000000 4.000000 1.000000 -60.708740 114.000000 18.000000 0.209501 0.746445 0.631608
17.70000076 -3.25999999 -0.31000000 31 55 212 97.000000 1.000000 4.000000 1.000000 -60.708740 114.000000 18.000000 0.676314 0.276601 0.682709
17.70000076 -3.25999999 -0.31000000 31 55 212 97.000000 1.000000 4.000000 1.000000 -60.708740 114.000000 18.000000 0.676314 0.276601 0.682709
17.70000076 -3.26999998 -0.31000000 31 55 212 97.000000 1.000000 4.000000 1.000000 -60.708740 114.000000 18.000000 0.441698 0.403150 0.801482
17.63999939 -3.25000000 -0.28000000 31 55 212 97.000000 1.000000 4.000000 1.000000 -60.708740 114.000000 18.000000 0.579441 0.430015 0.692341
17.64999962 -3.29999995 -0.33000001 31 55 212 97.000000 1.000000 4.000000 1.000000 -60.708740 114.000000 18.000000 0.523494 0.503424 0.687400
17.64999962 -3.38000011 -0.22000000 31 55 212 97.000000 1.000000 4.000000 1.000000 -60.708740 114.000000 18.000000 0.639660 0.535019 0.551897
17.69000053 -3.38000011 -0.31000000 31 55 212 97.000000 1.000000 4.000000 1.000000 -60.708740 114.000000 18.000000 0.722319 0.101507 0.684070
17.62999916 -3.31999993 -0.31000000 31 55 212 97.000000 1.000000 4.000000 1.000000 -60.708740 114.000000 18.000000 0.178524 0.611864 0.770552
17.60000038 -3.29999995 -0.34000000 31 55 212 97.000000 1.000000 4.000000 1.000000 -60.708740 114.000000 18.000000 0.533369 0.664608 0.523273
17.59000015 -3.39000010 -0.22000000 31 55 212 97.000000 1.000000 4.000000 1.000000 -60.708740 114.000000 18.000000 0.527737 0.510984 0.678520
17.59000015 -3.39000010 -0.22000000 31 55 212 97.000000 1.000000 4.000000 1.000000 -60.708740 114.000000 18.000000 0.527737 0.510984 0.678520
17.59000015 -3.38000011 -0.23999999 31 55 212 97.000000 1.000000 4.000000 1.000000 -60.708740 114.000000 18.000000 0.569258 0.717760 0.400956
17.59000015 -3.38000011 -0.23999999 31 55 212 97.000000 1.000000 4.000000 1.000000 -60.708740 114.000000 18.000000 0.569258 0.717760 0.400956
17.59000015 -3.38000011 -0.23999999 31 55 212 97.000000 1.000000 4.000000 1.000000 -60.708740 114.000000 18.000000 0.569258 0.717760 0.400956
17.54999924 -3.38000011 -0.23000000 31 55 212 97.000000 1.000000 4.000000 1.000000 -60.708740 114.000000 18.000000 0.060047 0.518078 0.853223
17.56999969 -3.34999990 -0.31999999 31 55 212 97.000000 1.000000 4.000000 1.000000 -60.708740 114.000000 18.000000 0.430001 0.522262 0.736439
17.37999916 -3.15000010 -0.23999999 31 55 212 97.000000 1.000000 4.000000 1.000000 -60.708740 114.000000 18.000000 -0.433412 0.888423 0.151190
17.50000000 -3.26999998 -0.25999999 31 55 212 97.000000 1.000000 4.000000 1.000000 -60.708740 114.000000 18.000000 -0.155981 0.719331 0.676929
17.52000046 -3.30999994 -0.28000000 31 55 212 97.000000 1.000000 4.000000 1.000000 -60.708740 114.000000 18.000000 -0.300640 0.705781 0.641473
17.52000046 -3.32999992 -0.25999999 31 55 212 97.000000 1.000000 4.000000 1.000000 -60.708740 114.000000 18.000000 -0.118600 0.821417 0.557861
17.47999954 -3.39000010 -0.23999999 31 55 212 97.000000 1.000000 4.000000 1.000000 -60.708740 114.000000 18.000000 -0.216568 0.702677 0.677749
17.44000053 -3.24000001 -0.34000000 31 55 212 97.000000 1.000000 4.000000 1.000000 -60.708740 114.000000 18.000000 -0.260910 0.954905 0.141713
17.64999962 -3.16000009 -0.60000002 31 55 212 97.000000 1.000000 4.000000 1.000000 -60.708740 114.000000 18.000000 0.515225 0.800580 0.305964
17.62999916 -3.19000006 -0.55000001 31 55 212 97.000000 1.000000 4.000000 1.000000 -60.708740 114.000000 18.000000 0.152776 0.918060 0.365822
17.62999916 -3.16000009 -0.63000000 31 55 212 97.000000 1.000000 4.000000 1.000000 -60.708740 114.000000 18.000000 0.118622 0.968110 0.220663
17.65999985 -3.18000007 -0.64999998 31 55 212 97.000000 1.000000 4.000000 1.000000 -60.708740 114.000000 18.000000 0.500246 0.797516 0.337226
17.61000061 -3.13000011 -0.66000003 31 55 212 97.000000 1.000000 4.000000 1.000000 -60.708740 114.000000 18.000000 -0.029325 0.599071 0.800158
17.59000015 -3.13000011 -0.66000003 31 55 212 97.000000 1.000000 4.000000 1.000000 -60.708740 114.000000 18.000000 0.526150 -0.802576 -0.281137
17.60000038 -3.18000007 -0.52999997 31 55 212 97.000000 1.000000 4.000000 1.000000 -60.708740 114.000000 18.000000 -0.169193 0.675246 0.717925
17.60000038 -3.18000007 -0.57999998 31 55 212 97.000000 1.000000 4.000000 1.000000 -60.708740 114.000000 18.000000 -0.323753 0.866920 0.378990
17.55999947 -3.21000004 -0.56000000 31 55 212 97.000000 1.000000 4.000000 1.000000 -60.708740 114.000000 18.000000 0.104345 0.771563 0.627538
17.61000061 -3.17000008 -0.62000000 31 55 212 97.000000 1.000000 4.000000 1.000000 -60.708740 114.000000 18.000000 0.140849 0.567845 0.810995
17.62000084 -3.18000007 -0.62000000 31 55 212 97.000000 1.000000 4.000000 1.000000 -60.708740 114.000000 18.000000 -0.142958 0.687702 0.711779
17.62000084 -3.20000005 -0.61000001 31 55 212 97.000000 1.000000 4.000000 1.000000 -60.708740 114.000000 18.000000 0.365621 0.862372 0.350194
17.70000076 -3.30999994 -0.38999999 31 55 212 97.000000 1.000000 4.000000 1.000000 -60.708740 114.000000 18.000000 0.792993 0.032167 0.608381
17.70000076 -3.30999994 -0.38999999 31 55 212 97.000000 1.000000 4.000000 1.000000 -60.708740 114.000000 18.000000 0.792993 0.032167 0.608381
17.62999916 -3.29999995 -0.41999999 31 55 212 97.000000 1.000000 4.000000 1.000000 -60.708740 114.000000 18.000000 0.671610 0.283711 0.684433
17.69000053 -3.23000002 -0.47999999 31 55 212 97.000000 1.000000 4.000000 1.000000 -60.708740 114.000000 18.000000 0.475693 0.752220 0.455941
17.67000008 -3.25000000 -0.50000000 31 55 212 97.000000 1.000000 4.000000 1.000000 -60.708740 114.000000 18.000000 0.488001 0.501325 0.714513
17.70999908 -3.25999999 -0.51999998 31 55 212 97.000000 1.000000 4.000000 1.000000 -60.708740 114.000000 18.000000 0.694284 0.058935 0.717284
17.67000008 -3.27999997 -0.47000000 31 55 212 97.000000 1.000000 4.000000 1.000000 -60.708740 114.000000 18.000000 0.744464 0.548122 0.381231
17.69000053 -3.27999997 -0.50999999 31 55 212 97.000000 1.000000 4.000000 1.000000 -60.708740 114.000000 18.000000 0.627730 0.627730 0.460336
17.62999916 -3.32999992 -0.37000000 31 55 212 97.000000 1.000000 4.000000 1.000000 -60.708740 114.000000 18.000000 0.574202 0.374622 0.727977
17.62999916 -3.33999991 -0.37000000 31 55 212 97.000000 1.000000 4.000000 1.000000 -60.708740 114.000000 18.000000 0.701428 0.401052 0.589200
17.62999916 -3.34999990 -0.37000000 31 55 212 97.000000 1.000000 4.000000 1.000000 -60.708740 114.000000 18.000000 0.767256 0.218552 0.602954
17.64999962 -3.36999989 -0.38999999 31 55 212 97.000000 1.000000 4.000000 1.000000 -60.708740 114.000000 18.000000 0.729550 0.156224 0.665847
17.60000038 -3.25000000 -0.38999999 31 55 212 97.000000 1.000000 4.000000 1.000000 -60.708740 114.000000 18.000000 0.251749 0.792773 0.555098
17.54999924 -3.25000000 -0.41999999 31 55 212 97.000000 1.000000 4.000000 1.000000 -60.708740 114.000000 18.000000 0.392355 -0.770057 -0.503061
17.61000061 -3.27999997 -0.47000000 31 55 212 97.000000 1.000000 4.000000 1.000000 -60.708740 114.000000 18.000000 0.080544 0.910561 0.405452
17.56999969 -3.24000001 -0.47999999 31 55 212 97.000000 1.000000 4.000000 1.000000 -60.708740 114.000000 18.000000 0.177168 0.879985 0.440725
17.55999947 -3.23000002 -0.49000001 31 55 212 97.000000 1.000000 4.000000 1.000000 -60.708740 114.000000 18.000000 0.013361 0.963205 0.268434
17.56999969 -3.29999995 -0.49000001 31 55 212 97.000000 1.000000 4.000000 1.000000 -60.708740 114.000000 18.000000 -0.247226 0.732231 0.634600
17.54999924 -3.31999993 -0.41999999 31 55 212 97.000000 1.000000 4.000000 1.000000 -60.708740 114.000000 18.000000 0.407296 0.754071 0.515254
17.55999947 -3.33999991 -0.43000001 31 55 212 97.000000 1.000000 4.000000 1.000000 -60.708740 114.000000 18.000000 0.046495 0.958807 0.280228
17.55999947 -3.36999989 -0.37000000 31 55 212 97.000000 1.000000 4.000000 1.000000 -60.708740 114.000000 18.000000 0.282725 0.640524 0.714000
17.59000015 -3.32999992 -0.50000000 31 55 212 97.000000 1.000000 4.000000 1.000000 -60.708740 114.000000 18.000000 0.117199 0.846434 0.519436
17.57999992 -3.32999992 -0.49000001 31 55 212 97.000000 1.000000 4.000000 1.000000 -60.708740 114.000000 18.000000 0.162015 0.833859 0.527665
17.62999916 -3.27999997 -0.56000000 31 55 212 97.000000 1.000000 4.000000 1.000000 -60.708740 114.000000 18.000000 0.261376 0.742942 0.616214
17.62000084 -3.25000000 -0.54000002 31 55 212 97.000000 1.000000 4.000000 1.000000 -60.708740 114.000000 18.000000 0.261573 0.714967 0.648384
17.60000038 -3.24000001 -0.58999997 31 55 212 97.000000 1.000000 4.000000 1.000000 -60.708740 114.000000 18.000000 0.317055 0.855276 0.409852
17.61000061 -3.23000002 -0.67000002 31 55 212 97.000000 1.000000 4.000000 1.000000 -60.708740 114.000000 18.000000 -0.292701 0.862780 0.412234
17.60000038 -3.25000000 -0.69000000 31 55 212 97.000000 1.000000 4.000000 1.000000 -60.708740 114.000000 18.000000 0.755822 -0.611856 -0.233163
17.55999947 -3.24000001 -0.69000000 31 55 212 97.000000 1.000000 4.000000 1.000000 -60.708740 114.000000 18.000000 -0.695329 0.663360 0.276533
17.56999969 -3.23000002 -0.68000001 31 55 212 97.000000 1.000000 4.000000 1.000000 -60.708740 114.000000 18.000000 -0.681246 0.725387 0.098582
17.56999969 -3.26999998 -0.63000000 31 55 212 97.000000 1.000000 4.000000 1.000000 -60.708740 114.000000 18.000000 0.803064 -0.515917 -0.298191
17.54000092 -3.22000003 -0.47999999 31 55 212 97.000000 1.000000 4.000000 1.000000 -60.708740 114.000000 18.000000 -0.055481 0.970293 0.235484
17.53000069 -3.09999990 -0.67000002 31 55 212 97.000000 1.000000 4.000000 1.000000 -60.708740 114.000000 18.000000 -0.242485 0.900868 0.360053
17.48999977 -3.18000007 -0.60000002 31 55 212 97.000000 1.000000 4.000000 1.000000 -60.708740 114.000000 18.000000 -0.323520 0.931683 0.165231
17.50000000 -3.21000004 -0.58999997 31 55 212 97.000000 1.000000 4.000000 1.000000 -60.708740 114.000000 18.000000 -0.248314 0.825143 0.507424
17.52000046 -3.16000009 -0.62000000 31 55 212 97.000000 1.000000 4.000000 1.000000 -60.708740 114.000000 18.000000 -0.448396 0.874740 0.183769
17.52000046 -3.17000008 -0.63000000 31 55 212 97.000000 1.000000 4.000000 1.000000 -60.708740 114.000000 18.000000 0.583862 -0.594016 -0.553399
17.53000069 -3.18000007 -0.62000000 31 55 212 97.000000 1.000000 4.000000 1.000000 -60.708740 114.000000 18.000000 0.420610 -0.596834 -0.683284
17.46999931 -3.18000007 -0.67000002 31 55 212 97.000000 1.000000 4.000000 1.000000 -60.708740 114.000000 18.000000 -0.521967 0.826321 0.211526
17.45999908 -3.21000004 -0.61000001 31 55 212 97.000000 1.000000 4.000000 1.000000 -60.708740 114.000000 18.000000 0.803827 -0.481018 -0.349976
17.50000000 -3.21000004 -0.63999999 31 55 212 97.000000 1.000000 4.000000 1.000000 -60.708740 114.000000 18.000000 -0.650591 0.758315 0.041105
17.46999931 -3.22000003 -0.67000002 31 55 212 97.000000 1.000000 4.000000 1.000000 -60.708740 114.000000 18.000000 0.857540 -0.465694 -0.218529
17.47999954 -3.20000005 -0.69000000 31 55 212 97.000000 1.000000 4.000000 1.000000 -60.708740 114.000000 18.000000 0.814457 -0.567918 0.118867
17.45000076 -3.22000003 -0.57999998 31 55 212 97.000000 1.000000 4.000000 1.000000 -60.708740 114.000000 18.000000 -0.856828 0.452003 0.248069
17.45000076 -3.20000005 -0.52999997 31 55 212 97.000000 1.000000 4.000000 1.000000 -60.708740 114.000000 18.000000 -0.262594 0.933824 0.242935
17.43000031 -3.22000003 -0.61000001 31 55 212 97.000000 1.000000 4.000000 1.000000 -60.708740 114.000000 18.000000 0.869060 -0.400285 0.290701
17.52000046 -3.29999995 -0.44000000 31 55 212 97.000000 1.000000 4.000000 1.000000 -60.708740 114.000000 18.000000 -0.530485 0.740708 0.412234
17.53000069 -3.30999994 -0.47000000 31 55 212 97.000000 1.000000 4.000000 1.000000 -60.708740 114.000000 18.000000 0.179327 0.737235 0.651403
17.50000000 -3.24000001 -0.50000000 31 55 212 97.000000 1.000000 4.000000 1.000000 -60.708740 114.000000 18.000000 -0.340224 0.925466 0.166612
17.51000023 -3.31999993 -0.43000001 31 55 212 97.000000 1.000000 4.000000 1.000000 -60.708740 114.000000 18.000000 -0.023759 0.951617 0.306368
17.51000023 -3.38000011 -0.41999999 31 55 212 97.000000 1.000000 4.000000 1.000000 -60.708740 114.000000 18.000000 -0.122496 0.978730 0.164565
17.54000092 -3.39000010 -0.47000000 31 55 212 97.000000 1.000000 4.000000 1.000000 -60.708740 114.000000 18.000000 0.077956 0.906751 0.414398
17.51000023 -3.39000010 -0.47999999 31 55 212 97.000000 1.000000 4.000000 1.000000 -60.708740 114.000000 18.000000 0.512845 -0.755341 -0.407982
17.52000046 -3.39000010 -0.47000000 31 55 212 97.000000 1.000000 4.000000 1.000000 -60.708740 114.000000 18.000000 -0.495751 0.821039 0.283063
17.50000000 -3.32999992 -0.51999998 31 55 212 97.000000 1.000000 4.000000 1.000000 -60.708740 114.000000 18.000000 -0.723183 0.651021 -0.230603
17.45999908 -3.31999993 -0.51999998 31 55 212 97.000000 1.000000 4.000000 1.000000 -60.708740 114.000000 18.000000 0.733897 -0.636463 -0.237299
17.45000076 -3.35999990 -0.36000001 31 55 212 97.000000 1.000000 4.000000 1.000000 -60.708740 114.000000 18.000000 -0.203438 0.971701 0.120041
