//X Y Z R G B PointSourceId ScanDirectionFlag NumberOfReturns ReturnNumber GpsTime Intensity Classification Nx Ny Nz
9.69999981 -8.27000046 0.49000001 156 166 94 0.000000 0.000000 0.000000 0.000000 -60.708740 0.000000 240.000000 0.673674 0.532555 -0.512395
9.72999954 -8.31000042 0.56000000 156 166 94 0.000000 0.000000 0.000000 0.000000 -60.708740 0.000000 240.000000 0.633342 0.545519 -0.548896
9.81000042 -8.28999996 0.47000000 156 166 94 0.000000 0.000000 0.000000 0.000000 -60.708740 0.000000 240.000000 0.741084 0.614132 -0.271361
9.81000042 -8.27999973 0.47999999 156 166 94 0.000000 0.000000 0.000000 0.000000 -60.708740 0.000000 240.000000 0.786925 0.292920 -0.543089
9.77000046 -8.31999969 0.47000000 156 166 94 0.000000 0.000000 0.000000 0.000000 -60.708740 0.000000 240.000000 -0.643030 -0.435924 0.629668
9.78999996 -8.31000042 0.38999999 156 166 94 0.000000 0.000000 0.000000 0.000000 -60.708740 0.000000 240.000000 0.581438 0.238499 -0.777849
9.73999977 -8.27999973 0.37000000 156 166 94 0.000000 0.000000 0.000000 0.000000 -60.708740 0.000000 240.000000 -0.130305 -0.687469 0.714428
9.77000046 -8.31999969 0.38000000 156 166 94 0.000000 0.000000 0.000000 0.000000 -60.708740 0.000000 240.000000 0.678049 0.283723 -0.678049
9.77000046 -8.35999966 0.40000001 156 166 94 0.000000 0.000000 0.000000 0.000000 -60.708740 0.000000 240.000000 0.605132 0.406185 -0.684711
9.73999977 -8.35999966 0.38999999 156 166 94 0.000000 0.000000 0.000000 0.000000 -60.708740 0.000000 240.000000 0.397794 0.711408 -0.579360
9.77000046 -8.35000038 0.36000001 156 166 94 0.000000 0.000000 0.000000 0.000000 -60.708740 0.000000 240.000000 0.761420 0.551261 -0.341103
9.69999981 -8.32999992 0.46000001 156 166 94 0.000000 0.000000 0.000000 0.000000 -60.708740 0.000000 240.000000 0.815966 0.354699 -0.456496
9.71000004 -8.31000042 0.44999999 156 166 94 0.000000 0.000000 0.000000 0.000000 -60.708740 0.000000 240.000000 0.301323 0.704162 -0.642931
9.72999954 -8.27000046 0.41000000 156 166 94 0.000000 0.000000 0.000000 0.000000 -60.708740 0.000000 240.000000 0.620426 0.546042 -0.562948
9.71000004 -8.30000019 0.47999999 156 166 94 0.000000 0.000000 0.000000 0.000000 -60.708740 0.000000 240.000000 0.319278 0.898434 -0.301458
9.68999958 -8.31000042 0.44000000 156 166 94 0.000000 0.000000 0.000000 0.000000 -60.708740 0.000000 240.000000 -0.523303 -0.456852 0.719334
9.71000004 -8.27999973 0.46000001 156 166 94 0.000000 0.000000 0.000000 0.000000 -60.708740 0.000000 240.000000 -0.206720 -0.707202 0.676116
9.69999981 -8.31999969 0.41999999 156 166 94 0.000000 0.000000 0.000000 0.000000 -60.708740 0.000000 240.000000 0.750640 0.551989 -0.363108
9.72000027 -8.28999996 0.37000000 156 166 94 0.000000 0.000000 0.000000 0.000000 -60.708740 0.000000 240.000000 0.542401 0.626887 -0.559298
9.68999958 -8.30000019 0.31999999 156 166 94 0.000000 0.000000 0.000000 0.000000 -60.708740 0.000000 240.000000 0.071881 0.910044 -0.408231
9.72999954 -8.38000011 0.36000001 156 166 94 0.000000 0.000000 0.000000 0.000000 -60.708740 0.000000 240.000000 0.675746 0.481238 -0.558370
9.72999954 -8.35000038 0.31999999 156 166 94 0.000000 0.000000 0.000000 0.000000 -60.708740 0.000000 240.000000 -0.319834 -0.409449 0.854434
9.65999985 -8.38000011 0.34000000 156 166 94 0.000000 0.000000 0.000000 0.000000 -60.708740 0.000000 240.000000 0.135872 0.845910 -0.515728
9.68999958 -8.40999985 0.33000001 156 166 94 0.000000 0.000000 0.000000 0.000000 -60.708740 0.000000 240.000000 0.572758 0.793876 -0.204227
9.75000000 -8.32999992 0.28999999 156 166 94 0.000000 0.000000 0.000000 0.000000 -60.708740 0.000000 240.000000 0.743922 0.544453 -0.387493
9.73999977 -8.36999989 0.25999999 156 166 94 0.000000 0.000000 0.000000 0.000000 -60.708740 0.000000 240.000000 0.429211 0.548528 -0.717561
9.73999977 -8.36999989 0.28999999 156 166 94 0.000000 0.000000 0.000000 0.000000 -60.708740 0.000000 240.000000 0.814464 0.534252 -0.226326
9.76000023 -8.38000011 0.31000000 156 166 94 0.000000 0.000000 0.000000 0.000000 -60.708740 0.000000 240.000000 0.906986 0.347945 -0.237301
9.73999977 -8.40999985 0.31000000 156 166 94 0.000000 0.000000 0.000000 0.000000 -60.708740 0.000000 240.000000 0.405148 0.600281 -0.689578
9.68999958 -8.34000015 0.30000001 156 166 94 0.000000 0.000000 0.000000 0.000000 -60.708740 0.000000 240.000000 0.641556 0.399522 -0.654819
9.71000004 -8.32999992 0.28000000 156 166 94 0.000000 0.000000 0.000000 0.000000 -60.708740 0.000000 240.000000 0.504668 0.672332 -0.541554
9.68000031 -8.31000042 0.25999999 156 166 94 0.000000 0.000000 0.000000 0.000000 -60.708740 0.000000 240.000000 0.661766 0.577998 -0.477477
9.69999981 -8.35000038 0.31000000 156 166 94 0.000000 0.000000 0.000000 0.000000 -60.708740 0.000000 240.000000 0.123453 0.849649 -0.512694
9.72000027 -8.35999966 0.30000001 156 166 94 0.000000 0.000000 0.000000 0.000000 -60.708740 0.000000 240.000000 0.638117 0.365810 -0.677487
9.72999954 -8.35999966 0.31000000 156 166 94 0.000000 0.000000 0.000000 0.000000 -60.708740 0.000000 240.000000 0.660375 0.532669 -0.529309
9.72000027 -8.43000031 0.30000001 156 166 94 0.000000 0.000000 0.000000 0.000000 -60.708740 0.000000 240.000000 0.687521 0.584310 -0.431157
9.71000004 -8.43000031 0.28000000 156 166 94 0.000000 0.000000 0.000000 0.000000 -60.708740 0.000000 240.000000 0.801779 0.422581 -0.422581
9.72999954 -8.43000031 0.23000000 156 166 94 0.000000 0.000000 0.000000 0.000000 -60.708740 0.000000 240.000000 0.498072 0.765887 -0.406622
9.68999958 -8.39999962 0.19000000 156 166 94 0.000000 0.000000 0.000000 0.000000 -60.708740 0.000000 240.000000 -0.422019 -0.365118 0.829813
9.71000004 -8.39999962 0.13000000 156 166 94 0.000000 0.000000 0.000000 0.000000 -60.708740 0.000000 240.000000 0.408585 0.870331 -0.274921
9.68999958 -8.43000031 0.09000000 156 166 94 0.000000 0.000000 0.000000 0.000000 -60.708740 0.000000 240.000000 0.705677 0.347134 -0.617671
10.02999973 -8.77999973 0.67000002 156 166 94 0.000000 0.000000 0.000000 0.000000 -60.708740 0.000000 240.000000 -0.623315 0.778783 0.070537
10.05000019 -8.78999996 0.68000001 156 166 94 0.000000 0.000000 0.000000 0.000000 -60.708740 0.000000 240.000000 0.875021 -0.472256 0.106364
10.02000046 -8.78999996 0.67000002 156 166 94 0.000000 0.000000 0.000000 0.000000 -60.708740 0.000000 240.000000 0.936227 -0.267293 0.228109
9.75000000 -8.75000000 0.74000001 156 166 94 0.000000 0.000000 0.000000 0.000000 -60.708740 0.000000 240.000000 0.589757 -0.714608 0.376196
9.73999977 -8.76000023 0.73000002 156 166 94 0.000000 0.000000 0.000000 0.000000 -60.708740 0.000000 240.000000 -0.446615 0.784419 -0.430375
9.75000000 -8.75000000 0.69999999 156 166 94 0.000000 0.000000 0.000000 0.000000 -60.708740 0.000000 240.000000 0.258084 -0.714084 0.650751
9.76000023 -8.68999958 0.67000002 156 166 94 0.000000 0.000000 0.000000 0.000000 -60.708740 0.000000 240.000000 -0.594084 0.803760 -0.032150
9.68999958 -8.73999977 0.69000000 156 166 94 0.000000 0.000000 0.000000 0.000000 -60.708740 0.000000 240.000000 -0.381813 0.813150 -0.439325
9.68000031 -8.73999977 0.69000000 156 166 94 0.000000 0.000000 0.000000 0.000000 -60.708740 0.000000 240.000000 0.668391 -0.638684 0.381230
9.97000027 -8.78999996 0.67000002 156 166 94 0.000000 0.000000 0.000000 0.000000 -60.708740 0.000000 240.000000 0.880115 -0.468561 0.076471
9.76000023 -8.77999973 0.67000002 156 166 94 0.000000 0.000000 0.000000 0.000000 -60.708740 0.000000 240.000000 -0.298974 0.828049 -0.474289
9.68999958 -8.78999996 0.69999999 156 166 94 0.000000 0.000000 0.000000 0.000000 -60.708740 0.000000 240.000000 -0.503242 0.621058 -0.600861
9.73999977 -8.78999996 0.69999999 156 166 94 0.000000 0.000000 0.000000 0.000000 -60.708740 0.000000 240.000000 0.524625 -0.711158 0.467999
9.71000004 -8.78999996 0.69000000 156 166 94 0.000000 0.000000 0.000000 0.000000 -60.708740 0.000000 240.000000 -0.534981 0.784106 -0.314601
10.11999989 -8.73999977 0.63000000 156 166 94 0.000000 0.000000 0.000000 0.000000 -60.708740 0.000000 242.000000 0.818789 -0.572453 0.043389
10.10000038 -8.72000027 0.60000002 156 166 94 0.000000 0.000000 0.000000 0.000000 -60.708740 0.000000 242.000000 0.864020 -0.503455 -0.001335
10.03999996 -8.78999996 0.64999998 156 166 94 0.000000 0.000000 0.000000 0.000000 -60.708740 0.000000 240.000000 0.744453 -0.477044 0.467140
10.03999996 -8.77999973 0.62000000 156 166 94 0.000000 0.000000 0.000000 0.000000 -60.708740 0.000000 240.000000 -0.627411 0.778326 -0.023755
10.05000019 -8.77999973 0.57999998 156 166 94 0.000000 0.000000 0.000000 0.000000 -60.708740 0.000000 240.000000 0.624495 -0.702761 0.340782
10.01000023 -8.80000019 0.61000001 156 166 94 0.000000 0.000000 0.000000 0.000000 -60.708740 0.000000 240.000000 0.670450 -0.660662 0.337672
9.98999977 -8.76000023 0.60000002 156 166 94 0.000000 0.000000 0.000000 0.000000 -60.708740 0.000000 240.000000 0.957008 -0.276927 0.086298
9.93000031 -8.73999977 0.55000001 156 166 94 0.000000 0.000000 0.000000 0.000000 -60.708740 0.000000 240.000000 0.898384 -0.436358 -0.049985
9.71000004 -8.75000000 0.56999999 156 166 94 0.000000 0.000000 0.000000 0.000000 -60.708740 0.000000 240.000000 -0.250725 0.904662 -0.344563
9.75000000 -8.73999977 0.63999999 156 166 94 0.000000 0.000000 0.000000 0.000000 -60.708740 0.000000 240.000000 -0.370285 0.640181 -0.673095
9.71000004 -8.72999954 0.63999999 156 166 94 0.000000 0.000000 0.000000 0.000000 -60.708740 0.000000 240.000000 -0.263694 0.858149 -0.440506
9.72999954 -8.43999958 0.23000000 156 166 94 0.000000 0.000000 0.000000 0.000000 -60.708740 0.000000 240.000000 0.717120 0.626876 -0.304575
9.71000004 -8.44999981 0.18000001 156 166 94 0.000000 0.000000 0.000000 0.000000 -60.708740 0.000000 240.000000 0.325008 0.590189 -0.738949
9.72000027 -8.47999954 0.19000000 156 166 94 0.000000 0.000000 0.000000 0.000000 -60.708740 0.000000 240.000000 0.688142 0.152752 -0.709315
9.67000008 -8.43999958 0.17000000 156 166 94 0.000000 0.000000 0.000000 0.000000 -60.708740 0.000000 240.000000 -0.182338 -0.654272 0.733949
9.71000004 -8.48999977 0.10000000 156 166 94 0.000000 0.000000 0.000000 0.000000 -60.708740 0.000000 240.000000 0.723567 0.607019 -0.328600
9.68999958 -8.44999981 0.09000000 156 166 94 0.000000 0.000000 0.000000 0.000000 -60.708740 0.000000 240.000000 0.359059 0.872437 -0.331557
9.68000031 -8.48999977 0.09000000 156 166 94 0.000000 0.000000 0.000000 0.000000 -60.708740 0.000000 240.000000 0.500851 0.787511 -0.359131
9.65999985 -8.51000023 0.00000000 156 166 94 0.000000 0.000000 0.000000 0.000000 -60.708740 0.000000 240.000000 0.223971 0.690708 -0.687575
9.68999958 -8.52000046 0.10000000 156 166 94 0.000000 0.000000 0.000000 0.000000 -60.708740 0.000000 240.000000 -0.580536 -0.334738 0.742245
9.68000031 -8.56999969 0.04000000 156 166 94 0.000000 0.000000 0.000000 0.000000 -60.708740 0.000000 240.000000 0.687746 0.258898 -0.678216
9.96000004 -8.80000019 0.58999997 156 166 94 0.000000 0.000000 0.000000 0.000000 -60.708740 0.000000 240.000000 0.879815 -0.464621 -0.100268
9.92000008 -8.77000046 0.64999998 156 166 94 0.000000 0.000000 0.000000 0.000000 -60.708740 0.000000 240.000000 0.888104 -0.292041 0.354942
9.92000008 -8.78999996 0.61000001 156 166 94 0.000000 0.000000 0.000000 0.000000 -60.708740 0.000000 240.000000 -0.673459 0.736641 -0.061746
9.92000008 -8.78999996 0.63000000 156 166 94 0.000000 0.000000 0.000000 0.000000 -60.708740 0.000000 240.000000 -0.622249 0.769190 -0.145441
9.93999958 -8.84000015 0.58999997 156 166 94 0.000000 0.000000 0.000000 0.000000 -60.708740 0.000000 240.000000 -0.519509 0.847621 -0.107931
9.96000004 -8.80000019 0.55000001 156 166 94 0.000000 0.000000 0.000000 0.000000 -60.708740 0.000000 240.000000 0.657756 -0.677245 0.329690
9.97999954 -8.84000015 0.52999997 156 166 94 0.000000 0.000000 0.000000 0.000000 -60.708740 0.000000 240.000000 0.949085 -0.306866 0.071214
9.94999981 -8.81000042 0.55000001 156 166 94 0.000000 0.000000 0.000000 0.000000 -60.708740 0.000000 240.000000 0.714829 -0.634511 0.293963
9.93000031 -8.84000015 0.49000001 156 166 94 0.000000 0.000000 0.000000 0.000000 -60.708740 0.000000 240.000000 0.906238 -0.389611 -0.164122
9.93999958 -8.86999989 0.49000001 156 166 94 0.000000 0.000000 0.000000 0.000000 -60.708740 0.000000 240.000000 0.936041 -0.346924 -0.058912
9.93999958 -8.86999989 0.49000001 156 166 94 0.000000 0.000000 0.000000 0.000000 -60.708740 0.000000 240.000000 0.936041 -0.346924 -0.058912
9.97999954 -8.85999966 0.50000000 156 166 94 0.000000 0.000000 0.000000 0.000000 -60.708740 0.000000 240.000000 0.887023 -0.434136 0.157212
9.90999985 -8.88000011 0.52999997 156 166 94 0.000000 0.000000 0.000000 0.000000 -60.708740 0.000000 240.000000 0.802717 -0.379728 0.459840
9.93999958 -8.82999992 0.44999999 156 166 94 0.000000 0.000000 0.000000 0.000000 -60.708740 0.000000 240.000000 0.753587 -0.451495 0.477764
9.93999958 -8.88000011 0.41999999 156 166 94 0.000000 0.000000 0.000000 0.000000 -60.708740 0.000000 240.000000 0.930217 -0.361237 -0.064837
9.92000008 -8.90999985 0.43000001 156 166 94 0.000000 0.000000 0.000000 0.000000 -60.708740 0.000000 240.000000 0.902485 -0.290981 0.317569
9.92000008 -8.88000011 0.38999999 156 166 94 0.000000 0.000000 0.000000 0.000000 -60.708740 0.000000 240.000000 0.722189 -0.691458 -0.018159
9.93999958 -8.86999989 0.36000001 156 166 94 0.000000 0.000000 0.000000 0.000000 -60.708740 0.000000 240.000000 -0.691925 0.704091 0.159675
9.92000008 -8.92000008 0.34000000 156 166 94 0.000000 0.000000 0.000000 0.000000 -60.708740 0.000000 240.000000 0.897745 -0.347562 0.270655
9.89999962 -8.82999992 0.43000001 156 166 94 0.000000 0.000000 0.000000 0.000000 -60.708740 0.000000 240.000000 0.816059 -0.533282 0.222841
9.89999962 -8.85999966 0.44000000 156 166 94 0.000000 0.000000 0.000000 0.000000 -60.708740 0.000000 240.000000 0.785689 -0.551722 -0.279813
9.89999962 -8.86999989 0.47000000 156 166 94 0.000000 0.000000 0.000000 0.000000 -60.708740 0.000000 240.000000 0.635344 -0.540969 0.551081
9.89999962 -8.86999989 0.44000000 156 166 94 0.000000 0.000000 0.000000 0.000000 -60.708740 0.000000 240.000000 -0.616382 0.786900 -0.029352
9.89000034 -8.90999985 0.43000001 156 166 94 0.000000 0.000000 0.000000 0.000000 -60.708740 0.000000 240.000000 -0.663808 0.742589 -0.088994
9.89999962 -8.89000034 0.38000000 156 166 94 0.000000 0.000000 0.000000 0.000000 -60.708740 0.000000 240.000000 -0.659573 0.744774 0.101360
9.89000034 -8.93000031 0.31999999 156 166 94 0.000000 0.000000 0.000000 0.000000 -60.708740 0.000000 240.000000 0.718846 -0.642677 0.265005
9.85999966 -8.89999962 0.37000000 156 166 94 0.000000 0.000000 0.000000 0.000000 -60.708740 0.000000 240.000000 0.690143 -0.699365 0.185985
9.77000046 -8.77000046 0.61000001 156 166 94 0.000000 0.000000 0.000000 0.000000 -60.708740 0.000000 240.000000 0.674900 -0.714871 0.182946
9.75000000 -8.85000038 0.50000000 156 166 94 0.000000 0.000000 0.000000 0.000000 -60.708740 0.000000 240.000000 -0.466539 0.831657 -0.301144
9.73999977 -8.84000015 0.51999998 156 166 94 0.000000 0.000000 0.000000 0.000000 -60.708740 0.000000 240.000000 0.763282 -0.547045 0.343719
9.73999977 -8.85999966 0.50999999 156 166 94 0.000000 0.000000 0.000000 0.000000 -60.708740 0.000000 240.000000 -0.562081 0.636350 -0.528322
9.69999981 -8.78999996 0.61000001 156 166 94 0.000000 0.000000 0.000000 0.000000 -60.708740 0.000000 240.000000 0.757603 -0.526249 0.386133
9.72999954 -8.80000019 0.60000002 156 166 94 0.000000 0.000000 0.000000 0.000000 -60.708740 0.000000 240.000000 -0.221874 0.936337 -0.272110
9.72999954 -8.81999969 0.62000000 156 166 94 0.000000 0.000000 0.000000 0.000000 -60.708740 0.000000 240.000000 -0.299629 0.950769 -0.079123
9.69999981 -8.81000042 0.63999999 156 166 94 0.000000 0.000000 0.000000 0.000000 -60.708740 0.000000 240.000000 -0.372286 0.905365 -0.204250
9.72000027 -8.81999969 0.60000002 156 166 94 0.000000 0.000000 0.000000 0.000000 -60.708740 0.000000 240.000000 -0.178764 0.945674 -0.271557
9.72000027 -8.81999969 0.60000002 156 166 94 0.000000 0.000000 0.000000 0.000000 -60.708740 0.000000 240.000000 -0.178764 0.945674 -0.271557
9.72000027 -8.78999996 0.56000000 156 166 94 0.000000 0.000000 0.000000 0.000000 -60.708740 0.000000 240.000000 -0.630552 0.748296 -0.206053
9.69999981 -8.77000046 0.52999997 156 166 94 0.000000 0.000000 0.000000 0.000000 -60.708740 0.000000 240.000000 -0.456024 0.878960 -0.139540
9.71000004 -8.85000038 0.49000001 156 166 94 0.000000 0.000000 0.000000 0.000000 -60.708740 0.000000 240.000000 -0.627785 0.769590 -0.116694
9.68000031 -8.82999992 0.50000000 156 166 94 0.000000 0.000000 0.000000 0.000000 -60.708740 0.000000 240.000000 -0.210536 0.800653 -0.560918
9.69999981 -8.85999966 0.50999999 156 166 94 0.000000 0.000000 0.000000 0.000000 -60.708740 0.000000 240.000000 -0.157969 0.845944 -0.509338
9.75000000 -8.78999996 0.47999999 156 166 94 0.000000 0.000000 0.000000 0.000000 -60.708740 0.000000 240.000000 -0.513976 0.648789 -0.561161
9.67000008 -8.78999996 0.47999999 156 166 94 0.000000 0.000000 0.000000 0.000000 -60.708740 0.000000 240.000000 0.785696 -0.432538 0.442258
9.67000008 -8.80000019 0.46000001 156 166 94 0.000000 0.000000 0.000000 0.000000 -60.708740 0.000000 240.000000 0.520309 -0.567457 0.638178
9.72000027 -8.89000034 0.44999999 156 166 94 0.000000 0.000000 0.000000 0.000000 -60.708740 0.000000 240.000000 -0.369562 0.882423 -0.291124
9.72000027 -8.89000034 0.44999999 156 166 94 0.000000 0.000000 0.000000 0.000000 -60.708740 0.000000 240.000000 -0.369562 0.882423 -0.291124
9.72000027 -8.89000034 0.44999999 156 166 94 0.000000 0.000000 0.000000 0.000000 -60.708740 0.000000 240.000000 -0.369562 0.882423 -0.291124
9.72999954 -8.88000011 0.44999999 156 166 94 0.000000 0.000000 0.000000 0.000000 -60.708740 0.000000 240.000000 0.793335 -0.601890 0.091371
9.68999958 -8.90999985 0.41999999 156 166 94 0.000000 0.000000 0.000000 0.000000 -60.708740 0.000000 240.000000 -0.314063 0.782766 -0.537255
9.71000004 -8.93000031 0.34000000 156 166 94 0.000000 0.000000 0.000000 0.000000 -60.708740 0.000000 240.000000 0.828877 -0.559390 -0.006805
9.65999985 -8.86999989 0.34999999 156 166 94 0.000000 0.000000 0.000000 0.000000 -60.708740 0.000000 240.000000 0.864066 -0.466862 0.188227
9.65999985 -8.93999958 0.34999999 156 166 94 0.000000 0.000000 0.000000 0.000000 -60.708740 0.000000 240.000000 -0.726874 0.596784 -0.339858
9.93000031 -8.86999989 0.30000001 156 166 94 0.000000 0.000000 0.000000 0.000000 -60.708740 0.000000 240.000000 0.818468 -0.376654 0.433868
9.93000031 -8.92000008 0.30000001 156 166 94 0.000000 0.000000 0.000000 0.000000 -60.708740 0.000000 240.000000 0.716316 -0.696378 -0.044147
9.89000034 -8.89000034 0.27000001 156 166 94 0.000000 0.000000 0.000000 0.000000 -60.708740 0.000000 240.000000 0.752592 -0.653987 0.076854
9.89000034 -8.93000031 0.31000000 156 166 94 0.000000 0.000000 0.000000 0.000000 -60.708740 0.000000 240.000000 -0.696237 0.670862 -0.255340
9.89000034 -8.93000031 0.23999999 156 166 94 0.000000 0.000000 0.000000 0.000000 -60.708740 0.000000 240.000000 0.835901 -0.428144 0.343456
9.85000038 -8.89000034 0.28000000 156 166 94 0.000000 0.000000 0.000000 0.000000 -60.708740 0.000000 240.000000 0.875977 -0.457600 0.152533
9.84000015 -8.89999962 0.25999999 156 166 94 0.000000 0.000000 0.000000 0.000000 -60.708740 0.000000 240.000000 -0.610495 0.790964 -0.040888
9.85999966 -8.93000031 0.25000000 156 166 94 0.000000 0.000000 0.000000 0.000000 -60.708740 0.000000 240.000000 0.831916 -0.553217 -0.043198
9.84000015 -8.89999962 0.25999999 156 166 94 0.000000 0.000000 0.000000 0.000000 -60.708740 0.000000 240.000000 -0.610495 0.790964 -0.040888
9.89999962 -8.93000031 0.20999999 156 166 94 0.000000 0.000000 0.000000 0.000000 -60.708740 0.000000 240.000000 0.963879 -0.160429 -0.212601
9.86999989 -8.96000004 0.25000000 156 166 94 0.000000 0.000000 0.000000 0.000000 -60.708740 0.000000 240.000000 0.796659 -0.594936 -0.106708
9.86999989 -8.96000004 0.25999999 156 166 94 0.000000 0.000000 0.000000 0.000000 -60.708740 0.000000 240.000000 0.662699 -0.636258 0.394975
9.86999989 -8.96000004 0.25999999 156 166 94 0.000000 0.000000 0.000000 0.000000 -60.708740 0.000000 240.000000 0.662699 -0.636258 0.394975
9.84000015 -8.94999981 0.23999999 156 166 94 0.000000 0.000000 0.000000 0.000000 -60.708740 0.000000 240.000000 0.758669 -0.593947 0.267672
9.84000015 -8.94999981 0.25000000 156 166 94 0.000000 0.000000 0.000000 0.000000 -60.708740 0.000000 240.000000 0.938368 -0.342990 0.042712
9.89000034 -8.97000027 0.19000000 156 166 94 0.000000 0.000000 0.000000 0.000000 -60.708740 0.000000 240.000000 0.941478 -0.291899 -0.168562
9.89999962 -8.96000004 0.20000000 156 166 94 0.000000 0.000000 0.000000 0.000000 -60.708740 0.000000 240.000000 0.837939 -0.450958 -0.307400
9.82999992 -8.97000027 0.18000001 156 166 94 0.000000 0.000000 0.000000 0.000000 -60.708740 0.000000 240.000000 0.716501 -0.683455 -0.139695
9.89000034 -8.97999954 0.14000000 156 166 94 0.000000 0.000000 0.000000 0.000000 -60.708740 0.000000 240.000000 0.880688 -0.469976 0.059264
9.88000011 -9.01000023 0.12000000 156 166 94 0.000000 0.000000 0.000000 0.000000 -60.708740 0.000000 240.000000 0.887170 -0.440002 0.139023
9.89000034 -8.97999954 0.12000000 156 166 94 0.000000 0.000000 0.000000 0.000000 -60.708740 0.000000 240.000000 0.904283 -0.392856 -0.167142
9.85000038 -8.98999977 0.13000000 156 166 94 0.000000 0.000000 0.000000 0.000000 -60.708740 0.000000 240.000000 0.755923 -0.647725 0.095039
9.82999992 -8.94999981 0.06000000 156 166 94 0.000000 0.000000 0.000000 0.000000 -60.708740 0.000000 240.000000 0.811293 -0.540349 0.223221
9.81999969 -8.92000008 0.28999999 156 166 94 0.000000 0.000000 0.000000 0.000000 -60.708740 0.000000 240.000000 0.895769 -0.424461 -0.132023
9.81999969 -8.92000008 0.18000001 156 166 94 0.000000 0.000000 0.000000 0.000000 -60.708740 0.000000 240.000000 0.769060 -0.621569 0.148996
9.81999969 -8.93000031 0.23000000 156 166 94 0.000000 0.000000 0.000000 0.000000 -60.708740 0.000000 240.000000 0.771018 -0.625990 0.116911
9.81000042 -8.93999958 0.20999999 156 166 94 0.000000 0.000000 0.000000 0.000000 -60.708740 0.000000 240.000000 0.758802 -0.534574 0.372089
9.68000031 -8.96000004 0.28999999 156 166 94 0.000000 0.000000 0.000000 0.000000 -60.708740 0.000000 240.000000 -0.532007 0.629964 -0.565786
9.68999958 -8.96000004 0.28999999 156 166 94 0.000000 0.000000 0.000000 0.000000 -60.708740 0.000000 240.000000 -0.621660 0.782362 0.038061
9.67000008 -8.98999977 0.28000000 156 166 94 0.000000 0.000000 0.000000 0.000000 -60.708740 0.000000 240.000000 -0.477950 0.768309 -0.425751
9.65999985 -8.98999977 0.23999999 156 166 94 0.000000 0.000000 0.000000 0.000000 -60.708740 0.000000 240.000000 -0.386090 0.714677 -0.583242
9.68000031 -8.98999977 0.27000001 156 166 94 0.000000 0.000000 0.000000 0.000000 -60.708740 0.000000 240.000000 -0.458113 0.850344 -0.258934
9.69999981 -8.97999954 0.23000000 156 166 94 0.000000 0.000000 0.000000 0.000000 -60.708740 0.000000 240.000000 0.737759 -0.671347 0.070744
9.68000031 -9.00000000 0.20999999 156 166 94 0.000000 0.000000 0.000000 0.000000 -60.708740 0.000000 240.000000 0.800683 -0.545708 0.247201
9.78999996 -8.97999954 0.14000000 156 166 94 0.000000 0.000000 0.000000 0.000000 -60.708740 0.000000 240.000000 0.801771 -0.419363 0.425790
9.81000042 -8.97999954 0.10000000 156 166 94 0.000000 0.000000 0.000000 0.000000 -60.708740 0.000000 240.000000 0.994189 -0.061508 -0.088347
9.81000042 -8.97999954 0.10000000 156 166 94 0.000000 0.000000 0.000000 0.000000 -60.708740 0.000000 240.000000 0.994189 -0.061508 -0.088347
9.76000023 -8.97000027 0.09000000 156 166 94 0.000000 0.000000 0.000000 0.000000 -60.708740 0.000000 240.000000 -0.651028 0.753437 -0.092168
9.77999973 -9.01000023 0.14000000 156 166 94 0.000000 0.000000 0.000000 0.000000 -60.708740 0.000000 240.000000 0.843603 -0.269891 0.464213
9.76000023 -9.03999996 0.09000000 156 166 94 0.000000 0.000000 0.000000 0.000000 -60.708740 0.000000 240.000000 0.898003 -0.436095 -0.058418
9.77999973 -9.02999973 0.12000000 156 166 94 0.000000 0.000000 0.000000 0.000000 -60.708740 0.000000 240.000000 0.841230 -0.482673 0.243635
9.81000042 -9.06000042 0.07000000 156 166 94 0.000000 0.000000 0.000000 0.000000 -60.708740 0.000000 240.000000 0.947579 -0.288161 -0.138049
9.81999969 -9.02999973 0.07000000 156 166 94 0.000000 0.000000 0.000000 0.000000 -60.708740 0.000000 240.000000 0.744469 -0.636126 0.202756
9.81999969 -9.02999973 0.04000000 156 166 94 0.000000 0.000000 0.000000 0.000000 -60.708740 0.000000 240.000000 -0.684918 0.727459 0.041123
9.81999969 -9.02999973 0.06000000 156 166 94 0.000000 0.000000 0.000000 0.000000 -60.708740 0.000000 240.000000 0.807995 -0.585689 -0.064127
9.81000042 -9.02000046 -0.01000000 156 166 94 0.000000 0.000000 0.000000 0.000000 -60.708740 0.000000 240.000000 0.898533 -0.426209 0.104806
9.80000019 -9.02000046 -0.01000000 156 166 94 0.000000 0.000000 0.000000 0.000000 -60.708740 0.000000 240.000000 0.869058 -0.494487 -0.014821
9.68000031 -9.00000000 0.12000000 156 166 94 0.000000 0.000000 0.000000 0.000000 -60.708740 0.000000 240.000000 -0.602822 0.743534 -0.289419
9.65999985 -9.03999996 0.07000000 156 166 94 0.000000 0.000000 0.000000 0.000000 -60.708740 0.000000 240.000000 0.747443 -0.636938 0.188779
9.57999992 -7.86000013 0.54000002 156 166 94 0.000000 0.000000 0.000000 0.000000 -60.708740 0.000000 240.000000 -0.247728 0.855648 -0.454420
9.64999962 -7.90999985 0.49000001 156 166 94 0.000000 0.000000 0.000000 0.000000 -60.708740 0.000000 240.000000 -0.104108 0.772748 -0.626117
9.56000042 -7.88000011 0.56999999 156 166 94 0.000000 0.000000 0.000000 0.000000 -60.708740 0.000000 240.000000 -0.133164 -0.671804 0.728661
9.56999969 -7.90999985 0.52999997 156 166 94 0.000000 0.000000 0.000000 0.000000 -60.708740 0.000000 240.000000 -0.475177 0.780068 -0.407063
9.56999969 -7.90999985 0.51999998 156 166 94 0.000000 0.000000 0.000000 0.000000 -60.708740 0.000000 240.000000 0.114879 0.830325 -0.545310
9.50000000 -7.90999985 0.54000002 156 166 94 0.000000 0.000000 0.000000 0.000000 -60.708740 0.000000 240.000000 0.462168 -0.699092 0.545592
9.64000034 -7.82999992 0.44000000 156 166 94 0.000000 0.000000 0.000000 0.000000 -60.708740 0.000000 240.000000 0.006846 -0.587425 0.809250
9.64000034 -7.82999992 0.44000000 156 166 94 0.000000 0.000000 0.000000 0.000000 -60.708740 0.000000 240.000000 0.006846 -0.587425 0.809250
9.59000015 -7.92000008 0.47000000 156 166 94 0.000000 0.000000 0.000000 0.000000 -60.708740 0.000000 240.000000 -0.095004 0.773184 -0.627025
9.60000038 -7.90999985 0.47999999 156 166 94 0.000000 0.000000 0.000000 0.000000 -60.708740 0.000000 240.000000 0.012305 0.832618 -0.553711
9.60999966 -7.90999985 0.47000000 156 166 94 0.000000 0.000000 0.000000 0.000000 -60.708740 0.000000 240.000000 -0.023844 -0.711101 0.702686
9.57999992 -7.92000008 0.47000000 156 166 94 0.000000 0.000000 0.000000 0.000000 -60.708740 0.000000 240.000000 0.089304 -0.692472 0.715896
9.48999977 -7.86000013 0.41999999 156 166 94 0.000000 0.000000 0.000000 0.000000 -60.708740 0.000000 240.000000 0.073433 0.776084 -0.626339
9.64000034 -7.98999977 0.54000002 156 166 94 0.000000 0.000000 0.000000 0.000000 -60.708740 0.000000 240.000000 -0.145019 0.793869 -0.590543
9.64999962 -7.98000002 0.51999998 156 166 94 0.000000 0.000000 0.000000 0.000000 -60.708740 0.000000 240.000000 0.174367 0.792990 -0.583750
9.60999966 -7.94999981 0.50999999 156 166 94 0.000000 0.000000 0.000000 0.000000 -60.708740 0.000000 240.000000 -0.185073 0.971312 -0.149334
9.64000034 -8.03999996 0.52999997 156 166 94 0.000000 0.000000 0.000000 0.000000 -60.708740 0.000000 240.000000 -0.064933 0.708495 -0.702723
9.53999996 -7.94999981 0.55000001 156 166 94 0.000000 0.000000 0.000000 0.000000 -60.708740 0.000000 240.000000 -0.041998 0.890088 -0.453850
9.50000000 -7.94999981 0.50999999 156 166 94 0.000000 0.000000 0.000000 0.000000 -60.708740 0.000000 240.000000 -0.003700 0.950873 -0.309558
9.50000000 -7.94999981 0.50999999 156 166 94 0.000000 0.000000 0.000000 0.000000 -60.708740 0.000000 240.000000 -0.003700 0.950873 -0.309558
9.60000038 -7.98000002 0.47999999 156 166 94 0.000000 0.000000 0.000000 0.000000 -60.708740 0.000000 240.000000 0.207207 0.918854 -0.335817
9.52000046 -8.06999969 0.44000000 156 166 94 0.000000 0.000000 0.000000 0.000000 -60.708740 0.000000 240.000000 -0.437034 0.844518 -0.309501
9.44999981 -7.92000008 0.51999998 156 166 94 0.000000 0.000000 0.000000 0.000000 -60.708740 0.000000 240.000000 -0.138166 0.972234 -0.188869
9.39999962 -7.86000013 0.47000000 156 166 94 0.000000 0.000000 0.000000 0.000000 -60.708740 0.000000 240.000000 0.320840 -0.578801 0.749701
9.34000015 -8.06000042 0.44000000 156 166 94 0.000000 0.000000 0.000000 0.000000 -60.708740 0.000000 240.000000 -0.556602 0.768336 -0.315996
9.35000038 -8.03999996 0.47999999 156 166 94 0.000000 0.000000 0.000000 0.000000 -60.708740 0.000000 240.000000 -0.386133 0.757603 -0.526249
9.64999962 -8.14000034 0.62000000 156 166 94 0.000000 0.000000 0.000000 0.000000 -60.708740 0.000000 240.000000 0.344171 0.657351 -0.670400
9.64000034 -8.14000034 0.56000000 156 166 94 0.000000 0.000000 0.000000 0.000000 -60.708740 0.000000 240.000000 0.018131 -0.642955 0.765689
9.63000011 -8.21000004 0.64999998 156 166 94 0.000000 0.000000 0.000000 0.000000 -60.708740 0.000000 240.000000 -0.233550 0.909538 -0.343796
9.64000034 -8.18999958 0.49000001 156 166 94 0.000000 0.000000 0.000000 0.000000 -60.708740 0.000000 240.000000 0.299536 0.927001 -0.225717
9.64000034 -8.23999977 0.41999999 156 166 94 0.000000 0.000000 0.000000 0.000000 -60.708740 0.000000 240.000000 -0.089235 0.859767 -0.502829
9.63000011 -8.22999954 0.41000000 156 166 94 0.000000 0.000000 0.000000 0.000000 -60.708740 0.000000 240.000000 -0.198793 0.750483 -0.630283
9.61999989 -8.28999996 0.44999999 156 166 94 0.000000 0.000000 0.000000 0.000000 -60.708740 0.000000 240.000000 -0.053789 0.870277 -0.489617
9.59000015 -8.36999989 0.43000001 156 166 94 0.000000 0.000000 0.000000 0.000000 -60.708740 0.000000 240.000000 0.290243 0.785083 -0.547179
9.57999992 -8.35999966 0.36000001 156 166 94 0.000000 0.000000 0.000000 0.000000 -60.708740 0.000000 240.000000 -0.220452 -0.553441 0.803184
9.59000015 -8.36999989 0.34999999 156 166 94 0.000000 0.000000 0.000000 0.000000 -60.708740 0.000000 240.000000 -0.188167 -0.516330 0.835462
9.53999996 -8.28999996 0.40000001 156 166 94 0.000000 0.000000 0.000000 0.000000 -60.708740 0.000000 240.000000 -0.437330 0.841978 -0.315936
9.56999969 -8.36999989 0.41000000 156 166 94 0.000000 0.000000 0.000000 0.000000 -60.708740 0.000000 240.000000 0.298145 0.773263 -0.559619
9.35999966 -8.14000034 0.46000001 156 166 94 0.000000 0.000000 0.000000 0.000000 -60.708740 0.000000 240.000000 -0.362048 0.923704 -0.125271
9.64000034 -8.23999977 0.27000001 156 166 94 0.000000 0.000000 0.000000 0.000000 -60.708740 0.000000 240.000000 0.048442 0.856730 -0.513485
9.64999962 -8.18000031 0.30000001 156 166 94 0.000000 0.000000 0.000000 0.000000 -60.708740 0.000000 240.000000 0.526406 0.667678 -0.526406
9.63000011 -8.31000042 0.27000001 156 166 94 0.000000 0.000000 0.000000 0.000000 -60.708740 0.000000 240.000000 -0.073846 -0.699361 0.710944
9.59000015 -8.28999996 0.25999999 156 166 94 0.000000 0.000000 0.000000 0.000000 -60.708740 0.000000 240.000000 -0.207945 -0.580705 0.787109
9.64999962 -8.30000019 0.28000000 156 166 94 0.000000 0.000000 0.000000 0.000000 -60.708740 0.000000 240.000000 0.537448 0.454252 -0.710496
9.64000034 -8.42000008 0.27000001 156 166 94 0.000000 0.000000 0.000000 0.000000 -60.708740 0.000000 240.000000 0.183859 0.896132 -0.403911
9.60999966 -8.35000038 0.28000000 156 166 94 0.000000 0.000000 0.000000 0.000000 -60.708740 0.000000 240.000000 -0.465575 -0.472155 0.748539
9.60000038 -8.38000011 0.23999999 156 166 94 0.000000 0.000000 0.000000 0.000000 -60.708740 0.000000 240.000000 -0.015226 0.787618 -0.615975
9.59000015 -8.36999989 0.25000000 156 166 94 0.000000 0.000000 0.000000 0.000000 -60.708740 0.000000 240.000000 -0.040017 0.851402 -0.522985
9.64999962 -8.43000031 0.22000000 156 166 94 0.000000 0.000000 0.000000 0.000000 -60.708740 0.000000 240.000000 -0.433174 -0.505644 0.746113
9.55000019 -8.35999966 0.27000001 156 166 94 0.000000 0.000000 0.000000 0.000000 -60.708740 0.000000 240.000000 0.136760 0.713858 -0.686807
9.23999977 -7.98999977 0.50000000 156 166 94 0.000000 0.000000 0.000000 0.000000 -60.708740 0.000000 240.000000 -0.560391 0.827377 0.037545
9.28999996 -7.96999979 0.56000000 156 166 94 0.000000 0.000000 0.000000 0.000000 -60.708740 0.000000 240.000000 -0.761005 0.479515 -0.436964
9.30000019 -7.96999979 0.51999998 156 166 94 0.000000 0.000000 0.000000 0.000000 -60.708740 0.000000 240.000000 -0.439646 0.786820 -0.433157
9.23999977 -7.98000002 0.50999999 156 166 94 0.000000 0.000000 0.000000 0.000000 -60.708740 0.000000 240.000000 0.545183 -0.541807 0.639704
9.22999954 -7.98999977 0.56999999 156 166 94 0.000000 0.000000 0.000000 0.000000 -60.708740 0.000000 240.000000 0.766010 -0.432820 0.475285
9.22999954 -7.98999977 0.56999999 156 166 94 0.000000 0.000000 0.000000 0.000000 -60.708740 0.000000 240.000000 0.766010 -0.432820 0.475285
9.19999981 -7.98999977 0.50000000 156 166 94 0.000000 0.000000 0.000000 0.000000 -60.708740 0.000000 240.000000 0.743143 -0.613212 0.267785
9.22999954 -8.00000000 0.51999998 156 166 94 0.000000 0.000000 0.000000 0.000000 -60.708740 0.000000 240.000000 0.856828 -0.452003 0.248069
9.22999954 -8.05000019 0.62000000 156 166 94 0.000000 0.000000 0.000000 0.000000 -60.708740 0.000000 240.000000 0.881213 -0.321953 0.346137
9.21000004 -8.02000046 0.46000001 156 166 94 0.000000 0.000000 0.000000 0.000000 -60.708740 0.000000 240.000000 0.789810 -0.611785 -0.043800
9.51000023 -8.61999989 0.69000000 156 166 94 0.000000 0.000000 0.000000 0.000000 -60.708740 0.000000 240.000000 0.299354 0.909743 -0.287672
9.46000004 -8.56999969 0.69999999 156 166 94 0.000000 0.000000 0.000000 0.000000 -60.708740 0.000000 240.000000 -0.395416 -0.613805 0.683293
9.46000004 -8.56999969 0.69999999 156 166 94 0.000000 0.000000 0.000000 0.000000 -60.708740 0.000000 240.000000 -0.395416 -0.613805 0.683293
9.32999992 -8.81000042 0.66000003 156 166 94 0.000000 0.000000 0.000000 0.000000 -60.708740 0.000000 240.000000 0.419153 0.564945 -0.710737
9.64999962 -8.80000019 0.73000002 156 166 94 0.000000 0.000000 0.000000 0.000000 -60.708740 0.000000 240.000000 0.069187 0.840125 -0.537962
9.18000031 -8.89999962 0.70999998 156 166 94 0.000000 0.000000 0.000000 0.000000 -60.708740 0.000000 240.000000 0.608179 0.772798 -0.181387
9.19999981 -8.93000031 0.73000002 156 166 94 0.000000 0.000000 0.000000 0.000000 -60.708740 0.000000 240.000000 0.541890 0.765117 -0.347780
9.19999981 -9.00000000 0.68000001 156 166 94 0.000000 0.000000 0.000000 0.000000 -60.708740 0.000000 240.000000 0.810780 0.300697 -0.502212
9.22000027 -8.96000004 0.70999998 156 166 94 0.000000 0.000000 0.000000 0.000000 -60.708740 0.000000 240.000000 0.463471 0.593979 -0.657559
9.60999966 -8.47000027 0.33000001 156 166 94 0.000000 0.000000 0.000000 0.000000 -60.708740 0.000000 240.000000 0.093517 0.891899 -0.442460
9.53999996 -8.44999981 0.34000000 156 166 94 0.000000 0.000000 0.000000 0.000000 -60.708740 0.000000 240.000000 0.046784 -0.636550 0.769815
9.55000019 -8.51000023 0.34999999 156 166 94 0.000000 0.000000 0.000000 0.000000 -60.708740 0.000000 240.000000 -0.314833 -0.631280 0.708778
9.48999977 -8.68999958 0.52999997 156 166 94 0.000000 0.000000 0.000000 0.000000 -60.708740 0.000000 240.000000 -0.247869 -0.639407 0.727819
9.50000000 -8.61999989 0.63999999 156 166 94 0.000000 0.000000 0.000000 0.000000 -60.708740 0.000000 240.000000 0.281384 0.751947 -0.596153
9.32999992 -8.51000023 0.57999998 156 166 94 0.000000 0.000000 0.000000 0.000000 -60.708740 0.000000 240.000000 0.960286 -0.164658 -0.225252
9.38000011 -8.53999996 0.58999997 156 166 94 0.000000 0.000000 0.000000 0.000000 -60.708740 0.000000 240.000000 0.794699 -0.058287 -0.604199
9.43999958 -8.64000034 0.62000000 156 166 94 0.000000 0.000000 0.000000 0.000000 -60.708740 0.000000 240.000000 -0.337679 -0.667202 0.663939
9.43000031 -8.67000008 0.56000000 156 166 94 0.000000 0.000000 0.000000 0.000000 -60.708740 0.000000 240.000000 0.401329 0.745326 -0.532376
9.39999962 -8.60999966 0.63999999 156 166 94 0.000000 0.000000 0.000000 0.000000 -60.708740 0.000000 240.000000 -0.498027 -0.344295 0.795883
9.34000015 -8.63000011 0.60000002 156 166 94 0.000000 0.000000 0.000000 0.000000 -60.708740 0.000000 240.000000 0.685495 0.659689 -0.308070
9.63000011 -8.46000004 0.19000000 156 166 94 0.000000 0.000000 0.000000 0.000000 -60.708740 0.000000 240.000000 0.651781 0.651781 -0.387768
9.60999966 -8.50000000 0.20000000 156 166 94 0.000000 0.000000 0.000000 0.000000 -60.708740 0.000000 240.000000 0.267967 0.906403 -0.326539
9.63000011 -8.44999981 0.22000000 156 166 94 0.000000 0.000000 0.000000 0.000000 -60.708740 0.000000 240.000000 0.164502 0.877832 -0.449834
9.57999992 -8.43999958 0.15000001 156 166 94 0.000000 0.000000 0.000000 0.000000 -60.708740 0.000000 240.000000 -0.149647 0.870277 -0.469281
9.56000042 -8.57999992 0.15000001 156 166 94 0.000000 0.000000 0.000000 0.000000 -60.708740 0.000000 240.000000 0.009562 0.823725 -0.566909
9.64000034 -8.51000023 0.08000000 156 166 94 0.000000 0.000000 0.000000 0.000000 -60.708740 0.000000 240.000000 -0.385991 -0.443649 0.808818
9.57999992 -8.51000023 0.04000000 156 166 94 0.000000 0.000000 0.000000 0.000000 -60.708740 0.000000 240.000000 -0.101667 -0.673357 0.732294
9.60999966 -8.52999973 0.12000000 156 166 94 0.000000 0.000000 0.000000 0.000000 -60.708740 0.000000 240.000000 0.459764 0.805789 -0.373258
9.63000011 -8.56000042 0.06000000 156 166 94 0.000000 0.000000 0.000000 0.000000 -60.708740 0.000000 240.000000 0.605573 0.758922 -0.239413
9.59000015 -8.55000019 0.05000000 156 166 94 0.000000 0.000000 0.000000 0.000000 -60.708740 0.000000 240.000000 0.315254 0.683858 -0.657991
9.60999966 -8.52000046 0.02000000 156 166 94 0.000000 0.000000 0.000000 0.000000 -60.708740 0.000000 240.000000 0.632121 0.684661 -0.362854
9.60999966 -8.57999992 0.04000000 156 166 94 0.000000 0.000000 0.000000 0.000000 -60.708740 0.000000 240.000000 0.663658 0.459713 -0.590104
9.50000000 -8.59000015 0.11000000 156 166 94 0.000000 0.000000 0.000000 0.000000 -60.708740 0.000000 240.000000 -0.445127 -0.568495 0.691864
9.52999973 -8.56999969 0.14000000 156 166 94 0.000000 0.000000 0.000000 0.000000 -60.708740 0.000000 240.000000 -0.360483 -0.569269 0.738908
9.57999992 -8.63000011 -0.01000000 156 166 94 0.000000 0.000000 0.000000 0.000000 -60.708740 0.000000 240.000000 -0.431621 -0.337449 0.836559
9.44999981 -8.59000015 0.07000000 156 166 94 0.000000 0.000000 0.000000 0.000000 -60.708740 0.000000 240.000000 0.064598 -0.647420 0.759391
9.44999981 -8.56999969 0.04000000 156 166 94 0.000000 0.000000 0.000000 0.000000 -60.708740 0.000000 240.000000 -0.143932 0.980461 -0.134091
9.34000015 -8.51000023 0.03000000 156 166 94 0.000000 0.000000 0.000000 0.000000 -60.708740 0.000000 240.000000 0.615191 -0.497209 0.611820
9.36999989 -8.59000015 0.02000000 156 166 94 0.000000 0.000000 0.000000 0.000000 -60.708740 0.000000 240.000000 -0.515104 0.669468 -0.535239
9.36999989 -8.57999992 0.00000000 156 166 94 0.000000 0.000000 0.000000 0.000000 -60.708740 0.000000 240.000000 0.038407 0.915147 -0.401287
9.39000034 -8.57999992 0.04000000 156 166 94 0.000000 0.000000 0.000000 0.000000 -60.708740 0.000000 240.000000 -0.410006 0.766108 -0.494948
9.40999985 -8.60999966 0.10000000 156 166 94 0.000000 0.000000 0.000000 0.000000 -60.708740 0.000000 240.000000 -0.571165 0.810257 -0.131353
9.44999981 -8.60999966 0.06000000 156 166 94 0.000000 0.000000 0.000000 0.000000 -60.708740 0.000000 240.000000 0.052707 0.762109 -0.645300
9.40999985 -8.60999966 0.01000000 156 166 94 0.000000 0.000000 0.000000 0.000000 -60.708740 0.000000 240.000000 -0.573880 0.651295 -0.496465
9.44999981 -8.60999966 0.05000000 156 166 94 0.000000 0.000000 0.000000 0.000000 -60.708740 0.000000 240.000000 -0.042984 0.986317 -0.159158
9.36999989 -8.61999989 0.05000000 156 166 94 0.000000 0.000000 0.000000 0.000000 -60.708740 0.000000 240.000000 -0.155771 0.739536 -0.654845
9.35999966 -8.61999989 0.02000000 156 166 94 0.000000 0.000000 0.000000 0.000000 -60.708740 0.000000 240.000000 0.397638 -0.595633 0.697930
9.35000038 -8.65999985 0.04000000 156 166 94 0.000000 0.000000 0.000000 0.000000 -60.708740 0.000000 240.000000 -0.383020 0.871331 -0.306721
9.64999962 -8.89000034 0.50000000 156 166 94 0.000000 0.000000 0.000000 0.000000 -60.708740 0.000000 240.000000 -0.241738 0.872358 -0.424918
9.64000034 -8.89000034 0.31999999 156 166 94 0.000000 0.000000 0.000000 0.000000 -60.708740 0.000000 240.000000 0.358416 -0.711923 0.603907
9.64000034 -8.92000008 0.34999999 156 166 94 0.000000 0.000000 0.000000 0.000000 -60.708740 0.000000 240.000000 0.729191 -0.585637 0.353992
9.39999962 -8.82999992 0.62000000 156 166 94 0.000000 0.000000 0.000000 0.000000 -60.708740 0.000000 240.000000 0.685571 0.623097 -0.376488
9.31999969 -8.88000011 0.63999999 156 166 94 0.000000 0.000000 0.000000 0.000000 -60.708740 0.000000 240.000000 0.318187 0.812088 -0.489152
9.43000031 -8.90999985 0.44999999 156 166 94 0.000000 0.000000 0.000000 0.000000 -60.708740 0.000000 240.000000 0.012023 0.880322 -0.474225
9.35000038 -8.81999969 0.31999999 156 166 94 0.000000 0.000000 0.000000 0.000000 -60.708740 0.000000 240.000000 0.799490 0.278015 -0.532470
9.35999966 -8.81999969 0.33000001 156 166 94 0.000000 0.000000 0.000000 0.000000 -60.708740 0.000000 240.000000 0.532542 0.593404 -0.603548
9.35999966 -9.06000042 0.58999997 156 166 94 0.000000 0.000000 0.000000 0.000000 -60.708740 0.000000 240.000000 0.475430 0.748514 -0.462269
9.35000038 -9.06000042 0.57999998 156 166 94 0.000000 0.000000 0.000000 0.000000 -60.708740 0.000000 240.000000 0.309778 0.746356 -0.589059
9.38000011 -9.07999992 0.56000000 156 166 94 0.000000 0.000000 0.000000 0.000000 -60.708740 0.000000 240.000000 0.225507 0.947129 -0.228240
9.32999992 -8.97000027 0.43000001 156 166 94 0.000000 0.000000 0.000000 0.000000 -60.708740 0.000000 240.000000 0.079429 0.879295 -0.469608
9.61999989 -8.94999981 0.23999999 156 166 94 0.000000 0.000000 0.000000 0.000000 -60.708740 0.000000 240.000000 -0.306413 0.927712 -0.213218
9.63000011 -8.93999958 0.23000000 156 166 94 0.000000 0.000000 0.000000 0.000000 -60.708740 0.000000 240.000000 -0.583586 0.756264 -0.295790
9.61999989 -9.02999973 0.17000000 156 166 94 0.000000 0.000000 0.000000 0.000000 -60.708740 0.000000 240.000000 -0.747754 0.415784 -0.517676
9.63000011 -9.02999973 0.16000000 156 166 94 0.000000 0.000000 0.000000 0.000000 -60.708740 0.000000 240.000000 -0.685495 0.659689 -0.308070
9.60000038 -9.02000046 0.20999999 156 166 94 0.000000 0.000000 0.000000 0.000000 -60.708740 0.000000 240.000000 -0.316208 0.765640 -0.560185
9.64000034 -9.02000046 0.18000001 156 166 94 0.000000 0.000000 0.000000 0.000000 -60.708740 0.000000 240.000000 -0.311887 0.927194 -0.207454
9.56999969 -8.96000004 0.25000000 156 166 94 0.000000 0.000000 0.000000 0.000000 -60.708740 0.000000 240.000000 -0.170222 0.974679 -0.145004
9.60999966 -9.00000000 0.11000000 156 166 94 0.000000 0.000000 0.000000 0.000000 -60.708740 0.000000 240.000000 0.392649 -0.734368 0.553651
9.59000015 -9.00000000 0.11000000 156 166 94 0.000000 0.000000 0.000000 0.000000 -60.708740 0.000000 240.000000 -0.553399 0.583862 -0.594016
9.63000011 -8.94999981 0.09000000 156 166 94 0.000000 0.000000 0.000000 0.000000 -60.708740 0.000000 240.000000 0.968651 -0.245522 0.037867
9.59000015 -9.01000023 0.10000000 156 166 94 0.000000 0.000000 0.000000 0.000000 -60.708740 0.000000 240.000000 -0.707278 0.474292 -0.524218
9.63000011 -9.05000019 0.10000000 156 166 94 0.000000 0.000000 0.000000 0.000000 -60.708740 0.000000 240.000000 -0.488898 0.745692 -0.452683
9.64000034 -9.06000042 0.14000000 156 166 94 0.000000 0.000000 0.000000 0.000000 -60.708740 0.000000 240.000000 -0.496472 0.792106 -0.355082
9.64999962 -9.06000042 0.07000000 156 166 94 0.000000 0.000000 0.000000 0.000000 -60.708740 0.000000 240.000000 -0.630426 0.766894 -0.120152
9.64000034 -9.09000015 -0.01000000 156 166 94 0.000000 0.000000 0.000000 0.000000 -60.708740 0.000000 240.000000 -0.645426 0.648744 -0.403184
9.64000034 -9.06999969 0.01000000 156 166 94 0.000000 0.000000 0.000000 0.000000 -60.708740 0.000000 240.000000 0.812434 -0.582683 0.020761
9.63000011 -9.06999969 -0.02000000 156 166 94 0.000000 0.000000 0.000000 0.000000 -60.708740 0.000000 240.000000 0.821282 -0.436852 0.366956
9.63000011 -9.09000015 0.01000000 156 166 94 0.000000 0.000000 0.000000 0.000000 -60.708740 0.000000 240.000000 0.723905 -0.679312 -0.120403
9.64000034 -9.06999969 0.00000000 156 166 94 0.000000 0.000000 0.000000 0.000000 -60.708740 0.000000 240.000000 0.884121 -0.451315 0.121015
9.57999992 -9.06000042 0.01000000 156 166 94 0.000000 0.000000 0.000000 0.000000 -60.708740 0.000000 240.000000 -0.409690 0.827288 -0.384381
9.59000015 -9.10000038 -0.02000000 156 166 94 0.000000 0.000000 0.000000 0.000000 -60.708740 0.000000 240.000000 0.727973 -0.674380 0.123562
9.60999966 -9.07999992 -0.02000000 156 166 94 0.000000 0.000000 0.000000 0.000000 -60.708740 0.000000 240.000000 -0.530882 0.822942 -0.202313
9.55000019 -9.03999996 0.09000000 156 166 94 0.000000 0.000000 0.000000 0.000000 -60.708740 0.000000 240.000000 -0.261117 0.926037 -0.272532
9.48999977 -9.03999996 -0.02000000 156 166 94 0.000000 0.000000 0.000000 0.000000 -60.708740 0.000000 240.000000 -0.452692 0.572964 -0.683214
9.56999969 -9.06000042 0.03000000 156 166 94 0.000000 0.000000 0.000000 0.000000 -60.708740 0.000000 240.000000 0.723688 -0.678924 0.123848
9.40999985 -8.89999962 0.20000000 156 166 94 0.000000 0.000000 0.000000 0.000000 -60.708740 0.000000 240.000000 0.518898 0.676751 -0.522257
9.38000011 -8.85999966 0.20000000 156 166 94 0.000000 0.000000 0.000000 0.000000 -60.708740 0.000000 240.000000 0.436838 0.736855 -0.515963
9.35000038 -8.88000011 0.16000000 156 166 94 0.000000 0.000000 0.000000 0.000000 -60.708740 0.000000 240.000000 0.848837 0.337977 -0.406507
9.32999992 -8.86999989 0.20000000 156 166 94 0.000000 0.000000 0.000000 0.000000 -60.708740 0.000000 240.000000 0.540861 0.780180 -0.314306
9.35999966 -8.88000011 0.20000000 156 166 94 0.000000 0.000000 0.000000 0.000000 -60.708740 0.000000 240.000000 0.743578 0.506160 -0.436914
9.32999992 -8.77000046 0.09000000 156 166 94 0.000000 0.000000 0.000000 0.000000 -60.708740 0.000000 240.000000 0.862131 -0.502794 0.062675
9.34000015 -8.77000046 0.10000000 156 166 94 0.000000 0.000000 0.000000 0.000000 -60.708740 0.000000 240.000000 0.949298 0.143265 -0.279835
9.31999969 -8.82999992 0.14000000 156 166 94 0.000000 0.000000 0.000000 0.000000 -60.708740 0.000000 240.000000 0.758579 0.188495 -0.623721
9.34000015 -8.89000034 0.08000000 156 166 94 0.000000 0.000000 0.000000 0.000000 -60.708740 0.000000 240.000000 0.919297 0.206664 -0.334938
9.31999969 -9.03999996 0.23000000 156 166 94 0.000000 0.000000 0.000000 0.000000 -60.708740 0.000000 240.000000 0.590428 0.644256 -0.486136
9.34000015 -9.05000019 0.15000001 156 166 94 0.000000 0.000000 0.000000 0.000000 -60.708740 0.000000 240.000000 0.639612 0.659445 -0.395006
9.32999992 -9.02000046 0.18000001 156 166 94 0.000000 0.000000 0.000000 0.000000 -60.708740 0.000000 240.000000 0.532563 0.773905 -0.342706
9.42000008 -9.06999969 0.08000000 156 166 94 0.000000 0.000000 0.000000 0.000000 -60.708740 0.000000 240.000000 0.155972 0.833336 -0.530305
9.43999958 -9.02999973 0.06000000 156 166 94 0.000000 0.000000 0.000000 0.000000 -60.708740 0.000000 240.000000 -0.301046 0.772525 -0.559085
9.42000008 -9.09000015 -0.01000000 156 166 94 0.000000 0.000000 0.000000 0.000000 -60.708740 0.000000 240.000000 0.149191 0.742939 -0.652521
9.34000015 -9.06000042 0.06000000 156 166 94 0.000000 0.000000 0.000000 0.000000 -60.708740 0.000000 240.000000 -0.312272 -0.652050 0.690882
9.25000000 -8.68999958 0.55000001 156 166 94 0.000000 0.000000 0.000000 0.000000 -60.708740 0.000000 240.000000 0.828621 0.345653 -0.440353
