//X Y Z R G B PointSourceId ScanDirectionFlag NumberOfReturns ReturnNumber GpsTime Intensity Classification Nx Ny Nz
2.09999990 -2.75999999 0.28999999 214 68 114 0.000000 0.000000 0.000000 0.000000 -60.708740 0.000000 229.000000 0.009627 0.807328 -0.590024
2.07999992 -2.76999998 0.31000000 214 68 114 0.000000 0.000000 0.000000 0.000000 -60.708740 0.000000 229.000000 -0.169884 0.922430 -0.346789
2.05999994 -2.79999995 0.31000000 214 68 114 0.000000 0.000000 0.000000 0.000000 -60.708740 0.000000 229.000000 -0.380456 0.663739 -0.643975
2.04999995 -2.75999999 0.31000000 214 68 114 0.000000 0.000000 0.000000 0.000000 -60.708740 0.000000 229.000000 0.733626 -0.591111 0.335233
2.04999995 -2.75999999 0.31000000 214 68 114 0.000000 0.000000 0.000000 0.000000 -60.708740 0.000000 229.000000 0.733626 -0.591111 0.335233
2.04999995 -2.75999999 0.31000000 214 68 114 0.000000 0.000000 0.000000 0.000000 -60.708740 0.000000 229.000000 0.733626 -0.591111 0.335233
2.04999995 -2.75999999 0.31000000 214 68 114 0.000000 0.000000 0.000000 0.000000 -60.708740 0.000000 229.000000 0.733626 -0.591111 0.335233
2.05999994 -2.75999999 0.20999999 214 68 114 0.000000 0.000000 0.000000 0.000000 -60.708740 0.000000 229.000000 -0.608080 0.706422 -0.362226
2.08999991 -2.78999996 0.18000001 214 68 114 0.000000 0.000000 0.000000 0.000000 -60.708740 0.000000 229.000000 -0.038133 0.755605 -0.653916
2.02999997 -2.75000000 0.17000000 214 68 114 0.000000 0.000000 0.000000 0.000000 -60.708740 0.000000 229.000000 0.664068 -0.711165 0.230775
2.02999997 -2.77999997 0.18000001 214 68 114 0.000000 0.000000 0.000000 0.000000 -60.708740 0.000000 229.000000 0.742135 -0.636779 0.209161
2.01999998 -2.86999989 0.28000000 214 68 114 0.000000 0.000000 0.000000 0.000000 -60.708740 0.000000 229.000000 0.713366 -0.493869 0.497195
1.99000001 -2.77999997 0.30000001 214 68 114 0.000000 0.000000 0.000000 0.000000 -60.708740 0.000000 229.000000 0.899910 -0.434578 0.036103
1.98000002 -2.82999992 0.27000001 214 68 114 0.000000 0.000000 0.000000 0.000000 -60.708740 0.000000 229.000000 -0.495567 0.841099 -0.216716
1.95000005 -2.80999994 0.28000000 214 68 114 0.000000 0.000000 0.000000 0.000000 -60.708740 0.000000 229.000000 -0.538035 0.819935 -0.195511
1.96000004 -2.84999990 0.25999999 214 68 114 0.000000 0.000000 0.000000 0.000000 -60.708740 0.000000 229.000000 0.732382 -0.624352 0.271664
1.96000004 -2.84999990 0.25999999 214 68 114 0.000000 0.000000 0.000000 0.000000 -60.708740 0.000000 229.000000 0.732382 -0.624352 0.271664
1.96000004 -2.84999990 0.25999999 214 68 114 0.000000 0.000000 0.000000 0.000000 -60.708740 0.000000 229.000000 0.732382 -0.624352 0.271664
1.96000004 -2.88000011 0.23999999 214 68 114 0.000000 0.000000 0.000000 0.000000 -60.708740 0.000000 229.000000 0.761503 -0.492930 0.420873
1.94000006 -2.82999992 0.17000000 214 68 114 0.000000 0.000000 0.000000 0.000000 -60.708740 0.000000 229.000000 -0.566266 0.718151 -0.404476
1.96000004 -2.89000010 0.22000000 214 68 114 0.000000 0.000000 0.000000 0.000000 -60.708740 0.000000 229.000000 0.779371 -0.587240 0.218472
1.97000003 -2.84999990 0.22000000 214 68 114 0.000000 0.000000 0.000000 0.000000 -60.708740 0.000000 229.000000 0.684334 -0.648573 0.333227
1.95000005 -2.89000010 0.18000001 214 68 114 0.000000 0.000000 0.000000 0.000000 -60.708740 0.000000 229.000000 0.720148 -0.603104 0.343005
1.96000004 -2.84999990 0.15000001 214 68 114 0.000000 0.000000 0.000000 0.000000 -60.708740 0.000000 229.000000 -0.633039 0.710357 -0.307660
2.09999990 -2.76999998 0.14000000 214 68 114 0.000000 0.000000 0.000000 0.000000 -60.708740 0.000000 229.000000 -0.335345 0.784611 -0.521469
2.09999990 -2.76999998 0.14000000 214 68 114 0.000000 0.000000 0.000000 0.000000 -60.708740 0.000000 229.000000 -0.335345 0.784611 -0.521469
2.06999993 -2.77999997 0.11000000 214 68 114 0.000000 0.000000 0.000000 0.000000 -60.708740 0.000000 229.000000 -0.587815 0.769646 -0.249234
2.06999993 -2.76999998 0.12000000 214 68 114 0.000000 0.000000 0.000000 0.000000 -60.708740 0.000000 229.000000 -0.436300 0.705048 -0.559061
2.06999993 -2.76999998 0.12000000 214 68 114 0.000000 0.000000 0.000000 0.000000 -60.708740 0.000000 229.000000 -0.436300 0.705048 -0.559061
2.09999990 -2.75999999 -0.02000000 214 68 114 0.000000 0.000000 0.000000 0.000000 -60.708740 0.000000 229.000000 -0.070730 0.760707 -0.645230
2.08999991 -2.75999999 0.01000000 214 68 114 0.000000 0.000000 0.000000 0.000000 -60.708740 0.000000 229.000000 -0.301172 0.812061 -0.499851
1.97000003 -2.78999996 0.00000000 214 68 114 0.000000 0.000000 0.000000 0.000000 -60.708740 0.000000 229.000000 -0.303376 0.952576 -0.023721
1.95000005 -2.83999991 0.11000000 214 68 114 0.000000 0.000000 0.000000 0.000000 -60.708740 0.000000 229.000000 -0.531122 0.808365 -0.253880
1.94000006 -2.89000010 0.13000000 214 68 114 0.000000 0.000000 0.000000 0.000000 -60.708740 0.000000 229.000000 0.756671 -0.594867 0.271259
1.94000006 -2.86999989 0.07000000 214 68 114 0.000000 0.000000 0.000000 0.000000 -60.708740 0.000000 229.000000 -0.437002 0.881312 -0.179770
2.00000000 -2.81999993 0.02000000 214 68 114 0.000000 0.000000 0.000000 0.000000 -60.708740 0.000000 229.000000 -0.318880 0.767554 -0.556036
2.00000000 -2.81999993 0.02000000 214 68 114 0.000000 0.000000 0.000000 0.000000 -60.708740 0.000000 229.000000 -0.318880 0.767554 -0.556036
1.95000005 -2.83999991 -0.02000000 214 68 114 0.000000 0.000000 0.000000 0.000000 -60.708740 0.000000 229.000000 -0.369872 0.744633 -0.555623
1.97000003 -2.82999992 0.00000000 214 68 114 0.000000 0.000000 0.000000 0.000000 -60.708740 0.000000 229.000000 -0.510327 0.597908 -0.618119
1.96000004 -2.86999989 0.04000000 214 68 114 0.000000 0.000000 0.000000 0.000000 -60.708740 0.000000 229.000000 -0.529746 0.846759 -0.048664
1.94000006 -2.92000008 0.20000000 214 68 114 0.000000 0.000000 0.000000 0.000000 -60.708740 0.000000 229.000000 0.946987 -0.239138 0.214541
1.95000005 -2.90000010 0.15000001 214 68 114 0.000000 0.000000 0.000000 0.000000 -60.708740 0.000000 229.000000 0.750210 -0.618649 0.233364
1.94000006 -2.92000008 0.17000000 214 68 114 0.000000 0.000000 0.000000 0.000000 -60.708740 0.000000 229.000000 0.877107 -0.224861 0.424407
1.94000006 -2.92000008 0.17000000 214 68 114 0.000000 0.000000 0.000000 0.000000 -60.708740 0.000000 229.000000 0.877107 -0.224861 0.424407
1.95000005 -2.90000010 0.15000001 214 68 114 0.000000 0.000000 0.000000 0.000000 -60.708740 0.000000 229.000000 0.750210 -0.618649 0.233364
1.94000006 -2.91000009 0.17000000 214 68 114 0.000000 0.000000 0.000000 0.000000 -60.708740 0.000000 229.000000 0.823869 -0.355798 0.441189
1.94000006 -3.02999997 0.23999999 214 68 114 0.000000 0.000000 0.000000 0.000000 -60.708740 0.000000 229.000000 0.929890 0.356615 0.090163
1.94000006 -2.91000009 0.14000000 214 68 114 0.000000 0.000000 0.000000 0.000000 -60.708740 0.000000 229.000000 0.790405 -0.515759 0.330533
1.95000005 -2.90000010 0.01000000 214 68 114 0.000000 0.000000 0.000000 0.000000 -60.708740 0.000000 229.000000 0.630329 -0.613520 0.475688
1.92999995 -2.89000010 0.57999998 214 68 114 0.000000 0.000000 0.000000 0.000000 -60.708740 0.000000 229.000000 0.911611 0.106516 -0.397014
1.92999995 -2.89000010 0.49000001 214 68 114 0.000000 0.000000 0.000000 0.000000 -60.708740 0.000000 229.000000 0.978876 -0.180094 0.096785
1.92999995 -2.86999989 0.47999999 214 68 114 0.000000 0.000000 0.000000 0.000000 -60.708740 0.000000 229.000000 0.941733 -0.042513 0.333665
1.92999995 -2.89000010 0.36000001 214 68 114 0.000000 0.000000 0.000000 0.000000 -60.708740 0.000000 229.000000 0.855735 -0.457507 0.241673
1.91999996 -2.88000011 0.37000000 214 68 114 0.000000 0.000000 0.000000 0.000000 -60.708740 0.000000 229.000000 0.950480 -0.212875 0.226434
1.91999996 -2.93000007 0.61000001 214 68 114 0.000000 0.000000 0.000000 0.000000 -60.708740 0.000000 229.000000 0.994652 0.102820 -0.009741
1.91999996 -2.93000007 0.61000001 214 68 114 0.000000 0.000000 0.000000 0.000000 -60.708740 0.000000 229.000000 0.994652 0.102820 -0.009741
1.92999995 -2.92000008 0.63000000 214 68 114 0.000000 0.000000 0.000000 0.000000 -60.708740 0.000000 229.000000 0.991746 -0.001096 -0.128215
1.92999995 -2.90000010 0.62000000 214 68 114 0.000000 0.000000 0.000000 0.000000 -60.708740 0.000000 229.000000 0.999999 0.000978 0.000978
1.92999995 -2.90000010 0.56999999 214 68 114 0.000000 0.000000 0.000000 0.000000 -60.708740 0.000000 229.000000 0.960520 -0.015907 -0.277755
1.92999995 -2.93000007 0.58999997 214 68 114 0.000000 0.000000 0.000000 0.000000 -60.708740 0.000000 229.000000 0.974392 0.101057 -0.200867
1.92999995 -2.90000010 0.56999999 214 68 114 0.000000 0.000000 0.000000 0.000000 -60.708740 0.000000 229.000000 0.960520 -0.015907 -0.277755
1.92999995 -2.94000006 0.62000000 214 68 114 0.000000 0.000000 0.000000 0.000000 -60.708740 0.000000 229.000000 0.986286 -0.012485 -0.164570
1.91999996 -2.94000006 0.63000000 214 68 114 0.000000 0.000000 0.000000 0.000000 -60.708740 0.000000 229.000000 0.836724 0.506876 0.207290
1.90999997 -2.94000006 0.63999999 214 68 114 0.000000 0.000000 0.000000 0.000000 -60.708740 0.000000 229.000000 0.992120 -0.012139 -0.124705
1.91999996 -2.97000003 0.58999997 214 68 114 0.000000 0.000000 0.000000 0.000000 -60.708740 0.000000 229.000000 0.984984 0.050362 -0.165140
1.91999996 -2.97000003 0.58999997 214 68 114 0.000000 0.000000 0.000000 0.000000 -60.708740 0.000000 229.000000 0.984984 0.050362 -0.165140
1.91999996 -2.97000003 0.57999998 214 68 114 0.000000 0.000000 0.000000 0.000000 -60.708740 0.000000 229.000000 0.981247 0.182863 -0.060954
1.91999996 -2.97000003 0.58999997 214 68 114 0.000000 0.000000 0.000000 0.000000 -60.708740 0.000000 229.000000 0.984984 0.050362 -0.165140
1.89999998 -2.92000008 0.56000000 214 68 114 0.000000 0.000000 0.000000 0.000000 -60.708740 0.000000 229.000000 0.891455 0.219548 -0.396366
1.92999995 -2.92000008 0.52999997 214 68 114 0.000000 0.000000 0.000000 0.000000 -60.708740 0.000000 229.000000 0.899882 0.303914 -0.312809
1.92999995 -2.92000008 0.54000002 214 68 114 0.000000 0.000000 0.000000 0.000000 -60.708740 0.000000 229.000000 0.993041 0.012043 -0.117150
1.89999998 -2.93000007 0.54000002 214 68 114 0.000000 0.000000 0.000000 0.000000 -60.708740 0.000000 229.000000 0.989124 0.120000 0.085048
1.92999995 -2.92000008 0.54000002 214 68 114 0.000000 0.000000 0.000000 0.000000 -60.708740 0.000000 229.000000 0.993041 0.012043 -0.117150
1.92999995 -2.92000008 0.54000002 214 68 114 0.000000 0.000000 0.000000 0.000000 -60.708740 0.000000 229.000000 0.993041 0.012043 -0.117150
1.92999995 -2.91000009 0.50999999 214 68 114 0.000000 0.000000 0.000000 0.000000 -60.708740 0.000000 229.000000 0.992229 -0.094552 -0.080882
1.91999996 -2.93000007 0.50999999 214 68 114 0.000000 0.000000 0.000000 0.000000 -60.708740 0.000000 229.000000 0.995448 0.005346 -0.095161
1.89999998 -2.92000008 0.49000001 214 68 114 0.000000 0.000000 0.000000 0.000000 -60.708740 0.000000 229.000000 0.982545 -0.085596 0.165164
1.91999996 -2.93000007 0.50999999 214 68 114 0.000000 0.000000 0.000000 0.000000 -60.708740 0.000000 229.000000 0.995448 0.005346 -0.095161
1.90999997 -2.93000007 0.49000001 214 68 114 0.000000 0.000000 0.000000 0.000000 -60.708740 0.000000 229.000000 0.869933 0.216364 -0.443174
1.92999995 -2.91000009 0.50000000 214 68 114 0.000000 0.000000 0.000000 0.000000 -60.708740 0.000000 229.000000 0.858302 0.198529 -0.473185
1.92999995 -2.92000008 0.51999998 214 68 114 0.000000 0.000000 0.000000 0.000000 -60.708740 0.000000 229.000000 0.968498 0.097483 0.229148
1.91999996 -2.93000007 0.49000001 214 68 114 0.000000 0.000000 0.000000 0.000000 -60.708740 0.000000 229.000000 0.936353 0.126387 -0.327520
1.91999996 -2.97000003 0.54000002 214 68 114 0.000000 0.000000 0.000000 0.000000 -60.708740 0.000000 229.000000 0.991260 0.095557 0.090952
1.89999998 -2.94000006 0.56000000 214 68 114 0.000000 0.000000 0.000000 0.000000 -60.708740 0.000000 229.000000 0.996733 -0.039956 0.070192
1.89999998 -2.96000004 0.50999999 214 68 114 0.000000 0.000000 0.000000 0.000000 -60.708740 0.000000 229.000000 0.984848 0.057655 -0.163553
1.92999995 -2.95000005 0.49000001 214 68 114 0.000000 0.000000 0.000000 0.000000 -60.708740 0.000000 229.000000 0.945287 0.324426 -0.034351
1.89999998 -2.99000001 0.63000000 214 68 114 0.000000 0.000000 0.000000 0.000000 -60.708740 0.000000 229.000000 0.852159 0.470731 -0.228554
1.90999997 -3.00000000 0.57999998 214 68 114 0.000000 0.000000 0.000000 0.000000 -60.708740 0.000000 229.000000 0.739011 0.461262 -0.491020
1.90999997 -3.00000000 0.57999998 214 68 114 0.000000 0.000000 0.000000 0.000000 -60.708740 0.000000 229.000000 0.739011 0.461262 -0.491020
1.90999997 -3.00000000 0.57999998 214 68 114 0.000000 0.000000 0.000000 0.000000 -60.708740 0.000000 229.000000 0.739011 0.461262 -0.491020
1.89999998 -3.01999998 0.62000000 214 68 114 0.000000 0.000000 0.000000 0.000000 -60.708740 0.000000 229.000000 0.854038 0.483107 0.192944
1.89999998 -3.01999998 0.64999998 214 68 114 0.000000 0.000000 0.000000 0.000000 -60.708740 0.000000 229.000000 0.880906 0.397683 -0.256618
1.89999998 -3.01999998 0.63999999 214 68 114 0.000000 0.000000 0.000000 0.000000 -60.708740 0.000000 229.000000 0.759330 0.545617 -0.354570
1.90999997 -3.04999995 0.63999999 214 68 114 0.000000 0.000000 0.000000 0.000000 -60.708740 0.000000 229.000000 0.784615 0.618990 -0.035090
1.92999995 -3.04999995 0.61000001 214 68 114 0.000000 0.000000 0.000000 0.000000 -60.708740 0.000000 229.000000 0.638178 0.520309 -0.567457
1.90999997 -3.04999995 0.63999999 214 68 114 0.000000 0.000000 0.000000 0.000000 -60.708740 0.000000 229.000000 0.784615 0.618990 -0.035090
1.92999995 -3.01999998 0.61000001 214 68 114 0.000000 0.000000 0.000000 0.000000 -60.708740 0.000000 229.000000 0.821623 0.567075 -0.057980
1.90999997 -3.04999995 0.56999999 214 68 114 0.000000 0.000000 0.000000 0.000000 -60.708740 0.000000 229.000000 0.951098 0.308766 0.008680
1.92999995 -3.01999998 0.57999998 214 68 114 0.000000 0.000000 0.000000 0.000000 -60.708740 0.000000 229.000000 0.834928 0.471104 -0.284528
1.90999997 -2.98000002 0.52999997 214 68 114 0.000000 0.000000 0.000000 0.000000 -60.708740 0.000000 229.000000 0.937461 0.281933 -0.204158
1.89999998 -3.00999999 0.56000000 214 68 114 0.000000 0.000000 0.000000 0.000000 -60.708740 0.000000 229.000000 0.989763 0.140751 -0.023646
1.91999996 -2.98000002 0.54000002 214 68 114 0.000000 0.000000 0.000000 0.000000 -60.708740 0.000000 229.000000 0.997237 0.065340 -0.035348
1.90999997 -2.98000002 0.52999997 214 68 114 0.000000 0.000000 0.000000 0.000000 -60.708740 0.000000 229.000000 0.937461 0.281933 -0.204158
1.91999996 -3.00999999 0.50999999 214 68 114 0.000000 0.000000 0.000000 0.000000 -60.708740 0.000000 229.000000 0.914287 0.362587 0.180582
1.91999996 -3.00999999 0.50000000 214 68 114 0.000000 0.000000 0.000000 0.000000 -60.708740 0.000000 229.000000 0.779429 0.497474 -0.380802
1.91999996 -3.00999999 0.51999998 214 68 114 0.000000 0.000000 0.000000 0.000000 -60.708740 0.000000 229.000000 0.946331 0.278333 0.164284
1.91999996 -3.01999998 0.55000001 214 68 114 0.000000 0.000000 0.000000 0.000000 -60.708740 0.000000 229.000000 0.666480 0.532177 -0.522104
1.92999995 -3.04999995 0.50000000 214 68 114 0.000000 0.000000 0.000000 0.000000 -60.708740 0.000000 229.000000 0.883270 0.464371 -0.064764
1.90999997 -2.90000010 0.47999999 214 68 114 0.000000 0.000000 0.000000 0.000000 -60.708740 0.000000 229.000000 0.934332 -0.126482 0.333204
1.92999995 -2.92000008 0.41000000 214 68 114 0.000000 0.000000 0.000000 0.000000 -60.708740 0.000000 229.000000 0.987081 -0.001120 -0.160219
1.92999995 -2.92000008 0.41000000 214 68 114 0.000000 0.000000 0.000000 0.000000 -60.708740 0.000000 229.000000 0.987081 -0.001120 -0.160219
1.91999996 -2.90000010 0.43000001 214 68 114 0.000000 0.000000 0.000000 0.000000 -60.708740 0.000000 229.000000 0.921514 0.001282 -0.388343
1.92999995 -2.92000008 0.41999999 214 68 114 0.000000 0.000000 0.000000 0.000000 -60.708740 0.000000 229.000000 0.952629 -0.021225 0.303393
1.92999995 -2.92000008 0.41999999 214 68 114 0.000000 0.000000 0.000000 0.000000 -60.708740 0.000000 229.000000 0.952629 -0.021225 0.303393
1.90999997 -2.97000003 0.47999999 214 68 114 0.000000 0.000000 0.000000 0.000000 -60.708740 0.000000 229.000000 0.927329 0.354768 0.119169
1.92999995 -2.95000005 0.47999999 214 68 114 0.000000 0.000000 0.000000 0.000000 -60.708740 0.000000 229.000000 0.937190 0.330376 0.111923
1.90999997 -2.97000003 0.47999999 214 68 114 0.000000 0.000000 0.000000 0.000000 -60.708740 0.000000 229.000000 0.927329 0.354768 0.119169
1.92999995 -2.96000004 0.43000001 214 68 114 0.000000 0.000000 0.000000 0.000000 -60.708740 0.000000 229.000000 0.953193 0.294576 0.068177
1.92999995 -2.96000004 0.43000001 214 68 114 0.000000 0.000000 0.000000 0.000000 -60.708740 0.000000 229.000000 0.953193 0.294576 0.068177
1.92999995 -2.95000005 0.43000001 214 68 114 0.000000 0.000000 0.000000 0.000000 -60.708740 0.000000 229.000000 0.955175 0.271969 0.116933
1.91999996 -2.93000007 0.38999999 214 68 114 0.000000 0.000000 0.000000 0.000000 -60.708740 0.000000 229.000000 0.998948 -0.021739 -0.040372
1.91999996 -2.92000008 0.38000000 214 68 114 0.000000 0.000000 0.000000 0.000000 -60.708740 0.000000 229.000000 0.997021 -0.046448 0.061571
1.91999996 -2.93000007 0.38999999 214 68 114 0.000000 0.000000 0.000000 0.000000 -60.708740 0.000000 229.000000 0.998948 -0.021739 -0.040372
1.92999995 -2.91000009 0.31999999 214 68 114 0.000000 0.000000 0.000000 0.000000 -60.708740 0.000000 229.000000 0.846816 -0.448859 0.285357
1.90999997 -2.95000005 0.37000000 214 68 114 0.000000 0.000000 0.000000 0.000000 -60.708740 0.000000 229.000000 0.960021 0.181411 -0.213191
1.91999996 -2.95000005 0.38999999 214 68 114 0.000000 0.000000 0.000000 0.000000 -60.708740 0.000000 229.000000 0.983614 0.036257 -0.176606
1.92999995 -2.94000006 0.34000000 214 68 114 0.000000 0.000000 0.000000 0.000000 -60.708740 0.000000 229.000000 0.983646 0.087675 0.157335
1.88999999 -2.95000005 0.31999999 214 68 114 0.000000 0.000000 0.000000 0.000000 -60.708740 0.000000 229.000000 0.993347 0.009835 0.114743
1.90999997 -2.98000002 0.47000000 214 68 114 0.000000 0.000000 0.000000 0.000000 -60.708740 0.000000 229.000000 0.991976 0.081048 0.097029
1.91999996 -3.00999999 0.47999999 214 68 114 0.000000 0.000000 0.000000 0.000000 -60.708740 0.000000 229.000000 0.991709 0.127426 -0.016621
1.91999996 -3.00999999 0.44999999 214 68 114 0.000000 0.000000 0.000000 0.000000 -60.708740 0.000000 229.000000 0.869433 0.482386 0.106723
1.91999996 -3.00999999 0.44999999 214 68 114 0.000000 0.000000 0.000000 0.000000 -60.708740 0.000000 229.000000 0.869433 0.482386 0.106723
1.91999996 -3.00999999 0.44999999 214 68 114 0.000000 0.000000 0.000000 0.000000 -60.708740 0.000000 229.000000 0.869433 0.482386 0.106723
1.92999995 -2.99000001 0.40000001 214 68 114 0.000000 0.000000 0.000000 0.000000 -60.708740 0.000000 229.000000 0.988231 0.111631 0.104581
1.92999995 -3.00000000 0.41000000 214 68 114 0.000000 0.000000 0.000000 0.000000 -60.708740 0.000000 229.000000 0.988546 0.127517 0.080722
1.92999995 -3.00000000 0.41000000 214 68 114 0.000000 0.000000 0.000000 0.000000 -60.708740 0.000000 229.000000 0.988546 0.127517 0.080722
1.90999997 -3.00999999 0.40000001 214 68 114 0.000000 0.000000 0.000000 0.000000 -60.708740 0.000000 229.000000 0.993320 0.100119 0.057372
1.89999998 -3.00999999 0.38000000 214 68 114 0.000000 0.000000 0.000000 0.000000 -60.708740 0.000000 229.000000 0.978433 0.197138 0.061681
1.90999997 -3.00999999 0.37000000 214 68 114 0.000000 0.000000 0.000000 0.000000 -60.708740 0.000000 229.000000 0.978879 0.199600 0.044223
1.90999997 -3.00999999 0.37000000 214 68 114 0.000000 0.000000 0.000000 0.000000 -60.708740 0.000000 229.000000 0.978879 0.199600 0.044223
1.92999995 -2.99000001 0.38999999 214 68 114 0.000000 0.000000 0.000000 0.000000 -60.708740 0.000000 229.000000 0.986467 0.076607 0.144965
1.91999996 -3.02999997 0.36000001 214 68 114 0.000000 0.000000 0.000000 0.000000 -60.708740 0.000000 229.000000 0.971102 0.236411 -0.032734
1.91999996 -3.01999998 0.34000000 214 68 114 0.000000 0.000000 0.000000 0.000000 -60.708740 0.000000 229.000000 0.902349 0.368811 0.223036
1.91999996 -2.89000010 0.23999999 214 68 114 0.000000 0.000000 0.000000 0.000000 -60.708740 0.000000 229.000000 0.862245 -0.436445 0.257001
1.91999996 -2.88000011 0.27000001 214 68 114 0.000000 0.000000 0.000000 0.000000 -60.708740 0.000000 229.000000 0.829398 -0.387053 0.402851
1.92999995 -2.85999990 0.22000000 214 68 114 0.000000 0.000000 0.000000 0.000000 -60.708740 0.000000 229.000000 0.771835 -0.572141 0.277354
1.91999996 -2.89000010 0.10000000 214 68 114 0.000000 0.000000 0.000000 0.000000 -60.708740 0.000000 229.000000 0.819682 -0.465908 0.333243
1.91999996 -2.88000011 0.01000000 214 68 114 0.000000 0.000000 0.000000 0.000000 -60.708740 0.000000 229.000000 -0.582065 0.787860 -0.201189
1.90999997 -2.91000009 0.31000000 214 68 114 0.000000 0.000000 0.000000 0.000000 -60.708740 0.000000 229.000000 0.888261 -0.216541 0.405094
1.92999995 -2.91000009 0.27000001 214 68 114 0.000000 0.000000 0.000000 0.000000 -60.708740 0.000000 229.000000 0.880373 -0.316692 0.353058
1.91999996 -2.94000006 0.31000000 214 68 114 0.000000 0.000000 0.000000 0.000000 -60.708740 0.000000 229.000000 0.940595 -0.037213 0.337485
1.91999996 -2.94000006 0.31000000 214 68 114 0.000000 0.000000 0.000000 0.000000 -60.708740 0.000000 229.000000 0.940595 -0.037213 0.337485
1.88999999 -2.93000007 0.25999999 214 68 114 0.000000 0.000000 0.000000 0.000000 -60.708740 0.000000 229.000000 0.891106 -0.367451 0.266290
1.91999996 -2.91000009 0.19000000 214 68 114 0.000000 0.000000 0.000000 0.000000 -60.708740 0.000000 229.000000 0.830558 -0.285163 0.478389
1.91999996 -2.91000009 0.19000000 214 68 114 0.000000 0.000000 0.000000 0.000000 -60.708740 0.000000 229.000000 0.830558 -0.285163 0.478389
1.91999996 -2.91000009 0.19000000 214 68 114 0.000000 0.000000 0.000000 0.000000 -60.708740 0.000000 229.000000 0.830558 -0.285163 0.478389
1.91999996 -2.91000009 0.19000000 214 68 114 0.000000 0.000000 0.000000 0.000000 -60.708740 0.000000 229.000000 0.830558 -0.285163 0.478389
1.91999996 -2.91000009 0.19000000 214 68 114 0.000000 0.000000 0.000000 0.000000 -60.708740 0.000000 229.000000 0.830558 -0.285163 0.478389
1.91999996 -2.94000006 0.15000001 214 68 114 0.000000 0.000000 0.000000 0.000000 -60.708740 0.000000 229.000000 0.945390 -0.155983 0.286194
1.90999997 -3.00000000 0.28999999 214 68 114 0.000000 0.000000 0.000000 0.000000 -60.708740 0.000000 229.000000 0.966682 0.215535 0.138097
1.90999997 -3.00000000 0.28999999 214 68 114 0.000000 0.000000 0.000000 0.000000 -60.708740 0.000000 229.000000 0.966682 0.215535 0.138097
1.90999997 -3.00999999 0.23999999 214 68 114 0.000000 0.000000 0.000000 0.000000 -60.708740 0.000000 229.000000 0.987367 0.153232 0.040324
1.91999996 -3.03999996 0.28000000 214 68 114 0.000000 0.000000 0.000000 0.000000 -60.708740 0.000000 229.000000 0.946702 0.295928 0.127209
1.91999996 -3.04999995 0.28999999 214 68 114 0.000000 0.000000 0.000000 0.000000 -60.708740 0.000000 229.000000 0.944151 0.238450 0.227423
1.91999996 -3.03999996 0.28000000 214 68 114 0.000000 0.000000 0.000000 0.000000 -60.708740 0.000000 229.000000 0.946702 0.295928 0.127209
1.89999998 -3.02999997 0.25999999 214 68 114 0.000000 0.000000 0.000000 0.000000 -60.708740 0.000000 229.000000 0.982628 0.164774 0.085394
1.90999997 -3.03999996 0.23999999 214 68 114 0.000000 0.000000 0.000000 0.000000 -60.708740 0.000000 229.000000 0.980146 0.138967 0.141426
1.91999996 -3.01999998 0.27000001 214 68 114 0.000000 0.000000 0.000000 0.000000 -60.708740 0.000000 229.000000 0.953563 0.296636 0.052198
1.89999998 -3.04999995 0.22000000 214 68 114 0.000000 0.000000 0.000000 0.000000 -60.708740 0.000000 229.000000 0.944361 0.289423 0.156261
1.90999997 -3.02999997 0.19000000 214 68 114 0.000000 0.000000 0.000000 0.000000 -60.708740 0.000000 229.000000 0.961055 0.222186 0.164339
1.90999997 -3.02999997 0.16000000 214 68 114 0.000000 0.000000 0.000000 0.000000 -60.708740 0.000000 229.000000 0.974070 0.111573 0.196820
1.88999999 -3.00000000 0.16000000 214 68 114 0.000000 0.000000 0.000000 0.000000 -60.708740 0.000000 229.000000 0.926745 0.133572 0.351144
1.90999997 -2.92000008 0.13000000 214 68 114 0.000000 0.000000 0.000000 0.000000 -60.708740 0.000000 229.000000 0.839784 -0.454818 0.296486
1.90999997 -2.92000008 0.13000000 214 68 114 0.000000 0.000000 0.000000 0.000000 -60.708740 0.000000 229.000000 0.839784 -0.454818 0.296486
1.91999996 -2.95000005 0.14000000 214 68 114 0.000000 0.000000 0.000000 0.000000 -60.708740 0.000000 229.000000 0.799927 -0.582442 0.144493
1.90999997 -2.96000004 0.09000000 214 68 114 0.000000 0.000000 0.000000 0.000000 -60.708740 0.000000 229.000000 0.947087 -0.057985 0.315696
1.90999997 -2.97000003 0.09000000 214 68 114 0.000000 0.000000 0.000000 0.000000 -60.708740 0.000000 229.000000 0.930691 -0.221057 0.291457
1.90999997 -2.97000003 0.09000000 214 68 114 0.000000 0.000000 0.000000 0.000000 -60.708740 0.000000 229.000000 0.930691 -0.221057 0.291457
1.88999999 -2.94000006 0.14000000 214 68 114 0.000000 0.000000 0.000000 0.000000 -60.708740 0.000000 229.000000 0.925999 -0.300132 0.229011
1.88999999 -2.97000003 0.08000000 214 68 114 0.000000 0.000000 0.000000 0.000000 -60.708740 0.000000 229.000000 0.819682 -0.465908 0.333243
1.91999996 -2.91000009 0.03000000 214 68 114 0.000000 0.000000 0.000000 0.000000 -60.708740 0.000000 229.000000 0.792708 -0.466584 0.392318
1.90999997 -2.90000010 0.05000000 214 68 114 0.000000 0.000000 0.000000 0.000000 -60.708740 0.000000 229.000000 -0.780081 0.576853 -0.242310
1.89999998 -2.90000010 0.02000000 214 68 114 0.000000 0.000000 0.000000 0.000000 -60.708740 0.000000 229.000000 -0.640470 0.756920 -0.129886
1.89999998 -2.93000007 -0.02000000 214 68 114 0.000000 0.000000 0.000000 0.000000 -60.708740 0.000000 229.000000 0.644983 -0.628317 0.434989
1.89999998 -2.95000005 -0.01000000 214 68 114 0.000000 0.000000 0.000000 0.000000 -60.708740 0.000000 229.000000 0.747327 -0.664444 -0.004144
1.88999999 -2.93000007 0.06000000 214 68 114 0.000000 0.000000 0.000000 0.000000 -60.708740 0.000000 229.000000 0.771377 -0.501801 0.391373
1.88999999 -2.93000007 0.05000000 214 68 114 0.000000 0.000000 0.000000 0.000000 -60.708740 0.000000 229.000000 -0.689209 0.698460 -0.192732
1.88000000 -2.94000006 0.06000000 214 68 114 0.000000 0.000000 0.000000 0.000000 -60.708740 0.000000 229.000000 0.798624 -0.457963 0.390474
1.88000000 -2.96000004 -0.02000000 214 68 114 0.000000 0.000000 0.000000 0.000000 -60.708740 0.000000 229.000000 0.756480 -0.566150 0.327432
1.90999997 -2.98000002 0.09000000 214 68 114 0.000000 0.000000 0.000000 0.000000 -60.708740 0.000000 229.000000 0.898685 -0.208285 0.385983
1.92999995 -3.04999995 0.13000000 214 68 114 0.000000 0.000000 0.000000 0.000000 -60.708740 0.000000 229.000000 0.853503 0.365343 -0.371561
1.91999996 -3.02999997 0.12000000 214 68 114 0.000000 0.000000 0.000000 0.000000 -60.708740 0.000000 229.000000 0.869771 0.331705 -0.365335
1.90999997 -3.04999995 0.08000000 214 68 114 0.000000 0.000000 0.000000 0.000000 -60.708740 0.000000 229.000000 0.945435 0.268760 0.184176
2.04999995 -3.21000004 0.70999998 214 68 114 0.000000 0.000000 0.000000 0.000000 -60.708740 0.000000 229.000000 0.361297 0.930374 0.062201
1.97000003 -3.15000010 0.68000001 214 68 114 0.000000 0.000000 0.000000 0.000000 -60.708740 0.000000 229.000000 0.425784 0.704118 -0.568265
1.91999996 -3.06999993 0.67000002 214 68 114 0.000000 0.000000 0.000000 0.000000 -60.708740 0.000000 229.000000 0.714803 0.572833 -0.401148
1.91999996 -3.07999992 0.68000001 214 68 114 0.000000 0.000000 0.000000 0.000000 -60.708740 0.000000 229.000000 0.879172 0.475485 0.031157
2.22000003 -3.27999997 0.46000001 214 68 114 0.000000 0.000000 0.000000 0.000000 -60.708740 0.000000 229.000000 -0.361612 0.701953 -0.613595
2.19000006 -3.28999996 0.46000001 214 68 114 0.000000 0.000000 0.000000 0.000000 -60.708740 0.000000 229.000000 0.086748 0.904657 -0.417216
2.22000003 -3.27999997 0.46000001 214 68 114 0.000000 0.000000 0.000000 0.000000 -60.708740 0.000000 229.000000 -0.361612 0.701953 -0.613595
2.23000002 -3.27999997 0.36000001 214 68 114 0.000000 0.000000 0.000000 0.000000 -60.708740 0.000000 229.000000 0.016972 0.912546 -0.408622
2.21000004 -3.28999996 0.34999999 214 68 114 0.000000 0.000000 0.000000 0.000000 -60.708740 0.000000 229.000000 0.089461 0.906999 -0.411521
2.22000003 -3.29999995 0.34999999 214 68 114 0.000000 0.000000 0.000000 0.000000 -60.708740 0.000000 229.000000 0.357826 -0.707483 0.609449
2.15000010 -3.26999998 0.41999999 214 68 114 0.000000 0.000000 0.000000 0.000000 -60.708740 0.000000 229.000000 0.328842 0.934674 -0.135084
2.15000010 -3.25999999 0.37000000 214 68 114 0.000000 0.000000 0.000000 0.000000 -60.708740 0.000000 229.000000 0.220348 0.867900 -0.445192
2.18000007 -3.28999996 0.37000000 214 68 114 0.000000 0.000000 0.000000 0.000000 -60.708740 0.000000 229.000000 0.184151 0.839908 -0.510532
2.03999996 -3.21000004 0.54000002 214 68 114 0.000000 0.000000 0.000000 0.000000 -60.708740 0.000000 229.000000 0.107524 0.752667 -0.649562
2.03999996 -3.21000004 0.54000002 214 68 114 0.000000 0.000000 0.000000 0.000000 -60.708740 0.000000 229.000000 0.107524 0.752667 -0.649562
2.03999996 -3.20000005 0.55000001 214 68 114 0.000000 0.000000 0.000000 0.000000 -60.708740 0.000000 229.000000 0.049358 0.805243 -0.590887
1.95000005 -3.09999990 0.63999999 214 68 114 0.000000 0.000000 0.000000 0.000000 -60.708740 0.000000 229.000000 0.394081 0.713963 -0.578755
1.94000006 -3.06999993 0.58999997 214 68 114 0.000000 0.000000 0.000000 0.000000 -60.708740 0.000000 229.000000 0.716557 0.696771 0.032507
1.95000005 -3.14000010 0.63999999 214 68 114 0.000000 0.000000 0.000000 0.000000 -60.708740 0.000000 229.000000 0.794477 0.607217 0.009638
1.95000005 -3.14000010 0.63999999 214 68 114 0.000000 0.000000 0.000000 0.000000 -60.708740 0.000000 229.000000 0.794477 0.607217 0.009638
1.95000005 -3.13000011 0.56999999 214 68 114 0.000000 0.000000 0.000000 0.000000 -60.708740 0.000000 229.000000 0.421393 0.637920 -0.644582
1.97000003 -3.14000010 0.57999998 214 68 114 0.000000 0.000000 0.000000 0.000000 -60.708740 0.000000 229.000000 0.413891 0.666548 -0.620006
1.96000004 -3.16000009 0.63999999 214 68 114 0.000000 0.000000 0.000000 0.000000 -60.708740 0.000000 229.000000 0.587730 0.808304 0.034901
1.96000004 -3.16000009 0.63999999 214 68 114 0.000000 0.000000 0.000000 0.000000 -60.708740 0.000000 229.000000 0.587730 0.808304 0.034901
1.97000003 -3.16000009 0.58999997 214 68 114 0.000000 0.000000 0.000000 0.000000 -60.708740 0.000000 229.000000 0.417729 0.634082 -0.650725
2.00000000 -3.22000003 0.51999998 214 68 114 0.000000 0.000000 0.000000 0.000000 -60.708740 0.000000 229.000000 0.227378 0.704088 -0.672725
1.96000004 -3.16000009 0.55000001 214 68 114 0.000000 0.000000 0.000000 0.000000 -60.708740 0.000000 229.000000 0.593107 0.805029 0.012385
2.02999997 -3.22000003 0.33000001 214 68 114 0.000000 0.000000 0.000000 0.000000 -60.708740 0.000000 229.000000 0.551555 0.795302 -0.251559
1.94000006 -3.05999994 0.41000000 214 68 114 0.000000 0.000000 0.000000 0.000000 -60.708740 0.000000 229.000000 0.966735 0.253630 0.033082
1.95000005 -3.11999989 0.34999999 214 68 114 0.000000 0.000000 0.000000 0.000000 -60.708740 0.000000 229.000000 0.834873 0.537641 0.118019
1.96000004 -3.13000011 0.34999999 214 68 114 0.000000 0.000000 0.000000 0.000000 -60.708740 0.000000 229.000000 0.814938 0.576003 0.064000
1.95000005 -3.11999989 0.34999999 214 68 114 0.000000 0.000000 0.000000 0.000000 -60.708740 0.000000 229.000000 0.834873 0.537641 0.118019
2.00999999 -3.21000004 0.38000000 214 68 114 0.000000 0.000000 0.000000 0.000000 -60.708740 0.000000 229.000000 0.473255 0.690652 -0.546836
2.00999999 -3.21000004 0.38000000 214 68 114 0.000000 0.000000 0.000000 0.000000 -60.708740 0.000000 229.000000 0.473255 0.690652 -0.546836
2.00999999 -3.21000004 0.38000000 214 68 114 0.000000 0.000000 0.000000 0.000000 -60.708740 0.000000 229.000000 0.473255 0.690652 -0.546836
1.97000003 -3.15000010 0.34000000 214 68 114 0.000000 0.000000 0.000000 0.000000 -60.708740 0.000000 229.000000 0.617193 0.563083 -0.549555
1.97000003 -3.15000010 0.34000000 214 68 114 0.000000 0.000000 0.000000 0.000000 -60.708740 0.000000 229.000000 0.617193 0.563083 -0.549555
2.06999993 -3.23000002 0.63000000 214 68 114 0.000000 0.000000 0.000000 0.000000 -60.708740 0.000000 229.000000 0.259968 0.962514 0.077356
2.06999993 -3.25000000 0.63999999 214 68 114 0.000000 0.000000 0.000000 0.000000 -60.708740 0.000000 229.000000 0.254518 0.801028 -0.541826
2.08999991 -3.25999999 0.44999999 214 68 114 0.000000 0.000000 0.000000 0.000000 -60.708740 0.000000 229.000000 0.498888 0.790841 -0.354515
2.04999995 -3.23000002 0.46000001 214 68 114 0.000000 0.000000 0.000000 0.000000 -60.708740 0.000000 229.000000 0.309337 0.801104 -0.512389
2.02999997 -3.24000001 0.47999999 214 68 114 0.000000 0.000000 0.000000 0.000000 -60.708740 0.000000 229.000000 0.340377 0.714954 -0.610724
2.08999991 -3.25000000 0.37000000 214 68 114 0.000000 0.000000 0.000000 0.000000 -60.708740 0.000000 229.000000 0.467943 0.849004 -0.245403
2.06999993 -3.25000000 0.36000001 214 68 114 0.000000 0.000000 0.000000 0.000000 -60.708740 0.000000 229.000000 0.266301 0.814477 -0.515472
2.09999990 -3.25000000 0.34000000 214 68 114 0.000000 0.000000 0.000000 0.000000 -60.708740 0.000000 229.000000 0.333684 0.925023 -0.181625
2.06999993 -3.23000002 0.31999999 214 68 114 0.000000 0.000000 0.000000 0.000000 -60.708740 0.000000 229.000000 0.469587 0.817429 -0.333612
2.09999990 -3.25999999 0.34000000 214 68 114 0.000000 0.000000 0.000000 0.000000 -60.708740 0.000000 229.000000 0.449210 0.783279 -0.429749
2.09999990 -3.25000000 0.34000000 214 68 114 0.000000 0.000000 0.000000 0.000000 -60.708740 0.000000 229.000000 0.333684 0.925023 -0.181625
2.02999997 -3.24000001 0.38000000 214 68 114 0.000000 0.000000 0.000000 0.000000 -60.708740 0.000000 229.000000 0.412486 0.817008 -0.402930
2.04999995 -3.24000001 0.34000000 214 68 114 0.000000 0.000000 0.000000 0.000000 -60.708740 0.000000 229.000000 0.489413 0.809352 -0.324691
2.01999998 -3.24000001 0.33000001 214 68 114 0.000000 0.000000 0.000000 0.000000 -60.708740 0.000000 229.000000 0.499570 0.630771 -0.593766
2.24000001 -3.26999998 0.30000001 214 68 114 0.000000 0.000000 0.000000 0.000000 -60.708740 0.000000 229.000000 0.460620 -0.664967 0.587918
2.19000006 -3.27999997 0.28000000 214 68 114 0.000000 0.000000 0.000000 0.000000 -60.708740 0.000000 229.000000 -0.006886 0.783664 -0.621147
2.23000002 -3.26999998 0.16000000 214 68 114 0.000000 0.000000 0.000000 0.000000 -60.708740 0.000000 229.000000 -0.701435 0.629826 -0.333629
2.15000010 -3.28999996 0.28999999 214 68 114 0.000000 0.000000 0.000000 0.000000 -60.708740 0.000000 229.000000 0.204384 0.782190 -0.588563
2.16000009 -3.27999997 0.23999999 214 68 114 0.000000 0.000000 0.000000 0.000000 -60.708740 0.000000 229.000000 0.184449 0.869126 -0.458910
2.16000009 -3.27999997 0.23999999 214 68 114 0.000000 0.000000 0.000000 0.000000 -60.708740 0.000000 229.000000 0.184449 0.869126 -0.458910
2.16000009 -3.27999997 0.25999999 214 68 114 0.000000 0.000000 0.000000 0.000000 -60.708740 0.000000 229.000000 0.265642 0.846061 -0.462186
2.16000009 -3.27999997 0.25999999 214 68 114 0.000000 0.000000 0.000000 0.000000 -60.708740 0.000000 229.000000 0.265642 0.846061 -0.462186
2.15000010 -3.28999996 0.20000000 214 68 114 0.000000 0.000000 0.000000 0.000000 -60.708740 0.000000 229.000000 0.246570 0.814147 -0.525707
2.18000007 -3.26999998 0.19000000 214 68 114 0.000000 0.000000 0.000000 0.000000 -60.708740 0.000000 229.000000 0.142893 0.876119 -0.460432
2.21000004 -3.25000000 0.11000000 214 68 114 0.000000 0.000000 0.000000 0.000000 -60.708740 0.000000 229.000000 -0.563285 0.660809 -0.496027
2.01999998 -3.18000007 0.27000001 214 68 114 0.000000 0.000000 0.000000 0.000000 -60.708740 0.000000 229.000000 0.510902 0.639049 -0.574975
2.01999998 -3.22000003 0.31000000 214 68 114 0.000000 0.000000 0.000000 0.000000 -60.708740 0.000000 229.000000 0.505377 0.790955 -0.344940
2.01999998 -3.22000003 0.31000000 214 68 114 0.000000 0.000000 0.000000 0.000000 -60.708740 0.000000 229.000000 0.505377 0.790955 -0.344940
2.01999998 -3.22000003 0.31000000 214 68 114 0.000000 0.000000 0.000000 0.000000 -60.708740 0.000000 229.000000 0.505377 0.790955 -0.344940
1.94000006 -3.14000010 0.23000000 214 68 114 0.000000 0.000000 0.000000 0.000000 -60.708740 0.000000 229.000000 0.735528 0.357163 -0.575702
1.99000001 -3.18000007 0.30000001 214 68 114 0.000000 0.000000 0.000000 0.000000 -60.708740 0.000000 229.000000 0.692881 0.555975 -0.459138
2.00000000 -3.20000005 0.28000000 214 68 114 0.000000 0.000000 0.000000 0.000000 -60.708740 0.000000 229.000000 0.428178 0.729059 -0.533982
1.98000002 -3.19000006 0.25999999 214 68 114 0.000000 0.000000 0.000000 0.000000 -60.708740 0.000000 229.000000 0.690783 0.690783 -0.213628
1.96000004 -3.15000010 0.30000001 214 68 114 0.000000 0.000000 0.000000 0.000000 -60.708740 0.000000 229.000000 0.554033 0.684591 -0.473690
1.96000004 -3.15000010 0.28000000 214 68 114 0.000000 0.000000 0.000000 0.000000 -60.708740 0.000000 229.000000 0.782802 0.622085 -0.015240
1.96000004 -3.17000008 0.23999999 214 68 114 0.000000 0.000000 0.000000 0.000000 -60.708740 0.000000 229.000000 0.705444 0.708260 0.026753
1.98000002 -3.18000007 0.19000000 214 68 114 0.000000 0.000000 0.000000 0.000000 -60.708740 0.000000 229.000000 0.622323 0.681749 -0.384619
2.00999999 -3.22000003 0.15000001 214 68 114 0.000000 0.000000 0.000000 0.000000 -60.708740 0.000000 229.000000 0.641692 0.544006 -0.540638
2.00999999 -3.22000003 0.15000001 214 68 114 0.000000 0.000000 0.000000 0.000000 -60.708740 0.000000 229.000000 0.641692 0.544006 -0.540638
2.00999999 -3.21000004 0.18000001 214 68 114 0.000000 0.000000 0.000000 0.000000 -60.708740 0.000000 229.000000 0.589296 0.619689 -0.518378
1.98000002 -3.19000006 0.17000000 214 68 114 0.000000 0.000000 0.000000 0.000000 -60.708740 0.000000 229.000000 0.657909 0.746219 0.101556
1.97000003 -3.18000007 0.22000000 214 68 114 0.000000 0.000000 0.000000 0.000000 -60.708740 0.000000 229.000000 0.527547 0.571369 -0.628674
1.96000004 -3.19000006 0.15000001 214 68 114 0.000000 0.000000 0.000000 0.000000 -60.708740 0.000000 229.000000 0.671291 0.580892 -0.460361
1.96000004 -3.19000006 0.15000001 214 68 114 0.000000 0.000000 0.000000 0.000000 -60.708740 0.000000 229.000000 0.671291 0.580892 -0.460361
2.02999997 -3.22000003 0.11000000 214 68 114 0.000000 0.000000 0.000000 0.000000 -60.708740 0.000000 229.000000 0.360389 0.770877 -0.525231
2.03999996 -3.22000003 0.13000000 214 68 114 0.000000 0.000000 0.000000 0.000000 -60.708740 0.000000 229.000000 0.434477 0.735142 -0.520381
2.01999998 -3.22000003 0.08000000 214 68 114 0.000000 0.000000 0.000000 0.000000 -60.708740 0.000000 229.000000 0.513845 0.746963 -0.421911
2.02999997 -3.16000009 0.04000000 214 68 114 0.000000 0.000000 0.000000 0.000000 -60.708740 0.000000 229.000000 0.660375 0.532669 -0.529309
1.94000006 -3.06999993 0.00000000 214 68 114 0.000000 0.000000 0.000000 0.000000 -60.708740 0.000000 229.000000 0.931780 0.296539 0.209405
1.94000006 -3.06999993 0.00000000 214 68 114 0.000000 0.000000 0.000000 0.000000 -60.708740 0.000000 229.000000 0.931780 0.296539 0.209405
1.98000002 -3.17000008 0.09000000 214 68 114 0.000000 0.000000 0.000000 0.000000 -60.708740 0.000000 229.000000 0.612628 0.575499 -0.541745
1.98000002 -3.17000008 0.09000000 214 68 114 0.000000 0.000000 0.000000 0.000000 -60.708740 0.000000 229.000000 0.612628 0.575499 -0.541745
2.00000000 -3.19000006 0.14000000 214 68 114 0.000000 0.000000 0.000000 0.000000 -60.708740 0.000000 229.000000 0.420489 0.646523 -0.636551
1.98000002 -3.19000006 0.14000000 214 68 114 0.000000 0.000000 0.000000 0.000000 -60.708740 0.000000 229.000000 0.516853 0.570727 -0.638070
1.99000001 -3.21000004 0.07000000 214 68 114 0.000000 0.000000 0.000000 0.000000 -60.708740 0.000000 229.000000 0.649084 0.527697 -0.547928
1.98000002 -3.20000005 0.08000000 214 68 114 0.000000 0.000000 0.000000 0.000000 -60.708740 0.000000 229.000000 0.434989 0.644983 -0.628317
1.99000001 -3.21000004 0.07000000 214 68 114 0.000000 0.000000 0.000000 0.000000 -60.708740 0.000000 229.000000 0.649084 0.527697 -0.547928
1.94000006 -3.17000008 0.10000000 214 68 114 0.000000 0.000000 0.000000 0.000000 -60.708740 0.000000 229.000000 0.565928 0.569306 -0.596336
1.96000004 -3.16000009 0.08000000 214 68 114 0.000000 0.000000 0.000000 0.000000 -60.708740 0.000000 229.000000 0.785701 0.590420 0.184602
1.96000004 -3.18000007 0.06000000 214 68 114 0.000000 0.000000 0.000000 0.000000 -60.708740 0.000000 229.000000 0.597908 0.618119 -0.510327
2.09999990 -3.25000000 0.30000001 214 68 114 0.000000 0.000000 0.000000 0.000000 -60.708740 0.000000 229.000000 0.178274 0.766424 -0.617101
2.05999994 -3.23000002 0.25000000 214 68 114 0.000000 0.000000 0.000000 0.000000 -60.708740 0.000000 229.000000 0.509617 0.856891 -0.077643
2.05999994 -3.23000002 0.25000000 214 68 114 0.000000 0.000000 0.000000 0.000000 -60.708740 0.000000 229.000000 0.509617 0.856891 -0.077643
2.06999993 -3.24000001 0.25000000 214 68 114 0.000000 0.000000 0.000000 0.000000 -60.708740 0.000000 229.000000 0.452281 0.817280 -0.357064
2.09999990 -3.25999999 0.23999999 214 68 114 0.000000 0.000000 0.000000 0.000000 -60.708740 0.000000 229.000000 0.339353 0.839781 -0.423800
2.02999997 -3.23000002 0.30000001 214 68 114 0.000000 0.000000 0.000000 0.000000 -60.708740 0.000000 229.000000 0.603278 0.797530 -0.001368
2.04999995 -3.25000000 0.28000000 214 68 114 0.000000 0.000000 0.000000 0.000000 -60.708740 0.000000 229.000000 -0.215765 -0.749744 0.625563
2.05999994 -3.24000001 0.23000000 214 68 114 0.000000 0.000000 0.000000 0.000000 -60.708740 0.000000 229.000000 0.474345 0.774274 -0.418923
2.07999992 -3.24000001 0.20000000 214 68 114 0.000000 0.000000 0.000000 0.000000 -60.708740 0.000000 229.000000 0.414613 0.833954 -0.364165
2.05999994 -3.24000001 0.23000000 214 68 114 0.000000 0.000000 0.000000 0.000000 -60.708740 0.000000 229.000000 0.474345 0.774274 -0.418923
2.05999994 -3.24000001 0.23000000 214 68 114 0.000000 0.000000 0.000000 0.000000 -60.708740 0.000000 229.000000 0.474345 0.774274 -0.418923
2.05999994 -3.25999999 0.16000000 214 68 114 0.000000 0.000000 0.000000 0.000000 -60.708740 0.000000 229.000000 0.419906 0.815862 -0.397553
2.09999990 -3.25000000 0.17000000 214 68 114 0.000000 0.000000 0.000000 0.000000 -60.708740 0.000000 229.000000 0.415340 0.829100 -0.374280
2.07999992 -3.24000001 0.17000000 214 68 114 0.000000 0.000000 0.000000 0.000000 -60.708740 0.000000 229.000000 0.372789 0.711092 -0.596135
2.03999996 -3.24000001 0.20000000 214 68 114 0.000000 0.000000 0.000000 0.000000 -60.708740 0.000000 229.000000 0.426901 0.682710 -0.593011
2.03999996 -3.23000002 0.17000000 214 68 114 0.000000 0.000000 0.000000 0.000000 -60.708740 0.000000 229.000000 0.491531 0.795736 -0.353838
2.01999998 -3.23000002 0.07000000 214 68 114 0.000000 0.000000 0.000000 0.000000 -60.708740 0.000000 229.000000 0.243703 0.734252 -0.633627
2.04999995 -3.23000002 0.07000000 214 68 114 0.000000 0.000000 0.000000 0.000000 -60.708740 0.000000 229.000000 0.037727 0.811830 -0.582673
2.01999998 -3.23000002 0.07000000 214 68 114 0.000000 0.000000 0.000000 0.000000 -60.708740 0.000000 229.000000 0.243703 0.734252 -0.633627
2.07999992 -3.25999999 0.03000000 214 68 114 0.000000 0.000000 0.000000 0.000000 -60.708740 0.000000 229.000000 -0.063938 0.811300 -0.581124
2.06999993 -3.25999999 0.06000000 214 68 114 0.000000 0.000000 0.000000 0.000000 -60.708740 0.000000 229.000000 -0.082066 0.801942 -0.591738
2.05999994 -3.25999999 0.05000000 214 68 114 0.000000 0.000000 0.000000 0.000000 -60.708740 0.000000 229.000000 0.527196 0.732125 -0.431343
2.07999992 -3.24000001 0.05000000 214 68 114 0.000000 0.000000 0.000000 0.000000 -60.708740 0.000000 229.000000 0.382998 0.705177 -0.596689
2.06999993 -3.25999999 0.06000000 214 68 114 0.000000 0.000000 0.000000 0.000000 -60.708740 0.000000 229.000000 -0.082066 0.801942 -0.591738
2.07999992 -3.25999999 0.01000000 214 68 114 0.000000 0.000000 0.000000 0.000000 -60.708740 0.000000 229.000000 0.361106 0.797644 -0.483080
2.07999992 -3.25999999 0.01000000 214 68 114 0.000000 0.000000 0.000000 0.000000 -60.708740 0.000000 229.000000 0.361106 0.797644 -0.483080
2.09999990 -3.27999997 0.00000000 214 68 114 0.000000 0.000000 0.000000 0.000000 -60.708740 0.000000 229.000000 0.380707 0.801573 -0.461025
1.91999996 -3.06999993 0.63000000 214 68 114 0.000000 0.000000 0.000000 0.000000 -60.708740 0.000000 229.000000 0.632142 0.645485 -0.428656
1.90999997 -3.05999994 0.62000000 214 68 114 0.000000 0.000000 0.000000 0.000000 -60.708740 0.000000 229.000000 0.878628 0.464154 0.112135
1.90999997 -3.05999994 0.62000000 214 68 114 0.000000 0.000000 0.000000 0.000000 -60.708740 0.000000 229.000000 0.878628 0.464154 0.112135
1.92999995 -3.09999990 0.60000002 214 68 114 0.000000 0.000000 0.000000 0.000000 -60.708740 0.000000 229.000000 0.745288 0.656387 0.117053
1.90999997 -3.06999993 0.52999997 214 68 114 0.000000 0.000000 0.000000 0.000000 -60.708740 0.000000 229.000000 0.810533 0.585614 -0.009600
1.92999995 -3.05999994 0.47000000 214 68 114 0.000000 0.000000 0.000000 0.000000 -60.708740 0.000000 229.000000 0.923203 0.382151 0.040710
1.92999995 -3.06999993 0.38000000 214 68 114 0.000000 0.000000 0.000000 0.000000 -60.708740 0.000000 229.000000 0.843851 0.497887 0.200057
1.91999996 -3.06999993 0.38999999 214 68 114 0.000000 0.000000 0.000000 0.000000 -60.708740 0.000000 229.000000 0.880454 0.462132 0.105994
1.91999996 -3.06999993 0.38999999 214 68 114 0.000000 0.000000 0.000000 0.000000 -60.708740 0.000000 229.000000 0.880454 0.462132 0.105994
1.91999996 -3.08999991 0.34000000 214 68 114 0.000000 0.000000 0.000000 0.000000 -60.708740 0.000000 229.000000 0.921848 0.360119 0.143213
1.92999995 -3.05999994 0.31999999 214 68 114 0.000000 0.000000 0.000000 0.000000 -60.708740 0.000000 229.000000 0.945474 0.314281 0.085474
1.92999995 -3.05999994 0.31999999 214 68 114 0.000000 0.000000 0.000000 0.000000 -60.708740 0.000000 229.000000 0.945474 0.314281 0.085474
1.92999995 -3.05999994 0.31000000 214 68 114 0.000000 0.000000 0.000000 0.000000 -60.708740 0.000000 229.000000 0.960897 0.276120 0.020862
1.91999996 -3.07999992 0.28000000 214 68 114 0.000000 0.000000 0.000000 0.000000 -60.708740 0.000000 229.000000 0.899068 0.410227 0.152942
1.91999996 -3.06999993 0.27000001 214 68 114 0.000000 0.000000 0.000000 0.000000 -60.708740 0.000000 229.000000 0.857799 0.438838 -0.267584
1.91999996 -3.07999992 0.25999999 214 68 114 0.000000 0.000000 0.000000 0.000000 -60.708740 0.000000 229.000000 0.729306 0.530856 -0.431630
1.90999997 -3.06999993 0.25000000 214 68 114 0.000000 0.000000 0.000000 0.000000 -60.708740 0.000000 229.000000 0.916566 0.375276 -0.138113
1.92999995 -3.07999992 0.20000000 214 68 114 0.000000 0.000000 0.000000 0.000000 -60.708740 0.000000 229.000000 0.806186 0.424730 -0.411908
1.92999995 -3.07999992 0.19000000 214 68 114 0.000000 0.000000 0.000000 0.000000 -60.708740 0.000000 229.000000 0.921482 0.375419 0.099657
1.90999997 -3.05999994 0.17000000 214 68 114 0.000000 0.000000 0.000000 0.000000 -60.708740 0.000000 229.000000 0.925009 0.342855 0.163731
1.90999997 -3.05999994 0.17000000 214 68 114 0.000000 0.000000 0.000000 0.000000 -60.708740 0.000000 229.000000 0.925009 0.342855 0.163731
1.90999997 -3.09999990 0.16000000 214 68 114 0.000000 0.000000 0.000000 0.000000 -60.708740 0.000000 229.000000 0.718873 0.424713 -0.550310
1.90999997 -3.09999990 0.16000000 214 68 114 0.000000 0.000000 0.000000 0.000000 -60.708740 0.000000 229.000000 0.718873 0.424713 -0.550310
1.92999995 -3.13000011 0.23000000 214 68 114 0.000000 0.000000 0.000000 0.000000 -60.708740 0.000000 229.000000 0.631071 0.624376 -0.460331
1.91999996 -3.11999989 0.20999999 214 68 114 0.000000 0.000000 0.000000 0.000000 -60.708740 0.000000 229.000000 0.898642 0.414429 0.143840
