//X Y Z R G B PointSourceId ScanDirectionFlag NumberOfReturns ReturnNumber GpsTime Intensity Classification Nx Ny Nz
-7.28999996 9.97000027 0.41000000 117 174 110 97.000000 1.000000 4.000000 1.000000 -60.708740 114.000000 230.000000 0.576982 0.782269 -0.234836
-7.28000021 9.97000027 0.41000000 117 174 110 97.000000 1.000000 4.000000 1.000000 -60.708740 114.000000 230.000000 0.573533 0.730397 -0.370917
-7.28999996 9.96000004 0.38000000 117 174 110 97.000000 1.000000 4.000000 1.000000 -60.708740 114.000000 230.000000 0.552006 0.759211 0.344802
-7.28999996 9.94999981 0.31999999 117 174 110 97.000000 1.000000 4.000000 1.000000 -60.708740 114.000000 230.000000 0.503534 0.854702 -0.126246
-7.25000000 9.92000008 0.47000000 117 174 110 97.000000 1.000000 4.000000 1.000000 -60.708740 114.000000 230.000000 0.253470 0.903994 -0.344309
-7.23999977 9.90999985 0.46000001 117 174 110 97.000000 1.000000 4.000000 1.000000 -60.708740 114.000000 230.000000 0.526607 0.777832 -0.343019
-7.23999977 9.90999985 0.46000001 117 174 110 97.000000 1.000000 4.000000 1.000000 -60.708740 114.000000 230.000000 0.526607 0.777832 -0.343019
-7.25000000 9.90999985 0.46000001 117 174 110 97.000000 1.000000 4.000000 1.000000 -60.708740 114.000000 230.000000 0.149794 0.897339 -0.415144
-7.23999977 9.90999985 0.46000001 117 174 110 97.000000 1.000000 4.000000 1.000000 -60.708740 114.000000 230.000000 0.526607 0.777832 -0.343019
-7.25000000 9.93999958 0.44999999 117 174 110 97.000000 1.000000 4.000000 1.000000 -60.708740 114.000000 230.000000 0.418923 0.774274 -0.474345
-7.23999977 9.90999985 0.44999999 117 174 110 97.000000 1.000000 4.000000 1.000000 -60.708740 114.000000 230.000000 0.381063 0.922784 0.057093
-7.23999977 9.90999985 0.40000001 117 174 110 97.000000 1.000000 4.000000 1.000000 -60.708740 114.000000 230.000000 0.472622 0.864265 -0.172264
-7.21999979 9.88000011 0.46000001 117 174 110 97.000000 1.000000 4.000000 1.000000 -60.708740 114.000000 230.000000 0.164295 0.971758 0.169389
-7.23999977 9.86999989 0.36000001 117 174 110 97.000000 1.000000 4.000000 1.000000 -60.708740 114.000000 230.000000 0.031853 0.980354 -0.194655
-7.23999977 9.86999989 0.36000001 117 174 110 97.000000 1.000000 4.000000 1.000000 -60.708740 114.000000 230.000000 0.031853 0.980354 -0.194655
-7.23000002 9.89000034 0.37000000 117 174 110 97.000000 1.000000 4.000000 1.000000 -60.708740 114.000000 230.000000 0.294304 0.950930 0.095485
-7.26000023 9.93000031 0.38000000 117 174 110 97.000000 1.000000 4.000000 1.000000 -60.708740 114.000000 230.000000 0.554339 0.789894 -0.262251
-7.26000023 9.92000008 0.33000001 117 174 110 97.000000 1.000000 4.000000 1.000000 -60.708740 114.000000 230.000000 0.598727 0.751188 -0.277924
-7.15000010 9.82999992 0.64999998 117 174 110 97.000000 1.000000 4.000000 1.000000 -60.708740 114.000000 230.000000 -0.022205 0.980518 -0.195169
-7.17000008 9.82999992 0.64999998 117 174 110 97.000000 1.000000 4.000000 1.000000 -60.708740 114.000000 230.000000 -0.006937 0.999952 0.006937
-7.15999985 9.85999966 0.58999997 117 174 110 97.000000 1.000000 4.000000 1.000000 -60.708740 114.000000 230.000000 0.419923 0.812702 -0.403956
-7.15999985 9.85999966 0.58999997 117 174 110 97.000000 1.000000 4.000000 1.000000 -60.708740 114.000000 230.000000 0.419923 0.812702 -0.403956
-7.15999985 9.81999969 0.63999999 117 174 110 97.000000 1.000000 4.000000 1.000000 -60.708740 114.000000 230.000000 0.078785 0.996891 -0.001050
-7.13999987 9.84000015 0.52999997 117 174 110 97.000000 1.000000 4.000000 1.000000 -60.708740 114.000000 230.000000 -0.181045 0.969426 -0.165637
-7.13999987 9.84000015 0.52999997 117 174 110 97.000000 1.000000 4.000000 1.000000 -60.708740 114.000000 230.000000 -0.181045 0.969426 -0.165637
-7.13999987 9.84000015 0.50000000 117 174 110 97.000000 1.000000 4.000000 1.000000 -60.708740 114.000000 230.000000 0.231082 0.942318 -0.242152
-7.15999985 9.82999992 0.50999999 117 174 110 97.000000 1.000000 4.000000 1.000000 -60.708740 114.000000 230.000000 0.223616 0.924375 -0.309074
-7.15999985 9.82999992 0.51999998 117 174 110 97.000000 1.000000 4.000000 1.000000 -60.708740 114.000000 230.000000 0.337814 0.894390 -0.293169
-7.13999987 9.84000015 0.50000000 117 174 110 97.000000 1.000000 4.000000 1.000000 -60.708740 114.000000 230.000000 0.231082 0.942318 -0.242152
-7.19999981 9.85999966 0.50999999 117 174 110 97.000000 1.000000 4.000000 1.000000 -60.708740 114.000000 230.000000 -0.003331 0.989358 0.145461
-7.21000004 9.85999966 0.50000000 117 174 110 97.000000 1.000000 4.000000 1.000000 -60.708740 114.000000 230.000000 0.287604 0.952114 0.103748
-7.17000008 9.82999992 0.44999999 117 174 110 97.000000 1.000000 4.000000 1.000000 -60.708740 114.000000 230.000000 0.222285 0.935275 -0.275410
-7.13999987 9.84000015 0.44000000 117 174 110 97.000000 1.000000 4.000000 1.000000 -60.708740 114.000000 230.000000 -0.018841 0.991947 0.125240
-7.17000008 9.85999966 0.40000001 117 174 110 97.000000 1.000000 4.000000 1.000000 -60.708740 114.000000 230.000000 -0.131613 0.989962 -0.051501
-7.13999987 9.84000015 0.44000000 117 174 110 97.000000 1.000000 4.000000 1.000000 -60.708740 114.000000 230.000000 -0.018841 0.991947 0.125240
-7.17999983 9.85000038 0.40000001 117 174 110 97.000000 1.000000 4.000000 1.000000 -60.708740 114.000000 230.000000 0.118390 0.948451 -0.293980
-7.19000006 9.85000038 0.40000001 117 174 110 97.000000 1.000000 4.000000 1.000000 -60.708740 114.000000 230.000000 0.208860 0.976692 -0.049499
-7.17000008 9.82999992 0.38000000 117 174 110 97.000000 1.000000 4.000000 1.000000 -60.708740 114.000000 230.000000 -0.034339 0.993617 -0.107448
-7.15999985 9.84000015 0.33000001 117 174 110 97.000000 1.000000 4.000000 1.000000 -60.708740 114.000000 230.000000 0.014436 0.906825 -0.421260
-7.30999994 10.02999973 0.64999998 117 174 110 97.000000 1.000000 4.000000 1.000000 -60.708740 114.000000 230.000000 0.705390 0.586448 -0.398124
-7.30999994 10.02999973 0.64999998 117 174 110 97.000000 1.000000 4.000000 1.000000 -60.708740 114.000000 230.000000 0.705390 0.586448 -0.398124
-7.32000017 10.02999973 0.60000002 117 174 110 97.000000 1.000000 4.000000 1.000000 -60.708740 114.000000 230.000000 0.778179 0.610248 -0.148439
-7.30999994 10.00000000 0.58999997 117 174 110 97.000000 1.000000 4.000000 1.000000 -60.708740 114.000000 230.000000 0.760357 0.626266 -0.172185
-7.30999994 10.00000000 0.57999998 117 174 110 97.000000 1.000000 4.000000 1.000000 -60.708740 114.000000 230.000000 0.706753 0.688514 0.162629
-7.30999994 10.02999973 0.58999997 117 174 110 97.000000 1.000000 4.000000 1.000000 -60.708740 114.000000 230.000000 0.543654 0.779609 -0.310887
-7.30000019 9.97999954 0.64999998 117 174 110 97.000000 1.000000 4.000000 1.000000 -60.708740 114.000000 230.000000 0.561622 0.823042 -0.084746
-7.30000019 9.97000027 0.58999997 117 174 110 97.000000 1.000000 4.000000 1.000000 -60.708740 114.000000 230.000000 0.538262 0.803493 0.254309
-7.30999994 10.02000046 0.47000000 117 174 110 97.000000 1.000000 4.000000 1.000000 -60.708740 114.000000 230.000000 0.492925 0.867825 0.062483
-7.30999994 10.02000046 0.46000001 117 174 110 97.000000 1.000000 4.000000 1.000000 -60.708740 114.000000 230.000000 0.597181 0.795754 0.100747
-7.32000017 10.00000000 0.47000000 117 174 110 97.000000 1.000000 4.000000 1.000000 -60.708740 114.000000 230.000000 0.713566 0.699379 -0.041140
-7.30000019 9.94999981 0.43000001 117 174 110 97.000000 1.000000 4.000000 1.000000 -60.708740 114.000000 230.000000 0.230578 0.968933 -0.089459
-7.30999994 10.00000000 0.36000001 117 174 110 97.000000 1.000000 4.000000 1.000000 -60.708740 114.000000 230.000000 0.600976 0.768690 0.218960
-7.32000017 10.00000000 0.33000001 117 174 110 97.000000 1.000000 4.000000 1.000000 -60.708740 114.000000 230.000000 0.574325 0.703424 -0.418744
-7.30000019 9.97999954 0.36000001 117 174 110 97.000000 1.000000 4.000000 1.000000 -60.708740 114.000000 230.000000 0.506151 0.859475 0.071506
-7.30999994 9.98999977 0.38999999 117 174 110 97.000000 1.000000 4.000000 1.000000 -60.708740 114.000000 230.000000 0.622928 0.679107 -0.388297
-7.30000019 9.97999954 0.36000001 117 174 110 97.000000 1.000000 4.000000 1.000000 -60.708740 114.000000 230.000000 0.506151 0.859475 0.071506
-7.32000017 9.98999977 0.38999999 117 174 110 97.000000 1.000000 4.000000 1.000000 -60.708740 114.000000 230.000000 0.645394 0.762220 -0.049865
-7.30000019 9.97999954 0.34000000 117 174 110 97.000000 1.000000 4.000000 1.000000 -60.708740 114.000000 230.000000 0.394801 0.870391 -0.294195
-7.30000019 9.96000004 0.31999999 117 174 110 97.000000 1.000000 4.000000 1.000000 -60.708740 114.000000 230.000000 0.577088 0.739648 -0.346253
-7.30000019 9.94999981 0.34999999 117 174 110 97.000000 1.000000 4.000000 1.000000 -60.708740 114.000000 230.000000 0.455258 0.854180 -0.251229
-7.28999996 9.94999981 0.23999999 117 174 110 97.000000 1.000000 4.000000 1.000000 -60.708740 114.000000 230.000000 0.589710 0.758199 -0.278165
-7.28999996 9.96000004 0.30000001 117 174 110 97.000000 1.000000 4.000000 1.000000 -60.708740 114.000000 230.000000 0.408890 0.912538 0.009086
-7.28999996 9.96000004 0.30000001 117 174 110 97.000000 1.000000 4.000000 1.000000 -60.708740 114.000000 230.000000 0.408890 0.912538 0.009086
-7.25000000 9.90999985 0.31000000 117 174 110 97.000000 1.000000 4.000000 1.000000 -60.708740 114.000000 230.000000 0.452985 0.878472 -0.151960
-7.23000002 9.89000034 0.28000000 117 174 110 97.000000 1.000000 4.000000 1.000000 -60.708740 114.000000 230.000000 0.078058 0.989124 -0.124660
-7.23999977 9.88000011 0.31000000 117 174 110 97.000000 1.000000 4.000000 1.000000 -60.708740 114.000000 230.000000 0.425150 0.776998 -0.464244
-7.23000002 9.89000034 0.27000001 117 174 110 97.000000 1.000000 4.000000 1.000000 -60.708740 114.000000 230.000000 0.194353 0.974273 0.114104
-7.21999979 9.88000011 0.25000000 117 174 110 97.000000 1.000000 4.000000 1.000000 -60.708740 114.000000 230.000000 0.228328 0.906041 -0.356308
-7.23000002 9.89000034 0.27000001 117 174 110 97.000000 1.000000 4.000000 1.000000 -60.708740 114.000000 230.000000 0.194353 0.974273 0.114104
-7.28000021 9.93999958 0.28000000 117 174 110 97.000000 1.000000 4.000000 1.000000 -60.708740 114.000000 230.000000 0.493626 0.800345 -0.340266
-7.26000023 9.89999962 0.15000001 117 174 110 97.000000 1.000000 4.000000 1.000000 -60.708740 114.000000 230.000000 0.322195 0.946369 0.024007
-7.25000000 9.90999985 0.08000000 117 174 110 97.000000 1.000000 4.000000 1.000000 -60.708740 114.000000 230.000000 0.560952 0.773891 -0.293983
-7.25000000 9.89999962 0.11000000 117 174 110 97.000000 1.000000 4.000000 1.000000 -60.708740 114.000000 230.000000 0.279963 0.951344 0.128703
-7.23999977 9.88000011 0.12000000 117 174 110 97.000000 1.000000 4.000000 1.000000 -60.708740 114.000000 230.000000 0.303632 0.935852 -0.178852
-7.23999977 9.88000011 0.13000000 117 174 110 97.000000 1.000000 4.000000 1.000000 -60.708740 114.000000 230.000000 0.280835 0.945613 -0.164159
-7.26999998 9.90999985 0.11000000 117 174 110 97.000000 1.000000 4.000000 1.000000 -60.708740 114.000000 230.000000 0.293526 0.955519 0.028728
-7.28999996 9.93999958 0.08000000 117 174 110 97.000000 1.000000 4.000000 1.000000 -60.708740 114.000000 230.000000 0.561055 0.795987 -0.227204
-7.28000021 9.93999958 0.08000000 117 174 110 97.000000 1.000000 4.000000 1.000000 -60.708740 114.000000 230.000000 0.504623 0.838007 -0.207607
-7.23999977 9.90999985 0.05000000 117 174 110 97.000000 1.000000 4.000000 1.000000 -60.708740 114.000000 230.000000 0.443975 0.862189 -0.243959
-7.25000000 9.86999989 0.06000000 117 174 110 97.000000 1.000000 4.000000 1.000000 -60.708740 114.000000 230.000000 0.289900 0.955783 -0.049372
-7.23000002 9.86999989 0.00000000 117 174 110 97.000000 1.000000 4.000000 1.000000 -60.708740 114.000000 230.000000 0.378040 0.900582 -0.214563
-7.28000021 9.93000031 0.00000000 117 174 110 97.000000 1.000000 4.000000 1.000000 -60.708740 114.000000 230.000000 0.619173 0.731168 -0.286388
-7.26000023 9.88000011 0.06000000 117 174 110 97.000000 1.000000 4.000000 1.000000 -60.708740 114.000000 230.000000 0.551220 0.766565 -0.329446
-7.17000008 9.84000015 0.28000000 117 174 110 97.000000 1.000000 4.000000 1.000000 -60.708740 114.000000 230.000000 -0.057723 0.996534 -0.059901
-7.15000010 9.82999992 0.30000001 117 174 110 97.000000 1.000000 4.000000 1.000000 -60.708740 114.000000 230.000000 0.219051 0.936199 -0.274860
-7.15999985 9.82999992 0.30000001 117 174 110 97.000000 1.000000 4.000000 1.000000 -60.708740 114.000000 230.000000 0.197375 0.871120 -0.449658
-7.13999987 9.84000015 0.25000000 117 174 110 97.000000 1.000000 4.000000 1.000000 -60.708740 114.000000 230.000000 0.140042 0.873458 -0.466325
-7.17000008 9.84000015 0.25999999 117 174 110 97.000000 1.000000 4.000000 1.000000 -60.708740 114.000000 230.000000 0.121771 0.991236 0.051212
-7.17000008 9.84000015 0.25999999 117 174 110 97.000000 1.000000 4.000000 1.000000 -60.708740 114.000000 230.000000 0.121771 0.991236 0.051212
-7.15999985 9.85000038 0.25999999 117 174 110 97.000000 1.000000 4.000000 1.000000 -60.708740 114.000000 230.000000 0.095833 0.974506 0.202866
-7.15000010 9.80000019 0.23999999 117 174 110 97.000000 1.000000 4.000000 1.000000 -60.708740 114.000000 230.000000 0.116176 0.975632 -0.186132
-7.19000006 9.84000015 0.25999999 117 174 110 97.000000 1.000000 4.000000 1.000000 -60.708740 114.000000 230.000000 0.131219 0.976016 -0.173708
-7.17999983 9.85000038 0.25000000 117 174 110 97.000000 1.000000 4.000000 1.000000 -60.708740 114.000000 230.000000 0.120720 0.991711 -0.044001
-7.17000008 9.82999992 0.23000000 117 174 110 97.000000 1.000000 4.000000 1.000000 -60.708740 114.000000 230.000000 -0.021440 0.999494 0.023481
-7.15999985 9.82999992 0.20000000 117 174 110 97.000000 1.000000 4.000000 1.000000 -60.708740 114.000000 230.000000 0.215706 0.955271 -0.202308
-7.15999985 9.84000015 0.18000001 117 174 110 97.000000 1.000000 4.000000 1.000000 -60.708740 114.000000 230.000000 0.402458 0.840934 -0.361743
-7.15999985 9.84000015 0.18000001 117 174 110 97.000000 1.000000 4.000000 1.000000 -60.708740 114.000000 230.000000 0.402458 0.840934 -0.361743
-7.13999987 9.84000015 0.18000001 117 174 110 97.000000 1.000000 4.000000 1.000000 -60.708740 114.000000 230.000000 -0.083333 0.992007 -0.094749
-7.15000010 9.81000042 0.15000001 117 174 110 97.000000 1.000000 4.000000 1.000000 -60.708740 114.000000 230.000000 0.297404 0.867811 -0.398064
-7.17999983 9.82999992 0.23000000 117 174 110 97.000000 1.000000 4.000000 1.000000 -60.708740 114.000000 230.000000 0.196652 0.975837 -0.095234
-7.19999981 9.85999966 0.20999999 117 174 110 97.000000 1.000000 4.000000 1.000000 -60.708740 114.000000 230.000000 0.053865 0.998078 0.030629
-7.21000004 9.85999966 0.20999999 117 174 110 97.000000 1.000000 4.000000 1.000000 -60.708740 114.000000 230.000000 0.328476 0.913076 -0.241654
-7.21999979 9.85999966 0.25999999 117 174 110 97.000000 1.000000 4.000000 1.000000 -60.708740 114.000000 230.000000 0.456958 0.847758 -0.269251
-7.21999979 9.85999966 0.17000000 117 174 110 97.000000 1.000000 4.000000 1.000000 -60.708740 114.000000 230.000000 0.165129 0.982339 0.087989
-7.15000010 9.82999992 0.13000000 117 174 110 97.000000 1.000000 4.000000 1.000000 -60.708740 114.000000 230.000000 0.088909 0.970490 -0.224152
-7.17000008 9.84000015 0.10000000 117 174 110 97.000000 1.000000 4.000000 1.000000 -60.708740 114.000000 230.000000 0.159913 0.927496 -0.337903
-7.19999981 9.85000038 0.12000000 117 174 110 97.000000 1.000000 4.000000 1.000000 -60.708740 114.000000 230.000000 0.113259 0.985948 -0.122796
-7.19999981 9.85000038 0.13000000 117 174 110 97.000000 1.000000 4.000000 1.000000 -60.708740 114.000000 230.000000 0.323514 0.922088 -0.212351
-7.17000008 9.81999969 0.02000000 117 174 110 97.000000 1.000000 4.000000 1.000000 -60.708740 114.000000 230.000000 0.035637 0.996742 -0.072353
-7.13999987 9.81999969 0.01000000 117 174 110 97.000000 1.000000 4.000000 1.000000 -60.708740 114.000000 230.000000 0.010880 0.999936 -0.002967
-7.30000019 10.01000023 0.28000000 117 174 110 97.000000 1.000000 4.000000 1.000000 -60.708740 114.000000 230.000000 0.407384 0.894505 0.184120
-7.30000019 9.98999977 0.31000000 117 174 110 97.000000 1.000000 4.000000 1.000000 -60.708740 114.000000 230.000000 0.554341 0.829385 -0.069470
-7.30000019 9.96000004 0.31000000 117 174 110 97.000000 1.000000 4.000000 1.000000 -60.708740 114.000000 230.000000 0.323141 0.901550 -0.287729
-7.30999994 9.97999954 0.25000000 117 174 110 97.000000 1.000000 4.000000 1.000000 -60.708740 114.000000 230.000000 0.609810 0.788572 -0.079290
-7.30999994 9.97999954 0.25999999 117 174 110 97.000000 1.000000 4.000000 1.000000 -60.708740 114.000000 230.000000 0.565441 0.729337 -0.385155
-7.32000017 10.01000023 0.22000000 117 174 110 97.000000 1.000000 4.000000 1.000000 -60.708740 114.000000 230.000000 0.555611 0.756473 -0.345029
-7.32000017 10.00000000 0.20999999 117 174 110 97.000000 1.000000 4.000000 1.000000 -60.708740 114.000000 230.000000 0.430026 0.884833 -0.179299
-7.32000017 9.94999981 0.20999999 117 174 110 97.000000 1.000000 4.000000 1.000000 -60.708740 114.000000 230.000000 0.450765 0.885987 0.108805
-7.32000017 10.00000000 0.12000000 117 174 110 97.000000 1.000000 4.000000 1.000000 -60.708740 114.000000 230.000000 0.600914 0.795960 -0.073142
-7.30999994 9.94999981 0.07000000 117 174 110 97.000000 1.000000 4.000000 1.000000 -60.708740 114.000000 230.000000 0.747221 0.523876 -0.408919
-7.30999994 9.96000004 0.09000000 117 174 110 97.000000 1.000000 4.000000 1.000000 -60.708740 114.000000 230.000000 0.695899 0.633968 -0.337356
-7.30999994 9.97999954 0.09000000 117 174 110 97.000000 1.000000 4.000000 1.000000 -60.708740 114.000000 230.000000 0.495186 0.858226 0.135051
-7.32999992 10.02000046 0.02000000 117 174 110 97.000000 1.000000 4.000000 1.000000 -60.708740 114.000000 230.000000 0.645928 0.755307 0.110857
-7.30000019 9.94999981 0.06000000 117 174 110 97.000000 1.000000 4.000000 1.000000 -60.708740 114.000000 230.000000 0.688317 0.632729 -0.354786
-7.32000017 9.97999954 -0.01000000 117 174 110 97.000000 1.000000 4.000000 1.000000 -60.708740 114.000000 230.000000 0.506082 0.860200 -0.062737
-7.30999994 9.97000027 0.02000000 117 174 110 97.000000 1.000000 4.000000 1.000000 -60.708740 114.000000 230.000000 0.503909 0.862059 0.054139
-7.30000019 9.94999981 -0.02000000 117 174 110 97.000000 1.000000 4.000000 1.000000 -60.708740 114.000000 230.000000 0.508118 0.814553 -0.279856
-7.30000019 9.94999981 0.00000000 117 174 110 97.000000 1.000000 4.000000 1.000000 -60.708740 114.000000 230.000000 0.469281 0.870277 0.149647
-7.30000019 9.94999981 -0.02000000 117 174 110 97.000000 1.000000 4.000000 1.000000 -60.708740 114.000000 230.000000 0.508118 0.814553 -0.279856
-7.34999990 10.02999973 0.04000000 117 174 110 97.000000 1.000000 4.000000 1.000000 -60.708740 114.000000 230.000000 0.686910 0.600839 0.408836
-7.30000019 9.90999985 0.04000000 117 174 110 97.000000 1.000000 4.000000 1.000000 -60.708740 114.000000 230.000000 0.507158 0.833080 -0.220835
-6.61999989 10.09000015 -0.07000000 117 174 110 97.000000 1.000000 4.000000 1.000000 -60.708740 114.000000 230.000000 0.802106 -0.316077 0.506677
-6.63000011 10.06000042 -0.03000000 117 174 110 97.000000 1.000000 4.000000 1.000000 -60.708740 114.000000 230.000000 -0.639636 0.716201 -0.279143
-6.63000011 10.06000042 -0.03000000 117 174 110 97.000000 1.000000 4.000000 1.000000 -60.708740 114.000000 230.000000 -0.639636 0.716201 -0.279143
-6.63000011 10.06000042 -0.08000000 117 174 110 97.000000 1.000000 4.000000 1.000000 -60.708740 114.000000 230.000000 0.733606 -0.413787 0.539077
-6.71000004 9.90999985 -0.09000000 117 174 110 97.000000 1.000000 4.000000 1.000000 -60.708740 114.000000 230.000000 -0.377563 0.814071 -0.441287
-6.71000004 9.90999985 -0.09000000 117 174 110 97.000000 1.000000 4.000000 1.000000 -60.708740 114.000000 230.000000 -0.377563 0.814071 -0.441287
-6.69000006 9.88000011 -0.05000000 117 174 110 97.000000 1.000000 4.000000 1.000000 -60.708740 114.000000 230.000000 0.657030 -0.512517 0.552846
-6.67999983 9.90999985 -0.11000000 117 174 110 97.000000 1.000000 4.000000 1.000000 -60.708740 114.000000 230.000000 -0.603214 0.663369 -0.442803
-6.69999981 9.93000031 -0.15000001 117 174 110 97.000000 1.000000 4.000000 1.000000 -60.708740 114.000000 230.000000 -0.697224 0.523336 -0.489896
-6.71000004 9.90999985 -0.15000001 117 174 110 97.000000 1.000000 4.000000 1.000000 -60.708740 114.000000 230.000000 -0.327941 0.860653 -0.389526
-6.69000006 9.88000011 -0.18000001 117 174 110 97.000000 1.000000 4.000000 1.000000 -60.708740 114.000000 230.000000 -0.308626 0.908327 -0.282298
-6.73000002 9.86999989 -0.09000000 117 174 110 97.000000 1.000000 4.000000 1.000000 -60.708740 114.000000 230.000000 -0.193144 0.914214 -0.356243
-6.75000000 9.86999989 -0.10000000 117 174 110 97.000000 1.000000 4.000000 1.000000 -60.708740 114.000000 230.000000 -0.495516 0.699061 -0.515537
-6.76000023 9.86999989 -0.03000000 117 174 110 97.000000 1.000000 4.000000 1.000000 -60.708740 114.000000 230.000000 -0.337288 0.815508 -0.470302
-6.75000000 9.86999989 -0.14000000 117 174 110 97.000000 1.000000 4.000000 1.000000 -60.708740 114.000000 230.000000 -0.374053 0.772396 -0.513311
-6.71999979 9.88000011 -0.18000001 117 174 110 97.000000 1.000000 4.000000 1.000000 -60.708740 114.000000 230.000000 -0.530618 0.691310 -0.490445
-6.71999979 9.88000011 -0.18000001 117 174 110 97.000000 1.000000 4.000000 1.000000 -60.708740 114.000000 230.000000 -0.530618 0.691310 -0.490445
-6.73999977 9.89000034 -0.15000001 117 174 110 97.000000 1.000000 4.000000 1.000000 -60.708740 114.000000 230.000000 -0.272400 0.792006 -0.546374
-6.73999977 9.86999989 -0.19000000 117 174 110 97.000000 1.000000 4.000000 1.000000 -60.708740 114.000000 230.000000 -0.153012 0.916669 -0.369195
-6.75000000 9.86999989 -0.23000000 117 174 110 97.000000 1.000000 4.000000 1.000000 -60.708740 114.000000 230.000000 -0.305531 0.901833 -0.305531
-6.76999998 9.85000038 -0.05000000 117 174 110 97.000000 1.000000 4.000000 1.000000 -60.708740 114.000000 230.000000 -0.168447 0.950039 -0.262777
-6.78000021 9.85999966 -0.08000000 117 174 110 97.000000 1.000000 4.000000 1.000000 -60.708740 114.000000 230.000000 -0.090758 0.922481 -0.375223
-6.71999979 9.85999966 -0.12000000 117 174 110 97.000000 1.000000 4.000000 1.000000 -60.708740 114.000000 230.000000 -0.293513 0.855952 -0.425671
-6.76000023 9.85000038 -0.16000000 117 174 110 97.000000 1.000000 4.000000 1.000000 -60.708740 114.000000 230.000000 -0.642617 0.649259 -0.406825
-6.76000023 9.85999966 -0.16000000 117 174 110 97.000000 1.000000 4.000000 1.000000 -60.708740 114.000000 230.000000 -0.507911 0.770792 -0.384585
-6.76000023 9.85000038 -0.16000000 117 174 110 97.000000 1.000000 4.000000 1.000000 -60.708740 114.000000 230.000000 -0.642617 0.649259 -0.406825
-6.73999977 9.85000038 -0.22000000 117 174 110 97.000000 1.000000 4.000000 1.000000 -60.708740 114.000000 230.000000 -0.200976 0.838660 -0.506218
-6.78999996 9.84000015 -0.22000000 117 174 110 97.000000 1.000000 4.000000 1.000000 -60.708740 114.000000 230.000000 -0.161810 0.841707 -0.515119
-6.80000019 9.82999992 -0.05000000 117 174 110 97.000000 1.000000 4.000000 1.000000 -60.708740 114.000000 230.000000 0.668598 -0.658790 0.344925
-6.80999994 9.82999992 -0.08000000 117 174 110 97.000000 1.000000 4.000000 1.000000 -60.708740 114.000000 230.000000 0.432111 -0.747568 0.504403
-6.84999990 9.81000042 -0.04000000 117 174 110 97.000000 1.000000 4.000000 1.000000 -60.708740 114.000000 230.000000 -0.443255 0.780973 -0.440008
-6.84000015 9.81000042 -0.10000000 117 174 110 97.000000 1.000000 4.000000 1.000000 -60.708740 114.000000 230.000000 0.127302 0.929440 -0.346316
-6.84999990 9.81999969 -0.10000000 117 174 110 97.000000 1.000000 4.000000 1.000000 -60.708740 114.000000 230.000000 -0.372296 0.806908 -0.458579
-6.80999994 9.84000015 -0.13000000 117 174 110 97.000000 1.000000 4.000000 1.000000 -60.708740 114.000000 230.000000 -0.348753 0.854056 -0.385953
-6.86999989 9.80000019 -0.12000000 117 174 110 97.000000 1.000000 4.000000 1.000000 -60.708740 114.000000 230.000000 -0.412421 0.854190 -0.316653
-6.94000006 9.80000019 -0.06000000 117 174 110 97.000000 1.000000 4.000000 1.000000 -60.708740 114.000000 230.000000 -0.364630 0.828704 -0.424612
-6.94000006 9.80000019 -0.09000000 117 174 110 97.000000 1.000000 4.000000 1.000000 -60.708740 114.000000 230.000000 -0.193156 0.851985 -0.486634
-6.90999985 9.80000019 -0.11000000 117 174 110 97.000000 1.000000 4.000000 1.000000 -60.708740 114.000000 230.000000 -0.497943 0.830933 -0.248201
-6.94000006 9.77999973 -0.03000000 117 174 110 97.000000 1.000000 4.000000 1.000000 -60.708740 114.000000 230.000000 -0.185890 0.882610 -0.431791
-6.84999990 9.81000042 -0.22000000 117 174 110 97.000000 1.000000 4.000000 1.000000 -60.708740 114.000000 230.000000 -0.022688 0.890157 -0.455088
-6.84999990 9.78999996 -0.19000000 117 174 110 97.000000 1.000000 4.000000 1.000000 -60.708740 114.000000 230.000000 0.141910 0.970361 -0.195606
-6.90000010 9.80000019 -0.20999999 117 174 110 97.000000 1.000000 4.000000 1.000000 -60.708740 114.000000 230.000000 0.039588 0.872310 -0.487347
-6.94999981 9.78999996 -0.20999999 117 174 110 97.000000 1.000000 4.000000 1.000000 -60.708740 114.000000 230.000000 0.269769 0.900703 -0.340528
-7.00000000 9.77999973 -0.04000000 117 174 110 97.000000 1.000000 4.000000 1.000000 -60.708740 114.000000 230.000000 -0.299884 0.930625 -0.209778
-7.01999998 9.77999973 -0.03000000 117 174 110 97.000000 1.000000 4.000000 1.000000 -60.708740 114.000000 230.000000 0.223756 0.863489 -0.452018
-7.03000021 9.77999973 -0.04000000 117 174 110 97.000000 1.000000 4.000000 1.000000 -60.708740 114.000000 230.000000 0.226365 0.843170 -0.487671
-7.01000023 9.75000000 -0.11000000 117 174 110 97.000000 1.000000 4.000000 1.000000 -60.708740 114.000000 230.000000 -0.172136 0.947427 -0.269725
-7.11000013 9.81000042 -0.05000000 117 174 110 97.000000 1.000000 4.000000 1.000000 -60.708740 114.000000 230.000000 0.027889 0.968831 -0.246149
-7.09000015 9.81000042 -0.03000000 117 174 110 97.000000 1.000000 4.000000 1.000000 -60.708740 114.000000 230.000000 0.093399 0.924511 -0.369534
-7.09999990 9.81000042 -0.08000000 117 174 110 97.000000 1.000000 4.000000 1.000000 -60.708740 114.000000 230.000000 0.267538 0.872144 -0.409620
-7.07000017 9.80000019 -0.15000001 117 174 110 97.000000 1.000000 4.000000 1.000000 -60.708740 114.000000 230.000000 0.151820 0.923457 -0.352390
-6.98999977 9.77999973 -0.20999999 117 174 110 97.000000 1.000000 4.000000 1.000000 -60.708740 114.000000 230.000000 0.328980 0.870651 -0.365704
-7.09000015 9.78999996 -0.23999999 117 174 110 97.000000 1.000000 4.000000 1.000000 -60.708740 114.000000 230.000000 0.217201 0.867308 -0.447884
-7.09000015 9.78999996 -0.23999999 117 174 110 97.000000 1.000000 4.000000 1.000000 -60.708740 114.000000 230.000000 0.217201 0.867308 -0.447884
-7.11999989 9.81999969 -0.27000001 117 174 110 97.000000 1.000000 4.000000 1.000000 -60.708740 114.000000 230.000000 0.071138 0.980259 -0.184477
-7.05000019 9.77999973 -0.20000000 117 174 110 97.000000 1.000000 4.000000 1.000000 -60.708740 114.000000 230.000000 -0.176771 0.977803 -0.112491
-7.05000019 9.77999973 -0.20000000 117 174 110 97.000000 1.000000 4.000000 1.000000 -60.708740 114.000000 230.000000 -0.176771 0.977803 -0.112491
-7.34999990 10.10000038 -0.03000000 117 174 110 97.000000 1.000000 4.000000 1.000000 -60.708740 114.000000 230.000000 0.718839 0.686232 0.111161
-7.36999989 10.05000019 -0.04000000 117 174 110 97.000000 1.000000 4.000000 1.000000 -60.708740 114.000000 230.000000 0.658657 0.751744 -0.032439
-7.34999990 10.03999996 -0.05000000 117 174 110 97.000000 1.000000 4.000000 1.000000 -60.708740 114.000000 230.000000 0.813708 0.447460 -0.371025
-7.34999990 10.03999996 -0.05000000 117 174 110 97.000000 1.000000 4.000000 1.000000 -60.708740 114.000000 230.000000 0.813708 0.447460 -0.371025
-7.28000021 9.92000008 -0.06000000 117 174 110 97.000000 1.000000 4.000000 1.000000 -60.708740 114.000000 230.000000 0.562382 0.764263 -0.315639
-7.28000021 9.92000008 -0.05000000 117 174 110 97.000000 1.000000 4.000000 1.000000 -60.708740 114.000000 230.000000 0.374103 0.925274 0.062572
-7.26000023 9.89999962 -0.03000000 117 174 110 97.000000 1.000000 4.000000 1.000000 -60.708740 114.000000 230.000000 0.346709 0.932203 -0.103878
-7.26999998 9.89999962 -0.04000000 117 174 110 97.000000 1.000000 4.000000 1.000000 -60.708740 114.000000 230.000000 0.359690 0.930416 -0.070345
-7.21999979 9.86999989 -0.11000000 117 174 110 97.000000 1.000000 4.000000 1.000000 -60.708740 114.000000 230.000000 0.537821 0.747064 -0.390697
-7.23999977 9.89000034 -0.16000000 117 174 110 97.000000 1.000000 4.000000 1.000000 -60.708740 114.000000 230.000000 0.509140 0.808634 -0.294765
-7.26000023 9.89000034 -0.16000000 117 174 110 97.000000 1.000000 4.000000 1.000000 -60.708740 114.000000 230.000000 0.524851 0.738740 -0.422842
-7.15999985 9.84000015 -0.10000000 117 174 110 97.000000 1.000000 4.000000 1.000000 -60.708740 114.000000 230.000000 0.279560 0.841768 -0.461814
-7.21000004 9.84000015 -0.09000000 117 174 110 97.000000 1.000000 4.000000 1.000000 -60.708740 114.000000 230.000000 0.288065 0.891062 -0.350753
-7.17999983 9.82999992 -0.09000000 117 174 110 97.000000 1.000000 4.000000 1.000000 -60.708740 114.000000 230.000000 0.344751 0.829607 -0.439203
-7.19000006 9.84000015 -0.11000000 117 174 110 97.000000 1.000000 4.000000 1.000000 -60.708740 114.000000 230.000000 0.433626 0.760890 -0.482715
-7.21999979 9.85999966 -0.11000000 117 174 110 97.000000 1.000000 4.000000 1.000000 -60.708740 114.000000 230.000000 0.464092 0.832866 -0.301582
-7.32000017 9.97000027 -0.06000000 117 174 110 97.000000 1.000000 4.000000 1.000000 -60.708740 114.000000 230.000000 0.647448 0.717100 -0.258029
-7.34999990 10.01000023 -0.09000000 117 174 110 97.000000 1.000000 4.000000 1.000000 -60.708740 114.000000 230.000000 0.688436 0.669268 -0.279527
-7.32000017 9.97999954 -0.12000000 117 174 110 97.000000 1.000000 4.000000 1.000000 -60.708740 114.000000 230.000000 0.637331 0.734418 -0.233323
-7.32000017 9.92000008 -0.07000000 117 174 110 97.000000 1.000000 4.000000 1.000000 -60.708740 114.000000 230.000000 0.693106 0.593854 -0.408585
-6.73000002 10.43999958 1.00999999 117 174 110 97.000000 1.000000 4.000000 1.000000 -60.708740 114.000000 230.000000 0.992093 -0.123317 0.023330
-6.73000002 10.44999981 1.00999999 117 174 110 97.000000 1.000000 4.000000 1.000000 -60.708740 114.000000 230.000000 0.867154 0.492923 0.071216
-6.67999983 10.39000034 0.94999999 117 174 110 97.000000 1.000000 4.000000 1.000000 -60.708740 114.000000 230.000000 0.994654 0.027356 0.099575
-6.67999983 10.39000034 0.88999999 117 174 110 97.000000 1.000000 4.000000 1.000000 -60.708740 114.000000 230.000000 0.997856 -0.062300 -0.020063
-6.67999983 10.38000011 0.89999998 117 174 110 97.000000 1.000000 4.000000 1.000000 -60.708740 114.000000 230.000000 0.965294 -0.159800 -0.206570
-6.67999983 10.39999962 0.86000001 117 174 110 97.000000 1.000000 4.000000 1.000000 -60.708740 114.000000 230.000000 0.972157 0.215896 0.091101
-6.67999983 10.39000034 0.86000001 117 174 110 97.000000 1.000000 4.000000 1.000000 -60.708740 114.000000 230.000000 0.995149 -0.009683 0.097901
-6.76999998 10.47000027 0.94000000 117 174 110 97.000000 1.000000 4.000000 1.000000 -60.708740 114.000000 230.000000 0.959243 0.277841 -0.051545
-6.76999998 10.46000004 0.97000003 117 174 110 97.000000 1.000000 4.000000 1.000000 -60.708740 114.000000 230.000000 0.851147 0.522390 0.051542
-6.76999998 10.46000004 0.86000001 117 174 110 97.000000 1.000000 4.000000 1.000000 -60.708740 114.000000 230.000000 0.999505 0.011162 0.029427
-6.76999998 10.43000031 0.92000002 117 174 110 97.000000 1.000000 4.000000 1.000000 -60.708740 114.000000 230.000000 0.929160 0.180243 0.322761
-6.71999979 10.40999985 0.91000003 117 174 110 97.000000 1.000000 4.000000 1.000000 -60.708740 114.000000 230.000000 0.974931 0.121397 0.186476
-6.73000002 10.43000031 0.85000002 117 174 110 97.000000 1.000000 4.000000 1.000000 -60.708740 114.000000 230.000000 0.887725 0.431593 0.160224
-6.73000002 10.43999958 0.85000002 117 174 110 97.000000 1.000000 4.000000 1.000000 -60.708740 114.000000 230.000000 0.926693 0.347683 -0.142675
-6.73000002 10.44999981 0.86000001 117 174 110 97.000000 1.000000 4.000000 1.000000 -60.708740 114.000000 230.000000 0.972189 0.176646 -0.153771
-6.76999998 10.42000008 0.83999997 117 174 110 97.000000 1.000000 4.000000 1.000000 -60.708740 114.000000 230.000000 0.910588 0.397776 -0.112264
-6.76999998 10.43000031 0.81999999 117 174 110 97.000000 1.000000 4.000000 1.000000 -60.708740 114.000000 230.000000 0.972528 -0.198037 -0.122354
-6.76999998 10.43999958 0.83999997 117 174 110 97.000000 1.000000 4.000000 1.000000 -60.708740 114.000000 230.000000 0.999613 0.023294 -0.015192
-6.69000006 10.38000011 0.76999998 117 174 110 97.000000 1.000000 4.000000 1.000000 -60.708740 114.000000 230.000000 0.958934 0.189665 0.210886
-6.67000008 10.38000011 0.75000000 117 174 110 97.000000 1.000000 4.000000 1.000000 -60.708740 114.000000 230.000000 0.987214 0.042722 0.153567
-6.67000008 10.38000011 0.74000001 117 174 110 97.000000 1.000000 4.000000 1.000000 -60.708740 114.000000 230.000000 0.956665 0.254671 0.141191
-6.67999983 10.36999989 0.69999999 117 174 110 97.000000 1.000000 4.000000 1.000000 -60.708740 114.000000 230.000000 0.994557 0.072555 0.074787
-6.76999998 10.47000027 0.74000001 117 174 110 97.000000 1.000000 4.000000 1.000000 -60.708740 114.000000 230.000000 0.988779 0.113505 0.097123
-6.76999998 10.46000004 0.69000000 117 174 110 97.000000 1.000000 4.000000 1.000000 -60.708740 114.000000 230.000000 0.989067 0.063624 0.133032
-6.73000002 10.44999981 0.75999999 117 174 110 97.000000 1.000000 4.000000 1.000000 -60.708740 114.000000 230.000000 0.905706 0.312667 -0.286244
-6.76999998 10.44999981 0.75000000 117 174 110 97.000000 1.000000 4.000000 1.000000 -60.708740 114.000000 230.000000 0.965531 0.076990 0.248640
-6.76999998 10.44999981 0.77999997 117 174 110 97.000000 1.000000 4.000000 1.000000 -60.708740 114.000000 230.000000 0.963414 0.171710 -0.205790
-6.76999998 10.43999958 0.75000000 117 174 110 97.000000 1.000000 4.000000 1.000000 -60.708740 114.000000 230.000000 0.957421 0.232384 -0.171300
-6.73000002 10.42000008 0.76999998 117 174 110 97.000000 1.000000 4.000000 1.000000 -60.708740 114.000000 230.000000 0.977879 -0.203274 -0.049315
-6.73999977 10.43000031 0.68000001 117 174 110 97.000000 1.000000 4.000000 1.000000 -60.708740 114.000000 230.000000 0.872697 0.429612 0.232021
-6.63999987 10.38000011 0.60000002 117 174 110 97.000000 1.000000 4.000000 1.000000 -60.708740 114.000000 230.000000 0.986847 0.105691 -0.122317
-6.67999983 10.36999989 0.56999999 117 174 110 97.000000 1.000000 4.000000 1.000000 -60.708740 114.000000 230.000000 0.975280 0.075022 -0.207847
-6.69000006 10.38000011 0.52999997 117 174 110 97.000000 1.000000 4.000000 1.000000 -60.708740 114.000000 230.000000 0.974467 0.108830 -0.196394
-6.75000000 10.46000004 0.60000002 117 174 110 97.000000 1.000000 4.000000 1.000000 -60.708740 114.000000 230.000000 0.913092 0.384533 -0.135635
-6.75000000 10.43000031 0.52999997 117 174 110 97.000000 1.000000 4.000000 1.000000 -60.708740 114.000000 230.000000 0.951344 0.279963 0.128703
-6.75000000 10.43999958 0.54000002 117 174 110 97.000000 1.000000 4.000000 1.000000 -60.708740 114.000000 230.000000 0.976916 -0.046979 0.208393
-6.71999979 10.44999981 0.49000001 117 174 110 97.000000 1.000000 4.000000 1.000000 -60.708740 114.000000 230.000000 0.952963 0.214315 0.214315
-6.71999979 10.40999985 0.50999999 117 174 110 97.000000 1.000000 4.000000 1.000000 -60.708740 114.000000 230.000000 0.945541 0.322023 0.047470
-6.76999998 10.43000031 0.51999998 117 174 110 97.000000 1.000000 4.000000 1.000000 -60.708740 114.000000 230.000000 0.999471 0.027508 -0.017320
-6.76999998 10.44999981 0.49000001 117 174 110 97.000000 1.000000 4.000000 1.000000 -60.708740 114.000000 230.000000 0.955176 0.277561 0.102945
-6.67999983 10.36999989 0.34000000 117 174 110 97.000000 1.000000 4.000000 1.000000 -60.708740 114.000000 230.000000 0.992396 0.120862 -0.023285
-6.71000004 10.40999985 0.38999999 117 174 110 97.000000 1.000000 4.000000 1.000000 -60.708740 114.000000 230.000000 0.964529 0.184031 -0.189251
-6.73000002 10.43999958 0.46000001 117 174 110 97.000000 1.000000 4.000000 1.000000 -60.708740 114.000000 230.000000 0.914794 0.288501 -0.282702
-6.71999979 10.43999958 0.47000000 117 174 110 97.000000 1.000000 4.000000 1.000000 -60.708740 114.000000 230.000000 0.954581 0.186620 0.232268
-6.73000002 10.42000008 0.47999999 117 174 110 97.000000 1.000000 4.000000 1.000000 -60.708740 114.000000 230.000000 0.988690 0.049492 0.141570
-6.75000000 10.43000031 0.43000001 117 174 110 97.000000 1.000000 4.000000 1.000000 -60.708740 114.000000 230.000000 0.963624 0.147347 0.222976
-6.71999979 10.39999962 0.44000000 117 174 110 97.000000 1.000000 4.000000 1.000000 -60.708740 114.000000 230.000000 0.913763 0.368063 -0.171952
-6.76999998 10.44999981 0.44999999 117 174 110 97.000000 1.000000 4.000000 1.000000 -60.708740 114.000000 230.000000 0.999286 0.027729 -0.025675
-6.71000004 10.40999985 0.27000001 117 174 110 97.000000 1.000000 4.000000 1.000000 -60.708740 114.000000 230.000000 0.903317 0.207342 0.375536
-6.71000004 10.39000034 0.25999999 117 174 110 97.000000 1.000000 4.000000 1.000000 -60.708740 114.000000 230.000000 0.935699 0.278332 -0.216791
-6.73999977 10.43999958 0.27000001 117 174 110 97.000000 1.000000 4.000000 1.000000 -60.708740 114.000000 230.000000 0.898582 0.384272 0.211861
-6.73000002 10.43000031 0.25999999 117 174 110 97.000000 1.000000 4.000000 1.000000 -60.708740 114.000000 230.000000 0.781963 0.427560 0.453571
-6.73999977 10.39000034 0.31000000 117 174 110 97.000000 1.000000 4.000000 1.000000 -60.708740 114.000000 230.000000 0.950141 0.120590 -0.287560
-6.76000023 10.43000031 0.27000001 117 174 110 97.000000 1.000000 4.000000 1.000000 -60.708740 114.000000 230.000000 0.703234 0.651973 -0.283536
-6.73999977 10.43999958 0.23000000 117 174 110 97.000000 1.000000 4.000000 1.000000 -60.708740 114.000000 230.000000 0.916916 0.375419 -0.135374
-6.71999979 10.43999958 0.18000001 117 174 110 97.000000 1.000000 4.000000 1.000000 -60.708740 114.000000 230.000000 0.984535 0.169747 -0.043315
-6.71999979 10.39000034 0.15000001 117 174 110 97.000000 1.000000 4.000000 1.000000 -60.708740 114.000000 230.000000 0.999920 0.008937 0.008937
-6.76999998 10.42000008 0.17000000 117 174 110 97.000000 1.000000 4.000000 1.000000 -60.708740 114.000000 230.000000 0.945185 0.278795 -0.169997
-6.69999981 10.38000011 0.09000000 117 174 110 97.000000 1.000000 4.000000 1.000000 -60.708740 114.000000 230.000000 0.916704 0.329553 -0.225938
-6.69999981 10.38000011 0.09000000 117 174 110 97.000000 1.000000 4.000000 1.000000 -60.708740 114.000000 230.000000 0.916704 0.329553 -0.225938
-6.71999979 10.39999962 0.12000000 117 174 110 97.000000 1.000000 4.000000 1.000000 -60.708740 114.000000 230.000000 0.839551 0.426811 -0.336133
-6.71999979 10.39999962 0.03000000 117 174 110 97.000000 1.000000 4.000000 1.000000 -60.708740 114.000000 230.000000 0.848252 0.400002 -0.347083
-6.80000019 10.47999954 0.28999999 117 174 110 97.000000 1.000000 4.000000 1.000000 -60.708740 114.000000 230.000000 0.799945 0.496573 -0.336903
-6.59000015 10.21000004 0.70999998 117 174 110 97.000000 1.000000 4.000000 1.000000 -60.708740 114.000000 230.000000 0.864670 -0.053955 0.499434
-6.61000013 10.18999958 0.69999999 117 174 110 97.000000 1.000000 4.000000 1.000000 -60.708740 114.000000 230.000000 0.954856 -0.292924 0.049455
-6.63000011 10.31999969 0.75000000 117 174 110 97.000000 1.000000 4.000000 1.000000 -60.708740 114.000000 230.000000 0.979115 0.117001 0.166265
-6.63999987 10.32999992 0.75999999 117 174 110 97.000000 1.000000 4.000000 1.000000 -60.708740 114.000000 230.000000 0.993766 -0.099488 -0.050303
-6.63000011 10.28999996 0.77999997 117 174 110 97.000000 1.000000 4.000000 1.000000 -60.708740 114.000000 230.000000 0.999108 0.041928 -0.005113
-6.63000011 10.30000019 0.74000001 117 174 110 97.000000 1.000000 4.000000 1.000000 -60.708740 114.000000 230.000000 0.994886 0.085213 0.054226
-6.63000011 10.31999969 0.79000002 117 174 110 97.000000 1.000000 4.000000 1.000000 -60.708740 114.000000 230.000000 0.915181 0.189889 0.355507
-6.67000008 10.35999966 0.73000002 117 174 110 97.000000 1.000000 4.000000 1.000000 -60.708740 114.000000 230.000000 0.957560 0.262578 -0.118879
-6.63000011 10.31999969 0.69999999 117 174 110 97.000000 1.000000 4.000000 1.000000 -60.708740 114.000000 230.000000 0.973160 0.039993 0.226626
-6.63000011 10.27999973 0.74000001 117 174 110 97.000000 1.000000 4.000000 1.000000 -60.708740 114.000000 230.000000 0.998645 -0.017703 -0.048943
-6.63000011 10.27000046 0.69999999 117 174 110 97.000000 1.000000 4.000000 1.000000 -60.708740 114.000000 230.000000 0.996609 -0.078482 0.024727
-6.98999977 9.81000042 1.15999997 117 174 110 97.000000 1.000000 4.000000 1.000000 -60.708740 114.000000 230.000000 -0.159307 0.914957 -0.370776
-7.05999994 9.78999996 1.08000004 117 174 110 97.000000 1.000000 4.000000 1.000000 -60.708740 114.000000 230.000000 -0.317997 0.937612 0.140574
-6.96000004 9.80000019 0.95999998 117 174 110 97.000000 1.000000 4.000000 1.000000 -60.708740 114.000000 230.000000 0.045335 0.939092 -0.340664
-6.92000008 9.81000042 0.88999999 117 174 110 97.000000 1.000000 4.000000 1.000000 -60.708740 114.000000 230.000000 -0.337829 0.831216 -0.441534
-6.94999981 9.80000019 0.87000000 117 174 110 97.000000 1.000000 4.000000 1.000000 -60.708740 114.000000 230.000000 0.025531 0.882845 -0.468970
-6.94000006 9.80000019 0.81999999 117 174 110 97.000000 1.000000 4.000000 1.000000 -60.708740 114.000000 230.000000 0.546348 -0.727914 0.414300
-6.92999983 9.77999973 0.85000002 117 174 110 97.000000 1.000000 4.000000 1.000000 -60.708740 114.000000 230.000000 -0.248267 0.900518 -0.356975
-6.94000006 9.77000046 0.83999997 117 174 110 97.000000 1.000000 4.000000 1.000000 -60.708740 114.000000 230.000000 -0.284945 0.881974 -0.375404
-6.88999987 9.80000019 0.76999998 117 174 110 97.000000 1.000000 4.000000 1.000000 -60.708740 114.000000 230.000000 -0.234131 0.896765 -0.375493
-6.88000011 9.82999992 0.72000003 117 174 110 97.000000 1.000000 4.000000 1.000000 -60.708740 114.000000 230.000000 -0.694940 0.715251 -0.073991
-6.94999981 9.80000019 0.67000002 117 174 110 97.000000 1.000000 4.000000 1.000000 -60.708740 114.000000 230.000000 -0.475394 0.867921 -0.143927
-6.94999981 9.80000019 0.67000002 117 174 110 97.000000 1.000000 4.000000 1.000000 -60.708740 114.000000 230.000000 -0.475394 0.867921 -0.143927
-6.88999987 9.77999973 0.69999999 117 174 110 97.000000 1.000000 4.000000 1.000000 -60.708740 114.000000 230.000000 -0.544191 0.780379 -0.308002
-6.90000010 9.77999973 0.72000003 117 174 110 97.000000 1.000000 4.000000 1.000000 -60.708740 114.000000 230.000000 -0.252995 0.841784 -0.476858
-7.01999998 9.81000042 0.94999999 117 174 110 97.000000 1.000000 4.000000 1.000000 -60.708740 114.000000 230.000000 -0.015944 0.960330 -0.278410
-6.98999977 9.81000042 0.98000002 117 174 110 97.000000 1.000000 4.000000 1.000000 -60.708740 114.000000 230.000000 -0.300701 0.784369 -0.542535
-7.00000000 9.80000019 0.93000001 117 174 110 97.000000 1.000000 4.000000 1.000000 -60.708740 114.000000 230.000000 -0.378007 0.842282 -0.384281
-6.98000002 9.81000042 0.87000000 117 174 110 97.000000 1.000000 4.000000 1.000000 -60.708740 114.000000 230.000000 -0.474835 0.858872 -0.192018
-7.03999996 9.78999996 0.87000000 117 174 110 97.000000 1.000000 4.000000 1.000000 -60.708740 114.000000 230.000000 -0.081356 0.970010 -0.229047
-7.00000000 9.77999973 0.91000003 117 174 110 97.000000 1.000000 4.000000 1.000000 -60.708740 114.000000 230.000000 -0.035627 0.917053 -0.397170
-7.00000000 9.77999973 0.86000001 117 174 110 97.000000 1.000000 4.000000 1.000000 -60.708740 114.000000 230.000000 0.095652 0.902453 -0.420036
-7.05000019 9.81000042 0.91000003 117 174 110 97.000000 1.000000 4.000000 1.000000 -60.708740 114.000000 230.000000 -0.274499 0.958830 -0.072774
-7.09000015 9.85000038 0.93000001 117 174 110 97.000000 1.000000 4.000000 1.000000 -60.708740 114.000000 230.000000 0.079077 0.979337 -0.186135
-7.09999990 9.85000038 0.94999999 117 174 110 97.000000 1.000000 4.000000 1.000000 -60.708740 114.000000 230.000000 -0.045237 0.998373 -0.034717
-7.05999994 9.78999996 0.83999997 117 174 110 97.000000 1.000000 4.000000 1.000000 -60.708740 114.000000 230.000000 -0.345544 0.810515 -0.472933
-7.09000015 9.84000015 0.82999998 117 174 110 97.000000 1.000000 4.000000 1.000000 -60.708740 114.000000 230.000000 0.005616 0.987362 -0.158382
-7.09999990 9.82999992 0.82999998 117 174 110 97.000000 1.000000 4.000000 1.000000 -60.708740 114.000000 230.000000 -0.017991 0.970337 -0.241085
-7.09999990 9.81999969 0.89999998 117 174 110 97.000000 1.000000 4.000000 1.000000 -60.708740 114.000000 230.000000 0.278615 0.911700 -0.301955
-6.98000002 9.81999969 0.75999999 117 174 110 97.000000 1.000000 4.000000 1.000000 -60.708740 114.000000 230.000000 0.066201 0.846533 -0.528203
-7.01000023 9.78999996 0.80000001 117 174 110 97.000000 1.000000 4.000000 1.000000 -60.708740 114.000000 230.000000 -0.157200 0.889841 -0.428335
-7.00000000 9.81000042 0.69000000 117 174 110 97.000000 1.000000 4.000000 1.000000 -60.708740 114.000000 230.000000 -0.346482 0.937912 -0.016499
-7.03000021 9.84000015 0.67000002 117 174 110 97.000000 1.000000 4.000000 1.000000 -60.708740 114.000000 230.000000 -0.043356 0.926238 -0.374437
-7.03000021 9.80000019 0.69000000 117 174 110 97.000000 1.000000 4.000000 1.000000 -60.708740 114.000000 230.000000 -0.254679 0.932886 -0.254679
-7.01999998 9.81000042 0.69000000 117 174 110 97.000000 1.000000 4.000000 1.000000 -60.708740 114.000000 230.000000 -0.032820 0.920272 -0.389901
-6.98999977 9.77000046 0.72000003 117 174 110 97.000000 1.000000 4.000000 1.000000 -60.708740 114.000000 230.000000 -0.207834 0.949515 -0.235002
-7.05000019 9.81999969 0.79000002 117 174 110 97.000000 1.000000 4.000000 1.000000 -60.708740 114.000000 230.000000 -0.229464 0.972492 -0.040065
-7.09999990 9.84000015 0.79000002 117 174 110 97.000000 1.000000 4.000000 1.000000 -60.708740 114.000000 230.000000 -0.348680 0.922811 -0.163837
-7.09000015 9.81000042 0.80000001 117 174 110 97.000000 1.000000 4.000000 1.000000 -60.708740 114.000000 230.000000 0.126549 0.916436 -0.379646
-7.11000013 9.84000015 0.70999998 117 174 110 97.000000 1.000000 4.000000 1.000000 -60.708740 114.000000 230.000000 0.159719 0.914496 -0.371735
-7.13000011 9.82999992 0.68000001 117 174 110 97.000000 1.000000 4.000000 1.000000 -60.708740 114.000000 230.000000 0.050765 0.996942 0.059406
-6.61999989 10.28999996 0.64999998 117 174 110 97.000000 1.000000 4.000000 1.000000 -60.708740 114.000000 230.000000 0.987802 0.014710 0.155016
-6.61000013 10.27000046 0.61000001 117 174 110 97.000000 1.000000 4.000000 1.000000 -60.708740 114.000000 230.000000 0.934802 -0.299527 0.190861
-6.61000013 10.21000004 0.63000000 117 174 110 97.000000 1.000000 4.000000 1.000000 -60.708740 114.000000 230.000000 0.886589 -0.462511 -0.006626
-6.61999989 10.21000004 0.63999999 117 174 110 97.000000 1.000000 4.000000 1.000000 -60.708740 114.000000 230.000000 0.843574 -0.535051 0.045862
-6.61000013 10.25000000 0.50000000 117 174 110 97.000000 1.000000 4.000000 1.000000 -60.708740 114.000000 230.000000 0.906999 -0.411521 -0.089461
-6.61999989 10.23999977 0.56000000 117 174 110 97.000000 1.000000 4.000000 1.000000 -60.708740 114.000000 230.000000 0.876720 -0.440570 0.193026
-6.61999989 10.21000004 0.41999999 117 174 110 97.000000 1.000000 4.000000 1.000000 -60.708740 114.000000 230.000000 0.940625 -0.339427 0.003757
-6.59000015 10.21000004 0.44999999 117 174 110 97.000000 1.000000 4.000000 1.000000 -60.708740 114.000000 230.000000 0.904878 -0.075065 0.419001
-6.61999989 10.25000000 0.31999999 117 174 110 97.000000 1.000000 4.000000 1.000000 -60.708740 114.000000 230.000000 0.975719 -0.095464 -0.197127
