//X Y Z R G B PointSourceId ScanDirectionFlag NumberOfReturns ReturnNumber GpsTime Intensity Classification Nx Ny Nz
15.52999973 -11.92000008 0.50000000 168 224 59 0.000000 0.000000 0.000000 0.000000 -60.708740 0.000000 77.000000 0.335170 0.940805 -0.050470
15.57999992 -11.97999954 0.49000001 168 224 59 0.000000 0.000000 0.000000 0.000000 -60.708740 0.000000 77.000000 0.273924 0.961751 -0.001207
15.56999969 -11.97000027 0.49000001 168 224 59 0.000000 0.000000 0.000000 0.000000 -60.708740 0.000000 77.000000 -0.287672 0.909743 0.299354
15.68999958 -11.97999954 0.46000001 168 224 59 0.000000 0.000000 0.000000 0.000000 -60.708740 0.000000 77.000000 -0.175018 0.948354 -0.264562
15.65999985 -12.02000046 0.43000001 168 224 59 0.000000 0.000000 0.000000 0.000000 -60.708740 0.000000 77.000000 -0.248915 0.944777 -0.213159
15.67000008 -12.00000000 0.41999999 168 224 59 0.000000 0.000000 0.000000 0.000000 -60.708740 0.000000 77.000000 -0.210635 0.915617 -0.342461
15.61999989 -12.01000023 0.46000001 168 224 59 0.000000 0.000000 0.000000 0.000000 -60.708740 0.000000 77.000000 0.164750 0.943568 0.287291
15.65999985 -12.06999969 0.41000000 168 224 59 0.000000 0.000000 0.000000 0.000000 -60.708740 0.000000 77.000000 -0.329543 0.937517 -0.111641
15.67000008 -12.10000038 0.41000000 168 224 59 0.000000 0.000000 0.000000 0.000000 -60.708740 0.000000 77.000000 -0.016055 0.996469 0.082415
15.65999985 -12.10000038 0.41999999 168 224 59 0.000000 0.000000 0.000000 0.000000 -60.708740 0.000000 77.000000 -0.378641 0.857738 -0.347731
15.63000011 -12.03999996 0.44999999 168 224 59 0.000000 0.000000 0.000000 0.000000 -60.708740 0.000000 77.000000 -0.092860 0.995242 0.029497
15.61999989 -12.03999996 0.44000000 168 224 59 0.000000 0.000000 0.000000 0.000000 -60.708740 0.000000 77.000000 0.096863 0.943423 -0.317128
15.64999962 -12.09000015 0.44999999 168 224 59 0.000000 0.000000 0.000000 0.000000 -60.708740 0.000000 77.000000 0.078761 0.991935 -0.099308
15.60999966 -11.97000027 0.47999999 168 224 59 0.000000 0.000000 0.000000 0.000000 -60.708740 0.000000 77.000000 -0.307617 0.946616 0.096378
15.57999992 -11.96000004 0.47000000 168 224 59 0.000000 0.000000 0.000000 0.000000 -60.708740 0.000000 77.000000 -0.131791 0.991203 0.012182
15.59000015 -12.00000000 0.46000001 168 224 59 0.000000 0.000000 0.000000 0.000000 -60.708740 0.000000 77.000000 0.157459 0.926638 -0.341393
15.59000015 -12.02999973 0.44000000 168 224 59 0.000000 0.000000 0.000000 0.000000 -60.708740 0.000000 77.000000 -0.421738 0.906006 -0.035921
15.56999969 -11.96000004 0.47000000 168 224 59 0.000000 0.000000 0.000000 0.000000 -60.708740 0.000000 77.000000 -0.388870 0.909249 -0.148478
15.56999969 -12.02000046 0.44999999 168 224 59 0.000000 0.000000 0.000000 0.000000 -60.708740 0.000000 77.000000 0.280910 0.934968 -0.216622
15.56000042 -12.02000046 0.44000000 168 224 59 0.000000 0.000000 0.000000 0.000000 -60.708740 0.000000 77.000000 -0.054155 0.925925 -0.373804
15.57999992 -12.05000019 0.40000001 168 224 59 0.000000 0.000000 0.000000 0.000000 -60.708740 0.000000 77.000000 -0.521690 0.824607 -0.218773
15.56000042 -12.06000042 0.40000001 168 224 59 0.000000 0.000000 0.000000 0.000000 -60.708740 0.000000 77.000000 -0.019827 0.902805 -0.429593
15.60000038 -12.05000019 0.38999999 168 224 59 0.000000 0.000000 0.000000 0.000000 -60.708740 0.000000 77.000000 -0.089721 0.977096 -0.192961
15.50000000 -11.84000015 0.50000000 168 224 59 0.000000 0.000000 0.000000 0.000000 -60.708740 0.000000 77.000000 -0.349298 0.904666 -0.244070
15.47999954 -11.78999996 0.50000000 168 224 59 0.000000 0.000000 0.000000 0.000000 -60.708740 0.000000 77.000000 -0.032205 0.936530 -0.349105
15.48999977 -11.90999985 0.49000001 168 224 59 0.000000 0.000000 0.000000 0.000000 -60.708740 0.000000 77.000000 -0.426678 0.861002 -0.276805
15.52000046 -11.92000008 0.50000000 168 224 59 0.000000 0.000000 0.000000 0.000000 -60.708740 0.000000 77.000000 0.156162 0.961903 0.224400
15.48999977 -11.90999985 0.49000001 168 224 59 0.000000 0.000000 0.000000 0.000000 -60.708740 0.000000 77.000000 -0.426678 0.861002 -0.276805
15.43999958 -11.81000042 0.52999997 168 224 59 0.000000 0.000000 0.000000 0.000000 -60.708740 0.000000 77.000000 -0.321571 0.943713 0.077440
15.43000031 -11.81000042 0.52999997 168 224 59 0.000000 0.000000 0.000000 0.000000 -60.708740 0.000000 77.000000 0.199771 0.976796 -0.077212
15.43999958 -11.78999996 0.50999999 168 224 59 0.000000 0.000000 0.000000 0.000000 -60.708740 0.000000 77.000000 -0.357709 0.903763 -0.235066
15.42000008 -11.84000015 0.49000001 168 224 59 0.000000 0.000000 0.000000 0.000000 -60.708740 0.000000 77.000000 -0.101642 0.972499 -0.209558
15.40999985 -11.84000015 0.50000000 168 224 59 0.000000 0.000000 0.000000 0.000000 -60.708740 0.000000 77.000000 -0.030145 0.998957 -0.034303
15.42000008 -11.84000015 0.49000001 168 224 59 0.000000 0.000000 0.000000 0.000000 -60.708740 0.000000 77.000000 -0.101642 0.972499 -0.209558
15.38000011 -11.80000019 0.49000001 168 224 59 0.000000 0.000000 0.000000 0.000000 -60.708740 0.000000 77.000000 -0.190503 0.963025 0.190503
15.38000011 -11.85999966 0.49000001 168 224 59 0.000000 0.000000 0.000000 0.000000 -60.708740 0.000000 77.000000 -0.070911 0.874567 -0.479691
15.36999989 -11.86999989 0.49000001 168 224 59 0.000000 0.000000 0.000000 0.000000 -60.708740 0.000000 77.000000 0.031059 0.997090 0.069614
15.44999981 -11.81999969 0.47999999 168 224 59 0.000000 0.000000 0.000000 0.000000 -60.708740 0.000000 77.000000 0.277780 0.932045 -0.232659
15.40999985 -11.84000015 0.47000000 168 224 59 0.000000 0.000000 0.000000 0.000000 -60.708740 0.000000 77.000000 -0.101722 0.984910 -0.140018
15.40999985 -11.84000015 0.47999999 168 224 59 0.000000 0.000000 0.000000 0.000000 -60.708740 0.000000 77.000000 -0.054993 0.993250 -0.102131
15.36999989 -11.85999966 0.47999999 168 224 59 0.000000 0.000000 0.000000 0.000000 -60.708740 0.000000 77.000000 -0.106711 0.988547 0.106711
15.39999962 -11.85000038 0.47000000 168 224 59 0.000000 0.000000 0.000000 0.000000 -60.708740 0.000000 77.000000 -0.257310 0.857194 -0.446106
15.39999962 -11.84000015 0.47999999 168 224 59 0.000000 0.000000 0.000000 0.000000 -60.708740 0.000000 77.000000 0.229469 0.961149 -0.153417
15.39999962 -11.85000038 0.47000000 168 224 59 0.000000 0.000000 0.000000 0.000000 -60.708740 0.000000 77.000000 -0.257310 0.857194 -0.446106
15.39000034 -11.89999962 0.46000001 168 224 59 0.000000 0.000000 0.000000 0.000000 -60.708740 0.000000 77.000000 -0.401866 0.860702 -0.312563
15.46000004 -11.98999977 0.41000000 168 224 59 0.000000 0.000000 0.000000 0.000000 -60.708740 0.000000 77.000000 -0.087086 0.843732 -0.529653
15.47000027 -11.97999954 0.40000001 168 224 59 0.000000 0.000000 0.000000 0.000000 -60.708740 0.000000 77.000000 -0.035106 0.782165 -0.622081
15.50000000 -12.10000038 0.41999999 168 224 59 0.000000 0.000000 0.000000 0.000000 -60.708740 0.000000 77.000000 -0.174097 0.876335 -0.449140
15.67000008 -12.06000042 0.30000001 168 224 59 0.000000 0.000000 0.000000 0.000000 -60.708740 0.000000 77.000000 -0.131329 0.870237 -0.474806
15.68999958 -12.06999969 0.27000001 168 224 59 0.000000 0.000000 0.000000 0.000000 -60.708740 0.000000 77.000000 0.226650 -0.651815 0.723718
15.53999996 -12.18000031 0.49000001 168 224 59 0.000000 0.000000 0.000000 0.000000 -60.708740 0.000000 77.000000 -0.117406 0.993011 -0.012070
15.64999962 -12.15999985 0.40000001 168 224 59 0.000000 0.000000 0.000000 0.000000 -60.708740 0.000000 77.000000 -0.414069 0.842201 -0.345318
15.63000011 -12.19999981 0.40000001 168 224 59 0.000000 0.000000 0.000000 0.000000 -60.708740 0.000000 77.000000 -0.068850 0.855706 -0.512862
15.61999989 -12.18999958 0.44000000 168 224 59 0.000000 0.000000 0.000000 0.000000 -60.708740 0.000000 77.000000 -0.325583 0.929240 -0.174669
15.61999989 -12.18999958 0.44000000 168 224 59 0.000000 0.000000 0.000000 0.000000 -60.708740 0.000000 77.000000 -0.325583 0.929240 -0.174669
15.68999958 -12.28999996 0.40000001 168 224 59 0.000000 0.000000 0.000000 0.000000 -60.708740 0.000000 77.000000 -0.353456 0.822618 -0.445386
15.67000008 -12.25000000 0.43000001 168 224 59 0.000000 0.000000 0.000000 0.000000 -60.708740 0.000000 77.000000 -0.409322 0.868858 -0.278461
15.68000031 -12.28999996 0.41000000 168 224 59 0.000000 0.000000 0.000000 0.000000 -60.708740 0.000000 77.000000 -0.262446 0.963140 -0.059019
15.68000031 -12.28999996 0.41999999 168 224 59 0.000000 0.000000 0.000000 0.000000 -60.708740 0.000000 77.000000 -0.426677 0.889513 -0.163439
15.67000008 -12.25000000 0.38999999 168 224 59 0.000000 0.000000 0.000000 0.000000 -60.708740 0.000000 77.000000 -0.100157 0.817221 -0.567555
15.60000038 -12.15999985 0.47999999 168 224 59 0.000000 0.000000 0.000000 0.000000 -60.708740 0.000000 77.000000 -0.058745 0.989446 -0.132464
15.59000015 -12.17000008 0.44999999 168 224 59 0.000000 0.000000 0.000000 0.000000 -60.708740 0.000000 77.000000 -0.377220 0.863757 -0.334109
15.59000015 -12.18999958 0.40000001 168 224 59 0.000000 0.000000 0.000000 0.000000 -60.708740 0.000000 77.000000 0.177317 0.948848 -0.261238
15.57999992 -12.18999958 0.40000001 168 224 59 0.000000 0.000000 0.000000 0.000000 -60.708740 0.000000 77.000000 0.044086 0.743772 -0.666978
15.57999992 -12.18999958 0.40000001 168 224 59 0.000000 0.000000 0.000000 0.000000 -60.708740 0.000000 77.000000 0.044086 0.743772 -0.666978
15.56000042 -12.18000031 0.41999999 168 224 59 0.000000 0.000000 0.000000 0.000000 -60.708740 0.000000 77.000000 -0.472862 0.876970 -0.085592
15.53999996 -12.18999958 0.44000000 168 224 59 0.000000 0.000000 0.000000 0.000000 -60.708740 0.000000 77.000000 0.114776 0.992866 0.032315
15.56999969 -12.18000031 0.43000001 168 224 59 0.000000 0.000000 0.000000 0.000000 -60.708740 0.000000 77.000000 -0.284852 0.946355 0.152551
15.52999973 -12.18999958 0.34999999 168 224 59 0.000000 0.000000 0.000000 0.000000 -60.708740 0.000000 77.000000 -0.020904 -0.770674 0.636886
15.57999992 -12.21000004 0.41999999 168 224 59 0.000000 0.000000 0.000000 0.000000 -60.708740 0.000000 77.000000 -0.402571 0.914695 -0.035637
15.57999992 -12.22000027 0.43000001 168 224 59 0.000000 0.000000 0.000000 0.000000 -60.708740 0.000000 77.000000 0.129536 0.974662 -0.182356
15.55000019 -12.23999977 0.31999999 168 224 59 0.000000 0.000000 0.000000 0.000000 -60.708740 0.000000 77.000000 -0.463224 0.813427 -0.351795
15.56999969 -12.31000042 0.49000001 168 224 59 0.000000 0.000000 0.000000 0.000000 -60.708740 0.000000 77.000000 -0.195603 0.855576 -0.479302
15.56999969 -12.34000015 0.49000001 168 224 59 0.000000 0.000000 0.000000 0.000000 -60.708740 0.000000 77.000000 -0.182546 0.980428 -0.073744
15.68999958 -12.34000015 0.37000000 168 224 59 0.000000 0.000000 0.000000 0.000000 -60.708740 0.000000 77.000000 -0.208983 0.763173 -0.611468
15.44999981 -12.19999981 0.34000000 168 224 59 0.000000 0.000000 0.000000 0.000000 -60.708740 0.000000 77.000000 -0.188774 0.762770 -0.618504
15.50000000 -12.18999958 0.34999999 168 224 59 0.000000 0.000000 0.000000 0.000000 -60.708740 0.000000 77.000000 -0.133738 0.833288 -0.536420
15.50000000 -12.21000004 0.33000001 168 224 59 0.000000 0.000000 0.000000 0.000000 -60.708740 0.000000 77.000000 0.018064 -0.615571 0.787875
15.48999977 -12.26000023 0.31999999 168 224 59 0.000000 0.000000 0.000000 0.000000 -60.708740 0.000000 77.000000 -0.362348 0.827545 -0.428804
15.46000004 -12.21000004 0.31999999 168 224 59 0.000000 0.000000 0.000000 0.000000 -60.708740 0.000000 77.000000 0.243795 -0.492191 0.835651
15.43000031 -12.22999954 0.31999999 168 224 59 0.000000 0.000000 0.000000 0.000000 -60.708740 0.000000 77.000000 -0.250981 0.889571 -0.381669
15.40999985 -12.23999977 0.33000001 168 224 59 0.000000 0.000000 0.000000 0.000000 -60.708740 0.000000 77.000000 0.060158 -0.524631 0.849202
15.39000034 -12.28999996 0.33000001 168 224 59 0.000000 0.000000 0.000000 0.000000 -60.708740 0.000000 77.000000 0.494876 -0.240543 0.835007
15.55000019 -12.27999973 0.30000001 168 224 59 0.000000 0.000000 0.000000 0.000000 -60.708740 0.000000 77.000000 -0.089918 0.843519 -0.529519
15.53999996 -12.27000046 0.28000000 168 224 59 0.000000 0.000000 0.000000 0.000000 -60.708740 0.000000 77.000000 0.332034 -0.490902 0.805461
15.48999977 -12.22999954 0.28999999 168 224 59 0.000000 0.000000 0.000000 0.000000 -60.708740 0.000000 77.000000 -0.115157 0.823588 -0.555375
15.48999977 -12.22999954 0.28999999 168 224 59 0.000000 0.000000 0.000000 0.000000 -60.708740 0.000000 77.000000 -0.115157 0.823588 -0.555375
15.51000023 -12.25000000 0.30000001 168 224 59 0.000000 0.000000 0.000000 0.000000 -60.708740 0.000000 77.000000 0.555944 -0.626916 0.545805
15.51000023 -12.25000000 0.31000000 168 224 59 0.000000 0.000000 0.000000 0.000000 -60.708740 0.000000 77.000000 -0.503128 0.657937 -0.560340
15.52000046 -12.26000023 0.30000001 168 224 59 0.000000 0.000000 0.000000 0.000000 -60.708740 0.000000 77.000000 0.362541 -0.618453 0.697195
15.52000046 -12.25000000 0.31000000 168 224 59 0.000000 0.000000 0.000000 0.000000 -60.708740 0.000000 77.000000 0.135853 -0.765850 0.628505
15.52000046 -12.27999973 0.31000000 168 224 59 0.000000 0.000000 0.000000 0.000000 -60.708740 0.000000 77.000000 -0.387983 0.738314 -0.551689
15.52000046 -12.25000000 0.28999999 168 224 59 0.000000 0.000000 0.000000 0.000000 -60.708740 0.000000 77.000000 0.061627 0.772486 -0.632034
15.50000000 -12.28999996 0.27000001 168 224 59 0.000000 0.000000 0.000000 0.000000 -60.708740 0.000000 77.000000 0.289782 -0.386881 0.875414
15.51000023 -12.27999973 0.27000001 168 224 59 0.000000 0.000000 0.000000 0.000000 -60.708740 0.000000 77.000000 0.057895 -0.560594 0.826064
15.44999981 -12.22999954 0.31000000 168 224 59 0.000000 0.000000 0.000000 0.000000 -60.708740 0.000000 77.000000 0.049929 -0.694720 0.717545
15.46000004 -12.22999954 0.31000000 168 224 59 0.000000 0.000000 0.000000 0.000000 -60.708740 0.000000 77.000000 0.137549 -0.412646 0.900447
15.46000004 -12.22999954 0.31000000 168 224 59 0.000000 0.000000 0.000000 0.000000 -60.708740 0.000000 77.000000 0.137549 -0.412646 0.900447
15.47999954 -12.25000000 0.28999999 168 224 59 0.000000 0.000000 0.000000 0.000000 -60.708740 0.000000 77.000000 -0.189213 0.721471 -0.666092
15.46000004 -12.27999973 0.30000001 168 224 59 0.000000 0.000000 0.000000 0.000000 -60.708740 0.000000 77.000000 -0.171795 0.773836 -0.609643
15.44999981 -12.28999996 0.28999999 168 224 59 0.000000 0.000000 0.000000 0.000000 -60.708740 0.000000 77.000000 0.598183 -0.470839 0.648450
15.47000027 -12.26000023 0.28999999 168 224 59 0.000000 0.000000 0.000000 0.000000 -60.708740 0.000000 77.000000 0.488147 -0.438839 0.754409
15.47999954 -12.25000000 0.28999999 168 224 59 0.000000 0.000000 0.000000 0.000000 -60.708740 0.000000 77.000000 -0.189213 0.721471 -0.666092
15.39000034 -12.17000008 0.28000000 168 224 59 0.000000 0.000000 0.000000 0.000000 -60.708740 0.000000 77.000000 -0.214482 0.835112 -0.506543
15.36999989 -12.18000031 0.28999999 168 224 59 0.000000 0.000000 0.000000 0.000000 -60.708740 0.000000 77.000000 -0.243537 0.837828 -0.488605
15.42000008 -12.22999954 0.28999999 168 224 59 0.000000 0.000000 0.000000 0.000000 -60.708740 0.000000 77.000000 0.351809 -0.357954 0.864927
15.42000008 -12.27000046 0.28999999 168 224 59 0.000000 0.000000 0.000000 0.000000 -60.708740 0.000000 77.000000 0.467323 -0.428244 0.773444
15.42000008 -12.27999973 0.28999999 168 224 59 0.000000 0.000000 0.000000 0.000000 -60.708740 0.000000 77.000000 -0.236878 0.748282 -0.619647
15.39999962 -12.22000027 0.31000000 168 224 59 0.000000 0.000000 0.000000 0.000000 -60.708740 0.000000 77.000000 -0.009685 0.767845 -0.640563
15.39000034 -12.25000000 0.28999999 168 224 59 0.000000 0.000000 0.000000 0.000000 -60.708740 0.000000 77.000000 -0.101836 0.847674 -0.520652
15.48999977 -12.30000019 0.27000001 168 224 59 0.000000 0.000000 0.000000 0.000000 -60.708740 0.000000 77.000000 0.250495 -0.372037 0.893779
15.48999977 -12.30000019 0.27000001 168 224 59 0.000000 0.000000 0.000000 0.000000 -60.708740 0.000000 77.000000 0.250495 -0.372037 0.893779
15.47000027 -12.31999969 0.27000001 168 224 59 0.000000 0.000000 0.000000 0.000000 -60.708740 0.000000 77.000000 0.251405 -0.640372 0.725754
15.43000031 -12.31999969 0.31000000 168 224 59 0.000000 0.000000 0.000000 0.000000 -60.708740 0.000000 77.000000 0.492817 -0.095155 0.864915
15.35000038 -12.17000008 0.34000000 168 224 59 0.000000 0.000000 0.000000 0.000000 -60.708740 0.000000 77.000000 0.065269 0.870717 -0.487435
15.35999966 -12.22000027 0.31999999 168 224 59 0.000000 0.000000 0.000000 0.000000 -60.708740 0.000000 77.000000 -0.486426 0.758300 -0.434016
15.34000015 -12.19999981 0.28000000 168 224 59 0.000000 0.000000 0.000000 0.000000 -60.708740 0.000000 77.000000 -0.056615 0.871318 -0.487441
17.22999954 -12.27999973 -0.17000000 168 224 59 0.000000 0.000000 0.000000 0.000000 -60.708740 0.000000 78.000000 0.249090 -0.194644 0.948719
17.21999931 -12.26000023 -0.20000000 168 224 59 0.000000 0.000000 0.000000 0.000000 -60.708740 0.000000 78.000000 0.497757 -0.160996 0.852243
17.22999954 -12.28999996 -0.23000000 168 224 59 0.000000 0.000000 0.000000 0.000000 -60.708740 0.000000 78.000000 0.388797 -0.475914 0.788887
17.20999908 -12.22000027 -0.20000000 168 224 59 0.000000 0.000000 0.000000 0.000000 -60.708740 0.000000 78.000000 -0.171391 0.775052 -0.608211
17.22999954 -12.35999966 -0.09000000 168 224 59 0.000000 0.000000 0.000000 0.000000 -60.708740 0.000000 78.000000 0.561924 0.407024 0.720120
17.21999931 -12.36999989 -0.08000000 168 224 59 0.000000 0.000000 0.000000 0.000000 -60.708740 0.000000 78.000000 0.126834 0.711764 0.690873
17.20999908 -12.36999989 -0.08000000 168 224 59 0.000000 0.000000 0.000000 0.000000 -60.708740 0.000000 78.000000 -0.155810 0.736693 0.658032
17.23999977 -12.35000038 -0.10000000 168 224 59 0.000000 0.000000 0.000000 0.000000 -60.708740 0.000000 78.000000 0.294673 0.430439 0.853164
17.21999931 -12.39000034 -0.09000000 168 224 59 0.000000 0.000000 0.000000 0.000000 -60.708740 0.000000 78.000000 0.059361 0.929989 0.362762
17.20000076 -12.23999977 -0.10000000 168 224 59 0.000000 0.000000 0.000000 0.000000 -60.708740 0.000000 78.000000 0.511041 -0.514392 0.688649
17.20000076 -12.27000046 -0.14000000 168 224 59 0.000000 0.000000 0.000000 0.000000 -60.708740 0.000000 78.000000 0.610803 -0.097670 0.785735
17.19000053 -12.28999996 -0.14000000 168 224 59 0.000000 0.000000 0.000000 0.000000 -60.708740 0.000000 78.000000 0.543973 0.093294 0.833900
17.12999916 -12.22000027 -0.18000001 168 224 59 0.000000 0.000000 0.000000 0.000000 -60.708740 0.000000 78.000000 0.059462 -0.479845 0.875336
17.11000061 -12.18999958 -0.18000001 168 224 59 0.000000 0.000000 0.000000 0.000000 -60.708740 0.000000 78.000000 -0.240908 0.836272 -0.492557
17.09000015 -12.17000008 -0.17000000 168 224 59 0.000000 0.000000 0.000000 0.000000 -60.708740 0.000000 78.000000 0.432801 -0.562144 0.704753
17.10000038 -12.18999958 -0.18000001 168 224 59 0.000000 0.000000 0.000000 0.000000 -60.708740 0.000000 78.000000 0.067793 0.719757 -0.690909
17.11000061 -12.21000004 -0.18000001 168 224 59 0.000000 0.000000 0.000000 0.000000 -60.708740 0.000000 78.000000 0.533643 -0.313814 0.785332
17.11000061 -12.28999996 -0.15000001 168 224 59 0.000000 0.000000 0.000000 0.000000 -60.708740 0.000000 78.000000 0.114930 0.112560 0.986976
17.12999916 -12.18999958 -0.20000000 168 224 59 0.000000 0.000000 0.000000 0.000000 -60.708740 0.000000 78.000000 0.286111 -0.224097 0.931623
17.20000076 -12.27000046 -0.22000000 168 224 59 0.000000 0.000000 0.000000 0.000000 -60.708740 0.000000 78.000000 0.091886 -0.182547 0.978894
17.20000076 -12.28999996 -0.22000000 168 224 59 0.000000 0.000000 0.000000 0.000000 -60.708740 0.000000 78.000000 0.565831 0.196744 0.800704
17.14999962 -12.26000023 -0.23000000 168 224 59 0.000000 0.000000 0.000000 0.000000 -60.708740 0.000000 78.000000 0.351311 -0.254297 0.901062
17.04999924 -12.22999954 -0.20999999 168 224 59 0.000000 0.000000 0.000000 0.000000 -60.708740 0.000000 78.000000 -0.003786 -0.354576 0.935020
17.06999969 -12.21000004 -0.19000000 168 224 59 0.000000 0.000000 0.000000 0.000000 -60.708740 0.000000 78.000000 0.290355 -0.633649 0.717066
17.19000053 -12.31000042 -0.10000000 168 224 59 0.000000 0.000000 0.000000 0.000000 -60.708740 0.000000 78.000000 0.374557 -0.267114 0.887895
17.19000053 -12.31999969 -0.10000000 168 224 59 0.000000 0.000000 0.000000 0.000000 -60.708740 0.000000 78.000000 0.161415 0.169041 0.972302
17.18000031 -12.32999992 -0.10000000 168 224 59 0.000000 0.000000 0.000000 0.000000 -60.708740 0.000000 78.000000 0.094688 0.334741 0.937541
17.20000076 -12.34000015 -0.10000000 168 224 59 0.000000 0.000000 0.000000 0.000000 -60.708740 0.000000 78.000000 0.278328 0.235943 0.931056
17.18000031 -12.35000038 -0.09000000 168 224 59 0.000000 0.000000 0.000000 0.000000 -60.708740 0.000000 78.000000 0.253050 0.030562 0.966970
17.12999916 -12.36999989 -0.10000000 168 224 59 0.000000 0.000000 0.000000 0.000000 -60.708740 0.000000 78.000000 -0.086135 0.670100 0.737256
17.17000008 -12.35999966 -0.11000000 168 224 59 0.000000 0.000000 0.000000 0.000000 -60.708740 0.000000 78.000000 -0.073125 0.354987 0.932007
17.12999916 -12.31000042 -0.12000000 168 224 59 0.000000 0.000000 0.000000 0.000000 -60.708740 0.000000 78.000000 -0.029964 -0.112087 0.993247
17.14999962 -12.31000042 -0.13000000 168 224 59 0.000000 0.000000 0.000000 0.000000 -60.708740 0.000000 78.000000 0.231608 0.326553 0.916363
17.12999916 -12.35999966 -0.11000000 168 224 59 0.000000 0.000000 0.000000 0.000000 -60.708740 0.000000 78.000000 0.152301 0.359094 0.920791
17.14999962 -12.35000038 -0.11000000 168 224 59 0.000000 0.000000 0.000000 0.000000 -60.708740 0.000000 78.000000 0.232788 -0.005908 0.972510
17.15999985 -12.35999966 -0.11000000 168 224 59 0.000000 0.000000 0.000000 0.000000 -60.708740 0.000000 78.000000 0.151302 0.582736 0.798453
17.20000076 -12.40999985 -0.07000000 168 224 59 0.000000 0.000000 0.000000 0.000000 -60.708740 0.000000 78.000000 -0.030258 0.914313 0.403876
17.18000031 -12.38000011 -0.07000000 168 224 59 0.000000 0.000000 0.000000 0.000000 -60.708740 0.000000 78.000000 0.202886 0.704680 0.679900
17.19000053 -12.43999958 -0.05000000 168 224 59 0.000000 0.000000 0.000000 0.000000 -60.708740 0.000000 78.000000 0.201444 0.978611 0.041719
17.19000053 -12.43999958 -0.03000000 168 224 59 0.000000 0.000000 0.000000 0.000000 -60.708740 0.000000 78.000000 0.167087 0.984994 0.043232
17.14999962 -12.40999985 -0.06000000 168 224 59 0.000000 0.000000 0.000000 0.000000 -60.708740 0.000000 78.000000 0.152766 0.703330 0.694255
17.14999962 -12.39000034 -0.07000000 168 224 59 0.000000 0.000000 0.000000 0.000000 -60.708740 0.000000 78.000000 0.219895 0.634734 0.740783
17.14999962 -12.39000034 -0.07000000 168 224 59 0.000000 0.000000 0.000000 0.000000 -60.708740 0.000000 78.000000 0.219895 0.634734 0.740783
17.14999962 -12.39999962 -0.07000000 168 224 59 0.000000 0.000000 0.000000 0.000000 -60.708740 0.000000 78.000000 0.247997 0.646057 0.721878
17.13999939 -12.39000034 -0.07000000 168 224 59 0.000000 0.000000 0.000000 0.000000 -60.708740 0.000000 78.000000 -0.212896 0.654229 0.725713
17.15999985 -12.44999981 -0.05000000 168 224 59 0.000000 0.000000 0.000000 0.000000 -60.708740 0.000000 78.000000 0.212896 0.725713 0.654229
17.12999916 -12.42000008 -0.04000000 168 224 59 0.000000 0.000000 0.000000 0.000000 -60.708740 0.000000 78.000000 0.220206 0.651249 0.726212
17.13999939 -12.42000008 -0.09000000 168 224 59 0.000000 0.000000 0.000000 0.000000 -60.708740 0.000000 78.000000 0.011858 0.441376 0.897244
17.13999939 -12.44999981 -0.12000000 168 224 59 0.000000 0.000000 0.000000 0.000000 -60.708740 0.000000 78.000000 -0.085828 0.632800 0.769543
17.11000061 -12.32999992 -0.14000000 168 224 59 0.000000 0.000000 0.000000 0.000000 -60.708740 0.000000 78.000000 0.431382 0.361855 0.826420
17.11000061 -12.40999985 -0.04000000 168 224 59 0.000000 0.000000 0.000000 0.000000 -60.708740 0.000000 78.000000 0.120972 0.976504 0.178340
17.12000084 -12.39000034 -0.08000000 168 224 59 0.000000 0.000000 0.000000 0.000000 -60.708740 0.000000 78.000000 -0.025810 0.868038 0.495827
17.11000061 -12.39999962 -0.07000000 168 224 59 0.000000 0.000000 0.000000 0.000000 -60.708740 0.000000 78.000000 0.303570 0.615172 0.727605
17.09000015 -12.43000031 -0.05000000 168 224 59 0.000000 0.000000 0.000000 0.000000 -60.708740 0.000000 78.000000 0.079343 0.794874 0.601565
17.10000038 -12.43000031 -0.08000000 168 224 59 0.000000 0.000000 0.000000 0.000000 -60.708740 0.000000 78.000000 0.329202 0.823792 0.461512
17.11000061 -12.43999958 -0.08000000 168 224 59 0.000000 0.000000 0.000000 0.000000 -60.708740 0.000000 78.000000 -0.055685 0.649664 0.758179
17.07999992 -12.40999985 -0.04000000 168 224 59 0.000000 0.000000 0.000000 0.000000 -60.708740 0.000000 78.000000 0.073625 0.757909 0.648193
17.06999969 -12.43999958 -0.04000000 168 224 59 0.000000 0.000000 0.000000 0.000000 -60.708740 0.000000 78.000000 -0.098475 0.662866 0.742234
17.04999924 -12.44999981 -0.03000000 168 224 59 0.000000 0.000000 0.000000 0.000000 -60.708740 0.000000 78.000000 -0.300449 0.835963 0.459235
17.06999969 -12.43999958 -0.04000000 168 224 59 0.000000 0.000000 0.000000 0.000000 -60.708740 0.000000 78.000000 -0.098475 0.662866 0.742234
17.05999947 -12.43999958 -0.08000000 168 224 59 0.000000 0.000000 0.000000 0.000000 -60.708740 0.000000 78.000000 -0.126120 0.621695 0.773039
17.09000015 -12.39000034 -0.12000000 168 224 59 0.000000 0.000000 0.000000 0.000000 -60.708740 0.000000 78.000000 -0.001235 0.312519 0.949911
17.07999992 -12.39999962 -0.15000001 168 224 59 0.000000 0.000000 0.000000 0.000000 -60.708740 0.000000 78.000000 0.145472 0.509887 0.847852
17.06999969 -12.43000031 -0.14000000 168 224 59 0.000000 0.000000 0.000000 0.000000 -60.708740 0.000000 78.000000 0.433393 0.709037 0.556270
17.05999947 -12.44999981 -0.14000000 168 224 59 0.000000 0.000000 0.000000 0.000000 -60.708740 0.000000 78.000000 -0.127443 0.537606 0.833509
17.06999969 -12.43999958 -0.14000000 168 224 59 0.000000 0.000000 0.000000 0.000000 -60.708740 0.000000 78.000000 -0.166681 0.427573 0.888481
17.05999947 -12.43999958 -0.15000001 168 224 59 0.000000 0.000000 0.000000 0.000000 -60.708740 0.000000 78.000000 -0.156339 0.681516 0.714909
17.04999924 -12.35999966 -0.23000000 168 224 59 0.000000 0.000000 0.000000 0.000000 -60.708740 0.000000 78.000000 0.356385 0.359471 0.862421
17.06999969 -12.39999962 -0.22000000 168 224 59 0.000000 0.000000 0.000000 0.000000 -60.708740 0.000000 78.000000 0.117248 0.651543 0.749497
17.04999924 -12.27999973 -0.41999999 168 224 59 0.000000 0.000000 0.000000 0.000000 -60.708740 0.000000 78.000000 0.264117 -0.252818 0.930766
17.10000038 -12.32999992 -0.38000000 168 224 59 0.000000 0.000000 0.000000 0.000000 -60.708740 0.000000 78.000000 0.029605 0.351393 0.935760
17.20999908 -12.47000027 -0.04000000 168 224 59 0.000000 0.000000 0.000000 0.000000 -60.708740 0.000000 78.000000 -0.003086 0.998724 -0.050399
17.21999931 -12.47000027 -0.06000000 168 224 59 0.000000 0.000000 0.000000 0.000000 -60.708740 0.000000 78.000000 -0.301346 0.952354 0.047046
17.21999931 -12.47000027 -0.05000000 168 224 59 0.000000 0.000000 0.000000 0.000000 -60.708740 0.000000 78.000000 -0.331128 0.941033 0.069367
17.14999962 -12.50000000 -0.03000000 168 224 59 0.000000 0.000000 0.000000 0.000000 -60.708740 0.000000 78.000000 -0.091145 0.944470 0.315704
17.15999985 -12.47999954 -0.06000000 168 224 59 0.000000 0.000000 0.000000 0.000000 -60.708740 0.000000 78.000000 0.282788 0.863649 0.417303
17.13999939 -12.51000023 -0.07000000 168 224 59 0.000000 0.000000 0.000000 0.000000 -60.708740 0.000000 78.000000 0.385894 0.824193 0.414478
17.15999985 -12.51000023 -0.08000000 168 224 59 0.000000 0.000000 0.000000 0.000000 -60.708740 0.000000 78.000000 -0.196484 0.895096 0.400246
17.11000061 -12.46000004 -0.10000000 168 224 59 0.000000 0.000000 0.000000 0.000000 -60.708740 0.000000 78.000000 0.017310 0.890804 0.454057
17.10000038 -12.52000046 -0.06000000 168 224 59 0.000000 0.000000 0.000000 0.000000 -60.708740 0.000000 78.000000 -0.205991 0.941475 0.266820
17.11000061 -12.53999996 -0.03000000 168 224 59 0.000000 0.000000 0.000000 0.000000 -60.708740 0.000000 78.000000 -0.332808 0.911227 0.242703
17.10000038 -12.52000046 -0.07000000 168 224 59 0.000000 0.000000 0.000000 0.000000 -60.708740 0.000000 78.000000 -0.309482 0.870513 0.382660
17.09000015 -12.52000046 -0.08000000 168 224 59 0.000000 0.000000 0.000000 0.000000 -60.708740 0.000000 78.000000 -0.255848 0.783242 0.566634
17.04999924 -12.48999977 -0.05000000 168 224 59 0.000000 0.000000 0.000000 0.000000 -60.708740 0.000000 78.000000 0.159609 0.718999 0.676436
17.05999947 -12.53999996 -0.04000000 168 224 59 0.000000 0.000000 0.000000 0.000000 -60.708740 0.000000 78.000000 0.355166 0.785866 0.506233
17.05999947 -12.53999996 -0.06000000 168 224 59 0.000000 0.000000 0.000000 0.000000 -60.708740 0.000000 78.000000 0.062843 0.972215 0.225495
17.06999969 -12.52999973 -0.05000000 168 224 59 0.000000 0.000000 0.000000 0.000000 -60.708740 0.000000 78.000000 0.070255 0.956751 0.282299
17.01000023 -12.39000034 -0.09000000 168 224 59 0.000000 0.000000 0.000000 0.000000 -60.708740 0.000000 78.000000 -0.059383 0.481969 0.874174
17.01000023 -12.44999981 -0.09000000 168 224 59 0.000000 0.000000 0.000000 0.000000 -60.708740 0.000000 78.000000 -0.078711 0.571011 0.817161
16.98999977 -12.39999962 -0.08000000 168 224 59 0.000000 0.000000 0.000000 0.000000 -60.708740 0.000000 78.000000 0.611546 0.467456 0.638354
16.98999977 -12.44999981 -0.06000000 168 224 59 0.000000 0.000000 0.000000 0.000000 -60.708740 0.000000 78.000000 0.452188 0.511817 0.730458
16.97999954 -12.44999981 -0.05000000 168 224 59 0.000000 0.000000 0.000000 0.000000 -60.708740 0.000000 78.000000 0.355166 0.785866 0.506233
16.98999977 -12.43000031 -0.09000000 168 224 59 0.000000 0.000000 0.000000 0.000000 -60.708740 0.000000 78.000000 0.218345 0.426293 0.877838
17.00000000 -12.43999958 -0.16000000 168 224 59 0.000000 0.000000 0.000000 0.000000 -60.708740 0.000000 78.000000 0.265033 0.356833 0.895783
17.03000069 -12.42000008 -0.18000001 168 224 59 0.000000 0.000000 0.000000 0.000000 -60.708740 0.000000 78.000000 0.192789 0.735681 0.649312
16.89999962 -12.40999985 -0.18000001 168 224 59 0.000000 0.000000 0.000000 0.000000 -60.708740 0.000000 78.000000 -0.129060 0.327406 0.936028
16.98999977 -12.36999989 -0.31999999 168 224 59 0.000000 0.000000 0.000000 0.000000 -60.708740 0.000000 78.000000 -0.046698 0.291547 0.955416
17.04000092 -12.39000034 -0.19000000 168 224 59 0.000000 0.000000 0.000000 0.000000 -60.708740 0.000000 78.000000 -0.061197 0.433820 0.898919
17.02000046 -12.39000034 -0.19000000 168 224 59 0.000000 0.000000 0.000000 0.000000 -60.708740 0.000000 78.000000 0.401370 0.274143 0.873927
16.96999931 -12.39000034 -0.30000001 168 224 59 0.000000 0.000000 0.000000 0.000000 -60.708740 0.000000 78.000000 -0.091213 0.265932 0.959667
16.97999954 -12.39999962 -0.30000001 168 224 59 0.000000 0.000000 0.000000 0.000000 -60.708740 0.000000 78.000000 0.235209 0.297932 0.925156
16.92000008 -12.35999966 -0.34999999 168 224 59 0.000000 0.000000 0.000000 0.000000 -60.708740 0.000000 78.000000 0.371498 0.287272 0.882872
16.89999962 -12.35999966 -0.30000001 168 224 59 0.000000 0.000000 0.000000 0.000000 -60.708740 0.000000 78.000000 0.425303 -0.258814 0.867256
16.89999962 -12.35999966 -0.33000001 168 224 59 0.000000 0.000000 0.000000 0.000000 -60.708740 0.000000 78.000000 0.470067 0.414765 0.779107
16.92000008 -12.38000011 -0.19000000 168 224 59 0.000000 0.000000 0.000000 0.000000 -60.708740 0.000000 78.000000 0.193525 0.559241 0.806100
16.95000076 -12.43999958 -0.19000000 168 224 59 0.000000 0.000000 0.000000 0.000000 -60.708740 0.000000 78.000000 -0.164885 0.405761 0.898983
16.81999969 -12.43999958 -0.17000000 168 224 59 0.000000 0.000000 0.000000 0.000000 -60.708740 0.000000 78.000000 0.603129 0.242818 0.759786
16.80999947 -12.44999981 -0.17000000 168 224 59 0.000000 0.000000 0.000000 0.000000 -60.708740 0.000000 78.000000 0.203949 0.406432 0.890628
16.78000069 -12.44999981 -0.15000001 168 224 59 0.000000 0.000000 0.000000 0.000000 -60.708740 0.000000 78.000000 0.567909 0.234943 0.788848
16.71999931 -12.43000031 -0.14000000 168 224 59 0.000000 0.000000 0.000000 0.000000 -60.708740 0.000000 78.000000 0.316250 0.176933 0.932031
16.70999908 -12.44999981 -0.15000001 168 224 59 0.000000 0.000000 0.000000 0.000000 -60.708740 0.000000 78.000000 0.568504 0.183437 0.801969
16.72999954 -12.43000031 -0.18000001 168 224 59 0.000000 0.000000 0.000000 0.000000 -60.708740 0.000000 78.000000 0.317678 0.588591 0.743398
16.73999977 -12.44999981 -0.17000000 168 224 59 0.000000 0.000000 0.000000 0.000000 -60.708740 0.000000 78.000000 0.311034 0.451702 0.836196
16.70999908 -12.44999981 -0.15000001 168 224 59 0.000000 0.000000 0.000000 0.000000 -60.708740 0.000000 78.000000 0.568504 0.183437 0.801969
16.87000084 -12.34000015 -0.34000000 168 224 59 0.000000 0.000000 0.000000 0.000000 -60.708740 0.000000 78.000000 0.569836 -0.049245 0.820282
16.87000084 -12.35000038 -0.34000000 168 224 59 0.000000 0.000000 0.000000 0.000000 -60.708740 0.000000 78.000000 -0.108740 0.160055 0.981100
16.84000015 -12.43999958 -0.20000000 168 224 59 0.000000 0.000000 0.000000 0.000000 -60.708740 0.000000 78.000000 0.573859 0.270330 0.773050
16.79000092 -12.40999985 -0.25000000 168 224 59 0.000000 0.000000 0.000000 0.000000 -60.708740 0.000000 78.000000 0.237633 0.382279 0.892969
16.82999992 -12.38000011 -0.25999999 168 224 59 0.000000 0.000000 0.000000 0.000000 -60.708740 0.000000 78.000000 0.417678 0.146829 0.896653
16.73999977 -12.40999985 -0.20999999 168 224 59 0.000000 0.000000 0.000000 0.000000 -60.708740 0.000000 78.000000 0.307409 0.122158 0.943704
16.70999908 -12.42000008 -0.19000000 168 224 59 0.000000 0.000000 0.000000 0.000000 -60.708740 0.000000 78.000000 0.348269 0.549131 0.759713
17.00000000 -12.22999954 -0.37000000 168 224 59 0.000000 0.000000 0.000000 0.000000 -60.708740 0.000000 78.000000 0.240529 -0.342572 0.908180
16.97999954 -12.28999996 -0.38000000 168 224 59 0.000000 0.000000 0.000000 0.000000 -60.708740 0.000000 78.000000 0.296477 0.332233 0.895390
16.94000053 -12.25000000 -0.41999999 168 224 59 0.000000 0.000000 0.000000 0.000000 -60.708740 0.000000 78.000000 0.021682 0.158621 0.987101
17.02000046 -12.30000019 -0.38999999 168 224 59 0.000000 0.000000 0.000000 0.000000 -60.708740 0.000000 78.000000 0.379509 0.117303 0.917722
17.04000092 -12.30000019 -0.38999999 168 224 59 0.000000 0.000000 0.000000 0.000000 -60.708740 0.000000 78.000000 0.464687 0.022766 0.885182
16.96999931 -12.31000042 -0.38000000 168 224 59 0.000000 0.000000 0.000000 0.000000 -60.708740 0.000000 78.000000 0.116354 0.357275 0.926724
16.97999954 -12.30000019 -0.38999999 168 224 59 0.000000 0.000000 0.000000 0.000000 -60.708740 0.000000 78.000000 0.333574 0.200145 0.921233
16.98999977 -12.32999992 -0.38000000 168 224 59 0.000000 0.000000 0.000000 0.000000 -60.708740 0.000000 78.000000 0.475394 0.143927 0.867921
16.96999931 -12.31999969 -0.37000000 168 224 59 0.000000 0.000000 0.000000 0.000000 -60.708740 0.000000 78.000000 0.196766 0.403736 0.893466
16.98999977 -12.31000042 -0.38000000 168 224 59 0.000000 0.000000 0.000000 0.000000 -60.708740 0.000000 78.000000 0.226501 0.150564 0.962303
16.97999954 -12.30000019 -0.38000000 168 224 59 0.000000 0.000000 0.000000 0.000000 -60.708740 0.000000 78.000000 0.327227 0.156020 0.931976
16.98999977 -12.32999992 -0.38000000 168 224 59 0.000000 0.000000 0.000000 0.000000 -60.708740 0.000000 78.000000 0.475394 0.143927 0.867921
16.96999931 -12.34000015 -0.37000000 168 224 59 0.000000 0.000000 0.000000 0.000000 -60.708740 0.000000 78.000000 0.058646 -0.127642 0.990085
16.95000076 -12.32999992 -0.37000000 168 224 59 0.000000 0.000000 0.000000 0.000000 -60.708740 0.000000 78.000000 0.250103 -0.045585 0.967146
16.95000076 -12.31999969 -0.40000001 168 224 59 0.000000 0.000000 0.000000 0.000000 -60.708740 0.000000 78.000000 -0.083238 -0.127788 0.988302
16.95000076 -12.34000015 -0.37000000 168 224 59 0.000000 0.000000 0.000000 0.000000 -60.708740 0.000000 78.000000 0.388969 -0.082673 0.917534
16.90999985 -12.32999992 -0.37000000 168 224 59 0.000000 0.000000 0.000000 0.000000 -60.708740 0.000000 78.000000 0.360444 0.128434 0.923897
16.70000076 -12.40999985 -0.14000000 168 224 59 0.000000 0.000000 0.000000 0.000000 -60.708740 0.000000 78.000000 0.635981 0.213030 0.741719
16.68000031 -12.39999962 -0.17000000 168 224 59 0.000000 0.000000 0.000000 0.000000 -60.708740 0.000000 78.000000 0.501579 -0.051125 0.863600
16.70000076 -12.44999981 -0.17000000 168 224 59 0.000000 0.000000 0.000000 0.000000 -60.708740 0.000000 78.000000 0.339260 0.112186 0.933979
16.63999939 -12.39000034 -0.13000000 168 224 59 0.000000 0.000000 0.000000 0.000000 -60.708740 0.000000 78.000000 0.300340 -0.118801 0.946405
16.65999985 -12.44999981 -0.13000000 168 224 59 0.000000 0.000000 0.000000 0.000000 -60.708740 0.000000 78.000000 0.347223 0.598267 0.722159
16.63999939 -12.44999981 -0.17000000 168 224 59 0.000000 0.000000 0.000000 0.000000 -60.708740 0.000000 78.000000 -0.058684 0.185634 0.980865
16.65999985 -12.44999981 -0.17000000 168 224 59 0.000000 0.000000 0.000000 0.000000 -60.708740 0.000000 78.000000 -0.084679 0.442829 0.892599
16.59000015 -12.43999958 -0.08000000 168 224 59 0.000000 0.000000 0.000000 0.000000 -60.708740 0.000000 78.000000 0.506441 0.145327 0.849940
16.57999992 -12.43999958 -0.08000000 168 224 59 0.000000 0.000000 0.000000 0.000000 -60.708740 0.000000 78.000000 0.358161 0.271964 0.893172
16.59000015 -12.39000034 -0.10000000 168 224 59 0.000000 0.000000 0.000000 0.000000 -60.708740 0.000000 78.000000 0.196055 0.190792 0.961853
16.61000061 -12.39000034 -0.11000000 168 224 59 0.000000 0.000000 0.000000 0.000000 -60.708740 0.000000 78.000000 0.218839 -0.072946 0.973030
16.61000061 -12.39999962 -0.15000001 168 224 59 0.000000 0.000000 0.000000 0.000000 -60.708740 0.000000 78.000000 0.215359 0.529997 0.820197
16.61000061 -12.42000008 -0.12000000 168 224 59 0.000000 0.000000 0.000000 0.000000 -60.708740 0.000000 78.000000 0.477616 0.028413 0.878109
16.61000061 -12.43000031 -0.15000001 168 224 59 0.000000 0.000000 0.000000 0.000000 -60.708740 0.000000 78.000000 0.423257 -0.098529 0.900636
16.54999924 -12.40999985 -0.13000000 168 224 59 0.000000 0.000000 0.000000 0.000000 -60.708740 0.000000 78.000000 0.344851 0.335736 0.876561
16.55999947 -12.39000034 -0.15000001 168 224 59 0.000000 0.000000 0.000000 0.000000 -60.708740 0.000000 78.000000 0.592312 -0.001368 0.805708
16.54000092 -12.43999958 -0.13000000 168 224 59 0.000000 0.000000 0.000000 0.000000 -60.708740 0.000000 78.000000 0.262892 0.091051 0.960519
16.54999924 -12.43000031 -0.14000000 168 224 59 0.000000 0.000000 0.000000 0.000000 -60.708740 0.000000 78.000000 0.194151 -0.173302 0.965542
16.54000092 -12.43999958 -0.17000000 168 224 59 0.000000 0.000000 0.000000 0.000000 -60.708740 0.000000 78.000000 0.499100 0.420553 0.757650
16.67000008 -12.36999989 -0.20000000 168 224 59 0.000000 0.000000 0.000000 0.000000 -60.708740 0.000000 78.000000 0.402332 -0.016927 0.915337
16.70000076 -12.43000031 -0.22000000 168 224 59 0.000000 0.000000 0.000000 0.000000 -60.708740 0.000000 78.000000 0.215667 -0.123785 0.968589
16.68000031 -12.43000031 -0.22000000 168 224 59 0.000000 0.000000 0.000000 0.000000 -60.708740 0.000000 78.000000 0.141279 0.192191 0.971135
16.70000076 -12.42000008 -0.22000000 168 224 59 0.000000 0.000000 0.000000 0.000000 -60.708740 0.000000 78.000000 0.088162 0.167870 0.981859
16.70000076 -12.43000031 -0.22000000 168 224 59 0.000000 0.000000 0.000000 0.000000 -60.708740 0.000000 78.000000 0.215667 -0.123785 0.968589
16.70000076 -12.43000031 -0.22000000 168 224 59 0.000000 0.000000 0.000000 0.000000 -60.708740 0.000000 78.000000 0.215667 -0.123785 0.968589
16.62999916 -12.39000034 -0.19000000 168 224 59 0.000000 0.000000 0.000000 0.000000 -60.708740 0.000000 78.000000 0.046997 -0.138697 0.989219
16.54999924 -12.36999989 -0.23000000 168 224 59 0.000000 0.000000 0.000000 0.000000 -60.708740 0.000000 78.000000 0.398427 0.260105 0.879546
16.60000038 -12.39000034 -0.22000000 168 224 59 0.000000 0.000000 0.000000 0.000000 -60.708740 0.000000 78.000000 0.081965 0.297938 0.951060
16.62000084 -12.39000034 -0.23000000 168 224 59 0.000000 0.000000 0.000000 0.000000 -60.708740 0.000000 78.000000 0.382496 0.207973 0.900247
16.57999992 -12.43999958 -0.19000000 168 224 59 0.000000 0.000000 0.000000 0.000000 -60.708740 0.000000 78.000000 0.626989 0.168513 0.760584
16.60000038 -12.42000008 -0.20999999 168 224 59 0.000000 0.000000 0.000000 0.000000 -60.708740 0.000000 78.000000 0.467737 0.362376 0.806167
16.60000038 -12.43000031 -0.20000000 168 224 59 0.000000 0.000000 0.000000 0.000000 -60.708740 0.000000 78.000000 0.159309 -0.124730 0.979318
16.55999947 -12.39999962 -0.22000000 168 224 59 0.000000 0.000000 0.000000 0.000000 -60.708740 0.000000 78.000000 0.309624 0.161005 0.937129
16.54999924 -12.39999962 -0.22000000 168 224 59 0.000000 0.000000 0.000000 0.000000 -60.708740 0.000000 78.000000 0.264142 0.139371 0.954361
16.56999969 -12.44999981 -0.23000000 168 224 59 0.000000 0.000000 0.000000 0.000000 -60.708740 0.000000 78.000000 0.328833 0.425457 0.843122
16.56999969 -12.44999981 -0.23000000 168 224 59 0.000000 0.000000 0.000000 0.000000 -60.708740 0.000000 78.000000 0.328833 0.425457 0.843122
16.51000023 -12.44999981 -0.07000000 168 224 59 0.000000 0.000000 0.000000 0.000000 -60.708740 0.000000 78.000000 0.328811 0.108709 0.938118
16.47999954 -12.39000034 -0.05000000 168 224 59 0.000000 0.000000 0.000000 0.000000 -60.708740 0.000000 78.000000 0.342521 0.148380 0.927719
16.46999931 -12.38000011 -0.04000000 168 224 59 0.000000 0.000000 0.000000 0.000000 -60.708740 0.000000 78.000000 0.532001 -0.102363 0.840533
16.50000000 -12.44999981 -0.07000000 168 224 59 0.000000 0.000000 0.000000 0.000000 -60.708740 0.000000 78.000000 0.510598 0.359190 0.781199
16.51000023 -12.43000031 -0.18000001 168 224 59 0.000000 0.000000 0.000000 0.000000 -60.708740 0.000000 78.000000 0.109685 0.480050 0.870357
16.42000008 -12.39999962 -0.03000000 168 224 59 0.000000 0.000000 0.000000 0.000000 -60.708740 0.000000 78.000000 0.353213 0.104205 0.929721
16.37999916 -12.40999985 -0.03000000 168 224 59 0.000000 0.000000 0.000000 0.000000 -60.708740 0.000000 78.000000 0.350904 -0.084057 0.932631
16.45000076 -12.38000011 -0.04000000 168 224 59 0.000000 0.000000 0.000000 0.000000 -60.708740 0.000000 78.000000 0.358109 0.062107 0.931612
16.45000076 -12.38000011 -0.03000000 168 224 59 0.000000 0.000000 0.000000 0.000000 -60.708740 0.000000 78.000000 0.109414 0.341751 0.933399
16.37000084 -12.42000008 -0.18000001 168 224 59 0.000000 0.000000 0.000000 0.000000 -60.708740 0.000000 78.000000 -0.021328 0.312390 0.949715
16.52000046 -12.36999989 -0.22000000 168 224 59 0.000000 0.000000 0.000000 0.000000 -60.708740 0.000000 78.000000 0.063837 0.254097 0.965070
16.52000046 -12.35999966 -0.22000000 168 224 59 0.000000 0.000000 0.000000 0.000000 -60.708740 0.000000 78.000000 0.146688 0.066890 0.986919
17.02000046 -12.47000027 -0.06000000 168 224 59 0.000000 0.000000 0.000000 0.000000 -60.708740 0.000000 78.000000 0.126376 0.637826 0.759741
17.00000000 -12.50000000 -0.07000000 168 224 59 0.000000 0.000000 0.000000 0.000000 -60.708740 0.000000 78.000000 -0.083996 0.841383 0.533872
17.04000092 -12.47999954 -0.10000000 168 224 59 0.000000 0.000000 0.000000 0.000000 -60.708740 0.000000 78.000000 0.420239 0.616239 0.666070
17.04000092 -12.48999977 -0.09000000 168 224 59 0.000000 0.000000 0.000000 0.000000 -60.708740 0.000000 78.000000 0.289268 0.914319 0.283453
17.04000092 -12.51000023 -0.03000000 168 224 59 0.000000 0.000000 0.000000 0.000000 -60.708740 0.000000 78.000000 0.036327 0.955769 0.291867
17.04000092 -12.51000023 -0.03000000 168 224 59 0.000000 0.000000 0.000000 0.000000 -60.708740 0.000000 78.000000 0.036327 0.955769 0.291867
16.96999931 -12.53999996 -0.06000000 168 224 59 0.000000 0.000000 0.000000 0.000000 -60.708740 0.000000 78.000000 -0.323418 0.798189 0.508228
16.98999977 -12.46000004 -0.13000000 168 224 59 0.000000 0.000000 0.000000 0.000000 -60.708740 0.000000 78.000000 -0.185952 0.483475 0.855379
16.97999954 -12.60999966 -0.05000000 168 224 59 0.000000 0.000000 0.000000 0.000000 -60.708740 0.000000 78.000000 0.123691 0.845468 0.519504
16.88999939 -12.47999954 -0.16000000 168 224 59 0.000000 0.000000 0.000000 0.000000 -60.708740 0.000000 78.000000 -0.114007 0.670715 0.732901
16.90999985 -12.47000027 -0.16000000 168 224 59 0.000000 0.000000 0.000000 0.000000 -60.708740 0.000000 78.000000 -0.122095 0.581056 0.804653
16.88999939 -12.46000004 -0.18000001 168 224 59 0.000000 0.000000 0.000000 0.000000 -60.708740 0.000000 78.000000 -0.100048 0.226690 0.968815
16.92000008 -12.57999992 -0.05000000 168 224 59 0.000000 0.000000 0.000000 0.000000 -60.708740 0.000000 78.000000 -0.162356 0.757157 0.632735
16.92000008 -12.57999992 -0.05000000 168 224 59 0.000000 0.000000 0.000000 0.000000 -60.708740 0.000000 78.000000 -0.162356 0.757157 0.632735
16.90999985 -12.56999969 -0.06000000 168 224 59 0.000000 0.000000 0.000000 0.000000 -60.708740 0.000000 78.000000 -0.139875 0.666285 0.732462
16.94000053 -12.64000034 -0.03000000 168 224 59 0.000000 0.000000 0.000000 0.000000 -60.708740 0.000000 78.000000 0.039748 0.942411 0.332088
16.93000031 -12.68000031 -0.04000000 168 224 59 0.000000 0.000000 0.000000 0.000000 -60.708740 0.000000 78.000000 -0.310946 0.935602 0.167220
16.94000053 -12.64000034 -0.04000000 168 224 59 0.000000 0.000000 0.000000 0.000000 -60.708740 0.000000 78.000000 -0.019128 0.937254 0.348123
16.79000092 -12.53999996 -0.08000000 168 224 59 0.000000 0.000000 0.000000 0.000000 -60.708740 0.000000 78.000000 -0.133432 0.730127 0.670157
16.79999924 -12.48999977 -0.08000000 168 224 59 0.000000 0.000000 0.000000 0.000000 -60.708740 0.000000 78.000000 0.309854 0.756173 0.576361
16.85000038 -12.47000027 -0.15000001 168 224 59 0.000000 0.000000 0.000000 0.000000 -60.708740 0.000000 78.000000 0.055593 0.620072 0.782573
16.82999992 -12.46000004 -0.18000001 168 224 59 0.000000 0.000000 0.000000 0.000000 -60.708740 0.000000 78.000000 0.492036 0.505380 0.708866
16.79999924 -12.46000004 -0.17000000 168 224 59 0.000000 0.000000 0.000000 0.000000 -60.708740 0.000000 78.000000 0.483993 0.561030 0.671562
16.79999924 -12.51000023 -0.13000000 168 224 59 0.000000 0.000000 0.000000 0.000000 -60.708740 0.000000 78.000000 0.566643 0.414657 0.712021
16.79000092 -12.53999996 -0.11000000 168 224 59 0.000000 0.000000 0.000000 0.000000 -60.708740 0.000000 78.000000 -0.070088 0.596463 0.799575
16.79000092 -12.56000042 -0.06000000 168 224 59 0.000000 0.000000 0.000000 0.000000 -60.708740 0.000000 78.000000 0.309747 0.819179 0.482703
16.82999992 -12.59000015 -0.05000000 168 224 59 0.000000 0.000000 0.000000 0.000000 -60.708740 0.000000 78.000000 0.162521 0.724510 0.669830
16.82999992 -12.55000019 -0.11000000 168 224 59 0.000000 0.000000 0.000000 0.000000 -60.708740 0.000000 78.000000 0.024913 0.405161 0.913906
16.75000000 -12.46000004 -0.08000000 168 224 59 0.000000 0.000000 0.000000 0.000000 -60.708740 0.000000 78.000000 0.230179 0.656090 0.718724
16.78000069 -12.53999996 -0.05000000 168 224 59 0.000000 0.000000 0.000000 0.000000 -60.708740 0.000000 78.000000 -0.195677 0.817595 0.541524
16.77000046 -12.52999973 -0.10000000 168 224 59 0.000000 0.000000 0.000000 0.000000 -60.708740 0.000000 78.000000 0.031915 0.828410 0.559212
16.70999908 -12.47999954 -0.08000000 168 224 59 0.000000 0.000000 0.000000 0.000000 -60.708740 0.000000 78.000000 -0.019041 0.338928 0.940620
16.77000046 -12.48999977 -0.14000000 168 224 59 0.000000 0.000000 0.000000 0.000000 -60.708740 0.000000 78.000000 0.348559 0.666027 0.659481
16.76000023 -12.47000027 -0.12000000 168 224 59 0.000000 0.000000 0.000000 0.000000 -60.708740 0.000000 78.000000 0.347694 0.083926 0.933844
16.76000023 -12.47999954 -0.14000000 168 224 59 0.000000 0.000000 0.000000 0.000000 -60.708740 0.000000 78.000000 0.559189 0.586220 0.586220
