//X Y Z R G B PointSourceId ScanDirectionFlag NumberOfReturns ReturnNumber GpsTime Intensity Classification Nx Ny Nz
8.82999992 -9.27000046 -0.81999999 180 198 66 0.000000 0.000000 0.000000 0.000000 -60.708740 0.000000 235.000000 -0.329269 0.844238 0.422899
8.85000038 -9.34000015 -0.81000000 180 198 66 0.000000 0.000000 0.000000 0.000000 -60.708740 0.000000 235.000000 -0.442468 0.843018 0.305846
8.84000015 -9.31999969 -0.77999997 180 198 66 0.000000 0.000000 0.000000 0.000000 -60.708740 0.000000 235.000000 -0.495607 0.730980 0.469087
8.82999992 -9.31999969 -0.83999997 180 198 66 0.000000 0.000000 0.000000 0.000000 -60.708740 0.000000 235.000000 -0.512517 0.657030 0.552846
8.86999989 -9.35999966 -0.73000002 180 198 66 0.000000 0.000000 0.000000 0.000000 -60.708740 0.000000 235.000000 -0.286469 0.897999 0.333966
8.85999966 -9.35999966 -0.72000003 180 198 66 0.000000 0.000000 0.000000 0.000000 -60.708740 0.000000 235.000000 -0.583701 0.769352 0.259597
8.86999989 -9.42000008 -0.73000002 180 198 66 0.000000 0.000000 0.000000 0.000000 -60.708740 0.000000 235.000000 -0.455419 0.768825 0.448889
8.84000015 -9.38000011 -0.72000003 180 198 66 0.000000 0.000000 0.000000 0.000000 -60.708740 0.000000 235.000000 0.704168 -0.551016 -0.447804
8.84000015 -9.36999989 -0.70999998 180 198 66 0.000000 0.000000 0.000000 0.000000 -60.708740 0.000000 235.000000 -0.262726 0.913008 0.312077
8.82999992 -9.39000034 -0.70999998 180 198 66 0.000000 0.000000 0.000000 0.000000 -60.708740 0.000000 235.000000 0.762424 -0.545514 -0.348028
8.88000011 -9.40999985 -0.79000002 180 198 66 0.000000 0.000000 0.000000 0.000000 -60.708740 0.000000 235.000000 -0.389718 0.806700 0.444246
8.77999973 -9.14999962 -0.73000002 180 198 66 0.000000 0.000000 0.000000 0.000000 -60.708740 0.000000 235.000000 0.552004 -0.612775 -0.565508
8.76000023 -9.14999962 -0.75000000 180 198 66 0.000000 0.000000 0.000000 0.000000 -60.708740 0.000000 235.000000 -0.467071 0.808208 0.358672
8.78999996 -9.14000034 -0.75000000 180 198 66 0.000000 0.000000 0.000000 0.000000 -60.708740 0.000000 235.000000 -0.254917 0.954271 0.156153
8.77000046 -9.15999985 -0.74000001 180 198 66 0.000000 0.000000 0.000000 0.000000 -60.708740 0.000000 235.000000 0.433862 -0.583470 -0.686533
8.80000019 -9.14000034 -0.72000003 180 198 66 0.000000 0.000000 0.000000 0.000000 -60.708740 0.000000 235.000000 -0.506723 0.624566 0.594263
8.77999973 -9.14000034 -0.75999999 180 198 66 0.000000 0.000000 0.000000 0.000000 -60.708740 0.000000 235.000000 -0.387870 0.913372 0.123729
8.77000046 -9.17000008 -0.70999998 180 198 66 0.000000 0.000000 0.000000 0.000000 -60.708740 0.000000 235.000000 0.197226 -0.799605 -0.567215
8.75000000 -9.18999958 -0.70999998 180 198 66 0.000000 0.000000 0.000000 0.000000 -60.708740 0.000000 235.000000 -0.625206 0.776068 0.082684
8.73999977 -9.23999977 -0.70999998 180 198 66 0.000000 0.000000 0.000000 0.000000 -60.708740 0.000000 235.000000 -0.518224 0.852472 0.068816
8.73999977 -9.23999977 -0.70999998 180 198 66 0.000000 0.000000 0.000000 0.000000 -60.708740 0.000000 235.000000 -0.518224 0.852472 0.068816
8.77000046 -9.26000023 -0.74000001 180 198 66 0.000000 0.000000 0.000000 0.000000 -60.708740 0.000000 235.000000 0.552266 -0.491836 -0.673127
8.77000046 -9.26000023 -0.74000001 180 198 66 0.000000 0.000000 0.000000 0.000000 -60.708740 0.000000 235.000000 0.552266 -0.491836 -0.673127
8.77999973 -9.26000023 -0.81000000 180 198 66 0.000000 0.000000 0.000000 0.000000 -60.708740 0.000000 235.000000 -0.626821 0.731555 0.268184
8.77999973 -9.25000000 -0.81999999 180 198 66 0.000000 0.000000 0.000000 0.000000 -60.708740 0.000000 235.000000 -0.328248 0.786194 0.523596
8.69999981 -9.26000023 -0.72000003 180 198 66 0.000000 0.000000 0.000000 0.000000 -60.708740 0.000000 235.000000 0.628771 -0.428632 -0.648785
8.77999973 -9.27999973 -0.75999999 180 198 66 0.000000 0.000000 0.000000 0.000000 -60.708740 0.000000 235.000000 0.818683 -0.446699 -0.360857
8.77999973 -9.31999969 -0.72000003 180 198 66 0.000000 0.000000 0.000000 0.000000 -60.708740 0.000000 235.000000 -0.345023 0.809293 0.475400
8.75000000 -9.27999973 -0.75000000 180 198 66 0.000000 0.000000 0.000000 0.000000 -60.708740 0.000000 235.000000 0.757102 -0.645374 -0.101437
8.73999977 -9.27000046 -0.75000000 180 198 66 0.000000 0.000000 0.000000 0.000000 -60.708740 0.000000 235.000000 0.814164 -0.556271 -0.166431
8.73999977 -9.27999973 -0.75000000 180 198 66 0.000000 0.000000 0.000000 0.000000 -60.708740 0.000000 235.000000 -0.396408 0.914054 0.085820
8.75000000 -9.27999973 -0.74000001 180 198 66 0.000000 0.000000 0.000000 0.000000 -60.708740 0.000000 235.000000 -0.293873 0.783133 0.548034
8.73999977 -9.35000038 -0.70999998 180 198 66 0.000000 0.000000 0.000000 0.000000 -60.708740 0.000000 235.000000 -0.580530 0.594070 0.556835
8.77000046 -9.27000046 -0.77999997 180 198 66 0.000000 0.000000 0.000000 0.000000 -60.708740 0.000000 235.000000 -0.515930 0.846243 0.133002
8.80000019 -9.35999966 -0.74000001 180 198 66 0.000000 0.000000 0.000000 0.000000 -60.708740 0.000000 235.000000 0.792231 -0.608648 0.043777
8.81000042 -9.36999989 -0.69999999 180 198 66 0.000000 0.000000 0.000000 0.000000 -60.708740 0.000000 235.000000 0.745071 -0.666198 -0.032394
8.68999958 -9.27000046 -0.74000001 180 198 66 0.000000 0.000000 0.000000 0.000000 -60.708740 0.000000 235.000000 -0.483343 0.694074 0.533517
8.68999958 -9.27999973 -0.74000001 180 198 66 0.000000 0.000000 0.000000 0.000000 -60.708740 0.000000 235.000000 -0.643213 0.639889 0.420498
8.71000004 -9.30000019 -0.74000001 180 198 66 0.000000 0.000000 0.000000 0.000000 -60.708740 0.000000 235.000000 0.671845 -0.681465 -0.290224
8.68000031 -9.27000046 -0.76999998 180 198 66 0.000000 0.000000 0.000000 0.000000 -60.708740 0.000000 235.000000 -0.576057 0.528756 0.623358
8.68000031 -9.31999969 -0.74000001 180 198 66 0.000000 0.000000 0.000000 0.000000 -60.708740 0.000000 235.000000 0.896105 -0.439160 0.064301
8.71000004 -9.31999969 -0.80000001 180 198 66 0.000000 0.000000 0.000000 0.000000 -60.708740 0.000000 235.000000 0.924404 -0.244317 -0.292895
8.71000004 -9.35999966 -0.75999999 180 198 66 0.000000 0.000000 0.000000 0.000000 -60.708740 0.000000 235.000000 0.879852 -0.400205 -0.256311
8.96000004 -9.44999981 -0.73000002 180 198 66 0.000000 0.000000 0.000000 0.000000 -60.708740 0.000000 235.000000 -0.646258 0.727627 0.230024
8.94999981 -9.47999954 -0.70999998 180 198 66 0.000000 0.000000 0.000000 0.000000 -60.708740 0.000000 235.000000 -0.514160 0.844165 0.151743
8.97999954 -9.47999954 -0.69999999 180 198 66 0.000000 0.000000 0.000000 0.000000 -60.708740 0.000000 235.000000 -0.541519 0.717057 0.438846
8.96000004 -9.47999954 -0.70999998 180 198 66 0.000000 0.000000 0.000000 0.000000 -60.708740 0.000000 235.000000 -0.365917 0.837054 0.406749
8.96000004 -9.47999954 -0.69999999 180 198 66 0.000000 0.000000 0.000000 0.000000 -60.708740 0.000000 235.000000 -0.053918 0.869605 0.490795
8.94999981 -9.47999954 -0.69999999 180 198 66 0.000000 0.000000 0.000000 0.000000 -60.708740 0.000000 235.000000 -0.286124 0.913562 0.289028
8.97000027 -9.51000023 -0.75999999 180 198 66 0.000000 0.000000 0.000000 0.000000 -60.708740 0.000000 235.000000 -0.677495 0.732388 0.067894
8.90999985 -9.47999954 -0.70999998 180 198 66 0.000000 0.000000 0.000000 0.000000 -60.708740 0.000000 235.000000 -0.435639 0.723856 0.535024
8.89999962 -9.55000019 -0.76999998 180 198 66 0.000000 0.000000 0.000000 0.000000 -60.708740 0.000000 235.000000 0.779487 -0.576414 -0.245249
8.89999962 -9.56000042 -0.77999997 180 198 66 0.000000 0.000000 0.000000 0.000000 -60.708740 0.000000 235.000000 -0.491597 0.864926 0.101169
8.93999958 -9.59000015 -0.82999998 180 198 66 0.000000 0.000000 0.000000 0.000000 -60.708740 0.000000 235.000000 -0.620627 0.778339 0.094919
8.93999958 -9.59000015 -0.85000002 180 198 66 0.000000 0.000000 0.000000 0.000000 -60.708740 0.000000 235.000000 0.762726 -0.630860 0.142356
8.93000031 -9.60000038 -0.85000002 180 198 66 0.000000 0.000000 0.000000 0.000000 -60.708740 0.000000 235.000000 0.807605 -0.580603 0.103315
8.81999969 -9.51000023 -0.73000002 180 198 66 0.000000 0.000000 0.000000 0.000000 -60.708740 0.000000 235.000000 -0.623830 0.775770 -0.094962
8.85999966 -9.50000000 -0.80000001 180 198 66 0.000000 0.000000 0.000000 0.000000 -60.708740 0.000000 235.000000 -0.670460 0.739373 0.061734
8.84000015 -9.51000023 -0.81000000 180 198 66 0.000000 0.000000 0.000000 0.000000 -60.708740 0.000000 235.000000 -0.525351 0.809072 0.263455
8.84000015 -9.47999954 -0.77999997 180 198 66 0.000000 0.000000 0.000000 0.000000 -60.708740 0.000000 235.000000 -0.489052 0.616777 0.616777
8.82999992 -9.51000023 -0.81999999 180 198 66 0.000000 0.000000 0.000000 0.000000 -60.708740 0.000000 235.000000 0.713533 -0.612760 -0.339700
8.82999992 -9.52000046 -0.81999999 180 198 66 0.000000 0.000000 0.000000 0.000000 -60.708740 0.000000 235.000000 -0.689163 0.723266 0.044050
8.85000038 -9.51000023 -0.81999999 180 198 66 0.000000 0.000000 0.000000 0.000000 -60.708740 0.000000 235.000000 -0.544097 0.832742 0.102469
8.89000034 -9.56000042 -0.76999998 180 198 66 0.000000 0.000000 0.000000 0.000000 -60.708740 0.000000 235.000000 -0.536015 0.779222 0.324809
8.85999966 -9.57999992 -0.73000002 180 198 66 0.000000 0.000000 0.000000 0.000000 -60.708740 0.000000 235.000000 0.855537 -0.512760 -0.071646
8.81999969 -9.60000038 -0.69999999 180 198 66 0.000000 0.000000 0.000000 0.000000 -60.708740 0.000000 235.000000 0.726930 -0.505042 -0.465301
8.84000015 -9.60000038 -0.70999998 180 198 66 0.000000 0.000000 0.000000 0.000000 -60.708740 0.000000 235.000000 0.833876 -0.545939 0.081249
8.82999992 -9.59000015 -0.70999998 180 198 66 0.000000 0.000000 0.000000 0.000000 -60.708740 0.000000 235.000000 0.748757 -0.620577 -0.232912
8.84000015 -9.57999992 -0.75000000 180 198 66 0.000000 0.000000 0.000000 0.000000 -60.708740 0.000000 235.000000 0.695767 -0.599913 -0.394984
8.89000034 -9.60000038 -0.82999998 180 198 66 0.000000 0.000000 0.000000 0.000000 -60.708740 0.000000 235.000000 0.929671 -0.230649 -0.287250
8.89000034 -9.60000038 -0.82999998 180 198 66 0.000000 0.000000 0.000000 0.000000 -60.708740 0.000000 235.000000 0.929671 -0.230649 -0.287250
8.81999969 -9.56000042 -0.80000001 180 198 66 0.000000 0.000000 0.000000 0.000000 -60.708740 0.000000 235.000000 0.954691 -0.189327 -0.229609
8.81999969 -9.52999973 -0.81999999 180 198 66 0.000000 0.000000 0.000000 0.000000 -60.708740 0.000000 235.000000 0.758072 -0.643257 -0.107455
8.81999969 -9.60000038 -0.80000001 180 198 66 0.000000 0.000000 0.000000 0.000000 -60.708740 0.000000 235.000000 0.808064 -0.436835 -0.395231
8.94999981 -9.57999992 -0.88000000 180 198 66 0.000000 0.000000 0.000000 0.000000 -60.708740 0.000000 235.000000 -0.611196 0.760496 0.219284
8.93999958 -9.60000038 -0.88999999 180 198 66 0.000000 0.000000 0.000000 0.000000 -60.708740 0.000000 235.000000 0.747018 -0.586369 -0.313266
8.93999958 -9.59000015 -0.89999998 180 198 66 0.000000 0.000000 0.000000 0.000000 -60.708740 0.000000 235.000000 0.819620 -0.567869 -0.075811
8.92000008 -9.59000015 -0.91000003 180 198 66 0.000000 0.000000 0.000000 0.000000 -60.708740 0.000000 235.000000 0.722019 -0.690812 -0.038300
8.93999958 -9.59000015 -0.91000003 180 198 66 0.000000 0.000000 0.000000 0.000000 -60.708740 0.000000 235.000000 -0.694729 0.709605 -0.117524
8.93999958 -9.59000015 -0.91000003 180 198 66 0.000000 0.000000 0.000000 0.000000 -60.708740 0.000000 235.000000 -0.694729 0.709605 -0.117524
8.86999989 -9.60000038 -0.88000000 180 198 66 0.000000 0.000000 0.000000 0.000000 -60.708740 0.000000 235.000000 0.993978 -0.031993 0.104803
8.86999989 -9.60000038 -0.88999999 180 198 66 0.000000 0.000000 0.000000 0.000000 -60.708740 0.000000 235.000000 0.909245 -0.206057 -0.361681
8.85000038 -9.55000019 -0.89999998 180 198 66 0.000000 0.000000 0.000000 0.000000 -60.708740 0.000000 235.000000 0.833820 -0.462887 -0.300799
8.94999981 -9.64000034 -0.75000000 180 198 66 0.000000 0.000000 0.000000 0.000000 -60.708740 0.000000 235.000000 0.821693 -0.356225 -0.444886
8.94999981 -9.63000011 -0.75000000 180 198 66 0.000000 0.000000 0.000000 0.000000 -60.708740 0.000000 235.000000 -0.395265 0.873822 0.283197
8.93999958 -9.64000034 -0.75000000 180 198 66 0.000000 0.000000 0.000000 0.000000 -60.708740 0.000000 235.000000 0.648345 -0.425008 -0.631678
8.92000008 -9.64000034 -0.76999998 180 198 66 0.000000 0.000000 0.000000 0.000000 -60.708740 0.000000 235.000000 0.864796 -0.499506 -0.051196
8.92000008 -9.65999985 -0.75999999 180 198 66 0.000000 0.000000 0.000000 0.000000 -60.708740 0.000000 235.000000 0.826257 -0.513536 0.231475
8.89999962 -9.61999989 -0.77999997 180 198 66 0.000000 0.000000 0.000000 0.000000 -60.708740 0.000000 235.000000 0.749372 -0.647253 -0.139662
8.93999958 -9.61999989 -0.77999997 180 198 66 0.000000 0.000000 0.000000 0.000000 -60.708740 0.000000 235.000000 -0.534528 0.810313 0.240150
8.93000031 -9.61999989 -0.79000002 180 198 66 0.000000 0.000000 0.000000 0.000000 -60.708740 0.000000 235.000000 -0.646933 0.731113 0.216684
8.90999985 -9.67000008 -0.82999998 180 198 66 0.000000 0.000000 0.000000 0.000000 -60.708740 0.000000 235.000000 0.965594 -0.211264 0.151644
8.86999989 -9.61999989 -0.69999999 180 198 66 0.000000 0.000000 0.000000 0.000000 -60.708740 0.000000 235.000000 -0.604783 0.792424 -0.079387
8.82999992 -9.64000034 -0.72000003 180 198 66 0.000000 0.000000 0.000000 0.000000 -60.708740 0.000000 235.000000 0.778177 -0.420768 -0.466256
8.85000038 -9.60999966 -0.75000000 180 198 66 0.000000 0.000000 0.000000 0.000000 -60.708740 0.000000 235.000000 -0.735238 0.467578 0.490709
8.84000015 -9.65999985 -0.69999999 180 198 66 0.000000 0.000000 0.000000 0.000000 -60.708740 0.000000 235.000000 -0.692951 0.485900 0.532654
8.89000034 -9.64000034 -0.79000002 180 198 66 0.000000 0.000000 0.000000 0.000000 -60.708740 0.000000 235.000000 0.965189 -0.069032 -0.252280
8.89000034 -9.61999989 -0.81999999 180 198 66 0.000000 0.000000 0.000000 0.000000 -60.708740 0.000000 235.000000 0.850014 -0.285395 -0.442748
8.89000034 -9.60999966 -0.82999998 180 198 66 0.000000 0.000000 0.000000 0.000000 -60.708740 0.000000 235.000000 0.855991 -0.277163 -0.436417
8.89000034 -9.61999989 -0.83999997 180 198 66 0.000000 0.000000 0.000000 0.000000 -60.708740 0.000000 235.000000 0.799945 -0.496573 -0.336903
8.88000011 -9.63000011 -0.83999997 180 198 66 0.000000 0.000000 0.000000 0.000000 -60.708740 0.000000 235.000000 0.852105 -0.473728 0.222486
8.89000034 -9.61999989 -0.83999997 180 198 66 0.000000 0.000000 0.000000 0.000000 -60.708740 0.000000 235.000000 0.799945 -0.496573 -0.336903
8.89000034 -9.61999989 -0.82999998 180 198 66 0.000000 0.000000 0.000000 0.000000 -60.708740 0.000000 235.000000 0.939205 -0.286326 -0.189501
8.88000011 -9.64000034 -0.83999997 180 198 66 0.000000 0.000000 0.000000 0.000000 -60.708740 0.000000 235.000000 0.972097 -0.227355 0.057761
8.92000008 -9.60999966 -0.89999998 180 198 66 0.000000 0.000000 0.000000 0.000000 -60.708740 0.000000 235.000000 0.972213 -0.233853 -0.010684
8.88000011 -9.64000034 -0.86000001 180 198 66 0.000000 0.000000 0.000000 0.000000 -60.708740 0.000000 235.000000 0.954503 -0.170017 0.244985
8.81000042 -9.46000004 -0.69999999 180 198 66 0.000000 0.000000 0.000000 0.000000 -60.708740 0.000000 235.000000 -0.398147 0.742225 0.539055
8.80000019 -9.52000046 -0.73000002 180 198 66 0.000000 0.000000 0.000000 0.000000 -60.708740 0.000000 235.000000 -0.798883 0.288354 0.527862
8.80000019 -9.51000023 -0.73000002 180 198 66 0.000000 0.000000 0.000000 0.000000 -60.708740 0.000000 235.000000 -0.550642 0.752057 0.362222
8.80000019 -9.51000023 -0.72000003 180 198 66 0.000000 0.000000 0.000000 0.000000 -60.708740 0.000000 235.000000 -0.490830 0.756764 0.431733
8.77999973 -9.47999954 -0.69999999 180 198 66 0.000000 0.000000 0.000000 0.000000 -60.708740 0.000000 235.000000 0.808973 -0.368585 -0.457939
8.77999973 -9.52000046 -0.73000002 180 198 66 0.000000 0.000000 0.000000 0.000000 -60.708740 0.000000 235.000000 0.971265 -0.232072 -0.052799
8.76000023 -9.47000027 -0.76999998 180 198 66 0.000000 0.000000 0.000000 0.000000 -60.708740 0.000000 235.000000 0.743247 -0.641685 0.189274
8.76000023 -9.50000000 -0.72000003 180 198 66 0.000000 0.000000 0.000000 0.000000 -60.708740 0.000000 235.000000 0.813838 -0.518180 -0.262980
8.77000046 -9.50000000 -0.69999999 180 198 66 0.000000 0.000000 0.000000 0.000000 -60.708740 0.000000 235.000000 0.585637 -0.729191 -0.353992
8.76000023 -9.51000023 -0.69999999 180 198 66 0.000000 0.000000 0.000000 0.000000 -60.708740 0.000000 235.000000 0.849530 -0.485660 -0.205992
8.76000023 -9.52000046 -0.75999999 180 198 66 0.000000 0.000000 0.000000 0.000000 -60.708740 0.000000 235.000000 0.606663 -0.686009 -0.401687
8.80000019 -9.47000027 -0.82999998 180 198 66 0.000000 0.000000 0.000000 0.000000 -60.708740 0.000000 235.000000 0.803331 -0.590642 0.076166
8.80000019 -9.48999977 -0.83999997 180 198 66 0.000000 0.000000 0.000000 0.000000 -60.708740 0.000000 235.000000 0.897732 -0.379303 -0.224067
8.78999996 -9.51000023 -0.81999999 180 198 66 0.000000 0.000000 0.000000 0.000000 -60.708740 0.000000 235.000000 0.983929 -0.176899 -0.024280
8.80000019 -9.48999977 -0.83999997 180 198 66 0.000000 0.000000 0.000000 0.000000 -60.708740 0.000000 235.000000 0.897732 -0.379303 -0.224067
8.76000023 -9.47000027 -0.79000002 180 198 66 0.000000 0.000000 0.000000 0.000000 -60.708740 0.000000 235.000000 -0.667554 0.453401 0.590593
8.77000046 -9.47999954 -0.83999997 180 198 66 0.000000 0.000000 0.000000 0.000000 -60.708740 0.000000 235.000000 0.688436 -0.669268 -0.279527
8.77999973 -9.52999973 -0.70999998 180 198 66 0.000000 0.000000 0.000000 0.000000 -60.708740 0.000000 235.000000 0.968498 -0.229148 -0.097483
8.81000042 -9.52999973 -0.70999998 180 198 66 0.000000 0.000000 0.000000 0.000000 -60.708740 0.000000 235.000000 0.790494 -0.396055 -0.467183
8.77999973 -9.52999973 -0.73000002 180 198 66 0.000000 0.000000 0.000000 0.000000 -60.708740 0.000000 235.000000 0.803757 -0.594918 0.006870
8.77999973 -9.56000042 -0.74000001 180 198 66 0.000000 0.000000 0.000000 0.000000 -60.708740 0.000000 235.000000 0.746802 -0.450060 -0.489625
8.81000042 -9.60000038 -0.70999998 180 198 66 0.000000 0.000000 0.000000 0.000000 -60.708740 0.000000 235.000000 0.661557 -0.530256 -0.530256
8.77999973 -9.60000038 -0.75999999 180 198 66 0.000000 0.000000 0.000000 0.000000 -60.708740 0.000000 235.000000 0.938967 -0.134526 -0.316613
8.75000000 -9.53999996 -0.70999998 180 198 66 0.000000 0.000000 0.000000 0.000000 -60.708740 0.000000 235.000000 -0.668350 0.728697 -0.149360
8.77000046 -9.56000042 -0.72000003 180 198 66 0.000000 0.000000 0.000000 0.000000 -60.708740 0.000000 235.000000 0.892919 -0.193733 -0.406402
8.73999977 -9.55000019 -0.70999998 180 198 66 0.000000 0.000000 0.000000 0.000000 -60.708740 0.000000 235.000000 0.945168 -0.173213 -0.276867
8.76000023 -9.52999973 -0.74000001 180 198 66 0.000000 0.000000 0.000000 0.000000 -60.708740 0.000000 235.000000 0.755252 -0.526882 -0.389860
8.76000023 -9.56999969 -0.70999998 180 198 66 0.000000 0.000000 0.000000 0.000000 -60.708740 0.000000 235.000000 0.780252 -0.615679 0.110205
8.77000046 -9.56999969 -0.69999999 180 198 66 0.000000 0.000000 0.000000 0.000000 -60.708740 0.000000 235.000000 -0.609142 0.585518 0.534897
8.76000023 -9.56999969 -0.70999998 180 198 66 0.000000 0.000000 0.000000 0.000000 -60.708740 0.000000 235.000000 0.780252 -0.615679 0.110205
8.76000023 -9.57999992 -0.72000003 180 198 66 0.000000 0.000000 0.000000 0.000000 -60.708740 0.000000 235.000000 -0.678323 0.725821 -0.114291
8.78999996 -9.55000019 -0.77999997 180 198 66 0.000000 0.000000 0.000000 0.000000 -60.708740 0.000000 235.000000 0.836312 -0.349902 -0.422079
8.77999973 -9.57999992 -0.82999998 180 198 66 0.000000 0.000000 0.000000 0.000000 -60.708740 0.000000 235.000000 0.877044 -0.180697 -0.445133
8.81000042 -9.57999992 -0.81999999 180 198 66 0.000000 0.000000 0.000000 0.000000 -60.708740 0.000000 235.000000 0.868538 -0.389239 -0.306812
8.81000042 -9.57999992 -0.81999999 180 198 66 0.000000 0.000000 0.000000 0.000000 -60.708740 0.000000 235.000000 0.868538 -0.389239 -0.306812
8.77999973 -9.57999992 -0.82999998 180 198 66 0.000000 0.000000 0.000000 0.000000 -60.708740 0.000000 235.000000 0.877044 -0.180697 -0.445133
8.76000023 -9.55000019 -0.77999997 180 198 66 0.000000 0.000000 0.000000 0.000000 -60.708740 0.000000 235.000000 0.841625 -0.532982 0.087163
8.76000023 -9.56000042 -0.80000001 180 198 66 0.000000 0.000000 0.000000 0.000000 -60.708740 0.000000 235.000000 0.757624 -0.637604 -0.139523
8.76000023 -9.55000019 -0.80000001 180 198 66 0.000000 0.000000 0.000000 0.000000 -60.708740 0.000000 235.000000 0.862780 -0.412234 -0.292701
8.76000023 -9.55000019 -0.77999997 180 198 66 0.000000 0.000000 0.000000 0.000000 -60.708740 0.000000 235.000000 0.841625 -0.532982 0.087163
8.73999977 -9.56000042 -0.82999998 180 198 66 0.000000 0.000000 0.000000 0.000000 -60.708740 0.000000 235.000000 0.844481 -0.232803 -0.482343
8.73999977 -9.56000042 -0.82999998 180 198 66 0.000000 0.000000 0.000000 0.000000 -60.708740 0.000000 235.000000 0.844481 -0.232803 -0.482343
8.73999977 -9.56000042 -0.85000002 180 198 66 0.000000 0.000000 0.000000 0.000000 -60.708740 0.000000 235.000000 0.957599 -0.283873 0.049205
8.73999977 -9.55000019 -0.83999997 180 198 66 0.000000 0.000000 0.000000 0.000000 -60.708740 0.000000 235.000000 0.890910 -0.436219 -0.126461
8.75000000 -9.56999969 -0.80000001 180 198 66 0.000000 0.000000 0.000000 0.000000 -60.708740 0.000000 235.000000 0.942946 -0.069315 -0.325650
8.77000046 -9.57999992 -0.85000002 180 198 66 0.000000 0.000000 0.000000 0.000000 -60.708740 0.000000 235.000000 0.990658 -0.007748 -0.136146
8.77000046 -9.56999969 -0.85000002 180 198 66 0.000000 0.000000 0.000000 0.000000 -60.708740 0.000000 235.000000 0.973763 -0.132270 0.185179
8.77000046 -9.56999969 -0.85000002 180 198 66 0.000000 0.000000 0.000000 0.000000 -60.708740 0.000000 235.000000 0.973763 -0.132270 0.185179
8.77000046 -9.60000038 -0.83999997 180 198 66 0.000000 0.000000 0.000000 0.000000 -60.708740 0.000000 235.000000 0.802268 -0.448563 -0.393899
8.71000004 -9.47999954 -0.72000003 180 198 66 0.000000 0.000000 0.000000 0.000000 -60.708740 0.000000 235.000000 0.884857 -0.453013 -0.108667
8.72000027 -9.47000027 -0.73000002 180 198 66 0.000000 0.000000 0.000000 0.000000 -60.708740 0.000000 235.000000 -0.590048 0.749953 0.299022
8.72000027 -9.50000000 -0.80000001 180 198 66 0.000000 0.000000 0.000000 0.000000 -60.708740 0.000000 235.000000 0.911233 -0.393708 0.121034
8.72999954 -9.50000000 -0.83999997 180 198 66 0.000000 0.000000 0.000000 0.000000 -60.708740 0.000000 235.000000 0.912803 -0.359676 0.193451
8.72999954 -9.47000027 -0.80000001 180 198 66 0.000000 0.000000 0.000000 0.000000 -60.708740 0.000000 235.000000 -0.613520 0.630329 0.475688
8.71000004 -9.50000000 -0.79000002 180 198 66 0.000000 0.000000 0.000000 0.000000 -60.708740 0.000000 235.000000 0.847215 -0.507146 -0.158206
8.72999954 -9.47999954 -0.77999997 180 198 66 0.000000 0.000000 0.000000 0.000000 -60.708740 0.000000 235.000000 -0.573217 0.721039 0.389262
8.72000027 -9.47000027 -0.80000001 180 198 66 0.000000 0.000000 0.000000 0.000000 -60.708740 0.000000 235.000000 0.779485 -0.539397 -0.318517
8.71000004 -9.55000019 -0.69999999 180 198 66 0.000000 0.000000 0.000000 0.000000 -60.708740 0.000000 235.000000 0.878179 -0.177395 -0.444221
8.72999954 -9.57999992 -0.69999999 180 198 66 0.000000 0.000000 0.000000 0.000000 -60.708740 0.000000 235.000000 0.858740 -0.507373 -0.071679
8.72999954 -9.56000042 -0.83999997 180 198 66 0.000000 0.000000 0.000000 0.000000 -60.708740 0.000000 235.000000 0.959533 -0.260278 -0.107478
8.77999973 -9.52000046 -0.88999999 180 198 66 0.000000 0.000000 0.000000 0.000000 -60.708740 0.000000 235.000000 0.982370 -0.182356 -0.041177
8.77999973 -9.52000046 -0.88999999 180 198 66 0.000000 0.000000 0.000000 0.000000 -60.708740 0.000000 235.000000 0.982370 -0.182356 -0.041177
8.80000019 -9.56000042 -0.87000000 180 198 66 0.000000 0.000000 0.000000 0.000000 -60.708740 0.000000 235.000000 0.771646 -0.394758 -0.498727
8.81000042 -9.55000019 -0.86000001 180 198 66 0.000000 0.000000 0.000000 0.000000 -60.708740 0.000000 235.000000 -0.635315 0.738339 0.226341
8.80000019 -9.52999973 -0.89999998 180 198 66 0.000000 0.000000 0.000000 0.000000 -60.708740 0.000000 235.000000 0.775619 -0.609307 -0.164800
8.80000019 -9.57999992 -0.86000001 180 198 66 0.000000 0.000000 0.000000 0.000000 -60.708740 0.000000 235.000000 0.949274 -0.115184 -0.292594
8.77999973 -9.56999969 -0.86000001 180 198 66 0.000000 0.000000 0.000000 0.000000 -60.708740 0.000000 235.000000 0.870049 -0.460787 -0.175187
8.73999977 -9.55000019 -0.87000000 180 198 66 0.000000 0.000000 0.000000 0.000000 -60.708740 0.000000 235.000000 0.853341 -0.486985 0.186156
8.77000046 -9.56000042 -0.87000000 180 198 66 0.000000 0.000000 0.000000 0.000000 -60.708740 0.000000 235.000000 0.984498 -0.174946 0.012578
8.77000046 -9.57999992 -0.86000001 180 198 66 0.000000 0.000000 0.000000 0.000000 -60.708740 0.000000 235.000000 0.947138 -0.305145 -0.099073
8.77000046 -9.57999992 -0.86000001 180 198 66 0.000000 0.000000 0.000000 0.000000 -60.708740 0.000000 235.000000 0.947138 -0.305145 -0.099073
8.77000046 -9.57999992 -0.87000000 180 198 66 0.000000 0.000000 0.000000 0.000000 -60.708740 0.000000 235.000000 0.788306 -0.606952 0.100915
8.72999954 -9.56000042 -0.86000001 180 198 66 0.000000 0.000000 0.000000 0.000000 -60.708740 0.000000 235.000000 0.916916 -0.375419 0.135374
8.80000019 -9.61999989 -0.75000000 180 198 66 0.000000 0.000000 0.000000 0.000000 -60.708740 0.000000 235.000000 0.902794 -0.394703 0.170799
8.77999973 -9.61999989 -0.75999999 180 198 66 0.000000 0.000000 0.000000 0.000000 -60.708740 0.000000 235.000000 0.886546 -0.270598 -0.375250
8.80000019 -9.63000011 -0.74000001 180 198 66 0.000000 0.000000 0.000000 0.000000 -60.708740 0.000000 235.000000 0.857910 -0.357076 -0.369442
8.77999973 -9.60999966 -0.75000000 180 198 66 0.000000 0.000000 0.000000 0.000000 -60.708740 0.000000 235.000000 0.988403 -0.145792 -0.042475
8.77000046 -9.61999989 -0.70999998 180 198 66 0.000000 0.000000 0.000000 0.000000 -60.708740 0.000000 235.000000 0.833684 -0.531603 0.149560
8.81000042 -9.63000011 -0.80000001 180 198 66 0.000000 0.000000 0.000000 0.000000 -60.708740 0.000000 235.000000 0.982605 -0.137249 -0.125103
8.75000000 -9.61999989 -0.80000001 180 198 66 0.000000 0.000000 0.000000 0.000000 -60.708740 0.000000 235.000000 0.874665 -0.466775 0.130697
8.73999977 -9.63000011 -0.77999997 180 198 66 0.000000 0.000000 0.000000 0.000000 -60.708740 0.000000 235.000000 0.911127 -0.392078 0.126972
8.73999977 -9.63000011 -0.80000001 180 198 66 0.000000 0.000000 0.000000 0.000000 -60.708740 0.000000 235.000000 0.947277 -0.309662 0.082315
8.64000034 -9.28999996 -0.75000000 180 198 66 0.000000 0.000000 0.000000 0.000000 -60.708740 0.000000 235.000000 0.696681 -0.402122 -0.594082
8.64000034 -9.31999969 -0.75000000 180 198 66 0.000000 0.000000 0.000000 0.000000 -60.708740 0.000000 235.000000 0.760886 -0.608398 -0.225621
8.64000034 -9.31999969 -0.75999999 180 198 66 0.000000 0.000000 0.000000 0.000000 -60.708740 0.000000 235.000000 0.961866 -0.233615 -0.142257
8.60000038 -9.31000042 -0.75999999 180 198 66 0.000000 0.000000 0.000000 0.000000 -60.708740 0.000000 235.000000 0.778085 -0.605177 -0.168358
8.57999992 -9.30000019 -0.75000000 180 198 66 0.000000 0.000000 0.000000 0.000000 -60.708740 0.000000 235.000000 0.905071 -0.423961 -0.033226
8.59000015 -9.34000015 -0.75000000 180 198 66 0.000000 0.000000 0.000000 0.000000 -60.708740 0.000000 235.000000 0.884595 -0.357153 -0.299888
8.60000038 -9.28999996 -0.81000000 180 198 66 0.000000 0.000000 0.000000 0.000000 -60.708740 0.000000 235.000000 -0.528339 0.799606 0.285461
8.59000015 -9.30000019 -0.81999999 180 198 66 0.000000 0.000000 0.000000 0.000000 -60.708740 0.000000 235.000000 0.653890 -0.512690 -0.556395
8.60999966 -9.30000019 -0.77999997 180 198 66 0.000000 0.000000 0.000000 0.000000 -60.708740 0.000000 235.000000 -0.625935 0.694575 0.354642
8.57999992 -9.31000042 -0.79000002 180 198 66 0.000000 0.000000 0.000000 0.000000 -60.708740 0.000000 235.000000 -0.571901 0.819585 0.034787
8.52999973 -9.30000019 -0.76999998 180 198 66 0.000000 0.000000 0.000000 0.000000 -60.708740 0.000000 235.000000 -0.648380 0.752240 -0.117213
8.52999973 -9.30000019 -0.76999998 180 198 66 0.000000 0.000000 0.000000 0.000000 -60.708740 0.000000 235.000000 -0.648380 0.752240 -0.117213
8.53999996 -9.32999992 -0.73000002 180 198 66 0.000000 0.000000 0.000000 0.000000 -60.708740 0.000000 235.000000 0.962442 -0.237688 -0.131183
8.56000042 -9.34000015 -0.75000000 180 198 66 0.000000 0.000000 0.000000 0.000000 -60.708740 0.000000 235.000000 0.943355 -0.218969 -0.249266
8.48999977 -9.31000042 -0.73000002 180 198 66 0.000000 0.000000 0.000000 0.000000 -60.708740 0.000000 235.000000 0.682906 -0.653708 -0.326043
8.47999954 -9.27000046 -0.73000002 180 198 66 0.000000 0.000000 0.000000 0.000000 -60.708740 0.000000 235.000000 0.793542 -0.602047 0.088494
8.47999954 -9.28999996 -0.76999998 180 198 66 0.000000 0.000000 0.000000 0.000000 -60.708740 0.000000 235.000000 0.853526 -0.477192 -0.209242
8.55000019 -9.31000042 -0.82999998 180 198 66 0.000000 0.000000 0.000000 0.000000 -60.708740 0.000000 235.000000 0.756524 -0.649071 0.079863
8.51000023 -9.31000042 -0.77999997 180 198 66 0.000000 0.000000 0.000000 0.000000 -60.708740 0.000000 235.000000 -0.616347 0.695240 0.369808
8.47999954 -9.35999966 -0.70999998 180 198 66 0.000000 0.000000 0.000000 0.000000 -60.708740 0.000000 235.000000 -0.570500 0.751508 0.331310
8.82999992 -9.78999996 -0.04000000 180 198 66 0.000000 0.000000 0.000000 0.000000 -60.708740 0.000000 235.000000 -0.179205 0.675463 0.715287
8.81999969 -9.77999973 -0.28999999 180 198 66 0.000000 0.000000 0.000000 0.000000 -60.708740 0.000000 235.000000 0.745088 -0.665308 -0.047013
8.80000019 -9.78999996 -0.06000000 180 198 66 0.000000 0.000000 0.000000 0.000000 -60.708740 0.000000 235.000000 -0.498245 0.751479 0.432470
8.77999973 -9.78999996 -0.05000000 180 198 66 0.000000 0.000000 0.000000 0.000000 -60.708740 0.000000 235.000000 -0.282788 0.710965 0.643863
8.78999996 -9.78999996 -0.06000000 180 198 66 0.000000 0.000000 0.000000 0.000000 -60.708740 0.000000 235.000000 -0.133379 0.735833 0.663898
8.78999996 -9.78999996 -0.05000000 180 198 66 0.000000 0.000000 0.000000 0.000000 -60.708740 0.000000 235.000000 -0.538340 0.732603 0.416514
8.78999996 -9.78999996 -0.04000000 180 198 66 0.000000 0.000000 0.000000 0.000000 -60.708740 0.000000 235.000000 0.581547 -0.710047 -0.397034
8.77999973 -9.81000042 -0.03000000 180 198 66 0.000000 0.000000 0.000000 0.000000 -60.708740 0.000000 235.000000 -0.218816 0.818649 0.530974
8.77999973 -9.80000019 -0.05000000 180 198 66 0.000000 0.000000 0.000000 0.000000 -60.708740 0.000000 235.000000 0.709319 -0.553169 -0.436887
8.77999973 -9.77999973 -0.10000000 180 198 66 0.000000 0.000000 0.000000 0.000000 -60.708740 0.000000 235.000000 -0.392180 0.663563 0.637086
8.76000023 -9.78999996 -0.04000000 180 198 66 0.000000 0.000000 0.000000 0.000000 -60.708740 0.000000 235.000000 -0.381147 0.776890 0.501167
8.76000023 -9.78999996 -0.04000000 180 198 66 0.000000 0.000000 0.000000 0.000000 -60.708740 0.000000 235.000000 -0.381147 0.776890 0.501167
8.77000046 -9.78999996 -0.07000000 180 198 66 0.000000 0.000000 0.000000 0.000000 -60.708740 0.000000 235.000000 0.607360 -0.570140 -0.553222
8.73999977 -9.85999966 -0.12000000 180 198 66 0.000000 0.000000 0.000000 0.000000 -60.708740 0.000000 235.000000 -0.590642 0.778784 0.211274
8.72000027 -9.77999973 -0.05000000 180 198 66 0.000000 0.000000 0.000000 0.000000 -60.708740 0.000000 235.000000 -0.484314 0.861816 0.150708
8.72000027 -9.77999973 -0.03000000 180 198 66 0.000000 0.000000 0.000000 0.000000 -60.708740 0.000000 235.000000 -0.613549 0.653672 0.443026
8.69999981 -9.81000042 -0.10000000 180 198 66 0.000000 0.000000 0.000000 0.000000 -60.708740 0.000000 235.000000 0.834911 -0.363210 -0.413525
8.71000004 -9.81000042 -0.10000000 180 198 66 0.000000 0.000000 0.000000 0.000000 -60.708740 0.000000 235.000000 -0.712500 0.529808 0.460052
8.68999958 -9.82999992 -0.10000000 180 198 66 0.000000 0.000000 0.000000 0.000000 -60.708740 0.000000 235.000000 0.822370 -0.448421 -0.350181
8.67000008 -9.80000019 -0.05000000 180 198 66 0.000000 0.000000 0.000000 0.000000 -60.708740 0.000000 235.000000 0.716106 -0.533341 -0.450266
8.65999985 -9.81000042 -0.03000000 180 198 66 0.000000 0.000000 0.000000 0.000000 -60.708740 0.000000 235.000000 -0.434587 0.779652 0.450863
8.68000031 -9.80000019 -0.06000000 180 198 66 0.000000 0.000000 0.000000 0.000000 -60.708740 0.000000 235.000000 0.746505 -0.557846 -0.362681
8.67000008 -9.80000019 -0.08000000 180 198 66 0.000000 0.000000 0.000000 0.000000 -60.708740 0.000000 235.000000 0.795541 -0.364824 -0.483753
8.68000031 -9.84000015 -0.10000000 180 198 66 0.000000 0.000000 0.000000 0.000000 -60.708740 0.000000 235.000000 0.881621 -0.262834 -0.391998
8.64999962 -9.82999992 -0.07000000 180 198 66 0.000000 0.000000 0.000000 0.000000 -60.708740 0.000000 235.000000 0.837227 -0.320807 -0.442870
8.68000031 -9.85000038 -0.14000000 180 198 66 0.000000 0.000000 0.000000 0.000000 -60.708740 0.000000 235.000000 0.697138 -0.526615 -0.486492
8.68000031 -9.81999969 -0.12000000 180 198 66 0.000000 0.000000 0.000000 0.000000 -60.708740 0.000000 235.000000 -0.406630 0.893420 0.190927
8.68999958 -9.85999966 -0.06000000 180 198 66 0.000000 0.000000 0.000000 0.000000 -60.708740 0.000000 235.000000 -0.647973 0.540258 0.536892
8.68999958 -9.93999958 -0.10000000 180 198 66 0.000000 0.000000 0.000000 0.000000 -60.708740 0.000000 235.000000 0.837660 -0.512823 0.187985
8.64999962 -9.88000011 -0.04000000 180 198 66 0.000000 0.000000 0.000000 0.000000 -60.708740 0.000000 235.000000 -0.694047 0.655400 0.297909
8.65999985 -9.88000011 -0.03000000 180 198 66 0.000000 0.000000 0.000000 0.000000 -60.708740 0.000000 235.000000 -0.642275 0.571473 0.510785
8.65999985 -9.89999962 -0.06000000 180 198 66 0.000000 0.000000 0.000000 0.000000 -60.708740 0.000000 235.000000 -0.615537 0.787832 -0.020842
8.67000008 -9.93999958 -0.06000000 180 198 66 0.000000 0.000000 0.000000 0.000000 -60.708740 0.000000 235.000000 0.910536 -0.296691 -0.287922
8.67000008 -9.93999958 -0.04000000 180 198 66 0.000000 0.000000 0.000000 0.000000 -60.708740 0.000000 235.000000 -0.643633 0.763511 0.052804
8.68000031 -9.93000031 -0.04000000 180 198 66 0.000000 0.000000 0.000000 0.000000 -60.708740 0.000000 235.000000 0.902937 -0.412971 -0.118992
8.67000008 -9.93999958 -0.04000000 180 198 66 0.000000 0.000000 0.000000 0.000000 -60.708740 0.000000 235.000000 -0.643633 0.763511 0.052804
8.67000008 -9.90999985 -0.10000000 180 198 66 0.000000 0.000000 0.000000 0.000000 -60.708740 0.000000 235.000000 0.879816 -0.463285 -0.106258
8.68000031 -9.92000008 -0.07000000 180 198 66 0.000000 0.000000 0.000000 0.000000 -60.708740 0.000000 235.000000 -0.474747 0.757295 0.448463
8.65999985 -9.93999958 -0.08000000 180 198 66 0.000000 0.000000 0.000000 0.000000 -60.708740 0.000000 235.000000 -0.649558 0.675737 0.348503
8.65999985 -9.93999958 -0.08000000 180 198 66 0.000000 0.000000 0.000000 0.000000 -60.708740 0.000000 235.000000 -0.649558 0.675737 0.348503
8.71000004 -9.88000011 -0.13000000 180 198 66 0.000000 0.000000 0.000000 0.000000 -60.708740 0.000000 235.000000 -0.484875 0.652652 0.582186
8.69999981 -9.89000034 -0.15000001 180 198 66 0.000000 0.000000 0.000000 0.000000 -60.708740 0.000000 235.000000 0.660513 -0.689441 -0.297311
8.69999981 -9.86999989 -0.15000001 180 198 66 0.000000 0.000000 0.000000 0.000000 -60.708740 0.000000 235.000000 -0.631744 0.763170 0.135907
8.68999958 -9.90999985 -0.13000000 180 198 66 0.000000 0.000000 0.000000 0.000000 -60.708740 0.000000 235.000000 0.935987 -0.312915 -0.161282
8.72000027 -9.89999962 -0.16000000 180 198 66 0.000000 0.000000 0.000000 0.000000 -60.708740 0.000000 235.000000 0.952186 -0.304948 -0.018670
8.68999958 -9.89999962 -0.16000000 180 198 66 0.000000 0.000000 0.000000 0.000000 -60.708740 0.000000 235.000000 0.727629 -0.685731 0.018156
8.68999958 -9.89999962 -0.15000001 180 198 66 0.000000 0.000000 0.000000 0.000000 -60.708740 0.000000 235.000000 -0.627930 0.696432 0.347400
8.67000008 -9.88000011 -0.13000000 180 198 66 0.000000 0.000000 0.000000 0.000000 -60.708740 0.000000 235.000000 0.890285 -0.452618 0.050291
8.68000031 -9.93999958 -0.14000000 180 198 66 0.000000 0.000000 0.000000 0.000000 -60.708740 0.000000 235.000000 0.969857 -0.237843 0.052991
8.64999962 -9.93999958 -0.14000000 180 198 66 0.000000 0.000000 0.000000 0.000000 -60.708740 0.000000 235.000000 0.911824 -0.290325 -0.290325
8.65999985 -9.92000008 -0.14000000 180 198 66 0.000000 0.000000 0.000000 0.000000 -60.708740 0.000000 235.000000 0.861470 -0.359074 -0.359074
8.68000031 -9.92000008 -0.13000000 180 198 66 0.000000 0.000000 0.000000 0.000000 -60.708740 0.000000 235.000000 0.652526 -0.718565 -0.240570
8.65999985 -9.92000008 -0.13000000 180 198 66 0.000000 0.000000 0.000000 0.000000 -60.708740 0.000000 235.000000 0.871243 -0.203340 -0.446753
8.68000031 -9.89999962 -0.16000000 180 198 66 0.000000 0.000000 0.000000 0.000000 -60.708740 0.000000 235.000000 0.925314 -0.260913 -0.275170
8.67000008 -9.90999985 -0.18000001 180 198 66 0.000000 0.000000 0.000000 0.000000 -60.708740 0.000000 235.000000 0.641386 -0.563948 -0.520179
8.68000031 -9.89999962 -0.18000001 180 198 66 0.000000 0.000000 0.000000 0.000000 -60.708740 0.000000 235.000000 0.818452 -0.449751 -0.357576
8.78999996 -9.80000019 -0.25999999 180 198 66 0.000000 0.000000 0.000000 0.000000 -60.708740 0.000000 235.000000 -0.694216 0.719460 0.021037
8.73999977 -9.81999969 -0.23999999 180 198 66 0.000000 0.000000 0.000000 0.000000 -60.708740 0.000000 235.000000 0.789883 -0.595035 -0.148384
8.73999977 -9.81999969 -0.25999999 180 198 66 0.000000 0.000000 0.000000 0.000000 -60.708740 0.000000 235.000000 -0.570981 0.792601 0.213925
8.73999977 -9.85000038 -0.23999999 180 198 66 0.000000 0.000000 0.000000 0.000000 -60.708740 0.000000 235.000000 0.554603 -0.632146 -0.541117
8.73999977 -9.85000038 -0.23999999 180 198 66 0.000000 0.000000 0.000000 0.000000 -60.708740 0.000000 235.000000 0.554603 -0.632146 -0.541117
8.77999973 -9.78999996 -0.33000001 180 198 66 0.000000 0.000000 0.000000 0.000000 -60.708740 0.000000 235.000000 -0.438792 0.774818 0.455104
8.76000023 -9.80000019 -0.34000000 180 198 66 0.000000 0.000000 0.000000 0.000000 -60.708740 0.000000 235.000000 0.901368 -0.416339 0.119154
8.76000023 -9.80000019 -0.34000000 180 198 66 0.000000 0.000000 0.000000 0.000000 -60.708740 0.000000 235.000000 0.901368 -0.416339 0.119154
8.77000046 -9.78999996 -0.34000000 180 198 66 0.000000 0.000000 0.000000 0.000000 -60.708740 0.000000 235.000000 0.816907 -0.576396 -0.020734
8.76000023 -9.80000019 -0.31999999 180 198 66 0.000000 0.000000 0.000000 0.000000 -60.708740 0.000000 235.000000 0.802453 -0.533405 -0.267484
8.76000023 -9.80000019 -0.34000000 180 198 66 0.000000 0.000000 0.000000 0.000000 -60.708740 0.000000 235.000000 0.901368 -0.416339 0.119154
8.73999977 -9.81999969 -0.30000001 180 198 66 0.000000 0.000000 0.000000 0.000000 -60.708740 0.000000 235.000000 0.877282 -0.354258 -0.323849
8.75000000 -9.81999969 -0.28999999 180 198 66 0.000000 0.000000 0.000000 0.000000 -60.708740 0.000000 235.000000 0.735610 -0.603619 -0.307443
8.75000000 -9.82999992 -0.31000000 180 198 66 0.000000 0.000000 0.000000 0.000000 -60.708740 0.000000 235.000000 0.858197 -0.512172 0.034328
8.75000000 -9.84000015 -0.28000000 180 198 66 0.000000 0.000000 0.000000 0.000000 -60.708740 0.000000 235.000000 0.677961 -0.655200 -0.333290
8.76000023 -9.82999992 -0.31000000 180 198 66 0.000000 0.000000 0.000000 0.000000 -60.708740 0.000000 235.000000 -0.673490 0.670260 0.311711
8.76000023 -9.81999969 -0.31999999 180 198 66 0.000000 0.000000 0.000000 0.000000 -60.708740 0.000000 235.000000 0.790138 -0.415267 -0.450815
8.75000000 -9.84000015 -0.31999999 180 198 66 0.000000 0.000000 0.000000 0.000000 -60.708740 0.000000 235.000000 0.847625 -0.499041 -0.180251
8.71000004 -9.85000038 -0.25000000 180 198 66 0.000000 0.000000 0.000000 0.000000 -60.708740 0.000000 235.000000 0.796499 -0.534680 -0.282323
8.72999954 -9.84000015 -0.23000000 180 198 66 0.000000 0.000000 0.000000 0.000000 -60.708740 0.000000 235.000000 0.906554 -0.414308 0.080674
8.71000004 -9.85000038 -0.25000000 180 198 66 0.000000 0.000000 0.000000 0.000000 -60.708740 0.000000 235.000000 0.796499 -0.534680 -0.282323
8.72000027 -9.84000015 -0.25999999 180 198 66 0.000000 0.000000 0.000000 0.000000 -60.708740 0.000000 235.000000 -0.708386 0.705591 -0.018164
8.72999954 -9.84000015 -0.23000000 180 198 66 0.000000 0.000000 0.000000 0.000000 -60.708740 0.000000 235.000000 0.906554 -0.414308 0.080674
8.72999954 -9.84000015 -0.25999999 180 198 66 0.000000 0.000000 0.000000 0.000000 -60.708740 0.000000 235.000000 -0.853351 0.317490 0.413511
8.69999981 -9.81999969 -0.25999999 180 198 66 0.000000 0.000000 0.000000 0.000000 -60.708740 0.000000 235.000000 0.939520 -0.329165 -0.094618
8.72000027 -9.84000015 -0.23999999 180 198 66 0.000000 0.000000 0.000000 0.000000 -60.708740 0.000000 235.000000 -0.607013 0.757590 0.239982
8.72000027 -9.84000015 -0.25000000 180 198 66 0.000000 0.000000 0.000000 0.000000 -60.708740 0.000000 235.000000 -0.597153 0.802126 -0.001366
8.65999985 -9.78999996 -0.27000001 180 198 66 0.000000 0.000000 0.000000 0.000000 -60.708740 0.000000 235.000000 -0.675141 0.735344 -0.058770
8.68999958 -9.81000042 -0.28999999 180 198 66 0.000000 0.000000 0.000000 0.000000 -60.708740 0.000000 235.000000 0.842245 -0.537986 -0.034575
8.71000004 -9.77999973 -0.31000000 180 198 66 0.000000 0.000000 0.000000 0.000000 -60.708740 0.000000 235.000000 0.796110 -0.600322 -0.076300
8.69999981 -9.81000042 -0.33000001 180 198 66 0.000000 0.000000 0.000000 0.000000 -60.708740 0.000000 235.000000 0.940976 -0.308227 -0.139856
8.71000004 -9.80000019 -0.34999999 180 198 66 0.000000 0.000000 0.000000 0.000000 -60.708740 0.000000 235.000000 0.727773 -0.632640 -0.264789
8.69999981 -9.81000042 -0.33000001 180 198 66 0.000000 0.000000 0.000000 0.000000 -60.708740 0.000000 235.000000 0.940976 -0.308227 -0.139856
8.69999981 -9.81999969 -0.34999999 180 198 66 0.000000 0.000000 0.000000 0.000000 -60.708740 0.000000 235.000000 0.982827 -0.176648 -0.053350
8.71000004 -9.89000034 -0.20999999 180 198 66 0.000000 0.000000 0.000000 0.000000 -60.708740 0.000000 235.000000 0.958812 -0.283592 0.015960
8.69999981 -9.86999989 -0.19000000 180 198 66 0.000000 0.000000 0.000000 0.000000 -60.708740 0.000000 235.000000 0.925279 -0.205460 -0.318817
8.72000027 -9.86999989 -0.25000000 180 198 66 0.000000 0.000000 0.000000 0.000000 -60.708740 0.000000 235.000000 0.849430 -0.350682 -0.394323
8.72999954 -9.88000011 -0.25000000 180 198 66 0.000000 0.000000 0.000000 0.000000 -60.708740 0.000000 235.000000 0.776794 -0.629495 0.018065
8.72000027 -9.90999985 -0.19000000 180 198 66 0.000000 0.000000 0.000000 0.000000 -60.708740 0.000000 235.000000 -0.552830 0.721155 0.417511
8.68999958 -9.96000004 -0.07000000 180 198 66 0.000000 0.000000 0.000000 0.000000 -60.708740 0.000000 235.000000 0.841618 -0.539569 -0.023340
8.71000004 -9.94999981 -0.09000000 180 198 66 0.000000 0.000000 0.000000 0.000000 -60.708740 0.000000 235.000000 -0.618773 0.500751 0.605284
8.65999985 -9.96000004 -0.04000000 180 198 66 0.000000 0.000000 0.000000 0.000000 -60.708740 0.000000 235.000000 0.935500 -0.285808 -0.207734
8.65999985 -9.96000004 -0.04000000 180 198 66 0.000000 0.000000 0.000000 0.000000 -60.708740 0.000000 235.000000 0.935500 -0.285808 -0.207734
8.68000031 -9.97000027 -0.06000000 180 198 66 0.000000 0.000000 0.000000 0.000000 -60.708740 0.000000 235.000000 0.957492 -0.287865 0.018532
8.65999985 -9.97999954 -0.10000000 180 198 66 0.000000 0.000000 0.000000 0.000000 -60.708740 0.000000 235.000000 0.954597 -0.139019 -0.263474
8.64999962 -9.94999981 -0.08000000 180 198 66 0.000000 0.000000 0.000000 0.000000 -60.708740 0.000000 235.000000 0.955902 -0.277016 -0.097541
8.65999985 -9.97000027 -0.07000000 180 198 66 0.000000 0.000000 0.000000 0.000000 -60.708740 0.000000 235.000000 0.584401 -0.628189 -0.513667
8.64999962 -10.00000000 -0.08000000 180 198 66 0.000000 0.000000 0.000000 0.000000 -60.708740 0.000000 235.000000 -0.627078 0.714127 0.311121
8.81999969 -9.78999996 -0.40000001 180 198 66 0.000000 0.000000 0.000000 0.000000 -60.708740 0.000000 235.000000 -0.496184 0.613922 0.613922
8.77999973 -9.77999973 -0.38000000 180 198 66 0.000000 0.000000 0.000000 0.000000 -60.708740 0.000000 235.000000 0.762897 -0.640367 -0.088980
8.77999973 -9.77999973 -0.38000000 180 198 66 0.000000 0.000000 0.000000 0.000000 -60.708740 0.000000 235.000000 0.762897 -0.640367 -0.088980
8.72000027 -9.78999996 -0.41999999 180 198 66 0.000000 0.000000 0.000000 0.000000 -60.708740 0.000000 235.000000 -0.652203 0.757890 0.015297
8.60999966 -9.81000042 -0.08000000 180 198 66 0.000000 0.000000 0.000000 0.000000 -60.708740 0.000000 235.000000 0.914416 -0.325029 -0.241244
8.63000011 -9.85000038 -0.03000000 180 198 66 0.000000 0.000000 0.000000 0.000000 -60.708740 0.000000 235.000000 -0.579898 0.739085 0.342741
8.64000034 -9.84000015 -0.03000000 180 198 66 0.000000 0.000000 0.000000 0.000000 -60.708740 0.000000 235.000000 0.760357 -0.626266 -0.172185
8.63000011 -9.82999992 -0.05000000 180 198 66 0.000000 0.000000 0.000000 0.000000 -60.708740 0.000000 235.000000 0.874929 -0.336277 -0.348450
8.64000034 -9.85000038 -0.05000000 180 198 66 0.000000 0.000000 0.000000 0.000000 -60.708740 0.000000 235.000000 0.765765 -0.481664 -0.426150
8.60999966 -9.81999969 -0.09000000 180 198 66 0.000000 0.000000 0.000000 0.000000 -60.708740 0.000000 235.000000 0.892510 -0.372745 -0.253942
8.60000038 -9.84000015 -0.08000000 180 198 66 0.000000 0.000000 0.000000 0.000000 -60.708740 0.000000 235.000000 -0.587458 0.756213 0.288157
8.59000015 -9.84000015 -0.08000000 180 198 66 0.000000 0.000000 0.000000 0.000000 -60.708740 0.000000 235.000000 0.746216 -0.411649 -0.523171
8.60999966 -9.77999973 -0.12000000 180 198 66 0.000000 0.000000 0.000000 0.000000 -60.708740 0.000000 235.000000 0.871738 -0.401757 -0.280472
8.63000011 -9.78999996 -0.12000000 180 198 66 0.000000 0.000000 0.000000 0.000000 -60.708740 0.000000 235.000000 -0.671536 0.733524 0.104789
8.60999966 -9.80000019 -0.12000000 180 198 66 0.000000 0.000000 0.000000 0.000000 -60.708740 0.000000 235.000000 -0.702062 0.541972 0.461927
8.60999966 -9.82999992 -0.15000001 180 198 66 0.000000 0.000000 0.000000 0.000000 -60.708740 0.000000 235.000000 -0.491147 0.765275 0.416088
8.60000038 -9.84000015 -0.15000001 180 198 66 0.000000 0.000000 0.000000 0.000000 -60.708740 0.000000 235.000000 0.862751 -0.379857 -0.333720
8.63000011 -9.85999966 -0.06000000 180 198 66 0.000000 0.000000 0.000000 0.000000 -60.708740 0.000000 235.000000 0.826496 -0.561683 -0.037631
8.63000011 -9.88000011 -0.04000000 180 198 66 0.000000 0.000000 0.000000 0.000000 -60.708740 0.000000 235.000000 -0.596076 0.790286 0.141923
8.63000011 -9.85999966 -0.06000000 180 198 66 0.000000 0.000000 0.000000 0.000000 -60.708740 0.000000 235.000000 0.826496 -0.561683 -0.037631
8.61999989 -9.93000031 -0.04000000 180 198 66 0.000000 0.000000 0.000000 0.000000 -60.708740 0.000000 235.000000 0.754005 -0.620305 -0.216096
8.61999989 -9.93000031 -0.06000000 180 198 66 0.000000 0.000000 0.000000 0.000000 -60.708740 0.000000 235.000000 0.974464 -0.224515 -0.003526
8.64000034 -9.93999958 -0.03000000 180 198 66 0.000000 0.000000 0.000000 0.000000 -60.708740 0.000000 235.000000 0.911002 -0.298809 -0.284233
8.59000015 -9.89000034 -0.03000000 180 198 66 0.000000 0.000000 0.000000 0.000000 -60.708740 0.000000 235.000000 0.844241 -0.477844 -0.242738
8.56999969 -9.85999966 -0.04000000 180 198 66 0.000000 0.000000 0.000000 0.000000 -60.708740 0.000000 235.000000 0.803053 -0.580395 0.135079
8.59000015 -9.89000034 -0.07000000 180 198 66 0.000000 0.000000 0.000000 0.000000 -60.708740 0.000000 235.000000 0.903367 -0.173780 -0.392082
