//X Y Z R G B PointSourceId ScanDirectionFlag NumberOfReturns ReturnNumber GpsTime Intensity Classification Nx Ny Nz
11.01000023 0.60000002 -0.33000001 246 138 63 97.000000 1.000000 4.000000 1.000000 -60.708740 114.000000 1.000000 0.545096 0.568722 0.615975
11.02999973 0.61000001 -0.31999999 246 138 63 97.000000 1.000000 4.000000 1.000000 -60.708740 114.000000 1.000000 0.427336 0.670102 0.606916
11.01000023 0.60000002 -0.33000001 246 138 63 97.000000 1.000000 4.000000 1.000000 -60.708740 114.000000 1.000000 0.545096 0.568722 0.615975
11.02999973 0.58999997 -0.30000001 246 138 63 97.000000 1.000000 4.000000 1.000000 -60.708740 114.000000 1.000000 0.466891 0.523384 0.712799
11.02999973 0.58999997 -0.30000001 246 138 63 97.000000 1.000000 4.000000 1.000000 -60.708740 114.000000 1.000000 0.466891 0.523384 0.712799
11.03999996 0.54000002 -0.34000000 246 138 63 97.000000 1.000000 4.000000 1.000000 -60.708740 114.000000 1.000000 0.608822 0.222664 0.761417
11.05000019 0.52999997 -0.34000000 246 138 63 97.000000 1.000000 4.000000 1.000000 -60.708740 114.000000 1.000000 0.512633 0.536163 0.670624
11.03999996 0.52999997 -0.34000000 246 138 63 97.000000 1.000000 4.000000 1.000000 -60.708740 114.000000 1.000000 0.796802 0.230531 0.558535
11.02999973 0.54000002 -0.33000001 246 138 63 97.000000 1.000000 4.000000 1.000000 -60.708740 114.000000 1.000000 0.712351 0.166266 0.681844
11.02999973 0.54000002 -0.33000001 246 138 63 97.000000 1.000000 4.000000 1.000000 -60.708740 114.000000 1.000000 0.712351 0.166266 0.681844
11.09000015 0.38999999 -0.25999999 246 138 63 97.000000 1.000000 4.000000 1.000000 -60.708740 114.000000 1.000000 -0.089196 0.141524 0.985908
11.13000011 0.40000001 -0.27000001 246 138 63 97.000000 1.000000 4.000000 1.000000 -60.708740 114.000000 1.000000 0.329688 0.193851 0.923974
11.11999989 0.38999999 -0.27000001 246 138 63 97.000000 1.000000 4.000000 1.000000 -60.708740 114.000000 1.000000 0.131264 -0.235235 0.963034
11.15999985 0.44000000 -0.27000001 246 138 63 97.000000 1.000000 4.000000 1.000000 -60.708740 114.000000 1.000000 0.390303 0.027413 0.920278
11.14000034 0.43000001 -0.31000000 246 138 63 97.000000 1.000000 4.000000 1.000000 -60.708740 114.000000 1.000000 0.022652 0.225324 0.974020
11.15999985 0.40000001 -0.31999999 246 138 63 97.000000 1.000000 4.000000 1.000000 -60.708740 114.000000 1.000000 0.326394 -0.072095 0.942480
11.10999966 0.37000000 -0.31000000 246 138 63 97.000000 1.000000 4.000000 1.000000 -60.708740 114.000000 1.000000 0.062698 0.295575 0.953260
11.22000027 0.47000000 -0.41000000 246 138 63 97.000000 1.000000 4.000000 1.000000 -60.708740 114.000000 1.000000 0.842803 0.313130 0.437759
11.31000042 0.60000002 -0.55000001 246 138 63 97.000000 1.000000 4.000000 1.000000 -60.708740 114.000000 1.000000 0.469352 0.820182 -0.327124
11.31000042 0.56999999 -0.57999998 246 138 63 97.000000 1.000000 4.000000 1.000000 -60.708740 114.000000 1.000000 0.660307 0.750413 -0.029566
11.31999969 0.56000000 -0.60000002 246 138 63 97.000000 1.000000 4.000000 1.000000 -60.708740 114.000000 1.000000 0.713753 0.527412 -0.460861
11.30000019 0.56000000 -0.62000000 246 138 63 97.000000 1.000000 4.000000 1.000000 -60.708740 114.000000 1.000000 0.397601 0.747752 -0.531771
11.31000042 0.50999999 -0.61000001 246 138 63 97.000000 1.000000 4.000000 1.000000 -60.708740 114.000000 1.000000 0.487814 0.665505 -0.564925
11.31999969 0.47000000 -0.63999999 246 138 63 97.000000 1.000000 4.000000 1.000000 -60.708740 114.000000 1.000000 0.452618 0.890285 -0.050291
11.28999996 0.52999997 -0.61000001 246 138 63 97.000000 1.000000 4.000000 1.000000 -60.708740 114.000000 1.000000 0.681642 0.727953 -0.073808
11.28999996 0.47000000 -0.62000000 246 138 63 97.000000 1.000000 4.000000 1.000000 -60.708740 114.000000 1.000000 0.599543 0.579277 -0.552255
11.28999996 0.50000000 -0.64999998 246 138 63 97.000000 1.000000 4.000000 1.000000 -60.708740 114.000000 1.000000 0.474747 0.832753 -0.284848
11.27000046 0.41999999 -0.40000001 246 138 63 97.000000 1.000000 4.000000 1.000000 -60.708740 114.000000 1.000000 0.576994 0.334560 0.745082
11.25000000 0.37000000 -0.47000000 246 138 63 97.000000 1.000000 4.000000 1.000000 -60.708740 114.000000 1.000000 0.632783 0.366521 0.682091
11.26000023 0.37000000 -0.49000001 246 138 63 97.000000 1.000000 4.000000 1.000000 -60.708740 114.000000 1.000000 0.812404 0.432537 0.391039
11.25000000 0.30000001 -0.49000001 246 138 63 97.000000 1.000000 4.000000 1.000000 -60.708740 114.000000 1.000000 0.840368 0.510812 0.181256
11.28999996 0.30000001 -0.49000001 246 138 63 97.000000 1.000000 4.000000 1.000000 -60.708740 114.000000 1.000000 0.450449 0.634647 0.627949
11.18999958 0.40000001 -0.41000000 246 138 63 97.000000 1.000000 4.000000 1.000000 -60.708740 114.000000 1.000000 0.849441 0.420838 0.318346
11.23999977 0.44999999 -0.44000000 246 138 63 97.000000 1.000000 4.000000 1.000000 -60.708740 114.000000 1.000000 0.675831 0.715676 0.176237
11.21000004 0.30000001 -0.44999999 246 138 63 97.000000 1.000000 4.000000 1.000000 -60.708740 114.000000 1.000000 0.248352 0.681782 0.688109
11.21000004 0.33000001 -0.50000000 246 138 63 97.000000 1.000000 4.000000 1.000000 -60.708740 114.000000 1.000000 0.674286 0.641474 0.365854
11.21000004 0.31000000 -0.49000001 246 138 63 97.000000 1.000000 4.000000 1.000000 -60.708740 114.000000 1.000000 0.695311 0.401332 0.596217
11.22000027 0.30000001 -0.49000001 246 138 63 97.000000 1.000000 4.000000 1.000000 -60.708740 114.000000 1.000000 0.754866 0.462129 0.465418
11.22000027 0.30000001 -0.49000001 246 138 63 97.000000 1.000000 4.000000 1.000000 -60.708740 114.000000 1.000000 0.754866 0.462129 0.465418
11.27999973 0.36000001 -0.60000002 246 138 63 97.000000 1.000000 4.000000 1.000000 -60.708740 114.000000 1.000000 0.745331 0.569959 -0.345873
11.25000000 0.37000000 -0.60000002 246 138 63 97.000000 1.000000 4.000000 1.000000 -60.708740 114.000000 1.000000 0.828847 0.527995 -0.185024
11.28999996 0.36000001 -0.57999998 246 138 63 97.000000 1.000000 4.000000 1.000000 -60.708740 114.000000 1.000000 0.813783 0.572985 -0.097190
11.31000042 0.33000001 -0.64999998 246 138 63 97.000000 1.000000 4.000000 1.000000 -60.708740 114.000000 1.000000 0.791716 0.553417 -0.258679
11.27000046 0.34999999 -0.62000000 246 138 63 97.000000 1.000000 4.000000 1.000000 -60.708740 114.000000 1.000000 0.576235 0.620170 -0.532299
11.28999996 0.34000000 -0.63999999 246 138 63 97.000000 1.000000 4.000000 1.000000 -60.708740 114.000000 1.000000 0.204556 0.884448 -0.419414
11.22000027 0.40000001 -0.66000003 246 138 63 97.000000 1.000000 4.000000 1.000000 -60.708740 114.000000 1.000000 0.277866 0.830494 -0.482773
11.21000004 0.40000001 -0.66000003 246 138 63 97.000000 1.000000 4.000000 1.000000 -60.708740 114.000000 1.000000 -0.624375 -0.503202 0.597448
11.18999958 0.30000001 -0.57999998 246 138 63 97.000000 1.000000 4.000000 1.000000 -60.708740 114.000000 1.000000 0.690312 0.499766 -0.523166
11.17000008 0.30000001 -0.66000003 246 138 63 97.000000 1.000000 4.000000 1.000000 -60.708740 114.000000 1.000000 0.114092 -0.432422 0.894424
11.14000034 0.49000001 -0.38000000 246 138 63 97.000000 1.000000 4.000000 1.000000 -60.708740 114.000000 1.000000 0.725003 0.456238 0.515963
11.10999966 0.47999999 -0.38000000 246 138 63 97.000000 1.000000 4.000000 1.000000 -60.708740 114.000000 1.000000 0.484551 0.390558 0.782736
11.07999992 0.62000000 -0.37000000 246 138 63 97.000000 1.000000 4.000000 1.000000 -60.708740 114.000000 1.000000 0.799847 0.490126 0.346441
11.05000019 0.49000001 -0.43000001 246 138 63 97.000000 1.000000 4.000000 1.000000 -60.708740 114.000000 1.000000 0.753658 0.263859 0.601978
11.01000023 0.49000001 -0.36000001 246 138 63 97.000000 1.000000 4.000000 1.000000 -60.708740 114.000000 1.000000 0.137682 0.152566 0.978656
11.02999973 0.50000000 -0.37000000 246 138 63 97.000000 1.000000 4.000000 1.000000 -60.708740 114.000000 1.000000 0.438885 0.138671 0.887778
11.02999973 0.49000001 -0.37000000 246 138 63 97.000000 1.000000 4.000000 1.000000 -60.708740 114.000000 1.000000 0.704229 -0.015340 0.709807
11.03999996 0.49000001 -0.46000001 246 138 63 97.000000 1.000000 4.000000 1.000000 -60.708740 114.000000 1.000000 0.473753 0.470451 0.744469
11.01000023 0.61000001 -0.55000001 246 138 63 97.000000 1.000000 4.000000 1.000000 -60.708740 114.000000 1.000000 0.546730 0.651029 -0.526543
11.00000000 0.62000000 -0.57999998 246 138 63 97.000000 1.000000 4.000000 1.000000 -60.708740 114.000000 1.000000 0.728238 0.674625 -0.120628
11.02000046 0.56999999 -0.63000000 246 138 63 97.000000 1.000000 4.000000 1.000000 -60.708740 114.000000 1.000000 0.489030 0.623471 -0.610027
11.06999969 0.54000002 -0.60000002 246 138 63 97.000000 1.000000 4.000000 1.000000 -60.708740 114.000000 1.000000 0.638922 0.712582 -0.289837
11.05000019 0.51999998 -0.66000003 246 138 63 97.000000 1.000000 4.000000 1.000000 -60.708740 114.000000 1.000000 -0.427542 -0.119938 0.896004
11.06999969 0.52999997 -0.68000001 246 138 63 97.000000 1.000000 4.000000 1.000000 -60.708740 114.000000 1.000000 0.489365 0.743109 -0.456411
11.06000042 0.51999998 -0.69000000 246 138 63 97.000000 1.000000 4.000000 1.000000 -60.708740 114.000000 1.000000 0.378685 0.762245 -0.524958
11.00000000 0.51999998 -0.63000000 246 138 63 97.000000 1.000000 4.000000 1.000000 -60.708740 114.000000 1.000000 0.608850 0.416407 -0.675209
11.02000046 0.54000002 -0.69000000 246 138 63 97.000000 1.000000 4.000000 1.000000 -60.708740 114.000000 1.000000 0.615946 0.278529 -0.736907
11.10000038 0.46000001 -0.36000001 246 138 63 97.000000 1.000000 4.000000 1.000000 -60.708740 114.000000 1.000000 0.239982 0.607013 0.757590
11.10999966 0.44999999 -0.46000001 246 138 63 97.000000 1.000000 4.000000 1.000000 -60.708740 114.000000 1.000000 0.580536 0.334738 0.742245
11.09000015 0.41000000 -0.47000000 246 138 63 97.000000 1.000000 4.000000 1.000000 -60.708740 114.000000 1.000000 0.811487 0.545576 0.209367
11.10000038 0.37000000 -0.47000000 246 138 63 97.000000 1.000000 4.000000 1.000000 -60.708740 114.000000 1.000000 0.376684 0.633290 0.676057
11.09000015 0.38000000 -0.46000001 246 138 63 97.000000 1.000000 4.000000 1.000000 -60.708740 114.000000 1.000000 0.695442 0.089309 0.713011
11.10999966 0.37000000 -0.47999999 246 138 63 97.000000 1.000000 4.000000 1.000000 -60.708740 114.000000 1.000000 0.459768 0.715380 0.526161
11.10000038 0.37000000 -0.46000001 246 138 63 97.000000 1.000000 4.000000 1.000000 -60.708740 114.000000 1.000000 0.382301 0.218248 0.897894
11.15999985 0.33000001 -0.51999998 246 138 63 97.000000 1.000000 4.000000 1.000000 -60.708740 114.000000 1.000000 0.471290 0.864278 0.175810
11.06999969 0.43000001 -0.38999999 246 138 63 97.000000 1.000000 4.000000 1.000000 -60.708740 114.000000 1.000000 0.576329 -0.037678 0.816349
11.07999992 0.43000001 -0.47000000 246 138 63 97.000000 1.000000 4.000000 1.000000 -60.708740 114.000000 1.000000 0.656706 0.640165 0.398655
11.07999992 0.38999999 -0.44000000 246 138 63 97.000000 1.000000 4.000000 1.000000 -60.708740 114.000000 1.000000 0.741060 0.023815 0.671016
11.14999962 0.34999999 -0.52999997 246 138 63 97.000000 1.000000 4.000000 1.000000 -60.708740 114.000000 1.000000 0.618287 0.733318 -0.282783
11.09000015 0.30000001 -0.55000001 246 138 63 97.000000 1.000000 4.000000 1.000000 -60.708740 114.000000 1.000000 0.240104 -0.181084 0.953708
11.09000015 0.34999999 -0.63000000 246 138 63 97.000000 1.000000 4.000000 1.000000 -60.708740 114.000000 1.000000 -0.426912 -0.041487 0.903341
11.34000015 0.36000001 -0.83999997 246 138 63 97.000000 1.000000 4.000000 1.000000 -60.708740 114.000000 1.000000 -0.581550 -0.167668 0.796044
11.22000027 0.49000001 -0.72000003 246 138 63 97.000000 1.000000 4.000000 1.000000 -60.708740 114.000000 1.000000 0.559592 0.549448 -0.620454
11.22000027 0.50000000 -0.76999998 246 138 63 97.000000 1.000000 4.000000 1.000000 -60.708740 114.000000 1.000000 0.337356 0.695899 -0.633968
11.18999958 0.47999999 -0.76999998 246 138 63 97.000000 1.000000 4.000000 1.000000 -60.708740 114.000000 1.000000 0.511958 0.724031 -0.462253
11.25000000 0.44000000 -0.76999998 246 138 63 97.000000 1.000000 4.000000 1.000000 -60.708740 114.000000 1.000000 -0.344563 -0.250725 0.904662
11.30000019 0.38999999 -0.85000002 246 138 63 97.000000 1.000000 4.000000 1.000000 -60.708740 114.000000 1.000000 -0.390822 -0.196137 0.899327
11.25000000 0.34999999 -0.83999997 246 138 63 97.000000 1.000000 4.000000 1.000000 -60.708740 114.000000 1.000000 0.038170 -0.158462 0.986627
11.28999996 0.37000000 -0.85000002 246 138 63 97.000000 1.000000 4.000000 1.000000 -60.708740 114.000000 1.000000 -0.243978 -0.071317 0.967155
11.25000000 0.33000001 -0.83999997 246 138 63 97.000000 1.000000 4.000000 1.000000 -60.708740 114.000000 1.000000 -0.134574 -0.244324 0.960310
11.22000027 0.41000000 -0.75999999 246 138 63 97.000000 1.000000 4.000000 1.000000 -60.708740 114.000000 1.000000 -0.158364 -0.510613 0.845101
11.17000008 0.38999999 -0.81000000 246 138 63 97.000000 1.000000 4.000000 1.000000 -60.708740 114.000000 1.000000 0.094747 0.622418 -0.776929
11.17000008 0.40000001 -0.77999997 246 138 63 97.000000 1.000000 4.000000 1.000000 -60.708740 114.000000 1.000000 0.076036 -0.592509 0.801967
11.17000008 0.44999999 -0.82999998 246 138 63 97.000000 1.000000 4.000000 1.000000 -60.708740 114.000000 1.000000 -0.129857 -0.389572 0.911795
11.23999977 0.34999999 -0.81999999 246 138 63 97.000000 1.000000 4.000000 1.000000 -60.708740 114.000000 1.000000 0.576229 0.379228 -0.723980
11.18000031 0.37000000 -0.81999999 246 138 63 97.000000 1.000000 4.000000 1.000000 -60.708740 114.000000 1.000000 0.111631 -0.104581 0.988231
11.23999977 0.34000000 -0.89999998 246 138 63 97.000000 1.000000 4.000000 1.000000 -60.708740 114.000000 1.000000 -0.353137 -0.484165 0.800549
11.10999966 0.50000000 -0.74000001 246 138 63 97.000000 1.000000 4.000000 1.000000 -60.708740 114.000000 1.000000 -0.049911 -0.654548 0.754371
11.10999966 0.47000000 -0.74000001 246 138 63 97.000000 1.000000 4.000000 1.000000 -60.708740 114.000000 1.000000 -0.265013 -0.541003 0.798175
11.06000042 0.52999997 -0.80000001 246 138 63 97.000000 1.000000 4.000000 1.000000 -60.708740 114.000000 1.000000 0.051546 -0.195394 0.979369
11.05000019 0.51999998 -0.87000000 246 138 63 97.000000 1.000000 4.000000 1.000000 -60.708740 114.000000 1.000000 0.059264 -0.469976 0.880688
11.07999992 0.46000001 -0.79000002 246 138 63 97.000000 1.000000 4.000000 1.000000 -60.708740 114.000000 1.000000 0.066867 -0.334337 0.940078
11.34000015 0.08000000 -0.20999999 246 138 63 97.000000 1.000000 4.000000 1.000000 -60.708740 114.000000 1.000000 0.421549 -0.125478 0.898082
11.35999966 0.10000000 -0.23999999 246 138 63 97.000000 1.000000 4.000000 1.000000 -60.708740 114.000000 1.000000 0.056539 -0.270131 0.961162
11.39000034 0.28999999 -0.58999997 246 138 63 97.000000 1.000000 4.000000 1.000000 -60.708740 114.000000 1.000000 0.310292 0.944193 -0.110533
11.35999966 0.28999999 -0.54000002 246 138 63 97.000000 1.000000 4.000000 1.000000 -60.708740 114.000000 1.000000 0.586046 0.797798 0.141665
11.35999966 0.23999999 -0.56000000 246 138 63 97.000000 1.000000 4.000000 1.000000 -60.708740 114.000000 1.000000 0.815057 0.573558 0.081937
11.35000038 0.25000000 -0.55000001 246 138 63 97.000000 1.000000 4.000000 1.000000 -60.708740 114.000000 1.000000 0.833854 0.526566 -0.165577
11.36999989 0.23000000 -0.56000000 246 138 63 97.000000 1.000000 4.000000 1.000000 -60.708740 114.000000 1.000000 0.623694 0.763304 0.168443
11.35000038 0.25000000 -0.55000001 246 138 63 97.000000 1.000000 4.000000 1.000000 -60.708740 114.000000 1.000000 0.833854 0.526566 -0.165577
11.35999966 0.23999999 -0.56999999 246 138 63 97.000000 1.000000 4.000000 1.000000 -60.708740 114.000000 1.000000 0.839253 0.524717 -0.142570
11.35000038 0.25000000 -0.56999999 246 138 63 97.000000 1.000000 4.000000 1.000000 -60.708740 114.000000 1.000000 0.632040 0.694101 -0.344601
11.40999985 0.20999999 -0.54000002 246 138 63 97.000000 1.000000 4.000000 1.000000 -60.708740 114.000000 1.000000 0.654560 0.690116 0.308694
11.39999962 0.16000000 -0.62000000 246 138 63 97.000000 1.000000 4.000000 1.000000 -60.708740 114.000000 1.000000 0.296772 0.782399 -0.547520
11.36999989 -0.05000000 -0.47999999 246 138 63 97.000000 1.000000 4.000000 1.000000 -60.708740 114.000000 1.000000 -0.470326 -0.450660 0.758748
11.35999966 -0.08000000 -0.49000001 246 138 63 97.000000 1.000000 4.000000 1.000000 -60.708740 114.000000 1.000000 0.551530 0.461552 -0.694827
11.34000015 -0.07000000 -0.56999999 246 138 63 97.000000 1.000000 4.000000 1.000000 -60.708740 114.000000 1.000000 0.378327 0.922257 -0.079435
11.27999973 0.25000000 -0.18000001 246 138 63 97.000000 1.000000 4.000000 1.000000 -60.708740 114.000000 1.000000 0.249660 0.437283 0.863975
11.27999973 0.25000000 -0.18000001 246 138 63 97.000000 1.000000 4.000000 1.000000 -60.708740 114.000000 1.000000 0.249660 0.437283 0.863975
11.23999977 0.20999999 -0.17000000 246 138 63 97.000000 1.000000 4.000000 1.000000 -60.708740 114.000000 1.000000 0.149971 -0.412778 0.898400
11.25000000 0.28999999 -0.34999999 246 138 63 97.000000 1.000000 4.000000 1.000000 -60.708740 114.000000 1.000000 0.669254 0.315991 0.672495
11.27999973 0.25000000 -0.34999999 246 138 63 97.000000 1.000000 4.000000 1.000000 -60.708740 114.000000 1.000000 0.476483 0.556732 0.680451
11.30000019 0.13000000 -0.23999999 246 138 63 97.000000 1.000000 4.000000 1.000000 -60.708740 114.000000 1.000000 0.156389 -0.171647 0.972666
11.28999996 0.15000001 -0.22000000 246 138 63 97.000000 1.000000 4.000000 1.000000 -60.708740 114.000000 1.000000 0.329113 0.245023 0.911948
11.27000046 0.14000000 -0.23000000 246 138 63 97.000000 1.000000 4.000000 1.000000 -60.708740 114.000000 1.000000 -0.266338 0.119393 0.956457
11.22000027 0.25999999 -0.20999999 246 138 63 97.000000 1.000000 4.000000 1.000000 -60.708740 114.000000 1.000000 0.356567 0.390822 0.848598
11.22000027 0.28000000 -0.19000000 246 138 63 97.000000 1.000000 4.000000 1.000000 -60.708740 114.000000 1.000000 0.414073 0.251455 0.874822
11.22999954 0.25999999 -0.20000000 246 138 63 97.000000 1.000000 4.000000 1.000000 -60.708740 114.000000 1.000000 0.534780 0.066318 0.842385
11.22000027 0.28000000 -0.19000000 246 138 63 97.000000 1.000000 4.000000 1.000000 -60.708740 114.000000 1.000000 0.414073 0.251455 0.874822
11.22000027 0.28000000 -0.19000000 246 138 63 97.000000 1.000000 4.000000 1.000000 -60.708740 114.000000 1.000000 0.414073 0.251455 0.874822
11.21000004 0.28000000 -0.19000000 246 138 63 97.000000 1.000000 4.000000 1.000000 -60.708740 114.000000 1.000000 0.269769 -0.340528 0.900703
11.23999977 0.25999999 -0.20000000 246 138 63 97.000000 1.000000 4.000000 1.000000 -60.708740 114.000000 1.000000 -0.048742 0.015556 0.998690
11.19999981 0.23000000 -0.19000000 246 138 63 97.000000 1.000000 4.000000 1.000000 -60.708740 114.000000 1.000000 0.020757 0.267397 0.963363
11.23999977 0.23000000 -0.33000001 246 138 63 97.000000 1.000000 4.000000 1.000000 -60.708740 114.000000 1.000000 -0.078313 0.343782 0.935778
11.22999954 0.25999999 -0.33000001 246 138 63 97.000000 1.000000 4.000000 1.000000 -60.708740 114.000000 1.000000 0.479691 0.070911 0.874567
11.23999977 0.27000001 -0.34000000 246 138 63 97.000000 1.000000 4.000000 1.000000 -60.708740 114.000000 1.000000 0.379590 0.376466 0.845095
11.21000004 0.25999999 -0.34000000 246 138 63 97.000000 1.000000 4.000000 1.000000 -60.708740 114.000000 1.000000 0.519125 0.051495 0.853146
11.22000027 0.14000000 -0.20000000 246 138 63 97.000000 1.000000 4.000000 1.000000 -60.708740 114.000000 1.000000 -0.148837 -0.153840 0.976822
11.23999977 0.14000000 -0.19000000 246 138 63 97.000000 1.000000 4.000000 1.000000 -60.708740 114.000000 1.000000 -0.093633 -0.370461 0.924117
11.23999977 0.15000001 -0.23999999 246 138 63 97.000000 1.000000 4.000000 1.000000 -60.708740 114.000000 1.000000 -0.312248 0.034132 0.949387
11.22000027 0.15000001 -0.23999999 246 138 63 97.000000 1.000000 4.000000 1.000000 -60.708740 114.000000 1.000000 0.090727 0.005337 0.995862
11.23999977 0.13000000 -0.27000001 246 138 63 97.000000 1.000000 4.000000 1.000000 -60.708740 114.000000 1.000000 0.079083 -0.368609 0.926214
11.22999954 0.16000000 -0.23999999 246 138 63 97.000000 1.000000 4.000000 1.000000 -60.708740 114.000000 1.000000 -0.338204 -0.072378 0.938285
11.18000031 0.14000000 -0.20000000 246 138 63 97.000000 1.000000 4.000000 1.000000 -60.708740 114.000000 1.000000 0.235546 -0.103131 0.966376
11.18999958 0.13000000 -0.20000000 246 138 63 97.000000 1.000000 4.000000 1.000000 -60.708740 114.000000 1.000000 0.273249 -0.368812 0.888433
11.21000004 0.12000000 -0.18000001 246 138 63 97.000000 1.000000 4.000000 1.000000 -60.708740 114.000000 1.000000 -0.380132 -0.082520 0.921244
11.31000042 0.11000000 -0.27000001 246 138 63 97.000000 1.000000 4.000000 1.000000 -60.708740 114.000000 1.000000 0.159719 -0.371735 0.914496
11.31000042 0.11000000 -0.23999999 246 138 63 97.000000 1.000000 4.000000 1.000000 -60.708740 114.000000 1.000000 0.106573 0.338605 0.934874
11.30000019 0.07000000 -0.23000000 246 138 63 97.000000 1.000000 4.000000 1.000000 -60.708740 114.000000 1.000000 -0.262347 -0.033255 0.964401
11.27999973 0.12000000 -0.22000000 246 138 63 97.000000 1.000000 4.000000 1.000000 -60.708740 114.000000 1.000000 0.005991 -0.255196 0.966871
11.28999996 0.11000000 -0.22000000 246 138 63 97.000000 1.000000 4.000000 1.000000 -60.708740 114.000000 1.000000 -0.064003 -0.140806 0.987966
11.26000023 0.09000000 -0.20000000 246 138 63 97.000000 1.000000 4.000000 1.000000 -60.708740 114.000000 1.000000 0.024381 -0.179956 0.983372
11.28999996 0.11000000 -0.22000000 246 138 63 97.000000 1.000000 4.000000 1.000000 -60.708740 114.000000 1.000000 -0.064003 -0.140806 0.987966
11.27999973 0.11000000 -0.22000000 246 138 63 97.000000 1.000000 4.000000 1.000000 -60.708740 114.000000 1.000000 0.133603 -0.044534 0.990034
11.26000023 0.09000000 -0.19000000 246 138 63 97.000000 1.000000 4.000000 1.000000 -60.708740 114.000000 1.000000 0.339088 0.039969 0.939905
11.27000046 0.09000000 -0.25000000 246 138 63 97.000000 1.000000 4.000000 1.000000 -60.708740 114.000000 1.000000 -0.244900 0.154883 0.957097
11.32999992 0.03000000 -0.27000001 246 138 63 97.000000 1.000000 4.000000 1.000000 -60.708740 114.000000 1.000000 0.287122 -0.425310 0.858296
11.32999992 0.03000000 -0.27000001 246 138 63 97.000000 1.000000 4.000000 1.000000 -60.708740 114.000000 1.000000 0.287122 -0.425310 0.858296
11.25000000 -0.02000000 -0.23999999 246 138 63 97.000000 1.000000 4.000000 1.000000 -60.708740 114.000000 1.000000 0.286664 0.674220 -0.680626
11.27999973 0.00000000 -0.33000001 246 138 63 97.000000 1.000000 4.000000 1.000000 -60.708740 114.000000 1.000000 -0.140051 -0.099353 0.985147
11.23999977 0.09000000 -0.22000000 246 138 63 97.000000 1.000000 4.000000 1.000000 -60.708740 114.000000 1.000000 -0.024461 0.187538 0.981953
11.23999977 0.09000000 -0.19000000 246 138 63 97.000000 1.000000 4.000000 1.000000 -60.708740 114.000000 1.000000 0.033715 -0.457179 0.888735
11.21000004 0.06000000 -0.25999999 246 138 63 97.000000 1.000000 4.000000 1.000000 -60.708740 114.000000 1.000000 -0.074536 -0.397072 0.914756
11.22000027 0.00000000 -0.23999999 246 138 63 97.000000 1.000000 4.000000 1.000000 -60.708740 114.000000 1.000000 -0.135872 -0.515728 0.845910
11.22999954 0.00000000 -0.23000000 246 138 63 97.000000 1.000000 4.000000 1.000000 -60.708740 114.000000 1.000000 -0.120646 -0.247778 0.961275
11.14999962 0.14000000 -0.25000000 246 138 63 97.000000 1.000000 4.000000 1.000000 -60.708740 114.000000 1.000000 -0.012531 -0.169741 0.985409
11.25000000 0.27000001 -0.37000000 246 138 63 97.000000 1.000000 4.000000 1.000000 -60.708740 114.000000 1.000000 0.477044 0.467140 0.744453
11.27999973 0.28999999 -0.41999999 246 138 63 97.000000 1.000000 4.000000 1.000000 -60.708740 114.000000 1.000000 0.779478 0.335899 0.528759
11.27000046 0.25000000 -0.36000001 246 138 63 97.000000 1.000000 4.000000 1.000000 -60.708740 114.000000 1.000000 0.037689 -0.007130 0.999264
11.25000000 0.27000001 -0.51999998 246 138 63 97.000000 1.000000 4.000000 1.000000 -60.708740 114.000000 1.000000 0.686404 0.593332 0.420485
11.27000046 0.19000000 -0.47000000 246 138 63 97.000000 1.000000 4.000000 1.000000 -60.708740 114.000000 1.000000 0.442636 -0.151390 0.883830
11.26000023 0.16000000 -0.44999999 246 138 63 97.000000 1.000000 4.000000 1.000000 -60.708740 114.000000 1.000000 0.310144 0.166788 0.935945
11.27999973 0.20000000 -0.50999999 246 138 63 97.000000 1.000000 4.000000 1.000000 -60.708740 114.000000 1.000000 0.789251 0.510692 0.340995
11.22999954 0.22000000 -0.43000001 246 138 63 97.000000 1.000000 4.000000 1.000000 -60.708740 114.000000 1.000000 0.327478 0.011292 0.944791
11.23999977 0.28000000 -0.47000000 246 138 63 97.000000 1.000000 4.000000 1.000000 -60.708740 114.000000 1.000000 0.442537 0.528724 0.724302
11.22999954 0.27000001 -0.44000000 246 138 63 97.000000 1.000000 4.000000 1.000000 -60.708740 114.000000 1.000000 0.279493 0.108910 0.953951
11.23999977 0.28000000 -0.47999999 246 138 63 97.000000 1.000000 4.000000 1.000000 -60.708740 114.000000 1.000000 0.524562 0.729753 0.438514
11.22999954 0.28999999 -0.47999999 246 138 63 97.000000 1.000000 4.000000 1.000000 -60.708740 114.000000 1.000000 0.534748 0.442037 0.720172
11.22999954 0.28999999 -0.49000001 246 138 63 97.000000 1.000000 4.000000 1.000000 -60.708740 114.000000 1.000000 0.671745 0.652132 0.351400
11.22999954 0.23999999 -0.44000000 246 138 63 97.000000 1.000000 4.000000 1.000000 -60.708740 114.000000 1.000000 0.008639 0.299880 0.953938
11.22999954 0.22000000 -0.46000001 246 138 63 97.000000 1.000000 4.000000 1.000000 -60.708740 114.000000 1.000000 0.080378 0.325464 0.942132
11.17000008 0.28999999 -0.49000001 246 138 63 97.000000 1.000000 4.000000 1.000000 -60.708740 114.000000 1.000000 0.520044 0.697294 0.493290
11.19999981 0.23000000 -0.49000001 246 138 63 97.000000 1.000000 4.000000 1.000000 -60.708740 114.000000 1.000000 0.179356 0.073428 0.981040
11.21000004 0.20000000 -0.46000001 246 138 63 97.000000 1.000000 4.000000 1.000000 -60.708740 114.000000 1.000000 0.467856 -0.103183 0.877761
11.22999954 0.20999999 -0.50000000 246 138 63 97.000000 1.000000 4.000000 1.000000 -60.708740 114.000000 1.000000 0.243067 0.534128 0.809707
11.27999973 0.25999999 -0.54000002 246 138 63 97.000000 1.000000 4.000000 1.000000 -60.708740 114.000000 1.000000 0.453107 0.881916 0.130072
11.25000000 0.25999999 -0.52999997 246 138 63 97.000000 1.000000 4.000000 1.000000 -60.708740 114.000000 1.000000 0.690492 0.721813 -0.046982
11.28999996 0.23999999 -0.60000002 246 138 63 97.000000 1.000000 4.000000 1.000000 -60.708740 114.000000 1.000000 0.776517 0.620330 -0.110510
11.26000023 0.25000000 -0.57999998 246 138 63 97.000000 1.000000 4.000000 1.000000 -60.708740 114.000000 1.000000 0.562055 0.753186 -0.341768
11.31999969 0.27000001 -0.61000001 246 138 63 97.000000 1.000000 4.000000 1.000000 -60.708740 114.000000 1.000000 0.253762 0.745524 -0.616279
11.31999969 0.27000001 -0.61000001 246 138 63 97.000000 1.000000 4.000000 1.000000 -60.708740 114.000000 1.000000 0.253762 0.745524 -0.616279
11.32999992 0.16000000 -0.55000001 246 138 63 97.000000 1.000000 4.000000 1.000000 -60.708740 114.000000 1.000000 0.581343 0.725451 0.368457
11.31999969 0.19000000 -0.61000001 246 138 63 97.000000 1.000000 4.000000 1.000000 -60.708740 114.000000 1.000000 0.192085 0.827328 -0.527856
11.22000027 0.23999999 -0.52999997 246 138 63 97.000000 1.000000 4.000000 1.000000 -60.708740 114.000000 1.000000 0.724916 0.688318 0.026744
11.18000031 0.25000000 -0.52999997 246 138 63 97.000000 1.000000 4.000000 1.000000 -60.708740 114.000000 1.000000 0.809491 0.415165 0.415165
11.22000027 0.20000000 -0.55000001 246 138 63 97.000000 1.000000 4.000000 1.000000 -60.708740 114.000000 1.000000 0.842469 0.498850 -0.203458
11.31999969 -0.01000000 -0.38999999 246 138 63 97.000000 1.000000 4.000000 1.000000 -60.708740 114.000000 1.000000 -0.011628 -0.388897 0.921208
11.31999969 -0.01000000 -0.37000000 246 138 63 97.000000 1.000000 4.000000 1.000000 -60.708740 114.000000 1.000000 0.136205 -0.451627 0.881749
11.31999969 -0.03000000 -0.50000000 246 138 63 97.000000 1.000000 4.000000 1.000000 -60.708740 114.000000 1.000000 -0.581672 -0.412639 0.700990
11.32999992 -0.01000000 -0.57999998 246 138 63 97.000000 1.000000 4.000000 1.000000 -60.708740 114.000000 1.000000 0.678665 0.652625 -0.336891
11.15999985 0.22000000 -0.52999997 246 138 63 97.000000 1.000000 4.000000 1.000000 -60.708740 114.000000 1.000000 0.408770 0.819131 -0.402408
11.15999985 0.23000000 -0.56999999 246 138 63 97.000000 1.000000 4.000000 1.000000 -60.708740 114.000000 1.000000 -0.102437 0.086323 0.990987
11.10999966 0.28000000 -0.58999997 246 138 63 97.000000 1.000000 4.000000 1.000000 -60.708740 114.000000 1.000000 0.461814 -0.279560 0.841768
11.15999985 0.27000001 -0.63999999 246 138 63 97.000000 1.000000 4.000000 1.000000 -60.708740 114.000000 1.000000 0.015681 -0.055405 0.998341
11.31000042 -0.06000000 -0.27000001 246 138 63 97.000000 1.000000 4.000000 1.000000 -60.708740 114.000000 1.000000 -0.064577 -0.644337 0.762011
11.30000019 -0.05000000 -0.27000001 246 138 63 97.000000 1.000000 4.000000 1.000000 -60.708740 114.000000 1.000000 -0.223250 -0.191166 0.955832
11.27000046 -0.05000000 -0.25000000 246 138 63 97.000000 1.000000 4.000000 1.000000 -60.708740 114.000000 1.000000 -0.482311 -0.246514 0.840599
11.25000000 -0.11000000 -0.25000000 246 138 63 97.000000 1.000000 4.000000 1.000000 -60.708740 114.000000 1.000000 -0.102994 -0.064513 0.992588
11.26000023 -0.05000000 -0.28999999 246 138 63 97.000000 1.000000 4.000000 1.000000 -60.708740 114.000000 1.000000 -0.434118 -0.447125 0.782062
11.31000042 -0.07000000 -0.28000000 246 138 63 97.000000 1.000000 4.000000 1.000000 -60.708740 114.000000 1.000000 0.044692 -0.312846 0.948752
11.31000042 -0.07000000 -0.28000000 246 138 63 97.000000 1.000000 4.000000 1.000000 -60.708740 114.000000 1.000000 0.044692 -0.312846 0.948752
11.23999977 -0.05000000 -0.25999999 246 138 63 97.000000 1.000000 4.000000 1.000000 -60.708740 114.000000 1.000000 -0.106624 -0.579857 0.807711
11.22999954 -0.10000000 -0.25000000 246 138 63 97.000000 1.000000 4.000000 1.000000 -60.708740 114.000000 1.000000 -0.282338 -0.494481 0.822055
11.22000027 -0.11000000 -0.25999999 246 138 63 97.000000 1.000000 4.000000 1.000000 -60.708740 114.000000 1.000000 0.037155 -0.334399 0.941699
11.22999954 -0.10000000 -0.25000000 246 138 63 97.000000 1.000000 4.000000 1.000000 -60.708740 114.000000 1.000000 -0.282338 -0.494481 0.822055
11.22000027 -0.09000000 -0.25000000 246 138 63 97.000000 1.000000 4.000000 1.000000 -60.708740 114.000000 1.000000 0.078032 -0.534871 0.841323
11.17000008 -0.07000000 -0.27000001 246 138 63 97.000000 1.000000 4.000000 1.000000 -60.708740 114.000000 1.000000 -0.303667 -0.216098 0.927948
11.22000027 -0.13000000 -0.27000001 246 138 63 97.000000 1.000000 4.000000 1.000000 -60.708740 114.000000 1.000000 -0.197560 -0.408292 0.891217
11.15999985 -0.06000000 -0.25999999 246 138 63 97.000000 1.000000 4.000000 1.000000 -60.708740 114.000000 1.000000 -0.368631 -0.604555 0.706133
11.31000042 -0.05000000 -0.47999999 246 138 63 97.000000 1.000000 4.000000 1.000000 -60.708740 114.000000 1.000000 0.620875 0.482903 -0.617510
11.31999969 -0.06000000 -0.57999998 246 138 63 97.000000 1.000000 4.000000 1.000000 -60.708740 114.000000 1.000000 0.676482 0.727032 0.117455
10.68999958 1.00999999 -0.18000001 246 138 63 97.000000 1.000000 4.000000 1.000000 -60.708740 114.000000 1.000000 0.542870 0.196163 0.816586
10.68000031 0.98000002 -0.16000000 246 138 63 97.000000 1.000000 4.000000 1.000000 -60.708740 114.000000 1.000000 0.790666 0.365542 0.491147
10.60000038 0.98000002 -0.05000000 246 138 63 97.000000 1.000000 4.000000 1.000000 -60.708740 114.000000 1.000000 0.397513 0.426248 0.812586
10.65999985 0.97000003 -0.14000000 246 138 63 97.000000 1.000000 4.000000 1.000000 -60.708740 114.000000 1.000000 0.580723 0.313687 0.751240
10.64999962 0.97000003 -0.16000000 246 138 63 97.000000 1.000000 4.000000 1.000000 -60.708740 114.000000 1.000000 0.499424 0.586865 0.637312
10.63000011 1.00999999 -0.16000000 246 138 63 97.000000 1.000000 4.000000 1.000000 -60.708740 114.000000 1.000000 0.402332 -0.016927 0.915337
10.59000015 0.97000003 -0.15000001 246 138 63 97.000000 1.000000 4.000000 1.000000 -60.708740 114.000000 1.000000 0.130268 0.223132 0.966045
10.60000038 0.97000003 -0.15000001 246 138 63 97.000000 1.000000 4.000000 1.000000 -60.708740 114.000000 1.000000 0.343081 0.586978 0.733316
10.60000038 0.97000003 -0.15000001 246 138 63 97.000000 1.000000 4.000000 1.000000 -60.708740 114.000000 1.000000 0.343081 0.586978 0.733316
10.51000023 1.00000000 -0.07000000 246 138 63 97.000000 1.000000 4.000000 1.000000 -60.708740 114.000000 1.000000 -0.008016 0.179787 0.983673
10.52000046 1.01999998 -0.09000000 246 138 63 97.000000 1.000000 4.000000 1.000000 -60.708740 114.000000 1.000000 0.676373 0.133475 0.724364
10.53999996 1.00999999 -0.13000000 246 138 63 97.000000 1.000000 4.000000 1.000000 -60.708740 114.000000 1.000000 0.326567 0.353908 0.876415
10.56000042 1.00000000 -0.14000000 246 138 63 97.000000 1.000000 4.000000 1.000000 -60.708740 114.000000 1.000000 0.720899 0.139966 0.678759
10.56999969 0.98000002 -0.16000000 246 138 63 97.000000 1.000000 4.000000 1.000000 -60.708740 114.000000 1.000000 0.620650 0.067369 0.781188
10.52999973 1.01999998 -0.18000001 246 138 63 97.000000 1.000000 4.000000 1.000000 -60.708740 114.000000 1.000000 0.695800 0.189764 0.692714
10.52999973 1.00000000 -0.13000000 246 138 63 97.000000 1.000000 4.000000 1.000000 -60.708740 114.000000 1.000000 0.533282 0.222841 0.816059
10.50000000 0.97000003 -0.13000000 246 138 63 97.000000 1.000000 4.000000 1.000000 -60.708740 114.000000 1.000000 0.490023 0.278457 0.826038
10.52999973 0.97000003 -0.12000000 246 138 63 97.000000 1.000000 4.000000 1.000000 -60.708740 114.000000 1.000000 0.508302 -0.154701 0.847170
10.52999973 1.00000000 -0.13000000 246 138 63 97.000000 1.000000 4.000000 1.000000 -60.708740 114.000000 1.000000 0.533282 0.222841 0.816059
10.64000034 1.01999998 -0.22000000 246 138 63 97.000000 1.000000 4.000000 1.000000 -60.708740 114.000000 1.000000 0.419495 0.350364 0.837418
10.63000011 0.99000001 -0.20000000 246 138 63 97.000000 1.000000 4.000000 1.000000 -60.708740 114.000000 1.000000 0.354854 0.606686 0.711344
10.64999962 0.99000001 -0.20000000 246 138 63 97.000000 1.000000 4.000000 1.000000 -60.708740 114.000000 1.000000 0.231365 0.267823 0.935276
10.65999985 1.00999999 -0.22000000 246 138 63 97.000000 1.000000 4.000000 1.000000 -60.708740 114.000000 1.000000 0.340865 0.699671 0.627910
10.57999992 0.97000003 -0.23999999 246 138 63 97.000000 1.000000 4.000000 1.000000 -60.708740 114.000000 1.000000 0.716204 0.143241 0.683033
10.53999996 1.00999999 -0.20000000 246 138 63 97.000000 1.000000 4.000000 1.000000 -60.708740 114.000000 1.000000 0.082673 0.388969 0.917534
10.34000015 1.13999999 -0.11000000 246 138 63 97.000000 1.000000 4.000000 1.000000 -60.708740 114.000000 1.000000 -0.013210 0.246186 0.969133
10.36999989 1.21000004 -0.31000000 246 138 63 97.000000 1.000000 4.000000 1.000000 -60.708740 114.000000 1.000000 0.531105 0.723031 0.441761
10.32999992 1.19000006 -0.30000001 246 138 63 97.000000 1.000000 4.000000 1.000000 -60.708740 114.000000 1.000000 0.713854 0.403913 0.572072
10.35000038 1.15999997 -0.28999999 246 138 63 97.000000 1.000000 4.000000 1.000000 -60.708740 114.000000 1.000000 0.769596 0.222328 0.598575
10.46000004 1.05999994 -0.10000000 246 138 63 97.000000 1.000000 4.000000 1.000000 -60.708740 114.000000 1.000000 0.436744 0.232630 0.868986
10.43000031 1.05999994 -0.03000000 246 138 63 97.000000 1.000000 4.000000 1.000000 -60.708740 114.000000 1.000000 0.424618 0.211569 0.880306
10.47999954 1.07000005 -0.11000000 246 138 63 97.000000 1.000000 4.000000 1.000000 -60.708740 114.000000 1.000000 0.484020 0.278584 0.829527
10.46000004 1.03999996 -0.10000000 246 138 63 97.000000 1.000000 4.000000 1.000000 -60.708740 114.000000 1.000000 -0.054543 0.147382 0.987575
10.43999958 1.01999998 -0.09000000 246 138 63 97.000000 1.000000 4.000000 1.000000 -60.708740 114.000000 1.000000 -0.175911 -0.148069 0.973206
10.46000004 1.03999996 -0.12000000 246 138 63 97.000000 1.000000 4.000000 1.000000 -60.708740 114.000000 1.000000 0.605280 -0.113398 0.787894
10.46000004 1.03999996 -0.16000000 246 138 63 97.000000 1.000000 4.000000 1.000000 -60.708740 114.000000 1.000000 0.624590 0.300253 0.720927
10.47999954 1.02999997 -0.17000000 246 138 63 97.000000 1.000000 4.000000 1.000000 -60.708740 114.000000 1.000000 0.589265 0.132102 0.797067
10.47000027 1.00000000 -0.16000000 246 138 63 97.000000 1.000000 4.000000 1.000000 -60.708740 114.000000 1.000000 0.379052 0.068310 0.922851
10.47000027 1.00999999 -0.15000001 246 138 63 97.000000 1.000000 4.000000 1.000000 -60.708740 114.000000 1.000000 0.288141 -0.259470 0.921765
10.39999962 1.07000005 -0.08000000 246 138 63 97.000000 1.000000 4.000000 1.000000 -60.708740 114.000000 1.000000 0.290672 -0.365976 0.884065
10.35000038 1.09000003 -0.11000000 246 138 63 97.000000 1.000000 4.000000 1.000000 -60.708740 114.000000 1.000000 0.442883 -0.274312 0.853585
10.36999989 1.03999996 -0.09000000 246 138 63 97.000000 1.000000 4.000000 1.000000 -60.708740 114.000000 1.000000 0.235134 -0.205232 0.950048
10.43999958 1.02999997 -0.28999999 246 138 63 97.000000 1.000000 4.000000 1.000000 -60.708740 114.000000 1.000000 0.297954 -0.060102 0.952686
10.42000008 1.04999995 -0.30000001 246 138 63 97.000000 1.000000 4.000000 1.000000 -60.708740 114.000000 1.000000 0.352568 0.470623 0.808833
10.47000027 0.97000003 -0.30000001 246 138 63 97.000000 1.000000 4.000000 1.000000 -60.708740 114.000000 1.000000 0.533982 0.428178 0.729059
10.47000027 0.98000002 -0.30000001 246 138 63 97.000000 1.000000 4.000000 1.000000 -60.708740 114.000000 1.000000 0.643787 0.206322 0.736865
10.38000011 1.11000001 -0.31999999 246 138 63 97.000000 1.000000 4.000000 1.000000 -60.708740 114.000000 1.000000 0.840368 0.181256 0.510812
10.38000011 1.08000004 -0.28000000 246 138 63 97.000000 1.000000 4.000000 1.000000 -60.708740 114.000000 1.000000 0.202763 0.360947 0.910277
10.40999985 1.07000005 -0.28000000 246 138 63 97.000000 1.000000 4.000000 1.000000 -60.708740 114.000000 1.000000 0.554363 0.200059 0.807873
10.39000034 1.07000005 -0.31999999 246 138 63 97.000000 1.000000 4.000000 1.000000 -60.708740 114.000000 1.000000 0.617190 0.037959 0.785898
10.38000011 1.09000003 -0.33000001 246 138 63 97.000000 1.000000 4.000000 1.000000 -60.708740 114.000000 1.000000 0.637023 0.643676 0.424127
10.59000015 1.05999994 -0.47999999 246 138 63 97.000000 1.000000 4.000000 1.000000 -60.708740 114.000000 1.000000 0.640782 0.417756 -0.644110
10.61999989 1.04999995 -0.46000001 246 138 63 97.000000 1.000000 4.000000 1.000000 -60.708740 114.000000 1.000000 0.827245 0.552940 0.099616
10.63000011 1.03999996 -0.44999999 246 138 63 97.000000 1.000000 4.000000 1.000000 -60.708740 114.000000 1.000000 0.847921 0.382580 -0.366964
10.55000019 0.99000001 -0.68000001 246 138 63 97.000000 1.000000 4.000000 1.000000 -60.708740 114.000000 1.000000 -0.259754 -0.574608 0.776114
10.35999966 1.20000005 -0.38000000 246 138 63 97.000000 1.000000 4.000000 1.000000 -60.708740 114.000000 1.000000 0.432383 0.860182 -0.270430
10.43999958 1.02999997 -0.41999999 246 138 63 97.000000 1.000000 4.000000 1.000000 -60.708740 114.000000 1.000000 0.585086 0.803946 -0.106512
10.36999989 1.07000005 -0.38999999 246 138 63 97.000000 1.000000 4.000000 1.000000 -60.708740 114.000000 1.000000 0.662175 0.748971 0.023799
10.39000034 1.07000005 -0.40000001 246 138 63 97.000000 1.000000 4.000000 1.000000 -60.708740 114.000000 1.000000 0.429812 0.839305 -0.332909
10.32999992 1.10000002 -0.41000000 246 138 63 97.000000 1.000000 4.000000 1.000000 -60.708740 114.000000 1.000000 0.312063 0.703354 -0.638678
10.35000038 1.08000004 -0.37000000 246 138 63 97.000000 1.000000 4.000000 1.000000 -60.708740 114.000000 1.000000 0.746963 0.421911 0.513845
10.39000034 1.10000002 -0.44000000 246 138 63 97.000000 1.000000 4.000000 1.000000 -60.708740 114.000000 1.000000 -0.213164 -0.695507 0.686171
10.36999989 1.03999996 -0.41000000 246 138 63 97.000000 1.000000 4.000000 1.000000 -60.708740 114.000000 1.000000 -0.551388 -0.347649 0.758361
10.39999962 1.01999998 -0.44000000 246 138 63 97.000000 1.000000 4.000000 1.000000 -60.708740 114.000000 1.000000 -0.386688 -0.014226 0.922101
10.35999966 0.98000002 -0.46000001 246 138 63 97.000000 1.000000 4.000000 1.000000 -60.708740 114.000000 1.000000 0.282785 0.391665 0.875575
10.60999966 0.98000002 -0.75999999 246 138 63 97.000000 1.000000 4.000000 1.000000 -60.708740 114.000000 1.000000 -0.226715 -0.312268 0.922545
10.56000042 1.00999999 -0.70999998 246 138 63 97.000000 1.000000 4.000000 1.000000 -60.708740 114.000000 1.000000 0.208505 -0.216576 0.953740
10.52999973 0.97000003 -0.70999998 246 138 63 97.000000 1.000000 4.000000 1.000000 -60.708740 114.000000 1.000000 -0.420565 -0.285984 0.861010
10.86999989 0.88000000 -0.17000000 246 138 63 97.000000 1.000000 4.000000 1.000000 -60.708740 114.000000 1.000000 0.587510 0.456952 0.667853
10.92000008 0.82999998 -0.20999999 246 138 63 97.000000 1.000000 4.000000 1.000000 -60.708740 114.000000 1.000000 0.813021 0.236038 0.532243
10.85000038 0.81000000 -0.19000000 246 138 63 97.000000 1.000000 4.000000 1.000000 -60.708740 114.000000 1.000000 0.593947 0.267672 0.758669
10.85000038 0.82999998 -0.34000000 246 138 63 97.000000 1.000000 4.000000 1.000000 -60.708740 114.000000 1.000000 0.622596 0.742386 0.247462
10.86999989 0.80000001 -0.17000000 246 138 63 97.000000 1.000000 4.000000 1.000000 -60.708740 114.000000 1.000000 0.636169 -0.029491 0.770986
10.84000015 0.74000001 -0.15000001 246 138 63 97.000000 1.000000 4.000000 1.000000 -60.708740 114.000000 1.000000 0.386357 0.139088 0.911802
10.97000027 0.64999998 -0.34000000 246 138 63 97.000000 1.000000 4.000000 1.000000 -60.708740 114.000000 1.000000 0.372123 0.369009 0.851679
10.96000004 0.64999998 -0.31999999 246 138 63 97.000000 1.000000 4.000000 1.000000 -60.708740 114.000000 1.000000 0.590428 0.644256 0.486136
10.92000008 0.70999998 -0.30000001 246 138 63 97.000000 1.000000 4.000000 1.000000 -60.708740 114.000000 1.000000 0.314358 0.614207 0.723829
10.92000008 0.70999998 -0.30000001 246 138 63 97.000000 1.000000 4.000000 1.000000 -60.708740 114.000000 1.000000 0.314358 0.614207 0.723829
10.92000008 0.69000000 -0.33000001 246 138 63 97.000000 1.000000 4.000000 1.000000 -60.708740 114.000000 1.000000 0.487096 0.163346 0.857937
10.93000031 0.66000003 -0.31999999 246 138 63 97.000000 1.000000 4.000000 1.000000 -60.708740 114.000000 1.000000 0.295497 0.263785 0.918204
10.89999962 0.77999997 -0.27000001 246 138 63 97.000000 1.000000 4.000000 1.000000 -60.708740 114.000000 1.000000 0.708583 0.255217 0.657856
10.90999985 0.75000000 -0.19000000 246 138 63 97.000000 1.000000 4.000000 1.000000 -60.708740 114.000000 1.000000 0.623635 0.453097 0.637011
10.88000011 0.73000002 -0.22000000 246 138 63 97.000000 1.000000 4.000000 1.000000 -60.708740 114.000000 1.000000 0.231932 0.083997 0.969099
10.88000011 0.72000003 -0.25000000 246 138 63 97.000000 1.000000 4.000000 1.000000 -60.708740 114.000000 1.000000 0.580160 0.137992 0.802728
10.88000011 0.72000003 -0.25000000 246 138 63 97.000000 1.000000 4.000000 1.000000 -60.708740 114.000000 1.000000 0.580160 0.137992 0.802728
10.82999992 0.80000001 -0.25000000 246 138 63 97.000000 1.000000 4.000000 1.000000 -60.708740 114.000000 1.000000 0.510647 0.107883 0.852996
10.84000015 0.75000000 -0.27000001 246 138 63 97.000000 1.000000 4.000000 1.000000 -60.708740 114.000000 1.000000 0.403191 0.287559 0.868762
10.82999992 0.74000001 -0.23999999 246 138 63 97.000000 1.000000 4.000000 1.000000 -60.708740 114.000000 1.000000 0.108375 0.041339 0.993250
10.89000034 0.74000001 -0.28999999 246 138 63 97.000000 1.000000 4.000000 1.000000 -60.708740 114.000000 1.000000 0.667229 0.644164 0.373977
10.84000015 0.73000002 -0.28000000 246 138 63 97.000000 1.000000 4.000000 1.000000 -60.708740 114.000000 1.000000 0.500699 0.141597 0.853962
10.82999992 0.72000003 -0.30000001 246 138 63 97.000000 1.000000 4.000000 1.000000 -60.708740 114.000000 1.000000 0.496178 0.095255 0.862980
10.86999989 0.73000002 -0.30000001 246 138 63 97.000000 1.000000 4.000000 1.000000 -60.708740 114.000000 1.000000 0.718984 0.449988 0.529691
10.82999992 0.73000002 -0.30000001 246 138 63 97.000000 1.000000 4.000000 1.000000 -60.708740 114.000000 1.000000 0.415421 0.159556 0.895526
10.86999989 0.70999998 -0.19000000 246 138 63 97.000000 1.000000 4.000000 1.000000 -60.708740 114.000000 1.000000 0.596586 0.055266 0.800644
10.82999992 0.69999999 -0.27000001 246 138 63 97.000000 1.000000 4.000000 1.000000 -60.708740 114.000000 1.000000 0.475127 0.245966 0.844840
10.90999985 0.70999998 -0.30000001 246 138 63 97.000000 1.000000 4.000000 1.000000 -60.708740 114.000000 1.000000 0.317782 0.256837 0.912715
10.90999985 0.69999999 -0.31999999 246 138 63 97.000000 1.000000 4.000000 1.000000 -60.708740 114.000000 1.000000 0.373204 0.662561 0.649408
10.90999985 0.69000000 -0.31999999 246 138 63 97.000000 1.000000 4.000000 1.000000 -60.708740 114.000000 1.000000 0.392492 0.094362 0.914902
10.85000038 0.69999999 -0.34999999 246 138 63 97.000000 1.000000 4.000000 1.000000 -60.708740 114.000000 1.000000 0.656776 0.244125 0.713476
10.85000038 0.69000000 -0.31999999 246 138 63 97.000000 1.000000 4.000000 1.000000 -60.708740 114.000000 1.000000 0.562151 0.555399 0.612795
10.85000038 0.66000003 -0.28999999 246 138 63 97.000000 1.000000 4.000000 1.000000 -60.708740 114.000000 1.000000 0.284831 0.239485 0.928180
10.84000015 0.67000002 -0.34000000 246 138 63 97.000000 1.000000 4.000000 1.000000 -60.708740 114.000000 1.000000 0.459213 0.376011 0.804823
10.82999992 0.66000003 -0.34000000 246 138 63 97.000000 1.000000 4.000000 1.000000 -60.708740 114.000000 1.000000 0.404484 0.525665 0.748377
10.76000023 0.94999999 -0.18000001 246 138 63 97.000000 1.000000 4.000000 1.000000 -60.708740 114.000000 1.000000 0.542496 0.711715 0.446273
10.81999969 0.83999997 -0.18000001 246 138 63 97.000000 1.000000 4.000000 1.000000 -60.708740 114.000000 1.000000 0.750797 0.445221 0.487936
10.81999969 0.83999997 -0.18000001 246 138 63 97.000000 1.000000 4.000000 1.000000 -60.708740 114.000000 1.000000 0.750797 0.445221 0.487936
10.77000046 0.82999998 -0.13000000 246 138 63 97.000000 1.000000 4.000000 1.000000 -60.708740 114.000000 1.000000 0.421229 0.339802 0.840893
10.75000000 0.83999997 -0.17000000 246 138 63 97.000000 1.000000 4.000000 1.000000 -60.708740 114.000000 1.000000 0.148596 0.082025 0.985490
10.72000027 0.93000001 -0.17000000 246 138 63 97.000000 1.000000 4.000000 1.000000 -60.708740 114.000000 1.000000 0.390636 0.378085 0.839318
10.71000004 0.93000001 -0.16000000 246 138 63 97.000000 1.000000 4.000000 1.000000 -60.708740 114.000000 1.000000 0.613874 0.546230 0.569905
10.73999977 0.95999998 -0.18000001 246 138 63 97.000000 1.000000 4.000000 1.000000 -60.708740 114.000000 1.000000 0.354468 0.619093 0.700768
10.71000004 0.89999998 -0.16000000 246 138 63 97.000000 1.000000 4.000000 1.000000 -60.708740 114.000000 1.000000 0.606615 0.032222 0.794343
10.71000004 0.88999999 -0.15000001 246 138 63 97.000000 1.000000 4.000000 1.000000 -60.708740 114.000000 1.000000 0.437301 0.203086 0.876085
10.68999958 0.94999999 -0.16000000 246 138 63 97.000000 1.000000 4.000000 1.000000 -60.708740 114.000000 1.000000 0.257063 0.023148 0.966118
10.68000031 0.94999999 -0.18000001 246 138 63 97.000000 1.000000 4.000000 1.000000 -60.708740 114.000000 1.000000 0.258249 0.663844 0.701868
10.68000031 0.92000002 -0.11000000 246 138 63 97.000000 1.000000 4.000000 1.000000 -60.708740 114.000000 1.000000 0.155588 -0.097695 0.982979
10.69999981 0.92000002 -0.15000001 246 138 63 97.000000 1.000000 4.000000 1.000000 -60.708740 114.000000 1.000000 0.372316 0.605218 0.703628
