//X Y Z R G B PointSourceId ScanDirectionFlag NumberOfReturns ReturnNumber GpsTime Intensity Classification Nx Ny Nz
-16.56999969 6.57999992 0.05000000 206 67 119 0.000000 0.000000 0.000000 0.000000 -60.708740 0.000000 125.000000 0.862835 0.484526 0.144048
-16.55999947 6.55999994 0.06000000 206 67 119 0.000000 0.000000 0.000000 0.000000 -60.708740 0.000000 125.000000 0.911203 0.254323 0.324080
-16.67000008 6.65999985 0.08000000 206 67 119 0.000000 0.000000 0.000000 0.000000 -60.708740 0.000000 125.000000 -0.111371 0.940613 0.320694
-16.65999985 6.67000008 0.13000000 206 67 119 0.000000 0.000000 0.000000 0.000000 -60.708740 0.000000 125.000000 0.318754 0.931207 -0.176776
-16.68000031 6.67000008 0.13000000 206 67 119 0.000000 0.000000 0.000000 0.000000 -60.708740 0.000000 125.000000 -0.247307 0.968720 -0.020508
-16.63999939 6.67000008 -0.01000000 206 67 119 0.000000 0.000000 0.000000 0.000000 -60.708740 0.000000 125.000000 0.147198 0.956127 0.253287
-16.62000084 6.63999987 0.01000000 206 67 119 0.000000 0.000000 0.000000 0.000000 -60.708740 0.000000 125.000000 0.558113 0.829628 0.015084
-16.62000084 6.63999987 0.01000000 206 67 119 0.000000 0.000000 0.000000 0.000000 -60.708740 0.000000 125.000000 0.558113 0.829628 0.015084
-16.56999969 6.44000006 0.30000001 206 67 119 0.000000 0.000000 0.000000 0.000000 -60.708740 0.000000 125.000000 0.980131 -0.196497 0.027062
-16.54999924 6.46000004 0.25999999 206 67 119 0.000000 0.000000 0.000000 0.000000 -60.708740 0.000000 125.000000 0.997301 0.018056 -0.071160
-16.56999969 6.44000006 0.25000000 206 67 119 0.000000 0.000000 0.000000 0.000000 -60.708740 0.000000 125.000000 0.980340 -0.172139 -0.096447
-16.54000092 6.46999979 0.22000000 206 67 119 0.000000 0.000000 0.000000 0.000000 -60.708740 0.000000 125.000000 0.998652 -0.026088 -0.044872
-16.54000092 6.46999979 0.15000001 206 67 119 0.000000 0.000000 0.000000 0.000000 -60.708740 0.000000 125.000000 0.911611 -0.397014 -0.106516
-16.56999969 6.44000006 0.19000000 206 67 119 0.000000 0.000000 0.000000 0.000000 -60.708740 0.000000 125.000000 0.956477 -0.245420 0.157865
-16.54000092 6.46000004 0.15000001 206 67 119 0.000000 0.000000 0.000000 0.000000 -60.708740 0.000000 125.000000 0.986600 -0.003375 -0.163121
-16.59000015 6.40999985 0.20000000 206 67 119 0.000000 0.000000 0.000000 0.000000 -60.708740 0.000000 125.000000 0.780854 -0.602632 0.164629
-16.63999939 6.36999989 0.25000000 206 67 119 0.000000 0.000000 0.000000 0.000000 -60.708740 0.000000 125.000000 -0.551078 0.805895 -0.216440
-16.63999939 6.36999989 0.23000000 206 67 119 0.000000 0.000000 0.000000 0.000000 -60.708740 0.000000 125.000000 -0.248919 0.967192 0.050775
-16.54999924 6.48999977 0.14000000 206 67 119 0.000000 0.000000 0.000000 0.000000 -60.708740 0.000000 125.000000 0.944148 0.184993 -0.272693
-16.54000092 6.48999977 0.10000000 206 67 119 0.000000 0.000000 0.000000 0.000000 -60.708740 0.000000 125.000000 0.938660 -0.321014 0.125967
-16.54000092 6.46000004 0.05000000 206 67 119 0.000000 0.000000 0.000000 0.000000 -60.708740 0.000000 125.000000 0.885538 -0.204808 0.416984
-16.54000092 6.50000000 0.04000000 206 67 119 0.000000 0.000000 0.000000 0.000000 -60.708740 0.000000 125.000000 0.954848 -0.001223 0.297091
-16.55999947 6.42999983 0.04000000 206 67 119 0.000000 0.000000 0.000000 0.000000 -60.708740 0.000000 125.000000 0.902934 -0.390263 0.180011
-16.56999969 6.40999985 0.13000000 206 67 119 0.000000 0.000000 0.000000 0.000000 -60.708740 0.000000 125.000000 0.801104 -0.512389 0.309337
-16.57999992 6.40999985 0.10000000 206 67 119 0.000000 0.000000 0.000000 0.000000 -60.708740 0.000000 125.000000 -0.682514 0.728494 -0.058912
-16.57999992 6.42000008 0.04000000 206 67 119 0.000000 0.000000 0.000000 0.000000 -60.708740 0.000000 125.000000 -0.678119 0.732598 0.058780
-16.61000061 6.38000011 0.00000000 206 67 119 0.000000 0.000000 0.000000 0.000000 -60.708740 0.000000 125.000000 -0.484794 0.820541 0.302800
-16.60000038 6.40000010 0.02000000 206 67 119 0.000000 0.000000 0.000000 0.000000 -60.708740 0.000000 125.000000 -0.392078 0.911127 0.126972
-16.55999947 6.40000010 0.01000000 206 67 119 0.000000 0.000000 0.000000 0.000000 -60.708740 0.000000 125.000000 -0.593776 0.766112 0.245971
-16.64999962 6.36999989 0.11000000 206 67 119 0.000000 0.000000 0.000000 0.000000 -60.708740 0.000000 125.000000 -0.396006 0.831455 0.389695
-16.69000053 6.36999989 0.04000000 206 67 119 0.000000 0.000000 0.000000 0.000000 -60.708740 0.000000 125.000000 0.102939 0.967118 0.232566
-16.67000008 6.36999989 0.01000000 206 67 119 0.000000 0.000000 0.000000 0.000000 -60.708740 0.000000 125.000000 -0.081897 0.996595 0.009572
-16.67000008 6.36999989 0.01000000 206 67 119 0.000000 0.000000 0.000000 0.000000 -60.708740 0.000000 125.000000 -0.081897 0.996595 0.009572
-16.70000076 6.65000010 0.16000000 206 67 119 0.000000 0.000000 0.000000 0.000000 -60.708740 0.000000 125.000000 -0.162616 0.865818 0.473197
-16.72999954 6.63999987 0.17000000 206 67 119 0.000000 0.000000 0.000000 0.000000 -60.708740 0.000000 125.000000 -0.433898 0.889277 0.144633
-16.70999908 6.65000010 0.16000000 206 67 119 0.000000 0.000000 0.000000 0.000000 -60.708740 0.000000 125.000000 0.098372 0.856836 0.506118
-16.75000000 6.63000011 0.19000000 206 67 119 0.000000 0.000000 0.000000 0.000000 -60.708740 0.000000 125.000000 -0.584915 0.731551 0.350297
-16.78000069 6.61999989 0.17000000 206 67 119 0.000000 0.000000 0.000000 0.000000 -60.708740 0.000000 125.000000 -0.670604 0.727870 0.143163
-16.79000092 6.53000021 0.16000000 206 67 119 0.000000 0.000000 0.000000 0.000000 -60.708740 0.000000 125.000000 0.911815 -0.406893 -0.055058
-16.81999969 6.51999998 0.17000000 206 67 119 0.000000 0.000000 0.000000 0.000000 -60.708740 0.000000 125.000000 0.970351 -0.228538 0.078677
-16.79999924 6.51000023 0.19000000 206 67 119 0.000000 0.000000 0.000000 0.000000 -60.708740 0.000000 125.000000 0.903008 -0.417520 -0.101259
-16.75000000 6.65000010 0.14000000 206 67 119 0.000000 0.000000 0.000000 0.000000 -60.708740 0.000000 125.000000 -0.298297 0.938879 -0.171830
-16.76000023 6.61999989 0.11000000 206 67 119 0.000000 0.000000 0.000000 0.000000 -60.708740 0.000000 125.000000 -0.643975 0.663739 0.380456
-16.70999908 6.65999985 0.13000000 206 67 119 0.000000 0.000000 0.000000 0.000000 -60.708740 0.000000 125.000000 -0.221526 0.959062 0.176425
-16.72999954 6.67000008 0.06000000 206 67 119 0.000000 0.000000 0.000000 0.000000 -60.708740 0.000000 125.000000 0.007271 0.998219 0.059208
-16.75000000 6.61999989 -0.01000000 206 67 119 0.000000 0.000000 0.000000 0.000000 -60.708740 0.000000 125.000000 -0.313483 0.943117 0.110720
-16.70000076 6.65999985 0.04000000 206 67 119 0.000000 0.000000 0.000000 0.000000 -60.708740 0.000000 125.000000 -0.147743 0.988388 0.035504
-16.77000046 6.63000011 0.06000000 206 67 119 0.000000 0.000000 0.000000 0.000000 -60.708740 0.000000 125.000000 0.715571 -0.625115 -0.311750
-16.81999969 6.59999990 0.01000000 206 67 119 0.000000 0.000000 0.000000 0.000000 -60.708740 0.000000 125.000000 0.846947 -0.382140 -0.369662
-16.80999947 6.51999998 0.10000000 206 67 119 0.000000 0.000000 0.000000 0.000000 -60.708740 0.000000 125.000000 0.914390 -0.404815 0.003880
-16.80999947 6.55999994 0.14000000 206 67 119 0.000000 0.000000 0.000000 0.000000 -60.708740 0.000000 125.000000 0.815997 -0.556430 0.156636
-16.79999924 6.51999998 0.10000000 206 67 119 0.000000 0.000000 0.000000 0.000000 -60.708740 0.000000 125.000000 0.852461 -0.519315 0.060190
-16.86000061 6.59000015 0.04000000 206 67 119 0.000000 0.000000 0.000000 0.000000 -60.708740 0.000000 125.000000 -0.651187 0.717410 -0.247546
-16.82999992 6.51999998 0.04000000 206 67 119 0.000000 0.000000 0.000000 0.000000 -60.708740 0.000000 125.000000 0.885000 -0.207629 0.416731
-16.82999992 6.55000019 -0.01000000 206 67 119 0.000000 0.000000 0.000000 0.000000 -60.708740 0.000000 125.000000 0.978341 -0.020014 -0.206029
-16.79999924 6.51000023 0.02000000 206 67 119 0.000000 0.000000 0.000000 0.000000 -60.708740 0.000000 125.000000 0.967988 0.092129 -0.233478
-16.79999924 6.51000023 -0.02000000 206 67 119 0.000000 0.000000 0.000000 0.000000 -60.708740 0.000000 125.000000 0.960558 -0.129030 -0.246330
-16.79000092 6.59000015 -0.01000000 206 67 119 0.000000 0.000000 0.000000 0.000000 -60.708740 0.000000 125.000000 -0.524382 0.815189 -0.245949
-16.72999954 6.40999985 0.19000000 206 67 119 0.000000 0.000000 0.000000 0.000000 -60.708740 0.000000 125.000000 0.506090 0.703181 0.499409
-16.75000000 6.42000008 0.17000000 206 67 119 0.000000 0.000000 0.000000 0.000000 -60.708740 0.000000 125.000000 0.867480 0.497427 -0.006704
-16.79999924 6.48999977 0.15000001 206 67 119 0.000000 0.000000 0.000000 0.000000 -60.708740 0.000000 125.000000 0.872427 -0.480610 -0.088793
-16.80999947 6.44999981 0.17000000 206 67 119 0.000000 0.000000 0.000000 0.000000 -60.708740 0.000000 125.000000 0.994502 -0.087979 -0.056797
-16.72999954 6.36999989 0.07000000 206 67 119 0.000000 0.000000 0.000000 0.000000 -60.708740 0.000000 125.000000 0.539658 0.771631 0.336682
-16.76000023 6.40999985 0.06000000 206 67 119 0.000000 0.000000 0.000000 0.000000 -60.708740 0.000000 125.000000 0.491255 0.863635 0.113146
-16.77000046 6.38999987 0.05000000 206 67 119 0.000000 0.000000 0.000000 0.000000 -60.708740 0.000000 125.000000 0.435164 0.898797 -0.052870
-16.73999977 6.38000011 0.03000000 206 67 119 0.000000 0.000000 0.000000 0.000000 -60.708740 0.000000 125.000000 0.037719 0.988689 0.145160
-16.73999977 6.38999987 0.01000000 206 67 119 0.000000 0.000000 0.000000 0.000000 -60.708740 0.000000 125.000000 0.271424 0.945210 -0.181404
-16.77000046 6.40999985 0.01000000 206 67 119 0.000000 0.000000 0.000000 0.000000 -60.708740 0.000000 125.000000 0.707476 0.686083 -0.169611
-16.79000092 6.42999983 0.10000000 206 67 119 0.000000 0.000000 0.000000 0.000000 -60.708740 0.000000 125.000000 0.734766 0.662345 -0.146350
-16.79000092 6.44000006 0.08000000 206 67 119 0.000000 0.000000 0.000000 0.000000 -60.708740 0.000000 125.000000 0.759009 0.632256 0.155423
-16.79999924 6.46999979 0.12000000 206 67 119 0.000000 0.000000 0.000000 0.000000 -60.708740 0.000000 125.000000 0.942087 0.286603 -0.174156
-16.80999947 6.50000000 0.07000000 206 67 119 0.000000 0.000000 0.000000 0.000000 -60.708740 0.000000 125.000000 0.991678 -0.081398 -0.099741
-16.80999947 6.46999979 0.14000000 206 67 119 0.000000 0.000000 0.000000 0.000000 -60.708740 0.000000 125.000000 0.984673 -0.149555 -0.089733
-16.79999924 6.48999977 0.14000000 206 67 119 0.000000 0.000000 0.000000 0.000000 -60.708740 0.000000 125.000000 0.991782 0.023375 -0.125782
-16.79000092 6.46999979 0.01000000 206 67 119 0.000000 0.000000 0.000000 0.000000 -60.708740 0.000000 125.000000 0.918290 0.386577 -0.085454
-16.82999992 6.48000002 0.04000000 206 67 119 0.000000 0.000000 0.000000 0.000000 -60.708740 0.000000 125.000000 0.997347 -0.061062 0.039637
-16.79999924 6.38999987 0.03000000 206 67 119 0.000000 0.000000 0.000000 0.000000 -60.708740 0.000000 125.000000 0.886406 0.435250 -0.157615
-16.87999916 6.82000017 0.17000000 206 67 119 0.000000 0.000000 0.000000 0.000000 -60.708740 0.000000 125.000000 -0.362634 0.930804 0.045820
-16.92000008 6.34999990 0.16000000 206 67 119 0.000000 0.000000 0.000000 0.000000 -60.708740 0.000000 125.000000 0.900903 0.186543 0.391886
-16.59000015 6.30000019 0.18000001 206 67 119 0.000000 0.000000 0.000000 0.000000 -60.708740 0.000000 125.000000 -0.536980 0.799991 -0.267707
-16.64999962 6.28000021 0.19000000 206 67 119 0.000000 0.000000 0.000000 0.000000 -60.708740 0.000000 125.000000 -0.286941 0.947041 -0.144144
-16.64999962 6.34000015 0.14000000 206 67 119 0.000000 0.000000 0.000000 0.000000 -60.708740 0.000000 125.000000 -0.303090 0.920761 -0.245632
-16.53000069 6.51000023 -0.07000000 206 67 119 0.000000 0.000000 0.000000 0.000000 -60.708740 0.000000 125.000000 0.970577 -0.233086 0.060430
-16.51000023 6.53999996 -0.34999999 206 67 119 0.000000 0.000000 0.000000 0.000000 -60.708740 0.000000 125.000000 0.962652 -0.106961 0.248717
-16.52000046 6.46000004 -0.25999999 206 67 119 0.000000 0.000000 0.000000 0.000000 -60.708740 0.000000 125.000000 0.967876 -0.249578 0.030436
-16.52000046 6.46000004 -0.25000000 206 67 119 0.000000 0.000000 0.000000 0.000000 -60.708740 0.000000 125.000000 0.802576 -0.526150 0.281137
-16.47999954 6.38999987 -0.27000001 206 67 119 0.000000 0.000000 0.000000 0.000000 -60.708740 0.000000 125.000000 0.942167 -0.250414 -0.222744
-16.47999954 6.38999987 -0.31999999 206 67 119 0.000000 0.000000 0.000000 0.000000 -60.708740 0.000000 125.000000 -0.758163 0.557710 0.337859
-16.53000069 6.55999994 -0.58999997 206 67 119 0.000000 0.000000 0.000000 0.000000 -60.708740 0.000000 125.000000 0.978710 -0.203751 -0.024733
-16.53000069 6.55999994 -0.60000002 206 67 119 0.000000 0.000000 0.000000 0.000000 -60.708740 0.000000 125.000000 0.951359 -0.306199 0.034022
-16.51000023 6.57000017 -0.61000001 206 67 119 0.000000 0.000000 0.000000 0.000000 -60.708740 0.000000 125.000000 0.980782 0.053758 0.187555
-16.51000023 6.53000021 -0.68000001 206 67 119 0.000000 0.000000 0.000000 0.000000 -60.708740 0.000000 125.000000 0.798134 -0.577855 0.170490
-16.53000069 6.59000015 -0.68000001 206 67 119 0.000000 0.000000 0.000000 0.000000 -60.708740 0.000000 125.000000 0.998366 -0.034790 0.045332
-16.50000000 6.53999996 -0.69000000 206 67 119 0.000000 0.000000 0.000000 0.000000 -60.708740 0.000000 125.000000 0.958229 -0.059494 -0.279747
-16.51000023 6.51000023 -0.62000000 206 67 119 0.000000 0.000000 0.000000 0.000000 -60.708740 0.000000 125.000000 0.700851 -0.688528 0.186380
-16.42000008 6.46999979 -0.36000001 206 67 119 0.000000 0.000000 0.000000 0.000000 -60.708740 0.000000 125.000000 0.974640 -0.189409 0.119165
-16.52000046 6.50000000 -0.36000001 206 67 119 0.000000 0.000000 0.000000 0.000000 -60.708740 0.000000 125.000000 0.846469 -0.416220 -0.332040
-16.52000046 6.46999979 -0.44000000 206 67 119 0.000000 0.000000 0.000000 0.000000 -60.708740 0.000000 125.000000 0.987491 -0.130645 0.088274
-16.47999954 6.36999989 -0.38999999 206 67 119 0.000000 0.000000 0.000000 0.000000 -60.708740 0.000000 125.000000 0.884315 -0.390535 -0.255868
-16.50000000 6.36999989 -0.44999999 206 67 119 0.000000 0.000000 0.000000 0.000000 -60.708740 0.000000 125.000000 -0.496423 0.823222 0.275445
-16.48999977 6.34999990 -0.50000000 206 67 119 0.000000 0.000000 0.000000 0.000000 -60.708740 0.000000 125.000000 0.868395 -0.488384 -0.085854
-16.51000023 6.48999977 -0.63999999 206 67 119 0.000000 0.000000 0.000000 0.000000 -60.708740 0.000000 125.000000 0.862199 -0.460339 0.211426
-16.53000069 6.44999981 -0.67000002 206 67 119 0.000000 0.000000 0.000000 0.000000 -60.708740 0.000000 125.000000 -0.333522 0.928001 0.166063
-16.53000069 6.48000002 -0.68000001 206 67 119 0.000000 0.000000 0.000000 0.000000 -60.708740 0.000000 125.000000 -0.637370 0.689533 -0.343952
-16.52000046 6.40999985 -0.56999999 206 67 119 0.000000 0.000000 0.000000 0.000000 -60.708740 0.000000 125.000000 0.792218 -0.607981 -0.052437
-16.53000069 6.73000002 -0.95999998 206 67 119 0.000000 0.000000 0.000000 0.000000 -60.708740 0.000000 125.000000 0.697024 0.708863 0.108031
-16.47999954 6.67999983 -1.05999994 206 67 119 0.000000 0.000000 0.000000 0.000000 -60.708740 0.000000 125.000000 0.863193 0.484727 0.141197
-16.51000023 6.76000023 -1.05999994 206 67 119 0.000000 0.000000 0.000000 0.000000 -60.708740 0.000000 125.000000 0.396187 0.883572 0.249673
-16.51000023 6.73000002 -1.09000003 206 67 119 0.000000 0.000000 0.000000 0.000000 -60.708740 0.000000 125.000000 0.752939 0.551288 0.359394
-16.50000000 6.73000002 -1.08000004 206 67 119 0.000000 0.000000 0.000000 0.000000 -60.708740 0.000000 125.000000 0.827733 0.489185 -0.274876
-16.51000023 6.75000000 -1.11000001 206 67 119 0.000000 0.000000 0.000000 0.000000 -60.708740 0.000000 125.000000 0.827807 0.512598 -0.227991
-16.48999977 6.69000006 -1.03999996 206 67 119 0.000000 0.000000 0.000000 0.000000 -60.708740 0.000000 125.000000 0.876828 0.366231 0.311525
-16.48999977 6.69000006 -1.07000005 206 67 119 0.000000 0.000000 0.000000 0.000000 -60.708740 0.000000 125.000000 0.797363 0.590255 0.125744
-16.50000000 6.69000006 -1.11000001 206 67 119 0.000000 0.000000 0.000000 0.000000 -60.708740 0.000000 125.000000 0.812015 0.582015 0.043476
-16.48999977 6.71000004 -1.17999995 206 67 119 0.000000 0.000000 0.000000 0.000000 -60.708740 0.000000 125.000000 0.913076 0.328476 0.241654
-16.47999954 6.69999981 -1.14999998 206 67 119 0.000000 0.000000 0.000000 0.000000 -60.708740 0.000000 125.000000 0.973568 0.145592 0.175977
-16.48999977 6.69000006 -1.19000006 206 67 119 0.000000 0.000000 0.000000 0.000000 -60.708740 0.000000 125.000000 0.890130 0.150991 0.429966
-16.52000046 6.78000021 -1.35000002 206 67 119 0.000000 0.000000 0.000000 0.000000 -60.708740 0.000000 125.000000 0.756873 0.645179 0.104346
-16.47999954 6.69999981 -1.22000003 206 67 119 0.000000 0.000000 0.000000 0.000000 -60.708740 0.000000 125.000000 0.835014 0.310594 0.454185
-16.51000023 6.75000000 -1.20000005 206 67 119 0.000000 0.000000 0.000000 0.000000 -60.708740 0.000000 125.000000 0.962062 0.262381 -0.074785
-16.47999954 6.69999981 -1.25000000 206 67 119 0.000000 0.000000 0.000000 0.000000 -60.708740 0.000000 125.000000 0.840251 0.521280 -0.149148
-16.51000023 6.73999977 -1.20000005 206 67 119 0.000000 0.000000 0.000000 0.000000 -60.708740 0.000000 125.000000 0.951830 0.306605 0.003694
-16.51000023 6.76000023 -1.23000002 206 67 119 0.000000 0.000000 0.000000 0.000000 -60.708740 0.000000 125.000000 0.851975 0.523567 0.004038
-16.46999931 6.71999979 -1.36000001 206 67 119 0.000000 0.000000 0.000000 0.000000 -60.708740 0.000000 125.000000 0.994581 -0.074621 -0.072394
-16.45999908 6.71000004 -1.32000005 206 67 119 0.000000 0.000000 0.000000 0.000000 -60.708740 0.000000 125.000000 0.982424 0.046107 -0.180880
-16.52000046 6.65000010 -0.75999999 206 67 119 0.000000 0.000000 0.000000 0.000000 -60.708740 0.000000 125.000000 0.898131 0.418560 -0.134791
-16.50000000 6.61000013 -0.83999997 206 67 119 0.000000 0.000000 0.000000 0.000000 -60.708740 0.000000 125.000000 0.897096 -0.313909 0.310934
-16.52000046 6.63999987 -0.85000002 206 67 119 0.000000 0.000000 0.000000 0.000000 -60.708740 0.000000 125.000000 0.826226 0.535323 0.175442
-16.52000046 6.61000013 -0.85000002 206 67 119 0.000000 0.000000 0.000000 0.000000 -60.708740 0.000000 125.000000 0.927854 0.372924 0.003818
-16.48999977 6.59999990 -0.79000002 206 67 119 0.000000 0.000000 0.000000 0.000000 -60.708740 0.000000 125.000000 0.988111 0.140826 0.061684
-16.51000023 6.61000013 -0.81000000 206 67 119 0.000000 0.000000 0.000000 0.000000 -60.708740 0.000000 125.000000 0.954733 -0.292886 0.051984
-16.52000046 6.55999994 -0.73000002 206 67 119 0.000000 0.000000 0.000000 0.000000 -60.708740 0.000000 125.000000 0.984003 -0.084890 -0.156627
-16.51000023 6.57999992 -0.75000000 206 67 119 0.000000 0.000000 0.000000 0.000000 -60.708740 0.000000 125.000000 0.982808 0.117840 0.142137
-16.53000069 6.51999998 -0.72000003 206 67 119 0.000000 0.000000 0.000000 0.000000 -60.708740 0.000000 125.000000 0.964023 -0.250875 0.087870
-16.52000046 6.51999998 -0.72000003 206 67 119 0.000000 0.000000 0.000000 0.000000 -60.708740 0.000000 125.000000 0.964704 -0.214813 -0.152322
-16.51000023 6.53999996 -0.72000003 206 67 119 0.000000 0.000000 0.000000 0.000000 -60.708740 0.000000 125.000000 0.921332 -0.260158 -0.288904
-16.50000000 6.53999996 -0.80000001 206 67 119 0.000000 0.000000 0.000000 0.000000 -60.708740 0.000000 125.000000 0.987242 -0.112591 -0.112591
-16.51000023 6.57999992 -0.83999997 206 67 119 0.000000 0.000000 0.000000 0.000000 -60.708740 0.000000 125.000000 0.979017 -0.195803 0.056459
-16.52000046 6.51999998 -0.79000002 206 67 119 0.000000 0.000000 0.000000 0.000000 -60.708740 0.000000 125.000000 0.872872 -0.382358 0.303144
-16.51000023 6.53000021 -0.83999997 206 67 119 0.000000 0.000000 0.000000 0.000000 -60.708740 0.000000 125.000000 0.735472 -0.675492 0.052840
-16.51000023 6.67000008 -0.87000000 206 67 119 0.000000 0.000000 0.000000 0.000000 -60.708740 0.000000 125.000000 0.935275 0.222285 -0.275410
-16.51000023 6.67000008 -0.87000000 206 67 119 0.000000 0.000000 0.000000 0.000000 -60.708740 0.000000 125.000000 0.935275 0.222285 -0.275410
-16.52000046 6.67000008 -0.91000003 206 67 119 0.000000 0.000000 0.000000 0.000000 -60.708740 0.000000 125.000000 0.995814 0.018341 0.089548
-16.51000023 6.61000013 -0.91000003 206 67 119 0.000000 0.000000 0.000000 0.000000 -60.708740 0.000000 125.000000 0.884900 -0.415120 -0.211253
-16.48999977 6.65000010 -0.99000001 206 67 119 0.000000 0.000000 0.000000 0.000000 -60.708740 0.000000 125.000000 0.971719 0.235460 0.017928
-16.47999954 6.63999987 -1.01999998 206 67 119 0.000000 0.000000 0.000000 0.000000 -60.708740 0.000000 125.000000 0.997804 -0.065824 -0.007314
-16.46999931 6.61000013 -1.00999999 206 67 119 0.000000 0.000000 0.000000 0.000000 -60.708740 0.000000 125.000000 0.932031 -0.359479 -0.045752
-16.50000000 6.65999985 -1.00999999 206 67 119 0.000000 0.000000 0.000000 0.000000 -60.708740 0.000000 125.000000 0.939409 0.322121 -0.117258
-16.48999977 6.57999992 -0.91000003 206 67 119 0.000000 0.000000 0.000000 0.000000 -60.708740 0.000000 125.000000 0.968176 -0.214153 0.129518
-16.52000046 6.59000015 -0.86000001 206 67 119 0.000000 0.000000 0.000000 0.000000 -60.708740 0.000000 125.000000 0.993814 -0.029781 0.106992
-16.47999954 6.53999996 -1.00000000 206 67 119 0.000000 0.000000 0.000000 0.000000 -60.708740 0.000000 125.000000 0.836146 -0.543708 -0.072400
-16.51000023 6.51999998 -1.00999999 206 67 119 0.000000 0.000000 0.000000 0.000000 -60.708740 0.000000 125.000000 -0.444102 0.871866 0.206455
-16.47999954 6.53000021 -1.01999998 206 67 119 0.000000 0.000000 0.000000 0.000000 -60.708740 0.000000 125.000000 0.919175 -0.278494 0.278494
-16.51000023 6.51000023 -0.95999998 206 67 119 0.000000 0.000000 0.000000 0.000000 -60.708740 0.000000 125.000000 0.902876 -0.400803 -0.155472
-16.53000069 6.46000004 -0.80000001 206 67 119 0.000000 0.000000 0.000000 0.000000 -60.708740 0.000000 125.000000 -0.674450 0.720124 0.162903
-16.53000069 6.46000004 -0.80000001 206 67 119 0.000000 0.000000 0.000000 0.000000 -60.708740 0.000000 125.000000 -0.674450 0.720124 0.162903
-16.52000046 6.46999979 -0.80000001 206 67 119 0.000000 0.000000 0.000000 0.000000 -60.708740 0.000000 125.000000 0.842355 -0.474112 -0.256235
-16.53000069 6.46999979 -0.83999997 206 67 119 0.000000 0.000000 0.000000 0.000000 -60.708740 0.000000 125.000000 0.853354 -0.456445 -0.251884
-16.51000023 6.36999989 -0.70999998 206 67 119 0.000000 0.000000 0.000000 0.000000 -60.708740 0.000000 125.000000 0.699052 -0.683483 0.210183
-16.51000023 6.50000000 -0.99000001 206 67 119 0.000000 0.000000 0.000000 0.000000 -60.708740 0.000000 125.000000 0.790342 -0.555587 -0.258231
-16.53000069 6.48000002 -0.88999999 206 67 119 0.000000 0.000000 0.000000 0.000000 -60.708740 0.000000 125.000000 0.861345 -0.471583 -0.188931
-16.47999954 6.63999987 -1.02999997 206 67 119 0.000000 0.000000 0.000000 0.000000 -60.708740 0.000000 125.000000 0.939044 -0.212221 0.270478
-16.48999977 6.63000011 -1.04999995 206 67 119 0.000000 0.000000 0.000000 0.000000 -60.708740 0.000000 125.000000 0.959337 0.230927 -0.162309
-16.47999954 6.67000008 -1.07000005 206 67 119 0.000000 0.000000 0.000000 0.000000 -60.708740 0.000000 125.000000 0.988144 0.125721 0.088122
-16.46999931 6.63999987 -1.03999996 206 67 119 0.000000 0.000000 0.000000 0.000000 -60.708740 0.000000 125.000000 0.928656 -0.311431 0.201514
-16.47999954 6.63999987 -1.09000003 206 67 119 0.000000 0.000000 0.000000 0.000000 -60.708740 0.000000 125.000000 0.967245 -0.253009 -0.020580
-16.45999908 6.61000013 -1.17999995 206 67 119 0.000000 0.000000 0.000000 0.000000 -60.708740 0.000000 125.000000 0.944368 -0.270015 -0.187777
-16.47999954 6.59000015 -1.02999997 206 67 119 0.000000 0.000000 0.000000 0.000000 -60.708740 0.000000 125.000000 0.904937 -0.346478 0.247067
-16.51000023 6.51999998 -1.05999994 206 67 119 0.000000 0.000000 0.000000 0.000000 -60.708740 0.000000 125.000000 0.931836 -0.349270 0.098443
-16.45999908 6.57999992 -1.09000003 206 67 119 0.000000 0.000000 0.000000 0.000000 -60.708740 0.000000 125.000000 0.905993 -0.383360 0.179476
-16.47999954 6.57999992 -1.09000003 206 67 119 0.000000 0.000000 0.000000 0.000000 -60.708740 0.000000 125.000000 0.789172 -0.576880 -0.210754
-16.52000046 6.53000021 -1.02999997 206 67 119 0.000000 0.000000 0.000000 0.000000 -60.708740 0.000000 125.000000 0.912754 -0.406699 0.038418
-16.48999977 6.53000021 -1.08000004 206 67 119 0.000000 0.000000 0.000000 0.000000 -60.708740 0.000000 125.000000 -0.682397 0.698012 -0.217055
-16.47999954 6.55000019 -1.17999995 206 67 119 0.000000 0.000000 0.000000 0.000000 -60.708740 0.000000 125.000000 0.693769 -0.611374 -0.380667
-16.47999954 6.55999994 -1.17999995 206 67 119 0.000000 0.000000 0.000000 0.000000 -60.708740 0.000000 125.000000 0.811577 -0.570019 -0.128144
-16.44000053 6.59999990 -1.29999995 206 67 119 0.000000 0.000000 0.000000 0.000000 -60.708740 0.000000 125.000000 0.963140 -0.263583 -0.053716
-16.44000053 6.59000015 -1.34000003 206 67 119 0.000000 0.000000 0.000000 0.000000 -60.708740 0.000000 125.000000 0.839343 -0.532019 0.111622
-16.45000076 6.63999987 -1.25999999 206 67 119 0.000000 0.000000 0.000000 0.000000 -60.708740 0.000000 125.000000 0.959890 -0.094056 -0.264131
-16.45999908 6.67000008 -1.25000000 206 67 119 0.000000 0.000000 0.000000 0.000000 -60.708740 0.000000 125.000000 0.907131 0.407028 0.106966
-16.45000076 6.59999990 -1.33000004 206 67 119 0.000000 0.000000 0.000000 0.000000 -60.708740 0.000000 125.000000 0.968727 -0.222185 -0.110458
-16.45999908 6.59000015 -1.26999998 206 67 119 0.000000 0.000000 0.000000 0.000000 -60.708740 0.000000 125.000000 0.940324 -0.340224 -0.006277
-16.45999908 6.55999994 -1.33000004 206 67 119 0.000000 0.000000 0.000000 0.000000 -60.708740 0.000000 125.000000 0.752447 -0.600373 0.270881
-16.53000069 6.46999979 -1.15999997 206 67 119 0.000000 0.000000 0.000000 0.000000 -60.708740 0.000000 125.000000 -0.553915 0.815110 -0.169627
-16.53000069 6.44999981 -1.03999996 206 67 119 0.000000 0.000000 0.000000 0.000000 -60.708740 0.000000 125.000000 -0.358561 0.840818 0.405534
-16.52000046 6.48999977 -1.09000003 206 67 119 0.000000 0.000000 0.000000 0.000000 -60.708740 0.000000 125.000000 0.861722 -0.485539 -0.147266
-16.52000046 6.48999977 -1.33000004 206 67 119 0.000000 0.000000 0.000000 0.000000 -60.708740 0.000000 125.000000 -0.482122 0.851598 0.205765
-16.48999977 6.50000000 -1.20000005 206 67 119 0.000000 0.000000 0.000000 0.000000 -60.708740 0.000000 125.000000 -0.498561 0.866770 0.012094
-16.48999977 6.46999979 -1.28999996 206 67 119 0.000000 0.000000 0.000000 0.000000 -60.708740 0.000000 125.000000 -0.487900 0.872874 0.006684
-16.50000000 6.50000000 -1.22000003 206 67 119 0.000000 0.000000 0.000000 0.000000 -60.708740 0.000000 125.000000 0.760658 -0.645625 -0.067582
-16.47999954 6.46999979 -1.28999996 206 67 119 0.000000 0.000000 0.000000 0.000000 -60.708740 0.000000 125.000000 0.719656 -0.690696 0.070952
-16.47999954 6.32000017 -0.50999999 206 67 119 0.000000 0.000000 0.000000 0.000000 -60.708740 0.000000 125.000000 -0.450530 0.813501 0.367747
-16.45999908 6.28999996 -0.56999999 206 67 119 0.000000 0.000000 0.000000 0.000000 -60.708740 0.000000 125.000000 -0.713235 0.622665 0.321845
-16.48999977 6.28999996 -0.55000001 206 67 119 0.000000 0.000000 0.000000 0.000000 -60.708740 0.000000 125.000000 -0.449533 0.880276 -0.151772
-16.69000053 6.67999983 -0.09000000 206 67 119 0.000000 0.000000 0.000000 0.000000 -60.708740 0.000000 125.000000 0.131511 0.897951 0.419987
-16.85000038 6.84999990 -0.10000000 206 67 119 0.000000 0.000000 0.000000 0.000000 -60.708740 0.000000 125.000000 -0.200941 0.978236 0.051739
-16.79000092 6.86999989 -0.31000000 206 67 119 0.000000 0.000000 0.000000 0.000000 -60.708740 0.000000 125.000000 -0.378105 0.924985 0.037941
-16.71999931 6.76999998 -0.03000000 206 67 119 0.000000 0.000000 0.000000 0.000000 -60.708740 0.000000 125.000000 -0.034716 0.975627 -0.216673
-16.78000069 6.76999998 -0.05000000 206 67 119 0.000000 0.000000 0.000000 0.000000 -60.708740 0.000000 125.000000 -0.145729 0.959709 -0.240255
-16.73999977 6.78000021 -0.09000000 206 67 119 0.000000 0.000000 0.000000 0.000000 -60.708740 0.000000 125.000000 -0.307896 0.849423 0.428580
-16.71999931 6.76999998 -0.13000000 206 67 119 0.000000 0.000000 0.000000 0.000000 -60.708740 0.000000 125.000000 -0.323363 0.934313 -0.149985
-16.77000046 6.69000006 -0.09000000 206 67 119 0.000000 0.000000 0.000000 0.000000 -60.708740 0.000000 125.000000 -0.679053 0.730955 0.067761
-16.77000046 6.69000006 -0.09000000 206 67 119 0.000000 0.000000 0.000000 0.000000 -60.708740 0.000000 125.000000 -0.679053 0.730955 0.067761
-16.81999969 6.82999992 -0.10000000 206 67 119 0.000000 0.000000 0.000000 0.000000 -60.708740 0.000000 125.000000 -0.314362 0.901762 0.296652
-16.86000061 6.76999998 -0.08000000 206 67 119 0.000000 0.000000 0.000000 0.000000 -60.708740 0.000000 125.000000 0.720263 -0.661148 -0.210012
-16.82999992 6.78999996 -0.17000000 206 67 119 0.000000 0.000000 0.000000 0.000000 -60.708740 0.000000 125.000000 0.582723 -0.758338 0.292160
-16.82999992 6.82000017 -0.11000000 206 67 119 0.000000 0.000000 0.000000 0.000000 -60.708740 0.000000 125.000000 -0.640135 0.767314 -0.038154
-16.76000023 6.75000000 -0.20000000 206 67 119 0.000000 0.000000 0.000000 0.000000 -60.708740 0.000000 125.000000 -0.089064 0.995102 -0.042883
-16.70999908 6.69999981 -0.28000000 206 67 119 0.000000 0.000000 0.000000 0.000000 -60.708740 0.000000 125.000000 -0.197575 0.978180 -0.064242
-16.70000076 6.69000006 -0.34000000 206 67 119 0.000000 0.000000 0.000000 0.000000 -60.708740 0.000000 125.000000 -0.174764 0.956532 -0.233463
-16.79000092 6.78000021 -0.19000000 206 67 119 0.000000 0.000000 0.000000 0.000000 -60.708740 0.000000 125.000000 -0.258856 0.964828 -0.045826
-16.79000092 6.73000002 -0.25999999 206 67 119 0.000000 0.000000 0.000000 0.000000 -60.708740 0.000000 125.000000 -0.622249 0.769190 0.145441
-16.69000053 6.69000006 -0.44000000 206 67 119 0.000000 0.000000 0.000000 0.000000 -60.708740 0.000000 125.000000 -0.068000 0.990034 0.123322
-16.61000061 6.69999981 -0.57999998 206 67 119 0.000000 0.000000 0.000000 0.000000 -60.708740 0.000000 125.000000 0.330858 0.921575 0.203059
-16.57999992 6.69999981 -0.68000001 206 67 119 0.000000 0.000000 0.000000 0.000000 -60.708740 0.000000 125.000000 0.651951 0.742710 0.152777
-16.61000061 6.71000004 -0.64999998 206 67 119 0.000000 0.000000 0.000000 0.000000 -60.708740 0.000000 125.000000 0.551081 0.719880 0.421999
-16.68000031 6.71000004 -0.56999999 206 67 119 0.000000 0.000000 0.000000 0.000000 -60.708740 0.000000 125.000000 0.277895 0.943200 0.182069
-16.65999985 6.69000006 -0.55000001 206 67 119 0.000000 0.000000 0.000000 0.000000 -60.708740 0.000000 125.000000 -0.008247 0.974318 0.225024
-16.68000031 6.71000004 -0.68000001 206 67 119 0.000000 0.000000 0.000000 0.000000 -60.708740 0.000000 125.000000 -0.110956 0.921891 0.371222
-16.63999939 6.69999981 -0.66000003 206 67 119 0.000000 0.000000 0.000000 0.000000 -60.708740 0.000000 125.000000 0.036414 0.955552 0.292567
-16.63999939 6.71999979 -0.68000001 206 67 119 0.000000 0.000000 0.000000 0.000000 -60.708740 0.000000 125.000000 -0.145462 0.989363 0.001110
-16.76000023 6.76000023 -0.44000000 206 67 119 0.000000 0.000000 0.000000 0.000000 -60.708740 0.000000 125.000000 -0.472993 0.881065 -0.001325
-16.73999977 6.67999983 -0.50999999 206 67 119 0.000000 0.000000 0.000000 0.000000 -60.708740 0.000000 125.000000 -0.251383 0.959946 0.123738
-16.71999931 6.67999983 -0.50999999 206 67 119 0.000000 0.000000 0.000000 0.000000 -60.708740 0.000000 125.000000 -0.093448 0.991009 0.095755
-16.77000046 6.67999983 -0.56000000 206 67 119 0.000000 0.000000 0.000000 0.000000 -60.708740 0.000000 125.000000 0.724358 -0.632022 0.275415
-16.70000076 6.71000004 -0.69000000 206 67 119 0.000000 0.000000 0.000000 0.000000 -60.708740 0.000000 125.000000 -0.262259 0.935438 0.237015
-16.71999931 6.69000006 -0.63000000 206 67 119 0.000000 0.000000 0.000000 0.000000 -60.708740 0.000000 125.000000 -0.597590 0.758419 -0.260165
-16.56999969 6.59999990 -0.05000000 206 67 119 0.000000 0.000000 0.000000 0.000000 -60.708740 0.000000 125.000000 0.900661 0.421793 0.104404
-16.60000038 6.63999987 -0.15000001 206 67 119 0.000000 0.000000 0.000000 0.000000 -60.708740 0.000000 125.000000 0.372545 0.901412 -0.220605
-16.60000038 6.61000013 -0.15000001 206 67 119 0.000000 0.000000 0.000000 0.000000 -60.708740 0.000000 125.000000 0.645484 0.678167 0.351340
-16.59000015 6.65000010 -0.15000001 206 67 119 0.000000 0.000000 0.000000 0.000000 -60.708740 0.000000 125.000000 0.801914 0.589428 0.097510
-16.55999947 6.59000015 -0.10000000 206 67 119 0.000000 0.000000 0.000000 0.000000 -60.708740 0.000000 125.000000 0.793702 0.441305 0.418674
-16.54000092 6.55000019 -0.05000000 206 67 119 0.000000 0.000000 0.000000 0.000000 -60.708740 0.000000 125.000000 0.936845 0.348265 -0.032128
-16.55999947 6.59000015 -0.07000000 206 67 119 0.000000 0.000000 0.000000 0.000000 -60.708740 0.000000 125.000000 0.613805 0.683293 0.395416
-16.55999947 6.57000017 -0.14000000 206 67 119 0.000000 0.000000 0.000000 0.000000 -60.708740 0.000000 125.000000 0.939466 0.330873 0.089030
-16.55999947 6.57999992 -0.15000001 206 67 119 0.000000 0.000000 0.000000 0.000000 -60.708740 0.000000 125.000000 0.640785 0.761024 0.101177
-16.64999962 6.63999987 -0.10000000 206 67 119 0.000000 0.000000 0.000000 0.000000 -60.708740 0.000000 125.000000 0.326203 0.941631 0.083202
-16.64999962 6.65000010 -0.05000000 206 67 119 0.000000 0.000000 0.000000 0.000000 -60.708740 0.000000 125.000000 0.301396 0.912925 0.275188
-16.62999916 6.63000011 -0.08000000 206 67 119 0.000000 0.000000 0.000000 0.000000 -60.708740 0.000000 125.000000 0.561086 0.815722 0.140642
-16.68000031 6.65000010 -0.08000000 206 67 119 0.000000 0.000000 0.000000 0.000000 -60.708740 0.000000 125.000000 -0.035702 0.996406 0.076813
-16.63999939 6.65000010 -0.12000000 206 67 119 0.000000 0.000000 0.000000 0.000000 -60.708740 0.000000 125.000000 0.139540 0.979252 -0.146950
-16.62999916 6.65000010 -0.12000000 206 67 119 0.000000 0.000000 0.000000 0.000000 -60.708740 0.000000 125.000000 0.498313 0.865491 0.051074
-16.59000015 6.63999987 -0.23000000 206 67 119 0.000000 0.000000 0.000000 0.000000 -60.708740 0.000000 125.000000 0.509945 0.848934 -0.138810
-16.61000061 6.61000013 -0.20999999 206 67 119 0.000000 0.000000 0.000000 0.000000 -60.708740 0.000000 125.000000 0.678203 0.703148 -0.213595
-16.59000015 6.61000013 -0.23999999 206 67 119 0.000000 0.000000 0.000000 0.000000 -60.708740 0.000000 125.000000 0.823702 0.515776 0.235563
-16.60000038 6.63999987 -0.34999999 206 67 119 0.000000 0.000000 0.000000 0.000000 -60.708740 0.000000 125.000000 0.731054 0.650343 -0.206433
-16.54999924 6.53999996 -0.23000000 206 67 119 0.000000 0.000000 0.000000 0.000000 -60.708740 0.000000 125.000000 0.989745 0.137813 0.037585
-16.55999947 6.59000015 -0.20999999 206 67 119 0.000000 0.000000 0.000000 0.000000 -60.708740 0.000000 125.000000 0.940303 0.329304 0.085963
-16.56999969 6.59000015 -0.28000000 206 67 119 0.000000 0.000000 0.000000 0.000000 -60.708740 0.000000 125.000000 0.613681 0.786144 0.073297
-16.54999924 6.55999994 -0.34000000 206 67 119 0.000000 0.000000 0.000000 0.000000 -60.708740 0.000000 125.000000 0.997818 -0.005224 0.065825
-16.56999969 6.51999998 -0.31999999 206 67 119 0.000000 0.000000 0.000000 0.000000 -60.708740 0.000000 125.000000 0.882447 -0.354487 -0.309234
-16.54999924 6.59000015 -0.30000001 206 67 119 0.000000 0.000000 0.000000 0.000000 -60.708740 0.000000 125.000000 0.943267 0.233400 -0.236162
-16.64999962 6.63999987 -0.27000001 206 67 119 0.000000 0.000000 0.000000 0.000000 -60.708740 0.000000 125.000000 0.510812 0.840368 0.181256
-16.68000031 6.65000010 -0.22000000 206 67 119 0.000000 0.000000 0.000000 0.000000 -60.708740 0.000000 125.000000 -0.005502 0.991376 0.130936
-16.62999916 6.63000011 -0.31999999 206 67 119 0.000000 0.000000 0.000000 0.000000 -60.708740 0.000000 125.000000 0.252322 0.965353 0.066533
-16.63999939 6.65000010 -0.33000001 206 67 119 0.000000 0.000000 0.000000 0.000000 -60.708740 0.000000 125.000000 0.138778 0.944498 0.297766
-16.54999924 6.48000002 -0.10000000 206 67 119 0.000000 0.000000 0.000000 0.000000 -60.708740 0.000000 125.000000 0.885213 -0.441887 0.145376
-16.54999924 6.44999981 -0.05000000 206 67 119 0.000000 0.000000 0.000000 0.000000 -60.708740 0.000000 125.000000 0.978242 -0.074312 0.193699
-16.55999947 6.42999983 -0.14000000 206 67 119 0.000000 0.000000 0.000000 0.000000 -60.708740 0.000000 125.000000 -0.663206 0.744474 -0.076914
-16.59000015 6.38999987 -0.10000000 206 67 119 0.000000 0.000000 0.000000 0.000000 -60.708740 0.000000 125.000000 0.812659 -0.556347 -0.173387
-16.54000092 6.42000008 -0.09000000 206 67 119 0.000000 0.000000 0.000000 0.000000 -60.708740 0.000000 125.000000 0.772402 -0.611548 -0.171476
-16.56999969 6.40000010 -0.10000000 206 67 119 0.000000 0.000000 0.000000 0.000000 -60.708740 0.000000 125.000000 -0.584709 0.797059 0.151037
-16.60000038 6.36999989 -0.16000000 206 67 119 0.000000 0.000000 0.000000 0.000000 -60.708740 0.000000 125.000000 -0.452734 0.858528 -0.240751
-16.68000031 6.36000013 -0.08000000 206 67 119 0.000000 0.000000 0.000000 0.000000 -60.708740 0.000000 125.000000 -0.143967 0.957579 -0.249631
-16.62000084 6.36999989 -0.08000000 206 67 119 0.000000 0.000000 0.000000 0.000000 -60.708740 0.000000 125.000000 -0.258476 0.930796 -0.258476
-16.68000031 6.36999989 -0.05000000 206 67 119 0.000000 0.000000 0.000000 0.000000 -60.708740 0.000000 125.000000 -0.325178 0.944929 -0.036981
-16.62000084 6.36000013 -0.15000001 206 67 119 0.000000 0.000000 0.000000 0.000000 -60.708740 0.000000 125.000000 -0.218438 0.951088 -0.218438
-16.64999962 6.36000013 -0.14000000 206 67 119 0.000000 0.000000 0.000000 0.000000 -60.708740 0.000000 125.000000 -0.115209 0.977418 -0.177149
-16.67000008 6.36999989 -0.11000000 206 67 119 0.000000 0.000000 0.000000 0.000000 -60.708740 0.000000 125.000000 -0.107220 0.993718 -0.032055
-16.54000092 6.50000000 -0.28999999 206 67 119 0.000000 0.000000 0.000000 0.000000 -60.708740 0.000000 125.000000 0.987847 0.100080 0.118918
-16.56999969 6.36999989 -0.34999999 206 67 119 0.000000 0.000000 0.000000 0.000000 -60.708740 0.000000 125.000000 0.781177 -0.622964 -0.040966
-16.68000031 6.34999990 -0.23000000 206 67 119 0.000000 0.000000 0.000000 0.000000 -60.708740 0.000000 125.000000 0.086156 0.865796 0.492925
-16.69000053 6.38999987 -0.34999999 206 67 119 0.000000 0.000000 0.000000 0.000000 -60.708740 0.000000 125.000000 0.202026 0.880363 0.429122
-16.70000076 6.63999987 -0.08000000 206 67 119 0.000000 0.000000 0.000000 0.000000 -60.708740 0.000000 125.000000 -0.220037 0.975457 0.008237
-16.71999931 6.61999989 -0.06000000 206 67 119 0.000000 0.000000 0.000000 0.000000 -60.708740 0.000000 125.000000 -0.588241 0.779690 0.214608
-16.73999977 6.61000013 -0.15000001 206 67 119 0.000000 0.000000 0.000000 0.000000 -60.708740 0.000000 125.000000 -0.370161 0.885689 -0.280243
-16.71999931 6.63999987 -0.18000001 206 67 119 0.000000 0.000000 0.000000 0.000000 -60.708740 0.000000 125.000000 -0.363427 0.930216 -0.051168
-16.79000092 6.61000013 -0.10000000 206 67 119 0.000000 0.000000 0.000000 0.000000 -60.708740 0.000000 125.000000 -0.697228 0.675194 0.240803
-16.79999924 6.59999990 -0.10000000 206 67 119 0.000000 0.000000 0.000000 0.000000 -60.708740 0.000000 125.000000 -0.499809 0.841068 0.206870
-16.81999969 6.53999996 -0.03000000 206 67 119 0.000000 0.000000 0.000000 0.000000 -60.708740 0.000000 125.000000 0.996081 0.083458 0.029265
-16.75000000 6.65999985 -0.22000000 206 67 119 0.000000 0.000000 0.000000 0.000000 -60.708740 0.000000 125.000000 0.774232 -0.606252 -0.181723
-16.78000069 6.63999987 -0.22000000 206 67 119 0.000000 0.000000 0.000000 0.000000 -60.708740 0.000000 125.000000 0.729579 -0.652129 -0.206017
-16.78000069 6.59999990 -0.27000001 206 67 119 0.000000 0.000000 0.000000 0.000000 -60.708740 0.000000 125.000000 0.846062 -0.370641 -0.383152
-16.72999954 6.67000008 -0.28999999 206 67 119 0.000000 0.000000 0.000000 0.000000 -60.708740 0.000000 125.000000 0.702812 -0.687433 -0.183008
-16.79000092 6.61999989 -0.23999999 206 67 119 0.000000 0.000000 0.000000 0.000000 -60.708740 0.000000 125.000000 0.949561 -0.292682 -0.112570
-16.80999947 6.55000019 -0.27000001 206 67 119 0.000000 0.000000 0.000000 0.000000 -60.708740 0.000000 125.000000 0.912354 -0.332161 -0.239330
-16.80999947 6.55999994 -0.20999999 206 67 119 0.000000 0.000000 0.000000 0.000000 -60.708740 0.000000 125.000000 0.926142 -0.361455 -0.107754
-16.80999947 6.55000019 -0.27000001 206 67 119 0.000000 0.000000 0.000000 0.000000 -60.708740 0.000000 125.000000 0.912354 -0.332161 -0.239330
-16.81999969 6.57000017 -0.33000001 206 67 119 0.000000 0.000000 0.000000 0.000000 -60.708740 0.000000 125.000000 0.842950 -0.520430 -0.136338
-16.81999969 6.51999998 -0.31000000 206 67 119 0.000000 0.000000 0.000000 0.000000 -60.708740 0.000000 125.000000 0.919863 0.376993 -0.108300
-16.80999947 6.55999994 -0.31000000 206 67 119 0.000000 0.000000 0.000000 0.000000 -60.708740 0.000000 125.000000 0.852366 -0.383487 0.355541
-16.81999969 6.51000023 -0.28999999 206 67 119 0.000000 0.000000 0.000000 0.000000 -60.708740 0.000000 125.000000 0.957008 -0.086298 -0.276927
-16.77000046 6.42999983 -0.07000000 206 67 119 0.000000 0.000000 0.000000 0.000000 -60.708740 0.000000 125.000000 0.795444 0.576431 -0.187074
-16.73999977 6.38999987 -0.10000000 206 67 119 0.000000 0.000000 0.000000 0.000000 -60.708740 0.000000 125.000000 0.499646 0.755203 0.424290
-16.78000069 6.40999985 -0.09000000 206 67 119 0.000000 0.000000 0.000000 0.000000 -60.708740 0.000000 125.000000 0.787050 0.615891 -0.035074
-16.70999908 6.42000008 -0.06000000 206 67 119 0.000000 0.000000 0.000000 0.000000 -60.708740 0.000000 125.000000 0.567510 0.795130 0.213778
-16.73999977 6.42000008 -0.09000000 206 67 119 0.000000 0.000000 0.000000 0.000000 -60.708740 0.000000 125.000000 0.429837 0.876035 0.218637
-16.72999954 6.38999987 -0.04000000 206 67 119 0.000000 0.000000 0.000000 0.000000 -60.708740 0.000000 125.000000 0.466829 0.883592 -0.036534
-16.75000000 6.38999987 -0.14000000 206 67 119 0.000000 0.000000 0.000000 0.000000 -60.708740 0.000000 125.000000 0.612520 0.766034 0.194963
-16.79000092 6.46000004 -0.04000000 206 67 119 0.000000 0.000000 0.000000 0.000000 -60.708740 0.000000 125.000000 0.999672 0.025117 -0.005023
-16.79000092 6.44000006 -0.05000000 206 67 119 0.000000 0.000000 0.000000 0.000000 -60.708740 0.000000 125.000000 0.710990 0.660542 0.241200
-16.79000092 6.46999979 -0.10000000 206 67 119 0.000000 0.000000 0.000000 0.000000 -60.708740 0.000000 125.000000 0.993275 0.061869 0.097865
-16.79999924 6.46999979 -0.06000000 206 67 119 0.000000 0.000000 0.000000 0.000000 -60.708740 0.000000 125.000000 0.963626 0.061562 0.260066
-16.79999924 6.46999979 -0.18000001 206 67 119 0.000000 0.000000 0.000000 0.000000 -60.708740 0.000000 125.000000 0.996703 0.079949 0.013858
-16.81999969 6.38000011 -0.05000000 206 67 119 0.000000 0.000000 0.000000 0.000000 -60.708740 0.000000 125.000000 0.387839 0.892176 0.231523
-16.79000092 6.38999987 -0.18000001 206 67 119 0.000000 0.000000 0.000000 0.000000 -60.708740 0.000000 125.000000 0.854364 0.519159 0.023165
-16.78000069 6.44000006 -0.22000000 206 67 119 0.000000 0.000000 0.000000 0.000000 -60.708740 0.000000 125.000000 0.772334 0.584342 -0.249089
-16.77000046 6.42000008 -0.33000001 206 67 119 0.000000 0.000000 0.000000 0.000000 -60.708740 0.000000 125.000000 0.544185 0.828746 -0.130546
-16.72999954 6.38000011 -0.33000001 206 67 119 0.000000 0.000000 0.000000 0.000000 -60.708740 0.000000 125.000000 0.398586 0.833408 0.382832
-16.78000069 6.38999987 -0.28999999 206 67 119 0.000000 0.000000 0.000000 0.000000 -60.708740 0.000000 125.000000 0.629208 0.752280 0.195377
-16.81999969 6.48000002 -0.22000000 206 67 119 0.000000 0.000000 0.000000 0.000000 -60.708740 0.000000 125.000000 0.900302 0.320797 -0.294187
-16.81999969 6.46000004 -0.33000001 206 67 119 0.000000 0.000000 0.000000 0.000000 -60.708740 0.000000 125.000000 0.804357 0.591564 0.055326
-16.79999924 6.46999979 -0.31000000 206 67 119 0.000000 0.000000 0.000000 0.000000 -60.708740 0.000000 125.000000 0.877308 0.388069 -0.282369
-16.80999947 6.44999981 -0.30000001 206 67 119 0.000000 0.000000 0.000000 0.000000 -60.708740 0.000000 125.000000 0.786295 0.545818 0.289521
-16.79999924 6.42000008 -0.25000000 206 67 119 0.000000 0.000000 0.000000 0.000000 -60.708740 0.000000 125.000000 0.773425 0.535448 0.339278
-16.79000092 6.42000008 -0.23999999 206 67 119 0.000000 0.000000 0.000000 0.000000 -60.708740 0.000000 125.000000 0.773365 0.633516 -0.023774
-16.79000092 6.42000008 -0.25999999 206 67 119 0.000000 0.000000 0.000000 0.000000 -60.708740 0.000000 125.000000 0.408116 0.874965 0.260532
-16.79000092 6.38999987 -0.28000000 206 67 119 0.000000 0.000000 0.000000 0.000000 -60.708740 0.000000 125.000000 0.573533 0.730397 0.370917
-16.54999924 6.59999990 -0.43000001 206 67 119 0.000000 0.000000 0.000000 0.000000 -60.708740 0.000000 125.000000 0.985574 0.143853 0.089165
-16.59000015 6.63999987 -0.38000000 206 67 119 0.000000 0.000000 0.000000 0.000000 -60.708740 0.000000 125.000000 0.710469 0.698798 -0.083156
-16.54999924 6.61000013 -0.41999999 206 67 119 0.000000 0.000000 0.000000 0.000000 -60.708740 0.000000 125.000000 0.898609 0.404015 0.171095
-16.56999969 6.63999987 -0.49000001 206 67 119 0.000000 0.000000 0.000000 0.000000 -60.708740 0.000000 125.000000 0.628214 0.774845 -0.070440
-16.56999969 6.63000011 -0.46000001 206 67 119 0.000000 0.000000 0.000000 0.000000 -60.708740 0.000000 125.000000 0.945056 0.303434 -0.121641
-16.59000015 6.65000010 -0.50000000 206 67 119 0.000000 0.000000 0.000000 0.000000 -60.708740 0.000000 125.000000 0.546115 0.708787 0.446519
-16.56999969 6.59999990 -0.44000000 206 67 119 0.000000 0.000000 0.000000 0.000000 -60.708740 0.000000 125.000000 0.997486 0.039557 0.058801
-16.54999924 6.55999994 -0.38000000 206 67 119 0.000000 0.000000 0.000000 0.000000 -60.708740 0.000000 125.000000 0.868047 0.446723 0.216638
-16.54000092 6.51999998 -0.36000001 206 67 119 0.000000 0.000000 0.000000 0.000000 -60.708740 0.000000 125.000000 0.986512 0.026353 -0.161554
-16.54000092 6.53000021 -0.36000001 206 67 119 0.000000 0.000000 0.000000 0.000000 -60.708740 0.000000 125.000000 0.955552 0.292567 -0.036414
-16.54000092 6.51000023 -0.49000001 206 67 119 0.000000 0.000000 0.000000 0.000000 -60.708740 0.000000 125.000000 0.762886 -0.640824 -0.085734
-16.64999962 6.65000010 -0.36000001 206 67 119 0.000000 0.000000 0.000000 0.000000 -60.708740 0.000000 125.000000 0.222768 0.974157 0.037329
-16.69000053 6.65999985 -0.38000000 206 67 119 0.000000 0.000000 0.000000 0.000000 -60.708740 0.000000 125.000000 0.217277 0.974713 -0.052195
-16.64999962 6.65000010 -0.37000000 206 67 119 0.000000 0.000000 0.000000 0.000000 -60.708740 0.000000 125.000000 0.140140 0.960027 -0.242299
-16.62000084 6.67000008 -0.43000001 206 67 119 0.000000 0.000000 0.000000 0.000000 -60.708740 0.000000 125.000000 0.445143 0.894346 -0.044650
-16.63999939 6.65000010 -0.38000000 206 67 119 0.000000 0.000000 0.000000 0.000000 -60.708740 0.000000 125.000000 0.308867 0.915001 0.259565
-16.69000053 6.65999985 -0.44999999 206 67 119 0.000000 0.000000 0.000000 0.000000 -60.708740 0.000000 125.000000 -0.282806 0.860648 0.423445
-16.59000015 6.67000008 -0.58999997 206 67 119 0.000000 0.000000 0.000000 0.000000 -60.708740 0.000000 125.000000 0.569972 0.647313 0.506081
-16.54000092 6.59999990 -0.57999998 206 67 119 0.000000 0.000000 0.000000 0.000000 -60.708740 0.000000 125.000000 0.870527 0.491448 0.025723
-16.57999992 6.63000011 -0.54000002 206 67 119 0.000000 0.000000 0.000000 0.000000 -60.708740 0.000000 125.000000 0.695899 0.633968 0.337356
