//X Y Z R G B PointSourceId ScanDirectionFlag NumberOfReturns ReturnNumber GpsTime Intensity Classification Nx Ny Nz
-10.14000034 -19.19000053 -0.13000000 200 15 148 0.000000 0.000000 0.000000 0.000000 -60.708740 0.000000 46.000000 0.959758 -0.197247 -0.199894
-10.10999966 -19.21999931 -0.16000000 200 15 148 0.000000 0.000000 0.000000 0.000000 -60.708740 0.000000 46.000000 0.886561 -0.245853 -0.391875
-10.14999962 -19.18000031 -0.28999999 200 15 148 0.000000 0.000000 0.000000 0.000000 -60.708740 0.000000 46.000000 0.563202 -0.509403 -0.650624
-10.06000042 -19.37999916 -0.25000000 200 15 148 0.000000 0.000000 0.000000 0.000000 -60.708740 0.000000 46.000000 0.587385 -0.411997 -0.696589
-10.03999996 -19.40999985 -0.27000001 200 15 148 0.000000 0.000000 0.000000 0.000000 -60.708740 0.000000 46.000000 -0.475691 0.529102 0.702687
-9.98999977 -19.42000008 -0.25999999 200 15 148 0.000000 0.000000 0.000000 0.000000 -60.708740 0.000000 46.000000 -0.644585 0.247433 0.723386
-10.01000023 -19.40999985 -0.25000000 200 15 148 0.000000 0.000000 0.000000 0.000000 -60.708740 0.000000 46.000000 0.921341 -0.247888 -0.299471
-10.03999996 -19.39999962 -0.25999999 200 15 148 0.000000 0.000000 0.000000 0.000000 -60.708740 0.000000 46.000000 -0.630000 -0.032272 0.775924
-10.00000000 -19.44000053 -0.25000000 200 15 148 0.000000 0.000000 0.000000 0.000000 -60.708740 0.000000 46.000000 0.791307 -0.472206 -0.388401
-9.84000015 -19.29000092 -0.36000001 200 15 148 0.000000 0.000000 0.000000 0.000000 -60.708740 0.000000 46.000000 -0.625518 0.145504 0.766522
-9.85999966 -19.29000092 -0.40000001 200 15 148 0.000000 0.000000 0.000000 0.000000 -60.708740 0.000000 46.000000 -0.609614 0.181815 0.771566
-10.14999962 -19.20999908 -0.55000001 200 15 148 0.000000 0.000000 0.000000 0.000000 -60.708740 0.000000 46.000000 -0.148189 0.435934 0.887694
-9.86999989 -19.57999992 -0.27000001 200 15 148 0.000000 0.000000 0.000000 0.000000 -60.708740 0.000000 46.000000 0.799491 -0.097570 -0.592701
-9.85000038 -19.57999992 -0.31999999 200 15 148 0.000000 0.000000 0.000000 0.000000 -60.708740 0.000000 46.000000 0.701978 -0.343660 -0.623799
-9.88000011 -19.57999992 -0.28999999 200 15 148 0.000000 0.000000 0.000000 0.000000 -60.708740 0.000000 46.000000 -0.630467 -0.023765 0.775852
-9.92000008 -19.56999969 -0.33000001 200 15 148 0.000000 0.000000 0.000000 0.000000 -60.708740 0.000000 46.000000 -0.423186 0.202009 0.883236
-10.26000023 -19.31999969 -0.34999999 200 15 148 0.000000 0.000000 0.000000 0.000000 -60.708740 0.000000 46.000000 -0.110729 0.362262 0.925476
-10.18999958 -19.23999977 -0.38000000 200 15 148 0.000000 0.000000 0.000000 0.000000 -60.708740 0.000000 46.000000 0.671803 -0.574634 -0.467414
-10.22000027 -19.21999931 -0.41999999 200 15 148 0.000000 0.000000 0.000000 0.000000 -60.708740 0.000000 46.000000 -0.001320 0.468736 0.883337
-10.22000027 -19.21999931 -0.41999999 200 15 148 0.000000 0.000000 0.000000 0.000000 -60.708740 0.000000 46.000000 -0.001320 0.468736 0.883337
-10.17000008 -19.29000092 -0.41999999 200 15 148 0.000000 0.000000 0.000000 0.000000 -60.708740 0.000000 46.000000 -0.463720 0.647869 0.604343
-10.22999954 -19.30999947 -0.36000001 200 15 148 0.000000 0.000000 0.000000 0.000000 -60.708740 0.000000 46.000000 -0.165905 0.713849 0.680364
-10.17000008 -19.28000069 -0.46000001 200 15 148 0.000000 0.000000 0.000000 0.000000 -60.708740 0.000000 46.000000 -0.640240 0.603271 0.475559
-10.19999981 -19.31999969 -0.51999998 200 15 148 0.000000 0.000000 0.000000 0.000000 -60.708740 0.000000 46.000000 -0.001379 0.643838 0.765161
-10.26000023 -19.18000031 -0.41999999 200 15 148 0.000000 0.000000 0.000000 0.000000 -60.708740 0.000000 46.000000 -0.434265 0.593995 0.677188
-10.27000046 -19.30999947 -0.41999999 200 15 148 0.000000 0.000000 0.000000 0.000000 -60.708740 0.000000 46.000000 -0.304801 0.777163 0.550557
-10.27999973 -19.30999947 -0.37000000 200 15 148 0.000000 0.000000 0.000000 0.000000 -60.708740 0.000000 46.000000 -0.135099 0.592359 0.794266
-10.26000023 -19.28000069 -0.44000000 200 15 148 0.000000 0.000000 0.000000 0.000000 -60.708740 0.000000 46.000000 -0.459768 0.526161 0.715380
-10.26000023 -19.31999969 -0.47999999 200 15 148 0.000000 0.000000 0.000000 0.000000 -60.708740 0.000000 46.000000 -0.064459 0.451214 0.890085
-10.22999954 -19.29000092 -0.55000001 200 15 148 0.000000 0.000000 0.000000 0.000000 -60.708740 0.000000 46.000000 -0.424155 0.179282 0.887666
-10.26000023 -19.19000053 -0.60000002 200 15 148 0.000000 0.000000 0.000000 0.000000 -60.708740 0.000000 46.000000 -0.373457 0.312484 0.873432
-10.31000042 -19.18000031 -0.56999999 200 15 148 0.000000 0.000000 0.000000 0.000000 -60.708740 0.000000 46.000000 -0.242869 0.363568 0.899351
-10.26000023 -19.22999954 -0.52999997 200 15 148 0.000000 0.000000 0.000000 0.000000 -60.708740 0.000000 46.000000 -0.197020 0.572731 0.795715
-10.27000046 -19.19000053 -0.61000001 200 15 148 0.000000 0.000000 0.000000 0.000000 -60.708740 0.000000 46.000000 -0.496172 0.373341 0.783855
-10.27999973 -19.20999908 -0.69000000 200 15 148 0.000000 0.000000 0.000000 0.000000 -60.708740 0.000000 46.000000 0.052387 0.222949 0.973422
-10.31000042 -19.21999931 -0.62000000 200 15 148 0.000000 0.000000 0.000000 0.000000 -60.708740 0.000000 46.000000 -0.343964 0.494348 0.798316
-10.27000046 -19.28000069 -0.52999997 200 15 148 0.000000 0.000000 0.000000 0.000000 -60.708740 0.000000 46.000000 0.039504 0.480863 0.875906
-10.23999977 -19.31999969 -0.57999998 200 15 148 0.000000 0.000000 0.000000 0.000000 -60.708740 0.000000 46.000000 -0.122261 0.487607 0.864460
-10.27999973 -19.26000023 -0.58999997 200 15 148 0.000000 0.000000 0.000000 0.000000 -60.708740 0.000000 46.000000 0.022579 0.436977 0.899189
-10.28999996 -19.27000046 -0.61000001 200 15 148 0.000000 0.000000 0.000000 0.000000 -60.708740 0.000000 46.000000 -0.274125 0.254240 0.927479
-10.15999985 -19.37000084 -0.57999998 200 15 148 0.000000 0.000000 0.000000 0.000000 -60.708740 0.000000 46.000000 0.569065 -0.423066 -0.705110
-10.36999989 -19.22999954 -0.44000000 200 15 148 0.000000 0.000000 0.000000 0.000000 -60.708740 0.000000 46.000000 0.270122 0.519945 0.810365
-10.35000038 -19.27000046 -0.41999999 200 15 148 0.000000 0.000000 0.000000 0.000000 -60.708740 0.000000 46.000000 0.413777 0.505364 0.757229
-10.34000015 -19.18000031 -0.69000000 200 15 148 0.000000 0.000000 0.000000 0.000000 -60.708740 0.000000 46.000000 -0.216865 0.233232 0.947931
-10.31999969 -19.21999931 -0.62000000 200 15 148 0.000000 0.000000 0.000000 0.000000 -60.708740 0.000000 46.000000 -0.248970 0.237843 0.938853
-10.32999992 -19.21999931 -0.62000000 200 15 148 0.000000 0.000000 0.000000 0.000000 -60.708740 0.000000 46.000000 0.011872 0.444542 0.895679
-10.26000023 -19.23999977 -0.70999998 200 15 148 0.000000 0.000000 0.000000 0.000000 -60.708740 0.000000 46.000000 0.141150 0.490388 0.859998
-10.31000042 -19.19000053 -0.72000003 200 15 148 0.000000 0.000000 0.000000 0.000000 -60.708740 0.000000 46.000000 0.098181 0.751748 0.652101
-10.27000046 -19.20999908 -0.70999998 200 15 148 0.000000 0.000000 0.000000 0.000000 -60.708740 0.000000 46.000000 -0.108293 0.122573 0.986534
-10.57999992 -17.65999985 -0.34000000 200 15 148 0.000000 0.000000 1.000000 1.000000 1686050054.572266 2827.000000 46.000000 0.316035 0.307133 0.897659
-10.51000023 -17.68000031 -0.33000001 200 15 148 0.000000 0.000000 1.000000 1.000000 1686050044.284974 4112.000000 46.000000 0.007939 0.168990 0.985586
-10.52000046 -17.63999939 -0.38000000 200 15 148 0.000000 0.000000 1.000000 1.000000 1686050951.712159 1028.000000 46.000000 -0.169199 0.534549 0.828027
-10.52999973 -17.62999916 -0.36000001 200 15 148 0.000000 0.000000 1.000000 1.000000 1686050055.723359 2313.000000 46.000000 -0.270560 0.517661 0.811680
-10.55000019 -17.63999939 -0.41999999 200 15 148 0.000000 0.000000 1.000000 1.000000 1686050365.390809 1799.000000 46.000000 -0.213107 0.673541 0.707763
-10.48999977 -17.63999939 -0.47000000 200 15 148 0.000000 0.000000 1.000000 1.000000 1686050054.572785 257.000000 46.000000 0.419730 0.317508 0.850303
-10.53999996 -17.55999947 -0.58999997 200 15 148 0.000000 0.000000 1.000000 1.000000 1686050375.281617 1028.000000 46.000000 0.340258 0.607254 0.717960
-10.52000046 -17.56999969 -0.58999997 200 15 148 0.000000 0.000000 1.000000 1.000000 1686050376.544312 1799.000000 46.000000 0.396887 0.225739 0.889676
-10.52000046 -17.64999962 -0.58999997 200 15 148 0.000000 0.000000 1.000000 1.000000 1686050046.985230 17219.000000 46.000000 0.467830 0.337789 0.816721
-10.53999996 -17.59000015 -0.56999999 200 15 148 0.000000 0.000000 1.000000 1.000000 1686050048.222596 3341.000000 46.000000 0.126785 0.723417 0.678670
-10.52999973 -17.61000061 -0.58999997 200 15 148 0.000000 0.000000 1.000000 1.000000 1686050045.512879 5140.000000 46.000000 -0.172048 0.637947 0.750615
-10.56999969 -17.57999992 -0.57999998 200 15 148 0.000000 0.000000 1.000000 1.000000 1686050053.317811 2313.000000 46.000000 -0.055789 0.648009 0.759587
-10.53999996 -17.61000061 -0.58999997 200 15 148 0.000000 0.000000 1.000000 1.000000 1686050045.410950 5397.000000 46.000000 0.457156 0.496765 0.737721
-10.55000019 -17.65999985 -0.56999999 200 15 148 0.000000 0.000000 1.000000 1.000000 1686050372.680482 2827.000000 46.000000 -0.160444 0.811217 0.562304
-10.63000011 -17.55999947 -0.58999997 200 15 148 0.000000 0.000000 1.000000 1.000000 1686050360.397706 7967.000000 46.000000 0.160404 0.571157 0.805016
-10.57999992 -17.61000061 -0.57999998 200 15 148 0.000000 0.000000 1.000000 1.000000 1686050045.410859 3855.000000 46.000000 -0.153653 0.202718 0.967107
-10.59000015 -17.61000061 -0.57999998 200 15 148 0.000000 0.000000 1.000000 1.000000 1686050356.729432 8738.000000 46.000000 -0.257673 0.249225 0.933537
-10.56999969 -17.77000046 -0.49000001 200 15 148 0.000000 0.000000 1.000000 1.000000 1686050462.301942 2570.000000 46.000000 0.046802 0.639622 0.767263
-10.60999966 -17.72999954 -0.49000001 200 15 148 0.000000 0.000000 1.000000 1.000000 1686050044.285645 5140.000000 46.000000 -0.065984 0.523660 0.849368
-10.64000034 -17.69000053 -0.51999998 200 15 148 0.000000 0.000000 1.000000 1.000000 1686050046.985535 15934.000000 46.000000 -0.113488 0.418926 0.900900
-10.64000034 -17.73999977 -0.47999999 200 15 148 0.000000 0.000000 1.000000 1.000000 1686050364.238953 6168.000000 46.000000 -0.195998 0.818938 0.539375
-10.61999989 -17.75000000 -0.49000001 200 15 148 0.000000 0.000000 1.000000 1.000000 1686050359.127076 3341.000000 46.000000 0.053310 0.336764 0.940079
-10.64000034 -17.79999924 -0.50999999 200 15 148 0.000000 0.000000 1.000000 1.000000 1686050366.550660 6682.000000 46.000000 -0.323716 0.140687 0.935636
-10.57999992 -17.79000092 -0.49000001 200 15 148 0.000000 0.000000 1.000000 1.000000 1686050050.617646 7196.000000 46.000000 -0.183372 0.180771 0.966280
-10.64000034 -17.75000000 -0.47999999 200 15 148 0.000000 0.000000 1.000000 1.000000 1686050362.800294 7453.000000 46.000000 0.122970 0.623741 0.771898
-10.60000038 -17.80999947 -0.47999999 200 15 148 0.000000 0.000000 1.000000 1.000000 1686050048.221253 13107.000000 46.000000 0.448782 -0.515023 -0.730306
-10.52999973 -17.79000092 -0.54000002 200 15 148 0.000000 0.000000 1.000000 1.000000 1686050507.748597 2827.000000 46.000000 0.250735 0.185679 0.950082
-10.52000046 -17.79000092 -0.54000002 200 15 148 0.000000 0.000000 1.000000 1.000000 1686050433.642335 2056.000000 46.000000 -0.108121 0.433888 0.894456
-10.50000000 -17.75000000 -0.56999999 200 15 148 0.000000 0.000000 1.000000 1.000000 1686050055.924042 3341.000000 46.000000 0.006945 -0.695890 -0.718114
-10.48999977 -17.79999924 -0.69000000 200 15 148 0.000000 0.000000 1.000000 1.000000 1686050046.888795 14135.000000 46.000000 0.612684 0.511414 0.602557
-10.63000011 -17.68000031 -0.56999999 200 15 148 0.000000 0.000000 1.000000 1.000000 1686050046.888245 13364.000000 46.000000 0.088966 0.398296 0.912932
-10.68000031 -17.62999916 -0.40000001 200 15 148 0.000000 0.000000 1.000000 1.000000 1686050379.146607 1542.000000 46.000000 0.085636 0.770726 0.631386
-10.68000031 -17.62999916 -0.40000001 200 15 148 0.000000 0.000000 1.000000 1.000000 1686050055.825898 2313.000000 46.000000 0.085636 0.770726 0.631386
-10.67000008 -17.59000015 -0.46000001 200 15 148 0.000000 0.000000 1.000000 1.000000 1686050057.167298 257.000000 46.000000 -0.255094 0.453671 0.853879
-10.68999958 -17.68000031 -0.44000000 200 15 148 0.000000 0.000000 1.000000 1.000000 1686050049.587281 6168.000000 46.000000 -0.195603 0.479302 0.855576
-10.65999985 -17.73999977 -0.51999998 200 15 148 0.000000 0.000000 1.000000 1.000000 1686050053.317506 3598.000000 46.000000 -0.492223 0.357543 0.793649
-10.68000031 -17.76000023 -0.50999999 200 15 148 0.000000 0.000000 1.000000 1.000000 1686050053.317536 6425.000000 46.000000 -0.210195 0.689751 0.692865
-10.67000008 -17.72999954 -0.52999997 200 15 148 0.000000 0.000000 1.000000 1.000000 1686050044.086243 2827.000000 46.000000 -0.321766 0.321766 0.890468
-10.68999958 -17.73999977 -0.52999997 200 15 148 0.000000 0.000000 1.000000 1.000000 1686050057.068024 4883.000000 46.000000 -0.514857 0.356688 0.779549
-10.71000004 -17.79000092 -0.61000001 200 15 148 0.000000 0.000000 1.000000 1.000000 1686050355.399293 4112.000000 46.000000 -0.637809 0.098237 0.763904
-10.68999958 -17.78000069 -0.63999999 200 15 148 0.000000 0.000000 1.000000 1.000000 1686050356.529114 1028.000000 46.000000 -0.158299 0.189186 0.969097
-10.55000019 -17.55999947 -0.79000002 200 15 148 0.000000 0.000000 1.000000 1.000000 1686050058.427766 3855.000000 46.000000 0.435495 0.747738 0.501231
-10.56999969 -17.62000084 -0.75999999 200 15 148 0.000000 0.000000 1.000000 1.000000 1686050352.996461 2570.000000 46.000000 0.093208 0.360673 0.928023
-10.59000015 -17.59000015 -0.75999999 200 15 148 0.000000 0.000000 1.000000 1.000000 1686050191.697083 3598.000000 46.000000 0.078074 0.423244 0.902646
-10.59000015 -17.59000015 -0.76999998 200 15 148 0.000000 0.000000 1.000000 1.000000 1686050058.325684 5397.000000 46.000000 -0.261232 0.729866 0.631706
-10.60999966 -17.61000061 -0.75999999 200 15 148 0.000000 0.000000 1.000000 1.000000 1686050054.573487 5140.000000 46.000000 -0.178560 0.165714 0.969874
-10.64000034 -17.65999985 -0.79000002 200 15 148 0.000000 0.000000 1.000000 1.000000 1686050055.823243 5140.000000 46.000000 -0.057517 0.223951 0.972902
-10.64000034 -17.62999916 -0.79000002 200 15 148 0.000000 0.000000 1.000000 1.000000 1686050052.174714 7196.000000 46.000000 0.029427 0.194220 0.980516
-10.60999966 -17.62999916 -0.81000000 200 15 148 0.000000 0.000000 1.000000 1.000000 1686050392.575074 2570.000000 46.000000 0.107524 0.649562 0.752667
-10.60999966 -17.65999985 -0.77999997 200 15 148 0.000000 0.000000 1.000000 1.000000 1686050939.114869 2056.000000 46.000000 -0.286523 0.654680 0.699499
-10.59000015 -17.62999916 -0.80000001 200 15 148 0.000000 0.000000 1.000000 1.000000 1686050367.785950 6939.000000 46.000000 -0.290430 0.714041 0.637021
-10.60000038 -17.64999962 -0.88000000 200 15 148 0.000000 0.000000 1.000000 1.000000 1686050940.278809 5140.000000 46.000000 -0.148384 0.595035 0.789883
-10.60000038 -17.56999969 -0.88000000 200 15 148 0.000000 0.000000 1.000000 1.000000 1686050376.745789 1285.000000 46.000000 0.012511 0.740951 0.671443
-10.51000023 -17.69000053 -0.74000001 200 15 148 0.000000 0.000000 1.000000 1.000000 1686050050.822419 7453.000000 46.000000 0.382259 0.288583 0.877837
-10.51000023 -17.71999931 -0.75000000 200 15 148 0.000000 0.000000 1.000000 1.000000 1686050351.524232 5654.000000 46.000000 0.514840 0.232062 0.825280
-10.52000046 -17.73999977 -0.74000001 200 15 148 0.000000 0.000000 1.000000 1.000000 1686050367.886231 5140.000000 46.000000 0.118508 0.823703 0.554500
-10.53999996 -17.67000008 -0.75000000 200 15 148 0.000000 0.000000 1.000000 1.000000 1686050375.183472 6168.000000 46.000000 0.478268 0.528261 0.701570
-10.48999977 -17.69000053 -0.79000002 200 15 148 0.000000 0.000000 1.000000 1.000000 1686050355.498719 771.000000 46.000000 0.673256 0.549014 0.495288
-10.50000000 -17.68000031 -0.79000002 200 15 148 0.000000 0.000000 1.000000 1.000000 1686050354.121522 771.000000 46.000000 0.195484 0.825884 0.528869
-10.52000046 -17.79999924 -0.72000003 200 15 148 0.000000 0.000000 1.000000 1.000000 1686050367.886109 4626.000000 46.000000 0.110925 0.652239 0.749853
-10.51000023 -17.77000046 -0.70999998 200 15 148 0.000000 0.000000 1.000000 1.000000 1686050937.861817 6425.000000 46.000000 -0.080091 0.697517 0.712079
-10.50000000 -17.82999992 -0.69999999 200 15 148 0.000000 0.000000 1.000000 1.000000 1686050361.633790 11051.000000 46.000000 0.417562 0.663774 0.620521
-10.64000034 -17.71999931 -0.81000000 200 15 148 0.000000 0.000000 1.000000 1.000000 1686050053.419587 5140.000000 46.000000 -0.053903 0.269517 0.961486
-10.65999985 -17.60000038 -0.79000002 200 15 148 0.000000 0.000000 1.000000 1.000000 1686050365.489625 5654.000000 46.000000 0.064332 0.202708 0.977124
-10.68000031 -17.81999969 -0.75000000 200 15 148 0.000000 0.000000 1.000000 1.000000 1686050362.898865 5140.000000 46.000000 0.124363 -0.539883 -0.832502
-10.71000004 -17.77000046 -0.76999998 200 15 148 0.000000 0.000000 1.000000 1.000000 1686050357.896973 5654.000000 46.000000 -0.488782 0.639951 0.592921
-10.72000027 -17.79999924 -0.77999997 200 15 148 0.000000 0.000000 1.000000 1.000000 1686050053.316773 8995.000000 46.000000 -0.615578 0.272000 0.739648
-10.68000031 -17.79999924 -0.81999999 200 15 148 0.000000 0.000000 1.000000 1.000000 1686050045.708314 514.000000 46.000000 -0.237225 0.544221 0.804703
-10.73999977 -17.79999924 -0.77999997 200 15 148 0.000000 0.000000 1.000000 1.000000 1686050362.800599 8481.000000 46.000000 0.757988 -0.182223 -0.626297
-10.56999969 -17.86000061 -0.47000000 200 15 148 0.000000 0.000000 1.000000 1.000000 1686050935.160767 3341.000000 46.000000 -0.209768 0.644843 0.734966
-10.56999969 -17.86000061 -0.47000000 200 15 148 0.000000 0.000000 1.000000 1.000000 1686050043.986817 1542.000000 46.000000 -0.209768 0.644843 0.734966
-10.53999996 -17.86000061 -0.50999999 200 15 148 0.000000 0.000000 1.000000 1.000000 1686050054.573609 6425.000000 46.000000 0.269408 0.661564 0.699823
-10.60000038 -17.87999916 -0.44999999 200 15 148 0.000000 0.000000 1.000000 1.000000 1686050361.635010 12850.000000 46.000000 0.227414 0.679105 0.697925
-10.61999989 -17.87000084 -0.47999999 200 15 148 0.000000 0.000000 1.000000 1.000000 1686050049.386353 6939.000000 46.000000 -0.222343 0.614164 0.757210
-10.61999989 -17.87999916 -0.47000000 200 15 148 0.000000 0.000000 1.000000 1.000000 1686050050.617402 5654.000000 46.000000 -0.043095 0.543553 0.838268
-10.60999966 -17.95000076 -0.41999999 200 15 148 0.000000 0.000000 1.000000 1.000000 1686050361.635926 10794.000000 46.000000 -0.110842 0.734511 0.669484
-10.64999962 -17.94000053 -0.43000001 200 15 148 0.000000 0.000000 1.000000 1.000000 1686050355.595399 2056.000000 46.000000 -0.554033 0.325996 0.766011
-10.57999992 -17.93000031 -0.47999999 200 15 148 0.000000 0.000000 1.000000 1.000000 1686050350.396424 3598.000000 46.000000 -0.164836 0.597343 0.784863
-10.60999966 -17.94000053 -0.46000001 200 15 148 0.000000 0.000000 1.000000 1.000000 1686050043.987031 771.000000 46.000000 -0.468434 0.465147 0.751138
-10.48999977 -17.85000038 -0.55000001 200 15 148 0.000000 0.000000 1.000000 1.000000 1686050058.325562 4112.000000 46.000000 -0.009743 0.705680 0.708464
-10.50000000 -17.95000076 -0.52999997 200 15 148 0.000000 0.000000 1.000000 1.000000 1686050045.313264 771.000000 46.000000 0.413561 0.403981 0.815945
-10.56999969 -17.95000076 -0.57999998 200 15 148 0.000000 0.000000 1.000000 1.000000 1686050048.322053 25700.000000 46.000000 0.034113 0.498053 0.866475
-10.56000042 -17.95000076 -0.58999997 200 15 148 0.000000 0.000000 1.000000 1.000000 1686050049.487916 10537.000000 46.000000 0.173853 0.494811 0.851432
-10.56000042 -17.95000076 -0.58999997 200 15 148 0.000000 0.000000 1.000000 1.000000 1686050048.322175 25700.000000 46.000000 0.173853 0.494811 0.851432
-10.56999969 -17.94000053 -0.58999997 200 15 148 0.000000 0.000000 1.000000 1.000000 1686050046.889710 14135.000000 46.000000 -0.249703 0.161573 0.954747
-10.53999996 -17.95999908 -0.57999998 200 15 148 0.000000 0.000000 1.000000 1.000000 1686050349.321290 3084.000000 46.000000 -0.333445 0.404786 0.851447
-10.55000019 -17.95999908 -0.57999998 200 15 148 0.000000 0.000000 1.000000 1.000000 1686050364.036011 4112.000000 46.000000 -0.234945 0.465342 0.853380
-10.64999962 -17.89999962 -0.64999998 200 15 148 0.000000 0.000000 1.000000 1.000000 1686050359.235413 1028.000000 46.000000 -0.641255 0.202420 0.740147
-10.61999989 -17.87999916 -0.63000000 200 15 148 0.000000 0.000000 1.000000 1.000000 1686050359.025513 2570.000000 46.000000 -0.377535 0.227696 0.897564
-10.63000011 -17.89999962 -0.68000001 200 15 148 0.000000 0.000000 1.000000 1.000000 1686050351.823365 771.000000 46.000000 -0.215249 0.775825 0.593096
-10.59000015 -17.93000031 -0.66000003 200 15 148 0.000000 0.000000 1.000000 1.000000 1686050359.235657 1028.000000 46.000000 -0.101140 0.637622 0.763681
-10.48999977 -18.04999924 -0.51999998 200 15 148 0.000000 0.000000 1.000000 1.000000 1686050360.290833 10280.000000 46.000000 -0.073177 0.226973 0.971148
-10.51000023 -18.01000023 -0.56000000 200 15 148 0.000000 0.000000 1.000000 1.000000 1686050311.235657 2313.000000 46.000000 0.354468 0.700768 0.619093
-10.52000046 -18.00000000 -0.54000002 200 15 148 0.000000 0.000000 1.000000 1.000000 1686050371.542786 4369.000000 46.000000 0.006815 0.824619 0.565648
-10.56000042 -18.12999916 -0.64999998 200 15 148 0.000000 0.000000 1.000000 1.000000 1686050049.489777 8481.000000 46.000000 -0.211306 0.383265 0.899143
-10.64999962 -18.04000092 -0.61000001 200 15 148 0.000000 0.000000 1.000000 1.000000 1686050046.890931 25700.000000 46.000000 -0.382387 0.271420 0.883239
-10.60999966 -18.12999916 -0.66000003 200 15 148 0.000000 0.000000 1.000000 1.000000 1686050053.315644 6682.000000 46.000000 -0.639085 0.223445 0.735964
-10.65999985 -17.85000038 -0.67000002 200 15 148 0.000000 0.000000 1.000000 1.000000 1686050380.481019 771.000000 46.000000 -0.416339 0.119154 0.901368
-10.65999985 -17.88999939 -0.66000003 200 15 148 0.000000 0.000000 1.000000 1.000000 1686050050.718201 9509.000000 46.000000 -0.460176 0.283543 0.841333
-10.68999958 -17.86000061 -0.69000000 200 15 148 0.000000 0.000000 1.000000 1.000000 1686050351.625367 1542.000000 46.000000 -0.153804 0.230049 0.960948
-10.68000031 -17.88999939 -0.66000003 200 15 148 0.000000 0.000000 1.000000 1.000000 1686050049.487977 16962.000000 46.000000 -0.354972 0.708308 0.610159
-10.71000004 -17.95999908 -0.60000002 200 15 148 0.000000 0.000000 1.000000 1.000000 1686050377.988648 514.000000 46.000000 -0.450181 0.120711 0.884741
-10.65999985 -17.96999931 -0.69000000 200 15 148 0.000000 0.000000 1.000000 1.000000 1686050053.418824 5654.000000 46.000000 -0.524051 0.434781 0.732349
-10.67000008 -17.92000008 -0.69000000 200 15 148 0.000000 0.000000 1.000000 1.000000 1686050054.574281 9509.000000 46.000000 -0.521203 0.017691 0.853249
-10.67000008 -17.94000053 -0.67000002 200 15 148 0.000000 0.000000 1.000000 1.000000 1686050355.498658 7710.000000 46.000000 -0.128169 0.561293 0.817632
-10.71000004 -17.95000076 -0.69000000 200 15 148 0.000000 0.000000 1.000000 1.000000 1686050057.270570 5911.000000 46.000000 -0.730602 0.532697 0.427147
-10.77999973 -17.96999931 -0.67000002 200 15 148 0.000000 0.000000 1.000000 1.000000 1686050049.488892 20046.000000 46.000000 0.768976 -0.543281 -0.336931
-10.77999973 -17.96999931 -0.67000002 200 15 148 0.000000 0.000000 1.000000 1.000000 1686050046.891633 16448.000000 46.000000 0.768976 -0.543281 -0.336931
-10.75000000 -17.94000053 -0.68000001 200 15 148 0.000000 0.000000 1.000000 1.000000 1686050052.076142 11822.000000 46.000000 0.763997 0.006908 -0.645183
-10.71000004 -18.06999969 -0.60000002 200 15 148 0.000000 0.000000 1.000000 1.000000 1686050051.977235 8481.000000 46.000000 0.745136 0.029580 -0.666256
-10.65999985 -18.11000061 -0.63999999 200 15 148 0.000000 0.000000 1.000000 1.000000 1686050055.821656 2056.000000 46.000000 0.876759 -0.056432 -0.477607
-10.76000023 -18.07999992 -0.57999998 200 15 148 0.000000 0.000000 1.000000 1.000000 1686050049.592255 7196.000000 46.000000 0.922934 -0.148950 -0.354975
-10.77000046 -18.05999947 -0.58999997 200 15 148 0.000000 0.000000 1.000000 1.000000 1686050046.891968 25700.000000 46.000000 0.576689 -0.542866 -0.610513
-10.75000000 -18.01000023 -0.61000001 200 15 148 0.000000 0.000000 1.000000 1.000000 1686050058.427796 2570.000000 46.000000 0.779922 -0.004127 -0.625863
-10.57999992 -18.19000053 -0.64999998 200 15 148 0.000000 0.000000 1.000000 1.000000 1686050048.319794 11051.000000 46.000000 -0.626088 -0.020916 0.779472
-10.53999996 -18.46999931 -0.69000000 200 15 148 0.000000 0.000000 1.000000 1.000000 1686050046.988587 2570.000000 46.000000 0.495091 0.329530 0.803925
-10.60999966 -18.46999931 -0.64999998 200 15 148 0.000000 0.000000 1.000000 1.000000 1686050048.119019 7967.000000 46.000000 0.896655 0.395111 0.199743
-10.61999989 -18.45999908 -0.63999999 200 15 148 0.000000 0.000000 1.000000 1.000000 1686050051.983002 17990.000000 46.000000 0.717546 0.641178 0.272063
-10.61999989 -18.45999908 -0.67000002 200 15 148 0.000000 0.000000 1.000000 1.000000 1686050352.697755 2570.000000 46.000000 0.830463 0.357714 0.427050
-10.68999958 -18.36000061 -0.63000000 200 15 148 0.000000 0.000000 1.000000 1.000000 1686050054.575684 19532.000000 46.000000 0.979766 -0.003470 0.200117
-10.65999985 -18.42000008 -0.61000001 200 15 148 0.000000 0.000000 1.000000 1.000000 1686050354.122071 2827.000000 46.000000 0.964536 0.186642 0.186642
-10.68999958 -18.42000008 -0.64999998 200 15 148 0.000000 0.000000 1.000000 1.000000 1686050054.576325 9252.000000 46.000000 0.988665 0.001112 -0.150135
-10.69999981 -18.43000031 -0.64999998 200 15 148 0.000000 0.000000 1.000000 1.000000 1686050061.032502 4369.000000 46.000000 0.929449 0.048504 0.365749
-11.09000015 -18.05999947 -0.68000001 200 15 148 0.000000 0.000000 1.000000 1.000000 1686050052.076966 8738.000000 46.000000 0.995200 -0.058541 -0.078423
-10.52999973 -17.95000076 -0.75000000 200 15 148 0.000000 0.000000 1.000000 1.000000 1686050365.487916 6425.000000 46.000000 -0.081444 0.555821 0.827302
-10.52999973 -17.97999954 -0.75999999 200 15 148 0.000000 0.000000 1.000000 1.000000 1686050359.235902 3084.000000 46.000000 0.258903 0.684583 0.681407
-10.56000042 -17.98999977 -0.81000000 200 15 148 0.000000 0.000000 1.000000 1.000000 1686050354.324891 771.000000 46.000000 -0.172212 0.337424 0.925466
-10.64999962 -17.87999916 -0.88999999 200 15 148 0.000000 0.000000 1.000000 1.000000 1686050062.265473 5397.000000 46.000000 -0.477514 0.415583 0.774126
-10.50000000 -18.03000069 -0.80000001 200 15 148 0.000000 0.000000 1.000000 1.000000 1686050023.883668 7453.000000 46.000000 0.865995 0.144090 0.478844
-10.50000000 -18.15999985 -0.83999997 200 15 148 0.000000 0.000000 1.000000 1.000000 1686050053.214692 5397.000000 46.000000 0.653686 -0.152476 -0.741246
-10.59000015 -18.04999924 -0.81000000 200 15 148 0.000000 0.000000 1.000000 1.000000 1686050352.798218 257.000000 46.000000 0.708619 -0.364947 -0.603881
-10.72999954 -17.87000084 -0.69999999 200 15 148 0.000000 0.000000 1.000000 1.000000 1686050061.033448 7196.000000 46.000000 -0.424942 0.624914 0.654910
-10.67000008 -17.90999985 -0.80000001 200 15 148 0.000000 0.000000 1.000000 1.000000 1686050057.069733 10023.000000 46.000000 -0.620043 0.304385 0.723116
-10.72999954 -17.88999939 -0.83999997 200 15 148 0.000000 0.000000 1.000000 1.000000 1686050350.397401 2570.000000 46.000000 0.869887 0.210384 -0.446134
-10.71000004 -17.97999954 -0.73000002 200 15 148 0.000000 0.000000 1.000000 1.000000 1686050367.784486 3084.000000 46.000000 0.680712 0.104839 -0.725010
-10.72999954 -17.92000008 -0.80000001 200 15 148 0.000000 0.000000 1.000000 1.000000 1686050362.898194 7710.000000 46.000000 -0.565546 0.153697 0.810268
-10.69999981 -17.92000008 -0.77999997 200 15 148 0.000000 0.000000 1.000000 1.000000 1686050362.800111 7967.000000 46.000000 0.737911 -0.554660 -0.384499
-10.67000008 -17.97999954 -0.81000000 200 15 148 0.000000 0.000000 1.000000 1.000000 1686050362.799989 7196.000000 46.000000 0.949660 -0.270754 -0.157603
-10.75000000 -17.90999985 -0.69999999 200 15 148 0.000000 0.000000 1.000000 1.000000 1686050058.325623 5140.000000 46.000000 0.795649 -0.210839 -0.567881
-10.73999977 -17.94000053 -0.76999998 200 15 148 0.000000 0.000000 1.000000 1.000000 1686050364.035279 4883.000000 46.000000 0.958935 -0.247933 -0.137740
-10.81999969 -17.95999908 -0.72000003 200 15 148 0.000000 0.000000 1.000000 1.000000 1686050062.264191 2827.000000 46.000000 0.825308 -0.345588 -0.446582
-10.75000000 -17.93000031 -0.82999998 200 15 148 0.000000 0.000000 1.000000 1.000000 1686050058.325227 6168.000000 46.000000 0.996466 0.005306 -0.083835
-10.81000042 -17.94000053 -0.77999997 200 15 148 0.000000 0.000000 1.000000 1.000000 1686050351.624146 257.000000 46.000000 0.806309 0.203490 -0.555389
-10.68999958 -17.87000084 -0.87000000 200 15 148 0.000000 0.000000 1.000000 1.000000 1686050360.294617 13621.000000 46.000000 0.951402 -0.239542 -0.193528
-10.72999954 -17.85000038 -0.87000000 200 15 148 0.000000 0.000000 1.000000 1.000000 1686050359.126588 9509.000000 46.000000 0.894190 -0.323939 -0.309011
-10.68000031 -18.00000000 -0.81000000 200 15 148 0.000000 0.000000 1.000000 1.000000 1686050935.062867 1285.000000 46.000000 0.833209 -0.407942 -0.373290
-10.78999996 -18.02000046 -0.75999999 200 15 148 0.000000 0.000000 1.000000 1.000000 1686050053.315980 6425.000000 46.000000 0.953249 0.108830 -0.281910
-10.78999996 -18.04000092 -0.75000000 200 15 148 0.000000 0.000000 1.000000 1.000000 1686050047.089234 11822.000000 46.000000 0.908156 -0.276395 -0.314418
-10.78999996 -18.03000069 -0.75999999 200 15 148 0.000000 0.000000 1.000000 1.000000 1686050357.895020 6682.000000 46.000000 0.968840 -0.113307 -0.220249
-10.76000023 -18.04000092 -0.75999999 200 15 148 0.000000 0.000000 1.000000 1.000000 1686050357.793214 5654.000000 46.000000 0.971055 0.206365 -0.120274
-10.76000023 -18.04000092 -0.76999998 200 15 148 0.000000 0.000000 1.000000 1.000000 1686050048.319428 25443.000000 46.000000 0.786340 -0.224890 -0.575408
-10.64000034 -18.23999977 -0.69999999 200 15 148 0.000000 0.000000 1.000000 1.000000 1686050372.881043 1542.000000 46.000000 0.903188 -0.304992 -0.302045
-10.64000034 -18.19000053 -0.69999999 200 15 148 0.000000 0.000000 1.000000 1.000000 1686050046.987916 9766.000000 46.000000 0.969271 0.228138 -0.092011
-10.60000038 -18.17000008 -0.79000002 200 15 148 0.000000 0.000000 1.000000 1.000000 1686050048.319215 22873.000000 46.000000 0.737539 0.592291 0.324388
-10.60000038 -18.17000008 -0.79000002 200 15 148 0.000000 0.000000 1.000000 1.000000 1686050046.987946 10794.000000 46.000000 0.737539 0.592291 0.324388
-10.60000038 -18.20999908 -0.79000002 200 15 148 0.000000 0.000000 1.000000 1.000000 1686050055.922181 8224.000000 46.000000 0.818668 0.573207 -0.034867
-10.60000038 -18.20999908 -0.79000002 200 15 148 0.000000 0.000000 1.000000 1.000000 1686050355.295167 2827.000000 46.000000 0.818668 0.573207 -0.034867
-10.60999966 -18.27000046 -0.75000000 200 15 148 0.000000 0.000000 1.000000 1.000000 1686050361.439637 13107.000000 46.000000 0.808560 0.577543 0.112584
-10.59000015 -18.27000046 -0.80000001 200 15 148 0.000000 0.000000 1.000000 1.000000 1686050049.389374 10023.000000 46.000000 0.696565 0.340942 0.631313
-10.60000038 -18.26000023 -0.80000001 200 15 148 0.000000 0.000000 1.000000 1.000000 1686050048.318543 12850.000000 46.000000 0.840078 0.117524 0.529583
-10.52000046 -18.47999954 -0.82999998 200 15 148 0.000000 0.000000 1.000000 1.000000 1686050048.317322 7710.000000 46.000000 -0.132864 0.625508 0.768822
-10.53999996 -18.47999954 -0.81999999 200 15 148 0.000000 0.000000 1.000000 1.000000 1686050361.540528 6168.000000 46.000000 0.489818 0.718953 0.493138
-10.63000011 -18.36000061 -0.75999999 200 15 148 0.000000 0.000000 1.000000 1.000000 1686050354.223267 771.000000 46.000000 0.909103 0.401115 0.112423
-10.59000015 -18.45999908 -0.81000000 200 15 148 0.000000 0.000000 1.000000 1.000000 1686050359.132508 4112.000000 46.000000 0.722390 0.293121 0.626285
-10.72999954 -18.23999977 -0.72000003 200 15 148 0.000000 0.000000 1.000000 1.000000 1686050046.892915 10794.000000 46.000000 0.955968 0.264305 -0.127550
-10.71000004 -18.29999924 -0.72000003 200 15 148 0.000000 0.000000 1.000000 1.000000 1686050950.472535 1028.000000 46.000000 0.902076 0.329236 0.279038
-10.72000027 -18.32999992 -0.73000002 200 15 148 0.000000 0.000000 1.000000 1.000000 1686050050.816407 15677.000000 46.000000 0.934021 0.312265 0.173481
-10.75000000 -18.21999931 -0.74000001 200 15 148 0.000000 0.000000 1.000000 1.000000 1686050059.571442 6939.000000 46.000000 0.872597 0.373100 -0.315231
-10.73999977 -18.23999977 -0.79000002 200 15 148 0.000000 0.000000 1.000000 1.000000 1686050361.539796 8995.000000 46.000000 0.819250 0.451618 0.353371
-10.80000019 -18.32999992 -0.79000002 200 15 148 0.000000 0.000000 1.000000 1.000000 1686050356.530701 15934.000000 46.000000 0.892454 0.377406 0.247164
-10.77999973 -18.29999924 -0.83999997 200 15 148 0.000000 0.000000 1.000000 1.000000 1686050355.296265 3855.000000 46.000000 0.932595 0.056561 0.356465
-10.81999969 -18.28000069 -0.81000000 200 15 148 0.000000 0.000000 1.000000 1.000000 1686050355.197816 7196.000000 46.000000 0.864458 0.252828 0.434500
-10.69999981 -18.46999931 -0.77999997 200 15 148 0.000000 0.000000 1.000000 1.000000 1686050361.440736 3084.000000 46.000000 0.845443 0.511987 0.151973
-10.71000004 -18.46999931 -0.80000001 200 15 148 0.000000 0.000000 1.000000 1.000000 1686050049.493714 4883.000000 46.000000 0.900879 0.423371 0.095779
-10.77999973 -18.37000084 -0.85000002 200 15 148 0.000000 0.000000 1.000000 1.000000 1686050055.819001 8738.000000 46.000000 0.589819 0.689507 0.420350
-10.80000019 -18.35000038 -0.79000002 200 15 148 0.000000 0.000000 1.000000 1.000000 1686050059.679078 4626.000000 46.000000 0.792568 0.418075 0.443902
-10.78999996 -18.37000084 -0.79000002 200 15 148 0.000000 0.000000 1.000000 1.000000 1686050051.983460 18504.000000 46.000000 0.770592 0.298345 0.563186
-10.75000000 -18.50000000 -0.75999999 200 15 148 0.000000 0.000000 1.000000 1.000000 1686050049.391968 10280.000000 46.000000 0.979930 0.129425 0.151612
-10.75000000 -18.48999977 -0.75999999 200 15 148 0.000000 0.000000 1.000000 1.000000 1686050049.391633 10280.000000 46.000000 0.916745 0.276617 0.288203
-10.77999973 -18.44000053 -0.83999997 200 15 148 0.000000 0.000000 1.000000 1.000000 1686050053.313996 14649.000000 46.000000 0.860147 0.384518 0.335102
-10.77999973 -18.42000008 -0.85000002 200 15 148 0.000000 0.000000 1.000000 1.000000 1686050055.818543 7196.000000 46.000000 0.713805 0.213053 0.667151
-10.89000034 -18.13999939 -0.74000001 200 15 148 0.000000 0.000000 1.000000 1.000000 1686050366.650697 2570.000000 46.000000 0.957658 0.284913 0.041419
-10.92000008 -18.02000046 -0.74000001 200 15 148 0.000000 0.000000 1.000000 1.000000 1686050350.495911 3084.000000 46.000000 0.994304 -0.090189 -0.056786
-10.96000004 -18.05999947 -0.75000000 200 15 148 0.000000 0.000000 1.000000 1.000000 1686050380.480531 5140.000000 46.000000 0.928650 0.265126 -0.259455
-10.90999985 -18.14999962 -0.76999998 200 15 148 0.000000 0.000000 1.000000 1.000000 1686050054.575318 8738.000000 46.000000 0.933087 0.182168 0.310102
-10.92000008 -18.15999985 -0.70999998 200 15 148 0.000000 0.000000 1.000000 1.000000 1686050359.129456 2570.000000 46.000000 0.983306 0.139090 0.117319
-10.93000031 -18.10000038 -0.77999997 200 15 148 0.000000 0.000000 1.000000 1.000000 1686050356.427308 5654.000000 46.000000 0.914149 0.165822 -0.369911
-11.03999996 -17.98999977 -0.72000003 200 15 148 0.000000 0.000000 1.000000 1.000000 1686050050.716431 11051.000000 46.000000 0.873386 -0.091713 -0.478316
-11.01000023 -17.95000076 -0.70999998 200 15 148 0.000000 0.000000 1.000000 1.000000 1686050046.988526 25700.000000 46.000000 0.774823 0.116592 -0.621334
-11.02000046 -18.11000061 -0.70999998 200 15 148 0.000000 0.000000 1.000000 1.000000 1686050057.169648 2827.000000 46.000000 0.905229 -0.078061 -0.417693
-10.85000038 -18.20000076 -0.77999997 200 15 148 0.000000 0.000000 1.000000 1.000000 1686050059.571320 1028.000000 46.000000 0.903846 0.353042 0.241709
-10.89999962 -18.28000069 -0.75000000 200 15 148 0.000000 0.000000 1.000000 1.000000 1686050046.794617 14392.000000 46.000000 0.972881 0.050048 0.225826
-10.89999962 -18.28000069 -0.72000003 200 15 148 0.000000 0.000000 1.000000 1.000000 1686050051.981782 13107.000000 46.000000 0.952861 -0.125550 -0.276211
-10.85999966 -18.29999924 -0.75999999 200 15 148 0.000000 0.000000 1.000000 1.000000 1686050360.290345 3855.000000 46.000000 0.982014 -0.078128 -0.171883
-10.89999962 -18.29999924 -0.74000001 200 15 148 0.000000 0.000000 1.000000 1.000000 1686050052.080018 22873.000000 46.000000 0.947398 0.129616 0.292638
-10.89999962 -18.31999969 -0.83999997 200 15 148 0.000000 0.000000 1.000000 1.000000 1686050059.678651 4883.000000 46.000000 0.972500 -0.055047 0.226305
-10.89000034 -18.31999969 -0.83999997 200 15 148 0.000000 0.000000 1.000000 1.000000 1686050059.678773 4112.000000 46.000000 0.971059 0.167600 0.170159
-10.92000008 -18.20000076 -0.72000003 200 15 148 0.000000 0.000000 1.000000 1.000000 1686050050.714509 17733.000000 46.000000 0.995200 -0.058541 0.078423
-10.93000031 -18.20999908 -0.76999998 200 15 148 0.000000 0.000000 1.000000 1.000000 1686050355.399598 514.000000 46.000000 0.989785 0.142037 0.012302
-10.84000015 -18.36000061 -0.80000001 200 15 148 0.000000 0.000000 1.000000 1.000000 1686050057.172486 16448.000000 46.000000 0.739981 0.601937 0.300166
-10.56999969 -18.52000046 -0.67000002 200 15 148 0.000000 0.000000 1.000000 1.000000 1686050355.394654 9509.000000 46.000000 0.739905 0.286054 0.608863
-10.53999996 -18.61000061 -0.69000000 200 15 148 0.000000 0.000000 1.000000 1.000000 1686050058.322999 7196.000000 46.000000 0.336179 0.729201 0.596028
-10.50000000 -18.75000000 -0.60000002 200 15 148 0.000000 0.000000 1.000000 1.000000 1686050050.710603 1285.000000 46.000000 0.233805 0.670031 0.704552
-10.50000000 -18.70000076 -0.69000000 200 15 148 0.000000 0.000000 1.000000 1.000000 1686050940.379273 771.000000 46.000000 0.482871 0.427218 0.764409
-10.51000023 -18.75000000 -0.62000000 200 15 148 0.000000 0.000000 1.000000 1.000000 1686050050.710755 6425.000000 46.000000 0.123619 0.842065 0.525018
-10.53999996 -18.70000076 -0.67000002 200 15 148 0.000000 0.000000 1.000000 1.000000 1686050352.893922 3341.000000 46.000000 0.251758 0.663437 0.704605
-10.57999992 -18.71999931 -0.66000003 200 15 148 0.000000 0.000000 1.000000 1.000000 1686050049.284364 4369.000000 46.000000 0.572934 0.620255 0.535752
-10.48999977 -18.88999939 -0.64999998 200 15 148 0.000000 0.000000 1.000000 1.000000 1686050050.510255 8995.000000 46.000000 0.150101 0.329122 0.932281
-10.52000046 -19.00000000 -0.60000002 200 15 148 0.000000 0.000000 1.000000 1.000000 1686050350.196351 6682.000000 46.000000 0.423964 0.539440 0.727502
-10.48999977 -18.95000076 -0.62000000 200 15 148 0.000000 0.000000 1.000000 1.000000 1686050057.078187 25700.000000 46.000000 0.175802 0.640530 0.747540
-10.51000023 -18.96999931 -0.64999998 200 15 148 0.000000 0.000000 1.000000 1.000000 1686050918.523682 257.000000 46.000000 -0.046978 0.656264 0.753067
-10.55000019 -18.93000031 -0.69000000 200 15 148 0.000000 0.000000 1.000000 1.000000 1686050048.215668 4112.000000 46.000000 0.247266 0.748096 0.615801
-10.57999992 -18.95999908 -0.68000001 200 15 148 0.000000 0.000000 1.000000 1.000000 1686050057.078187 11565.000000 46.000000 0.623450 0.532214 0.572763
-10.50000000 -19.05999947 -0.60000002 200 15 148 0.000000 0.000000 1.000000 1.000000 1686050049.394166 8995.000000 46.000000 0.539830 0.529740 0.654186
-10.48999977 -19.04999924 -0.66000003 200 15 148 0.000000 0.000000 1.000000 1.000000 1686050350.297120 6168.000000 46.000000 0.558538 0.366388 0.744174
-10.73999977 -18.93000031 -0.69000000 200 15 148 0.000000 0.000000 1.000000 1.000000 1686050053.208192 2313.000000 46.000000 0.845217 0.196667 0.496921
-10.56000042 -18.62999916 -0.82999998 200 15 148 0.000000 0.000000 1.000000 1.000000 1686050351.421998 6168.000000 46.000000 0.323520 0.165231 0.931683
-10.60999966 -18.64999962 -0.82999998 200 15 148 0.000000 0.000000 1.000000 1.000000 1686050054.577973 25700.000000 46.000000 0.676535 0.290862 0.676535
-10.60999966 -18.64999962 -0.82999998 200 15 148 0.000000 0.000000 1.000000 1.000000 1686050054.577943 25700.000000 46.000000 0.676535 0.290862 0.676535
-10.61999989 -18.63999939 -0.77999997 200 15 148 0.000000 0.000000 1.000000 1.000000 1686050352.797913 1285.000000 46.000000 0.374710 0.561247 0.737966
-10.63000011 -18.64999962 -0.85000002 200 15 148 0.000000 0.000000 1.000000 1.000000 1686050058.424958 19018.000000 46.000000 0.464121 0.431551 0.773535
-10.60999966 -18.52000046 -0.87000000 200 15 148 0.000000 0.000000 1.000000 1.000000 1686050354.122193 771.000000 46.000000 0.358685 0.656771 0.663322
-10.64000034 -18.63999939 -0.93000001 200 15 148 0.000000 0.000000 1.000000 1.000000 1686050350.197022 1028.000000 46.000000 0.524195 0.713903 0.464287
-10.56000042 -18.70000076 -0.83999997 200 15 148 0.000000 0.000000 1.000000 1.000000 1686050360.287293 3598.000000 46.000000 -0.045807 0.523315 0.850907
-10.60999966 -18.81999969 -0.85000002 200 15 148 0.000000 0.000000 1.000000 1.000000 1686050049.393769 14392.000000 46.000000 0.379797 0.695473 0.609977
-10.64999962 -18.77000046 -0.83999997 200 15 148 0.000000 0.000000 1.000000 1.000000 1686050353.926148 7710.000000 46.000000 0.079849 0.672185 0.736065
-10.64999962 -18.78000069 -0.82999998 200 15 148 0.000000 0.000000 1.000000 1.000000 1686050366.651246 4369.000000 46.000000 0.385536 0.439927 0.811065
-10.56000042 -18.79999924 -0.89999998 200 15 148 0.000000 0.000000 1.000000 1.000000 1686050051.880402 7196.000000 46.000000 0.004158 0.686007 0.727583
-10.63000011 -18.77000046 -0.88999999 200 15 148 0.000000 0.000000 1.000000 1.000000 1686050053.414735 13878.000000 46.000000 0.183769 0.448396 0.874740
-10.64000034 -18.77000046 -0.87000000 200 15 148 0.000000 0.000000 1.000000 1.000000 1686050046.894196 6425.000000 46.000000 0.055718 0.655760 0.752910
-10.72000027 -18.54000092 -0.73000002 200 15 148 0.000000 0.000000 1.000000 1.000000 1686050063.632203 6425.000000 46.000000 0.565212 0.704443 0.429296
-10.69999981 -18.57999992 -0.73000002 200 15 148 0.000000 0.000000 1.000000 1.000000 1686050362.796998 3341.000000 46.000000 0.796399 0.569295 0.204087
-10.69999981 -18.57999992 -0.72000003 200 15 148 0.000000 0.000000 1.000000 1.000000 1686050049.392121 16191.000000 46.000000 0.728552 0.661065 0.179454
-10.68000031 -18.51000023 -0.85000002 200 15 148 0.000000 0.000000 1.000000 1.000000 1686050331.621949 2056.000000 46.000000 0.385838 0.522591 0.760281
-10.65999985 -18.59000015 -0.69999999 200 15 148 0.000000 0.000000 1.000000 1.000000 1686050352.797852 5654.000000 46.000000 0.550405 0.743128 0.380547
-10.68000031 -18.65999985 -0.82999998 200 15 148 0.000000 0.000000 1.000000 1.000000 1686050053.210603 12850.000000 46.000000 0.663351 0.698348 0.268840
-10.72999954 -18.59000015 -0.83999997 200 15 148 0.000000 0.000000 1.000000 1.000000 1686050048.215729 6425.000000 46.000000 0.619634 0.129276 0.774171
-10.75000000 -18.56999969 -0.85000002 200 15 148 0.000000 0.000000 1.000000 1.000000 1686050061.030976 6168.000000 46.000000 0.755688 0.547671 0.359155
-10.80000019 -18.57999992 -0.80000001 200 15 148 0.000000 0.000000 1.000000 1.000000 1686050352.798707 3855.000000 46.000000 0.769112 0.346665 0.536927
-10.72000027 -18.57999992 -0.88000000 200 15 148 0.000000 0.000000 1.000000 1.000000 1686050053.415681 15934.000000 46.000000 0.374991 0.514597 0.771085
-10.65999985 -18.55999947 -0.86000001 200 15 148 0.000000 0.000000 1.000000 1.000000 1686050357.692322 8738.000000 46.000000 0.318205 0.621872 0.715557
-10.68999958 -18.54999924 -0.86000001 200 15 148 0.000000 0.000000 1.000000 1.000000 1686050371.442750 6682.000000 46.000000 0.583980 0.715581 0.383288
-10.71000004 -18.51000023 -0.87000000 200 15 148 0.000000 0.000000 1.000000 1.000000 1686050069.975312 6168.000000 46.000000 0.509962 0.298399 0.806782
-10.72999954 -18.52000046 -0.91000003 200 15 148 0.000000 0.000000 1.000000 1.000000 1686050057.174805 15677.000000 46.000000 0.647044 0.175910 0.741883
-10.71000004 -18.60000038 -0.87000000 200 15 148 0.000000 0.000000 1.000000 1.000000 1686050053.415589 13621.000000 46.000000 0.367853 0.828852 0.421531
-10.68000031 -18.62000084 -0.88000000 200 15 148 0.000000 0.000000 1.000000 1.000000 1686050059.681306 6939.000000 46.000000 0.603786 0.376749 0.702497
-10.77000046 -18.53000069 -0.92000002 200 15 148 0.000000 0.000000 1.000000 1.000000 1686050055.817353 10280.000000 46.000000 0.821877 0.476154 0.312722
-10.80000019 -18.51000023 -0.88999999 200 15 148 0.000000 0.000000 1.000000 1.000000 1686050918.423218 514.000000 46.000000 0.906940 0.329663 0.262265
-10.75000000 -18.81999969 -0.85000002 200 15 148 0.000000 0.000000 1.000000 1.000000 1686050048.215058 2570.000000 46.000000 0.599318 0.541918 0.589188
-10.73999977 -18.82999992 -0.85000002 200 15 148 0.000000 0.000000 1.000000 1.000000 1686050051.987733 11822.000000 46.000000 0.243630 0.446403 0.861028
-10.68999958 -18.79000092 -0.88999999 200 15 148 0.000000 0.000000 1.000000 1.000000 1686050046.694855 8738.000000 46.000000 0.445098 0.313911 0.838658
-10.77000046 -18.75000000 -0.89999998 200 15 148 0.000000 0.000000 1.000000 1.000000 1686050351.420899 257.000000 46.000000 0.645925 0.551482 0.527871
-10.77999973 -18.70000076 -0.88999999 200 15 148 0.000000 0.000000 1.000000 1.000000 1686050370.293885 3084.000000 46.000000 0.582095 0.353823 0.732103
-10.64999962 -18.95999908 -0.69999999 200 15 148 0.000000 0.000000 1.000000 1.000000 1686050360.188721 514.000000 46.000000 0.586105 0.151398 0.795964
-10.64999962 -19.00000000 -0.75000000 200 15 148 0.000000 0.000000 1.000000 1.000000 1686050053.412568 771.000000 46.000000 0.452510 0.786622 0.420072
-10.52999973 -18.98999977 -0.94000000 200 15 148 0.000000 0.000000 1.000000 1.000000 1686050356.436585 9766.000000 46.000000 0.414443 0.512730 0.751894
-10.56999969 -18.95999908 -0.88999999 200 15 148 0.000000 0.000000 1.000000 1.000000 1686050350.297791 2827.000000 46.000000 0.303083 0.601355 0.739265
-10.55000019 -18.95999908 -0.97000003 200 15 148 0.000000 0.000000 1.000000 1.000000 1686050351.523865 5911.000000 46.000000 0.337421 0.637350 0.692772
-10.56999969 -19.04999924 -0.72000003 200 15 148 0.000000 0.000000 1.000000 1.000000 1686050055.812806 25700.000000 46.000000 0.588698 0.659141 0.467940
-10.55000019 -19.04999924 -0.75999999 200 15 148 0.000000 0.000000 1.000000 1.000000 1686050071.236512 2827.000000 46.000000 0.020740 0.808861 0.587634
-10.57999992 -19.02000046 -0.72000003 200 15 148 0.000000 0.000000 1.000000 1.000000 1686050046.694215 2827.000000 46.000000 0.088900 0.753466 0.651449
-10.57999992 -19.04000092 -0.75999999 200 15 148 0.000000 0.000000 1.000000 1.000000 1686050057.079560 6682.000000 46.000000 0.471927 0.695384 0.541966
-10.60000038 -19.01000023 -0.75000000 200 15 148 0.000000 0.000000 1.000000 1.000000 1686050055.813142 21331.000000 46.000000 0.352453 0.313124 0.881890
-10.61999989 -19.05999947 -0.72000003 200 15 148 0.000000 0.000000 1.000000 1.000000 1686050359.137635 8738.000000 46.000000 0.646945 0.414111 0.640292
-10.64999962 -19.12999916 -0.73000002 200 15 148 0.000000 0.000000 1.000000 1.000000 1686050062.565644 4369.000000 46.000000 0.552681 0.366824 0.748321
-10.64000034 -19.09000015 -0.70999998 200 15 148 0.000000 0.000000 1.000000 1.000000 1686050046.694489 3084.000000 46.000000 0.372818 0.622458 0.688152
-10.63000011 -19.10000038 -0.73000002 200 15 148 0.000000 0.000000 1.000000 1.000000 1686050354.028016 25700.000000 46.000000 0.506207 0.573477 0.644111
