//X Y Z R G B PointSourceId ScanDirectionFlag NumberOfReturns ReturnNumber GpsTime Intensity Classification Nx Ny Nz
15.32999992 -4.92999983 -0.02000000 23 28 230 97.000000 1.000000 4.000000 1.000000 -60.708740 114.000000 21.000000 -0.008646 0.952288 0.305078
15.31000042 -4.94000006 0.04000000 23 28 230 97.000000 1.000000 4.000000 1.000000 -60.708740 114.000000 21.000000 0.062263 0.975456 0.211206
15.31000042 -4.92999983 0.00000000 23 28 230 97.000000 1.000000 4.000000 1.000000 -60.708740 114.000000 21.000000 0.436977 0.899189 -0.022579
15.30000019 -4.92999983 0.01000000 23 28 230 97.000000 1.000000 4.000000 1.000000 -60.708740 114.000000 21.000000 0.222337 0.957246 0.185059
15.30000019 -4.92999983 0.01000000 23 28 230 97.000000 1.000000 4.000000 1.000000 -60.708740 114.000000 21.000000 0.222337 0.957246 0.185059
15.28999996 -4.92999983 0.00000000 23 28 230 97.000000 1.000000 4.000000 1.000000 -60.708740 114.000000 21.000000 0.502380 0.840318 -0.203668
15.32999992 -4.98999977 0.10000000 23 28 230 97.000000 1.000000 4.000000 1.000000 -60.708740 114.000000 21.000000 0.230931 0.936322 0.264521
15.35000038 -5.03999996 0.07000000 23 28 230 97.000000 1.000000 4.000000 1.000000 -60.708740 114.000000 21.000000 -0.042997 0.931607 0.360916
15.34000015 -5.01000023 0.04000000 23 28 230 97.000000 1.000000 4.000000 1.000000 -60.708740 114.000000 21.000000 -0.260410 0.919346 -0.294939
15.35999966 -5.03000021 0.06000000 23 28 230 97.000000 1.000000 4.000000 1.000000 -60.708740 114.000000 21.000000 -0.459643 0.884570 0.079153
15.35000038 -5.03999996 0.06000000 23 28 230 97.000000 1.000000 4.000000 1.000000 -60.708740 114.000000 21.000000 -0.199228 0.973587 -0.111518
15.26000023 -4.96000004 0.14000000 23 28 230 97.000000 1.000000 4.000000 1.000000 -60.708740 114.000000 21.000000 0.229441 0.972395 0.042489
15.17000008 -4.84000015 0.31000000 23 28 230 97.000000 1.000000 4.000000 1.000000 -60.708740 114.000000 21.000000 0.866407 0.387966 0.314360
15.17000008 -4.84000015 0.28999999 23 28 230 97.000000 1.000000 4.000000 1.000000 -60.708740 114.000000 21.000000 0.923403 0.364682 0.119726
15.10999966 -5.05999994 0.20999999 23 28 230 97.000000 1.000000 4.000000 1.000000 -60.708740 114.000000 21.000000 0.568972 0.809633 0.144100
15.09000015 -5.05000019 0.22000000 23 28 230 97.000000 1.000000 4.000000 1.000000 -60.708740 114.000000 21.000000 0.686299 0.723865 0.070797
15.10000038 -5.05999994 0.20999999 23 28 230 97.000000 1.000000 4.000000 1.000000 -60.708740 114.000000 21.000000 0.753843 0.657019 -0.006916
15.57999992 -5.07999992 0.41000000 23 28 230 97.000000 1.000000 4.000000 1.000000 -60.708740 114.000000 21.000000 0.755907 -0.630686 0.175615
15.52999973 -5.09000015 0.44000000 23 28 230 97.000000 1.000000 4.000000 1.000000 -60.708740 114.000000 21.000000 -0.435960 0.899747 0.019877
15.55000019 -5.07999992 0.44000000 23 28 230 97.000000 1.000000 4.000000 1.000000 -60.708740 114.000000 21.000000 0.604336 -0.790733 -0.097567
15.55000019 -5.09000015 0.41999999 23 28 230 97.000000 1.000000 4.000000 1.000000 -60.708740 114.000000 21.000000 -0.616255 0.751109 0.236780
15.55000019 -5.07999992 0.44000000 23 28 230 97.000000 1.000000 4.000000 1.000000 -60.708740 114.000000 21.000000 0.604336 -0.790733 -0.097567
15.53999996 -5.11000013 0.41999999 23 28 230 97.000000 1.000000 4.000000 1.000000 -60.708740 114.000000 21.000000 -0.313783 0.924310 -0.217234
15.52999973 -5.09999990 0.38000000 23 28 230 97.000000 1.000000 4.000000 1.000000 -60.708740 114.000000 21.000000 -0.428511 0.882055 -0.195849
15.55000019 -5.09000015 0.37000000 23 28 230 97.000000 1.000000 4.000000 1.000000 -60.708740 114.000000 21.000000 -0.730616 0.646494 0.219652
15.56000042 -5.09000015 0.31999999 23 28 230 97.000000 1.000000 4.000000 1.000000 -60.708740 114.000000 21.000000 0.768450 -0.608292 -0.198657
15.52999973 -5.11999989 0.38000000 23 28 230 97.000000 1.000000 4.000000 1.000000 -60.708740 114.000000 21.000000 -0.633855 0.708047 -0.311283
15.53999996 -5.11999989 0.36000001 23 28 230 97.000000 1.000000 4.000000 1.000000 -60.708740 114.000000 21.000000 -0.409130 0.910817 0.054998
15.50000000 -5.09999990 0.54000002 23 28 230 97.000000 1.000000 4.000000 1.000000 -60.708740 114.000000 21.000000 -0.218811 0.937960 -0.268984
15.52000046 -5.09000015 0.52999997 23 28 230 97.000000 1.000000 4.000000 1.000000 -60.708740 114.000000 21.000000 0.734263 -0.677233 0.047050
15.51000023 -5.09999990 0.51999998 23 28 230 97.000000 1.000000 4.000000 1.000000 -60.708740 114.000000 21.000000 -0.428024 0.898989 0.092808
15.48999977 -5.09999990 0.47000000 23 28 230 97.000000 1.000000 4.000000 1.000000 -60.708740 114.000000 21.000000 -0.187848 0.957891 -0.217158
15.51000023 -5.11000013 0.44999999 23 28 230 97.000000 1.000000 4.000000 1.000000 -60.708740 114.000000 21.000000 -0.494655 0.846477 -0.196960
15.51000023 -5.07999992 0.41999999 23 28 230 97.000000 1.000000 4.000000 1.000000 -60.708740 114.000000 21.000000 -0.363147 0.801483 -0.475131
15.52000046 -5.09999990 0.43000001 23 28 230 97.000000 1.000000 4.000000 1.000000 -60.708740 114.000000 21.000000 0.470124 -0.740651 0.480021
15.51000023 -5.11000013 0.41999999 23 28 230 97.000000 1.000000 4.000000 1.000000 -60.708740 114.000000 21.000000 -0.666891 0.743676 0.046924
15.47999954 -5.09999990 0.47000000 23 28 230 97.000000 1.000000 4.000000 1.000000 -60.708740 114.000000 21.000000 -0.410124 0.891764 0.191196
15.52000046 -5.09999990 0.38999999 23 28 230 97.000000 1.000000 4.000000 1.000000 -60.708740 114.000000 21.000000 -0.688631 0.724949 -0.015365
15.51000023 -5.09999990 0.34999999 23 28 230 97.000000 1.000000 4.000000 1.000000 -60.708740 114.000000 21.000000 -0.170086 0.970640 -0.170086
15.51000023 -5.09999990 0.33000001 23 28 230 97.000000 1.000000 4.000000 1.000000 -60.708740 114.000000 21.000000 -0.333617 0.936019 0.112106
15.51000023 -5.09999990 0.34999999 23 28 230 97.000000 1.000000 4.000000 1.000000 -60.708740 114.000000 21.000000 -0.170086 0.970640 -0.170086
15.53999996 -5.09999990 0.28999999 23 28 230 97.000000 1.000000 4.000000 1.000000 -60.708740 114.000000 21.000000 -0.546398 0.803345 0.236824
15.53999996 -5.11000013 0.30000001 23 28 230 97.000000 1.000000 4.000000 1.000000 -60.708740 114.000000 21.000000 -0.497128 0.854943 -0.148112
15.53999996 -5.09999990 0.28999999 23 28 230 97.000000 1.000000 4.000000 1.000000 -60.708740 114.000000 21.000000 -0.546398 0.803345 0.236824
15.55000019 -5.09000015 0.28000000 23 28 230 97.000000 1.000000 4.000000 1.000000 -60.708740 114.000000 21.000000 -0.566432 0.794856 0.217621
15.53999996 -5.09999990 0.31000000 23 28 230 97.000000 1.000000 4.000000 1.000000 -60.708740 114.000000 21.000000 0.762387 -0.570591 0.305274
15.52999973 -5.09999990 0.30000001 23 28 230 97.000000 1.000000 4.000000 1.000000 -60.708740 114.000000 21.000000 -0.438838 0.857799 -0.267584
15.53999996 -5.09999990 0.31000000 23 28 230 97.000000 1.000000 4.000000 1.000000 -60.708740 114.000000 21.000000 0.762387 -0.570591 0.305274
15.53999996 -5.09000015 0.23999999 23 28 230 97.000000 1.000000 4.000000 1.000000 -60.708740 114.000000 21.000000 -0.220506 0.959926 -0.172972
15.56000042 -5.07999992 0.27000001 23 28 230 97.000000 1.000000 4.000000 1.000000 -60.708740 114.000000 21.000000 -0.608891 0.792812 -0.026474
15.55000019 -5.07999992 0.23999999 23 28 230 97.000000 1.000000 4.000000 1.000000 -60.708740 114.000000 21.000000 -0.627623 0.745984 -0.222705
15.55000019 -5.07999992 0.22000000 23 28 230 97.000000 1.000000 4.000000 1.000000 -60.708740 114.000000 21.000000 -0.671804 0.728661 0.133164
15.55000019 -5.07999992 0.23000000 23 28 230 97.000000 1.000000 4.000000 1.000000 -60.708740 114.000000 21.000000 0.837165 -0.542528 -0.069410
15.52000046 -5.07999992 0.25000000 23 28 230 97.000000 1.000000 4.000000 1.000000 -60.708740 114.000000 21.000000 -0.482030 0.828343 0.285474
15.52000046 -5.11000013 0.31000000 23 28 230 97.000000 1.000000 4.000000 1.000000 -60.708740 114.000000 21.000000 0.763344 -0.627839 0.152067
15.52000046 -5.07999992 0.25000000 23 28 230 97.000000 1.000000 4.000000 1.000000 -60.708740 114.000000 21.000000 -0.482030 0.828343 0.285474
15.47000027 -5.07999992 0.23000000 23 28 230 97.000000 1.000000 4.000000 1.000000 -60.708740 114.000000 21.000000 -0.446687 0.883319 0.142193
15.50000000 -5.09000015 0.18000001 23 28 230 97.000000 1.000000 4.000000 1.000000 -60.708740 114.000000 21.000000 -0.154298 0.958757 -0.238700
15.52000046 -5.09000015 0.19000000 23 28 230 97.000000 1.000000 4.000000 1.000000 -60.708740 114.000000 21.000000 -0.404186 0.903392 -0.143238
15.21000004 -5.13999987 0.50000000 23 28 230 97.000000 1.000000 4.000000 1.000000 -60.708740 114.000000 21.000000 0.005943 0.971027 0.238894
15.21000004 -5.13999987 0.50000000 23 28 230 97.000000 1.000000 4.000000 1.000000 -60.708740 114.000000 21.000000 0.005943 0.971027 0.238894
15.17000008 -5.13999987 0.49000001 23 28 230 97.000000 1.000000 4.000000 1.000000 -60.708740 114.000000 21.000000 0.523654 0.839322 -0.146033
15.15999985 -5.13000011 0.47999999 23 28 230 97.000000 1.000000 4.000000 1.000000 -60.708740 114.000000 21.000000 0.143415 0.987583 -0.064129
15.13000011 -5.11999989 0.47000000 23 28 230 97.000000 1.000000 4.000000 1.000000 -60.708740 114.000000 21.000000 0.654272 0.733949 -0.182338
15.06999969 -5.11999989 0.46000001 23 28 230 97.000000 1.000000 4.000000 1.000000 -60.708740 114.000000 21.000000 0.397637 0.825373 0.400805
15.26000023 -5.11999989 0.23000000 23 28 230 97.000000 1.000000 4.000000 1.000000 -60.708740 114.000000 21.000000 0.351383 0.889672 -0.291573
15.13000011 -5.07999992 0.22000000 23 28 230 97.000000 1.000000 4.000000 1.000000 -60.708740 114.000000 21.000000 0.247303 0.968902 -0.008363
15.06999969 -5.09000015 0.23000000 23 28 230 97.000000 1.000000 4.000000 1.000000 -60.708740 114.000000 21.000000 0.366167 0.928068 0.067907
15.07999992 -5.09999990 0.23000000 23 28 230 97.000000 1.000000 4.000000 1.000000 -60.708740 114.000000 21.000000 0.224304 0.974357 0.017802
14.98999977 -4.55000019 0.80000001 23 28 230 97.000000 1.000000 4.000000 1.000000 -60.708740 114.000000 21.000000 0.833059 -0.440847 0.334165
14.98999977 -4.59000015 0.74000001 23 28 230 97.000000 1.000000 4.000000 1.000000 -60.708740 114.000000 21.000000 0.817938 -0.564246 0.112266
15.01000023 -4.59000015 0.75999999 23 28 230 97.000000 1.000000 4.000000 1.000000 -60.708740 114.000000 21.000000 0.819573 -0.296175 0.490490
14.97999954 -4.61000013 0.75999999 23 28 230 97.000000 1.000000 4.000000 1.000000 -60.708740 114.000000 21.000000 0.934313 -0.149985 0.323363
14.97999954 -4.57999992 0.74000001 23 28 230 97.000000 1.000000 4.000000 1.000000 -60.708740 114.000000 21.000000 0.909196 -0.336039 -0.245847
14.97999954 -4.61000013 0.75000000 23 28 230 97.000000 1.000000 4.000000 1.000000 -60.708740 114.000000 21.000000 0.979126 -0.164217 0.119767
15.02000046 -4.65999985 0.75000000 23 28 230 97.000000 1.000000 4.000000 1.000000 -60.708740 114.000000 21.000000 0.816926 -0.418814 0.396519
14.93000031 -4.59999990 0.76999998 23 28 230 97.000000 1.000000 4.000000 1.000000 -60.708740 114.000000 21.000000 0.982174 -0.185691 0.029197
14.93999958 -4.61000013 0.75999999 23 28 230 97.000000 1.000000 4.000000 1.000000 -60.708740 114.000000 21.000000 0.980677 -0.184102 0.066181
15.72000027 -4.67000008 -0.94000000 23 28 230 97.000000 1.000000 4.000000 1.000000 -60.708740 114.000000 21.000000 0.979144 0.154342 0.132117
15.38000011 -4.67999983 -0.05000000 23 28 230 97.000000 1.000000 4.000000 1.000000 -60.708740 114.000000 21.000000 0.262999 0.955518 0.133482
15.38000011 -4.71000004 -0.04000000 23 28 230 97.000000 1.000000 4.000000 1.000000 -60.708740 114.000000 21.000000 0.554971 0.772482 -0.308673
15.39000034 -4.73000002 -0.05000000 23 28 230 97.000000 1.000000 4.000000 1.000000 -60.708740 114.000000 21.000000 0.787394 0.610484 0.085555
15.36999989 -4.71000004 -0.06000000 23 28 230 97.000000 1.000000 4.000000 1.000000 -60.708740 114.000000 21.000000 0.415559 0.902478 -0.113334
15.39000034 -4.69999981 -0.10000000 23 28 230 97.000000 1.000000 4.000000 1.000000 -60.708740 114.000000 21.000000 0.301770 0.916862 -0.261342
15.38000011 -4.69999981 -0.10000000 23 28 230 97.000000 1.000000 4.000000 1.000000 -60.708740 114.000000 21.000000 0.422695 0.862175 0.279253
15.39000034 -4.69999981 -0.10000000 23 28 230 97.000000 1.000000 4.000000 1.000000 -60.708740 114.000000 21.000000 0.301770 0.916862 -0.261342
15.39999962 -4.69000006 -0.12000000 23 28 230 97.000000 1.000000 4.000000 1.000000 -60.708740 114.000000 21.000000 0.293304 0.955999 0.006136
15.36999989 -4.67000008 -0.14000000 23 28 230 97.000000 1.000000 4.000000 1.000000 -60.708740 114.000000 21.000000 -0.231234 0.970688 0.065537
15.38000011 -4.69000006 -0.12000000 23 28 230 97.000000 1.000000 4.000000 1.000000 -60.708740 114.000000 21.000000 0.316692 0.880373 -0.353058
15.39999962 -4.69000006 -0.14000000 23 28 230 97.000000 1.000000 4.000000 1.000000 -60.708740 114.000000 21.000000 0.111873 0.990713 0.077273
15.38000011 -4.69000006 -0.11000000 23 28 230 97.000000 1.000000 4.000000 1.000000 -60.708740 114.000000 21.000000 0.382002 0.849761 0.363292
15.39000034 -4.69000006 -0.13000000 23 28 230 97.000000 1.000000 4.000000 1.000000 -60.708740 114.000000 21.000000 -0.022419 0.978191 -0.206494
15.36999989 -4.67000008 -0.18000001 23 28 230 97.000000 1.000000 4.000000 1.000000 -60.708740 114.000000 21.000000 0.306215 0.942927 -0.130850
15.38000011 -4.69000006 -0.16000000 23 28 230 97.000000 1.000000 4.000000 1.000000 -60.708740 114.000000 21.000000 0.388419 0.917215 -0.088587
15.36999989 -4.69000006 -0.17000000 23 28 230 97.000000 1.000000 4.000000 1.000000 -60.708740 114.000000 21.000000 0.135748 0.977631 -0.160655
15.39999962 -4.71999979 -0.14000000 23 28 230 97.000000 1.000000 4.000000 1.000000 -60.708740 114.000000 21.000000 0.692714 0.720816 0.023887
15.38000011 -4.69999981 -0.12000000 23 28 230 97.000000 1.000000 4.000000 1.000000 -60.708740 114.000000 21.000000 0.321981 0.847727 -0.421530
15.39000034 -4.71000004 -0.18000001 23 28 230 97.000000 1.000000 4.000000 1.000000 -60.708740 114.000000 21.000000 0.288646 0.953957 0.081546
15.39999962 -4.71000004 -0.18000001 23 28 230 97.000000 1.000000 4.000000 1.000000 -60.708740 114.000000 21.000000 0.418042 0.862116 0.286351
15.36999989 -4.71000004 -0.18000001 23 28 230 97.000000 1.000000 4.000000 1.000000 -60.708740 114.000000 21.000000 0.394373 0.918456 0.030135
15.39000034 -4.69999981 -0.16000000 23 28 230 97.000000 1.000000 4.000000 1.000000 -60.708740 114.000000 21.000000 0.444502 0.881765 0.157820
15.38000011 -4.65000010 -0.31999999 23 28 230 97.000000 1.000000 4.000000 1.000000 -60.708740 114.000000 21.000000 0.266083 0.933404 -0.240742
15.40999985 -4.69000006 -0.20999999 23 28 230 97.000000 1.000000 4.000000 1.000000 -60.708740 114.000000 21.000000 -0.025778 0.999156 0.031965
15.40999985 -4.69000006 -0.23000000 23 28 230 97.000000 1.000000 4.000000 1.000000 -60.708740 114.000000 21.000000 0.603973 0.744209 -0.285254
15.43000031 -4.71000004 -0.19000000 23 28 230 97.000000 1.000000 4.000000 1.000000 -60.708740 114.000000 21.000000 0.331865 0.901197 0.278766
15.40999985 -4.71000004 -0.19000000 23 28 230 97.000000 1.000000 4.000000 1.000000 -60.708740 114.000000 21.000000 0.155311 0.977837 0.140401
15.43999958 -4.69999981 -0.20999999 23 28 230 97.000000 1.000000 4.000000 1.000000 -60.708740 114.000000 21.000000 0.863499 0.504045 0.017567
15.42000008 -4.71000004 -0.22000000 23 28 230 97.000000 1.000000 4.000000 1.000000 -60.708740 114.000000 21.000000 0.490445 0.826751 -0.275584
15.42000008 -4.71000004 -0.22000000 23 28 230 97.000000 1.000000 4.000000 1.000000 -60.708740 114.000000 21.000000 0.490445 0.826751 -0.275584
15.43999958 -4.71999979 -0.20999999 23 28 230 97.000000 1.000000 4.000000 1.000000 -60.708740 114.000000 21.000000 0.737493 0.662696 0.130146
15.42000008 -4.71000004 -0.23000000 23 28 230 97.000000 1.000000 4.000000 1.000000 -60.708740 114.000000 21.000000 0.667179 0.719567 -0.192604
15.43999958 -4.71999979 -0.25000000 23 28 230 97.000000 1.000000 4.000000 1.000000 -60.708740 114.000000 21.000000 0.605729 0.766843 -0.212237
15.42000008 -4.73000002 -0.25999999 23 28 230 97.000000 1.000000 4.000000 1.000000 -60.708740 114.000000 21.000000 0.595768 0.688701 0.413221
15.42000008 -4.69999981 -0.25999999 23 28 230 97.000000 1.000000 4.000000 1.000000 -60.708740 114.000000 21.000000 0.608494 0.753149 -0.250002
15.40999985 -4.71000004 -0.23999999 23 28 230 97.000000 1.000000 4.000000 1.000000 -60.708740 114.000000 21.000000 0.544116 0.827233 0.140084
15.43999958 -4.73000002 -0.25999999 23 28 230 97.000000 1.000000 4.000000 1.000000 -60.708740 114.000000 21.000000 0.563719 0.821910 -0.081761
15.40999985 -4.69999981 -0.27000001 23 28 230 97.000000 1.000000 4.000000 1.000000 -60.708740 114.000000 21.000000 0.344496 0.860467 0.375392
15.40999985 -4.71000004 -0.25000000 23 28 230 97.000000 1.000000 4.000000 1.000000 -60.708740 114.000000 21.000000 0.455418 0.799798 0.391048
15.42000008 -4.71999979 -0.27000001 23 28 230 97.000000 1.000000 4.000000 1.000000 -60.708740 114.000000 21.000000 0.754399 0.639959 0.146061
15.39000034 -4.69000006 -0.22000000 23 28 230 97.000000 1.000000 4.000000 1.000000 -60.708740 114.000000 21.000000 0.179745 0.979429 0.091707
15.39000034 -4.69000006 -0.22000000 23 28 230 97.000000 1.000000 4.000000 1.000000 -60.708740 114.000000 21.000000 0.179745 0.979429 0.091707
15.36999989 -4.69000006 -0.20999999 23 28 230 97.000000 1.000000 4.000000 1.000000 -60.708740 114.000000 21.000000 -0.012349 0.989050 0.147066
15.38000011 -4.65999985 -0.25999999 23 28 230 97.000000 1.000000 4.000000 1.000000 -60.708740 114.000000 21.000000 0.048445 0.998783 0.009277
15.36999989 -4.69000006 -0.25000000 23 28 230 97.000000 1.000000 4.000000 1.000000 -60.708740 114.000000 21.000000 0.088156 0.946037 0.311837
15.38000011 -4.67000008 -0.27000001 23 28 230 97.000000 1.000000 4.000000 1.000000 -60.708740 114.000000 21.000000 0.163868 0.979514 0.117049
15.36999989 -4.69999981 -0.20999999 23 28 230 97.000000 1.000000 4.000000 1.000000 -60.708740 114.000000 21.000000 0.224508 0.943484 0.243791
15.36999989 -4.71000004 -0.25999999 23 28 230 97.000000 1.000000 4.000000 1.000000 -60.708740 114.000000 21.000000 -0.058637 0.939501 0.337491
15.40999985 -4.69000006 -0.28000000 23 28 230 97.000000 1.000000 4.000000 1.000000 -60.708740 114.000000 21.000000 0.212200 0.946001 0.245057
15.43000031 -4.69000006 -0.34000000 23 28 230 97.000000 1.000000 4.000000 1.000000 -60.708740 114.000000 21.000000 0.194942 0.977160 0.084597
15.43000031 -4.71000004 -0.30000001 23 28 230 97.000000 1.000000 4.000000 1.000000 -60.708740 114.000000 21.000000 0.662066 0.703346 0.258793
15.40999985 -4.69999981 -0.33000001 23 28 230 97.000000 1.000000 4.000000 1.000000 -60.708740 114.000000 21.000000 0.273218 0.961777 0.018378
15.40999985 -4.69999981 -0.33000001 23 28 230 97.000000 1.000000 4.000000 1.000000 -60.708740 114.000000 21.000000 0.273218 0.961777 0.018378
15.36999989 -4.67999983 -0.31000000 23 28 230 97.000000 1.000000 4.000000 1.000000 -60.708740 114.000000 21.000000 -0.294304 0.909269 0.294304
15.39000034 -4.69000006 -0.34000000 23 28 230 97.000000 1.000000 4.000000 1.000000 -60.708740 114.000000 21.000000 0.418052 0.905552 -0.072172
15.39999962 -4.69999981 -0.30000001 23 28 230 97.000000 1.000000 4.000000 1.000000 -60.708740 114.000000 21.000000 -0.149589 0.988640 -0.014622
15.39999962 -4.69999981 -0.31999999 23 28 230 97.000000 1.000000 4.000000 1.000000 -60.708740 114.000000 21.000000 0.484708 0.854578 0.186426
15.43000031 -4.69000006 -0.36000001 23 28 230 97.000000 1.000000 4.000000 1.000000 -60.708740 114.000000 21.000000 0.376390 0.924350 -0.062510
15.42000008 -4.69000006 -0.36000001 23 28 230 97.000000 1.000000 4.000000 1.000000 -60.708740 114.000000 21.000000 0.264192 0.961961 0.069524
15.42000008 -4.69000006 -0.37000000 23 28 230 97.000000 1.000000 4.000000 1.000000 -60.708740 114.000000 21.000000 0.584543 0.800602 0.131707
15.38000011 -4.67000008 -0.37000000 23 28 230 97.000000 1.000000 4.000000 1.000000 -60.708740 114.000000 21.000000 -0.348253 0.920684 0.176241
15.39999962 -4.67000008 -0.38000000 23 28 230 97.000000 1.000000 4.000000 1.000000 -60.708740 114.000000 21.000000 0.062999 0.983018 -0.172355
15.39999962 -4.69000006 -0.43000001 23 28 230 97.000000 1.000000 4.000000 1.000000 -60.708740 114.000000 21.000000 0.380507 0.906038 -0.185228
15.39000034 -4.69999981 -0.38000000 23 28 230 97.000000 1.000000 4.000000 1.000000 -60.708740 114.000000 21.000000 0.206975 0.977450 -0.041874
15.39000034 -4.71000004 -0.38999999 23 28 230 97.000000 1.000000 4.000000 1.000000 -60.708740 114.000000 21.000000 0.160063 0.928365 -0.335436
15.39000034 -4.71000004 -0.40000001 23 28 230 97.000000 1.000000 4.000000 1.000000 -60.708740 114.000000 21.000000 0.054989 0.986287 -0.155606
15.40999985 -4.67999983 -0.47000000 23 28 230 97.000000 1.000000 4.000000 1.000000 -60.708740 114.000000 21.000000 0.236064 0.965949 -0.105910
15.40999985 -4.67999983 -0.47999999 23 28 230 97.000000 1.000000 4.000000 1.000000 -60.708740 114.000000 21.000000 0.177317 0.948848 -0.261238
15.43000031 -4.67999983 -0.46000001 23 28 230 97.000000 1.000000 4.000000 1.000000 -60.708740 114.000000 21.000000 0.225641 0.967581 0.113458
15.40999985 -4.67999983 -0.47999999 23 28 230 97.000000 1.000000 4.000000 1.000000 -60.708740 114.000000 21.000000 0.177317 0.948848 -0.261238
15.40999985 -4.67000008 -0.50000000 23 28 230 97.000000 1.000000 4.000000 1.000000 -60.708740 114.000000 21.000000 -0.246413 0.960878 0.126466
15.42000008 -4.65999985 -0.50999999 23 28 230 97.000000 1.000000 4.000000 1.000000 -60.708740 114.000000 21.000000 -0.316226 0.948677 0.003720
15.42000008 -4.71999979 -0.46000001 23 28 230 97.000000 1.000000 4.000000 1.000000 -60.708740 114.000000 21.000000 0.254389 0.962589 -0.093319
15.38000011 -4.67000008 -0.46000001 23 28 230 97.000000 1.000000 4.000000 1.000000 -60.708740 114.000000 21.000000 -0.477215 0.869368 -0.128315
15.36999989 -4.67999983 -0.49000001 23 28 230 97.000000 1.000000 4.000000 1.000000 -60.708740 114.000000 21.000000 -0.321134 0.831815 -0.452721
15.39999962 -4.69999981 -0.50999999 23 28 230 97.000000 1.000000 4.000000 1.000000 -60.708740 114.000000 21.000000 0.155752 0.973768 -0.165882
15.44999981 -4.67999983 -0.69000000 23 28 230 97.000000 1.000000 4.000000 1.000000 -60.708740 114.000000 21.000000 0.129936 0.990903 -0.035026
15.38000011 -4.61999989 -0.55000001 23 28 230 97.000000 1.000000 4.000000 1.000000 -60.708740 114.000000 21.000000 -0.341079 0.831478 -0.438530
15.38000011 -4.63999987 -0.55000001 23 28 230 97.000000 1.000000 4.000000 1.000000 -60.708740 114.000000 21.000000 -0.303049 0.859920 -0.410731
15.36999989 -4.65000010 -0.56000000 23 28 230 97.000000 1.000000 4.000000 1.000000 -60.708740 114.000000 21.000000 -0.201618 0.957350 -0.206958
15.36999989 -4.65000010 -0.63000000 23 28 230 97.000000 1.000000 4.000000 1.000000 -60.708740 114.000000 21.000000 -0.601111 0.712488 -0.361977
15.39000034 -4.65000010 -0.68000001 23 28 230 97.000000 1.000000 4.000000 1.000000 -60.708740 114.000000 21.000000 -0.559373 0.767736 -0.312544
15.39999962 -4.65000010 -0.69000000 23 28 230 97.000000 1.000000 4.000000 1.000000 -60.708740 114.000000 21.000000 -0.024054 0.986201 0.163794
15.43000031 -4.65999985 -0.54000002 23 28 230 97.000000 1.000000 4.000000 1.000000 -60.708740 114.000000 21.000000 0.281079 0.935531 -0.213955
15.40999985 -4.65999985 -0.52999997 23 28 230 97.000000 1.000000 4.000000 1.000000 -60.708740 114.000000 21.000000 0.269687 0.962817 -0.015864
15.42000008 -4.67999983 -0.60000002 23 28 230 97.000000 1.000000 4.000000 1.000000 -60.708740 114.000000 21.000000 -0.019307 0.928037 -0.371987
15.43999958 -4.71999979 -0.60000002 23 28 230 97.000000 1.000000 4.000000 1.000000 -60.708740 114.000000 21.000000 0.209694 0.977387 0.027248
15.39000034 -4.65999985 -0.58999997 23 28 230 97.000000 1.000000 4.000000 1.000000 -60.708740 114.000000 21.000000 -0.083495 0.981369 0.173040
15.39999962 -4.65999985 -0.57999998 23 28 230 97.000000 1.000000 4.000000 1.000000 -60.708740 114.000000 21.000000 0.063268 0.982448 0.175480
15.39999962 -4.65999985 -0.58999997 23 28 230 97.000000 1.000000 4.000000 1.000000 -60.708740 114.000000 21.000000 0.016562 0.992594 0.120348
15.38000011 -4.71000004 -0.60000002 23 28 230 97.000000 1.000000 4.000000 1.000000 -60.708740 114.000000 21.000000 0.647270 -0.695694 0.311529
15.39000034 -4.69999981 -0.58999997 23 28 230 97.000000 1.000000 4.000000 1.000000 -60.708740 114.000000 21.000000 -0.510462 0.858188 -0.054245
15.43000031 -4.67999983 -0.62000000 23 28 230 97.000000 1.000000 4.000000 1.000000 -60.708740 114.000000 21.000000 -0.300330 0.944087 -0.136024
15.42000008 -4.67999983 -0.61000001 23 28 230 97.000000 1.000000 4.000000 1.000000 -60.708740 114.000000 21.000000 -0.090076 0.928996 -0.358961
15.43999958 -4.67999983 -0.69000000 23 28 230 97.000000 1.000000 4.000000 1.000000 -60.708740 114.000000 21.000000 0.032181 0.993178 -0.112079
15.43999958 -4.67999983 -0.69000000 23 28 230 97.000000 1.000000 4.000000 1.000000 -60.708740 114.000000 21.000000 0.032181 0.993178 -0.112079
15.39999962 -4.67999983 -0.63000000 23 28 230 97.000000 1.000000 4.000000 1.000000 -60.708740 114.000000 21.000000 -0.552890 0.831446 0.054867
15.39000034 -4.73000002 -0.69000000 23 28 230 97.000000 1.000000 4.000000 1.000000 -60.708740 114.000000 21.000000 -0.169687 0.980276 -0.101324
15.39000034 -4.73000002 -0.64999998 23 28 230 97.000000 1.000000 4.000000 1.000000 -60.708740 114.000000 21.000000 -0.412971 0.902937 0.118992
15.56000042 -4.86999989 -0.08000000 23 28 230 97.000000 1.000000 4.000000 1.000000 -60.708740 114.000000 21.000000 0.824607 -0.521690 0.218773
15.60000038 -4.88000011 -0.12000000 23 28 230 97.000000 1.000000 4.000000 1.000000 -60.708740 114.000000 21.000000 0.908887 -0.314671 0.273691
15.59000015 -4.88999987 -0.17000000 23 28 230 97.000000 1.000000 4.000000 1.000000 -60.708740 114.000000 21.000000 0.967967 -0.239174 -0.076386
15.57999992 -4.90000010 -0.15000001 23 28 230 97.000000 1.000000 4.000000 1.000000 -60.708740 114.000000 21.000000 0.795993 -0.603025 -0.052499
15.59000015 -4.88999987 -0.15000001 23 28 230 97.000000 1.000000 4.000000 1.000000 -60.708740 114.000000 21.000000 0.832168 -0.518028 -0.197848
15.53999996 -4.86000013 -0.14000000 23 28 230 97.000000 1.000000 4.000000 1.000000 -60.708740 114.000000 21.000000 0.824909 -0.375247 0.422746
15.57999992 -4.88000011 -0.25999999 23 28 230 97.000000 1.000000 4.000000 1.000000 -60.708740 114.000000 21.000000 -0.694720 0.717545 0.049929
15.60000038 -4.86999989 -0.25000000 23 28 230 97.000000 1.000000 4.000000 1.000000 -60.708740 114.000000 21.000000 0.951264 -0.304353 0.049664
15.57999992 -4.88999987 -0.25000000 23 28 230 97.000000 1.000000 4.000000 1.000000 -60.708740 114.000000 21.000000 0.921803 -0.320565 0.217984
15.56999969 -4.84000015 -0.23000000 23 28 230 97.000000 1.000000 4.000000 1.000000 -60.708740 114.000000 21.000000 0.949363 -0.041940 0.311371
15.52999973 -4.90000010 -0.20999999 23 28 230 97.000000 1.000000 4.000000 1.000000 -60.708740 114.000000 21.000000 -0.539564 0.814696 -0.212463
15.57999992 -4.86000013 -0.31000000 23 28 230 97.000000 1.000000 4.000000 1.000000 -60.708740 114.000000 21.000000 0.796412 -0.513455 0.319519
15.56999969 -4.84999990 -0.28000000 23 28 230 97.000000 1.000000 4.000000 1.000000 -60.708740 114.000000 21.000000 0.923783 -0.226320 0.308877
15.53999996 -4.84000015 -0.28999999 23 28 230 97.000000 1.000000 4.000000 1.000000 -60.708740 114.000000 21.000000 0.835716 -0.548395 0.029008
15.53999996 -4.86000013 -0.34999999 23 28 230 97.000000 1.000000 4.000000 1.000000 -60.708740 114.000000 21.000000 0.952774 -0.272411 -0.134212
15.52999973 -4.84000015 -0.34000000 23 28 230 97.000000 1.000000 4.000000 1.000000 -60.708740 114.000000 21.000000 0.913832 -0.309453 -0.262963
15.56000042 -4.86999989 -0.30000001 23 28 230 97.000000 1.000000 4.000000 1.000000 -60.708740 114.000000 21.000000 0.808814 -0.565720 -0.160562
15.55000019 -4.88000011 -0.31000000 23 28 230 97.000000 1.000000 4.000000 1.000000 -60.708740 114.000000 21.000000 0.911251 -0.343349 -0.227451
15.56000042 -4.88000011 -0.28999999 23 28 230 97.000000 1.000000 4.000000 1.000000 -60.708740 114.000000 21.000000 0.978038 -0.191700 0.081808
15.53999996 -4.88000011 -0.33000001 23 28 230 97.000000 1.000000 4.000000 1.000000 -60.708740 114.000000 21.000000 -0.610968 0.790747 0.037922
15.53999996 -4.88000011 -0.34000000 23 28 230 97.000000 1.000000 4.000000 1.000000 -60.708740 114.000000 21.000000 0.849707 -0.527170 -0.009486
15.56000042 -4.86999989 -0.33000001 23 28 230 97.000000 1.000000 4.000000 1.000000 -60.708740 114.000000 21.000000 0.795688 -0.405107 0.450298
15.57999992 -4.96000004 -0.04000000 23 28 230 97.000000 1.000000 4.000000 1.000000 -60.708740 114.000000 21.000000 0.760008 -0.592522 -0.267030
15.57999992 -4.96000004 -0.04000000 23 28 230 97.000000 1.000000 4.000000 1.000000 -60.708740 114.000000 21.000000 0.760008 -0.592522 -0.267030
15.59000015 -4.96999979 -0.10000000 23 28 230 97.000000 1.000000 4.000000 1.000000 -60.708740 114.000000 21.000000 0.913008 -0.312077 0.262726
15.60000038 -4.96000004 -0.09000000 23 28 230 97.000000 1.000000 4.000000 1.000000 -60.708740 114.000000 21.000000 -0.738833 0.497514 -0.454539
15.56000042 -4.92000008 -0.07000000 23 28 230 97.000000 1.000000 4.000000 1.000000 -60.708740 114.000000 21.000000 0.829908 -0.504694 -0.237774
15.56999969 -4.96999979 -0.07000000 23 28 230 97.000000 1.000000 4.000000 1.000000 -60.708740 114.000000 21.000000 0.896232 -0.319552 0.307662
15.53999996 -4.98000002 -0.08000000 23 28 230 97.000000 1.000000 4.000000 1.000000 -60.708740 114.000000 21.000000 0.832615 -0.552768 0.034635
15.56999969 -4.98000002 -0.08000000 23 28 230 97.000000 1.000000 4.000000 1.000000 -60.708740 114.000000 21.000000 0.852163 -0.458857 0.251533
15.55000019 -4.96000004 -0.07000000 23 28 230 97.000000 1.000000 4.000000 1.000000 -60.708740 114.000000 21.000000 -0.605905 0.795508 -0.006870
15.56999969 -4.94999981 -0.10000000 23 28 230 97.000000 1.000000 4.000000 1.000000 -60.708740 114.000000 21.000000 0.825450 -0.503323 0.255533
15.55000019 -4.96000004 -0.07000000 23 28 230 97.000000 1.000000 4.000000 1.000000 -60.708740 114.000000 21.000000 -0.605905 0.795508 -0.006870
15.53999996 -4.94000006 -0.12000000 23 28 230 97.000000 1.000000 4.000000 1.000000 -60.708740 114.000000 21.000000 0.933256 -0.338254 0.120902
15.52999973 -4.94000006 -0.11000000 23 28 230 97.000000 1.000000 4.000000 1.000000 -60.708740 114.000000 21.000000 -0.583388 0.788570 -0.194463
15.56000042 -4.94000006 -0.17000000 23 28 230 97.000000 1.000000 4.000000 1.000000 -60.708740 114.000000 21.000000 -0.660589 0.704945 0.258216
15.52999973 -4.94999981 -0.13000000 23 28 230 97.000000 1.000000 4.000000 1.000000 -60.708740 114.000000 21.000000 -0.823352 0.546420 0.153355
15.55000019 -4.96999979 -0.16000000 23 28 230 97.000000 1.000000 4.000000 1.000000 -60.708740 114.000000 21.000000 -0.452366 0.877096 -0.161455
15.53999996 -4.94999981 -0.18000001 23 28 230 97.000000 1.000000 4.000000 1.000000 -60.708740 114.000000 21.000000 -0.560782 0.788844 -0.251493
15.55000019 -4.96999979 -0.16000000 23 28 230 97.000000 1.000000 4.000000 1.000000 -60.708740 114.000000 21.000000 -0.452366 0.877096 -0.161455
15.55000019 -4.96999979 -0.17000000 23 28 230 97.000000 1.000000 4.000000 1.000000 -60.708740 114.000000 21.000000 0.788445 -0.613549 -0.043724
15.57999992 -4.98999977 -0.09000000 23 28 230 97.000000 1.000000 4.000000 1.000000 -60.708740 114.000000 21.000000 0.874759 -0.357510 0.327084
15.55000019 -4.98999977 -0.06000000 23 28 230 97.000000 1.000000 4.000000 1.000000 -60.708740 114.000000 21.000000 -0.582682 0.720557 -0.375871
15.55000019 -4.98999977 -0.06000000 23 28 230 97.000000 1.000000 4.000000 1.000000 -60.708740 114.000000 21.000000 -0.582682 0.720557 -0.375871
15.53999996 -5.01000023 -0.05000000 23 28 230 97.000000 1.000000 4.000000 1.000000 -60.708740 114.000000 21.000000 0.821874 -0.561879 -0.093887
15.53999996 -5.01000023 -0.06000000 23 28 230 97.000000 1.000000 4.000000 1.000000 -60.708740 114.000000 21.000000 0.722208 -0.691356 -0.021035
15.56000042 -4.98999977 -0.09000000 23 28 230 97.000000 1.000000 4.000000 1.000000 -60.708740 114.000000 21.000000 -0.662932 0.721653 0.199343
15.57999992 -4.98999977 -0.12000000 23 28 230 97.000000 1.000000 4.000000 1.000000 -60.708740 114.000000 21.000000 0.870041 -0.487391 -0.074016
15.57999992 -4.98999977 -0.11000000 23 28 230 97.000000 1.000000 4.000000 1.000000 -60.708740 114.000000 21.000000 -0.685778 0.646684 -0.333930
15.53999996 -5.00000000 -0.12000000 23 28 230 97.000000 1.000000 4.000000 1.000000 -60.708740 114.000000 21.000000 -0.524360 0.784134 -0.331934
15.56999969 -5.00000000 -0.12000000 23 28 230 97.000000 1.000000 4.000000 1.000000 -60.708740 114.000000 21.000000 -0.358066 0.927161 -0.110279
15.56999969 -5.00000000 -0.12000000 23 28 230 97.000000 1.000000 4.000000 1.000000 -60.708740 114.000000 21.000000 -0.358066 0.927161 -0.110279
15.53999996 -5.01000023 -0.16000000 23 28 230 97.000000 1.000000 4.000000 1.000000 -60.708740 114.000000 21.000000 -0.344660 0.929620 0.130449
15.57999992 -4.92000008 -0.22000000 23 28 230 97.000000 1.000000 4.000000 1.000000 -60.708740 114.000000 21.000000 -0.551989 0.750640 -0.363108
15.59000015 -4.92999983 -0.23000000 23 28 230 97.000000 1.000000 4.000000 1.000000 -60.708740 114.000000 21.000000 0.648518 -0.687527 0.326697
15.56999969 -4.92000008 -0.23999999 23 28 230 97.000000 1.000000 4.000000 1.000000 -60.708740 114.000000 21.000000 0.978991 -0.168707 0.114523
15.55000019 -4.94000006 -0.23000000 23 28 230 97.000000 1.000000 4.000000 1.000000 -60.708740 114.000000 21.000000 0.759481 -0.649575 -0.035226
15.56999969 -4.92999983 -0.27000001 23 28 230 97.000000 1.000000 4.000000 1.000000 -60.708740 114.000000 21.000000 -0.472734 0.868376 -0.149820
15.56000042 -4.92999983 -0.25999999 23 28 230 97.000000 1.000000 4.000000 1.000000 -60.708740 114.000000 21.000000 0.822539 -0.565760 0.057846
15.56000042 -4.94999981 -0.20999999 23 28 230 97.000000 1.000000 4.000000 1.000000 -60.708740 114.000000 21.000000 0.770366 -0.577379 -0.270498
15.56999969 -4.94999981 -0.25000000 23 28 230 97.000000 1.000000 4.000000 1.000000 -60.708740 114.000000 21.000000 -0.505480 0.862450 0.025887
15.56000042 -4.96000004 -0.25999999 23 28 230 97.000000 1.000000 4.000000 1.000000 -60.708740 114.000000 21.000000 0.799272 -0.563019 -0.210173
15.56999969 -4.94999981 -0.25000000 23 28 230 97.000000 1.000000 4.000000 1.000000 -60.708740 114.000000 21.000000 -0.505480 0.862450 0.025887
15.56000042 -4.96000004 -0.25000000 23 28 230 97.000000 1.000000 4.000000 1.000000 -60.708740 114.000000 21.000000 0.769784 -0.635036 0.064507
15.56000042 -4.92999983 -0.30000001 23 28 230 97.000000 1.000000 4.000000 1.000000 -60.708740 114.000000 21.000000 0.728948 -0.672069 0.130223
15.56000042 -4.92999983 -0.31000000 23 28 230 97.000000 1.000000 4.000000 1.000000 -60.708740 114.000000 21.000000 -0.589469 0.793458 0.151492
15.56999969 -4.92999983 -0.30000001 23 28 230 97.000000 1.000000 4.000000 1.000000 -60.708740 114.000000 21.000000 -0.640554 0.766097 -0.052785
15.56000042 -4.92999983 -0.31000000 23 28 230 97.000000 1.000000 4.000000 1.000000 -60.708740 114.000000 21.000000 -0.589469 0.793458 0.151492
15.56000042 -4.92999983 -0.30000001 23 28 230 97.000000 1.000000 4.000000 1.000000 -60.708740 114.000000 21.000000 0.728948 -0.672069 0.130223
15.56000042 -4.92999983 -0.33000001 23 28 230 97.000000 1.000000 4.000000 1.000000 -60.708740 114.000000 21.000000 0.834733 -0.549567 -0.034607
15.56000042 -4.92000008 -0.33000001 23 28 230 97.000000 1.000000 4.000000 1.000000 -60.708740 114.000000 21.000000 0.810954 -0.583269 -0.046380
15.56999969 -4.92000008 -0.34000000 23 28 230 97.000000 1.000000 4.000000 1.000000 -60.708740 114.000000 21.000000 0.890150 -0.410726 -0.197324
15.56000042 -4.94999981 -0.28000000 23 28 230 97.000000 1.000000 4.000000 1.000000 -60.708740 114.000000 21.000000 0.943547 -0.331179 -0.006249
15.56000042 -4.96000004 -0.28000000 23 28 230 97.000000 1.000000 4.000000 1.000000 -60.708740 114.000000 21.000000 0.801942 -0.591738 -0.082066
15.56000042 -4.94999981 -0.28000000 23 28 230 97.000000 1.000000 4.000000 1.000000 -60.708740 114.000000 21.000000 0.943547 -0.331179 -0.006249
15.56000042 -4.94999981 -0.33000001 23 28 230 97.000000 1.000000 4.000000 1.000000 -60.708740 114.000000 21.000000 0.720097 -0.497250 0.483945
15.50000000 -4.86999989 -0.18000001 23 28 230 97.000000 1.000000 4.000000 1.000000 -60.708740 114.000000 21.000000 0.875688 -0.371826 0.308084
15.48999977 -4.86999989 -0.16000000 23 28 230 97.000000 1.000000 4.000000 1.000000 -60.708740 114.000000 21.000000 0.832735 -0.533956 0.146431
15.43999958 -4.73999977 -0.09000000 23 28 230 97.000000 1.000000 4.000000 1.000000 -60.708740 114.000000 21.000000 0.795897 0.568936 0.207025
15.42000008 -4.76000023 -0.06000000 23 28 230 97.000000 1.000000 4.000000 1.000000 -60.708740 114.000000 21.000000 0.855002 0.515782 -0.054220
15.43000031 -4.76000023 -0.04000000 23 28 230 97.000000 1.000000 4.000000 1.000000 -60.708740 114.000000 21.000000 0.883332 0.466846 -0.042193
15.42000008 -4.73999977 -0.13000000 23 28 230 97.000000 1.000000 4.000000 1.000000 -60.708740 114.000000 21.000000 0.691648 0.720288 -0.052983
15.43999958 -4.75000000 -0.11000000 23 28 230 97.000000 1.000000 4.000000 1.000000 -60.708740 114.000000 21.000000 0.709201 0.675060 0.203294
15.44999981 -4.73999977 -0.25999999 23 28 230 97.000000 1.000000 4.000000 1.000000 -60.708740 114.000000 21.000000 0.552372 0.830689 -0.069579
15.50000000 -4.86000013 -0.23999999 23 28 230 97.000000 1.000000 4.000000 1.000000 -60.708740 114.000000 21.000000 0.863088 -0.295872 0.409315
15.51000023 -4.90000010 -0.20999999 23 28 230 97.000000 1.000000 4.000000 1.000000 -60.708740 114.000000 21.000000 -0.597043 0.784469 -0.167777
15.48999977 -4.88000011 -0.23999999 23 28 230 97.000000 1.000000 4.000000 1.000000 -60.708740 114.000000 21.000000 0.925314 -0.275170 0.260913
15.52000046 -4.88000011 -0.27000001 23 28 230 97.000000 1.000000 4.000000 1.000000 -60.708740 114.000000 21.000000 -0.678901 0.675691 -0.287289
15.50000000 -4.88000011 -0.27000001 23 28 230 97.000000 1.000000 4.000000 1.000000 -60.708740 114.000000 21.000000 -0.573173 0.819406 0.006840
15.52000046 -4.88999987 -0.28999999 23 28 230 97.000000 1.000000 4.000000 1.000000 -60.708740 114.000000 21.000000 0.757157 -0.632735 -0.162356
15.52000046 -4.88999987 -0.28000000 23 28 230 97.000000 1.000000 4.000000 1.000000 -60.708740 114.000000 21.000000 0.664267 -0.674011 0.323201
15.38000011 -4.76000023 -0.34000000 23 28 230 97.000000 1.000000 4.000000 1.000000 -60.708740 114.000000 21.000000 -0.169041 0.972302 -0.161415
15.52000046 -4.92999983 -0.06000000 23 28 230 97.000000 1.000000 4.000000 1.000000 -60.708740 114.000000 21.000000 0.891688 -0.433756 -0.129416
15.52000046 -4.94000006 -0.07000000 23 28 230 97.000000 1.000000 4.000000 1.000000 -60.708740 114.000000 21.000000 0.809053 -0.582000 0.081911
15.52000046 -4.94999981 -0.05000000 23 28 230 97.000000 1.000000 4.000000 1.000000 -60.708740 114.000000 21.000000 0.758457 -0.604567 -0.243397
15.52000046 -4.94999981 -0.05000000 23 28 230 97.000000 1.000000 4.000000 1.000000 -60.708740 114.000000 21.000000 0.758457 -0.604567 -0.243397
15.52000046 -4.94999981 -0.05000000 23 28 230 97.000000 1.000000 4.000000 1.000000 -60.708740 114.000000 21.000000 0.758457 -0.604567 -0.243397
15.52000046 -4.94999981 -0.10000000 23 28 230 97.000000 1.000000 4.000000 1.000000 -60.708740 114.000000 21.000000 -0.324862 0.936526 -0.131848
15.52000046 -4.96000004 -0.07000000 23 28 230 97.000000 1.000000 4.000000 1.000000 -60.708740 114.000000 21.000000 -0.508448 0.832144 -0.221396
15.51000023 -4.94999981 -0.08000000 23 28 230 97.000000 1.000000 4.000000 1.000000 -60.708740 114.000000 21.000000 0.815496 -0.432484 0.384608
15.47999954 -4.96999979 -0.06000000 23 28 230 97.000000 1.000000 4.000000 1.000000 -60.708740 114.000000 21.000000 0.814845 -0.523053 0.249886
15.52000046 -4.92999983 -0.15000001 23 28 230 97.000000 1.000000 4.000000 1.000000 -60.708740 114.000000 21.000000 0.910618 -0.408766 -0.060708
15.52000046 -4.92000008 -0.18000001 23 28 230 97.000000 1.000000 4.000000 1.000000 -60.708740 114.000000 21.000000 -0.741944 0.658345 0.126892
15.51000023 -5.03999996 -0.09000000 23 28 230 97.000000 1.000000 4.000000 1.000000 -60.708740 114.000000 21.000000 -0.701868 0.663844 -0.258249
15.47999954 -4.98999977 -0.08000000 23 28 230 97.000000 1.000000 4.000000 1.000000 -60.708740 114.000000 21.000000 -0.423081 0.893490 0.150588
15.52000046 -5.01000023 -0.14000000 23 28 230 97.000000 1.000000 4.000000 1.000000 -60.708740 114.000000 21.000000 -0.726430 0.682931 0.076848
15.36999989 -4.94000006 -0.04000000 23 28 230 97.000000 1.000000 4.000000 1.000000 -60.708740 114.000000 21.000000 0.130315 0.956961 0.259314
15.52000046 -4.92000008 -0.19000000 23 28 230 97.000000 1.000000 4.000000 1.000000 -60.708740 114.000000 21.000000 -0.534932 0.682499 -0.498040
15.52000046 -4.92000008 -0.19000000 23 28 230 97.000000 1.000000 4.000000 1.000000 -60.708740 114.000000 21.000000 -0.534932 0.682499 -0.498040
15.52000046 -4.92000008 -0.19000000 23 28 230 97.000000 1.000000 4.000000 1.000000 -60.708740 114.000000 21.000000 -0.534932 0.682499 -0.498040
15.52000046 -4.92000008 -0.25999999 23 28 230 97.000000 1.000000 4.000000 1.000000 -60.708740 114.000000 21.000000 0.878976 -0.472017 -0.067827
15.51000023 -4.96999979 -0.22000000 23 28 230 97.000000 1.000000 4.000000 1.000000 -60.708740 114.000000 21.000000 -0.618641 0.785466 -0.018073
15.50000000 -4.96999979 -0.22000000 23 28 230 97.000000 1.000000 4.000000 1.000000 -60.708740 114.000000 21.000000 -0.435048 0.777220 -0.454601
15.51000023 -4.96999979 -0.22000000 23 28 230 97.000000 1.000000 4.000000 1.000000 -60.708740 114.000000 21.000000 -0.618641 0.785466 -0.018073
15.47999954 -4.94000006 -0.27000001 23 28 230 97.000000 1.000000 4.000000 1.000000 -60.708740 114.000000 21.000000 -0.708615 0.687372 -0.159325
15.50000000 -4.92999983 -0.28999999 23 28 230 97.000000 1.000000 4.000000 1.000000 -60.708740 114.000000 21.000000 0.704460 -0.585675 0.400899
15.50000000 -4.92999983 -0.28999999 23 28 230 97.000000 1.000000 4.000000 1.000000 -60.708740 114.000000 21.000000 0.704460 -0.585675 0.400899
15.52000046 -4.90999985 -0.30000001 23 28 230 97.000000 1.000000 4.000000 1.000000 -60.708740 114.000000 21.000000 -0.447273 0.856383 -0.257983
15.52000046 -4.94000006 -0.30000001 23 28 230 97.000000 1.000000 4.000000 1.000000 -60.708740 114.000000 21.000000 -0.314918 0.944754 -0.090918
15.52000046 -4.94000006 -0.31000000 23 28 230 97.000000 1.000000 4.000000 1.000000 -60.708740 114.000000 21.000000 -0.587850 0.777079 -0.224903
15.48999977 -4.94000006 -0.30000001 23 28 230 97.000000 1.000000 4.000000 1.000000 -60.708740 114.000000 21.000000 0.629029 -0.615610 0.474707
15.50000000 -4.92999983 -0.34999999 23 28 230 97.000000 1.000000 4.000000 1.000000 -60.708740 114.000000 21.000000 0.822526 -0.557571 0.112096
15.51000023 -4.92999983 -0.34000000 23 28 230 97.000000 1.000000 4.000000 1.000000 -60.708740 114.000000 21.000000 -0.448533 0.893026 0.036368
15.47000027 -4.96000004 -0.30000001 23 28 230 97.000000 1.000000 4.000000 1.000000 -60.708740 114.000000 21.000000 0.759287 -0.624846 0.181801
15.40999985 -5.03999996 -0.31999999 23 28 230 97.000000 1.000000 4.000000 1.000000 -60.708740 114.000000 21.000000 -0.360822 0.867509 -0.342397
15.56000042 -4.86000013 -0.38000000 23 28 230 97.000000 1.000000 4.000000 1.000000 -60.708740 114.000000 21.000000 0.816828 -0.575013 0.046395
15.53999996 -4.88999987 -0.37000000 23 28 230 97.000000 1.000000 4.000000 1.000000 -60.708740 114.000000 21.000000 0.920444 -0.337164 -0.197746
15.52999973 -4.90000010 -0.36000001 23 28 230 97.000000 1.000000 4.000000 1.000000 -60.708740 114.000000 21.000000 0.871288 -0.490353 -0.020263
15.55000019 -4.88000011 -0.40000001 23 28 230 97.000000 1.000000 4.000000 1.000000 -60.708740 114.000000 21.000000 -0.665379 0.746285 0.018134
15.55000019 -4.90000010 -0.41000000 23 28 230 97.000000 1.000000 4.000000 1.000000 -60.708740 114.000000 21.000000 0.888646 -0.343170 0.304208
15.56000042 -4.82999992 -0.46000001 23 28 230 97.000000 1.000000 4.000000 1.000000 -60.708740 114.000000 21.000000 0.876011 -0.475148 0.082695
15.55000019 -4.84000015 -0.44000000 23 28 230 97.000000 1.000000 4.000000 1.000000 -60.708740 114.000000 21.000000 0.965294 -0.230691 0.122434
15.56000042 -4.82999992 -0.47000000 23 28 230 97.000000 1.000000 4.000000 1.000000 -60.708740 114.000000 21.000000 0.922994 -0.375935 -0.082194
15.55000019 -4.84999990 -0.44999999 23 28 230 97.000000 1.000000 4.000000 1.000000 -60.708740 114.000000 21.000000 0.912233 -0.357710 -0.199686
15.55000019 -4.84999990 -0.44000000 23 28 230 97.000000 1.000000 4.000000 1.000000 -60.708740 114.000000 21.000000 0.815326 -0.577581 -0.040557
15.56000042 -4.84999990 -0.44000000 23 28 230 97.000000 1.000000 4.000000 1.000000 -60.708740 114.000000 21.000000 0.973683 -0.072810 0.215963
15.55000019 -4.84999990 -0.50000000 23 28 230 97.000000 1.000000 4.000000 1.000000 -60.708740 114.000000 21.000000 0.765443 -0.556832 0.322545
15.56999969 -4.82999992 -0.51999998 23 28 230 97.000000 1.000000 4.000000 1.000000 -60.708740 114.000000 21.000000 0.931475 0.118304 0.344034
15.56999969 -4.84000015 -0.51999998 23 28 230 97.000000 1.000000 4.000000 1.000000 -60.708740 114.000000 21.000000 0.932567 -0.308068 0.188186
15.56999969 -4.86999989 -0.46000001 23 28 230 97.000000 1.000000 4.000000 1.000000 -60.708740 114.000000 21.000000 0.772675 -0.620820 -0.132501
15.56000042 -4.90000010 -0.44000000 23 28 230 97.000000 1.000000 4.000000 1.000000 -60.708740 114.000000 21.000000 0.866553 -0.498097 -0.031387
15.55000019 -4.88000011 -0.47000000 23 28 230 97.000000 1.000000 4.000000 1.000000 -60.708740 114.000000 21.000000 0.783734 -0.595029 -0.178052
15.56000042 -4.88000011 -0.44000000 23 28 230 97.000000 1.000000 4.000000 1.000000 -60.708740 114.000000 21.000000 0.798639 -0.579051 -0.163939
15.56999969 -4.88000011 -0.47000000 23 28 230 97.000000 1.000000 4.000000 1.000000 -60.708740 114.000000 21.000000 -0.697176 0.716736 0.015369
15.55000019 -4.88000011 -0.47000000 23 28 230 97.000000 1.000000 4.000000 1.000000 -60.708740 114.000000 21.000000 0.783734 -0.595029 -0.178052
15.56999969 -4.88000011 -0.44000000 23 28 230 97.000000 1.000000 4.000000 1.000000 -60.708740 114.000000 21.000000 0.868857 -0.475631 -0.137340
15.52999973 -4.88999987 -0.49000001 23 28 230 97.000000 1.000000 4.000000 1.000000 -60.708740 114.000000 21.000000 -0.672241 0.544834 -0.501247
15.53999996 -4.88999987 -0.49000001 23 28 230 97.000000 1.000000 4.000000 1.000000 -60.708740 114.000000 21.000000 0.783180 -0.397265 0.478340
15.55000019 -4.88000011 -0.50000000 23 28 230 97.000000 1.000000 4.000000 1.000000 -60.708740 114.000000 21.000000 0.830587 -0.517788 0.204989
15.55000019 -4.88999987 -0.50000000 23 28 230 97.000000 1.000000 4.000000 1.000000 -60.708740 114.000000 21.000000 -0.668505 0.709210 -0.223879
15.53999996 -4.88000011 -0.51999998 23 28 230 97.000000 1.000000 4.000000 1.000000 -60.708740 114.000000 21.000000 0.853585 -0.442883 -0.274312
15.53999996 -4.90000010 -0.50000000 23 28 230 97.000000 1.000000 4.000000 1.000000 -60.708740 114.000000 21.000000 0.757143 -0.636723 -0.146010
15.60000038 -4.82000017 -0.56999999 23 28 230 97.000000 1.000000 4.000000 1.000000 -60.708740 114.000000 21.000000 0.935624 0.016548 0.352609
15.56000042 -4.78000021 -0.52999997 23 28 230 97.000000 1.000000 4.000000 1.000000 -60.708740 114.000000 21.000000 0.908830 0.203083 0.364396
15.52999973 -4.82000017 -0.67000002 23 28 230 97.000000 1.000000 4.000000 1.000000 -60.708740 114.000000 21.000000 0.873229 -0.355083 0.333747
15.52999973 -4.82000017 -0.67000002 23 28 230 97.000000 1.000000 4.000000 1.000000 -60.708740 114.000000 21.000000 0.873229 -0.355083 0.333747
