//X Y Z R G B PointSourceId ScanDirectionFlag NumberOfReturns ReturnNumber GpsTime Intensity Classification Nx Ny Nz
20.03000069 -4.21999979 -0.28999999 38 9 232 97.000000 1.000000 4.000000 1.000000 -60.708740 114.000000 90.000000 0.926753 0.332285 0.175256
20.03000069 -4.21999979 -0.28000000 38 9 232 97.000000 1.000000 4.000000 1.000000 -60.708740 114.000000 90.000000 0.934355 0.155497 0.320626
20.03000069 -4.19999981 -0.31999999 38 9 232 97.000000 1.000000 4.000000 1.000000 -60.708740 114.000000 90.000000 0.962084 -0.244729 -0.120422
19.98999977 -4.19000006 -0.28999999 38 9 232 97.000000 1.000000 4.000000 1.000000 -60.708740 114.000000 90.000000 0.975866 0.201095 0.085126
19.98999977 -4.19000006 -0.31000000 38 9 232 97.000000 1.000000 4.000000 1.000000 -60.708740 114.000000 90.000000 0.925999 0.275374 -0.258253
20.01000023 -4.19000006 -0.28999999 38 9 232 97.000000 1.000000 4.000000 1.000000 -60.708740 114.000000 90.000000 0.978191 -0.206494 0.022419
19.97999954 -4.15999985 -0.28999999 38 9 232 97.000000 1.000000 4.000000 1.000000 -60.708740 114.000000 90.000000 0.966972 -0.190288 -0.169576
20.01000023 -4.17999983 -0.28000000 38 9 232 97.000000 1.000000 4.000000 1.000000 -60.708740 114.000000 90.000000 0.959294 -0.228907 0.165396
19.97999954 -4.15999985 -0.28000000 38 9 232 97.000000 1.000000 4.000000 1.000000 -60.708740 114.000000 90.000000 0.862132 0.321186 0.391878
20.00000000 -4.21999979 -0.28999999 38 9 232 97.000000 1.000000 4.000000 1.000000 -60.708740 114.000000 90.000000 0.961665 0.161371 -0.221721
19.98999977 -4.19999981 -0.31000000 38 9 232 97.000000 1.000000 4.000000 1.000000 -60.708740 114.000000 90.000000 0.983781 0.048190 0.172779
19.98999977 -4.19999981 -0.30000001 38 9 232 97.000000 1.000000 4.000000 1.000000 -60.708740 114.000000 90.000000 0.921912 -0.068240 -0.381342
19.93000031 -4.13000011 -0.20999999 38 9 232 97.000000 1.000000 4.000000 1.000000 -60.708740 114.000000 90.000000 0.916969 0.313358 0.246932
19.92000008 -4.13000011 -0.19000000 38 9 232 97.000000 1.000000 4.000000 1.000000 -60.708740 114.000000 90.000000 0.822312 0.366000 0.435714
19.93000031 -4.13999987 -0.19000000 38 9 232 97.000000 1.000000 4.000000 1.000000 -60.708740 114.000000 90.000000 0.850932 0.480437 0.212356
19.92000008 -4.11999989 -0.19000000 38 9 232 97.000000 1.000000 4.000000 1.000000 -60.708740 114.000000 90.000000 0.824777 0.425845 0.372020
19.92000008 -4.11999989 -0.20000000 38 9 232 97.000000 1.000000 4.000000 1.000000 -60.708740 114.000000 90.000000 0.812195 0.547051 0.202668
19.92000008 -4.11999989 -0.22000000 38 9 232 97.000000 1.000000 4.000000 1.000000 -60.708740 114.000000 90.000000 0.959889 0.265993 -0.088664
19.92000008 -4.11000013 -0.20999999 38 9 232 97.000000 1.000000 4.000000 1.000000 -60.708740 114.000000 90.000000 0.803149 0.542164 0.247003
19.93000031 -4.13000011 -0.20999999 38 9 232 97.000000 1.000000 4.000000 1.000000 -60.708740 114.000000 90.000000 0.916969 0.313358 0.246932
19.92000008 -4.13999987 -0.25999999 38 9 232 97.000000 1.000000 4.000000 1.000000 -60.708740 114.000000 90.000000 0.867797 0.485909 0.104022
19.92000008 -4.13999987 -0.25999999 38 9 232 97.000000 1.000000 4.000000 1.000000 -60.708740 114.000000 90.000000 0.867797 0.485909 0.104022
19.95000076 -4.15000010 -0.31000000 38 9 232 97.000000 1.000000 4.000000 1.000000 -60.708740 114.000000 90.000000 0.873015 0.485314 -0.048119
19.93000031 -4.15000010 -0.33000001 38 9 232 97.000000 1.000000 4.000000 1.000000 -60.708740 114.000000 90.000000 0.998824 0.046577 0.013456
19.92000008 -4.11999989 -0.34999999 38 9 232 97.000000 1.000000 4.000000 1.000000 -60.708740 114.000000 90.000000 0.986640 0.045216 -0.156517
19.93000031 -4.13999987 -0.34999999 38 9 232 97.000000 1.000000 4.000000 1.000000 -60.708740 114.000000 90.000000 0.985617 -0.033587 -0.165621
19.93000031 -4.13000011 -0.33000001 38 9 232 97.000000 1.000000 4.000000 1.000000 -60.708740 114.000000 90.000000 0.953403 0.016117 0.301270
19.93000031 -4.15000010 -0.33000001 38 9 232 97.000000 1.000000 4.000000 1.000000 -60.708740 114.000000 90.000000 0.998824 0.046577 0.013456
19.95999908 -4.17999983 -0.20000000 38 9 232 97.000000 1.000000 4.000000 1.000000 -60.708740 114.000000 90.000000 0.985853 0.125472 0.111133
19.95000076 -4.19000006 -0.19000000 38 9 232 97.000000 1.000000 4.000000 1.000000 -60.708740 114.000000 90.000000 0.959450 0.056735 0.276110
19.95999908 -4.17999983 -0.25000000 38 9 232 97.000000 1.000000 4.000000 1.000000 -60.708740 114.000000 90.000000 0.999916 -0.006965 -0.010944
19.94000053 -4.19000006 -0.27000001 38 9 232 97.000000 1.000000 4.000000 1.000000 -60.708740 114.000000 90.000000 0.946315 0.074400 0.314568
19.94000053 -4.19000006 -0.27000001 38 9 232 97.000000 1.000000 4.000000 1.000000 -60.708740 114.000000 90.000000 0.946315 0.074400 0.314568
19.95000076 -4.21000004 -0.19000000 38 9 232 97.000000 1.000000 4.000000 1.000000 -60.708740 114.000000 90.000000 0.988400 0.125455 0.085591
19.95000076 -4.21000004 -0.22000000 38 9 232 97.000000 1.000000 4.000000 1.000000 -60.708740 114.000000 90.000000 0.972717 -0.166570 0.161484
19.95999908 -4.21999979 -0.27000001 38 9 232 97.000000 1.000000 4.000000 1.000000 -60.708740 114.000000 90.000000 0.920295 -0.082435 -0.382443
19.95999908 -4.19999981 -0.27000001 38 9 232 97.000000 1.000000 4.000000 1.000000 -60.708740 114.000000 90.000000 0.982486 -0.140007 -0.122963
19.95999908 -4.19999981 -0.27000001 38 9 232 97.000000 1.000000 4.000000 1.000000 -60.708740 114.000000 90.000000 0.982486 -0.140007 -0.122963
19.96999931 -4.23000002 -0.23999999 38 9 232 97.000000 1.000000 4.000000 1.000000 -60.708740 114.000000 90.000000 0.911321 0.038469 0.409895
19.93000031 -4.17000008 -0.25999999 38 9 232 97.000000 1.000000 4.000000 1.000000 -60.708740 114.000000 90.000000 0.915463 0.274204 -0.294515
19.93000031 -4.19999981 -0.19000000 38 9 232 97.000000 1.000000 4.000000 1.000000 -60.708740 114.000000 90.000000 0.985068 -0.106526 -0.135252
19.93000031 -4.19999981 -0.25999999 38 9 232 97.000000 1.000000 4.000000 1.000000 -60.708740 114.000000 90.000000 0.963679 -0.192736 -0.184869
19.94000053 -4.19000006 -0.28999999 38 9 232 97.000000 1.000000 4.000000 1.000000 -60.708740 114.000000 90.000000 0.894358 0.430931 0.120095
19.94000053 -4.17999983 -0.33000001 38 9 232 97.000000 1.000000 4.000000 1.000000 -60.708740 114.000000 90.000000 0.964280 0.212690 0.157886
19.95000076 -4.17999983 -0.31999999 38 9 232 97.000000 1.000000 4.000000 1.000000 -60.708740 114.000000 90.000000 0.925064 0.014153 0.379547
19.95000076 -4.17999983 -0.33000001 38 9 232 97.000000 1.000000 4.000000 1.000000 -60.708740 114.000000 90.000000 0.975587 0.092736 -0.199074
19.89999962 -4.17000008 -0.31000000 38 9 232 97.000000 1.000000 4.000000 1.000000 -60.708740 114.000000 90.000000 0.969425 -0.237081 0.063304
19.92000008 -4.15999985 -0.28000000 38 9 232 97.000000 1.000000 4.000000 1.000000 -60.708740 114.000000 90.000000 0.996126 -0.038020 -0.079299
19.93000031 -4.17000008 -0.28999999 38 9 232 97.000000 1.000000 4.000000 1.000000 -60.708740 114.000000 90.000000 0.937202 0.346778 0.037385
19.89999962 -4.17000008 -0.31000000 38 9 232 97.000000 1.000000 4.000000 1.000000 -60.708740 114.000000 90.000000 0.969425 -0.237081 0.063304
19.93000031 -4.17000008 -0.31000000 38 9 232 97.000000 1.000000 4.000000 1.000000 -60.708740 114.000000 90.000000 0.979621 0.161422 -0.119526
19.90999985 -4.17000008 -0.33000001 38 9 232 97.000000 1.000000 4.000000 1.000000 -60.708740 114.000000 90.000000 0.989365 -0.106295 0.099287
19.92000008 -4.21000004 -0.33000001 38 9 232 97.000000 1.000000 4.000000 1.000000 -60.708740 114.000000 90.000000 0.927194 -0.311887 0.207454
19.94000053 -4.23999977 -0.03000000 38 9 232 97.000000 1.000000 4.000000 1.000000 -60.708740 114.000000 90.000000 0.898271 0.414258 0.146627
19.94000053 -4.25000000 -0.10000000 38 9 232 97.000000 1.000000 4.000000 1.000000 -60.708740 114.000000 90.000000 0.989922 0.107928 0.091681
19.92000008 -4.23999977 -0.06000000 38 9 232 97.000000 1.000000 4.000000 1.000000 -60.708740 114.000000 90.000000 0.922677 0.250339 0.293254
19.92000008 -4.26000023 -0.06000000 38 9 232 97.000000 1.000000 4.000000 1.000000 -60.708740 114.000000 90.000000 0.895635 0.402092 0.190159
19.93000031 -4.28000021 -0.04000000 38 9 232 97.000000 1.000000 4.000000 1.000000 -60.708740 114.000000 90.000000 0.983477 0.180592 -0.012653
19.93000031 -4.28000021 -0.03000000 38 9 232 97.000000 1.000000 4.000000 1.000000 -60.708740 114.000000 90.000000 0.903857 -0.427589 0.014472
19.93000031 -4.28000021 -0.03000000 38 9 232 97.000000 1.000000 4.000000 1.000000 -60.708740 114.000000 90.000000 0.903857 -0.427589 0.014472
20.05999947 -4.26000023 -0.23999999 38 9 232 97.000000 1.000000 4.000000 1.000000 -60.708740 114.000000 90.000000 0.875261 -0.455835 0.161654
20.05999947 -4.26000023 -0.23999999 38 9 232 97.000000 1.000000 4.000000 1.000000 -60.708740 114.000000 90.000000 0.875261 -0.455835 0.161654
20.05999947 -4.26999998 -0.23000000 38 9 232 97.000000 1.000000 4.000000 1.000000 -60.708740 114.000000 90.000000 0.989921 -0.116938 -0.079888
20.05999947 -4.26999998 -0.23000000 38 9 232 97.000000 1.000000 4.000000 1.000000 -60.708740 114.000000 90.000000 0.989921 -0.116938 -0.079888
20.05999947 -4.28000021 -0.20000000 38 9 232 97.000000 1.000000 4.000000 1.000000 -60.708740 114.000000 90.000000 0.925595 -0.223223 0.305688
20.03000069 -4.30000019 -0.20999999 38 9 232 97.000000 1.000000 4.000000 1.000000 -60.708740 114.000000 90.000000 0.983108 0.050749 -0.175850
20.03000069 -4.30999994 -0.20000000 38 9 232 97.000000 1.000000 4.000000 1.000000 -60.708740 114.000000 90.000000 0.901102 -0.238829 -0.361906
19.98999977 -4.26999998 -0.25999999 38 9 232 97.000000 1.000000 4.000000 1.000000 -60.708740 114.000000 90.000000 0.901451 -0.419377 -0.107282
19.98999977 -4.30999994 -0.20000000 38 9 232 97.000000 1.000000 4.000000 1.000000 -60.708740 114.000000 90.000000 0.807233 -0.572347 -0.144202
19.98999977 -4.28000021 -0.25000000 38 9 232 97.000000 1.000000 4.000000 1.000000 -60.708740 114.000000 90.000000 0.960736 -0.227370 -0.159027
20.01000023 -4.28999996 -0.25000000 38 9 232 97.000000 1.000000 4.000000 1.000000 -60.708740 114.000000 90.000000 0.997049 -0.059412 -0.048610
20.01000023 -4.30000019 -0.23999999 38 9 232 97.000000 1.000000 4.000000 1.000000 -60.708740 114.000000 90.000000 0.937190 -0.330376 0.111923
19.97999954 -4.28999996 -0.25000000 38 9 232 97.000000 1.000000 4.000000 1.000000 -60.708740 114.000000 90.000000 0.945682 -0.253186 -0.203917
20.01000023 -4.30000019 -0.25999999 38 9 232 97.000000 1.000000 4.000000 1.000000 -60.708740 114.000000 90.000000 0.994099 0.065975 0.086103
20.01000023 -4.30000019 -0.23999999 38 9 232 97.000000 1.000000 4.000000 1.000000 -60.708740 114.000000 90.000000 0.937190 -0.330376 0.111923
20.01000023 -4.30000019 -0.25999999 38 9 232 97.000000 1.000000 4.000000 1.000000 -60.708740 114.000000 90.000000 0.994099 0.065975 0.086103
19.98999977 -4.28999996 -0.27000001 38 9 232 97.000000 1.000000 4.000000 1.000000 -60.708740 114.000000 90.000000 0.988632 0.044781 0.143530
19.98999977 -4.30999994 -0.25999999 38 9 232 97.000000 1.000000 4.000000 1.000000 -60.708740 114.000000 90.000000 0.999756 -0.011075 -0.019129
20.03000069 -4.26000023 -0.28999999 38 9 232 97.000000 1.000000 4.000000 1.000000 -60.708740 114.000000 90.000000 0.910165 -0.136034 -0.391273
20.03000069 -4.25000000 -0.31000000 38 9 232 97.000000 1.000000 4.000000 1.000000 -60.708740 114.000000 90.000000 0.995026 -0.001071 -0.099610
20.03000069 -4.23999977 -0.30000001 38 9 232 97.000000 1.000000 4.000000 1.000000 -60.708740 114.000000 90.000000 0.989358 -0.003331 -0.145461
20.00000000 -4.23999977 -0.30000001 38 9 232 97.000000 1.000000 4.000000 1.000000 -60.708740 114.000000 90.000000 0.960092 -0.263479 -0.093824
20.00000000 -4.23999977 -0.33000001 38 9 232 97.000000 1.000000 4.000000 1.000000 -60.708740 114.000000 90.000000 0.916136 -0.246708 0.315959
20.04999924 -4.32999992 -0.19000000 38 9 232 97.000000 1.000000 4.000000 1.000000 -60.708740 114.000000 90.000000 0.927439 -0.101842 -0.359841
20.02000046 -4.32000017 -0.20999999 38 9 232 97.000000 1.000000 4.000000 1.000000 -60.708740 114.000000 90.000000 0.946987 -0.239138 0.214541
20.04000092 -4.32000017 -0.22000000 38 9 232 97.000000 1.000000 4.000000 1.000000 -60.708740 114.000000 90.000000 0.832753 -0.474747 0.284848
20.03000069 -4.32999992 -0.20999999 38 9 232 97.000000 1.000000 4.000000 1.000000 -60.708740 114.000000 90.000000 0.978282 -0.206877 -0.012857
20.02000046 -4.36000013 -0.25999999 38 9 232 97.000000 1.000000 4.000000 1.000000 -60.708740 114.000000 90.000000 0.872941 -0.437217 -0.216370
20.03000069 -4.32999992 -0.23000000 38 9 232 97.000000 1.000000 4.000000 1.000000 -60.708740 114.000000 90.000000 0.996272 -0.049104 -0.070928
20.03000069 -4.34999990 -0.25000000 38 9 232 97.000000 1.000000 4.000000 1.000000 -60.708740 114.000000 90.000000 0.851617 -0.461610 -0.248325
20.03000069 -4.34999990 -0.25000000 38 9 232 97.000000 1.000000 4.000000 1.000000 -60.708740 114.000000 90.000000 0.851617 -0.461610 -0.248325
20.02000046 -4.36000013 -0.25999999 38 9 232 97.000000 1.000000 4.000000 1.000000 -60.708740 114.000000 90.000000 0.872941 -0.437217 -0.216370
20.03000069 -4.32999992 -0.25999999 38 9 232 97.000000 1.000000 4.000000 1.000000 -60.708740 114.000000 90.000000 0.984707 -0.144775 0.096915
20.04999924 -4.32000017 -0.30000001 38 9 232 97.000000 1.000000 4.000000 1.000000 -60.708740 114.000000 90.000000 0.812315 -0.543073 0.212640
20.04000092 -4.38000011 -0.28999999 38 9 232 97.000000 1.000000 4.000000 1.000000 -60.708740 114.000000 90.000000 0.916590 -0.353846 -0.186160
19.94000053 -4.25000000 -0.22000000 38 9 232 97.000000 1.000000 4.000000 1.000000 -60.708740 114.000000 90.000000 0.920472 -0.313504 0.233339
19.96999931 -4.23999977 -0.23000000 38 9 232 97.000000 1.000000 4.000000 1.000000 -60.708740 114.000000 90.000000 0.965205 0.040783 0.258294
19.96999931 -4.26999998 -0.30000001 38 9 232 97.000000 1.000000 4.000000 1.000000 -60.708740 114.000000 90.000000 0.995231 0.082660 0.051800
19.96999931 -4.25000000 -0.28999999 38 9 232 97.000000 1.000000 4.000000 1.000000 -60.708740 114.000000 90.000000 0.938700 -0.257273 -0.229460
19.96999931 -4.38999987 -0.25000000 38 9 232 97.000000 1.000000 4.000000 1.000000 -60.708740 114.000000 90.000000 0.943081 -0.270432 -0.193558
19.96999931 -4.40000010 -0.23999999 38 9 232 97.000000 1.000000 4.000000 1.000000 -60.708740 114.000000 90.000000 0.910028 -0.257720 -0.324698
19.90999985 -4.34999990 -0.23999999 38 9 232 97.000000 1.000000 4.000000 1.000000 -60.708740 114.000000 90.000000 0.796775 -0.566493 0.210324
19.90999985 -4.36000013 -0.27000001 38 9 232 97.000000 1.000000 4.000000 1.000000 -60.708740 114.000000 90.000000 -0.630890 0.770765 0.088878
19.96999931 -4.32999992 -0.28999999 38 9 232 97.000000 1.000000 4.000000 1.000000 -60.708740 114.000000 90.000000 0.989447 -0.054012 -0.134454
19.86000061 -4.07999992 -0.10000000 38 9 232 97.000000 1.000000 4.000000 1.000000 -60.708740 114.000000 90.000000 0.717514 0.535236 0.445754
19.81999969 -4.07999992 -0.07000000 38 9 232 97.000000 1.000000 4.000000 1.000000 -60.708740 114.000000 90.000000 0.831369 0.515236 0.208222
19.81999969 -4.11000013 -0.05000000 38 9 232 97.000000 1.000000 4.000000 1.000000 -60.708740 114.000000 90.000000 0.785206 0.562652 0.258601
19.88999939 -4.09000015 -0.14000000 38 9 232 97.000000 1.000000 4.000000 1.000000 -60.708740 114.000000 90.000000 0.678119 0.732598 0.058780
19.84000015 -4.11000013 -0.11000000 38 9 232 97.000000 1.000000 4.000000 1.000000 -60.708740 114.000000 90.000000 0.740619 0.483299 0.466804
19.87999916 -4.21000004 -0.27000001 38 9 232 97.000000 1.000000 4.000000 1.000000 -60.708740 114.000000 90.000000 0.993983 -0.081805 -0.072840
19.88999939 -4.17000008 -0.30000001 38 9 232 97.000000 1.000000 4.000000 1.000000 -60.708740 114.000000 90.000000 0.982413 -0.178944 -0.053328
19.88999939 -4.32000017 -0.25999999 38 9 232 97.000000 1.000000 4.000000 1.000000 -60.708740 114.000000 90.000000 0.958356 -0.262081 -0.113438
19.87999916 -4.34999990 -0.27000001 38 9 232 97.000000 1.000000 4.000000 1.000000 -60.708740 114.000000 90.000000 0.747842 -0.594110 -0.296254
19.88999939 -4.34000015 -0.25999999 38 9 232 97.000000 1.000000 4.000000 1.000000 -60.708740 114.000000 90.000000 0.736469 -0.484911 -0.471671
19.88999939 -4.32999992 -0.23999999 38 9 232 97.000000 1.000000 4.000000 1.000000 -60.708740 114.000000 90.000000 0.809289 -0.521263 -0.270806
19.88999939 -4.32000017 -0.25999999 38 9 232 97.000000 1.000000 4.000000 1.000000 -60.708740 114.000000 90.000000 0.958356 -0.262081 -0.113438
19.80999947 -4.36000013 -0.20999999 38 9 232 97.000000 1.000000 4.000000 1.000000 -60.708740 114.000000 90.000000 -0.619870 0.774465 0.126352
19.82999992 -4.38000011 -0.20999999 38 9 232 97.000000 1.000000 4.000000 1.000000 -60.708740 114.000000 90.000000 0.868471 -0.471455 -0.153260
19.85000038 -4.36999989 -0.25999999 38 9 232 97.000000 1.000000 4.000000 1.000000 -60.708740 114.000000 90.000000 0.754281 -0.542496 -0.369809
19.79999924 -4.36000013 -0.22000000 38 9 232 97.000000 1.000000 4.000000 1.000000 -60.708740 114.000000 90.000000 -0.660184 0.742891 -0.110769
20.03000069 -4.07000017 -0.37000000 38 9 232 97.000000 1.000000 4.000000 1.000000 -60.708740 114.000000 90.000000 0.976822 0.153840 0.148837
19.94000053 -4.07999992 -0.43000001 38 9 232 97.000000 1.000000 4.000000 1.000000 -60.708740 114.000000 90.000000 0.907267 0.323919 -0.268223
19.94000053 -4.07000017 -0.43000001 38 9 232 97.000000 1.000000 4.000000 1.000000 -60.708740 114.000000 90.000000 0.861936 0.499612 -0.086335
19.95999908 -4.09999990 -0.40000001 38 9 232 97.000000 1.000000 4.000000 1.000000 -60.708740 114.000000 90.000000 0.971823 0.055148 -0.229169
19.95000076 -4.15000010 -0.37000000 38 9 232 97.000000 1.000000 4.000000 1.000000 -60.708740 114.000000 90.000000 0.953916 0.049538 0.295955
19.94000053 -4.15000010 -0.40000001 38 9 232 97.000000 1.000000 4.000000 1.000000 -60.708740 114.000000 90.000000 0.935348 0.211117 -0.283820
19.94000053 -4.13999987 -0.40000001 38 9 232 97.000000 1.000000 4.000000 1.000000 -60.708740 114.000000 90.000000 0.983105 0.177783 0.043563
19.90999985 -4.09000015 -0.38000000 38 9 232 97.000000 1.000000 4.000000 1.000000 -60.708740 114.000000 90.000000 0.964871 0.173651 -0.197152
19.90999985 -4.07999992 -0.36000001 38 9 232 97.000000 1.000000 4.000000 1.000000 -60.708740 114.000000 90.000000 0.989703 0.125878 -0.068136
19.90999985 -4.09999990 -0.40000001 38 9 232 97.000000 1.000000 4.000000 1.000000 -60.708740 114.000000 90.000000 0.981168 -0.101164 0.164544
19.92000008 -4.09000015 -0.41999999 38 9 232 97.000000 1.000000 4.000000 1.000000 -60.708740 114.000000 90.000000 0.989833 0.089562 0.110498
19.90999985 -4.07999992 -0.43000001 38 9 232 97.000000 1.000000 4.000000 1.000000 -60.708740 114.000000 90.000000 0.999469 -0.017355 -0.027565
19.93000031 -4.11999989 -0.37000000 38 9 232 97.000000 1.000000 4.000000 1.000000 -60.708740 114.000000 90.000000 0.820473 0.562899 0.099846
19.90999985 -4.13999987 -0.37000000 38 9 232 97.000000 1.000000 4.000000 1.000000 -60.708740 114.000000 90.000000 0.838872 0.528504 0.130296
19.92000008 -4.11000013 -0.37000000 38 9 232 97.000000 1.000000 4.000000 1.000000 -60.708740 114.000000 90.000000 0.955144 -0.062486 0.289476
19.92000008 -4.13999987 -0.36000001 38 9 232 97.000000 1.000000 4.000000 1.000000 -60.708740 114.000000 90.000000 0.968216 -0.245446 -0.048102
19.92000008 -4.11000013 -0.36000001 38 9 232 97.000000 1.000000 4.000000 1.000000 -60.708740 114.000000 90.000000 0.992560 0.057589 0.107273
19.90999985 -4.11000013 -0.41000000 38 9 232 97.000000 1.000000 4.000000 1.000000 -60.708740 114.000000 90.000000 0.972232 0.226813 0.057623
19.94000053 -4.09000015 -0.46000001 38 9 232 97.000000 1.000000 4.000000 1.000000 -60.708740 114.000000 90.000000 0.909239 0.382763 0.163635
19.95000076 -4.09000015 -0.47999999 38 9 232 97.000000 1.000000 4.000000 1.000000 -60.708740 114.000000 90.000000 0.995347 0.078261 -0.056216
19.94000053 -4.09000015 -0.46000001 38 9 232 97.000000 1.000000 4.000000 1.000000 -60.708740 114.000000 90.000000 0.909239 0.382763 0.163635
19.95000076 -4.09999990 -0.44000000 38 9 232 97.000000 1.000000 4.000000 1.000000 -60.708740 114.000000 90.000000 0.989900 0.072940 -0.121567
19.94000053 -4.07999992 -0.49000001 38 9 232 97.000000 1.000000 4.000000 1.000000 -60.708740 114.000000 90.000000 0.973948 0.003525 0.226745
19.95000076 -4.11999989 -0.44000000 38 9 232 97.000000 1.000000 4.000000 1.000000 -60.708740 114.000000 90.000000 0.904904 0.388636 0.173524
19.93000031 -4.07000017 -0.44000000 38 9 232 97.000000 1.000000 4.000000 1.000000 -60.708740 114.000000 90.000000 0.934471 0.294729 -0.199745
19.93000031 -4.07000017 -0.47000000 38 9 232 97.000000 1.000000 4.000000 1.000000 -60.708740 114.000000 90.000000 0.992667 -0.059854 -0.105026
19.93000031 -4.07000017 -0.44000000 38 9 232 97.000000 1.000000 4.000000 1.000000 -60.708740 114.000000 90.000000 0.934471 0.294729 -0.199745
19.93000031 -4.15000010 -0.44000000 38 9 232 97.000000 1.000000 4.000000 1.000000 -60.708740 114.000000 90.000000 0.964730 0.262221 0.023173
19.93000031 -4.15999985 -0.41000000 38 9 232 97.000000 1.000000 4.000000 1.000000 -60.708740 114.000000 90.000000 0.993347 0.114743 -0.009835
19.92000008 -3.88000011 -0.75999999 38 9 232 97.000000 1.000000 4.000000 1.000000 -60.708740 114.000000 90.000000 0.844302 0.289696 0.450811
19.89999962 -3.89000010 -0.80000001 38 9 232 97.000000 1.000000 4.000000 1.000000 -60.708740 114.000000 90.000000 0.919248 0.257504 0.297784
19.92000008 -3.89000010 -0.92000002 38 9 232 97.000000 1.000000 4.000000 1.000000 -60.708740 114.000000 90.000000 0.947241 0.316601 0.049990
19.94000053 -3.98000002 -0.69999999 38 9 232 97.000000 1.000000 4.000000 1.000000 -60.708740 114.000000 90.000000 0.926836 0.344966 0.148238
19.94000053 -3.96000004 -0.72000003 38 9 232 97.000000 1.000000 4.000000 1.000000 -60.708740 114.000000 90.000000 0.939687 0.160034 0.302287
19.94000053 -3.95000005 -0.73000002 38 9 232 97.000000 1.000000 4.000000 1.000000 -60.708740 114.000000 90.000000 0.989570 0.124131 0.073087
19.90999985 -3.91000009 -0.73000002 38 9 232 97.000000 1.000000 4.000000 1.000000 -60.708740 114.000000 90.000000 0.832436 0.466976 0.298302
19.90999985 -3.93000007 -0.74000001 38 9 232 97.000000 1.000000 4.000000 1.000000 -60.708740 114.000000 90.000000 0.988939 0.148285 -0.003345
19.90999985 -3.90000010 -0.75000000 38 9 232 97.000000 1.000000 4.000000 1.000000 -60.708740 114.000000 90.000000 0.652858 0.579013 0.488385
19.89999962 -3.91000009 -0.74000001 38 9 232 97.000000 1.000000 4.000000 1.000000 -60.708740 114.000000 90.000000 0.917193 0.398272 0.011676
19.89999962 -3.96000004 -0.69999999 38 9 232 97.000000 1.000000 4.000000 1.000000 -60.708740 114.000000 90.000000 0.943848 0.063791 0.324163
19.90999985 -3.95000005 -0.69999999 38 9 232 97.000000 1.000000 4.000000 1.000000 -60.708740 114.000000 90.000000 0.763861 0.395774 0.509784
19.89999962 -3.95000005 -0.75999999 38 9 232 97.000000 1.000000 4.000000 1.000000 -60.708740 114.000000 90.000000 0.818317 0.552027 0.160073
19.89999962 -3.95000005 -0.75999999 38 9 232 97.000000 1.000000 4.000000 1.000000 -60.708740 114.000000 90.000000 0.818317 0.552027 0.160073
19.90999985 -3.92000008 -0.83999997 38 9 232 97.000000 1.000000 4.000000 1.000000 -60.708740 114.000000 90.000000 0.973103 0.067662 0.220209
19.89999962 -3.91000009 -0.83999997 38 9 232 97.000000 1.000000 4.000000 1.000000 -60.708740 114.000000 90.000000 0.830599 0.548455 -0.096447
19.89999962 -3.90000010 -0.79000002 38 9 232 97.000000 1.000000 4.000000 1.000000 -60.708740 114.000000 90.000000 0.915050 0.238520 0.325255
19.90999985 -3.91000009 -0.85000002 38 9 232 97.000000 1.000000 4.000000 1.000000 -60.708740 114.000000 90.000000 0.594110 0.747842 0.296254
19.89999962 -3.91000009 -0.79000002 38 9 232 97.000000 1.000000 4.000000 1.000000 -60.708740 114.000000 90.000000 0.970361 0.141910 0.195606
19.90999985 -3.94000006 -0.77999997 38 9 232 97.000000 1.000000 4.000000 1.000000 -60.708740 114.000000 90.000000 0.745076 0.373353 0.552693
19.89999962 -3.91000009 -0.82999998 38 9 232 97.000000 1.000000 4.000000 1.000000 -60.708740 114.000000 90.000000 0.932031 0.316250 0.176933
19.89999962 -3.93000007 -0.93000001 38 9 232 97.000000 1.000000 4.000000 1.000000 -60.708740 114.000000 90.000000 0.967069 0.177361 -0.182539
19.90999985 -3.92000008 -0.88000000 38 9 232 97.000000 1.000000 4.000000 1.000000 -60.708740 114.000000 90.000000 0.694015 0.719354 0.029562
19.90999985 -3.92000008 -0.88000000 38 9 232 97.000000 1.000000 4.000000 1.000000 -60.708740 114.000000 90.000000 0.694015 0.719354 0.029562
19.90999985 -3.90000010 -0.86000001 38 9 232 97.000000 1.000000 4.000000 1.000000 -60.708740 114.000000 90.000000 0.578676 0.701375 0.416182
19.90999985 -3.92000008 -0.88000000 38 9 232 97.000000 1.000000 4.000000 1.000000 -60.708740 114.000000 90.000000 0.694015 0.719354 0.029562
19.92000008 -3.92000008 -0.88999999 38 9 232 97.000000 1.000000 4.000000 1.000000 -60.708740 114.000000 90.000000 0.667816 0.641433 0.377605
19.94000053 -3.94000006 -0.86000001 38 9 232 97.000000 1.000000 4.000000 1.000000 -60.708740 114.000000 90.000000 0.869310 0.463338 -0.172097
19.85000038 -3.89000010 -0.81999999 38 9 232 97.000000 1.000000 4.000000 1.000000 -60.708740 114.000000 90.000000 0.766130 0.586050 0.263801
19.88999939 -3.89000010 -0.86000001 38 9 232 97.000000 1.000000 4.000000 1.000000 -60.708740 114.000000 90.000000 0.944695 0.150446 0.291405
19.88999939 -3.85999990 -0.88000000 38 9 232 97.000000 1.000000 4.000000 1.000000 -60.708740 114.000000 90.000000 0.508951 0.860786 -0.004029
19.88999939 -3.85999990 -0.89999998 38 9 232 97.000000 1.000000 4.000000 1.000000 -60.708740 114.000000 90.000000 0.862718 0.497231 0.092080
19.88999939 -3.85999990 -0.91000003 38 9 232 97.000000 1.000000 4.000000 1.000000 -60.708740 114.000000 90.000000 0.966296 0.248762 0.066253
19.88999939 -3.89000010 -0.93000001 38 9 232 97.000000 1.000000 4.000000 1.000000 -60.708740 114.000000 90.000000 0.929129 0.300310 0.215716
19.88999939 -3.94000006 -0.75000000 38 9 232 97.000000 1.000000 4.000000 1.000000 -60.708740 114.000000 90.000000 0.769190 0.622249 0.145441
19.86000061 -3.90000010 -0.82999998 38 9 232 97.000000 1.000000 4.000000 1.000000 -60.708740 114.000000 90.000000 0.819117 0.570985 -0.054984
19.88999939 -3.90000010 -0.92000002 38 9 232 97.000000 1.000000 4.000000 1.000000 -60.708740 114.000000 90.000000 0.988111 0.152801 0.016978
20.07999992 -4.61000013 -0.33000001 38 9 232 97.000000 1.000000 4.000000 1.000000 -60.708740 114.000000 90.000000 0.870070 -0.476022 -0.127994
20.07999992 -4.59999990 -0.34000000 38 9 232 97.000000 1.000000 4.000000 1.000000 -60.708740 114.000000 90.000000 0.872258 -0.325378 -0.365096
20.09000015 -4.59000015 -0.30000001 38 9 232 97.000000 1.000000 4.000000 1.000000 -60.708740 114.000000 90.000000 0.930725 -0.356533 -0.081455
20.07999992 -4.59999990 -0.33000001 38 9 232 97.000000 1.000000 4.000000 1.000000 -60.708740 114.000000 90.000000 0.922358 -0.337586 -0.187862
20.04000092 -4.51000023 -0.30000001 38 9 232 97.000000 1.000000 4.000000 1.000000 -60.708740 114.000000 90.000000 0.769375 -0.478613 -0.423074
20.04000092 -4.55999994 -0.28000000 38 9 232 97.000000 1.000000 4.000000 1.000000 -60.708740 114.000000 90.000000 -0.584524 0.791005 -0.180671
19.93000031 -4.40999985 -0.25999999 38 9 232 97.000000 1.000000 4.000000 1.000000 -60.708740 114.000000 90.000000 0.829160 -0.514599 0.218361
19.93000031 -4.42000008 -0.27000001 38 9 232 97.000000 1.000000 4.000000 1.000000 -60.708740 114.000000 90.000000 0.833282 -0.461197 -0.304859
19.92000008 -4.42999983 -0.27000001 38 9 232 97.000000 1.000000 4.000000 1.000000 -60.708740 114.000000 90.000000 -0.643833 0.765155 0.004136
20.04000092 -4.57000017 -0.27000001 38 9 232 97.000000 1.000000 4.000000 1.000000 -60.708740 114.000000 90.000000 0.822807 -0.563273 0.075578
20.04000092 -4.57000017 -0.25999999 38 9 232 97.000000 1.000000 4.000000 1.000000 -60.708740 114.000000 90.000000 -0.568709 0.804037 -0.173479
19.80999947 -4.44000006 -0.04000000 38 9 232 97.000000 1.000000 4.000000 1.000000 -60.708740 114.000000 90.000000 0.841304 -0.540548 -0.004064
19.81999969 -4.46000004 -0.05000000 38 9 232 97.000000 1.000000 4.000000 1.000000 -60.708740 114.000000 90.000000 -0.414443 0.751894 0.512730
19.85000038 -4.44999981 -0.03000000 38 9 232 97.000000 1.000000 4.000000 1.000000 -60.708740 114.000000 90.000000 0.685067 -0.712288 -0.152741
19.82999992 -4.44999981 -0.05000000 38 9 232 97.000000 1.000000 4.000000 1.000000 -60.708740 114.000000 90.000000 -0.464199 0.836800 0.290318
19.81999969 -4.48000002 -0.07000000 38 9 232 97.000000 1.000000 4.000000 1.000000 -60.708740 114.000000 90.000000 0.814841 -0.576766 0.058102
19.80999947 -4.46999979 -0.09000000 38 9 232 97.000000 1.000000 4.000000 1.000000 -60.708740 114.000000 90.000000 0.806193 -0.573723 -0.144548
19.80999947 -4.46999979 -0.08000000 38 9 232 97.000000 1.000000 4.000000 1.000000 -60.708740 114.000000 90.000000 0.643202 -0.589462 -0.488699
19.82999992 -4.44000006 -0.17000000 38 9 232 97.000000 1.000000 4.000000 1.000000 -60.708740 114.000000 90.000000 0.711604 -0.700104 -0.058941
19.80999947 -4.46999979 -0.16000000 38 9 232 97.000000 1.000000 4.000000 1.000000 -60.708740 114.000000 90.000000 -0.532933 0.800185 0.275113
19.80999947 -4.46999979 -0.16000000 38 9 232 97.000000 1.000000 4.000000 1.000000 -60.708740 114.000000 90.000000 -0.532933 0.800185 0.275113
19.80999947 -4.46999979 -0.15000001 38 9 232 97.000000 1.000000 4.000000 1.000000 -60.708740 114.000000 90.000000 -0.299037 0.847530 0.438485
19.82999992 -4.48999977 -0.09000000 38 9 232 97.000000 1.000000 4.000000 1.000000 -60.708740 114.000000 90.000000 -0.605879 0.790969 -0.085315
19.78000069 -4.46999979 -0.08000000 38 9 232 97.000000 1.000000 4.000000 1.000000 -60.708740 114.000000 90.000000 -0.208282 0.977864 0.020004
19.79000092 -4.44999981 -0.13000000 38 9 232 97.000000 1.000000 4.000000 1.000000 -60.708740 114.000000 90.000000 -0.289457 0.957057 0.016013
19.79000092 -4.44999981 -0.12000000 38 9 232 97.000000 1.000000 4.000000 1.000000 -60.708740 114.000000 90.000000 -0.219208 0.875341 0.430960
19.79999924 -4.44999981 -0.16000000 38 9 232 97.000000 1.000000 4.000000 1.000000 -60.708740 114.000000 90.000000 -0.678793 0.730897 0.070919
19.76000023 -4.46999979 -0.18000001 38 9 232 97.000000 1.000000 4.000000 1.000000 -60.708740 114.000000 90.000000 -0.094718 0.869426 0.484899
19.76000023 -4.46999979 -0.18000001 38 9 232 97.000000 1.000000 4.000000 1.000000 -60.708740 114.000000 90.000000 -0.094718 0.869426 0.484899
19.79999924 -4.50000000 -0.07000000 38 9 232 97.000000 1.000000 4.000000 1.000000 -60.708740 114.000000 90.000000 -0.583380 0.774191 0.245552
19.79999924 -4.50000000 -0.07000000 38 9 232 97.000000 1.000000 4.000000 1.000000 -60.708740 114.000000 90.000000 -0.583380 0.774191 0.245552
19.79000092 -4.51000023 -0.06000000 38 9 232 97.000000 1.000000 4.000000 1.000000 -60.708740 114.000000 90.000000 -0.194960 0.979584 0.049039
19.79999924 -4.48999977 -0.10000000 38 9 232 97.000000 1.000000 4.000000 1.000000 -60.708740 114.000000 90.000000 -0.430490 0.837498 0.336565
19.79999924 -4.48999977 -0.10000000 38 9 232 97.000000 1.000000 4.000000 1.000000 -60.708740 114.000000 90.000000 -0.430490 0.837498 0.336565
19.79999924 -4.48999977 -0.09000000 38 9 232 97.000000 1.000000 4.000000 1.000000 -60.708740 114.000000 90.000000 0.813113 -0.581974 -0.012382
19.79999924 -4.50000000 -0.08000000 38 9 232 97.000000 1.000000 4.000000 1.000000 -60.708740 114.000000 90.000000 -0.407083 0.912972 -0.027666
19.88999939 -4.46999979 -0.25999999 38 9 232 97.000000 1.000000 4.000000 1.000000 -60.708740 114.000000 90.000000 0.883270 -0.464371 -0.064764
19.88999939 -4.46999979 -0.25999999 38 9 232 97.000000 1.000000 4.000000 1.000000 -60.708740 114.000000 90.000000 0.883270 -0.464371 -0.064764
19.84000015 -4.42000008 -0.25999999 38 9 232 97.000000 1.000000 4.000000 1.000000 -60.708740 114.000000 90.000000 0.821356 -0.567764 0.054945
19.85000038 -4.44000006 -0.27000001 38 9 232 97.000000 1.000000 4.000000 1.000000 -60.708740 114.000000 90.000000 -0.513649 0.655113 0.554068
19.81999969 -4.48000002 -0.27000001 38 9 232 97.000000 1.000000 4.000000 1.000000 -60.708740 114.000000 90.000000 -0.462838 0.882329 -0.085297
19.82999992 -4.46999979 -0.25999999 38 9 232 97.000000 1.000000 4.000000 1.000000 -60.708740 114.000000 90.000000 -0.543589 0.820654 -0.176177
19.80999947 -4.42000008 -0.30000001 38 9 232 97.000000 1.000000 4.000000 1.000000 -60.708740 114.000000 90.000000 -0.450417 0.737496 0.503213
19.80999947 -4.42999983 -0.30000001 38 9 232 97.000000 1.000000 4.000000 1.000000 -60.708740 114.000000 90.000000 0.657265 -0.597058 -0.459918
19.81999969 -4.42000008 -0.30000001 38 9 232 97.000000 1.000000 4.000000 1.000000 -60.708740 114.000000 90.000000 -0.535899 0.613664 0.579853
19.81999969 -4.42999983 -0.28000000 38 9 232 97.000000 1.000000 4.000000 1.000000 -60.708740 114.000000 90.000000 -0.342372 0.744782 0.572784
19.81999969 -4.48999977 -0.19000000 38 9 232 97.000000 1.000000 4.000000 1.000000 -60.708740 114.000000 90.000000 0.739225 -0.608304 -0.288984
19.81999969 -4.48999977 -0.19000000 38 9 232 97.000000 1.000000 4.000000 1.000000 -60.708740 114.000000 90.000000 0.739225 -0.608304 -0.288984
19.84000015 -4.51999998 -0.25000000 38 9 232 97.000000 1.000000 4.000000 1.000000 -60.708740 114.000000 90.000000 -0.381671 0.923142 -0.046223
19.86000061 -4.51999998 -0.31000000 38 9 232 97.000000 1.000000 4.000000 1.000000 -60.708740 114.000000 90.000000 -0.562031 0.810823 -0.163364
19.88999939 -4.50000000 -0.30000001 38 9 232 97.000000 1.000000 4.000000 1.000000 -60.708740 114.000000 90.000000 -0.346286 0.938121 -0.003778
19.86000061 -4.51000023 -0.31999999 38 9 232 97.000000 1.000000 4.000000 1.000000 -60.708740 114.000000 90.000000 -0.566372 0.818415 0.097051
19.86000061 -4.51000023 -0.34000000 38 9 232 97.000000 1.000000 4.000000 1.000000 -60.708740 114.000000 90.000000 -0.453920 0.648218 0.611368
19.81999969 -4.51000023 -0.31000000 38 9 232 97.000000 1.000000 4.000000 1.000000 -60.708740 114.000000 90.000000 -0.382763 0.909239 -0.163635
19.80999947 -4.51999998 -0.31999999 38 9 232 97.000000 1.000000 4.000000 1.000000 -60.708740 114.000000 90.000000 -0.622475 0.782580 -0.009661
19.81999969 -4.51999998 -0.34000000 38 9 232 97.000000 1.000000 4.000000 1.000000 -60.708740 114.000000 90.000000 -0.683876 0.728997 0.029611
19.79999924 -4.44000006 -0.25000000 38 9 232 97.000000 1.000000 4.000000 1.000000 -60.708740 114.000000 90.000000 0.750185 -0.661109 -0.012526
19.78000069 -4.44000006 -0.27000001 38 9 232 97.000000 1.000000 4.000000 1.000000 -60.708740 114.000000 90.000000 -0.043806 0.959985 0.276606
19.79000092 -4.44999981 -0.19000000 38 9 232 97.000000 1.000000 4.000000 1.000000 -60.708740 114.000000 90.000000 -0.769145 0.575669 0.277527
19.79000092 -4.48000002 -0.23000000 38 9 232 97.000000 1.000000 4.000000 1.000000 -60.708740 114.000000 90.000000 0.329802 -0.709967 -0.622236
19.79999924 -4.44999981 -0.23000000 38 9 232 97.000000 1.000000 4.000000 1.000000 -60.708740 114.000000 90.000000 -0.653680 0.754246 -0.061776
19.72999954 -4.46000004 -0.20000000 38 9 232 97.000000 1.000000 4.000000 1.000000 -60.708740 114.000000 90.000000 0.090310 0.948911 0.302343
19.75000000 -4.44999981 -0.23000000 38 9 232 97.000000 1.000000 4.000000 1.000000 -60.708740 114.000000 90.000000 -0.027729 0.999286 0.025675
19.78000069 -4.44000006 -0.28000000 38 9 232 97.000000 1.000000 4.000000 1.000000 -60.708740 114.000000 90.000000 -0.099859 0.969521 0.223736
19.79000092 -4.44000006 -0.30000001 38 9 232 97.000000 1.000000 4.000000 1.000000 -60.708740 114.000000 90.000000 -0.222036 0.929158 0.295577
19.79999924 -4.42999983 -0.31000000 38 9 232 97.000000 1.000000 4.000000 1.000000 -60.708740 114.000000 90.000000 -0.507482 0.838776 0.197271
19.79999924 -4.48999977 -0.20999999 38 9 232 97.000000 1.000000 4.000000 1.000000 -60.708740 114.000000 90.000000 -0.712291 0.691472 0.120450
19.79999924 -4.50000000 -0.30000001 38 9 232 97.000000 1.000000 4.000000 1.000000 -60.708740 114.000000 90.000000 -0.347079 0.725118 0.594760
19.79999924 -4.50000000 -0.31000000 38 9 232 97.000000 1.000000 4.000000 1.000000 -60.708740 114.000000 90.000000 -0.143113 0.950967 0.274189
19.78000069 -4.53000021 -0.31999999 38 9 232 97.000000 1.000000 4.000000 1.000000 -60.708740 114.000000 90.000000 -0.378615 0.925070 -0.029925
19.80999947 -4.51999998 -0.38999999 38 9 232 97.000000 1.000000 4.000000 1.000000 -60.708740 114.000000 90.000000 0.183620 -0.805802 -0.562999
19.84000015 -4.48999977 -0.36000001 38 9 232 97.000000 1.000000 4.000000 1.000000 -60.708740 114.000000 90.000000 -0.407384 0.894505 0.184120
19.79000092 -4.51999998 -0.36000001 38 9 232 97.000000 1.000000 4.000000 1.000000 -60.708740 114.000000 90.000000 -0.162279 0.974934 0.152215
19.80999947 -4.57000017 -0.40000001 38 9 232 97.000000 1.000000 4.000000 1.000000 -60.708740 114.000000 90.000000 -0.618972 0.771842 0.145376
19.70999908 -4.44999981 -0.20999999 38 9 232 97.000000 1.000000 4.000000 1.000000 -60.708740 114.000000 90.000000 -0.016272 0.994765 0.100887
20.22999954 -4.26999998 0.67000002 38 9 232 97.000000 1.000000 4.000000 1.000000 -60.708740 114.000000 90.000000 0.999108 -0.005113 0.041928
20.22999954 -4.38999987 0.69999999 38 9 232 97.000000 1.000000 4.000000 1.000000 -60.708740 114.000000 90.000000 0.881447 0.410149 0.234158
20.23999977 -4.36999989 0.68000001 38 9 232 97.000000 1.000000 4.000000 1.000000 -60.708740 114.000000 90.000000 0.831913 0.311772 0.459041
20.22999954 -4.36999989 0.69000000 38 9 232 97.000000 1.000000 4.000000 1.000000 -60.708740 114.000000 90.000000 0.969211 -0.226191 0.097300
20.19000053 -4.30000019 0.67000002 38 9 232 97.000000 1.000000 4.000000 1.000000 -60.708740 114.000000 90.000000 0.998544 0.026195 -0.047151
20.20999908 -4.28000021 0.68000001 38 9 232 97.000000 1.000000 4.000000 1.000000 -60.708740 114.000000 90.000000 0.950709 0.260265 -0.168565
20.19000053 -4.34000015 0.69999999 38 9 232 97.000000 1.000000 4.000000 1.000000 -60.708740 114.000000 90.000000 0.907886 0.406123 0.103956
20.19000053 -4.34999990 0.68000001 38 9 232 97.000000 1.000000 4.000000 1.000000 -60.708740 114.000000 90.000000 0.888094 0.172967 0.425878
20.19000053 -4.32999992 0.67000002 38 9 232 97.000000 1.000000 4.000000 1.000000 -60.708740 114.000000 90.000000 0.976243 -0.034652 0.213889
20.19000053 -4.36999989 0.69999999 38 9 232 97.000000 1.000000 4.000000 1.000000 -60.708740 114.000000 90.000000 0.930350 0.250642 0.267635
20.20999908 -4.38999987 0.66000003 38 9 232 97.000000 1.000000 4.000000 1.000000 -60.708740 114.000000 90.000000 0.958658 0.168395 0.229388
20.12000084 -4.05000019 0.02000000 38 9 232 97.000000 1.000000 4.000000 1.000000 -60.708740 114.000000 90.000000 0.990987 0.086323 0.102437
20.11000061 -4.05999994 0.00000000 38 9 232 97.000000 1.000000 4.000000 1.000000 -60.708740 114.000000 90.000000 0.897461 0.104681 0.428492
20.23999977 -4.30999994 0.63000000 38 9 232 97.000000 1.000000 4.000000 1.000000 -60.708740 114.000000 90.000000 0.955504 0.294665 0.013562
20.23999977 -4.28999996 0.64999998 38 9 232 97.000000 1.000000 4.000000 1.000000 -60.708740 114.000000 90.000000 0.985543 0.123342 0.116158
20.10000038 -4.23000002 0.47000000 38 9 232 97.000000 1.000000 4.000000 1.000000 -60.708740 114.000000 90.000000 0.809795 0.550538 -0.202830
20.07999992 -4.17999983 0.31999999 38 9 232 97.000000 1.000000 4.000000 1.000000 -60.708740 114.000000 90.000000 0.739085 0.579898 0.342741
20.21999931 -4.26999998 0.63000000 38 9 232 97.000000 1.000000 4.000000 1.000000 -60.708740 114.000000 90.000000 0.962998 0.195753 0.185243
20.21999931 -4.28999996 0.64999998 38 9 232 97.000000 1.000000 4.000000 1.000000 -60.708740 114.000000 90.000000 0.797509 0.540551 0.267925
20.14999962 -4.26999998 0.51999998 38 9 232 97.000000 1.000000 4.000000 1.000000 -60.708740 114.000000 90.000000 0.973795 0.114048 -0.196764
20.15999985 -4.30999994 0.50000000 38 9 232 97.000000 1.000000 4.000000 1.000000 -60.708740 114.000000 90.000000 0.838494 0.542719 0.048831
20.20999908 -4.36999989 0.62000000 38 9 232 97.000000 1.000000 4.000000 1.000000 -60.708740 114.000000 90.000000 0.965173 0.261476 0.008435
20.18000031 -4.36000013 0.57999998 38 9 232 97.000000 1.000000 4.000000 1.000000 -60.708740 114.000000 90.000000 0.995725 -0.091302 -0.013964
20.17000008 -4.36000013 0.57999998 38 9 232 97.000000 1.000000 4.000000 1.000000 -60.708740 114.000000 90.000000 0.881968 0.434402 -0.182829
20.18000031 -4.32000017 0.55000001 38 9 232 97.000000 1.000000 4.000000 1.000000 -60.708740 114.000000 90.000000 0.959249 0.056872 0.276779
20.18000031 -4.36000013 0.56000000 38 9 232 97.000000 1.000000 4.000000 1.000000 -60.708740 114.000000 90.000000 0.852985 0.476889 0.212118
20.21999931 -4.32999992 0.50000000 38 9 232 97.000000 1.000000 4.000000 1.000000 -60.708740 114.000000 90.000000 0.894334 0.352674 -0.275294
20.09000015 -4.30999994 0.52999997 38 9 232 97.000000 1.000000 4.000000 1.000000 -60.708740 114.000000 90.000000 0.979875 0.078924 0.183347
20.09000015 -4.40000010 0.60000002 38 9 232 97.000000 1.000000 4.000000 1.000000 -60.708740 114.000000 90.000000 0.945233 -0.016362 0.325986
20.09000015 -4.36999989 0.56999999 38 9 232 97.000000 1.000000 4.000000 1.000000 -60.708740 114.000000 90.000000 0.925021 -0.125077 0.358738
20.11000061 -4.38999987 0.51999998 38 9 232 97.000000 1.000000 4.000000 1.000000 -60.708740 114.000000 90.000000 0.927584 0.228002 -0.295977
20.10000038 -4.36999989 0.52999997 38 9 232 97.000000 1.000000 4.000000 1.000000 -60.708740 114.000000 90.000000 0.960028 -0.131922 0.246864
20.11000061 -4.26000023 0.44000000 38 9 232 97.000000 1.000000 4.000000 1.000000 -60.708740 114.000000 90.000000 0.830587 0.517788 0.204989
20.09000015 -4.13000011 0.15000001 38 9 232 97.000000 1.000000 4.000000 1.000000 -60.708740 114.000000 90.000000 0.897060 0.155948 0.413477
20.09000015 -4.09000015 0.18000001 38 9 232 97.000000 1.000000 4.000000 1.000000 -60.708740 114.000000 90.000000 0.993879 0.105026 0.034272
20.09000015 -4.15000010 0.20999999 38 9 232 97.000000 1.000000 4.000000 1.000000 -60.708740 114.000000 90.000000 0.696602 0.621206 0.358955
20.09000015 -4.17000008 0.25000000 38 9 232 97.000000 1.000000 4.000000 1.000000 -60.708740 114.000000 90.000000 0.818500 0.568203 0.084871
20.07999992 -4.19000006 0.27000001 38 9 232 97.000000 1.000000 4.000000 1.000000 -60.708740 114.000000 90.000000 0.938023 0.086240 0.335672
20.10000038 -4.09999990 0.11000000 38 9 232 97.000000 1.000000 4.000000 1.000000 -60.708740 114.000000 90.000000 0.825784 0.550034 0.124674
20.09000015 -4.09999990 0.13000000 38 9 232 97.000000 1.000000 4.000000 1.000000 -60.708740 114.000000 90.000000 0.678881 0.718192 0.152710
20.10000038 -4.07999992 0.07000000 38 9 232 97.000000 1.000000 4.000000 1.000000 -60.708740 114.000000 90.000000 0.927001 0.299536 0.225717
20.09000015 -4.15000010 0.13000000 38 9 232 97.000000 1.000000 4.000000 1.000000 -60.708740 114.000000 90.000000 0.763515 0.644083 -0.046920
20.07999992 -4.07000017 0.06000000 38 9 232 97.000000 1.000000 4.000000 1.000000 -60.708740 114.000000 90.000000 0.783326 0.620775 0.032230
20.09000015 -4.07999992 0.03000000 38 9 232 97.000000 1.000000 4.000000 1.000000 -60.708740 114.000000 90.000000 0.992462 0.105485 -0.062383
20.09000015 -4.07000017 0.02000000 38 9 232 97.000000 1.000000 4.000000 1.000000 -60.708740 114.000000 90.000000 0.947337 0.109971 0.300763
20.07999992 -4.11999989 -0.01000000 38 9 232 97.000000 1.000000 4.000000 1.000000 -60.708740 114.000000 90.000000 0.963566 0.048615 0.263017
20.06999969 -4.19000006 0.05000000 38 9 232 97.000000 1.000000 4.000000 1.000000 -60.708740 114.000000 90.000000 0.766424 0.617101 0.178274
19.95999908 -4.19000006 0.34999999 38 9 232 97.000000 1.000000 4.000000 1.000000 -60.708740 114.000000 90.000000 0.926436 0.365450 0.090351
19.96999931 -4.21000004 0.37000000 38 9 232 97.000000 1.000000 4.000000 1.000000 -60.708740 114.000000 90.000000 0.870380 0.482601 -0.097652
20.00000000 -4.26999998 0.34000000 38 9 232 97.000000 1.000000 4.000000 1.000000 -60.708740 114.000000 90.000000 0.995718 0.084161 -0.038255
20.03000069 -4.40000010 0.47999999 38 9 232 97.000000 1.000000 4.000000 1.000000 -60.708740 114.000000 90.000000 0.917537 0.355953 0.177268
19.97999954 -4.40000010 0.33000001 38 9 232 97.000000 1.000000 4.000000 1.000000 -60.708740 114.000000 90.000000 0.928913 -0.289843 -0.230461
20.01000023 -4.34999990 0.34000000 38 9 232 97.000000 1.000000 4.000000 1.000000 -60.708740 114.000000 90.000000 0.986763 -0.081346 0.140292
20.00000000 -4.34999990 0.34999999 38 9 232 97.000000 1.000000 4.000000 1.000000 -60.708740 114.000000 90.000000 0.979827 -0.195965 0.039193
19.94000053 -4.26000023 0.36000001 38 9 232 97.000000 1.000000 4.000000 1.000000 -60.708740 114.000000 90.000000 0.945739 0.261413 0.192980
19.93000031 -4.23999977 0.31999999 38 9 232 97.000000 1.000000 4.000000 1.000000 -60.708740 114.000000 90.000000 0.941815 0.327074 0.077499
19.92000008 -4.25000000 0.33000001 38 9 232 97.000000 1.000000 4.000000 1.000000 -60.708740 114.000000 90.000000 0.936399 0.336246 -0.100472
19.90999985 -4.30000019 0.34999999 38 9 232 97.000000 1.000000 4.000000 1.000000 -60.708740 114.000000 90.000000 0.761184 0.473080 0.443615
19.94000053 -4.40000010 0.43000001 38 9 232 97.000000 1.000000 4.000000 1.000000 -60.708740 114.000000 90.000000 0.933388 0.021826 0.358205
19.95000076 -4.40000010 0.38000000 38 9 232 97.000000 1.000000 4.000000 1.000000 -60.708740 114.000000 90.000000 0.925009 -0.163731 0.342855
19.95000076 -4.38000011 0.37000000 38 9 232 97.000000 1.000000 4.000000 1.000000 -60.708740 114.000000 90.000000 0.937822 -0.271731 -0.215992
19.95000076 -4.38000011 0.37000000 38 9 232 97.000000 1.000000 4.000000 1.000000 -60.708740 114.000000 90.000000 0.937822 -0.271731 -0.215992
19.93000031 -4.40000010 0.33000001 38 9 232 97.000000 1.000000 4.000000 1.000000 -60.708740 114.000000 90.000000 0.896263 -0.313618 0.313618
20.04999924 -4.17999983 0.23999999 38 9 232 97.000000 1.000000 4.000000 1.000000 -60.708740 114.000000 90.000000 0.709585 0.550053 0.440375
20.00000000 -4.19000006 0.30000001 38 9 232 97.000000 1.000000 4.000000 1.000000 -60.708740 114.000000 90.000000 0.750157 0.393873 0.531157
19.98999977 -4.19999981 0.25000000 38 9 232 97.000000 1.000000 4.000000 1.000000 -60.708740 114.000000 90.000000 0.659113 0.632549 0.406757
20.01000023 -4.21000004 0.25999999 38 9 232 97.000000 1.000000 4.000000 1.000000 -60.708740 114.000000 90.000000 0.691807 0.688683 0.217068
20.04999924 -4.19999981 0.20999999 38 9 232 97.000000 1.000000 4.000000 1.000000 -60.708740 114.000000 90.000000 0.979611 -0.017556 0.200136
20.04999924 -4.19999981 0.20999999 38 9 232 97.000000 1.000000 4.000000 1.000000 -60.708740 114.000000 90.000000 0.979611 -0.017556 0.200136
20.04999924 -4.23000002 0.17000000 38 9 232 97.000000 1.000000 4.000000 1.000000 -60.708740 114.000000 90.000000 0.801450 0.350335 0.484709
20.01000023 -4.15999985 0.22000000 38 9 232 97.000000 1.000000 4.000000 1.000000 -60.708740 114.000000 90.000000 0.968048 0.134629 0.211560
19.97999954 -4.15999985 0.23000000 38 9 232 97.000000 1.000000 4.000000 1.000000 -60.708740 114.000000 90.000000 0.832095 0.442001 0.335040
20.00000000 -4.17999983 0.20999999 38 9 232 97.000000 1.000000 4.000000 1.000000 -60.708740 114.000000 90.000000 0.811295 0.558424 -0.173096
20.00000000 -4.17999983 0.15000001 38 9 232 97.000000 1.000000 4.000000 1.000000 -60.708740 114.000000 90.000000 0.781057 0.578388 0.235408
20.01000023 -4.19999981 0.20000000 38 9 232 97.000000 1.000000 4.000000 1.000000 -60.708740 114.000000 90.000000 0.907617 0.393818 -0.145388
20.00000000 -4.21999979 0.16000000 38 9 232 97.000000 1.000000 4.000000 1.000000 -60.708740 114.000000 90.000000 0.953354 0.131268 0.271819
20.00000000 -4.23000002 0.15000001 38 9 232 97.000000 1.000000 4.000000 1.000000 -60.708740 114.000000 90.000000 0.933289 0.086787 0.348481
