//X Y Z R G B PointSourceId ScanDirectionFlag NumberOfReturns ReturnNumber GpsTime Intensity Classification Nx Ny Nz
-7.98000002 -19.29999924 -0.27000001 81 92 169 0.000000 0.000000 0.000000 0.000000 -60.708740 0.000000 46.000000 0.967559 -0.189895 0.166642
-7.98999977 -19.27000046 -0.34999999 81 92 169 0.000000 0.000000 0.000000 0.000000 -60.708740 0.000000 46.000000 0.975798 0.217504 -0.022582
-7.98999977 -19.27000046 -0.34999999 81 92 169 0.000000 0.000000 0.000000 0.000000 -60.708740 0.000000 46.000000 0.975798 0.217504 -0.022582
-7.98000002 -19.29999924 -0.28000000 81 92 169 0.000000 0.000000 0.000000 0.000000 -60.708740 0.000000 46.000000 0.991259 0.123483 0.046448
-7.98000002 -19.30999947 -0.28999999 81 92 169 0.000000 0.000000 0.000000 0.000000 -60.708740 0.000000 46.000000 0.983653 -0.095115 0.152906
-7.98999977 -19.31999969 -0.33000001 81 92 169 0.000000 0.000000 0.000000 0.000000 -60.708740 0.000000 46.000000 0.825802 -0.440533 0.352111
-8.05000019 -19.26000023 -0.31000000 81 92 169 0.000000 0.000000 0.000000 0.000000 -60.708740 0.000000 46.000000 0.925931 0.356339 -0.125200
-8.10000038 -19.21999931 -0.20000000 81 92 169 0.000000 0.000000 0.000000 0.000000 -60.708740 0.000000 46.000000 0.855807 0.089413 0.509510
-8.13000011 -19.29000092 -0.20000000 81 92 169 0.000000 0.000000 0.000000 0.000000 -60.708740 0.000000 46.000000 -0.427241 0.673279 -0.603457
-8.13000011 -19.29999924 -0.34000000 81 92 169 0.000000 0.000000 0.000000 0.000000 -60.708740 0.000000 46.000000 -0.448158 0.889336 -0.090749
-8.05000019 -19.36000061 -0.18000001 81 92 169 0.000000 0.000000 0.000000 0.000000 -60.708740 0.000000 46.000000 0.831522 -0.308493 0.461957
-8.02999973 -19.37000084 -0.16000000 81 92 169 0.000000 0.000000 0.000000 0.000000 -60.708740 0.000000 46.000000 0.589592 -0.559183 0.582834
-8.13000011 -19.37999916 -0.10000000 81 92 169 0.000000 0.000000 0.000000 0.000000 -60.708740 0.000000 46.000000 -0.060563 0.838029 -0.542254
-8.06000042 -19.37000084 -0.18000001 81 92 169 0.000000 0.000000 0.000000 0.000000 -60.708740 0.000000 46.000000 -0.413517 0.736423 -0.535430
-8.06999969 -19.37000084 -0.17000000 81 92 169 0.000000 0.000000 0.000000 0.000000 -60.708740 0.000000 46.000000 0.762387 -0.570591 0.305274
-8.10999966 -19.37000084 -0.17000000 81 92 169 0.000000 0.000000 0.000000 0.000000 -60.708740 0.000000 46.000000 -0.097208 0.978231 -0.183341
-8.10999966 -19.37000084 -0.18000001 81 92 169 0.000000 0.000000 0.000000 0.000000 -60.708740 0.000000 46.000000 -0.180034 0.977150 -0.112987
-8.01000023 -19.37999916 -0.25999999 81 92 169 0.000000 0.000000 0.000000 0.000000 -60.708740 0.000000 46.000000 -0.654465 0.746476 -0.120208
-8.00000000 -19.35000038 -0.25999999 81 92 169 0.000000 0.000000 0.000000 0.000000 -60.708740 0.000000 46.000000 0.851332 -0.390648 0.350182
-7.98000002 -19.38999939 -0.25000000 81 92 169 0.000000 0.000000 0.000000 0.000000 -60.708740 0.000000 46.000000 0.741247 -0.254458 0.621131
-8.05000019 -19.37000084 -0.20000000 81 92 169 0.000000 0.000000 0.000000 0.000000 -60.708740 0.000000 46.000000 -0.475798 0.763566 -0.436557
-8.03999996 -19.37999916 -0.25000000 81 92 169 0.000000 0.000000 0.000000 0.000000 -60.708740 0.000000 46.000000 0.613874 -0.546230 0.569905
-8.02999973 -19.37999916 -0.23999999 81 92 169 0.000000 0.000000 0.000000 0.000000 -60.708740 0.000000 46.000000 -0.534800 0.831087 -0.152588
-8.02999973 -19.37999916 -0.25999999 81 92 169 0.000000 0.000000 0.000000 0.000000 -60.708740 0.000000 46.000000 0.791190 -0.526929 0.310427
-8.05000019 -19.40999985 -0.22000000 81 92 169 0.000000 0.000000 0.000000 0.000000 -60.708740 0.000000 46.000000 0.548860 -0.772885 0.318435
-8.02999973 -19.38999939 -0.20000000 81 92 169 0.000000 0.000000 0.000000 0.000000 -60.708740 0.000000 46.000000 -0.668625 0.487644 -0.561377
-8.03999996 -19.40999985 -0.25999999 81 92 169 0.000000 0.000000 0.000000 0.000000 -60.708740 0.000000 46.000000 -0.530812 0.829862 -0.171953
-8.03999996 -19.38999939 -0.25999999 81 92 169 0.000000 0.000000 0.000000 0.000000 -60.708740 0.000000 46.000000 0.717859 -0.621069 0.314567
-8.03999996 -19.39999962 -0.27000001 81 92 169 0.000000 0.000000 0.000000 0.000000 -60.708740 0.000000 46.000000 -0.493673 0.856969 -0.147955
-8.05000019 -19.39999962 -0.27000001 81 92 169 0.000000 0.000000 0.000000 0.000000 -60.708740 0.000000 46.000000 -0.253899 0.922356 -0.291195
-8.05000019 -19.40999985 -0.27000001 81 92 169 0.000000 0.000000 0.000000 0.000000 -60.708740 0.000000 46.000000 -0.232931 0.867103 -0.440314
-8.03999996 -19.38999939 -0.23000000 81 92 169 0.000000 0.000000 0.000000 0.000000 -60.708740 0.000000 46.000000 -0.480610 0.872427 -0.088793
-8.05000019 -19.42000008 -0.23999999 81 92 169 0.000000 0.000000 0.000000 0.000000 -60.708740 0.000000 46.000000 -0.498471 0.865035 -0.056928
-8.03999996 -19.39999962 -0.25999999 81 92 169 0.000000 0.000000 0.000000 0.000000 -60.708740 0.000000 46.000000 -0.423389 0.848329 -0.317930
-8.03999996 -19.39999962 -0.28000000 81 92 169 0.000000 0.000000 0.000000 0.000000 -60.708740 0.000000 46.000000 -0.717960 0.607254 -0.340258
-8.03999996 -19.43000031 -0.34000000 81 92 169 0.000000 0.000000 0.000000 0.000000 -60.708740 0.000000 46.000000 -0.397167 0.863340 -0.311293
-8.05000019 -19.45000076 -0.33000001 81 92 169 0.000000 0.000000 0.000000 0.000000 -60.708740 0.000000 46.000000 -0.456187 0.889764 -0.014630
-8.05000019 -19.43000031 -0.31999999 81 92 169 0.000000 0.000000 0.000000 0.000000 -60.708740 0.000000 46.000000 -0.675367 0.688080 -0.265379
-8.06999969 -19.37999916 -0.20000000 81 92 169 0.000000 0.000000 0.000000 0.000000 -60.708740 0.000000 46.000000 -0.583203 0.810241 -0.058178
-8.06999969 -19.37999916 -0.20000000 81 92 169 0.000000 0.000000 0.000000 0.000000 -60.708740 0.000000 46.000000 -0.583203 0.810241 -0.058178
-8.09000015 -19.37999916 -0.23000000 81 92 169 0.000000 0.000000 0.000000 0.000000 -60.708740 0.000000 46.000000 -0.311283 0.885728 -0.344366
-8.07999992 -19.39999962 -0.22000000 81 92 169 0.000000 0.000000 0.000000 0.000000 -60.708740 0.000000 46.000000 -0.406591 0.883181 -0.233827
-8.07999992 -19.39999962 -0.22000000 81 92 169 0.000000 0.000000 0.000000 0.000000 -60.708740 0.000000 46.000000 -0.406591 0.883181 -0.233827
-8.09000015 -19.40999985 -0.22000000 81 92 169 0.000000 0.000000 0.000000 0.000000 -60.708740 0.000000 46.000000 -0.274707 0.960852 0.036047
-8.06999969 -19.40999985 -0.27000001 81 92 169 0.000000 0.000000 0.000000 0.000000 -60.708740 0.000000 46.000000 -0.202323 0.914043 -0.351555
-8.06999969 -19.39999962 -0.25000000 81 92 169 0.000000 0.000000 0.000000 0.000000 -60.708740 0.000000 46.000000 -0.489451 0.728369 -0.479496
-8.06999969 -19.40999985 -0.27000001 81 92 169 0.000000 0.000000 0.000000 0.000000 -60.708740 0.000000 46.000000 -0.202323 0.914043 -0.351555
-8.06000042 -19.39999962 -0.27000001 81 92 169 0.000000 0.000000 0.000000 0.000000 -60.708740 0.000000 46.000000 -0.273256 0.862513 -0.425913
-8.06999969 -19.40999985 -0.25999999 81 92 169 0.000000 0.000000 0.000000 0.000000 -60.708740 0.000000 46.000000 -0.495492 0.854246 -0.157322
-8.07999992 -19.40999985 -0.23000000 81 92 169 0.000000 0.000000 0.000000 0.000000 -60.708740 0.000000 46.000000 -0.171226 0.976113 -0.133731
-8.11999989 -19.37000084 -0.19000000 81 92 169 0.000000 0.000000 0.000000 0.000000 -60.708740 0.000000 46.000000 -0.064815 0.974678 -0.214013
-8.10000038 -19.40999985 -0.23999999 81 92 169 0.000000 0.000000 0.000000 0.000000 -60.708740 0.000000 46.000000 -0.110036 0.990325 -0.084554
-8.10999966 -19.39999962 -0.28999999 81 92 169 0.000000 0.000000 0.000000 0.000000 -60.708740 0.000000 46.000000 -0.203767 0.978322 0.036940
-8.06000042 -19.44000053 -0.31000000 81 92 169 0.000000 0.000000 0.000000 0.000000 -60.708740 0.000000 46.000000 -0.408094 0.778794 -0.476381
-8.06000042 -19.44000053 -0.31000000 81 92 169 0.000000 0.000000 0.000000 0.000000 -60.708740 0.000000 46.000000 -0.408094 0.778794 -0.476381
-8.06999969 -19.43000031 -0.28999999 81 92 169 0.000000 0.000000 0.000000 0.000000 -60.708740 0.000000 46.000000 -0.076746 0.877695 -0.473034
-8.06000042 -19.43000031 -0.31999999 81 92 169 0.000000 0.000000 0.000000 0.000000 -60.708740 0.000000 46.000000 -0.279371 0.888909 -0.363033
-8.06999969 -19.44000053 -0.33000001 81 92 169 0.000000 0.000000 0.000000 0.000000 -60.708740 0.000000 46.000000 -0.122286 0.986597 -0.108039
-8.06999969 -19.45000076 -0.34000000 81 92 169 0.000000 0.000000 0.000000 0.000000 -60.708740 0.000000 46.000000 -0.308463 0.808331 -0.501450
-8.06000042 -19.45000076 -0.34000000 81 92 169 0.000000 0.000000 0.000000 0.000000 -60.708740 0.000000 46.000000 0.032079 0.937992 -0.345171
-8.06000042 -19.43000031 -0.31999999 81 92 169 0.000000 0.000000 0.000000 0.000000 -60.708740 0.000000 46.000000 -0.279371 0.888909 -0.363033
-8.06000042 -19.45000076 -0.34000000 81 92 169 0.000000 0.000000 0.000000 0.000000 -60.708740 0.000000 46.000000 0.032079 0.937992 -0.345171
-8.06999969 -19.45000076 -0.31999999 81 92 169 0.000000 0.000000 0.000000 0.000000 -60.708740 0.000000 46.000000 -0.036746 0.949051 -0.312972
-7.88000011 -19.20999908 -0.44999999 81 92 169 0.000000 0.000000 0.000000 0.000000 -60.708740 0.000000 46.000000 0.849890 0.520717 0.080874
-7.86999989 -19.18000031 -0.44000000 81 92 169 0.000000 0.000000 0.000000 0.000000 -60.708740 0.000000 46.000000 0.756831 0.624807 -0.191894
-7.86999989 -19.18000031 -0.47999999 81 92 169 0.000000 0.000000 0.000000 0.000000 -60.708740 0.000000 46.000000 0.849884 0.515125 -0.111105
-7.86999989 -19.18000031 -0.44999999 81 92 169 0.000000 0.000000 0.000000 0.000000 -60.708740 0.000000 46.000000 0.644145 0.717307 0.265610
-7.86000013 -19.20999908 -0.50000000 81 92 169 0.000000 0.000000 0.000000 0.000000 -60.708740 0.000000 46.000000 0.960123 0.253348 -0.118229
-7.86999989 -19.19000053 -0.49000001 81 92 169 0.000000 0.000000 0.000000 0.000000 -60.708740 0.000000 46.000000 0.911948 0.329113 -0.245023
-7.86000013 -19.22999954 -0.47000000 81 92 169 0.000000 0.000000 0.000000 0.000000 -60.708740 0.000000 46.000000 0.868312 0.303680 0.392190
-7.86000013 -19.21999931 -0.47000000 81 92 169 0.000000 0.000000 0.000000 0.000000 -60.708740 0.000000 46.000000 0.799606 0.285461 0.528339
-7.86000013 -19.23999977 -0.46000001 81 92 169 0.000000 0.000000 0.000000 0.000000 -60.708740 0.000000 46.000000 0.919106 0.287130 0.269816
-7.86000013 -19.21999931 -0.47999999 81 92 169 0.000000 0.000000 0.000000 0.000000 -60.708740 0.000000 46.000000 0.970454 0.229877 0.073312
-7.86999989 -19.30999947 -0.41999999 81 92 169 0.000000 0.000000 0.000000 0.000000 -60.708740 0.000000 46.000000 0.996549 0.057598 0.059771
-7.90999985 -19.20000076 -0.38999999 81 92 169 0.000000 0.000000 0.000000 0.000000 -60.708740 0.000000 46.000000 0.877744 0.466523 0.109186
-7.90999985 -19.20000076 -0.37000000 81 92 169 0.000000 0.000000 0.000000 0.000000 -60.708740 0.000000 46.000000 0.888891 0.138844 0.436573
-7.90999985 -19.20999908 -0.37000000 81 92 169 0.000000 0.000000 0.000000 0.000000 -60.708740 0.000000 46.000000 0.876828 0.366231 0.311525
-7.90999985 -19.21999931 -0.36000001 81 92 169 0.000000 0.000000 0.000000 0.000000 -60.708740 0.000000 46.000000 0.793649 0.357543 0.492223
-7.90000010 -19.23999977 -0.43000001 81 92 169 0.000000 0.000000 0.000000 0.000000 -60.708740 0.000000 46.000000 0.986935 0.071585 0.144344
-7.92999983 -19.20999908 -0.46000001 81 92 169 0.000000 0.000000 0.000000 0.000000 -60.708740 0.000000 46.000000 0.943325 0.320599 -0.085757
-7.94000006 -19.23999977 -0.47000000 81 92 169 0.000000 0.000000 0.000000 0.000000 -60.708740 0.000000 46.000000 0.943423 0.096863 0.317128
-7.94000006 -19.22999954 -0.47999999 81 92 169 0.000000 0.000000 0.000000 0.000000 -60.708740 0.000000 46.000000 0.862963 0.493735 0.107334
-7.92999983 -19.25000000 -0.50999999 81 92 169 0.000000 0.000000 0.000000 0.000000 -60.708740 0.000000 46.000000 0.919712 0.356336 0.164788
-7.92999983 -19.22999954 -0.51999998 81 92 169 0.000000 0.000000 0.000000 0.000000 -60.708740 0.000000 46.000000 0.975053 0.189003 -0.116406
-7.92000008 -19.27000046 -0.37000000 81 92 169 0.000000 0.000000 0.000000 0.000000 -60.708740 0.000000 46.000000 0.984407 0.135822 0.111782
-7.92999983 -19.27000046 -0.37000000 81 92 169 0.000000 0.000000 0.000000 0.000000 -60.708740 0.000000 46.000000 0.788027 0.428803 0.441748
-7.94999981 -19.32999992 -0.41000000 81 92 169 0.000000 0.000000 0.000000 0.000000 -60.708740 0.000000 46.000000 0.945990 -0.071567 0.316198
-7.88999987 -19.27000046 -0.50999999 81 92 169 0.000000 0.000000 0.000000 0.000000 -60.708740 0.000000 46.000000 0.993441 -0.091338 0.068785
-7.88999987 -19.27000046 -0.50999999 81 92 169 0.000000 0.000000 0.000000 0.000000 -60.708740 0.000000 46.000000 0.993441 -0.091338 0.068785
-7.92000008 -19.30999947 -0.44999999 81 92 169 0.000000 0.000000 0.000000 0.000000 -60.708740 0.000000 46.000000 0.948288 -0.160521 0.273830
-7.90999985 -19.32999992 -0.47999999 81 92 169 0.000000 0.000000 0.000000 0.000000 -60.708740 0.000000 46.000000 0.954581 0.232268 0.186620
-7.90999985 -19.30999947 -0.50999999 81 92 169 0.000000 0.000000 0.000000 0.000000 -60.708740 0.000000 46.000000 0.992443 -0.078441 0.094356
-7.90999985 -19.29999924 -0.51999998 81 92 169 0.000000 0.000000 0.000000 0.000000 -60.708740 0.000000 46.000000 0.973967 0.178118 0.140221
-7.92999983 -19.29999924 -0.46000001 81 92 169 0.000000 0.000000 0.000000 0.000000 -60.708740 0.000000 46.000000 0.991117 -0.106806 -0.079243
-7.86999989 -19.22999954 -0.56999999 81 92 169 0.000000 0.000000 0.000000 0.000000 -60.708740 0.000000 46.000000 0.965007 0.262086 0.008454
-7.88000011 -19.21999931 -0.56999999 81 92 169 0.000000 0.000000 0.000000 0.000000 -60.708740 0.000000 46.000000 0.830111 0.513298 -0.217809
-7.84999990 -19.27000046 -0.58999997 81 92 169 0.000000 0.000000 0.000000 0.000000 -60.708740 0.000000 46.000000 0.997110 0.011631 -0.075074
-7.86999989 -19.34000015 -0.66000003 81 92 169 0.000000 0.000000 0.000000 0.000000 -60.708740 0.000000 46.000000 0.996111 0.003182 0.088048
-7.86000013 -19.29999924 -0.63999999 81 92 169 0.000000 0.000000 0.000000 0.000000 -60.708740 0.000000 46.000000 0.877254 0.477631 -0.047900
-7.88000011 -19.29999924 -0.67000002 81 92 169 0.000000 0.000000 0.000000 0.000000 -60.708740 0.000000 46.000000 0.869887 0.210384 0.446134
-7.92999983 -19.32999992 -0.56000000 81 92 169 0.000000 0.000000 0.000000 0.000000 -60.708740 0.000000 46.000000 0.923993 0.306099 0.229218
-7.90000010 -19.28000069 -0.63999999 81 92 169 0.000000 0.000000 0.000000 0.000000 -60.708740 0.000000 46.000000 0.995698 -0.001065 0.092648
-7.88999987 -19.28000069 -0.61000001 81 92 169 0.000000 0.000000 0.000000 0.000000 -60.708740 0.000000 46.000000 0.934881 0.100886 0.340323
-7.90000010 -19.29000092 -0.63999999 81 92 169 0.000000 0.000000 0.000000 0.000000 -60.708740 0.000000 46.000000 0.937320 0.279942 0.207519
-7.88999987 -19.29000092 -0.67000002 81 92 169 0.000000 0.000000 0.000000 0.000000 -60.708740 0.000000 46.000000 0.875783 0.467180 0.121438
-7.88999987 -19.28000069 -0.64999998 81 92 169 0.000000 0.000000 0.000000 0.000000 -60.708740 0.000000 46.000000 0.926351 0.307838 -0.217047
-7.90000010 -19.31999969 -0.66000003 81 92 169 0.000000 0.000000 0.000000 0.000000 -60.708740 0.000000 46.000000 0.895220 0.429988 -0.117013
-7.90000010 -19.31999969 -0.66000003 81 92 169 0.000000 0.000000 0.000000 0.000000 -60.708740 0.000000 46.000000 0.895220 0.429988 -0.117013
-7.90000010 -19.31999969 -0.66000003 81 92 169 0.000000 0.000000 0.000000 0.000000 -60.708740 0.000000 46.000000 0.895220 0.429988 -0.117013
-7.92999983 -19.31999969 -0.61000001 81 92 169 0.000000 0.000000 0.000000 0.000000 -60.708740 0.000000 46.000000 0.935828 0.319250 -0.149349
-7.94999981 -19.29999924 -0.63999999 81 92 169 0.000000 0.000000 0.000000 0.000000 -60.708740 0.000000 46.000000 0.871637 0.426033 -0.242372
-7.84000015 -19.37000084 -0.40000001 81 92 169 0.000000 0.000000 0.000000 0.000000 -60.708740 0.000000 46.000000 0.811715 -0.558713 0.170174
-7.86999989 -19.37999916 -0.36000001 81 92 169 0.000000 0.000000 0.000000 0.000000 -60.708740 0.000000 46.000000 0.766543 -0.629607 0.126517
-7.86000013 -19.37000084 -0.38999999 81 92 169 0.000000 0.000000 0.000000 0.000000 -60.708740 0.000000 46.000000 0.946616 -0.307617 0.096378
-7.86000013 -19.36000061 -0.38000000 81 92 169 0.000000 0.000000 0.000000 0.000000 -60.708740 0.000000 46.000000 0.895756 -0.165348 0.412652
-7.84999990 -19.35000038 -0.36000001 81 92 169 0.000000 0.000000 0.000000 0.000000 -60.708740 0.000000 46.000000 0.985641 -0.084416 0.146241
-7.86000013 -19.37000084 -0.38000000 81 92 169 0.000000 0.000000 0.000000 0.000000 -60.708740 0.000000 46.000000 0.848868 -0.426762 0.311924
-7.86000013 -19.37999916 -0.38999999 81 92 169 0.000000 0.000000 0.000000 0.000000 -60.708740 0.000000 46.000000 0.913008 -0.312077 0.262726
-7.86000013 -19.36000061 -0.38000000 81 92 169 0.000000 0.000000 0.000000 0.000000 -60.708740 0.000000 46.000000 0.895756 -0.165348 0.412652
-7.86000013 -19.37999916 -0.38999999 81 92 169 0.000000 0.000000 0.000000 0.000000 -60.708740 0.000000 46.000000 0.913008 -0.312077 0.262726
-7.86999989 -19.37999916 -0.36000001 81 92 169 0.000000 0.000000 0.000000 0.000000 -60.708740 0.000000 46.000000 0.766543 -0.629607 0.126517
-7.88000011 -19.37999916 -0.40000001 81 92 169 0.000000 0.000000 0.000000 0.000000 -60.708740 0.000000 46.000000 0.979053 -0.202846 -0.017588
-7.86999989 -19.36000061 -0.43000001 81 92 169 0.000000 0.000000 0.000000 0.000000 -60.708740 0.000000 46.000000 0.769176 -0.572521 0.283881
-7.88000011 -19.38999939 -0.41000000 81 92 169 0.000000 0.000000 0.000000 0.000000 -60.708740 0.000000 46.000000 0.920203 -0.001283 0.391439
-7.84000015 -19.35000038 -0.47000000 81 92 169 0.000000 0.000000 0.000000 0.000000 -60.708740 0.000000 46.000000 0.897580 -0.416784 0.143670
-7.86000013 -19.37999916 -0.47000000 81 92 169 0.000000 0.000000 0.000000 0.000000 -60.708740 0.000000 46.000000 0.985302 -0.170816 0.001131
-7.86000013 -19.37000084 -0.44000000 81 92 169 0.000000 0.000000 0.000000 0.000000 -60.708740 0.000000 46.000000 0.901082 -0.291483 0.321075
-7.86999989 -19.37000084 -0.44000000 81 92 169 0.000000 0.000000 0.000000 0.000000 -60.708740 0.000000 46.000000 0.972648 0.003537 0.232257
-7.86000013 -19.37999916 -0.50999999 81 92 169 0.000000 0.000000 0.000000 0.000000 -60.708740 0.000000 46.000000 0.970216 -0.112875 0.214335
-7.86000013 -19.38999939 -0.44999999 81 92 169 0.000000 0.000000 0.000000 0.000000 -60.708740 0.000000 46.000000 0.963187 0.020806 0.268028
-7.86000013 -19.43000031 -0.41000000 81 92 169 0.000000 0.000000 0.000000 0.000000 -60.708740 0.000000 46.000000 0.975605 -0.054673 0.212616
-7.86999989 -19.43000031 -0.50999999 81 92 169 0.000000 0.000000 0.000000 0.000000 -60.708740 0.000000 46.000000 0.731332 -0.243777 0.636966
-7.90000010 -19.39999962 -0.43000001 81 92 169 0.000000 0.000000 0.000000 0.000000 -60.708740 0.000000 46.000000 0.647675 -0.395893 0.650988
-7.96000004 -19.37000084 -0.43000001 81 92 169 0.000000 0.000000 0.000000 0.000000 -60.708740 0.000000 46.000000 0.790110 -0.338161 0.511248
-7.94000006 -19.39999962 -0.38000000 81 92 169 0.000000 0.000000 0.000000 0.000000 -60.708740 0.000000 46.000000 0.612865 -0.514942 0.599359
-7.88999987 -19.40999985 -0.47999999 81 92 169 0.000000 0.000000 0.000000 0.000000 -60.708740 0.000000 46.000000 -0.702295 0.699300 -0.133271
-7.90000010 -19.42000008 -0.47000000 81 92 169 0.000000 0.000000 0.000000 0.000000 -60.708740 0.000000 46.000000 0.799955 -0.452288 0.394344
-7.90999985 -19.38999939 -0.47000000 81 92 169 0.000000 0.000000 0.000000 0.000000 -60.708740 0.000000 46.000000 0.831382 -0.555620 -0.009556
-7.88999987 -19.40999985 -0.47999999 81 92 169 0.000000 0.000000 0.000000 0.000000 -60.708740 0.000000 46.000000 -0.702295 0.699300 -0.133271
-7.90999985 -19.42000008 -0.51999998 81 92 169 0.000000 0.000000 0.000000 0.000000 -60.708740 0.000000 46.000000 0.774915 -0.629351 0.058511
-7.92999983 -19.40999985 -0.50000000 81 92 169 0.000000 0.000000 0.000000 0.000000 -60.708740 0.000000 46.000000 0.701238 -0.704203 0.111190
-7.88999987 -19.44000053 -0.50000000 81 92 169 0.000000 0.000000 0.000000 0.000000 -60.708740 0.000000 46.000000 0.714473 -0.484643 0.504628
-7.94999981 -19.45000076 -0.44999999 81 92 169 0.000000 0.000000 0.000000 0.000000 -60.708740 0.000000 46.000000 -0.510720 0.524116 -0.681518
-7.92999983 -19.46999931 -0.47999999 81 92 169 0.000000 0.000000 0.000000 0.000000 -60.708740 0.000000 46.000000 -0.503012 0.816415 -0.283630
-7.96000004 -19.50000000 -0.49000001 81 92 169 0.000000 0.000000 0.000000 0.000000 -60.708740 0.000000 46.000000 -0.555211 0.830730 0.040354
-7.88000011 -19.37999916 -0.52999997 81 92 169 0.000000 0.000000 0.000000 0.000000 -60.708740 0.000000 46.000000 0.804727 -0.556412 0.206930
-7.88000011 -19.37999916 -0.52999997 81 92 169 0.000000 0.000000 0.000000 0.000000 -60.708740 0.000000 46.000000 0.804727 -0.556412 0.206930
-7.86000013 -19.35000038 -0.55000001 81 92 169 0.000000 0.000000 0.000000 0.000000 -60.708740 0.000000 46.000000 0.974753 0.197938 0.103326
-7.88000011 -19.38999939 -0.68000001 81 92 169 0.000000 0.000000 0.000000 0.000000 -60.708740 0.000000 46.000000 0.956735 0.081123 0.279423
-7.88000011 -19.46999931 -0.62000000 81 92 169 0.000000 0.000000 0.000000 0.000000 -60.708740 0.000000 46.000000 0.748072 -0.401045 0.528725
-7.88000011 -19.44000053 -0.66000003 81 92 169 0.000000 0.000000 0.000000 0.000000 -60.708740 0.000000 46.000000 0.945980 -0.036922 0.322117
-7.90000010 -19.40999985 -0.54000002 81 92 169 0.000000 0.000000 0.000000 0.000000 -60.708740 0.000000 46.000000 0.955431 -0.294457 -0.021121
-7.88999987 -19.37000084 -0.66000003 81 92 169 0.000000 0.000000 0.000000 0.000000 -60.708740 0.000000 46.000000 0.933308 -0.334789 0.129816
-7.88999987 -19.40999985 -0.67000002 81 92 169 0.000000 0.000000 0.000000 0.000000 -60.708740 0.000000 46.000000 0.918733 0.057337 0.390695
-7.90000010 -19.40999985 -0.66000003 81 92 169 0.000000 0.000000 0.000000 0.000000 -60.708740 0.000000 46.000000 0.770490 -0.304686 0.559921
-7.92999983 -19.35000038 -0.67000002 81 92 169 0.000000 0.000000 0.000000 0.000000 -60.708740 0.000000 46.000000 0.883640 0.299565 0.359779
-7.92999983 -19.35000038 -0.67000002 81 92 169 0.000000 0.000000 0.000000 0.000000 -60.708740 0.000000 46.000000 0.883640 0.299565 0.359779
-7.94999981 -19.42000008 -0.67000002 81 92 169 0.000000 0.000000 0.000000 0.000000 -60.708740 0.000000 46.000000 0.659113 -0.406757 0.632549
-7.90000010 -19.44000053 -0.54000002 81 92 169 0.000000 0.000000 0.000000 0.000000 -60.708740 0.000000 46.000000 0.677398 -0.424414 0.600837
-7.92000008 -19.43000031 -0.56999999 81 92 169 0.000000 0.000000 0.000000 0.000000 -60.708740 0.000000 46.000000 0.772156 -0.547412 0.322668
-7.88999987 -19.46999931 -0.60000002 81 92 169 0.000000 0.000000 0.000000 0.000000 -60.708740 0.000000 46.000000 0.893342 -0.379486 0.240686
-7.90999985 -19.50000000 -0.58999997 81 92 169 0.000000 0.000000 0.000000 0.000000 -60.708740 0.000000 46.000000 0.579853 -0.535899 0.613664
-7.92000008 -19.48999977 -0.57999998 81 92 169 0.000000 0.000000 0.000000 0.000000 -60.708740 0.000000 46.000000 0.753498 -0.387373 0.531208
-7.94999981 -19.45999908 -0.58999997 81 92 169 0.000000 0.000000 0.000000 0.000000 -60.708740 0.000000 46.000000 -0.451366 0.777262 -0.438330
-7.94999981 -19.48999977 -0.52999997 81 92 169 0.000000 0.000000 0.000000 0.000000 -60.708740 0.000000 46.000000 0.767207 -0.638144 0.064531
-7.94999981 -19.47999954 -0.52999997 81 92 169 0.000000 0.000000 0.000000 0.000000 -60.708740 0.000000 46.000000 -0.367088 0.897817 -0.243251
-7.92999983 -19.50000000 -0.56999999 81 92 169 0.000000 0.000000 0.000000 0.000000 -60.708740 0.000000 46.000000 -0.460487 0.744371 -0.483594
-7.88999987 -19.45000076 -0.64999998 81 92 169 0.000000 0.000000 0.000000 0.000000 -60.708740 0.000000 46.000000 0.910647 -0.343121 0.230195
-7.88999987 -19.43000031 -0.67000002 81 92 169 0.000000 0.000000 0.000000 0.000000 -60.708740 0.000000 46.000000 0.996645 -0.029091 0.076499
-7.88999987 -19.45000076 -0.64999998 81 92 169 0.000000 0.000000 0.000000 0.000000 -60.708740 0.000000 46.000000 0.910647 -0.343121 0.230195
-7.88999987 -19.45000076 -0.67000002 81 92 169 0.000000 0.000000 0.000000 0.000000 -60.708740 0.000000 46.000000 0.804747 -0.592751 -0.032078
-7.88999987 -19.45000076 -0.64999998 81 92 169 0.000000 0.000000 0.000000 0.000000 -60.708740 0.000000 46.000000 0.910647 -0.343121 0.230195
-7.88999987 -19.46999931 -0.62000000 81 92 169 0.000000 0.000000 0.000000 0.000000 -60.708740 0.000000 46.000000 0.877216 -0.190186 0.440819
-7.92999983 -19.48999977 -0.63000000 81 92 169 0.000000 0.000000 0.000000 0.000000 -60.708740 0.000000 46.000000 0.453401 -0.667554 0.590593
-8.01000023 -19.23999977 -0.36000001 81 92 169 0.000000 0.000000 0.000000 0.000000 -60.708740 0.000000 46.000000 0.828614 0.551929 -0.093669
-7.98999977 -19.27000046 -0.37000000 81 92 169 0.000000 0.000000 0.000000 0.000000 -60.708740 0.000000 46.000000 0.936133 0.344613 -0.069979
-8.02999973 -19.27000046 -0.41999999 81 92 169 0.000000 0.000000 0.000000 0.000000 -60.708740 0.000000 46.000000 0.959022 0.281628 0.031016
-8.02999973 -19.28000069 -0.41999999 81 92 169 0.000000 0.000000 0.000000 0.000000 -60.708740 0.000000 46.000000 0.878472 0.452985 0.151960
-8.02999973 -19.28000069 -0.41999999 81 92 169 0.000000 0.000000 0.000000 0.000000 -60.708740 0.000000 46.000000 0.878472 0.452985 0.151960
-8.06999969 -19.29000092 -0.43000001 81 92 169 0.000000 0.000000 0.000000 0.000000 -60.708740 0.000000 46.000000 0.897952 0.230734 0.374759
-8.06000042 -19.31999969 -0.41000000 81 92 169 0.000000 0.000000 0.000000 0.000000 -60.708740 0.000000 46.000000 0.914214 0.097315 0.393373
-8.13000011 -19.32999992 -0.38999999 81 92 169 0.000000 0.000000 0.000000 0.000000 -60.708740 0.000000 46.000000 0.032677 0.998237 0.049543
-8.13000011 -19.29999924 -0.43000001 81 92 169 0.000000 0.000000 0.000000 0.000000 -60.708740 0.000000 46.000000 0.900129 0.288218 0.326648
-8.11999989 -19.32999992 -0.40000001 81 92 169 0.000000 0.000000 0.000000 0.000000 -60.708740 0.000000 46.000000 0.206220 0.939752 -0.272653
-8.10000038 -19.34000015 -0.47000000 81 92 169 0.000000 0.000000 0.000000 0.000000 -60.708740 0.000000 46.000000 -0.564001 0.805932 -0.179936
-8.10000038 -19.34000015 -0.51999998 81 92 169 0.000000 0.000000 0.000000 0.000000 -60.708740 0.000000 46.000000 0.065881 0.915611 -0.396630
-8.02999973 -19.30999947 -0.57999998 81 92 169 0.000000 0.000000 0.000000 0.000000 -60.708740 0.000000 46.000000 0.909982 0.372850 0.181425
-7.96999979 -19.26000023 -0.66000003 81 92 169 0.000000 0.000000 0.000000 0.000000 -60.708740 0.000000 46.000000 0.750339 0.611911 -0.250113
-8.01000023 -19.40999985 -0.38999999 81 92 169 0.000000 0.000000 0.000000 0.000000 -60.708740 0.000000 46.000000 -0.571957 0.783909 -0.241562
-7.98999977 -19.38999939 -0.41999999 81 92 169 0.000000 0.000000 0.000000 0.000000 -60.708740 0.000000 46.000000 0.791446 -0.320082 0.520730
-8.02000046 -19.37999916 -0.44999999 81 92 169 0.000000 0.000000 0.000000 0.000000 -60.708740 0.000000 46.000000 0.585992 -0.426628 0.688914
-8.02000046 -19.40999985 -0.44999999 81 92 169 0.000000 0.000000 0.000000 0.000000 -60.708740 0.000000 46.000000 -0.605505 0.794638 -0.043754
-8.01000023 -19.44000053 -0.38000000 81 92 169 0.000000 0.000000 0.000000 0.000000 -60.708740 0.000000 46.000000 -0.281137 0.802576 -0.526150
-7.98000002 -19.50000000 -0.41999999 81 92 169 0.000000 0.000000 0.000000 0.000000 -60.708740 0.000000 46.000000 0.351779 -0.695378 0.626658
-7.98999977 -19.50000000 -0.43000001 81 92 169 0.000000 0.000000 0.000000 0.000000 -60.708740 0.000000 46.000000 -0.229137 0.888460 -0.397663
-8.03999996 -19.45999908 -0.36000001 81 92 169 0.000000 0.000000 0.000000 0.000000 -60.708740 0.000000 46.000000 -0.284413 0.868448 -0.406087
-8.05000019 -19.45999908 -0.38000000 81 92 169 0.000000 0.000000 0.000000 0.000000 -60.708740 0.000000 46.000000 -0.363227 0.893983 -0.262413
-8.03999996 -19.44000053 -0.36000001 81 92 169 0.000000 0.000000 0.000000 0.000000 -60.708740 0.000000 46.000000 0.755895 -0.520801 0.396723
-8.02000046 -19.45000076 -0.43000001 81 92 169 0.000000 0.000000 0.000000 0.000000 -60.708740 0.000000 46.000000 -0.624887 0.774158 -0.100977
-8.03999996 -19.45999908 -0.40000001 81 92 169 0.000000 0.000000 0.000000 0.000000 -60.708740 0.000000 46.000000 -0.421182 0.905609 -0.049788
-8.03999996 -19.46999931 -0.38000000 81 92 169 0.000000 0.000000 0.000000 0.000000 -60.708740 0.000000 46.000000 -0.363316 0.738037 -0.568598
-8.05000019 -19.46999931 -0.37000000 81 92 169 0.000000 0.000000 0.000000 0.000000 -60.708740 0.000000 46.000000 0.013562 0.955504 -0.294665
-8.02999973 -19.47999954 -0.38999999 81 92 169 0.000000 0.000000 0.000000 0.000000 -60.708740 0.000000 46.000000 -0.048511 0.857947 -0.511442
-8.03999996 -19.47999954 -0.41999999 81 92 169 0.000000 0.000000 0.000000 0.000000 -60.708740 0.000000 46.000000 -0.041534 0.997883 -0.050054
-8.05000019 -19.47999954 -0.41999999 81 92 169 0.000000 0.000000 0.000000 0.000000 -60.708740 0.000000 46.000000 -0.199272 0.944135 -0.262489
-8.05000019 -19.47999954 -0.43000001 81 92 169 0.000000 0.000000 0.000000 0.000000 -60.708740 0.000000 46.000000 -0.283552 0.859852 -0.424562
-8.03999996 -19.46999931 -0.43000001 81 92 169 0.000000 0.000000 0.000000 0.000000 -60.708740 0.000000 46.000000 -0.610248 0.778179 -0.148439
-8.01000023 -19.45000076 -0.44000000 81 92 169 0.000000 0.000000 0.000000 0.000000 -60.708740 0.000000 46.000000 -0.349798 0.861397 -0.368289
-7.98999977 -19.45000076 -0.44999999 81 92 169 0.000000 0.000000 0.000000 0.000000 -60.708740 0.000000 46.000000 0.742529 -0.521911 0.419833
-7.98999977 -19.43000031 -0.44999999 81 92 169 0.000000 0.000000 0.000000 0.000000 -60.708740 0.000000 46.000000 0.524450 -0.554804 0.645867
-7.98000002 -19.47999954 -0.50999999 81 92 169 0.000000 0.000000 0.000000 0.000000 -60.708740 0.000000 46.000000 0.730716 -0.594618 0.335384
-7.98000002 -19.48999977 -0.49000001 81 92 169 0.000000 0.000000 0.000000 0.000000 -60.708740 0.000000 46.000000 -0.455705 0.881411 -0.124283
-8.02999973 -19.50000000 -0.47000000 81 92 169 0.000000 0.000000 0.000000 0.000000 -60.708740 0.000000 46.000000 -0.555098 0.792773 -0.251749
-8.05000019 -19.50000000 -0.44999999 81 92 169 0.000000 0.000000 0.000000 0.000000 -60.708740 0.000000 46.000000 -0.197111 0.869956 -0.452022
-8.02999973 -19.50000000 -0.47000000 81 92 169 0.000000 0.000000 0.000000 0.000000 -60.708740 0.000000 46.000000 -0.555098 0.792773 -0.251749
-8.05000019 -19.47999954 -0.44000000 81 92 169 0.000000 0.000000 0.000000 0.000000 -60.708740 0.000000 46.000000 -0.305974 0.929203 -0.207273
-8.02000046 -19.48999977 -0.47000000 81 92 169 0.000000 0.000000 0.000000 0.000000 -60.708740 0.000000 46.000000 0.752294 -0.610945 0.246577
-8.03999996 -19.50000000 -0.46000001 81 92 169 0.000000 0.000000 0.000000 0.000000 -60.708740 0.000000 46.000000 -0.085396 0.880560 -0.466179
-8.02999973 -19.50000000 -0.47000000 81 92 169 0.000000 0.000000 0.000000 0.000000 -60.708740 0.000000 46.000000 -0.555098 0.792773 -0.251749
-8.03999996 -19.50000000 -0.46000001 81 92 169 0.000000 0.000000 0.000000 0.000000 -60.708740 0.000000 46.000000 -0.085396 0.880560 -0.466179
-8.10999966 -19.37999916 -0.37000000 81 92 169 0.000000 0.000000 0.000000 0.000000 -60.708740 0.000000 46.000000 -0.116200 0.990578 0.072481
-8.10000038 -19.37999916 -0.38999999 81 92 169 0.000000 0.000000 0.000000 0.000000 -60.708740 0.000000 46.000000 -0.209813 0.890605 -0.403487
-8.11999989 -19.37999916 -0.43000001 81 92 169 0.000000 0.000000 0.000000 0.000000 -60.708740 0.000000 46.000000 0.124655 0.973318 -0.192649
-8.13000011 -19.40999985 -0.38999999 81 92 169 0.000000 0.000000 0.000000 0.000000 -60.708740 0.000000 46.000000 0.022882 0.994809 0.099154
-8.07999992 -19.37000084 -0.46000001 81 92 169 0.000000 0.000000 0.000000 0.000000 -60.708740 0.000000 46.000000 -0.558160 0.828101 -0.052020
-8.09000015 -19.38999939 -0.44999999 81 92 169 0.000000 0.000000 0.000000 0.000000 -60.708740 0.000000 46.000000 -0.285917 0.726771 -0.624544
-8.11999989 -19.37999916 -0.44000000 81 92 169 0.000000 0.000000 0.000000 0.000000 -60.708740 0.000000 46.000000 -0.048763 0.981201 -0.186726
-8.06000042 -19.46999931 -0.37000000 81 92 169 0.000000 0.000000 0.000000 0.000000 -60.708740 0.000000 46.000000 -0.118325 0.876746 -0.466172
-8.07999992 -19.50000000 -0.43000001 81 92 169 0.000000 0.000000 0.000000 0.000000 -60.708740 0.000000 46.000000 -0.023028 0.968370 -0.248455
-8.06999969 -19.47999954 -0.40000001 81 92 169 0.000000 0.000000 0.000000 0.000000 -60.708740 0.000000 46.000000 0.103713 0.933421 -0.343466
-8.07999992 -19.50000000 -0.43000001 81 92 169 0.000000 0.000000 0.000000 0.000000 -60.708740 0.000000 46.000000 -0.023028 0.968370 -0.248455
-8.06000042 -19.47999954 -0.41000000 81 92 169 0.000000 0.000000 0.000000 0.000000 -60.708740 0.000000 46.000000 -0.174113 0.972239 -0.156321
-8.06000042 -19.48999977 -0.43000001 81 92 169 0.000000 0.000000 0.000000 0.000000 -60.708740 0.000000 46.000000 -0.266547 0.812111 -0.519065
-8.06000042 -19.47999954 -0.41000000 81 92 169 0.000000 0.000000 0.000000 0.000000 -60.708740 0.000000 46.000000 -0.174113 0.972239 -0.156321
-8.06999969 -19.50000000 -0.43000001 81 92 169 0.000000 0.000000 0.000000 0.000000 -60.708740 0.000000 46.000000 -0.408736 0.809458 -0.421559
-8.06999969 -19.50000000 -0.44999999 81 92 169 0.000000 0.000000 0.000000 0.000000 -60.708740 0.000000 46.000000 0.170819 0.877453 -0.448216
-8.06000042 -19.48999977 -0.44000000 81 92 169 0.000000 0.000000 0.000000 0.000000 -60.708740 0.000000 46.000000 0.048978 0.922634 -0.382555
-8.06000042 -19.48999977 -0.44000000 81 92 169 0.000000 0.000000 0.000000 0.000000 -60.708740 0.000000 46.000000 0.048978 0.922634 -0.382555
-8.13000011 -19.48999977 -0.47999999 81 92 169 0.000000 0.000000 0.000000 0.000000 -60.708740 0.000000 46.000000 0.202886 0.852121 -0.482418
-8.10999966 -19.50000000 -0.47000000 81 92 169 0.000000 0.000000 0.000000 0.000000 -60.708740 0.000000 46.000000 -0.150659 0.981120 0.121262
-8.11999989 -19.50000000 -0.50999999 81 92 169 0.000000 0.000000 0.000000 0.000000 -60.708740 0.000000 46.000000 -0.092664 0.995324 0.027254
-8.05000019 -19.39999962 -0.66000003 81 92 169 0.000000 0.000000 0.000000 0.000000 -60.708740 0.000000 46.000000 0.039950 0.989611 -0.138112
-8.00000000 -19.43000031 -0.56999999 81 92 169 0.000000 0.000000 0.000000 0.000000 -60.708740 0.000000 46.000000 -0.515637 0.774263 -0.366926
-8.01000023 -19.44000053 -0.58999997 81 92 169 0.000000 0.000000 0.000000 0.000000 -60.708740 0.000000 46.000000 -0.214866 0.783720 -0.582766
-7.96999979 -19.47999954 -0.55000001 81 92 169 0.000000 0.000000 0.000000 0.000000 -60.708740 0.000000 46.000000 -0.309009 0.859383 -0.407400
-7.98000002 -19.48999977 -0.56000000 81 92 169 0.000000 0.000000 0.000000 0.000000 -60.708740 0.000000 46.000000 -0.477577 0.878039 -0.031117
-8.00000000 -19.50000000 -0.55000001 81 92 169 0.000000 0.000000 0.000000 0.000000 -60.708740 0.000000 46.000000 -0.644937 0.762198 -0.055771
-7.98000002 -19.50000000 -0.56999999 81 92 169 0.000000 0.000000 0.000000 0.000000 -60.708740 0.000000 46.000000 -0.380550 0.798030 -0.467257
-8.03999996 -19.44000053 -0.66000003 81 92 169 0.000000 0.000000 0.000000 0.000000 -60.708740 0.000000 46.000000 -0.069903 0.996922 0.035489
-8.03999996 -19.43000031 -0.66000003 81 92 169 0.000000 0.000000 0.000000 0.000000 -60.708740 0.000000 46.000000 -0.421232 0.899841 -0.113355
-8.06999969 -19.37000084 -0.58999997 81 92 169 0.000000 0.000000 0.000000 0.000000 -60.708740 0.000000 46.000000 -0.511402 0.843442 -0.164538
-8.09000015 -19.42000008 -0.60000002 81 92 169 0.000000 0.000000 0.000000 0.000000 -60.708740 0.000000 46.000000 -0.113553 0.993311 0.020947
-8.10000038 -19.35000038 -0.56999999 81 92 169 0.000000 0.000000 0.000000 0.000000 -60.708740 0.000000 46.000000 0.494328 0.837144 -0.234156
-8.11999989 -19.40999985 -0.58999997 81 92 169 0.000000 0.000000 0.000000 0.000000 -60.708740 0.000000 46.000000 0.419341 0.817955 -0.393830
-8.06000042 -19.35000038 -0.64999998 81 92 169 0.000000 0.000000 0.000000 0.000000 -60.708740 0.000000 46.000000 0.829349 0.405986 0.383870
-8.06000042 -19.39999962 -0.64999998 81 92 169 0.000000 0.000000 0.000000 0.000000 -60.708740 0.000000 46.000000 0.037702 0.932145 -0.360117
-8.06000042 -19.39999962 -0.64999998 81 92 169 0.000000 0.000000 0.000000 0.000000 -60.708740 0.000000 46.000000 0.037702 0.932145 -0.360117
-8.11999989 -19.42000008 -0.68000001 81 92 169 0.000000 0.000000 0.000000 0.000000 -60.708740 0.000000 46.000000 0.684142 0.717076 -0.133235
-8.13000011 -19.40999985 -0.64999998 81 92 169 0.000000 0.000000 0.000000 0.000000 -60.708740 0.000000 46.000000 0.772967 0.626848 0.097899
-8.07999992 -19.43000031 -0.56000000 81 92 169 0.000000 0.000000 0.000000 0.000000 -60.708740 0.000000 46.000000 -0.315284 0.945853 0.077186
-8.10000038 -19.43000031 -0.52999997 81 92 169 0.000000 0.000000 0.000000 0.000000 -60.708740 0.000000 46.000000 -0.155862 0.955152 -0.251777
-8.10000038 -19.43000031 -0.52999997 81 92 169 0.000000 0.000000 0.000000 0.000000 -60.708740 0.000000 46.000000 -0.155862 0.955152 -0.251777
-8.06000042 -19.44000053 -0.63999999 81 92 169 0.000000 0.000000 0.000000 0.000000 -60.708740 0.000000 46.000000 -0.068784 0.966731 -0.246373
-7.84000015 -19.57999992 -0.06000000 81 92 169 0.000000 0.000000 0.000000 0.000000 -60.708740 0.000000 46.000000 0.700141 -0.553793 0.450684
-7.84000015 -19.59000015 -0.07000000 81 92 169 0.000000 0.000000 0.000000 0.000000 -60.708740 0.000000 46.000000 -0.718647 0.672678 -0.176214
-7.82999992 -19.57999992 -0.08000000 81 92 169 0.000000 0.000000 0.000000 0.000000 -60.708740 0.000000 46.000000 0.818204 -0.452792 0.354290
-7.82000017 -19.56999969 -0.14000000 81 92 169 0.000000 0.000000 0.000000 0.000000 -60.708740 0.000000 46.000000 0.685029 -0.645978 0.336820
-7.82999992 -19.57999992 -0.12000000 81 92 169 0.000000 0.000000 0.000000 0.000000 -60.708740 0.000000 46.000000 -0.666336 0.724545 -0.176158
-7.84000015 -19.57999992 -0.12000000 81 92 169 0.000000 0.000000 0.000000 0.000000 -60.708740 0.000000 46.000000 -0.569291 0.698751 -0.433192
-7.84999990 -19.59000015 -0.12000000 81 92 169 0.000000 0.000000 0.000000 0.000000 -60.708740 0.000000 46.000000 0.742101 -0.618681 0.257916
-7.82000017 -19.62000084 -0.18000001 81 92 169 0.000000 0.000000 0.000000 0.000000 -60.708740 0.000000 46.000000 -0.672069 0.728948 -0.130223
-7.86999989 -19.62000084 -0.14000000 81 92 169 0.000000 0.000000 0.000000 0.000000 -60.708740 0.000000 46.000000 -0.554410 0.796673 -0.240710
-7.86000013 -19.64999962 -0.18000001 81 92 169 0.000000 0.000000 0.000000 0.000000 -60.708740 0.000000 46.000000 0.747127 -0.643655 0.165859
-7.88999987 -19.62000084 -0.16000000 81 92 169 0.000000 0.000000 0.000000 0.000000 -60.708740 0.000000 46.000000 -0.521602 0.853162 0.006739
-7.82999992 -19.52000046 -0.23000000 81 92 169 0.000000 0.000000 0.000000 0.000000 -60.708740 0.000000 46.000000 -0.635843 0.749222 -0.185390
-7.82999992 -19.56999969 -0.22000000 81 92 169 0.000000 0.000000 0.000000 0.000000 -60.708740 0.000000 46.000000 -0.599578 0.783831 -0.161599
-7.84999990 -19.51000023 -0.20999999 81 92 169 0.000000 0.000000 0.000000 0.000000 -60.708740 0.000000 46.000000 -0.439041 0.873617 -0.209847
-7.84999990 -19.52000046 -0.22000000 81 92 169 0.000000 0.000000 0.000000 0.000000 -60.708740 0.000000 46.000000 -0.646933 0.731113 -0.216684
-7.86999989 -19.52000046 -0.27000001 81 92 169 0.000000 0.000000 0.000000 0.000000 -60.708740 0.000000 46.000000 0.685311 -0.639515 0.348380
-7.84999990 -19.54000092 -0.27000001 81 92 169 0.000000 0.000000 0.000000 0.000000 -60.708740 0.000000 46.000000 0.798692 -0.347327 0.491380
-7.82000017 -19.52000046 -0.31000000 81 92 169 0.000000 0.000000 0.000000 0.000000 -60.708740 0.000000 46.000000 0.942740 -0.312459 0.116669
-7.80999994 -19.51000023 -0.28000000 81 92 169 0.000000 0.000000 0.000000 0.000000 -60.708740 0.000000 46.000000 0.872159 -0.465829 0.149472
-7.82000017 -19.52000046 -0.31999999 81 92 169 0.000000 0.000000 0.000000 0.000000 -60.708740 0.000000 46.000000 0.856721 -0.426054 0.290701
-7.84000015 -19.57999992 -0.28000000 81 92 169 0.000000 0.000000 0.000000 0.000000 -60.708740 0.000000 46.000000 -0.381171 0.830352 -0.406477
-7.80999994 -19.55999947 -0.28999999 81 92 169 0.000000 0.000000 0.000000 0.000000 -60.708740 0.000000 46.000000 0.828318 -0.460526 0.319068
-7.84000015 -19.57999992 -0.28999999 81 92 169 0.000000 0.000000 0.000000 0.000000 -60.708740 0.000000 46.000000 -0.719011 0.639298 -0.272618
-7.84000015 -19.59000015 -0.33000001 81 92 169 0.000000 0.000000 0.000000 0.000000 -60.708740 0.000000 46.000000 -0.556922 0.699893 -0.447200
-7.82000017 -19.56999969 -0.33000001 81 92 169 0.000000 0.000000 0.000000 0.000000 -60.708740 0.000000 46.000000 -0.690304 0.638083 -0.341072
-7.82999992 -19.57999992 -0.34000000 81 92 169 0.000000 0.000000 0.000000 0.000000 -60.708740 0.000000 46.000000 -0.582589 0.801987 -0.131935
-7.88000011 -19.54999924 -0.28999999 81 92 169 0.000000 0.000000 0.000000 0.000000 -60.708740 0.000000 46.000000 0.697513 -0.709311 0.101751
-7.88000011 -19.53000069 -0.28000000 81 92 169 0.000000 0.000000 0.000000 0.000000 -60.708740 0.000000 46.000000 0.900302 -0.294187 0.320797
-7.86999989 -19.54000092 -0.28999999 81 92 169 0.000000 0.000000 0.000000 0.000000 -60.708740 0.000000 46.000000 0.875317 -0.377737 0.301886
-7.84999990 -19.54999924 -0.31000000 81 92 169 0.000000 0.000000 0.000000 0.000000 -60.708740 0.000000 46.000000 0.712614 -0.701544 -0.004151
-7.84999990 -19.54999924 -0.34000000 81 92 169 0.000000 0.000000 0.000000 0.000000 -60.708740 0.000000 46.000000 0.859511 -0.509085 0.045528
-7.84999990 -19.54000092 -0.33000001 81 92 169 0.000000 0.000000 0.000000 0.000000 -60.708740 0.000000 46.000000 0.833075 -0.553118 0.006795
-7.84999990 -19.54000092 -0.33000001 81 92 169 0.000000 0.000000 0.000000 0.000000 -60.708740 0.000000 46.000000 0.833075 -0.553118 0.006795
-7.84999990 -19.59000015 -0.28000000 81 92 169 0.000000 0.000000 0.000000 0.000000 -60.708740 0.000000 46.000000 0.726771 -0.624544 0.285917
-7.86999989 -19.56999969 -0.34999999 81 92 169 0.000000 0.000000 0.000000 0.000000 -60.708740 0.000000 46.000000 0.741015 -0.669626 -0.049972
-7.86000013 -19.55999947 -0.34000000 81 92 169 0.000000 0.000000 0.000000 0.000000 -60.708740 0.000000 46.000000 0.711058 -0.633664 0.304739
-7.82999992 -19.62999916 -0.25999999 81 92 169 0.000000 0.000000 0.000000 0.000000 -60.708740 0.000000 46.000000 0.758789 -0.467073 0.453962
-7.82000017 -19.60000038 -0.31000000 81 92 169 0.000000 0.000000 0.000000 0.000000 -60.708740 0.000000 46.000000 0.687838 -0.406073 0.601651
-7.82000017 -19.61000061 -0.31999999 81 92 169 0.000000 0.000000 0.000000 0.000000 -60.708740 0.000000 46.000000 -0.688881 0.720787 0.076865
-7.84999990 -19.65999985 -0.28999999 81 92 169 0.000000 0.000000 0.000000 0.000000 -60.708740 0.000000 46.000000 -0.528995 0.834241 -0.155587
-7.84999990 -19.65999985 -0.34000000 81 92 169 0.000000 0.000000 0.000000 0.000000 -60.708740 0.000000 46.000000 -0.428336 0.901545 -0.061191
-7.88000011 -19.65999985 -0.34000000 81 92 169 0.000000 0.000000 0.000000 0.000000 -60.708740 0.000000 46.000000 -0.126141 0.891494 -0.435117
-7.88000011 -19.63999939 -0.33000001 81 92 169 0.000000 0.000000 0.000000 0.000000 -60.708740 0.000000 46.000000 -0.301386 0.932193 -0.200457
-7.84999990 -19.63999939 -0.34999999 81 92 169 0.000000 0.000000 0.000000 0.000000 -60.708740 0.000000 46.000000 0.825289 -0.463734 0.322256
-7.90999985 -19.64999962 -0.34999999 81 92 169 0.000000 0.000000 0.000000 0.000000 -60.708740 0.000000 46.000000 -0.519464 0.850675 0.080680
-7.82999992 -19.68000031 -0.31000000 81 92 169 0.000000 0.000000 0.000000 0.000000 -60.708740 0.000000 46.000000 -0.399737 0.820177 -0.409292
-7.88000011 -19.69000053 -0.31000000 81 92 169 0.000000 0.000000 0.000000 0.000000 -60.708740 0.000000 46.000000 -0.391665 0.875575 -0.282785
-7.88999987 -19.68000031 -0.19000000 81 92 169 0.000000 0.000000 0.000000 0.000000 -60.708740 0.000000 46.000000 -0.302981 0.840578 -0.449033
-7.90999985 -19.69000053 -0.27000001 81 92 169 0.000000 0.000000 0.000000 0.000000 -60.708740 0.000000 46.000000 -0.186924 0.926188 -0.327469
-7.82999992 -19.51000023 -0.36000001 81 92 169 0.000000 0.000000 0.000000 0.000000 -60.708740 0.000000 46.000000 0.732935 -0.680286 0.004157
-7.88000011 -19.54000092 -0.38000000 81 92 169 0.000000 0.000000 0.000000 0.000000 -60.708740 0.000000 46.000000 0.893365 -0.424527 0.147227
-7.86999989 -19.52000046 -0.38000000 81 92 169 0.000000 0.000000 0.000000 0.000000 -60.708740 0.000000 46.000000 0.738900 -0.665158 0.107664
-7.86999989 -19.52000046 -0.38000000 81 92 169 0.000000 0.000000 0.000000 0.000000 -60.708740 0.000000 46.000000 0.738900 -0.665158 0.107664
-7.86999989 -19.56999969 -0.37000000 81 92 169 0.000000 0.000000 0.000000 0.000000 -60.708740 0.000000 46.000000 -0.611179 0.791345 0.015245
-7.88000011 -19.59000015 -0.37000000 81 92 169 0.000000 0.000000 0.000000 0.000000 -60.708740 0.000000 46.000000 -0.634932 0.743600 -0.209574
-7.86999989 -19.56999969 -0.37000000 81 92 169 0.000000 0.000000 0.000000 0.000000 -60.708740 0.000000 46.000000 -0.611179 0.791345 0.015245
-7.88000011 -19.57999992 -0.36000001 81 92 169 0.000000 0.000000 0.000000 0.000000 -60.708740 0.000000 46.000000 -0.709072 0.703366 0.049935
-7.86999989 -19.57999992 -0.36000001 81 92 169 0.000000 0.000000 0.000000 0.000000 -60.708740 0.000000 46.000000 -0.636886 0.770674 0.020904
-7.88000011 -19.59000015 -0.38000000 81 92 169 0.000000 0.000000 0.000000 0.000000 -60.708740 0.000000 46.000000 -0.402098 0.872476 -0.277675
-7.86000013 -19.57999992 -0.41000000 81 92 169 0.000000 0.000000 0.000000 0.000000 -60.708740 0.000000 46.000000 -0.484025 0.874498 0.031184
-7.84999990 -19.54999924 -0.47999999 81 92 169 0.000000 0.000000 0.000000 0.000000 -60.708740 0.000000 46.000000 0.732085 -0.662362 0.159149
-7.88000011 -19.56999969 -0.46000001 81 92 169 0.000000 0.000000 0.000000 0.000000 -60.708740 0.000000 46.000000 0.880301 -0.455229 0.133553
-7.88000011 -19.59000015 -0.47999999 81 92 169 0.000000 0.000000 0.000000 0.000000 -60.708740 0.000000 46.000000 -0.702312 0.657721 -0.272325
-7.86000013 -19.55999947 -0.47000000 81 92 169 0.000000 0.000000 0.000000 0.000000 -60.708740 0.000000 46.000000 -0.414733 0.905248 -0.092316
-7.88000011 -19.56999969 -0.46000001 81 92 169 0.000000 0.000000 0.000000 0.000000 -60.708740 0.000000 46.000000 0.880301 -0.455229 0.133553
-7.86999989 -19.59000015 -0.50000000 81 92 169 0.000000 0.000000 0.000000 0.000000 -60.708740 0.000000 46.000000 -0.666180 0.548717 -0.505088
-7.86999989 -19.59000015 -0.50000000 81 92 169 0.000000 0.000000 0.000000 0.000000 -60.708740 0.000000 46.000000 -0.666180 0.548717 -0.505088
-7.82000017 -19.60000038 -0.40000001 81 92 169 0.000000 0.000000 0.000000 0.000000 -60.708740 0.000000 46.000000 0.765689 -0.642955 0.018131
-7.80999994 -19.67000008 -0.41000000 81 92 169 0.000000 0.000000 0.000000 0.000000 -60.708740 0.000000 46.000000 0.681886 -0.551205 0.480838
-7.86999989 -19.61000061 -0.41000000 81 92 169 0.000000 0.000000 0.000000 0.000000 -60.708740 0.000000 46.000000 -0.540813 0.819551 -0.189360
-7.86999989 -19.61000061 -0.41999999 81 92 169 0.000000 0.000000 0.000000 0.000000 -60.708740 0.000000 46.000000 -0.453725 0.886509 -0.090745
-7.86999989 -19.67000008 -0.38000000 81 92 169 0.000000 0.000000 0.000000 0.000000 -60.708740 0.000000 46.000000 -0.374377 0.817257 -0.438101
-7.82000017 -19.62999916 -0.47000000 81 92 169 0.000000 0.000000 0.000000 0.000000 -60.708740 0.000000 46.000000 -0.613916 0.566562 -0.549650
-7.82999992 -19.60000038 -0.47000000 81 92 169 0.000000 0.000000 0.000000 0.000000 -60.708740 0.000000 46.000000 0.674522 -0.387561 0.628344
-7.84000015 -19.62000084 -0.50000000 81 92 169 0.000000 0.000000 0.000000 0.000000 -60.708740 0.000000 46.000000 -0.618963 0.578486 -0.531262
