//X Y Z R G B PointSourceId ScanDirectionFlag NumberOfReturns ReturnNumber GpsTime Intensity Classification Nx Ny Nz
1.02999997 2.50000000 -0.01000000 25 217 134 97.000000 1.000000 4.000000 1.000000 -60.708740 114.000000 238.000000 -0.347600 0.687041 0.638083
1.03999996 2.48000002 0.00000000 25 217 134 97.000000 1.000000 4.000000 1.000000 -60.708740 114.000000 238.000000 -0.287045 0.781840 0.553473
1.00999999 2.49000001 -0.02000000 25 217 134 97.000000 1.000000 4.000000 1.000000 -60.708740 114.000000 238.000000 -0.331521 0.903212 0.272584
1.00000000 2.48000002 -0.01000000 25 217 134 97.000000 1.000000 4.000000 1.000000 -60.708740 114.000000 238.000000 -0.262787 0.938526 0.223856
0.99000001 2.48000002 -0.01000000 25 217 134 97.000000 1.000000 4.000000 1.000000 -60.708740 114.000000 238.000000 -0.060212 0.847167 0.527904
1.00999999 2.49000001 -0.01000000 25 217 134 97.000000 1.000000 4.000000 1.000000 -60.708740 114.000000 238.000000 -0.344547 0.920210 0.185743
1.07000005 2.46000004 0.04000000 25 217 134 97.000000 1.000000 4.000000 1.000000 -60.708740 114.000000 238.000000 0.004124 0.608975 0.793179
1.07000005 2.46000004 0.04000000 25 217 134 97.000000 1.000000 4.000000 1.000000 -60.708740 114.000000 238.000000 0.004124 0.608975 0.793179
1.07000005 2.46000004 0.04000000 25 217 134 97.000000 1.000000 4.000000 1.000000 -60.708740 114.000000 238.000000 0.004124 0.608975 0.793179
1.05999994 2.45000005 0.01000000 25 217 134 97.000000 1.000000 4.000000 1.000000 -60.708740 114.000000 238.000000 -0.058045 0.811212 0.581864
1.08000004 2.40000010 0.06000000 25 217 134 97.000000 1.000000 4.000000 1.000000 -60.708740 114.000000 238.000000 -0.500520 0.779126 0.377415
1.08000004 2.40000010 0.06000000 25 217 134 97.000000 1.000000 4.000000 1.000000 -60.708740 114.000000 238.000000 -0.500520 0.779126 0.377415
1.05999994 2.42000008 0.06000000 25 217 134 97.000000 1.000000 4.000000 1.000000 -60.708740 114.000000 238.000000 0.724429 -0.495662 -0.479085
1.01999998 2.45000005 0.05000000 25 217 134 97.000000 1.000000 4.000000 1.000000 -60.708740 114.000000 238.000000 -0.450018 0.456564 0.767485
1.01999998 2.45000005 0.00000000 25 217 134 97.000000 1.000000 4.000000 1.000000 -60.708740 114.000000 238.000000 -0.318324 0.498866 0.806104
1.01999998 2.44000006 0.01000000 25 217 134 97.000000 1.000000 4.000000 1.000000 -60.708740 114.000000 238.000000 -0.149673 0.463552 0.873337
1.03999996 2.41000009 0.03000000 25 217 134 97.000000 1.000000 4.000000 1.000000 -60.708740 114.000000 238.000000 -0.126463 0.644218 0.754315
1.01999998 2.43000007 0.04000000 25 217 134 97.000000 1.000000 4.000000 1.000000 -60.708740 114.000000 238.000000 0.703149 -0.326404 -0.631697
1.03999996 2.41000009 0.03000000 25 217 134 97.000000 1.000000 4.000000 1.000000 -60.708740 114.000000 238.000000 -0.126463 0.644218 0.754315
1.01999998 2.42000008 0.04000000 25 217 134 97.000000 1.000000 4.000000 1.000000 -60.708740 114.000000 238.000000 0.723251 -0.220256 -0.654519
1.02999997 2.43000007 0.03000000 25 217 134 97.000000 1.000000 4.000000 1.000000 -60.708740 114.000000 238.000000 -0.450018 0.456564 0.767485
1.04999995 2.41000009 0.03000000 25 217 134 97.000000 1.000000 4.000000 1.000000 -60.708740 114.000000 238.000000 -0.266022 0.785474 0.558804
1.02999997 2.42000008 0.00000000 25 217 134 97.000000 1.000000 4.000000 1.000000 -60.708740 114.000000 238.000000 -0.631320 0.720824 0.286092
1.01999998 2.43000007 0.02000000 25 217 134 97.000000 1.000000 4.000000 1.000000 -60.708740 114.000000 238.000000 -0.244540 0.418568 0.874643
1.01999998 2.43000007 0.02000000 25 217 134 97.000000 1.000000 4.000000 1.000000 -60.708740 114.000000 238.000000 -0.244540 0.418568 0.874643
1.07000005 2.39000010 0.06000000 25 217 134 97.000000 1.000000 4.000000 1.000000 -60.708740 114.000000 238.000000 0.645389 -0.312180 -0.697149
1.08000004 2.38000011 0.04000000 25 217 134 97.000000 1.000000 4.000000 1.000000 -60.708740 114.000000 238.000000 -0.315137 0.423805 0.849163
1.09000003 2.38000011 0.04000000 25 217 134 97.000000 1.000000 4.000000 1.000000 -60.708740 114.000000 238.000000 0.676838 -0.344127 -0.650743
1.09000003 2.35999990 0.04000000 25 217 134 97.000000 1.000000 4.000000 1.000000 -60.708740 114.000000 238.000000 -0.592720 0.061120 0.803086
1.07000005 2.39000010 0.06000000 25 217 134 97.000000 1.000000 4.000000 1.000000 -60.708740 114.000000 238.000000 0.645389 -0.312180 -0.697149
1.05999994 2.36999989 0.00000000 25 217 134 97.000000 1.000000 4.000000 1.000000 -60.708740 114.000000 238.000000 -0.516850 0.510160 0.687461
1.07000005 2.36999989 0.00000000 25 217 134 97.000000 1.000000 4.000000 1.000000 -60.708740 114.000000 238.000000 0.749275 -0.209425 -0.628274
1.09000003 2.39000010 -0.02000000 25 217 134 97.000000 1.000000 4.000000 1.000000 -60.708740 114.000000 238.000000 0.120312 0.936812 0.328493
1.07000005 2.38000011 0.00000000 25 217 134 97.000000 1.000000 4.000000 1.000000 -60.708740 114.000000 238.000000 -0.369601 0.609430 0.701420
1.02999997 2.39000010 0.01000000 25 217 134 97.000000 1.000000 4.000000 1.000000 -60.708740 114.000000 238.000000 -0.301770 0.261342 0.916862
1.04999995 2.36999989 -0.01000000 25 217 134 97.000000 1.000000 4.000000 1.000000 -60.708740 114.000000 238.000000 -0.224733 0.515204 0.827079
1.04999995 2.36999989 -0.01000000 25 217 134 97.000000 1.000000 4.000000 1.000000 -60.708740 114.000000 238.000000 -0.224733 0.515204 0.827079
1.00999999 2.46000004 0.03000000 25 217 134 97.000000 1.000000 4.000000 1.000000 -60.708740 114.000000 238.000000 -0.433814 0.703078 0.563460
1.00000000 2.46000004 -0.02000000 25 217 134 97.000000 1.000000 4.000000 1.000000 -60.708740 114.000000 238.000000 0.479912 -0.536766 -0.693950
1.00999999 2.47000003 -0.02000000 25 217 134 97.000000 1.000000 4.000000 1.000000 -60.708740 114.000000 238.000000 -0.588123 0.500495 0.635308
1.00000000 2.44000006 0.01000000 25 217 134 97.000000 1.000000 4.000000 1.000000 -60.708740 114.000000 238.000000 0.560967 -0.451104 -0.694134
1.00000000 2.44000006 0.01000000 25 217 134 97.000000 1.000000 4.000000 1.000000 -60.708740 114.000000 238.000000 0.560967 -0.451104 -0.694134
1.00000000 2.45000005 0.00000000 25 217 134 97.000000 1.000000 4.000000 1.000000 -60.708740 114.000000 238.000000 -0.169909 0.816466 0.551829
0.99000001 2.44000006 0.00000000 25 217 134 97.000000 1.000000 4.000000 1.000000 -60.708740 114.000000 238.000000 0.696477 -0.469328 -0.542818
1.00999999 2.40000010 0.03000000 25 217 134 97.000000 1.000000 4.000000 1.000000 -60.708740 114.000000 238.000000 0.764686 -0.067684 -0.640839
0.97000003 2.43000007 -0.01000000 25 217 134 97.000000 1.000000 4.000000 1.000000 -60.708740 114.000000 238.000000 -0.383609 0.431361 0.816561
0.97000003 2.43000007 0.00000000 25 217 134 97.000000 1.000000 4.000000 1.000000 -60.708740 114.000000 238.000000 -0.544766 0.243670 0.802405
0.98000002 2.43000007 0.00000000 25 217 134 97.000000 1.000000 4.000000 1.000000 -60.708740 114.000000 238.000000 -0.541853 0.508301 0.669347
0.97000003 2.41000009 0.00000000 25 217 134 97.000000 1.000000 4.000000 1.000000 -60.708740 114.000000 238.000000 0.758338 -0.292160 -0.582723
0.97000003 2.43000007 -0.01000000 25 217 134 97.000000 1.000000 4.000000 1.000000 -60.708740 114.000000 238.000000 -0.383609 0.431361 0.816561
0.99000001 2.43000007 0.01000000 25 217 134 97.000000 1.000000 4.000000 1.000000 -60.708740 114.000000 238.000000 0.613477 -0.296327 -0.732008
0.94999999 2.44000006 -0.02000000 25 217 134 97.000000 1.000000 4.000000 1.000000 -60.708740 114.000000 238.000000 -0.447460 0.371025 0.813708
0.94000000 2.43000007 -0.01000000 25 217 134 97.000000 1.000000 4.000000 1.000000 -60.708740 114.000000 238.000000 -0.383255 0.699071 0.603668
1.59000003 2.24000001 0.46000001 25 217 134 97.000000 1.000000 4.000000 1.000000 -60.708740 114.000000 238.000000 0.238933 0.967110 0.087230
1.57000005 2.24000001 0.46000001 25 217 134 97.000000 1.000000 4.000000 1.000000 -60.708740 114.000000 238.000000 0.225797 0.972760 0.052483
1.58000004 2.23000002 0.44999999 25 217 134 97.000000 1.000000 4.000000 1.000000 -60.708740 114.000000 238.000000 0.493067 0.740425 -0.456788
1.59000003 2.24000001 0.43000001 25 217 134 97.000000 1.000000 4.000000 1.000000 -60.708740 114.000000 238.000000 0.589227 0.807966 0.001367
1.57000005 2.23000002 0.44000000 25 217 134 97.000000 1.000000 4.000000 1.000000 -60.708740 114.000000 238.000000 0.699677 0.664772 -0.261784
1.53999996 2.25000000 0.44999999 25 217 134 97.000000 1.000000 4.000000 1.000000 -60.708740 114.000000 238.000000 0.034242 0.947363 0.318324
1.51999998 2.25000000 0.43000001 25 217 134 97.000000 1.000000 4.000000 1.000000 -60.708740 114.000000 238.000000 0.518077 0.843894 0.139426
1.54999995 2.24000001 0.40000001 25 217 134 97.000000 1.000000 4.000000 1.000000 -60.708740 114.000000 238.000000 0.690311 0.723512 0.001383
1.51999998 2.24000001 0.37000000 25 217 134 97.000000 1.000000 4.000000 1.000000 -60.708740 114.000000 238.000000 0.696206 0.637783 -0.329440
1.53999996 2.25000000 0.31999999 25 217 134 97.000000 1.000000 4.000000 1.000000 -60.708740 114.000000 238.000000 0.740120 0.655707 -0.149230
1.52999997 2.25000000 0.38000000 25 217 134 97.000000 1.000000 4.000000 1.000000 -60.708740 114.000000 238.000000 0.358738 0.925021 -0.125077
1.58000004 2.21000004 0.44000000 25 217 134 97.000000 1.000000 4.000000 1.000000 -60.708740 114.000000 238.000000 0.761545 0.628313 -0.158971
1.59000003 2.20000005 0.43000001 25 217 134 97.000000 1.000000 4.000000 1.000000 -60.708740 114.000000 238.000000 0.699981 0.482803 -0.526239
1.55999994 2.20000005 0.40000001 25 217 134 97.000000 1.000000 4.000000 1.000000 -60.708740 114.000000 238.000000 0.734885 0.454142 -0.503685
1.58000004 2.22000003 0.44000000 25 217 134 97.000000 1.000000 4.000000 1.000000 -60.708740 114.000000 238.000000 0.775797 0.552776 -0.304265
1.58000004 2.19000006 0.41999999 25 217 134 97.000000 1.000000 4.000000 1.000000 -60.708740 114.000000 238.000000 0.802605 0.213312 -0.557066
1.58000004 2.21000004 0.41999999 25 217 134 97.000000 1.000000 4.000000 1.000000 -60.708740 114.000000 238.000000 0.632146 0.554603 -0.541117
1.58000004 2.19000006 0.41000000 25 217 134 97.000000 1.000000 4.000000 1.000000 -60.708740 114.000000 238.000000 0.904024 0.158026 -0.397201
1.55999994 2.15000010 0.40000001 25 217 134 97.000000 1.000000 4.000000 1.000000 -60.708740 114.000000 238.000000 0.582761 -0.420053 -0.695661
1.55999994 2.15000010 0.40000001 25 217 134 97.000000 1.000000 4.000000 1.000000 -60.708740 114.000000 238.000000 0.582761 -0.420053 -0.695661
1.58000004 2.18000007 0.41000000 25 217 134 97.000000 1.000000 4.000000 1.000000 -60.708740 114.000000 238.000000 0.702102 0.220482 -0.677083
1.52999997 2.22000003 0.43000001 25 217 134 97.000000 1.000000 4.000000 1.000000 -60.708740 114.000000 238.000000 -0.024678 0.996789 -0.076181
1.51999998 2.17000008 0.44999999 25 217 134 97.000000 1.000000 4.000000 1.000000 -60.708740 114.000000 238.000000 0.337672 -0.670450 -0.660662
1.57000005 2.22000003 0.37000000 25 217 134 97.000000 1.000000 4.000000 1.000000 -60.708740 114.000000 238.000000 0.520760 0.778721 -0.349860
1.59000003 2.20000005 0.38000000 25 217 134 97.000000 1.000000 4.000000 1.000000 -60.708740 114.000000 238.000000 0.835142 0.407348 -0.369601
1.55999994 2.22000003 0.38000000 25 217 134 97.000000 1.000000 4.000000 1.000000 -60.708740 114.000000 238.000000 0.621279 0.783230 0.023734
1.59000003 2.17000008 0.36000001 25 217 134 97.000000 1.000000 4.000000 1.000000 -60.708740 114.000000 238.000000 0.747364 0.070833 -0.660629
1.58000004 2.16000009 0.34999999 25 217 134 97.000000 1.000000 4.000000 1.000000 -60.708740 114.000000 238.000000 -0.559715 0.269609 0.783601
1.57000005 2.18000007 0.34000000 25 217 134 97.000000 1.000000 4.000000 1.000000 -60.708740 114.000000 238.000000 0.874128 0.152718 -0.461062
1.53999996 2.21000004 0.33000001 25 217 134 97.000000 1.000000 4.000000 1.000000 -60.708740 114.000000 238.000000 0.808163 0.398481 -0.433688
1.53999996 2.20000005 0.31999999 25 217 134 97.000000 1.000000 4.000000 1.000000 -60.708740 114.000000 238.000000 0.781253 -0.006889 -0.624176
1.53999996 2.21000004 0.31999999 25 217 134 97.000000 1.000000 4.000000 1.000000 -60.708740 114.000000 238.000000 0.775022 -0.049772 -0.629972
1.53999996 2.16000009 0.38000000 25 217 134 97.000000 1.000000 4.000000 1.000000 -60.708740 114.000000 238.000000 0.889841 -0.157200 -0.428335
1.54999995 2.17000008 0.31999999 25 217 134 97.000000 1.000000 4.000000 1.000000 -60.708740 114.000000 238.000000 0.704652 0.351509 -0.616366
1.53999996 2.18000007 0.33000001 25 217 134 97.000000 1.000000 4.000000 1.000000 -60.708740 114.000000 238.000000 -0.510618 0.092452 0.854823
1.54999995 2.18000007 0.33000001 25 217 134 97.000000 1.000000 4.000000 1.000000 -60.708740 114.000000 238.000000 -0.585499 -0.378852 0.716703
1.54999995 2.15000010 0.31999999 25 217 134 97.000000 1.000000 4.000000 1.000000 -60.708740 114.000000 238.000000 0.731655 -0.251259 -0.633680
1.53999996 2.17000008 0.34999999 25 217 134 97.000000 1.000000 4.000000 1.000000 -60.708740 114.000000 238.000000 -0.458567 -0.218007 0.861504
1.53999996 2.18000007 0.33000001 25 217 134 97.000000 1.000000 4.000000 1.000000 -60.708740 114.000000 238.000000 -0.510618 0.092452 0.854823
1.54999995 2.16000009 0.33000001 25 217 134 97.000000 1.000000 4.000000 1.000000 -60.708740 114.000000 238.000000 0.549897 -0.286834 -0.784436
1.50999999 2.24000001 0.36000001 25 217 134 97.000000 1.000000 4.000000 1.000000 -60.708740 114.000000 238.000000 0.776717 0.586818 -0.228812
1.49000001 2.25999999 0.36000001 25 217 134 97.000000 1.000000 4.000000 1.000000 -60.708740 114.000000 238.000000 0.180184 0.983552 -0.012624
1.50999999 2.25000000 0.36000001 25 217 134 97.000000 1.000000 4.000000 1.000000 -60.708740 114.000000 238.000000 0.474963 0.840792 -0.259769
1.50999999 2.24000001 0.34000000 25 217 134 97.000000 1.000000 4.000000 1.000000 -60.708740 114.000000 238.000000 0.730897 0.678793 -0.070919
1.44000006 2.25999999 0.38000000 25 217 134 97.000000 1.000000 4.000000 1.000000 -60.708740 114.000000 238.000000 -0.034673 0.938740 0.342878
1.46000004 2.25000000 0.34000000 25 217 134 97.000000 1.000000 4.000000 1.000000 -60.708740 114.000000 238.000000 0.290170 0.950007 -0.115273
1.48000002 2.22000003 0.40000001 25 217 134 97.000000 1.000000 4.000000 1.000000 -60.708740 114.000000 238.000000 0.100421 0.994278 0.036416
1.50999999 2.15000010 0.46000001 25 217 134 97.000000 1.000000 4.000000 1.000000 -60.708740 114.000000 238.000000 0.763871 0.126567 -0.632837
1.49000001 2.16000009 0.41999999 25 217 134 97.000000 1.000000 4.000000 1.000000 -60.708740 114.000000 238.000000 0.785661 -0.023723 -0.618202
1.49000001 2.16000009 0.41999999 25 217 134 97.000000 1.000000 4.000000 1.000000 -60.708740 114.000000 238.000000 0.785661 -0.023723 -0.618202
1.50000000 2.18000007 0.44000000 25 217 134 97.000000 1.000000 4.000000 1.000000 -60.708740 114.000000 238.000000 -0.016298 0.946532 0.322197
1.50000000 2.17000008 0.41999999 25 217 134 97.000000 1.000000 4.000000 1.000000 -60.708740 114.000000 238.000000 -0.116601 0.984498 0.131026
1.50999999 2.17000008 0.41999999 25 217 134 97.000000 1.000000 4.000000 1.000000 -60.708740 114.000000 238.000000 0.588604 0.765343 -0.260374
1.50000000 2.16000009 0.43000001 25 217 134 97.000000 1.000000 4.000000 1.000000 -60.708740 114.000000 238.000000 0.819935 0.195511 -0.538035
1.45000005 2.19000006 0.41000000 25 217 134 97.000000 1.000000 4.000000 1.000000 -60.708740 114.000000 238.000000 -0.631743 0.029416 0.774620
1.47000003 2.22000003 0.41000000 25 217 134 97.000000 1.000000 4.000000 1.000000 -60.708740 114.000000 238.000000 -0.418777 0.860564 0.289923
1.46000004 2.20000005 0.41999999 25 217 134 97.000000 1.000000 4.000000 1.000000 -60.708740 114.000000 238.000000 -0.509863 0.690405 0.513206
1.47000003 2.19000006 0.43000001 25 217 134 97.000000 1.000000 4.000000 1.000000 -60.708740 114.000000 238.000000 -0.263893 0.834889 0.483032
1.47000003 2.22000003 0.41000000 25 217 134 97.000000 1.000000 4.000000 1.000000 -60.708740 114.000000 238.000000 -0.418777 0.860564 0.289923
1.44000006 2.21000004 0.40000001 25 217 134 97.000000 1.000000 4.000000 1.000000 -60.708740 114.000000 238.000000 -0.265917 0.568024 0.778869
1.47000003 2.15000010 0.44999999 25 217 134 97.000000 1.000000 4.000000 1.000000 -60.708740 114.000000 238.000000 0.908042 -0.033140 -0.417567
1.47000003 2.18000007 0.40000001 25 217 134 97.000000 1.000000 4.000000 1.000000 -60.708740 114.000000 238.000000 -0.412902 0.432182 0.801705
1.47000003 2.17000008 0.41000000 25 217 134 97.000000 1.000000 4.000000 1.000000 -60.708740 114.000000 238.000000 0.933073 -0.103975 -0.344332
1.46000004 2.17000008 0.40000001 25 217 134 97.000000 1.000000 4.000000 1.000000 -60.708740 114.000000 238.000000 -0.523205 0.014949 0.852076
1.48000002 2.17000008 0.36000001 25 217 134 97.000000 1.000000 4.000000 1.000000 -60.708740 114.000000 238.000000 -0.518534 0.274150 0.809916
1.49000001 2.15000010 0.34000000 25 217 134 97.000000 1.000000 4.000000 1.000000 -60.708740 114.000000 238.000000 -0.484996 0.320698 0.813592
1.50000000 2.15000010 0.34999999 25 217 134 97.000000 1.000000 4.000000 1.000000 -60.708740 114.000000 238.000000 0.804990 -0.319138 -0.500142
1.50000000 2.15000010 0.34999999 25 217 134 97.000000 1.000000 4.000000 1.000000 -60.708740 114.000000 238.000000 0.804990 -0.319138 -0.500142
1.45000005 2.21000004 0.37000000 25 217 134 97.000000 1.000000 4.000000 1.000000 -60.708740 114.000000 238.000000 0.200439 0.794106 0.573776
1.44000006 2.21000004 0.36000001 25 217 134 97.000000 1.000000 4.000000 1.000000 -60.708740 114.000000 238.000000 -0.079330 0.786087 0.613004
1.47000003 2.22000003 0.38000000 25 217 134 97.000000 1.000000 4.000000 1.000000 -60.708740 114.000000 238.000000 0.219292 0.890412 0.398846
1.44000006 2.19000006 0.38000000 25 217 134 97.000000 1.000000 4.000000 1.000000 -60.708740 114.000000 238.000000 -0.619302 0.185026 0.763041
1.47000003 2.22000003 0.38999999 25 217 134 97.000000 1.000000 4.000000 1.000000 -60.708740 114.000000 238.000000 -0.100423 0.967368 0.232626
1.42999995 2.20000005 0.36000001 25 217 134 97.000000 1.000000 4.000000 1.000000 -60.708740 114.000000 238.000000 0.586820 -0.423907 -0.689888
1.44000006 2.17000008 0.37000000 25 217 134 97.000000 1.000000 4.000000 1.000000 -60.708740 114.000000 238.000000 0.853586 0.520809 -0.012175
1.47000003 2.16000009 0.38999999 25 217 134 97.000000 1.000000 4.000000 1.000000 -60.708740 114.000000 238.000000 0.299039 0.863380 -0.406387
1.47000003 2.17000008 0.34999999 25 217 134 97.000000 1.000000 4.000000 1.000000 -60.708740 114.000000 238.000000 0.570951 -0.668063 -0.477187
1.47000003 2.17000008 0.34999999 25 217 134 97.000000 1.000000 4.000000 1.000000 -60.708740 114.000000 238.000000 0.570951 -0.668063 -0.477187
1.58000004 2.13000011 0.44000000 25 217 134 97.000000 1.000000 4.000000 1.000000 -60.708740 114.000000 238.000000 -0.548528 0.429211 0.717561
1.55999994 2.11999989 0.41999999 25 217 134 97.000000 1.000000 4.000000 1.000000 -60.708740 114.000000 238.000000 0.805219 -0.453036 -0.382599
1.55999994 2.10999990 0.41999999 25 217 134 97.000000 1.000000 4.000000 1.000000 -60.708740 114.000000 238.000000 -0.483469 0.802590 0.349438
1.55999994 2.11999989 0.41999999 25 217 134 97.000000 1.000000 4.000000 1.000000 -60.708740 114.000000 238.000000 0.805219 -0.453036 -0.382599
1.58000004 2.14000010 0.41000000 25 217 134 97.000000 1.000000 4.000000 1.000000 -60.708740 114.000000 238.000000 0.915250 0.052109 -0.399503
1.53999996 2.10999990 0.44999999 25 217 134 97.000000 1.000000 4.000000 1.000000 -60.708740 114.000000 238.000000 0.426762 0.848868 0.311924
1.54999995 2.10999990 0.44999999 25 217 134 97.000000 1.000000 4.000000 1.000000 -60.708740 114.000000 238.000000 -0.117166 0.893566 0.433373
1.53999996 2.13000011 0.44000000 25 217 134 97.000000 1.000000 4.000000 1.000000 -60.708740 114.000000 238.000000 -0.456325 0.869823 0.187551
1.52999997 2.11999989 0.44000000 25 217 134 97.000000 1.000000 4.000000 1.000000 -60.708740 114.000000 238.000000 -0.368812 0.888433 0.273249
1.52999997 2.10999990 0.41999999 25 217 134 97.000000 1.000000 4.000000 1.000000 -60.708740 114.000000 238.000000 0.188843 0.954928 0.229022
1.53999996 2.13000011 0.44000000 25 217 134 97.000000 1.000000 4.000000 1.000000 -60.708740 114.000000 238.000000 -0.456325 0.869823 0.187551
1.52999997 2.11999989 0.44000000 25 217 134 97.000000 1.000000 4.000000 1.000000 -60.708740 114.000000 238.000000 -0.368812 0.888433 0.273249
1.55999994 2.13000011 0.38999999 25 217 134 97.000000 1.000000 4.000000 1.000000 -60.708740 114.000000 238.000000 -0.581755 0.438400 0.685104
1.55999994 2.13000011 0.38999999 25 217 134 97.000000 1.000000 4.000000 1.000000 -60.708740 114.000000 238.000000 -0.581755 0.438400 0.685104
1.51999998 2.13000011 0.38000000 25 217 134 97.000000 1.000000 4.000000 1.000000 -60.708740 114.000000 238.000000 0.621585 -0.638340 -0.454042
1.52999997 2.13000011 0.31999999 25 217 134 97.000000 1.000000 4.000000 1.000000 -60.708740 114.000000 238.000000 -0.632910 0.182364 0.752442
1.50999999 2.14000010 0.44999999 25 217 134 97.000000 1.000000 4.000000 1.000000 -60.708740 114.000000 238.000000 0.710544 0.500875 -0.494219
1.50999999 2.13000011 0.43000001 25 217 134 97.000000 1.000000 4.000000 1.000000 -60.708740 114.000000 238.000000 0.463908 0.856794 -0.225154
1.50999999 2.11999989 0.41000000 25 217 134 97.000000 1.000000 4.000000 1.000000 -60.708740 114.000000 238.000000 -0.153439 0.930308 0.333142
1.50999999 2.14000010 0.41999999 25 217 134 97.000000 1.000000 4.000000 1.000000 -60.708740 114.000000 238.000000 0.356609 0.930924 0.078801
1.50999999 2.10999990 0.38000000 25 217 134 97.000000 1.000000 4.000000 1.000000 -60.708740 114.000000 238.000000 0.052545 0.949654 0.308862
1.50999999 2.14000010 0.37000000 25 217 134 97.000000 1.000000 4.000000 1.000000 -60.708740 114.000000 238.000000 -0.410740 0.562499 0.717557
1.50000000 2.11999989 0.34000000 25 217 134 97.000000 1.000000 4.000000 1.000000 -60.708740 114.000000 238.000000 -0.310685 0.788662 0.530554
1.49000001 2.11999989 0.33000001 25 217 134 97.000000 1.000000 4.000000 1.000000 -60.708740 114.000000 238.000000 -0.101238 0.905594 0.411886
1.50999999 2.11999989 0.34999999 25 217 134 97.000000 1.000000 4.000000 1.000000 -60.708740 114.000000 238.000000 -0.442761 0.766255 0.465635
1.45000005 2.14000010 0.33000001 25 217 134 97.000000 1.000000 4.000000 1.000000 -60.708740 114.000000 238.000000 -0.467462 0.837083 0.284204
1.45000005 2.14000010 0.33000001 25 217 134 97.000000 1.000000 4.000000 1.000000 -60.708740 114.000000 238.000000 -0.467462 0.837083 0.284204
1.46000004 2.13000011 0.34000000 25 217 134 97.000000 1.000000 4.000000 1.000000 -60.708740 114.000000 238.000000 0.190946 0.923612 0.332387
1.39999998 2.25999999 0.33000001 25 217 134 97.000000 1.000000 4.000000 1.000000 -60.708740 114.000000 238.000000 0.155154 -0.840786 -0.518657
1.39999998 2.23000002 0.33000001 25 217 134 97.000000 1.000000 4.000000 1.000000 -60.708740 114.000000 238.000000 -0.454172 0.741539 0.493809
1.39999998 2.23000002 0.33000001 25 217 134 97.000000 1.000000 4.000000 1.000000 -60.708740 114.000000 238.000000 -0.454172 0.741539 0.493809
1.39999998 2.23000002 0.34000000 25 217 134 97.000000 1.000000 4.000000 1.000000 -60.708740 114.000000 238.000000 -0.500768 0.615422 0.608677
1.39999998 2.24000001 0.31999999 25 217 134 97.000000 1.000000 4.000000 1.000000 -60.708740 114.000000 238.000000 -0.098319 0.981973 0.161437
1.38000000 2.24000001 0.31999999 25 217 134 97.000000 1.000000 4.000000 1.000000 -60.708740 114.000000 238.000000 0.635358 -0.547723 -0.544352
1.39999998 2.20000005 0.34000000 25 217 134 97.000000 1.000000 4.000000 1.000000 -60.708740 114.000000 238.000000 0.669929 0.089032 -0.737068
1.41999996 2.22000003 0.34000000 25 217 134 97.000000 1.000000 4.000000 1.000000 -60.708740 114.000000 238.000000 -0.352979 0.733611 0.580707
1.40999997 2.20000005 0.33000001 25 217 134 97.000000 1.000000 4.000000 1.000000 -60.708740 114.000000 238.000000 0.660840 -0.395841 -0.637652
1.39999998 2.19000006 0.31999999 25 217 134 97.000000 1.000000 4.000000 1.000000 -60.708740 114.000000 238.000000 0.768432 0.474764 -0.429082
1.39999998 2.20000005 0.31999999 25 217 134 97.000000 1.000000 4.000000 1.000000 -60.708740 114.000000 238.000000 -0.592126 -0.397500 0.700985
1.40999997 2.22000003 0.34000000 25 217 134 97.000000 1.000000 4.000000 1.000000 -60.708740 114.000000 238.000000 -0.089279 0.724475 0.683495
1.40999997 2.17000008 0.34999999 25 217 134 97.000000 1.000000 4.000000 1.000000 -60.708740 114.000000 238.000000 0.774768 0.435501 -0.458337
1.41999996 2.17000008 0.34000000 25 217 134 97.000000 1.000000 4.000000 1.000000 -60.708740 114.000000 238.000000 0.142096 0.985116 -0.096721
1.52999997 2.24000001 0.28999999 25 217 134 97.000000 1.000000 4.000000 1.000000 -60.708740 114.000000 238.000000 -0.584255 -0.313856 0.748426
1.51999998 2.20000005 0.28000000 25 217 134 97.000000 1.000000 4.000000 1.000000 -60.708740 114.000000 238.000000 0.862835 -0.144048 -0.484526
1.51999998 2.19000006 0.28999999 25 217 134 97.000000 1.000000 4.000000 1.000000 -60.708740 114.000000 238.000000 -0.678376 0.076989 0.730670
1.51999998 2.22000003 0.28000000 25 217 134 97.000000 1.000000 4.000000 1.000000 -60.708740 114.000000 238.000000 -0.635056 -0.199324 0.746307
1.54999995 2.17000008 0.30000001 25 217 134 97.000000 1.000000 4.000000 1.000000 -60.708740 114.000000 238.000000 0.814824 -0.400237 -0.419371
1.52999997 2.15000010 0.31000000 25 217 134 97.000000 1.000000 4.000000 1.000000 -60.708740 114.000000 238.000000 -0.546492 0.590482 0.593866
1.52999997 2.16000009 0.28999999 25 217 134 97.000000 1.000000 4.000000 1.000000 -60.708740 114.000000 238.000000 0.582794 -0.525360 -0.619958
1.49000001 2.25999999 0.30000001 25 217 134 97.000000 1.000000 4.000000 1.000000 -60.708740 114.000000 238.000000 0.464972 0.845543 -0.262410
1.50000000 2.25999999 0.27000001 25 217 134 97.000000 1.000000 4.000000 1.000000 -60.708740 114.000000 238.000000 0.666394 0.737318 -0.110819
1.49000001 2.23000002 0.27000001 25 217 134 97.000000 1.000000 4.000000 1.000000 -60.708740 114.000000 238.000000 0.851270 0.287862 -0.438720
1.48000002 2.25999999 0.25999999 25 217 134 97.000000 1.000000 4.000000 1.000000 -60.708740 114.000000 238.000000 0.485235 0.825367 -0.288645
1.46000004 2.27999997 0.30000001 25 217 134 97.000000 1.000000 4.000000 1.000000 -60.708740 114.000000 238.000000 0.580209 0.772040 0.259443
1.44000006 2.27999997 0.23999999 25 217 134 97.000000 1.000000 4.000000 1.000000 -60.708740 114.000000 238.000000 0.813727 0.581233 -0.004103
1.47000003 2.27999997 0.25999999 25 217 134 97.000000 1.000000 4.000000 1.000000 -60.708740 114.000000 238.000000 0.462939 0.820018 -0.336539
1.45000005 2.27999997 0.25999999 25 217 134 97.000000 1.000000 4.000000 1.000000 -60.708740 114.000000 238.000000 0.573484 0.607318 -0.549800
1.44000006 2.27999997 0.23999999 25 217 134 97.000000 1.000000 4.000000 1.000000 -60.708740 114.000000 238.000000 0.813727 0.581233 -0.004103
1.47000003 2.26999998 0.31000000 25 217 134 97.000000 1.000000 4.000000 1.000000 -60.708740 114.000000 238.000000 0.236712 0.958751 -0.157367
1.44000006 2.25000000 0.31000000 25 217 134 97.000000 1.000000 4.000000 1.000000 -60.708740 114.000000 238.000000 0.494019 0.866282 -0.074173
1.47000003 2.26999998 0.31000000 25 217 134 97.000000 1.000000 4.000000 1.000000 -60.708740 114.000000 238.000000 0.236712 0.958751 -0.157367
1.45000005 2.26999998 0.31000000 25 217 134 97.000000 1.000000 4.000000 1.000000 -60.708740 114.000000 238.000000 0.213759 0.976680 -0.020077
1.47000003 2.25000000 0.27000001 25 217 134 97.000000 1.000000 4.000000 1.000000 -60.708740 114.000000 238.000000 -0.529919 -0.379911 0.758191
1.45000005 2.25000000 0.25999999 25 217 134 97.000000 1.000000 4.000000 1.000000 -60.708740 114.000000 238.000000 0.528225 0.726930 -0.438807
1.48000002 2.25999999 0.23000000 25 217 134 97.000000 1.000000 4.000000 1.000000 -60.708740 114.000000 238.000000 -0.496972 -0.591312 0.635113
1.44000006 2.28999996 0.19000000 25 217 134 97.000000 1.000000 4.000000 1.000000 -60.708740 114.000000 238.000000 0.514754 0.626144 -0.585638
1.42999995 2.28999996 0.22000000 25 217 134 97.000000 1.000000 4.000000 1.000000 -60.708740 114.000000 238.000000 0.644768 0.758808 -0.092110
1.44000006 2.28999996 0.20999999 25 217 134 97.000000 1.000000 4.000000 1.000000 -60.708740 114.000000 238.000000 0.643533 0.763393 -0.055649
1.46000004 2.25000000 0.23000000 25 217 134 97.000000 1.000000 4.000000 1.000000 -60.708740 114.000000 238.000000 0.595738 0.619365 -0.511355
1.46000004 2.25999999 0.20999999 25 217 134 97.000000 1.000000 4.000000 1.000000 -60.708740 114.000000 238.000000 0.803245 0.356111 -0.477476
1.47000003 2.25000000 0.23000000 25 217 134 97.000000 1.000000 4.000000 1.000000 -60.708740 114.000000 238.000000 0.723076 0.382033 -0.575510
1.45000005 2.25999999 0.20999999 25 217 134 97.000000 1.000000 4.000000 1.000000 -60.708740 114.000000 238.000000 0.715102 0.379744 -0.586877
1.44000006 2.25999999 0.19000000 25 217 134 97.000000 1.000000 4.000000 1.000000 -60.708740 114.000000 238.000000 0.835651 0.243795 -0.492191
1.47000003 2.24000001 0.22000000 25 217 134 97.000000 1.000000 4.000000 1.000000 -60.708740 114.000000 238.000000 0.853657 0.215296 -0.474254
1.45000005 2.25000000 0.20000000 25 217 134 97.000000 1.000000 4.000000 1.000000 -60.708740 114.000000 238.000000 0.709525 -0.098423 -0.697773
1.44000006 2.25999999 0.17000000 25 217 134 97.000000 1.000000 4.000000 1.000000 -60.708740 114.000000 238.000000 0.947919 0.191760 -0.254320
1.42999995 2.23000002 0.18000001 25 217 134 97.000000 1.000000 4.000000 1.000000 -60.708740 114.000000 238.000000 -0.525839 0.225360 0.820187
1.50000000 2.22000003 0.28000000 25 217 134 97.000000 1.000000 4.000000 1.000000 -60.708740 114.000000 238.000000 0.658726 0.351430 -0.665264
1.50999999 2.21000004 0.28000000 25 217 134 97.000000 1.000000 4.000000 1.000000 -60.708740 114.000000 238.000000 0.660542 0.241200 -0.710990
1.48000002 2.21000004 0.31000000 25 217 134 97.000000 1.000000 4.000000 1.000000 -60.708740 114.000000 238.000000 0.899874 0.376045 -0.220945
1.50000000 2.22000003 0.28999999 25 217 134 97.000000 1.000000 4.000000 1.000000 -60.708740 114.000000 238.000000 0.884792 0.374046 -0.277906
1.49000001 2.19000006 0.25000000 25 217 134 97.000000 1.000000 4.000000 1.000000 -60.708740 114.000000 238.000000 -0.607029 0.205432 0.767668
1.49000001 2.22000003 0.25000000 25 217 134 97.000000 1.000000 4.000000 1.000000 -60.708740 114.000000 238.000000 0.732294 0.101667 -0.673357
1.48000002 2.22000003 0.23999999 25 217 134 97.000000 1.000000 4.000000 1.000000 -60.708740 114.000000 238.000000 0.806992 0.196790 -0.556810
1.48000002 2.21000004 0.23999999 25 217 134 97.000000 1.000000 4.000000 1.000000 -60.708740 114.000000 238.000000 0.684462 -0.193133 -0.703002
1.50999999 2.22000003 0.25000000 25 217 134 97.000000 1.000000 4.000000 1.000000 -60.708740 114.000000 238.000000 0.872654 0.300022 -0.385308
1.50000000 2.22000003 0.27000001 25 217 134 97.000000 1.000000 4.000000 1.000000 -60.708740 114.000000 238.000000 0.714803 0.401148 -0.572833
1.50999999 2.20000005 0.27000001 25 217 134 97.000000 1.000000 4.000000 1.000000 -60.708740 114.000000 238.000000 0.873086 -0.020242 -0.487147
1.48000002 2.19000006 0.23999999 25 217 134 97.000000 1.000000 4.000000 1.000000 -60.708740 114.000000 238.000000 -0.533809 0.278715 0.798352
1.50999999 2.20000005 0.25000000 25 217 134 97.000000 1.000000 4.000000 1.000000 -60.708740 114.000000 238.000000 -0.633072 0.049792 0.772490
1.48000002 2.16000009 0.28000000 25 217 134 97.000000 1.000000 4.000000 1.000000 -60.708740 114.000000 238.000000 0.710460 -0.156029 -0.686223
1.50999999 2.15000010 0.30000001 25 217 134 97.000000 1.000000 4.000000 1.000000 -60.708740 114.000000 238.000000 -0.596051 0.379305 0.707708
1.50999999 2.15000010 0.30000001 25 217 134 97.000000 1.000000 4.000000 1.000000 -60.708740 114.000000 238.000000 -0.596051 0.379305 0.707708
1.48000002 2.16000009 0.28000000 25 217 134 97.000000 1.000000 4.000000 1.000000 -60.708740 114.000000 238.000000 0.710460 -0.156029 -0.686223
1.49000001 2.17000008 0.28999999 25 217 134 97.000000 1.000000 4.000000 1.000000 -60.708740 114.000000 238.000000 -0.368924 0.256321 0.893418
1.50999999 2.17000008 0.25000000 25 217 134 97.000000 1.000000 4.000000 1.000000 -60.708740 114.000000 238.000000 0.811711 -0.284177 -0.510263
1.46000004 2.20000005 0.25000000 25 217 134 97.000000 1.000000 4.000000 1.000000 -60.708740 114.000000 238.000000 0.940620 -0.019041 -0.338928
1.47000003 2.21000004 0.27000001 25 217 134 97.000000 1.000000 4.000000 1.000000 -60.708740 114.000000 238.000000 0.723067 -0.175798 -0.668034
1.44000006 2.16000009 0.28000000 25 217 134 97.000000 1.000000 4.000000 1.000000 -60.708740 114.000000 238.000000 -0.149455 0.830141 0.537150
1.46000004 2.15000010 0.23999999 25 217 134 97.000000 1.000000 4.000000 1.000000 -60.708740 114.000000 238.000000 -0.451166 0.371455 0.811462
1.44000006 2.17000008 0.27000001 25 217 134 97.000000 1.000000 4.000000 1.000000 -60.708740 114.000000 238.000000 0.601707 -0.517434 -0.608449
1.46000004 2.15000010 0.25999999 25 217 134 97.000000 1.000000 4.000000 1.000000 -60.708740 114.000000 238.000000 -0.374289 0.477098 0.795164
1.45000005 2.15000010 0.23999999 25 217 134 97.000000 1.000000 4.000000 1.000000 -60.708740 114.000000 238.000000 0.576399 -0.616967 -0.535832
1.42999995 2.21000004 0.18000001 25 217 134 97.000000 1.000000 4.000000 1.000000 -60.708740 114.000000 238.000000 -0.659730 0.012500 0.751398
1.44000006 2.18000007 0.19000000 25 217 134 97.000000 1.000000 4.000000 1.000000 -60.708740 114.000000 238.000000 -0.703437 0.101755 0.703437
1.51999998 2.13000011 0.31000000 25 217 134 97.000000 1.000000 4.000000 1.000000 -60.708740 114.000000 238.000000 -0.151583 0.592826 0.790936
1.50999999 2.14000010 0.30000001 25 217 134 97.000000 1.000000 4.000000 1.000000 -60.708740 114.000000 238.000000 0.739124 -0.467946 -0.484482
1.50999999 2.14000010 0.30000001 25 217 134 97.000000 1.000000 4.000000 1.000000 -60.708740 114.000000 238.000000 0.739124 -0.467946 -0.484482
1.44000006 2.13000011 0.28999999 25 217 134 97.000000 1.000000 4.000000 1.000000 -60.708740 114.000000 238.000000 0.059577 0.976332 0.207911
1.47000003 2.14000010 0.31000000 25 217 134 97.000000 1.000000 4.000000 1.000000 -60.708740 114.000000 238.000000 -0.263983 0.750850 0.605423
1.47000003 2.14000010 0.31000000 25 217 134 97.000000 1.000000 4.000000 1.000000 -60.708740 114.000000 238.000000 -0.263983 0.750850 0.605423
1.46000004 2.14000010 0.27000001 25 217 134 97.000000 1.000000 4.000000 1.000000 -60.708740 114.000000 238.000000 -0.435501 0.774768 0.458337
1.47000003 2.14000010 0.27000001 25 217 134 97.000000 1.000000 4.000000 1.000000 -60.708740 114.000000 238.000000 -0.297992 0.684577 0.665248
1.44000006 2.14000010 0.25999999 25 217 134 97.000000 1.000000 4.000000 1.000000 -60.708740 114.000000 238.000000 -0.253438 0.923547 0.287803
1.46000004 2.14000010 0.27000001 25 217 134 97.000000 1.000000 4.000000 1.000000 -60.708740 114.000000 238.000000 -0.435501 0.774768 0.458337
1.39999998 2.27999997 0.28999999 25 217 134 97.000000 1.000000 4.000000 1.000000 -60.708740 114.000000 238.000000 -0.131298 0.940741 0.312678
1.39999998 2.27999997 0.28999999 25 217 134 97.000000 1.000000 4.000000 1.000000 -60.708740 114.000000 238.000000 -0.131298 0.940741 0.312678
1.38999999 2.26999998 0.30000001 25 217 134 97.000000 1.000000 4.000000 1.000000 -60.708740 114.000000 238.000000 0.130048 0.745908 0.653230
1.38000000 2.27999997 0.28999999 25 217 134 97.000000 1.000000 4.000000 1.000000 -60.708740 114.000000 238.000000 -0.077012 0.917391 0.390465
1.38000000 2.27999997 0.28999999 25 217 134 97.000000 1.000000 4.000000 1.000000 -60.708740 114.000000 238.000000 -0.077012 0.917391 0.390465
1.38000000 2.29999995 0.25000000 25 217 134 97.000000 1.000000 4.000000 1.000000 -60.708740 114.000000 238.000000 0.209227 0.965561 0.154646
1.37000000 2.24000001 0.30000001 25 217 134 97.000000 1.000000 4.000000 1.000000 -60.708740 114.000000 238.000000 -0.576927 0.549857 0.603997
1.36000001 2.24000001 0.28000000 25 217 134 97.000000 1.000000 4.000000 1.000000 -60.708740 114.000000 238.000000 -0.364752 0.580659 0.727868
1.38000000 2.24000001 0.30000001 25 217 134 97.000000 1.000000 4.000000 1.000000 -60.708740 114.000000 238.000000 -0.403530 0.883001 0.239735
1.36000001 2.24000001 0.28999999 25 217 134 97.000000 1.000000 4.000000 1.000000 -60.708740 114.000000 238.000000 -0.334688 0.810549 0.480619
1.36000001 2.25999999 0.25000000 25 217 134 97.000000 1.000000 4.000000 1.000000 -60.708740 114.000000 238.000000 0.210732 0.936432 0.280511
1.36000001 2.23000002 0.25000000 25 217 134 97.000000 1.000000 4.000000 1.000000 -60.708740 114.000000 238.000000 0.233494 0.884897 -0.403037
1.39999998 2.29999995 0.20000000 25 217 134 97.000000 1.000000 4.000000 1.000000 -60.708740 114.000000 238.000000 0.403184 0.648744 -0.645426
1.38999999 2.30999994 0.20000000 25 217 134 97.000000 1.000000 4.000000 1.000000 -60.708740 114.000000 238.000000 0.456495 0.863599 -0.214029
1.41999996 2.30999994 0.20000000 25 217 134 97.000000 1.000000 4.000000 1.000000 -60.708740 114.000000 238.000000 0.297239 0.816228 -0.495399
1.40999997 2.29999995 0.22000000 25 217 134 97.000000 1.000000 4.000000 1.000000 -60.708740 114.000000 238.000000 0.654768 0.661332 -0.365948
1.40999997 2.28999996 0.20999999 25 217 134 97.000000 1.000000 4.000000 1.000000 -60.708740 114.000000 238.000000 0.798254 0.333004 -0.501896
1.38999999 2.29999995 0.17000000 25 217 134 97.000000 1.000000 4.000000 1.000000 -60.708740 114.000000 238.000000 0.808853 0.579411 -0.100199
1.38999999 2.29999995 0.17000000 25 217 134 97.000000 1.000000 4.000000 1.000000 -60.708740 114.000000 238.000000 0.808853 0.579411 -0.100199
1.40999997 2.27999997 0.18000001 25 217 134 97.000000 1.000000 4.000000 1.000000 -60.708740 114.000000 238.000000 -0.544006 -0.399376 0.737941
1.39999998 2.23000002 0.22000000 25 217 134 97.000000 1.000000 4.000000 1.000000 -60.708740 114.000000 238.000000 0.861389 0.279990 -0.423810
1.38999999 2.25999999 0.19000000 25 217 134 97.000000 1.000000 4.000000 1.000000 -60.708740 114.000000 238.000000 0.610349 0.686436 -0.395321
1.40999997 2.25999999 0.17000000 25 217 134 97.000000 1.000000 4.000000 1.000000 -60.708740 114.000000 238.000000 -0.513525 -0.194266 0.835795
1.40999997 2.23000002 0.15000001 25 217 134 97.000000 1.000000 4.000000 1.000000 -60.708740 114.000000 238.000000 -0.578325 0.252332 0.775802
1.40999997 2.24000001 0.16000000 25 217 134 97.000000 1.000000 4.000000 1.000000 -60.708740 114.000000 238.000000 0.723752 0.216347 -0.655268
1.40999997 2.24000001 0.17000000 25 217 134 97.000000 1.000000 4.000000 1.000000 -60.708740 114.000000 238.000000 0.704992 -0.044151 -0.707840
1.39999998 2.25000000 0.16000000 25 217 134 97.000000 1.000000 4.000000 1.000000 -60.708740 114.000000 238.000000 0.723666 0.322169 -0.610340
1.36000001 2.27999997 0.23000000 25 217 134 97.000000 1.000000 4.000000 1.000000 -60.708740 114.000000 238.000000 0.206468 0.976143 0.067194
1.38000000 2.25000000 0.18000001 25 217 134 97.000000 1.000000 4.000000 1.000000 -60.708740 114.000000 238.000000 -0.551722 0.084550 0.829732
1.37000000 2.25000000 0.16000000 25 217 134 97.000000 1.000000 4.000000 1.000000 -60.708740 114.000000 238.000000 0.705609 0.475410 -0.525453
1.39999998 2.20000005 0.30000001 25 217 134 97.000000 1.000000 4.000000 1.000000 -60.708740 114.000000 238.000000 -0.161484 0.972717 0.166570
1.40999997 2.19000006 0.28999999 25 217 134 97.000000 1.000000 4.000000 1.000000 -60.708740 114.000000 238.000000 0.426001 -0.471702 -0.772024
1.41999996 2.15000010 0.28000000 25 217 134 97.000000 1.000000 4.000000 1.000000 -60.708740 114.000000 238.000000 -0.206972 0.961033 0.183242
1.39999998 2.18000007 0.31000000 25 217 134 97.000000 1.000000 4.000000 1.000000 -60.708740 114.000000 238.000000 0.389324 0.894711 -0.218903
1.39999998 2.15000010 0.27000001 25 217 134 97.000000 1.000000 4.000000 1.000000 -60.708740 114.000000 238.000000 -0.254359 0.744119 0.617729
1.38000000 2.20000005 0.28000000 25 217 134 97.000000 1.000000 4.000000 1.000000 -60.708740 114.000000 238.000000 0.458474 0.884896 -0.082219
1.38000000 2.21000004 0.31000000 25 217 134 97.000000 1.000000 4.000000 1.000000 -60.708740 114.000000 238.000000 -0.411704 0.260897 0.873174
1.37000000 2.21000004 0.28999999 25 217 134 97.000000 1.000000 4.000000 1.000000 -60.708740 114.000000 238.000000 -0.516192 -0.283984 0.808021
1.35000002 2.20000005 0.23999999 25 217 134 97.000000 1.000000 4.000000 1.000000 -60.708740 114.000000 238.000000 0.007089 0.999544 -0.029369
1.38000000 2.19000006 0.25000000 25 217 134 97.000000 1.000000 4.000000 1.000000 -60.708740 114.000000 238.000000 -0.052208 0.816986 0.574289
1.37000000 2.22000003 0.27000001 25 217 134 97.000000 1.000000 4.000000 1.000000 -60.708740 114.000000 238.000000 0.703107 -0.390249 -0.594430
1.36000001 2.21000004 0.27000001 25 217 134 97.000000 1.000000 4.000000 1.000000 -60.708740 114.000000 238.000000 0.480581 0.876827 0.014725
1.38000000 2.17000008 0.23999999 25 217 134 97.000000 1.000000 4.000000 1.000000 -60.708740 114.000000 238.000000 0.099491 0.943177 0.317046
1.37000000 2.17000008 0.25999999 25 217 134 97.000000 1.000000 4.000000 1.000000 -60.708740 114.000000 238.000000 0.113656 0.896621 0.427964
1.37000000 2.17000008 0.25999999 25 217 134 97.000000 1.000000 4.000000 1.000000 -60.708740 114.000000 238.000000 0.113656 0.896621 0.427964
1.38999999 2.22000003 0.22000000 25 217 134 97.000000 1.000000 4.000000 1.000000 -60.708740 114.000000 238.000000 0.741022 -0.440652 -0.506668
1.39999998 2.21000004 0.15000001 25 217 134 97.000000 1.000000 4.000000 1.000000 -60.708740 114.000000 238.000000 -0.469368 0.169208 0.866639
1.41999996 2.21000004 0.16000000 25 217 134 97.000000 1.000000 4.000000 1.000000 -60.708740 114.000000 238.000000 -0.589047 0.049440 0.806585
1.40999997 2.22000003 0.16000000 25 217 134 97.000000 1.000000 4.000000 1.000000 -60.708740 114.000000 238.000000 0.877719 -0.180233 -0.443988
1.39999998 2.21000004 0.15000001 25 217 134 97.000000 1.000000 4.000000 1.000000 -60.708740 114.000000 238.000000 -0.469368 0.169208 0.866639
1.40999997 2.20000005 0.15000001 25 217 134 97.000000 1.000000 4.000000 1.000000 -60.708740 114.000000 238.000000 0.624027 -0.427667 -0.653981
1.41999996 2.17000008 0.20000000 25 217 134 97.000000 1.000000 4.000000 1.000000 -60.708740 114.000000 238.000000 -0.542401 0.559298 0.626887
1.38999999 2.18000007 0.20999999 25 217 134 97.000000 1.000000 4.000000 1.000000 -60.708740 114.000000 238.000000 0.715133 -0.580326 -0.389624
1.40999997 2.16000009 0.20000000 25 217 134 97.000000 1.000000 4.000000 1.000000 -60.708740 114.000000 238.000000 -0.584401 0.628189 0.513667
1.41999996 2.17000008 0.19000000 25 217 134 97.000000 1.000000 4.000000 1.000000 -60.708740 114.000000 238.000000 -0.283304 0.715462 0.638634
1.40999997 2.15000010 0.20000000 25 217 134 97.000000 1.000000 4.000000 1.000000 -60.708740 114.000000 238.000000 -0.501910 0.505245 0.702007
1.39999998 2.17000008 0.22000000 25 217 134 97.000000 1.000000 4.000000 1.000000 -60.708740 114.000000 238.000000 -0.165924 0.468404 0.867795
1.38999999 2.16000009 0.22000000 25 217 134 97.000000 1.000000 4.000000 1.000000 -60.708740 114.000000 238.000000 -0.225145 0.878214 0.421960
1.38999999 2.18000007 0.20999999 25 217 134 97.000000 1.000000 4.000000 1.000000 -60.708740 114.000000 238.000000 0.715133 -0.580326 -0.389624
1.37000000 2.19000006 0.19000000 25 217 134 97.000000 1.000000 4.000000 1.000000 -60.708740 114.000000 238.000000 -0.221914 0.600565 0.768164
1.36000001 2.21000004 0.20000000 25 217 134 97.000000 1.000000 4.000000 1.000000 -60.708740 114.000000 238.000000 -0.312314 0.260020 0.913701
1.35000002 2.20000005 0.22000000 25 217 134 97.000000 1.000000 4.000000 1.000000 -60.708740 114.000000 238.000000 0.175872 0.714195 0.677491
1.37000000 2.19000006 0.19000000 25 217 134 97.000000 1.000000 4.000000 1.000000 -60.708740 114.000000 238.000000 -0.221914 0.600565 0.768164
1.38000000 2.20000005 0.19000000 25 217 134 97.000000 1.000000 4.000000 1.000000 -60.708740 114.000000 238.000000 -0.495403 0.420193 0.760272
1.36000001 2.19000006 0.19000000 25 217 134 97.000000 1.000000 4.000000 1.000000 -60.708740 114.000000 238.000000 -0.213343 0.904169 0.370085
1.37000000 2.20000005 0.18000001 25 217 134 97.000000 1.000000 4.000000 1.000000 -60.708740 114.000000 238.000000 -0.624564 0.690135 0.365559
1.37000000 2.21000004 0.18000001 25 217 134 97.000000 1.000000 4.000000 1.000000 -60.708740 114.000000 238.000000 -0.589395 0.141753 0.795311
1.36000001 2.20000005 0.18000001 25 217 134 97.000000 1.000000 4.000000 1.000000 -60.708740 114.000000 238.000000 -0.369577 0.652098 0.661953
1.38000000 2.20000005 0.18000001 25 217 134 97.000000 1.000000 4.000000 1.000000 -60.708740 114.000000 238.000000 -0.500768 0.608677 0.615422
1.36000001 2.20000005 0.17000000 25 217 134 97.000000 1.000000 4.000000 1.000000 -60.708740 114.000000 238.000000 0.325577 -0.626858 -0.707848
1.37000000 2.20000005 0.18000001 25 217 134 97.000000 1.000000 4.000000 1.000000 -60.708740 114.000000 238.000000 -0.624564 0.690135 0.365559
1.38000000 2.19000006 0.16000000 25 217 134 97.000000 1.000000 4.000000 1.000000 -60.708740 114.000000 238.000000 0.433001 -0.701761 -0.565722
1.35000002 2.20000005 0.17000000 25 217 134 97.000000 1.000000 4.000000 1.000000 -60.708740 114.000000 238.000000 0.586586 -0.495825 -0.640370
1.38000000 2.21000004 0.18000001 25 217 134 97.000000 1.000000 4.000000 1.000000 -60.708740 114.000000 238.000000 -0.417029 0.545600 0.726917
1.36000001 2.18000007 0.20000000 25 217 134 97.000000 1.000000 4.000000 1.000000 -60.708740 114.000000 238.000000 -0.279031 0.821503 0.497267
1.36000001 2.18000007 0.20000000 25 217 134 97.000000 1.000000 4.000000 1.000000 -60.708740 114.000000 238.000000 -0.279031 0.821503 0.497267
1.35000002 2.18000007 0.20000000 25 217 134 97.000000 1.000000 4.000000 1.000000 -60.708740 114.000000 238.000000 -0.210324 0.566493 0.796775
1.36000001 2.18000007 0.20000000 25 217 134 97.000000 1.000000 4.000000 1.000000 -60.708740 114.000000 238.000000 -0.279031 0.821503 0.497267
1.37000000 2.18000007 0.23000000 25 217 134 97.000000 1.000000 4.000000 1.000000 -60.708740 114.000000 238.000000 0.206192 0.873719 0.440568
1.35000002 2.18000007 0.19000000 25 217 134 97.000000 1.000000 4.000000 1.000000 -60.708740 114.000000 238.000000 -0.070434 0.888024 0.454370
1.36000001 2.18000007 0.20000000 25 217 134 97.000000 1.000000 4.000000 1.000000 -60.708740 114.000000 238.000000 -0.279031 0.821503 0.497267
1.36000001 2.17000008 0.20999999 25 217 134 97.000000 1.000000 4.000000 1.000000 -60.708740 114.000000 238.000000 0.223275 0.903317 0.366288
1.33000004 2.28999996 0.25000000 25 217 134 97.000000 1.000000 4.000000 1.000000 -60.708740 114.000000 238.000000 -0.415784 0.747754 0.517676
1.32000005 2.24000001 0.25000000 25 217 134 97.000000 1.000000 4.000000 1.000000 -60.708740 114.000000 238.000000 0.662771 -0.279482 -0.694712
1.33000004 2.23000002 0.25999999 25 217 134 97.000000 1.000000 4.000000 1.000000 -60.708740 114.000000 238.000000 0.698669 -0.282985 -0.657101
1.33000004 2.23000002 0.25999999 25 217 134 97.000000 1.000000 4.000000 1.000000 -60.708740 114.000000 238.000000 0.698669 -0.282985 -0.657101
1.33000004 2.30999994 0.17000000 25 217 134 97.000000 1.000000 4.000000 1.000000 -60.708740 114.000000 238.000000 0.699611 0.648145 -0.300752
1.34000003 2.27999997 0.17000000 25 217 134 97.000000 1.000000 4.000000 1.000000 -60.708740 114.000000 238.000000 0.461272 0.635717 -0.618944
1.34000003 2.27999997 0.17000000 25 217 134 97.000000 1.000000 4.000000 1.000000 -60.708740 114.000000 238.000000 0.461272 0.635717 -0.618944
1.34000003 2.24000001 0.22000000 25 217 134 97.000000 1.000000 4.000000 1.000000 -60.708740 114.000000 238.000000 -0.577795 -0.291285 0.762434
