//X Y Z R G B PointSourceId ScanDirectionFlag NumberOfReturns ReturnNumber GpsTime Intensity Classification Nx Ny Nz
-0.37000000 3.41000009 0.44999999 203 7 150 97.000000 1.000000 4.000000 1.000000 -60.708740 114.000000 231.000000 0.823510 0.124774 -0.553410
-0.36000001 3.41000009 0.47000000 203 7 150 97.000000 1.000000 4.000000 1.000000 -60.708740 114.000000 231.000000 0.844699 -0.416885 -0.335694
-0.38000000 3.44000006 0.43000001 203 7 150 97.000000 1.000000 4.000000 1.000000 -60.708740 114.000000 231.000000 -0.761249 0.202279 0.616103
-0.38000000 3.38000011 0.44999999 203 7 150 97.000000 1.000000 4.000000 1.000000 -60.708740 114.000000 231.000000 0.851431 -0.353336 -0.387580
-0.23999999 3.63000011 0.27000001 203 7 150 97.000000 1.000000 4.000000 1.000000 -60.708740 114.000000 231.000000 0.866281 0.281655 -0.412587
-0.16000000 3.50999999 0.05000000 203 7 150 97.000000 1.000000 4.000000 1.000000 -60.708740 114.000000 231.000000 0.738444 0.021018 0.673988
-0.20000000 3.51999998 0.10000000 203 7 150 97.000000 1.000000 4.000000 1.000000 -60.708740 114.000000 231.000000 0.783705 -0.145352 0.603887
-0.18000001 3.50999999 0.04000000 203 7 150 97.000000 1.000000 4.000000 1.000000 -60.708740 114.000000 231.000000 0.743559 -0.123678 0.657133
-0.10000000 3.32999992 0.25999999 203 7 150 97.000000 1.000000 4.000000 1.000000 -60.708740 114.000000 231.000000 0.997300 0.072819 -0.009498
-0.12000000 3.41000009 -0.02000000 203 7 150 97.000000 1.000000 4.000000 1.000000 -60.708740 114.000000 231.000000 0.761472 0.092078 0.641624
-0.23000000 3.33999991 0.00000000 203 7 150 97.000000 1.000000 4.000000 1.000000 -60.708740 114.000000 231.000000 0.491638 0.335714 0.803485
-0.33000001 3.36999989 0.23999999 203 7 150 97.000000 1.000000 4.000000 1.000000 -60.708740 114.000000 231.000000 0.999445 -0.033281 -0.001009
-0.33000001 3.36999989 0.23999999 203 7 150 97.000000 1.000000 4.000000 1.000000 -60.708740 114.000000 231.000000 0.999445 -0.033281 -0.001009
-0.37000000 3.36999989 0.15000001 203 7 150 97.000000 1.000000 4.000000 1.000000 -60.708740 114.000000 231.000000 0.984454 -0.174270 0.021928
-0.31999999 3.34999990 0.13000000 203 7 150 97.000000 1.000000 4.000000 1.000000 -60.708740 114.000000 231.000000 0.995285 -0.047290 -0.084682
-0.31000000 3.31999993 0.00000000 203 7 150 97.000000 1.000000 4.000000 1.000000 -60.708740 114.000000 231.000000 0.804334 -0.017997 0.593906
-0.36000001 3.41000009 0.04000000 203 7 150 97.000000 1.000000 4.000000 1.000000 -60.708740 114.000000 231.000000 0.825356 0.394460 0.403965
-0.13000000 3.24000001 0.50000000 203 7 150 97.000000 1.000000 4.000000 1.000000 -60.708740 114.000000 231.000000 -0.641566 0.076756 0.763218
-0.20999999 3.24000001 0.51999998 203 7 150 97.000000 1.000000 4.000000 1.000000 -60.708740 114.000000 231.000000 0.824722 -0.049174 -0.563396
-0.22000000 3.19000006 0.61000001 203 7 150 97.000000 1.000000 4.000000 1.000000 -60.708740 114.000000 231.000000 0.862767 -0.195203 -0.466401
-0.20000000 3.16000009 0.54000002 203 7 150 97.000000 1.000000 4.000000 1.000000 -60.708740 114.000000 231.000000 0.700294 -0.509761 -0.499732
-0.22000000 3.22000003 0.51999998 203 7 150 97.000000 1.000000 4.000000 1.000000 -60.708740 114.000000 231.000000 0.936043 -0.095077 -0.338797
-0.19000000 3.21000004 0.44999999 203 7 150 97.000000 1.000000 4.000000 1.000000 -60.708740 114.000000 231.000000 0.958802 -0.091376 -0.268979
-0.14000000 3.09999990 0.49000001 203 7 150 97.000000 1.000000 4.000000 1.000000 -60.708740 114.000000 231.000000 -0.540790 0.090371 0.836289
-0.10000000 2.99000001 0.50000000 203 7 150 97.000000 1.000000 4.000000 1.000000 -60.708740 114.000000 231.000000 -0.628173 0.126229 0.767767
-0.18000001 3.15000010 0.50999999 203 7 150 97.000000 1.000000 4.000000 1.000000 -60.708740 114.000000 231.000000 0.851545 -0.063129 -0.520467
-0.22000000 3.14000010 0.50999999 203 7 150 97.000000 1.000000 4.000000 1.000000 -60.708740 114.000000 231.000000 0.821581 -0.112365 -0.558909
-0.22000000 3.09999990 0.55000001 203 7 150 97.000000 1.000000 4.000000 1.000000 -60.708740 114.000000 231.000000 0.861761 0.095120 -0.498317
-0.22000000 3.09999990 0.50000000 203 7 150 97.000000 1.000000 4.000000 1.000000 -60.708740 114.000000 231.000000 0.678086 -0.369417 -0.635398
-0.22000000 3.06999993 0.50000000 203 7 150 97.000000 1.000000 4.000000 1.000000 -60.708740 114.000000 231.000000 0.956226 -0.067664 -0.284698
-0.10000000 3.00000000 0.43000001 203 7 150 97.000000 1.000000 4.000000 1.000000 -60.708740 114.000000 231.000000 0.825642 -0.153227 -0.542989
-0.17000000 3.07999992 0.38999999 203 7 150 97.000000 1.000000 4.000000 1.000000 -60.708740 114.000000 231.000000 0.932040 -0.341521 -0.121097
-0.22000000 3.01999998 0.46000001 203 7 150 97.000000 1.000000 4.000000 1.000000 -60.708740 114.000000 231.000000 0.966216 0.129944 -0.222577
-0.23000000 3.00000000 0.34999999 203 7 150 97.000000 1.000000 4.000000 1.000000 -60.708740 114.000000 231.000000 0.983090 0.022001 0.181796
-0.28999999 3.24000001 0.55000001 203 7 150 97.000000 1.000000 4.000000 1.000000 -60.708740 114.000000 231.000000 0.688180 -0.394424 -0.608965
-0.38999999 3.29999995 0.57999998 203 7 150 97.000000 1.000000 4.000000 1.000000 -60.708740 114.000000 231.000000 0.823445 -0.433142 -0.366505
-0.25000000 3.28999996 0.44999999 203 7 150 97.000000 1.000000 4.000000 1.000000 -60.708740 114.000000 231.000000 0.835542 -0.462115 -0.297185
-0.25999999 3.28999996 0.43000001 203 7 150 97.000000 1.000000 4.000000 1.000000 -60.708740 114.000000 231.000000 0.789461 -0.248563 -0.561221
-0.25999999 3.28999996 0.43000001 203 7 150 97.000000 1.000000 4.000000 1.000000 -60.708740 114.000000 231.000000 0.789461 -0.248563 -0.561221
-0.27000001 3.21000004 0.38000000 203 7 150 97.000000 1.000000 4.000000 1.000000 -60.708740 114.000000 231.000000 0.835882 0.111547 -0.537456
-0.25000000 3.08999991 0.50999999 203 7 150 97.000000 1.000000 4.000000 1.000000 -60.708740 114.000000 231.000000 0.964493 -0.253416 -0.074386
-0.31999999 3.10999990 0.49000001 203 7 150 97.000000 1.000000 4.000000 1.000000 -60.708740 114.000000 231.000000 0.995121 -0.027249 -0.094825
-0.25999999 3.04999995 0.49000001 203 7 150 97.000000 1.000000 4.000000 1.000000 -60.708740 114.000000 231.000000 0.825534 -0.208284 -0.524511
-0.41000000 3.04999995 0.52999997 203 7 150 97.000000 1.000000 4.000000 1.000000 -60.708740 114.000000 231.000000 0.792234 -0.207673 -0.573793
-0.41000000 3.03999996 0.52999997 203 7 150 97.000000 1.000000 4.000000 1.000000 -60.708740 114.000000 231.000000 0.824052 -0.221684 -0.521339
-0.31000000 3.09999990 0.37000000 203 7 150 97.000000 1.000000 4.000000 1.000000 -60.708740 114.000000 231.000000 0.862685 -0.125718 -0.489866
-0.31000000 3.09999990 0.37000000 203 7 150 97.000000 1.000000 4.000000 1.000000 -60.708740 114.000000 231.000000 0.862685 -0.125718 -0.489866
-0.31000000 3.01999998 0.37000000 203 7 150 97.000000 1.000000 4.000000 1.000000 -60.708740 114.000000 231.000000 0.963184 -0.139083 0.230072
-0.09000000 3.26999998 0.19000000 203 7 150 97.000000 1.000000 4.000000 1.000000 -60.708740 114.000000 231.000000 0.996194 0.040283 0.077300
-0.16000000 3.17000008 0.18000001 203 7 150 97.000000 1.000000 4.000000 1.000000 -60.708740 114.000000 231.000000 0.740798 0.058748 0.669154
-0.16000000 3.22000003 0.23000000 203 7 150 97.000000 1.000000 4.000000 1.000000 -60.708740 114.000000 231.000000 0.960503 0.264746 -0.085691
-0.20000000 3.28999996 0.30000001 203 7 150 97.000000 1.000000 4.000000 1.000000 -60.708740 114.000000 231.000000 0.967775 -0.199740 -0.153349
-0.20000000 3.25000000 0.28000000 203 7 150 97.000000 1.000000 4.000000 1.000000 -60.708740 114.000000 231.000000 0.982060 0.098085 0.161053
-0.20999999 3.25999999 0.17000000 203 7 150 97.000000 1.000000 4.000000 1.000000 -60.708740 114.000000 231.000000 0.958749 0.102215 0.265241
-0.14000000 3.25000000 0.11000000 203 7 150 97.000000 1.000000 4.000000 1.000000 -60.708740 114.000000 231.000000 0.897973 0.030689 0.438979
-0.13000000 3.20000005 0.02000000 203 7 150 97.000000 1.000000 4.000000 1.000000 -60.708740 114.000000 231.000000 0.560002 0.075522 0.825042
-0.22000000 3.18000007 0.14000000 203 7 150 97.000000 1.000000 4.000000 1.000000 -60.708740 114.000000 231.000000 0.899068 -0.152942 0.410227
-0.18000001 3.17000008 0.06000000 203 7 150 97.000000 1.000000 4.000000 1.000000 -60.708740 114.000000 231.000000 0.773883 0.363515 0.518615
-0.15000001 3.10999990 0.25999999 203 7 150 97.000000 1.000000 4.000000 1.000000 -60.708740 114.000000 231.000000 0.989028 -0.145811 -0.023737
-0.23000000 3.10999990 0.30000001 203 7 150 97.000000 1.000000 4.000000 1.000000 -60.708740 114.000000 231.000000 0.935661 -0.014003 -0.352623
-0.09000000 3.14000010 0.13000000 203 7 150 97.000000 1.000000 4.000000 1.000000 -60.708740 114.000000 231.000000 0.697294 0.520044 0.493290
-0.09000000 3.14000010 0.14000000 203 7 150 97.000000 1.000000 4.000000 1.000000 -60.708740 114.000000 231.000000 0.615182 0.225826 0.755350
-0.14000000 3.09999990 0.05000000 203 7 150 97.000000 1.000000 4.000000 1.000000 -60.708740 114.000000 231.000000 0.605659 0.306846 0.734181
-0.18000001 3.04999995 0.05000000 203 7 150 97.000000 1.000000 4.000000 1.000000 -60.708740 114.000000 231.000000 0.743007 0.079971 0.664489
-0.28999999 3.30999994 0.19000000 203 7 150 97.000000 1.000000 4.000000 1.000000 -60.708740 114.000000 231.000000 0.981198 -0.181348 0.066054
-0.25000000 3.25000000 0.20000000 203 7 150 97.000000 1.000000 4.000000 1.000000 -60.708740 114.000000 231.000000 0.990568 0.132453 -0.035094
-0.31999999 3.22000003 0.28999999 203 7 150 97.000000 1.000000 4.000000 1.000000 -60.708740 114.000000 231.000000 0.957551 0.209090 -0.198436
-0.28000000 3.21000004 0.20999999 203 7 150 97.000000 1.000000 4.000000 1.000000 -60.708740 114.000000 231.000000 0.975305 0.064695 -0.211174
-0.25999999 3.22000003 0.15000001 203 7 150 97.000000 1.000000 4.000000 1.000000 -60.708740 114.000000 231.000000 0.845664 0.142165 0.514433
-0.25999999 3.22000003 0.15000001 203 7 150 97.000000 1.000000 4.000000 1.000000 -60.708740 114.000000 231.000000 0.845664 0.142165 0.514433
-0.25999999 3.21000004 0.16000000 203 7 150 97.000000 1.000000 4.000000 1.000000 -60.708740 114.000000 231.000000 0.961689 0.126230 0.243350
-0.28000000 3.17000008 0.16000000 203 7 150 97.000000 1.000000 4.000000 1.000000 -60.708740 114.000000 231.000000 0.875243 0.254589 0.411259
-0.41000000 3.27999997 0.18000001 203 7 150 97.000000 1.000000 4.000000 1.000000 -60.708740 114.000000 231.000000 0.990558 -0.021266 -0.135432
-0.25999999 3.24000001 0.10000000 203 7 150 97.000000 1.000000 4.000000 1.000000 -60.708740 114.000000 231.000000 0.994756 0.095628 0.036273
-0.31999999 3.24000001 0.09000000 203 7 150 97.000000 1.000000 4.000000 1.000000 -60.708740 114.000000 231.000000 0.707710 0.351403 0.612913
-0.36000001 3.00999999 0.00000000 203 7 150 97.000000 1.000000 4.000000 1.000000 -60.708740 114.000000 231.000000 0.942723 -0.136607 0.304322
-0.54000002 3.64000010 0.31000000 203 7 150 97.000000 1.000000 4.000000 1.000000 -60.708740 114.000000 231.000000 0.938915 0.148969 -0.310238
-0.47000000 3.61999989 0.12000000 203 7 150 97.000000 1.000000 4.000000 1.000000 -60.708740 114.000000 231.000000 0.902870 0.429750 -0.011828
-0.41999999 3.29999995 0.34000000 203 7 150 97.000000 1.000000 4.000000 1.000000 -60.708740 114.000000 231.000000 0.855928 -0.028759 -0.516295
-0.16000000 2.94000006 0.41000000 203 7 150 97.000000 1.000000 4.000000 1.000000 -60.708740 114.000000 231.000000 0.888792 -0.006603 -0.458263
-0.14000000 2.95000005 0.41000000 203 7 150 97.000000 1.000000 4.000000 1.000000 -60.708740 114.000000 231.000000 0.802957 -0.157590 -0.574827
-0.23999999 2.97000003 0.47999999 203 7 150 97.000000 1.000000 4.000000 1.000000 -60.708740 114.000000 231.000000 0.860332 -0.172657 -0.479602
-0.23000000 2.96000004 0.41000000 203 7 150 97.000000 1.000000 4.000000 1.000000 -60.708740 114.000000 231.000000 0.978727 -0.119718 0.166618
-0.23000000 2.93000007 0.41999999 203 7 150 97.000000 1.000000 4.000000 1.000000 -60.708740 114.000000 231.000000 0.971634 -0.198887 0.127947
-0.27000001 2.93000007 0.41000000 203 7 150 97.000000 1.000000 4.000000 1.000000 -60.708740 114.000000 231.000000 0.976005 0.029793 0.215698
-0.33000001 2.86999989 0.43000001 203 7 150 97.000000 1.000000 4.000000 1.000000 -60.708740 114.000000 231.000000 0.987164 -0.124134 -0.100490
-0.33000001 2.89000010 0.44999999 203 7 150 97.000000 1.000000 4.000000 1.000000 -60.708740 114.000000 231.000000 0.997512 -0.041786 -0.056786
-0.34999999 2.93000007 0.46000001 203 7 150 97.000000 1.000000 4.000000 1.000000 -60.708740 114.000000 231.000000 0.999831 0.007006 0.017014
-0.34000000 3.67000008 -0.18000001 203 7 150 97.000000 1.000000 4.000000 1.000000 -60.708740 114.000000 231.000000 0.517710 0.481088 0.707482
-0.30000001 3.71000004 -0.30000001 203 7 150 97.000000 1.000000 4.000000 1.000000 -60.708740 114.000000 231.000000 0.682885 0.319545 0.656932
-0.31000000 3.66000009 -0.31999999 203 7 150 97.000000 1.000000 4.000000 1.000000 -60.708740 114.000000 231.000000 0.736947 -0.009715 0.675881
-0.34000000 3.67000008 -0.18000001 203 7 150 97.000000 1.000000 4.000000 1.000000 -60.708740 114.000000 231.000000 0.517710 0.481088 0.707482
-0.28000000 3.67000008 -0.36000001 203 7 150 97.000000 1.000000 4.000000 1.000000 -60.708740 114.000000 231.000000 0.813345 0.286786 0.506186
-0.06000000 3.42000008 -0.03000000 203 7 150 97.000000 1.000000 4.000000 1.000000 -60.708740 114.000000 231.000000 0.310026 0.068751 0.948239
-0.05000000 3.31999993 -0.12000000 203 7 150 97.000000 1.000000 4.000000 1.000000 -60.708740 114.000000 231.000000 0.277892 0.437564 0.855169
0.09000000 3.00999999 -0.13000000 203 7 150 97.000000 1.000000 4.000000 1.000000 -60.708740 114.000000 231.000000 0.211640 0.052003 0.975963
0.09000000 3.03999996 -0.22000000 203 7 150 97.000000 1.000000 4.000000 1.000000 -60.708740 114.000000 231.000000 0.411010 0.060641 0.909612
-0.08000000 3.21000004 -0.08000000 203 7 150 97.000000 1.000000 4.000000 1.000000 -60.708740 114.000000 231.000000 0.554014 0.380782 0.740320
-0.08000000 3.22000003 -0.18000001 203 7 150 97.000000 1.000000 4.000000 1.000000 -60.708740 114.000000 231.000000 0.496827 0.377071 0.781653
-0.07000000 3.18000007 -0.14000000 203 7 150 97.000000 1.000000 4.000000 1.000000 -60.708740 114.000000 231.000000 0.687465 0.114330 0.717161
-0.03000000 3.20000005 -0.31000000 203 7 150 97.000000 1.000000 4.000000 1.000000 -60.708740 114.000000 231.000000 0.247003 0.532843 0.809362
-0.04000000 3.22000003 -0.31999999 203 7 150 97.000000 1.000000 4.000000 1.000000 -60.708740 114.000000 231.000000 0.168650 0.327542 0.929663
-0.07000000 3.21000004 -0.34000000 203 7 150 97.000000 1.000000 4.000000 1.000000 -60.708740 114.000000 231.000000 0.510938 0.148717 0.846655
-0.03000000 3.15000010 -0.03000000 203 7 150 97.000000 1.000000 4.000000 1.000000 -60.708740 114.000000 231.000000 0.360867 0.576407 0.733164
0.07000000 3.10999990 -0.38000000 203 7 150 97.000000 1.000000 4.000000 1.000000 -60.708740 114.000000 231.000000 0.402643 -0.006473 0.915334
-0.11000000 3.61999989 -0.34999999 203 7 150 97.000000 1.000000 4.000000 1.000000 -60.708740 114.000000 231.000000 0.671441 0.196030 0.714660
-0.11000000 3.64000010 -0.34999999 203 7 150 97.000000 1.000000 4.000000 1.000000 -60.708740 114.000000 231.000000 0.533648 0.292952 0.793346
-0.16000000 3.57999992 -0.28000000 203 7 150 97.000000 1.000000 4.000000 1.000000 -60.708740 114.000000 231.000000 0.722688 0.095283 0.684575
-0.12000000 3.61999989 -0.34000000 203 7 150 97.000000 1.000000 4.000000 1.000000 -60.708740 114.000000 231.000000 0.408031 0.124793 0.904399
-0.17000000 3.63000011 -0.31000000 203 7 150 97.000000 1.000000 4.000000 1.000000 -60.708740 114.000000 231.000000 0.525962 -0.071914 0.847462
-0.17000000 3.56999993 -0.31999999 203 7 150 97.000000 1.000000 4.000000 1.000000 -60.708740 114.000000 231.000000 0.594965 0.299888 0.745711
-0.09000000 3.48000002 -0.03000000 203 7 150 97.000000 1.000000 4.000000 1.000000 -60.708740 114.000000 231.000000 0.648193 -0.073625 0.757909
-0.10000000 3.42000008 -0.04000000 203 7 150 97.000000 1.000000 4.000000 1.000000 -60.708740 114.000000 231.000000 0.500743 0.451164 0.738720
-0.12000000 3.39000010 -0.06000000 203 7 150 97.000000 1.000000 4.000000 1.000000 -60.708740 114.000000 231.000000 0.613805 0.395416 0.683293
-0.11000000 3.34999990 -0.06000000 203 7 150 97.000000 1.000000 4.000000 1.000000 -60.708740 114.000000 231.000000 0.379863 0.043375 0.924025
-0.16000000 3.39000010 -0.28000000 203 7 150 97.000000 1.000000 4.000000 1.000000 -60.708740 114.000000 231.000000 0.385838 0.522591 0.760281
-0.16000000 3.40000010 -0.28999999 203 7 150 97.000000 1.000000 4.000000 1.000000 -60.708740 114.000000 231.000000 0.516401 0.295312 0.803817
-0.17000000 3.42000008 -0.28999999 203 7 150 97.000000 1.000000 4.000000 1.000000 -60.708740 114.000000 231.000000 0.146804 0.469483 0.870651
-0.20000000 3.31999993 -0.25000000 203 7 150 97.000000 1.000000 4.000000 1.000000 -60.708740 114.000000 231.000000 0.474256 0.242465 0.846340
-0.22000000 3.33999991 -0.25000000 203 7 150 97.000000 1.000000 4.000000 1.000000 -60.708740 114.000000 231.000000 0.528750 -0.023227 0.848460
-0.22000000 3.32999992 -0.23999999 203 7 150 97.000000 1.000000 4.000000 1.000000 -60.708740 114.000000 231.000000 0.716419 0.123623 0.686630
-0.31000000 3.57999992 -0.18000001 203 7 150 97.000000 1.000000 4.000000 1.000000 -60.708740 114.000000 231.000000 0.584336 -0.004105 0.811502
-0.41000000 3.54999995 -0.16000000 203 7 150 97.000000 1.000000 4.000000 1.000000 -60.708740 114.000000 231.000000 0.779321 0.132619 0.612430
-0.31999999 3.65000010 -0.20000000 203 7 150 97.000000 1.000000 4.000000 1.000000 -60.708740 114.000000 231.000000 0.817851 0.225561 0.529378
-0.28000000 3.57999992 -0.34999999 203 7 150 97.000000 1.000000 4.000000 1.000000 -60.708740 114.000000 231.000000 0.766424 0.178274 0.617101
-0.34999999 3.57999992 -0.28999999 203 7 150 97.000000 1.000000 4.000000 1.000000 -60.708740 114.000000 231.000000 0.503777 0.045547 0.862632
-0.30000001 3.40000010 -0.04000000 203 7 150 97.000000 1.000000 4.000000 1.000000 -60.708740 114.000000 231.000000 0.706140 0.390105 0.590919
-0.25999999 3.34999990 -0.17000000 203 7 150 97.000000 1.000000 4.000000 1.000000 -60.708740 114.000000 231.000000 0.572017 0.190672 0.797773
-0.25999999 3.34999990 -0.17000000 203 7 150 97.000000 1.000000 4.000000 1.000000 -60.708740 114.000000 231.000000 0.572017 0.190672 0.797773
-0.34000000 3.41000009 -0.09000000 203 7 150 97.000000 1.000000 4.000000 1.000000 -60.708740 114.000000 231.000000 0.583479 0.267230 0.766903
-0.41000000 3.43000007 -0.13000000 203 7 150 97.000000 1.000000 4.000000 1.000000 -60.708740 114.000000 231.000000 0.652702 0.445707 0.612638
-0.31999999 3.35999990 -0.20000000 203 7 150 97.000000 1.000000 4.000000 1.000000 -60.708740 114.000000 231.000000 0.727623 0.023833 0.685564
-0.10000000 3.31999993 -0.38999999 203 7 150 97.000000 1.000000 4.000000 1.000000 -60.708740 114.000000 231.000000 0.537009 0.075096 0.840227
-0.16000000 3.27999997 -0.05000000 203 7 150 97.000000 1.000000 4.000000 1.000000 -60.708740 114.000000 231.000000 0.716051 0.052882 0.696042
-0.14000000 3.30999994 -0.12000000 203 7 150 97.000000 1.000000 4.000000 1.000000 -60.708740 114.000000 231.000000 0.678844 0.209712 0.703699
-0.11000000 3.20000005 -0.03000000 203 7 150 97.000000 1.000000 4.000000 1.000000 -60.708740 114.000000 231.000000 0.358072 0.309725 0.880826
-0.15000001 3.16000009 -0.04000000 203 7 150 97.000000 1.000000 4.000000 1.000000 -60.708740 114.000000 231.000000 0.587995 0.285233 0.756904
-0.11000000 3.18000007 -0.08000000 203 7 150 97.000000 1.000000 4.000000 1.000000 -60.708740 114.000000 231.000000 0.378389 0.521300 0.764898
-0.11000000 3.21000004 -0.17000000 203 7 150 97.000000 1.000000 4.000000 1.000000 -60.708740 114.000000 231.000000 0.613781 -0.055539 0.787520
-0.16000000 3.21000004 -0.16000000 203 7 150 97.000000 1.000000 4.000000 1.000000 -60.708740 114.000000 231.000000 0.570743 0.276676 0.773112
-0.17000000 3.28999996 -0.15000001 203 7 150 97.000000 1.000000 4.000000 1.000000 -60.708740 114.000000 231.000000 0.314999 0.317984 0.894238
-0.23000000 3.24000001 -0.14000000 203 7 150 97.000000 1.000000 4.000000 1.000000 -60.708740 114.000000 231.000000 0.661536 0.473961 0.581147
-0.20999999 3.25000000 -0.14000000 203 7 150 97.000000 1.000000 4.000000 1.000000 -60.708740 114.000000 231.000000 0.460335 0.224885 0.858789
-0.18000001 3.25999999 -0.14000000 203 7 150 97.000000 1.000000 4.000000 1.000000 -60.708740 114.000000 231.000000 0.268329 0.385255 0.882937
-0.20000000 3.23000002 -0.16000000 203 7 150 97.000000 1.000000 4.000000 1.000000 -60.708740 114.000000 231.000000 0.625619 -0.029392 0.779575
-0.19000000 3.22000003 -0.14000000 203 7 150 97.000000 1.000000 4.000000 1.000000 -60.708740 114.000000 231.000000 0.787121 -0.004121 0.616784
-0.17000000 3.18000007 -0.15000001 203 7 150 97.000000 1.000000 4.000000 1.000000 -60.708740 114.000000 231.000000 0.728948 0.130223 0.672069
-0.14000000 3.28999996 -0.23000000 203 7 150 97.000000 1.000000 4.000000 1.000000 -60.708740 114.000000 231.000000 0.694712 0.279482 0.662771
-0.11000000 3.30999994 -0.31000000 203 7 150 97.000000 1.000000 4.000000 1.000000 -60.708740 114.000000 231.000000 0.468491 -0.181780 0.864565
-0.13000000 3.22000003 -0.27000001 203 7 150 97.000000 1.000000 4.000000 1.000000 -60.708740 114.000000 231.000000 0.639877 0.261984 0.722442
-0.09000000 3.21000004 -0.22000000 203 7 150 97.000000 1.000000 4.000000 1.000000 -60.708740 114.000000 231.000000 0.195321 0.421482 0.885552
-0.19000000 3.27999997 -0.20999999 203 7 150 97.000000 1.000000 4.000000 1.000000 -60.708740 114.000000 231.000000 0.565746 0.348525 0.747303
-0.20000000 3.28999996 -0.25999999 203 7 150 97.000000 1.000000 4.000000 1.000000 -60.708740 114.000000 231.000000 0.414515 0.342561 0.843107
-0.23999999 3.18000007 -0.27000001 203 7 150 97.000000 1.000000 4.000000 1.000000 -60.708740 114.000000 231.000000 0.708726 0.347031 0.614229
-0.23999999 3.19000006 -0.28000000 203 7 150 97.000000 1.000000 4.000000 1.000000 -60.708740 114.000000 231.000000 0.406246 0.118663 0.906026
-0.10000000 3.08999991 -0.14000000 203 7 150 97.000000 1.000000 4.000000 1.000000 -60.708740 114.000000 231.000000 0.660307 0.029566 0.750413
-0.19000000 3.06999993 -0.07000000 203 7 150 97.000000 1.000000 4.000000 1.000000 -60.708740 114.000000 231.000000 0.784741 0.001374 0.619822
-0.19000000 3.00999999 -0.11000000 203 7 150 97.000000 1.000000 4.000000 1.000000 -60.708740 114.000000 231.000000 0.610843 0.431086 0.664105
-0.20000000 3.09999990 -0.25000000 203 7 150 97.000000 1.000000 4.000000 1.000000 -60.708740 114.000000 231.000000 0.145925 0.452224 0.879886
-0.19000000 3.14000010 -0.22000000 203 7 150 97.000000 1.000000 4.000000 1.000000 -60.708740 114.000000 231.000000 0.533369 0.523273 0.664608
-0.19000000 3.13000011 -0.25999999 203 7 150 97.000000 1.000000 4.000000 1.000000 -60.708740 114.000000 231.000000 0.585982 -0.100329 0.804089
-0.20000000 3.08999991 -0.23999999 203 7 150 97.000000 1.000000 4.000000 1.000000 -60.708740 114.000000 231.000000 0.410064 0.168342 0.896386
-0.18000001 3.15000010 -0.23000000 203 7 150 97.000000 1.000000 4.000000 1.000000 -60.708740 114.000000 231.000000 0.607935 0.141901 0.781204
-0.19000000 3.13000011 -0.25999999 203 7 150 97.000000 1.000000 4.000000 1.000000 -60.708740 114.000000 231.000000 0.585982 -0.100329 0.804089
-0.22000000 3.09999990 -0.25000000 203 7 150 97.000000 1.000000 4.000000 1.000000 -60.708740 114.000000 231.000000 0.225334 0.359080 0.905696
-0.20000000 3.11999989 -0.30000001 203 7 150 97.000000 1.000000 4.000000 1.000000 -60.708740 114.000000 231.000000 0.704035 0.347934 0.619093
-0.30000001 3.29999995 -0.05000000 203 7 150 97.000000 1.000000 4.000000 1.000000 -60.708740 114.000000 231.000000 0.889351 0.067354 0.452236
-0.25999999 3.29999995 -0.12000000 203 7 150 97.000000 1.000000 4.000000 1.000000 -60.708740 114.000000 231.000000 0.550020 0.307692 0.776405
-0.28000000 3.25999999 -0.16000000 203 7 150 97.000000 1.000000 4.000000 1.000000 -60.708740 114.000000 231.000000 0.898144 0.022553 0.439122
-0.25999999 3.17000008 -0.09000000 203 7 150 97.000000 1.000000 4.000000 1.000000 -60.708740 114.000000 231.000000 0.563484 0.304888 0.767807
-0.31000000 3.19000006 -0.09000000 203 7 150 97.000000 1.000000 4.000000 1.000000 -60.708740 114.000000 231.000000 0.742529 0.271890 0.612149
-0.30000001 3.23000002 -0.18000001 203 7 150 97.000000 1.000000 4.000000 1.000000 -60.708740 114.000000 231.000000 0.595955 0.541931 0.592578
-0.36000001 3.20000005 -0.15000001 203 7 150 97.000000 1.000000 4.000000 1.000000 -60.708740 114.000000 231.000000 0.555357 0.381705 0.738837
-0.28000000 3.29999995 -0.25000000 203 7 150 97.000000 1.000000 4.000000 1.000000 -60.708740 114.000000 231.000000 0.438686 -0.173434 0.881745
-0.33000001 3.28999996 -0.25999999 203 7 150 97.000000 1.000000 4.000000 1.000000 -60.708740 114.000000 231.000000 0.376045 0.220945 0.899874
-0.27000001 3.30999994 -0.28999999 203 7 150 97.000000 1.000000 4.000000 1.000000 -60.708740 114.000000 231.000000 0.401644 -0.146181 0.904054
-0.28000000 3.23000002 -0.25000000 203 7 150 97.000000 1.000000 4.000000 1.000000 -60.708740 114.000000 231.000000 0.737010 0.286171 0.612310
-0.28999999 3.21000004 -0.20000000 203 7 150 97.000000 1.000000 4.000000 1.000000 -60.708740 114.000000 231.000000 0.782610 0.258779 0.566176
-0.33000001 3.14000010 -0.07000000 203 7 150 97.000000 1.000000 4.000000 1.000000 -60.708740 114.000000 231.000000 0.661850 0.283650 0.693900
-0.31000000 3.07999992 -0.09000000 203 7 150 97.000000 1.000000 4.000000 1.000000 -60.708740 114.000000 231.000000 0.728633 0.350461 0.588448
-0.28000000 3.14000010 -0.06000000 203 7 150 97.000000 1.000000 4.000000 1.000000 -60.708740 114.000000 231.000000 0.810466 -0.196154 0.551968
-0.34000000 3.14000010 -0.07000000 203 7 150 97.000000 1.000000 4.000000 1.000000 -60.708740 114.000000 231.000000 0.826572 0.134079 0.546628
-0.38000000 3.08999991 -0.17000000 203 7 150 97.000000 1.000000 4.000000 1.000000 -60.708740 114.000000 231.000000 0.729764 0.293509 0.617492
-0.36000001 3.06999993 -0.11000000 203 7 150 97.000000 1.000000 4.000000 1.000000 -60.708740 114.000000 231.000000 0.917750 -0.060290 0.392556
-0.25000000 3.14000010 -0.28999999 203 7 150 97.000000 1.000000 4.000000 1.000000 -60.708740 114.000000 231.000000 0.659784 0.439299 0.609674
-0.11000000 3.28999996 -0.38999999 203 7 150 97.000000 1.000000 4.000000 1.000000 -60.708740 114.000000 231.000000 0.331369 0.517063 0.789202
-0.47999999 3.52999997 -0.16000000 203 7 150 97.000000 1.000000 4.000000 1.000000 -60.708740 114.000000 231.000000 0.704761 0.419540 0.572100
-0.43000001 3.48000002 -0.15000001 203 7 150 97.000000 1.000000 4.000000 1.000000 -60.708740 114.000000 231.000000 0.759949 0.464505 0.454657
0.13000000 2.90000010 -0.16000000 203 7 150 97.000000 1.000000 4.000000 1.000000 -60.708740 114.000000 231.000000 0.103982 0.411769 0.905337
0.10000000 2.95000005 -0.17000000 203 7 150 97.000000 1.000000 4.000000 1.000000 -60.708740 114.000000 231.000000 0.395532 0.174034 0.901813
0.06000000 2.96000004 -0.18000001 203 7 150 97.000000 1.000000 4.000000 1.000000 -60.708740 114.000000 231.000000 0.059591 0.486426 0.871687
0.06000000 2.98000002 -0.15000001 203 7 150 97.000000 1.000000 4.000000 1.000000 -60.708740 114.000000 231.000000 0.300227 0.535326 0.789487
-0.20999999 2.97000003 -0.12000000 203 7 150 97.000000 1.000000 4.000000 1.000000 -60.708740 114.000000 231.000000 0.648193 0.073625 0.757909
0.02000000 4.11999989 0.43000001 203 7 150 97.000000 1.000000 4.000000 1.000000 -60.708740 114.000000 231.000000 0.165539 0.152902 0.974278
0.05000000 4.11000013 0.41999999 203 7 150 97.000000 1.000000 4.000000 1.000000 -60.708740 114.000000 231.000000 0.270292 0.175214 0.946701
0.03000000 4.15000010 0.43000001 203 7 150 97.000000 1.000000 4.000000 1.000000 -60.708740 114.000000 231.000000 -0.287501 0.089763 0.953565
0.04000000 4.05999994 0.44999999 203 7 150 97.000000 1.000000 4.000000 1.000000 -60.708740 114.000000 231.000000 0.131956 0.373645 0.918138
0.11000000 3.90000010 0.47000000 203 7 150 97.000000 1.000000 4.000000 1.000000 -60.708740 114.000000 231.000000 -0.121546 0.075243 0.989730
0.13000000 3.97000003 0.47999999 203 7 150 97.000000 1.000000 4.000000 1.000000 -60.708740 114.000000 231.000000 -0.250218 0.374587 0.892791
0.16000000 3.95000005 0.47000000 203 7 150 97.000000 1.000000 4.000000 1.000000 -60.708740 114.000000 231.000000 -0.098482 -0.069050 0.992740
0.18000001 3.85999990 0.47999999 203 7 150 97.000000 1.000000 4.000000 1.000000 -60.708740 114.000000 231.000000 0.014251 0.395130 0.918515
0.01000000 3.92000008 0.43000001 203 7 150 97.000000 1.000000 4.000000 1.000000 -60.708740 114.000000 231.000000 -0.340417 0.283929 0.896382
0.03000000 3.91000009 0.44999999 203 7 150 97.000000 1.000000 4.000000 1.000000 -60.708740 114.000000 231.000000 0.118496 0.044013 0.991979
-0.04000000 3.91000009 0.46000001 203 7 150 97.000000 1.000000 4.000000 1.000000 -60.708740 114.000000 231.000000 -0.044709 0.138712 0.989323
-0.08000000 3.84999990 0.41999999 203 7 150 97.000000 1.000000 4.000000 1.000000 -60.708740 114.000000 231.000000 0.805459 0.100500 -0.584067
-0.08000000 3.77999997 0.34000000 203 7 150 97.000000 1.000000 4.000000 1.000000 -60.708740 114.000000 231.000000 -0.453442 0.324784 0.830003
-0.09000000 4.03999996 0.38000000 203 7 150 97.000000 1.000000 4.000000 1.000000 -60.708740 114.000000 231.000000 -0.389362 0.364342 0.845962
-0.12000000 3.97000003 0.47999999 203 7 150 97.000000 1.000000 4.000000 1.000000 -60.708740 114.000000 231.000000 -0.322107 0.399166 0.858437
-0.10000000 3.83999991 0.40000001 203 7 150 97.000000 1.000000 4.000000 1.000000 -60.708740 114.000000 231.000000 0.796735 -0.138498 -0.588244
-0.14000000 3.89000010 0.41000000 203 7 150 97.000000 1.000000 4.000000 1.000000 -60.708740 114.000000 231.000000 -0.668431 0.120586 0.733934
-0.23999999 3.74000001 0.38999999 203 7 150 97.000000 1.000000 4.000000 1.000000 -60.708740 114.000000 231.000000 0.935133 -0.089378 -0.342838
-0.25000000 3.76999998 0.41000000 203 7 150 97.000000 1.000000 4.000000 1.000000 -60.708740 114.000000 231.000000 0.835404 0.287802 -0.468262
-0.17000000 3.77999997 0.25999999 203 7 150 97.000000 1.000000 4.000000 1.000000 -60.708740 114.000000 231.000000 0.857647 -0.381692 -0.344604
-0.16000000 3.68000007 0.09000000 203 7 150 97.000000 1.000000 4.000000 1.000000 -60.708740 114.000000 231.000000 0.741780 0.188900 0.643490
-0.17000000 3.32999992 0.68000001 203 7 150 97.000000 1.000000 4.000000 1.000000 -60.708740 114.000000 231.000000 -0.356577 0.281979 0.890697
-0.13000000 3.25999999 0.69000000 203 7 150 97.000000 1.000000 4.000000 1.000000 -60.708740 114.000000 231.000000 0.616226 -0.064339 -0.784937
-0.31000000 3.28999996 0.74000001 203 7 150 97.000000 1.000000 4.000000 1.000000 -60.708740 114.000000 231.000000 0.811444 0.061107 -0.581227
-0.04000000 3.43000007 0.34000000 203 7 150 97.000000 1.000000 4.000000 1.000000 -60.708740 114.000000 231.000000 -0.830752 0.436657 0.345227
-0.03000000 3.42000008 0.34999999 203 7 150 97.000000 1.000000 4.000000 1.000000 -60.708740 114.000000 231.000000 -0.680944 -0.083113 0.727604
-0.05000000 3.39000010 0.41999999 203 7 150 97.000000 1.000000 4.000000 1.000000 -60.708740 114.000000 231.000000 0.684846 0.179255 -0.706296
-0.07000000 3.50000000 0.23999999 203 7 150 97.000000 1.000000 4.000000 1.000000 -60.708740 114.000000 231.000000 0.971597 -0.162146 -0.172360
0.09000000 3.02999997 0.47999999 203 7 150 97.000000 1.000000 4.000000 1.000000 -60.708740 114.000000 231.000000 -0.176172 0.552609 0.814608
-0.03000000 3.16000009 0.50000000 203 7 150 97.000000 1.000000 4.000000 1.000000 -60.708740 114.000000 231.000000 0.708564 -0.237235 -0.664573
-0.08000000 3.03999996 0.49000001 203 7 150 97.000000 1.000000 4.000000 1.000000 -60.708740 114.000000 231.000000 0.897973 0.030689 -0.438979
-0.04000000 3.06999993 0.49000001 203 7 150 97.000000 1.000000 4.000000 1.000000 -60.708740 114.000000 231.000000 0.772920 -0.414936 -0.480024
0.02000000 3.01999998 0.44999999 203 7 150 97.000000 1.000000 4.000000 1.000000 -60.708740 114.000000 231.000000 0.752329 0.168704 -0.636820
-0.01000000 3.05999994 0.34000000 203 7 150 97.000000 1.000000 4.000000 1.000000 -60.708740 114.000000 231.000000 0.886907 0.020066 -0.461513
-0.01000000 3.16000009 0.05000000 203 7 150 97.000000 1.000000 4.000000 1.000000 -60.708740 114.000000 231.000000 0.643509 0.089011 0.760245
-0.03000000 3.18000007 0.10000000 203 7 150 97.000000 1.000000 4.000000 1.000000 -60.708740 114.000000 231.000000 0.503015 0.304332 0.808924
-0.04000000 3.18000007 0.01000000 203 7 150 97.000000 1.000000 4.000000 1.000000 -60.708740 114.000000 231.000000 0.478116 0.212663 0.852162
-0.07000000 3.14000010 0.09000000 203 7 150 97.000000 1.000000 4.000000 1.000000 -60.708740 114.000000 231.000000 0.647880 -0.012486 0.761640
-0.07000000 3.09999990 0.02000000 203 7 150 97.000000 1.000000 4.000000 1.000000 -60.708740 114.000000 231.000000 0.420991 -0.078164 0.903691
-0.34000000 3.45000005 0.60000002 203 7 150 97.000000 1.000000 4.000000 1.000000 -60.708740 114.000000 231.000000 0.866747 -0.392864 -0.307259
-0.37000000 3.45000005 0.63000000 203 7 150 97.000000 1.000000 4.000000 1.000000 -60.708740 114.000000 231.000000 -0.517259 0.001344 0.855828
-0.34000000 3.32999992 0.56000000 203 7 150 97.000000 1.000000 4.000000 1.000000 -60.708740 114.000000 231.000000 0.961467 -0.222282 -0.161779
-0.34000000 3.33999991 0.51999998 203 7 150 97.000000 1.000000 4.000000 1.000000 -60.708740 114.000000 231.000000 -0.591603 0.040752 0.805199
-0.36000001 3.32999992 0.54000002 203 7 150 97.000000 1.000000 4.000000 1.000000 -60.708740 114.000000 231.000000 0.983098 -0.112735 -0.144252
-0.33000001 3.43000007 0.37000000 203 7 150 97.000000 1.000000 4.000000 1.000000 -60.708740 114.000000 231.000000 -0.904904 0.173524 0.388636
-0.38999999 3.32999992 0.37000000 203 7 150 97.000000 1.000000 4.000000 1.000000 -60.708740 114.000000 231.000000 0.911682 0.077445 -0.403531
-0.16000000 3.50999999 0.06000000 203 7 150 97.000000 1.000000 4.000000 1.000000 -60.708740 114.000000 231.000000 0.731085 -0.226997 0.643418
-0.20000000 3.49000001 0.03000000 203 7 150 97.000000 1.000000 4.000000 1.000000 -60.708740 114.000000 231.000000 0.803762 -0.244082 0.542578
-0.22000000 3.38000011 0.09000000 203 7 150 97.000000 1.000000 4.000000 1.000000 -60.708740 114.000000 231.000000 0.657172 0.149563 0.738752
-0.17000000 3.47000003 0.07000000 203 7 150 97.000000 1.000000 4.000000 1.000000 -60.708740 114.000000 231.000000 0.641925 0.009705 0.766706
-0.34999999 3.31999993 0.23999999 203 7 150 97.000000 1.000000 4.000000 1.000000 -60.708740 114.000000 231.000000 0.993528 -0.045821 -0.103935
-0.30000001 3.38000011 0.00000000 203 7 150 97.000000 1.000000 4.000000 1.000000 -60.708740 114.000000 231.000000 0.790269 -0.018055 0.612494
-0.30000001 3.38000011 0.00000000 203 7 150 97.000000 1.000000 4.000000 1.000000 -60.708740 114.000000 231.000000 0.790269 -0.018055 0.612494
-0.22000000 3.19000006 0.62000000 203 7 150 97.000000 1.000000 4.000000 1.000000 -60.708740 114.000000 231.000000 0.810129 -0.256567 -0.527128
-0.20999999 3.21000004 0.61000001 203 7 150 97.000000 1.000000 4.000000 1.000000 -60.708740 114.000000 231.000000 0.776735 -0.394043 -0.491338
-0.09000000 3.00000000 0.50999999 203 7 150 97.000000 1.000000 4.000000 1.000000 -60.708740 114.000000 231.000000 -0.490731 0.065338 0.868858
-0.20000000 3.09999990 0.50999999 203 7 150 97.000000 1.000000 4.000000 1.000000 -60.708740 114.000000 231.000000 0.943077 0.018937 -0.332034
-0.15000001 3.09999990 0.38000000 203 7 150 97.000000 1.000000 4.000000 1.000000 -60.708740 114.000000 231.000000 0.970329 0.187929 -0.152133
-0.22000000 3.10999990 0.44000000 203 7 150 97.000000 1.000000 4.000000 1.000000 -60.708740 114.000000 231.000000 0.975224 -0.118930 -0.186532
-0.20000000 3.08999991 0.38000000 203 7 150 97.000000 1.000000 4.000000 1.000000 -60.708740 114.000000 231.000000 0.985601 -0.168993 -0.005671
-0.37000000 3.25000000 0.62000000 203 7 150 97.000000 1.000000 4.000000 1.000000 -60.708740 114.000000 231.000000 -0.661471 0.409482 0.628315
-0.36000001 3.25999999 0.58999997 203 7 150 97.000000 1.000000 4.000000 1.000000 -60.708740 114.000000 231.000000 0.725632 -0.202682 -0.657555
-0.38000000 3.27999997 0.61000001 203 7 150 97.000000 1.000000 4.000000 1.000000 -60.708740 114.000000 231.000000 0.738745 -0.202884 -0.642724
-0.25000000 3.15000010 0.41000000 203 7 150 97.000000 1.000000 4.000000 1.000000 -60.708740 114.000000 231.000000 0.947708 -0.318420 0.021396
-0.28000000 3.03999996 0.43000001 203 7 150 97.000000 1.000000 4.000000 1.000000 -60.708740 114.000000 231.000000 0.891869 -0.420638 -0.166232
-0.38000000 3.00000000 0.43000001 203 7 150 97.000000 1.000000 4.000000 1.000000 -60.708740 114.000000 231.000000 0.872173 -0.432347 -0.228889
-0.14000000 3.24000001 0.11000000 203 7 150 97.000000 1.000000 4.000000 1.000000 -60.708740 114.000000 231.000000 0.607222 0.195233 0.770172
-0.09000000 3.18000007 0.03000000 203 7 150 97.000000 1.000000 4.000000 1.000000 -60.708740 114.000000 231.000000 0.522301 0.208616 0.826850
-0.15000001 3.14000010 0.25999999 203 7 150 97.000000 1.000000 4.000000 1.000000 -60.708740 114.000000 231.000000 0.921622 -0.009023 0.387984
-0.16000000 3.13000011 0.16000000 203 7 150 97.000000 1.000000 4.000000 1.000000 -60.708740 114.000000 231.000000 0.720927 0.300253 0.624590
-0.16000000 3.09999990 0.07000000 203 7 150 97.000000 1.000000 4.000000 1.000000 -60.708740 114.000000 231.000000 0.733795 0.328831 0.594487
-0.09000000 3.09999990 0.04000000 203 7 150 97.000000 1.000000 4.000000 1.000000 -60.708740 114.000000 231.000000 0.732889 0.419970 0.535256
-0.12000000 3.04999995 0.01000000 203 7 150 97.000000 1.000000 4.000000 1.000000 -60.708740 114.000000 231.000000 0.398221 0.312119 0.862556
-0.28999999 3.29999995 0.27000001 203 7 150 97.000000 1.000000 4.000000 1.000000 -60.708740 114.000000 231.000000 0.987250 0.139694 0.076304
-0.30000001 3.16000009 0.15000001 203 7 150 97.000000 1.000000 4.000000 1.000000 -60.708740 114.000000 231.000000 0.929357 0.338325 0.147758
-0.31999999 3.28999996 0.10000000 203 7 150 97.000000 1.000000 4.000000 1.000000 -60.708740 114.000000 231.000000 0.825884 0.195484 0.528869
-0.31999999 3.24000001 0.09000000 203 7 150 97.000000 1.000000 4.000000 1.000000 -60.708740 114.000000 231.000000 0.707710 0.351403 0.612913
-0.33000001 3.26999998 0.01000000 203 7 150 97.000000 1.000000 4.000000 1.000000 -60.708740 114.000000 231.000000 0.847156 0.295808 0.441389
-0.37000000 3.29999995 0.14000000 203 7 150 97.000000 1.000000 4.000000 1.000000 -60.708740 114.000000 231.000000 0.969042 -0.025406 0.245587
-0.41000000 3.21000004 0.05000000 203 7 150 97.000000 1.000000 4.000000 1.000000 -60.708740 114.000000 231.000000 0.934461 0.228361 0.273193
-0.41999999 3.36999989 0.43000001 203 7 150 97.000000 1.000000 4.000000 1.000000 -60.708740 114.000000 231.000000 0.849704 -0.337085 -0.405434
-0.43000001 3.50999999 -0.01000000 203 7 150 97.000000 1.000000 4.000000 1.000000 -60.708740 114.000000 231.000000 0.775802 0.252332 0.578325
-0.11000000 2.94000006 0.44999999 203 7 150 97.000000 1.000000 4.000000 1.000000 -60.708740 114.000000 231.000000 0.927945 0.087542 -0.362289
-0.11000000 2.92000008 0.47000000 203 7 150 97.000000 1.000000 4.000000 1.000000 -60.708740 114.000000 231.000000 0.940186 -0.310682 -0.139739
-0.31000000 2.92000008 0.43000001 203 7 150 97.000000 1.000000 4.000000 1.000000 -60.708740 114.000000 231.000000 0.974467 0.196394 0.108830
-0.36000001 2.90000010 0.38999999 203 7 150 97.000000 1.000000 4.000000 1.000000 -60.708740 114.000000 231.000000 0.992444 -0.109519 0.055324
-0.43000001 2.93000007 0.01000000 203 7 150 97.000000 1.000000 4.000000 1.000000 -60.708740 114.000000 231.000000 0.580917 0.299261 0.756953
-0.07000000 3.29999995 -0.06000000 203 7 150 97.000000 1.000000 4.000000 1.000000 -60.708740 114.000000 231.000000 0.648741 0.216247 0.729639
-0.06000000 3.20000005 -0.08000000 203 7 150 97.000000 1.000000 4.000000 1.000000 -60.708740 114.000000 231.000000 0.465848 0.562691 0.682909
-0.07000000 3.21000004 -0.34000000 203 7 150 97.000000 1.000000 4.000000 1.000000 -60.708740 114.000000 231.000000 0.510938 0.148717 0.846655
-0.06000000 3.23000002 -0.34999999 203 7 150 97.000000 1.000000 4.000000 1.000000 -60.708740 114.000000 231.000000 0.019973 0.448721 0.893448
-0.06000000 3.07999992 -0.18000001 203 7 150 97.000000 1.000000 4.000000 1.000000 -60.708740 114.000000 231.000000 0.047175 0.435358 0.899021
0.00000000 3.00000000 -0.18000001 203 7 150 97.000000 1.000000 4.000000 1.000000 -60.708740 114.000000 231.000000 0.107403 0.502647 0.857794
-0.04000000 3.29999995 -0.36000001 203 7 150 97.000000 1.000000 4.000000 1.000000 -60.708740 114.000000 231.000000 0.444448 0.281432 0.850448
-0.17000000 3.57999992 -0.03000000 203 7 150 97.000000 1.000000 4.000000 1.000000 -60.708740 114.000000 231.000000 0.839653 -0.012248 0.542985
-0.23000000 3.58999991 -0.33000001 203 7 150 97.000000 1.000000 4.000000 1.000000 -60.708740 114.000000 231.000000 0.327124 0.469352 0.820182
-0.13000000 3.57999992 -0.31999999 203 7 150 97.000000 1.000000 4.000000 1.000000 -60.708740 114.000000 231.000000 0.677411 0.004156 0.735593
-0.14000000 3.40000010 -0.05000000 203 7 150 97.000000 1.000000 4.000000 1.000000 -60.708740 114.000000 231.000000 0.488802 -0.003996 0.872386
-0.16000000 3.33999991 -0.13000000 203 7 150 97.000000 1.000000 4.000000 1.000000 -60.708740 114.000000 231.000000 0.193251 0.362167 0.911860
-0.19000000 3.36999989 -0.17000000 203 7 150 97.000000 1.000000 4.000000 1.000000 -60.708740 114.000000 231.000000 0.685536 0.196531 0.701011
-0.12000000 3.41000009 -0.25999999 203 7 150 97.000000 1.000000 4.000000 1.000000 -60.708740 114.000000 231.000000 0.592732 0.181324 0.784723
-0.20999999 3.31999993 -0.25000000 203 7 150 97.000000 1.000000 4.000000 1.000000 -60.708740 114.000000 231.000000 0.337509 0.402833 0.850772
-0.23000000 3.35999990 -0.20000000 203 7 150 97.000000 1.000000 4.000000 1.000000 -60.708740 114.000000 231.000000 0.604199 -0.058287 0.794699
-0.40000001 3.53999996 -0.07000000 203 7 150 97.000000 1.000000 4.000000 1.000000 -60.708740 114.000000 231.000000 0.789003 0.419613 0.448776
-0.36000001 3.50000000 -0.15000001 203 7 150 97.000000 1.000000 4.000000 1.000000 -60.708740 114.000000 231.000000 0.739773 0.320730 0.591496
-0.33000001 3.60999990 -0.27000001 203 7 150 97.000000 1.000000 4.000000 1.000000 -60.708740 114.000000 231.000000 0.799303 0.046520 0.599125
-0.31999999 3.63000011 -0.28000000 203 7 150 97.000000 1.000000 4.000000 1.000000 -60.708740 114.000000 231.000000 0.822365 0.146692 0.549725
-0.36000001 3.54999995 -0.27000001 203 7 150 97.000000 1.000000 4.000000 1.000000 -60.708740 114.000000 231.000000 0.779454 0.424713 0.460512
-0.41000000 3.46000004 -0.10000000 203 7 150 97.000000 1.000000 4.000000 1.000000 -60.708740 114.000000 231.000000 0.819284 0.112451 0.562254
-0.34000000 3.31999993 -0.06000000 203 7 150 97.000000 1.000000 4.000000 1.000000 -60.708740 114.000000 231.000000 0.657202 0.311646 0.686267
-0.34000000 3.48000002 -0.28999999 203 7 150 97.000000 1.000000 4.000000 1.000000 -60.708740 114.000000 231.000000 0.421738 -0.035921 0.906006
-0.40000001 3.44000006 -0.19000000 203 7 150 97.000000 1.000000 4.000000 1.000000 -60.708740 114.000000 231.000000 0.815230 0.229621 0.531672
-0.34999999 3.42000008 -0.19000000 203 7 150 97.000000 1.000000 4.000000 1.000000 -60.708740 114.000000 231.000000 0.649923 0.209403 0.730582
-0.15000001 3.25000000 -0.05000000 203 7 150 97.000000 1.000000 4.000000 1.000000 -60.708740 114.000000 231.000000 0.555643 0.121684 0.822468
-0.11000000 3.25999999 -0.16000000 203 7 150 97.000000 1.000000 4.000000 1.000000 -60.708740 114.000000 231.000000 0.646514 -0.073763 0.759328
-0.12000000 3.23000002 -0.17000000 203 7 150 97.000000 1.000000 4.000000 1.000000 -60.708740 114.000000 231.000000 0.492436 0.147585 0.857745
-0.13000000 3.28999996 -0.19000000 203 7 150 97.000000 1.000000 4.000000 1.000000 -60.708740 114.000000 231.000000 0.649930 -0.029478 0.759422
-0.16000000 3.28999996 -0.19000000 203 7 150 97.000000 1.000000 4.000000 1.000000 -60.708740 114.000000 231.000000 0.745711 0.299888 0.594965
-0.09000000 3.22000003 -0.19000000 203 7 150 97.000000 1.000000 4.000000 1.000000 -60.708740 114.000000 231.000000 0.441974 0.281816 0.851609
-0.11000000 3.16000009 -0.23999999 203 7 150 97.000000 1.000000 4.000000 1.000000 -60.708740 114.000000 231.000000 0.272317 0.334141 0.902327
-0.11000000 3.17000008 -0.27000001 203 7 150 97.000000 1.000000 4.000000 1.000000 -60.708740 114.000000 231.000000 0.087407 0.198206 0.976255
-0.20999999 3.30999994 -0.25000000 203 7 150 97.000000 1.000000 4.000000 1.000000 -60.708740 114.000000 231.000000 0.209237 0.328801 0.920929
-0.18000001 3.29999995 -0.23999999 203 7 150 97.000000 1.000000 4.000000 1.000000 -60.708740 114.000000 231.000000 0.736892 0.052942 0.673934
-0.18000001 3.00000000 -0.07000000 203 7 150 97.000000 1.000000 4.000000 1.000000 -60.708740 114.000000 231.000000 0.593854 0.408585 0.693106
-0.11000000 3.15000010 -0.20999999 203 7 150 97.000000 1.000000 4.000000 1.000000 -60.708740 114.000000 231.000000 0.363390 0.152933 0.918999
-0.20000000 3.10999990 -0.25999999 203 7 150 97.000000 1.000000 4.000000 1.000000 -60.708740 114.000000 231.000000 0.241649 0.301704 0.922269
-0.17000000 3.15000010 -0.33000001 203 7 150 97.000000 1.000000 4.000000 1.000000 -60.708740 114.000000 231.000000 0.557267 0.440823 0.703654
-0.33000001 3.26999998 -0.13000000 203 7 150 97.000000 1.000000 4.000000 1.000000 -60.708740 114.000000 231.000000 0.716443 0.169563 0.676726
-0.31999999 3.26999998 -0.15000001 203 7 150 97.000000 1.000000 4.000000 1.000000 -60.708740 114.000000 231.000000 0.613401 0.208587 0.761729
-0.28999999 3.21000004 -0.08000000 203 7 150 97.000000 1.000000 4.000000 1.000000 -60.708740 114.000000 231.000000 0.639537 0.366624 0.675706
-0.28999999 3.28999996 -0.22000000 203 7 150 97.000000 1.000000 4.000000 1.000000 -60.708740 114.000000 231.000000 0.713451 0.400389 0.575045
-0.31000000 3.25000000 -0.22000000 203 7 150 97.000000 1.000000 4.000000 1.000000 -60.708740 114.000000 231.000000 0.847987 0.285752 0.446390
-0.27000001 3.26999998 -0.23000000 203 7 150 97.000000 1.000000 4.000000 1.000000 -60.708740 114.000000 231.000000 0.810637 0.150781 0.565803
-0.31999999 3.14000010 -0.14000000 203 7 150 97.000000 1.000000 4.000000 1.000000 -60.708740 114.000000 231.000000 0.786892 0.154971 0.597315
-0.27000001 3.00000000 -0.11000000 203 7 150 97.000000 1.000000 4.000000 1.000000 -60.708740 114.000000 231.000000 0.836836 0.184795 0.515322
-0.47000000 3.50000000 -0.14000000 203 7 150 97.000000 1.000000 4.000000 1.000000 -60.708740 114.000000 231.000000 0.551901 0.203332 0.808741
-0.46000001 3.50000000 -0.14000000 203 7 150 97.000000 1.000000 4.000000 1.000000 -60.708740 114.000000 231.000000 0.603401 0.079205 0.793494
0.02000000 2.98000002 -0.16000000 203 7 150 97.000000 1.000000 4.000000 1.000000 -60.708740 114.000000 231.000000 -0.067827 0.472017 0.878976
-0.07000000 4.05999994 0.38000000 203 7 150 97.000000 1.000000 4.000000 1.000000 -60.708740 114.000000 231.000000 -0.248768 0.306287 0.918860
0.08000000 4.05000019 0.44000000 203 7 150 97.000000 1.000000 4.000000 1.000000 -60.708740 114.000000 231.000000 -0.082154 0.042720 0.995704
-0.07000000 4.09999990 0.37000000 203 7 150 97.000000 1.000000 4.000000 1.000000 -60.708740 114.000000 231.000000 0.810234 -0.157254 -0.564617
0.12000000 4.07999992 0.44000000 203 7 150 97.000000 1.000000 4.000000 1.000000 -60.708740 114.000000 231.000000 0.059528 -0.053034 0.996817
0.20000000 3.91000009 0.47000000 203 7 150 97.000000 1.000000 4.000000 1.000000 -60.708740 114.000000 231.000000 0.299275 0.206542 0.931545
0.20999999 3.89000010 0.47000000 203 7 150 97.000000 1.000000 4.000000 1.000000 -60.708740 114.000000 231.000000 -0.082635 0.203503 0.975581
