//X Y Z R G B PointSourceId ScanDirectionFlag NumberOfReturns ReturnNumber GpsTime Intensity Classification Nx Ny Nz
9.71000004 0.67000002 -0.09000000 140 90 140 97.000000 1.000000 4.000000 1.000000 -60.708740 114.000000 31.000000 0.979704 0.139254 -0.144183
9.71000004 0.74000001 -0.25000000 140 90 140 97.000000 1.000000 4.000000 1.000000 -60.708740 114.000000 31.000000 0.859981 0.086423 0.502954
9.71000004 0.73000002 -0.23000000 140 90 140 97.000000 1.000000 4.000000 1.000000 -60.708740 114.000000 31.000000 0.654085 0.708194 0.265772
9.69999981 0.74000001 -0.23999999 140 90 140 97.000000 1.000000 4.000000 1.000000 -60.708740 114.000000 31.000000 0.731335 0.567725 0.377938
9.69999981 0.70999998 -0.22000000 140 90 140 97.000000 1.000000 4.000000 1.000000 -60.708740 114.000000 31.000000 0.708787 0.446519 0.546115
9.86999989 0.55000001 -0.03000000 140 90 140 97.000000 1.000000 4.000000 1.000000 -60.708740 114.000000 31.000000 0.750693 0.623246 -0.219146
9.85999966 0.62000000 -0.04000000 140 90 140 97.000000 1.000000 4.000000 1.000000 -60.708740 114.000000 31.000000 0.527995 0.828847 -0.185024
9.84000015 0.62000000 -0.06000000 140 90 140 97.000000 1.000000 4.000000 1.000000 -60.708740 114.000000 31.000000 0.573670 0.777991 -0.256187
9.86999989 0.57999998 -0.14000000 140 90 140 97.000000 1.000000 4.000000 1.000000 -60.708740 114.000000 31.000000 0.855128 0.515858 -0.051447
9.86999989 0.58999997 -0.12000000 140 90 140 97.000000 1.000000 4.000000 1.000000 -60.708740 114.000000 31.000000 0.892851 0.409284 0.187892
9.52999973 1.35000002 -0.18000001 140 90 140 97.000000 1.000000 4.000000 1.000000 -60.708740 114.000000 31.000000 0.706655 0.117528 0.697729
9.50000000 1.38999999 -0.06000000 140 90 140 97.000000 1.000000 4.000000 1.000000 -60.708740 114.000000 31.000000 0.508995 0.535873 0.673620
9.51000023 1.33000004 -0.06000000 140 90 140 97.000000 1.000000 4.000000 1.000000 -60.708740 114.000000 31.000000 0.797509 0.267925 0.540551
9.51000023 1.32000005 -0.16000000 140 90 140 97.000000 1.000000 4.000000 1.000000 -60.708740 114.000000 31.000000 0.618857 0.527799 0.581759
9.50000000 1.34000003 -0.28000000 140 90 140 97.000000 1.000000 4.000000 1.000000 -60.708740 114.000000 31.000000 0.545003 0.565251 0.619245
9.47000027 1.34000003 -0.14000000 140 90 140 97.000000 1.000000 4.000000 1.000000 -60.708740 114.000000 31.000000 0.937442 0.327768 0.117349
9.39000034 1.39999998 -0.11000000 140 90 140 97.000000 1.000000 4.000000 1.000000 -60.708740 114.000000 31.000000 0.741404 0.534271 0.406046
9.39999962 1.38999999 -0.12000000 140 90 140 97.000000 1.000000 4.000000 1.000000 -60.708740 114.000000 31.000000 0.945632 0.006229 0.325178
9.36999989 1.32000005 -0.10000000 140 90 140 97.000000 1.000000 4.000000 1.000000 -60.708740 114.000000 31.000000 0.545003 0.565251 0.619245
9.38000011 1.34000003 -0.14000000 140 90 140 97.000000 1.000000 4.000000 1.000000 -60.708740 114.000000 31.000000 0.786199 0.583111 0.204627
9.38000011 1.40999997 -0.22000000 140 90 140 97.000000 1.000000 4.000000 1.000000 -60.708740 114.000000 31.000000 0.727633 0.107743 0.677452
9.64000034 1.23000002 -0.07000000 140 90 140 97.000000 1.000000 4.000000 1.000000 -60.708740 114.000000 31.000000 0.756699 0.205810 0.620524
9.59000015 1.22000003 -0.18000001 140 90 140 97.000000 1.000000 4.000000 1.000000 -60.708740 114.000000 31.000000 0.627059 0.064571 0.776291
9.48999977 1.13999999 -0.12000000 140 90 140 97.000000 1.000000 4.000000 1.000000 -60.708740 114.000000 31.000000 0.918346 0.165048 0.359721
9.55000019 1.24000001 -0.30000001 140 90 140 97.000000 1.000000 4.000000 1.000000 -60.708740 114.000000 31.000000 0.843188 0.057522 0.534533
9.50000000 1.20000005 -0.23000000 140 90 140 97.000000 1.000000 4.000000 1.000000 -60.708740 114.000000 31.000000 0.558559 0.639558 0.528184
9.55000019 1.08000004 -0.07000000 140 90 140 97.000000 1.000000 4.000000 1.000000 -60.708740 114.000000 31.000000 0.713393 0.629654 0.307580
9.55000019 0.97000003 -0.04000000 140 90 140 97.000000 1.000000 4.000000 1.000000 -60.708740 114.000000 31.000000 0.828387 0.551778 -0.096525
9.52000046 1.04999995 -0.05000000 140 90 140 97.000000 1.000000 4.000000 1.000000 -60.708740 114.000000 31.000000 0.974240 0.093318 0.205300
9.56000042 1.03999996 -0.11000000 140 90 140 97.000000 1.000000 4.000000 1.000000 -60.708740 114.000000 31.000000 0.833330 0.337412 0.437851
9.51000023 0.98000002 -0.13000000 140 90 140 97.000000 1.000000 4.000000 1.000000 -60.708740 114.000000 31.000000 0.970321 0.239241 0.035218
9.63000011 1.03999996 -0.27000001 140 90 140 97.000000 1.000000 4.000000 1.000000 -60.708740 114.000000 31.000000 0.808234 0.183483 0.559546
9.60999966 0.97000003 -0.25999999 140 90 140 97.000000 1.000000 4.000000 1.000000 -60.708740 114.000000 31.000000 0.779518 0.568497 0.262989
9.52000046 1.13000000 -0.19000000 140 90 140 97.000000 1.000000 4.000000 1.000000 -60.708740 114.000000 31.000000 0.683981 0.644803 0.341174
9.52000046 1.02999997 -0.19000000 140 90 140 97.000000 1.000000 4.000000 1.000000 -60.708740 114.000000 31.000000 0.606077 0.579066 0.545301
9.55000019 0.98000002 -0.23000000 140 90 140 97.000000 1.000000 4.000000 1.000000 -60.708740 114.000000 31.000000 0.660651 0.265852 0.702042
9.47999954 1.28999996 -0.13000000 140 90 140 97.000000 1.000000 4.000000 1.000000 -60.708740 114.000000 31.000000 0.588291 0.277496 0.759546
9.47000027 1.22000003 -0.16000000 140 90 140 97.000000 1.000000 4.000000 1.000000 -60.708740 114.000000 31.000000 0.825202 0.037572 0.563587
9.46000004 1.16999996 -0.11000000 140 90 140 97.000000 1.000000 4.000000 1.000000 -60.708740 114.000000 31.000000 0.894834 0.317137 0.314160
9.36999989 1.26999998 -0.07000000 140 90 140 97.000000 1.000000 4.000000 1.000000 -60.708740 114.000000 31.000000 0.604343 0.750273 0.268068
9.39999962 1.25000000 -0.09000000 140 90 140 97.000000 1.000000 4.000000 1.000000 -60.708740 114.000000 31.000000 0.863762 0.391224 0.317582
9.34000015 1.28999996 -0.06000000 140 90 140 97.000000 1.000000 4.000000 1.000000 -60.708740 114.000000 31.000000 0.817880 0.390606 0.422492
9.40999985 1.19000006 -0.19000000 140 90 140 97.000000 1.000000 4.000000 1.000000 -60.708740 114.000000 31.000000 0.864786 0.481083 0.143889
9.44999981 1.20000005 -0.20000000 140 90 140 97.000000 1.000000 4.000000 1.000000 -60.708740 114.000000 31.000000 0.778547 0.450224 0.437222
9.32999992 1.25999999 -0.25000000 140 90 140 97.000000 1.000000 4.000000 1.000000 -60.708740 114.000000 31.000000 0.851431 0.170286 0.496051
9.31999969 1.26999998 -0.20999999 140 90 140 97.000000 1.000000 4.000000 1.000000 -60.708740 114.000000 31.000000 0.844616 0.114451 0.522996
9.36999989 1.25000000 -0.27000001 140 90 140 97.000000 1.000000 4.000000 1.000000 -60.708740 114.000000 31.000000 0.744111 0.607080 0.278842
9.39999962 1.21000004 -0.19000000 140 90 140 97.000000 1.000000 4.000000 1.000000 -60.708740 114.000000 31.000000 0.865363 0.125269 0.485237
9.39999962 1.20000005 -0.19000000 140 90 140 97.000000 1.000000 4.000000 1.000000 -60.708740 114.000000 31.000000 0.577998 0.477477 0.661766
9.47999954 1.12000000 -0.14000000 140 90 140 97.000000 1.000000 4.000000 1.000000 -60.708740 114.000000 31.000000 0.783855 0.496172 0.373341
9.46000004 1.13000000 -0.13000000 140 90 140 97.000000 1.000000 4.000000 1.000000 -60.708740 114.000000 31.000000 0.922634 0.380537 -0.062755
9.43000031 1.13000000 -0.23999999 140 90 140 97.000000 1.000000 4.000000 1.000000 -60.708740 114.000000 31.000000 0.908651 0.027775 0.416631
9.31000042 1.36000001 -0.25000000 140 90 140 97.000000 1.000000 4.000000 1.000000 -60.708740 114.000000 31.000000 0.813378 -0.115778 0.570098
9.27999973 1.38999999 -0.05000000 140 90 140 97.000000 1.000000 4.000000 1.000000 -60.708740 114.000000 31.000000 0.732103 0.353823 0.582095
9.61999989 0.85000002 -0.14000000 140 90 140 97.000000 1.000000 4.000000 1.000000 -60.708740 114.000000 31.000000 0.734646 0.561211 0.381231
9.56999969 0.91000003 -0.11000000 140 90 140 97.000000 1.000000 4.000000 1.000000 -60.708740 114.000000 31.000000 0.863691 0.492518 -0.107069
9.55000019 0.94999999 -0.11000000 140 90 140 97.000000 1.000000 4.000000 1.000000 -60.708740 114.000000 31.000000 0.828754 0.526840 0.188696
9.63000011 0.86000001 -0.22000000 140 90 140 97.000000 1.000000 4.000000 1.000000 -60.708740 114.000000 31.000000 0.700932 0.557749 0.444534
9.64999962 0.81000000 -0.23000000 140 90 140 97.000000 1.000000 4.000000 1.000000 -60.708740 114.000000 31.000000 0.871023 0.318816 0.373731
9.52999973 0.91000003 -0.20999999 140 90 140 97.000000 1.000000 4.000000 1.000000 -60.708740 114.000000 31.000000 0.829974 0.543070 0.127351
9.50000000 0.88000000 -0.22000000 140 90 140 97.000000 1.000000 4.000000 1.000000 -60.708740 114.000000 31.000000 0.966714 0.255789 0.006004
9.56999969 0.83999997 -0.23000000 140 90 140 97.000000 1.000000 4.000000 1.000000 -60.708740 114.000000 31.000000 0.936900 0.241555 0.252726
9.59000015 0.81000000 -0.41000000 140 90 140 97.000000 1.000000 4.000000 1.000000 -60.708740 114.000000 31.000000 0.891588 0.215920 0.398057
9.61999989 0.87000000 -0.41999999 140 90 140 97.000000 1.000000 4.000000 1.000000 -60.708740 114.000000 31.000000 0.625223 0.369226 0.687581
9.59000015 0.86000001 -0.44000000 140 90 140 97.000000 1.000000 4.000000 1.000000 -60.708740 114.000000 31.000000 0.881387 0.217754 0.419214
9.64999962 0.77999997 -0.50999999 140 90 140 97.000000 1.000000 4.000000 1.000000 -60.708740 114.000000 31.000000 0.653389 0.498860 0.569405
9.61999989 0.80000001 -0.50000000 140 90 140 97.000000 1.000000 4.000000 1.000000 -60.708740 114.000000 31.000000 0.526955 0.437752 0.728486
9.57999992 0.72000003 -0.50000000 140 90 140 97.000000 1.000000 4.000000 1.000000 -60.708740 114.000000 31.000000 0.735722 0.023823 0.676864
9.63000011 0.75999999 -0.47000000 140 90 140 97.000000 1.000000 4.000000 1.000000 -60.708740 114.000000 31.000000 0.578744 0.081857 0.811391
9.55000019 0.69999999 -0.49000001 140 90 140 97.000000 1.000000 4.000000 1.000000 -60.708740 114.000000 31.000000 0.499375 0.304036 0.811287
9.57999992 0.77999997 -0.52999997 140 90 140 97.000000 1.000000 4.000000 1.000000 -60.708740 114.000000 31.000000 0.730955 -0.067761 0.679053
9.56999969 0.62000000 -0.44999999 140 90 140 97.000000 1.000000 4.000000 1.000000 -60.708740 114.000000 31.000000 0.768138 0.339784 0.542689
9.52000046 0.61000001 -0.44999999 140 90 140 97.000000 1.000000 4.000000 1.000000 -60.708740 114.000000 31.000000 0.655934 0.468045 0.592186
9.57999992 0.63000000 -0.50000000 140 90 140 97.000000 1.000000 4.000000 1.000000 -60.708740 114.000000 31.000000 0.857194 0.257310 0.446106
9.22000027 1.64999998 0.56000000 140 90 140 97.000000 1.000000 4.000000 1.000000 -60.708740 114.000000 31.000000 0.698448 0.660089 -0.276502
9.22000027 1.72000003 0.55000001 140 90 140 97.000000 1.000000 4.000000 1.000000 -60.708740 114.000000 31.000000 0.726261 0.589169 -0.354154
9.68000031 1.30999994 0.44999999 140 90 140 97.000000 1.000000 4.000000 1.000000 -60.708740 114.000000 31.000000 -0.324691 -0.489413 0.809352
9.85000038 0.97000003 0.54000002 140 90 140 97.000000 1.000000 4.000000 1.000000 -60.708740 114.000000 31.000000 0.215497 0.758116 -0.615485
9.65999985 1.17999995 0.41000000 140 90 140 97.000000 1.000000 4.000000 1.000000 -60.708740 114.000000 31.000000 -0.188972 -0.345264 0.919284
9.71000004 1.11000001 0.54000002 140 90 140 97.000000 1.000000 4.000000 1.000000 -60.708740 114.000000 31.000000 -0.236647 -0.106172 0.965777
9.68000031 1.10000002 0.41999999 140 90 140 97.000000 1.000000 4.000000 1.000000 -60.708740 114.000000 31.000000 -0.169199 -0.534549 0.828027
9.72999954 1.04999995 0.41999999 140 90 140 97.000000 1.000000 4.000000 1.000000 -60.708740 114.000000 31.000000 0.656706 0.398655 -0.640165
9.68000031 1.02999997 0.38000000 140 90 140 97.000000 1.000000 4.000000 1.000000 -60.708740 114.000000 31.000000 0.467946 0.739124 -0.484482
9.69999981 1.00999999 0.37000000 140 90 140 97.000000 1.000000 4.000000 1.000000 -60.708740 114.000000 31.000000 -0.228124 -0.506771 0.831350
9.71000004 1.22000003 0.19000000 140 90 140 97.000000 1.000000 4.000000 1.000000 -60.708740 114.000000 31.000000 0.550540 0.444091 -0.706887
9.65999985 1.20000005 0.20000000 140 90 140 97.000000 1.000000 4.000000 1.000000 -60.708740 114.000000 31.000000 0.532433 0.830715 -0.162564
9.65999985 1.20000005 0.19000000 140 90 140 97.000000 1.000000 4.000000 1.000000 -60.708740 114.000000 31.000000 0.635026 0.724152 -0.268971
9.67000008 1.19000006 0.18000001 140 90 140 97.000000 1.000000 4.000000 1.000000 -60.708740 114.000000 31.000000 0.892355 0.390866 -0.225670
9.68000031 1.17999995 0.31000000 140 90 140 97.000000 1.000000 4.000000 1.000000 -60.708740 114.000000 31.000000 0.489083 0.760614 -0.426925
9.67000008 1.16999996 0.10000000 140 90 140 97.000000 1.000000 4.000000 1.000000 -60.708740 114.000000 31.000000 0.774549 0.579734 -0.252946
9.73999977 1.02999997 0.20999999 140 90 140 97.000000 1.000000 4.000000 1.000000 -60.708740 114.000000 31.000000 0.465719 0.812226 -0.351276
9.72999954 1.04999995 0.25999999 140 90 140 97.000000 1.000000 4.000000 1.000000 -60.708740 114.000000 31.000000 0.620587 0.620587 -0.479315
9.68999958 1.02999997 0.23999999 140 90 140 97.000000 1.000000 4.000000 1.000000 -60.708740 114.000000 31.000000 0.801953 0.454815 -0.387316
9.73999977 1.04999995 0.03000000 140 90 140 97.000000 1.000000 4.000000 1.000000 -60.708740 114.000000 31.000000 0.888534 0.346124 -0.301173
9.77000046 0.99000001 0.03000000 140 90 140 97.000000 1.000000 4.000000 1.000000 -60.708740 114.000000 31.000000 0.596989 0.782314 -0.177730
9.67000008 1.08000004 -0.01000000 140 90 140 97.000000 1.000000 4.000000 1.000000 -60.708740 114.000000 31.000000 0.639228 0.769006 -0.004142
10.10999966 0.54000002 0.25999999 140 90 140 97.000000 1.000000 4.000000 1.000000 -60.708740 114.000000 31.000000 -0.431509 -0.304685 0.849098
10.01000023 0.62000000 0.15000001 140 90 140 97.000000 1.000000 4.000000 1.000000 -60.708740 114.000000 31.000000 -0.572450 -0.298184 0.763798
10.00000000 0.52999997 0.25999999 140 90 140 97.000000 1.000000 4.000000 1.000000 -60.708740 114.000000 31.000000 -0.425578 -0.343917 0.837021
10.05000019 0.50999999 0.22000000 140 90 140 97.000000 1.000000 4.000000 1.000000 -60.708740 114.000000 31.000000 -0.685311 -0.348380 0.639515
10.01000023 0.50999999 0.20999999 140 90 140 97.000000 1.000000 4.000000 1.000000 -60.708740 114.000000 31.000000 0.264859 0.831749 -0.487897
9.88000011 0.85000002 0.50000000 140 90 140 97.000000 1.000000 4.000000 1.000000 -60.708740 114.000000 31.000000 0.001381 0.716707 -0.697373
9.86999989 0.83999997 0.40000001 140 90 140 97.000000 1.000000 4.000000 1.000000 -60.708740 114.000000 31.000000 -0.332174 -0.317143 0.888302
9.85000038 0.88000000 0.34999999 140 90 140 97.000000 1.000000 4.000000 1.000000 -60.708740 114.000000 31.000000 0.579066 0.606077 -0.545301
9.90999985 0.77999997 0.44000000 140 90 140 97.000000 1.000000 4.000000 1.000000 -60.708740 114.000000 31.000000 -0.538396 -0.143080 0.830457
9.93999958 0.69999999 0.44999999 140 90 140 97.000000 1.000000 4.000000 1.000000 -60.708740 114.000000 31.000000 -0.006661 -0.483595 0.875267
9.68000031 0.82999998 0.50000000 140 90 140 97.000000 1.000000 4.000000 1.000000 -60.708740 114.000000 31.000000 0.446799 0.624180 -0.640914
9.80000019 0.94999999 0.56000000 140 90 140 97.000000 1.000000 4.000000 1.000000 -60.708740 114.000000 31.000000 0.062231 -0.213537 0.974951
9.77999973 0.88999999 0.54000002 140 90 140 97.000000 1.000000 4.000000 1.000000 -60.708740 114.000000 31.000000 -0.184269 -0.592402 0.784286
9.78999996 0.77999997 0.61000001 140 90 140 97.000000 1.000000 4.000000 1.000000 -60.708740 114.000000 31.000000 -0.587240 -0.218472 0.779371
9.85999966 0.87000000 0.23999999 140 90 140 97.000000 1.000000 4.000000 1.000000 -60.708740 114.000000 31.000000 0.554038 0.743620 -0.374261
9.84000015 0.81999999 0.15000001 140 90 140 97.000000 1.000000 4.000000 1.000000 -60.708740 114.000000 31.000000 0.803172 0.196602 -0.562373
9.82999992 0.89999998 0.14000000 140 90 140 97.000000 1.000000 4.000000 1.000000 -60.708740 114.000000 31.000000 0.490023 0.826038 -0.278457
9.93000031 0.76999998 0.30000001 140 90 140 97.000000 1.000000 4.000000 1.000000 -60.708740 114.000000 31.000000 -0.247173 -0.222317 0.943123
9.98999977 0.64999998 0.28999999 140 90 140 97.000000 1.000000 4.000000 1.000000 -60.708740 114.000000 31.000000 0.677491 0.409145 -0.611233
9.94999981 0.69000000 0.19000000 140 90 140 97.000000 1.000000 4.000000 1.000000 -60.708740 114.000000 31.000000 -0.319231 -0.260924 0.911049
9.89999962 0.75000000 0.30000001 140 90 140 97.000000 1.000000 4.000000 1.000000 -60.708740 114.000000 31.000000 -0.350767 -0.595488 0.722743
9.89000034 0.68000001 0.16000000 140 90 140 97.000000 1.000000 4.000000 1.000000 -60.708740 114.000000 31.000000 0.719283 0.632776 -0.286752
9.85000038 0.74000001 0.12000000 140 90 140 97.000000 1.000000 4.000000 1.000000 -60.708740 114.000000 31.000000 0.844302 0.450811 -0.289696
9.86999989 0.70999998 0.11000000 140 90 140 97.000000 1.000000 4.000000 1.000000 -60.708740 114.000000 31.000000 0.805690 0.392433 -0.443690
9.77000046 0.89999998 0.25999999 140 90 140 97.000000 1.000000 4.000000 1.000000 -60.708740 114.000000 31.000000 0.756813 0.573636 -0.313330
9.75000000 0.89999998 0.23999999 140 90 140 97.000000 1.000000 4.000000 1.000000 -60.708740 114.000000 31.000000 0.644442 0.711605 -0.279845
9.75000000 0.94000000 0.20000000 140 90 140 97.000000 1.000000 4.000000 1.000000 -60.708740 114.000000 31.000000 0.803079 0.332363 -0.494569
9.81999969 0.88000000 0.16000000 140 90 140 97.000000 1.000000 4.000000 1.000000 -60.708740 114.000000 31.000000 0.781252 0.490102 -0.386582
9.72999954 0.89999998 0.18000001 140 90 140 97.000000 1.000000 4.000000 1.000000 -60.708740 114.000000 31.000000 0.836115 0.425116 -0.346682
9.77999973 0.95999998 0.08000000 140 90 140 97.000000 1.000000 4.000000 1.000000 -60.708740 114.000000 31.000000 0.852514 0.364920 -0.374237
9.80000019 0.94999999 0.13000000 140 90 140 97.000000 1.000000 4.000000 1.000000 -60.708740 114.000000 31.000000 0.856799 0.476996 -0.195882
9.72999954 0.88000000 0.13000000 140 90 140 97.000000 1.000000 4.000000 1.000000 -60.708740 114.000000 31.000000 0.365286 0.808734 -0.460994
9.71000004 0.86000001 0.02000000 140 90 140 97.000000 1.000000 4.000000 1.000000 -60.708740 114.000000 31.000000 0.968566 0.241831 -0.058288
9.93000031 0.58999997 0.16000000 140 90 140 97.000000 1.000000 4.000000 1.000000 -60.708740 114.000000 31.000000 0.731784 0.360188 -0.578582
9.98999977 0.56999999 0.19000000 140 90 140 97.000000 1.000000 4.000000 1.000000 -60.708740 114.000000 31.000000 -0.262784 -0.462561 0.846748
9.94999981 0.54000002 0.16000000 140 90 140 97.000000 1.000000 4.000000 1.000000 -60.708740 114.000000 31.000000 0.748806 0.501947 -0.432826
9.98999977 0.52999997 0.16000000 140 90 140 97.000000 1.000000 4.000000 1.000000 -60.708740 114.000000 31.000000 -0.405534 -0.358561 0.840818
9.92000008 0.61000001 0.11000000 140 90 140 97.000000 1.000000 4.000000 1.000000 -60.708740 114.000000 31.000000 0.706641 0.408759 -0.577559
9.89999962 0.50999999 0.14000000 140 90 140 97.000000 1.000000 4.000000 1.000000 -60.708740 114.000000 31.000000 0.556732 0.680451 -0.476483
9.50000000 1.33000004 0.50000000 140 90 140 97.000000 1.000000 4.000000 1.000000 -60.708740 114.000000 31.000000 0.231894 0.589851 -0.773499
9.35000038 1.55999994 0.56000000 140 90 140 97.000000 1.000000 4.000000 1.000000 -60.708740 114.000000 31.000000 0.563202 0.509403 -0.650624
9.31999969 1.55999994 0.55000001 140 90 140 97.000000 1.000000 4.000000 1.000000 -60.708740 114.000000 31.000000 0.626077 0.321936 -0.710201
9.42000008 1.50999999 0.44999999 140 90 140 97.000000 1.000000 4.000000 1.000000 -60.708740 114.000000 31.000000 -0.188225 -0.525524 0.829696
9.43000031 1.50999999 0.44000000 140 90 140 97.000000 1.000000 4.000000 1.000000 -60.708740 114.000000 31.000000 0.625127 0.681207 -0.381014
9.35999966 1.51999998 0.41000000 140 90 140 97.000000 1.000000 4.000000 1.000000 -60.708740 114.000000 31.000000 0.521798 0.475119 -0.708511
9.38000011 1.49000001 0.47000000 140 90 140 97.000000 1.000000 4.000000 1.000000 -60.708740 114.000000 31.000000 0.387493 0.743922 -0.544453
9.35000038 1.49000001 0.37000000 140 90 140 97.000000 1.000000 4.000000 1.000000 -60.708740 114.000000 31.000000 0.819066 0.292859 -0.493319
9.38000011 1.47000003 0.62000000 140 90 140 97.000000 1.000000 4.000000 1.000000 -60.708740 114.000000 31.000000 0.659958 0.505464 -0.555843
9.43000031 1.39999998 0.44000000 140 90 140 97.000000 1.000000 4.000000 1.000000 -60.708740 114.000000 31.000000 0.658087 0.671150 -0.341291
9.51000023 1.32000005 0.20999999 140 90 140 97.000000 1.000000 4.000000 1.000000 -60.708740 114.000000 31.000000 0.767229 0.640064 0.040975
9.51000023 1.45000005 0.25000000 140 90 140 97.000000 1.000000 4.000000 1.000000 -60.708740 114.000000 31.000000 0.923770 0.304116 -0.232727
9.48999977 1.46000004 0.22000000 140 90 140 97.000000 1.000000 4.000000 1.000000 -60.708740 114.000000 31.000000 0.769802 0.465804 -0.436385
9.61999989 1.33000004 -0.01000000 140 90 140 97.000000 1.000000 4.000000 1.000000 -60.708740 114.000000 31.000000 0.901762 0.296652 0.314362
9.51000023 1.32000005 0.14000000 140 90 140 97.000000 1.000000 4.000000 1.000000 -60.708740 114.000000 31.000000 0.803234 0.505388 -0.315273
9.52999973 1.36000001 0.13000000 140 90 140 97.000000 1.000000 4.000000 1.000000 -60.708740 114.000000 31.000000 0.821485 0.566980 -0.060798
9.48999977 1.34000003 0.07000000 140 90 140 97.000000 1.000000 4.000000 1.000000 -60.708740 114.000000 31.000000 0.742072 0.593980 0.310672
9.31999969 1.48000002 0.30000001 140 90 140 97.000000 1.000000 4.000000 1.000000 -60.708740 114.000000 31.000000 0.611675 0.776992 -0.148786
9.40999985 1.33000004 0.23999999 140 90 140 97.000000 1.000000 4.000000 1.000000 -60.708740 114.000000 31.000000 0.750417 0.601285 -0.274465
9.42000008 1.32000005 0.22000000 140 90 140 97.000000 1.000000 4.000000 1.000000 -60.708740 114.000000 31.000000 0.697079 0.714326 -0.061803
9.47000027 1.37000000 0.23000000 140 90 140 97.000000 1.000000 4.000000 1.000000 -60.708740 114.000000 31.000000 0.561919 0.820373 -0.105995
9.36999989 1.46000004 0.31000000 140 90 140 97.000000 1.000000 4.000000 1.000000 -60.708740 114.000000 31.000000 0.691223 0.672155 -0.265366
9.44999981 1.33000004 0.06000000 140 90 140 97.000000 1.000000 4.000000 1.000000 -60.708740 114.000000 31.000000 0.781208 0.524549 0.338470
9.44999981 1.38000000 0.00000000 140 90 140 97.000000 1.000000 4.000000 1.000000 -60.708740 114.000000 31.000000 0.922813 0.040809 0.383079
9.38000011 1.38999999 0.09000000 140 90 140 97.000000 1.000000 4.000000 1.000000 -60.708740 114.000000 31.000000 0.806724 0.560604 0.186868
9.39000034 1.44000006 -0.01000000 140 90 140 97.000000 1.000000 4.000000 1.000000 -60.708740 114.000000 31.000000 0.956656 0.287877 0.043999
9.39000034 1.38999999 0.06000000 140 90 140 97.000000 1.000000 4.000000 1.000000 -60.708740 114.000000 31.000000 0.828054 0.501150 -0.251346
9.35000038 1.44000006 0.03000000 140 90 140 97.000000 1.000000 4.000000 1.000000 -60.708740 114.000000 31.000000 0.842468 0.440699 0.309891
9.53999996 1.19000006 0.52999997 140 90 140 97.000000 1.000000 4.000000 1.000000 -60.708740 114.000000 31.000000 -0.185936 -0.677667 0.711474
9.64000034 1.07000005 0.34000000 140 90 140 97.000000 1.000000 4.000000 1.000000 -60.708740 114.000000 31.000000 -0.551701 -0.410071 0.726270
9.57999992 1.17999995 0.18000001 140 90 140 97.000000 1.000000 4.000000 1.000000 -60.708740 114.000000 31.000000 0.404190 0.800328 -0.442838
9.56999969 1.27999997 0.30000001 140 90 140 97.000000 1.000000 4.000000 1.000000 -60.708740 114.000000 31.000000 0.491415 0.679260 -0.545085
9.48999977 1.25999999 0.28000000 140 90 140 97.000000 1.000000 4.000000 1.000000 -60.708740 114.000000 31.000000 0.574860 0.700766 -0.422448
9.52000046 1.28999996 0.19000000 140 90 140 97.000000 1.000000 4.000000 1.000000 -60.708740 114.000000 31.000000 0.689425 0.653904 -0.311614
9.56000042 1.26999998 0.17000000 140 90 140 97.000000 1.000000 4.000000 1.000000 -60.708740 114.000000 31.000000 0.786602 0.580330 -0.210889
9.60000038 1.29999995 0.02000000 140 90 140 97.000000 1.000000 4.000000 1.000000 -60.708740 114.000000 31.000000 0.792381 0.597606 -0.122472
9.51000023 1.28999996 0.09000000 140 90 140 97.000000 1.000000 4.000000 1.000000 -60.708740 114.000000 31.000000 0.891611 0.361705 0.272395
9.56999969 1.26999998 0.11000000 140 90 140 97.000000 1.000000 4.000000 1.000000 -60.708740 114.000000 31.000000 0.871385 0.296545 -0.390831
9.55000019 1.25000000 0.04000000 140 90 140 97.000000 1.000000 4.000000 1.000000 -60.708740 114.000000 31.000000 0.977495 0.210878 -0.005825
9.60999966 1.10000002 0.28000000 140 90 140 97.000000 1.000000 4.000000 1.000000 -60.708740 114.000000 31.000000 0.722573 0.537382 -0.434866
9.57999992 1.11000001 0.15000001 140 90 140 97.000000 1.000000 4.000000 1.000000 -60.708740 114.000000 31.000000 0.838865 0.540976 -0.060421
9.60000038 1.11000001 0.12000000 140 90 140 97.000000 1.000000 4.000000 1.000000 -60.708740 114.000000 31.000000 0.767650 0.640856 0.004135
9.55000019 1.11000001 0.10000000 140 90 140 97.000000 1.000000 4.000000 1.000000 -60.708740 114.000000 31.000000 0.795887 0.411666 -0.443953
9.56000042 1.12000000 0.14000000 140 90 140 97.000000 1.000000 4.000000 1.000000 -60.708740 114.000000 31.000000 0.521280 0.840251 -0.149148
9.47000027 1.25000000 -0.01000000 140 90 140 97.000000 1.000000 4.000000 1.000000 -60.708740 114.000000 31.000000 0.914072 0.382146 -0.135781
9.42000008 1.24000001 0.07000000 140 90 140 97.000000 1.000000 4.000000 1.000000 -60.708740 114.000000 31.000000 0.863398 0.480639 -0.153396
9.31000042 1.55999994 0.54000002 140 90 140 97.000000 1.000000 4.000000 1.000000 -60.708740 114.000000 31.000000 0.790084 0.296084 -0.536751
9.27000046 1.61000001 0.47000000 140 90 140 97.000000 1.000000 4.000000 1.000000 -60.708740 114.000000 31.000000 -0.433297 -0.413968 0.800553
9.27999973 1.52999997 0.43000001 140 90 140 97.000000 1.000000 4.000000 1.000000 -60.708740 114.000000 31.000000 0.893101 0.422897 -0.153390
9.28999996 1.63000000 0.36000001 140 90 140 97.000000 1.000000 4.000000 1.000000 -60.708740 114.000000 31.000000 0.486877 0.792180 -0.367970
9.26000023 1.45000005 0.15000001 140 90 140 97.000000 1.000000 4.000000 1.000000 -60.708740 114.000000 31.000000 0.956818 0.201506 -0.209512
9.85000038 0.66000003 -0.03000000 140 90 140 97.000000 1.000000 4.000000 1.000000 -60.708740 114.000000 31.000000 0.775821 0.466794 -0.424506
9.84000015 0.76999998 -0.11000000 140 90 140 97.000000 1.000000 4.000000 1.000000 -60.708740 114.000000 31.000000 0.907504 0.415207 0.063566
9.71000004 0.82999998 -0.07000000 140 90 140 97.000000 1.000000 4.000000 1.000000 -60.708740 114.000000 31.000000 0.845465 0.457383 0.275662
9.72999954 0.93000001 -0.11000000 140 90 140 97.000000 1.000000 4.000000 1.000000 -60.708740 114.000000 31.000000 0.739701 0.671290 -0.047033
9.67000008 0.81999999 -0.23999999 140 90 140 97.000000 1.000000 4.000000 1.000000 -60.708740 114.000000 31.000000 0.851038 0.327084 0.410792
9.76000023 0.64999998 -0.06000000 140 90 140 97.000000 1.000000 4.000000 1.000000 -60.708740 114.000000 31.000000 0.518507 0.847810 -0.111212
9.80000019 0.68000001 -0.06000000 140 90 140 97.000000 1.000000 4.000000 1.000000 -60.708740 114.000000 31.000000 0.690550 0.684258 -0.234378
9.80000019 0.69999999 -0.18000001 140 90 140 97.000000 1.000000 4.000000 1.000000 -60.708740 114.000000 31.000000 0.773429 0.609322 -0.174743
9.71000004 0.66000003 -0.18000001 140 90 140 97.000000 1.000000 4.000000 1.000000 -60.708740 114.000000 31.000000 0.897571 0.386758 -0.211622
9.72999954 0.64999998 -0.14000000 140 90 140 97.000000 1.000000 4.000000 1.000000 -60.708740 114.000000 31.000000 0.717514 0.535236 0.445754
9.73999977 0.76999998 -0.19000000 140 90 140 97.000000 1.000000 4.000000 1.000000 -60.708740 114.000000 31.000000 0.735908 0.331563 0.590344
9.68999958 0.69000000 -0.19000000 140 90 140 97.000000 1.000000 4.000000 1.000000 -60.708740 114.000000 31.000000 0.918004 0.389579 -0.074141
9.67000008 0.63999999 -0.36000001 140 90 140 97.000000 1.000000 4.000000 1.000000 -60.708740 114.000000 31.000000 0.762527 0.330482 0.556177
9.50000000 1.38999999 -0.25000000 140 90 140 97.000000 1.000000 4.000000 1.000000 -60.708740 114.000000 31.000000 0.505820 0.462701 0.728049
9.39000034 1.45000005 -0.03000000 140 90 140 97.000000 1.000000 4.000000 1.000000 -60.708740 114.000000 31.000000 0.842018 0.472577 0.260148
9.34000015 1.39999998 -0.03000000 140 90 140 97.000000 1.000000 4.000000 1.000000 -60.708740 114.000000 31.000000 0.844574 0.533926 -0.040218
9.31999969 1.37000000 -0.05000000 140 90 140 97.000000 1.000000 4.000000 1.000000 -60.708740 114.000000 31.000000 0.906753 0.259281 0.332525
9.36999989 1.33000004 -0.11000000 140 90 140 97.000000 1.000000 4.000000 1.000000 -60.708740 114.000000 31.000000 0.663048 0.478401 0.575760
9.38000011 1.34000003 -0.18000001 140 90 140 97.000000 1.000000 4.000000 1.000000 -60.708740 114.000000 31.000000 0.920200 0.289453 0.263532
9.42000008 1.36000001 -0.20999999 140 90 140 97.000000 1.000000 4.000000 1.000000 -60.708740 114.000000 31.000000 0.496525 0.307373 0.811779
9.44999981 1.33000004 -0.23000000 140 90 140 97.000000 1.000000 4.000000 1.000000 -60.708740 114.000000 31.000000 0.720057 0.500548 0.480593
9.55000019 1.26999998 -0.16000000 140 90 140 97.000000 1.000000 4.000000 1.000000 -60.708740 114.000000 31.000000 0.529746 0.492981 0.690173
9.50000000 1.16999996 -0.18000001 140 90 140 97.000000 1.000000 4.000000 1.000000 -60.708740 114.000000 31.000000 0.827458 -0.017839 0.561244
9.52000046 1.23000002 -0.19000000 140 90 140 97.000000 1.000000 4.000000 1.000000 -60.708740 114.000000 31.000000 0.568439 0.224588 0.791478
9.48999977 1.29999995 -0.31999999 140 90 140 97.000000 1.000000 4.000000 1.000000 -60.708740 114.000000 31.000000 0.732559 -0.216190 0.645461
9.50000000 1.22000003 -0.30000001 140 90 140 97.000000 1.000000 4.000000 1.000000 -60.708740 114.000000 31.000000 0.791288 0.448235 0.415871
9.59000015 1.11000001 -0.18000001 140 90 140 97.000000 1.000000 4.000000 1.000000 -60.708740 114.000000 31.000000 0.817337 0.313391 0.483473
9.60000038 1.12000000 -0.19000000 140 90 140 97.000000 1.000000 4.000000 1.000000 -60.708740 114.000000 31.000000 0.692899 0.247802 0.677115
9.57999992 1.04999995 -0.23999999 140 90 140 97.000000 1.000000 4.000000 1.000000 -60.708740 114.000000 31.000000 0.911411 -0.035820 0.409936
9.56000042 1.13000000 -0.22000000 140 90 140 97.000000 1.000000 4.000000 1.000000 -60.708740 114.000000 31.000000 0.954361 0.139371 0.264142
9.40999985 1.20000005 -0.06000000 140 90 140 97.000000 1.000000 4.000000 1.000000 -60.708740 114.000000 31.000000 0.696589 0.411997 0.587385
9.42000008 1.17999995 -0.16000000 140 90 140 97.000000 1.000000 4.000000 1.000000 -60.708740 114.000000 31.000000 0.914482 0.377873 0.144688
9.39000034 1.28999996 -0.12000000 140 90 140 97.000000 1.000000 4.000000 1.000000 -60.708740 114.000000 31.000000 0.903691 0.078164 0.420991
9.40999985 1.29999995 -0.34000000 140 90 140 97.000000 1.000000 4.000000 1.000000 -60.708740 114.000000 31.000000 0.853499 0.219039 0.472823
9.46000004 1.13000000 -0.12000000 140 90 140 97.000000 1.000000 4.000000 1.000000 -60.708740 114.000000 31.000000 0.739773 0.320730 0.591496
9.26000023 1.38000000 -0.03000000 140 90 140 97.000000 1.000000 4.000000 1.000000 -60.708740 114.000000 31.000000 0.897714 0.339796 0.280443
9.30000019 1.23000002 -0.15000001 140 90 140 97.000000 1.000000 4.000000 1.000000 -60.708740 114.000000 31.000000 0.876246 0.146282 0.459124
9.31000042 1.26999998 -0.20000000 140 90 140 97.000000 1.000000 4.000000 1.000000 -60.708740 114.000000 31.000000 0.706734 0.219977 0.672411
9.56999969 0.95999998 -0.18000001 140 90 140 97.000000 1.000000 4.000000 1.000000 -60.708740 114.000000 31.000000 0.748247 0.657815 0.086056
9.64000034 0.74000001 -0.20999999 140 90 140 97.000000 1.000000 4.000000 1.000000 -60.708740 114.000000 31.000000 0.977512 0.046892 0.205602
9.64000034 0.79000002 -0.28999999 140 90 140 97.000000 1.000000 4.000000 1.000000 -60.708740 114.000000 31.000000 0.881305 0.148567 0.448586
9.57999992 0.70999998 -0.47000000 140 90 140 97.000000 1.000000 4.000000 1.000000 -60.708740 114.000000 31.000000 0.956862 0.247487 0.152198
9.60000038 0.69000000 -0.46000001 140 90 140 97.000000 1.000000 4.000000 1.000000 -60.708740 114.000000 31.000000 0.705110 0.423066 0.569065
9.51000023 0.68000001 -0.44999999 140 90 140 97.000000 1.000000 4.000000 1.000000 -60.708740 114.000000 31.000000 0.885851 0.223311 0.406693
9.60999966 0.63000000 -0.28999999 140 90 140 97.000000 1.000000 4.000000 1.000000 -60.708740 114.000000 31.000000 0.819082 0.147167 0.554478
9.63000011 0.62000000 -0.38000000 140 90 140 97.000000 1.000000 4.000000 1.000000 -60.708740 114.000000 31.000000 0.691628 0.186385 0.697790
9.60000038 0.62000000 -0.44999999 140 90 140 97.000000 1.000000 4.000000 1.000000 -60.708740 114.000000 31.000000 0.966978 0.205273 0.151050
9.72000027 1.14999998 0.56000000 140 90 140 97.000000 1.000000 4.000000 1.000000 -60.708740 114.000000 31.000000 -0.081379 -0.102010 0.991449
9.69999981 1.10000002 0.34000000 140 90 140 97.000000 1.000000 4.000000 1.000000 -60.708740 114.000000 31.000000 0.362455 0.749290 -0.554247
9.71000004 0.98000002 0.44000000 140 90 140 97.000000 1.000000 4.000000 1.000000 -60.708740 114.000000 31.000000 0.588451 0.524379 -0.615429
9.81999969 0.97000003 0.31000000 140 90 140 97.000000 1.000000 4.000000 1.000000 -60.708740 114.000000 31.000000 0.589471 0.589471 -0.552312
9.72000027 0.98000002 0.28999999 140 90 140 97.000000 1.000000 4.000000 1.000000 -60.708740 114.000000 31.000000 0.378545 0.812992 -0.442434
9.77999973 0.97000003 0.11000000 140 90 140 97.000000 1.000000 4.000000 1.000000 -60.708740 114.000000 31.000000 0.673829 0.647598 -0.355769
9.76000023 1.00000000 0.09000000 140 90 140 97.000000 1.000000 4.000000 1.000000 -60.708740 114.000000 31.000000 0.798859 0.538328 -0.268379
9.78999996 1.03999996 0.05000000 140 90 140 97.000000 1.000000 4.000000 1.000000 -60.708740 114.000000 31.000000 0.919519 0.370304 -0.131756
9.69999981 1.05999994 0.01000000 140 90 140 97.000000 1.000000 4.000000 1.000000 -60.708740 114.000000 31.000000 0.929223 0.327387 0.171356
10.03999996 0.69000000 0.33000001 140 90 140 97.000000 1.000000 4.000000 1.000000 -60.708740 114.000000 31.000000 -0.514230 -0.323185 0.794430
10.18000031 0.47999999 0.34999999 140 90 140 97.000000 1.000000 4.000000 1.000000 -60.708740 114.000000 31.000000 -0.258875 -0.464137 0.847089
10.00000000 0.56000000 0.38000000 140 90 140 97.000000 1.000000 4.000000 1.000000 -60.708740 114.000000 31.000000 -0.314088 -0.527732 0.789207
10.02000046 0.52999997 0.19000000 140 90 140 97.000000 1.000000 4.000000 1.000000 -60.708740 114.000000 31.000000 -0.504598 -0.129421 0.853599
10.01000023 0.50999999 0.27000001 140 90 140 97.000000 1.000000 4.000000 1.000000 -60.708740 114.000000 31.000000 0.645970 0.531280 -0.548146
10.01000023 0.52999997 0.13000000 140 90 140 97.000000 1.000000 4.000000 1.000000 -60.708740 114.000000 31.000000 0.619195 0.568580 -0.541585
9.89000034 0.88999999 0.51999998 140 90 140 97.000000 1.000000 4.000000 1.000000 -60.708740 114.000000 31.000000 0.131179 -0.471378 0.872121
9.84000015 0.93000001 0.41000000 140 90 140 97.000000 1.000000 4.000000 1.000000 -60.708740 114.000000 31.000000 0.327896 0.738170 -0.589567
9.85000038 0.89999998 0.40000001 140 90 140 97.000000 1.000000 4.000000 1.000000 -60.708740 114.000000 31.000000 0.015186 -0.589498 0.807627
9.72000027 0.92000002 0.55000001 140 90 140 97.000000 1.000000 4.000000 1.000000 -60.708740 114.000000 31.000000 -0.076471 -0.468561 0.880115
9.78999996 0.77999997 0.56999999 140 90 140 97.000000 1.000000 4.000000 1.000000 -60.708740 114.000000 31.000000 0.590787 0.563702 -0.577244
9.81999969 0.79000002 0.34999999 140 90 140 97.000000 1.000000 4.000000 1.000000 -60.708740 114.000000 31.000000 -0.110095 -0.609192 0.785344
9.85999966 0.85000002 0.14000000 140 90 140 97.000000 1.000000 4.000000 1.000000 -60.708740 114.000000 31.000000 0.345574 0.779550 -0.522379
9.84000015 0.79000002 0.25000000 140 90 140 97.000000 1.000000 4.000000 1.000000 -60.708740 114.000000 31.000000 0.315840 0.761544 -0.565947
9.88000011 0.69999999 0.09000000 140 90 140 97.000000 1.000000 4.000000 1.000000 -60.708740 114.000000 31.000000 0.638434 0.729864 -0.244339
9.89000034 0.68000001 0.14000000 140 90 140 97.000000 1.000000 4.000000 1.000000 -60.708740 114.000000 31.000000 0.518403 0.320612 -0.792758
9.82999992 0.80000001 0.10000000 140 90 140 97.000000 1.000000 4.000000 1.000000 -60.708740 114.000000 31.000000 0.487277 0.688216 -0.537512
9.80000019 0.82999998 0.20000000 140 90 140 97.000000 1.000000 4.000000 1.000000 -60.708740 114.000000 31.000000 0.585469 0.737918 -0.335712
9.77999973 0.94999999 0.01000000 140 90 140 97.000000 1.000000 4.000000 1.000000 -60.708740 114.000000 31.000000 0.723615 0.685911 -0.076857
9.81000042 0.88000000 0.09000000 140 90 140 97.000000 1.000000 4.000000 1.000000 -60.708740 114.000000 31.000000 0.905286 0.307650 -0.292930
9.65999985 0.92000002 0.01000000 140 90 140 97.000000 1.000000 4.000000 1.000000 -60.708740 114.000000 31.000000 0.737037 0.658339 -0.152856
9.72000027 0.81999999 -0.02000000 140 90 140 97.000000 1.000000 4.000000 1.000000 -60.708740 114.000000 31.000000 0.980259 0.184477 -0.071138
9.72999954 0.77999997 0.00000000 140 90 140 97.000000 1.000000 4.000000 1.000000 -60.708740 114.000000 31.000000 0.812716 0.314040 -0.490786
9.89999962 0.63000000 0.15000001 140 90 140 97.000000 1.000000 4.000000 1.000000 -60.708740 114.000000 31.000000 0.723596 0.648254 -0.237013
9.64000034 0.99000001 0.66000003 140 90 140 97.000000 1.000000 4.000000 1.000000 -60.708740 114.000000 31.000000 -0.262336 -0.662996 0.701154
9.51000023 1.33000004 0.50999999 140 90 140 97.000000 1.000000 4.000000 1.000000 -60.708740 114.000000 31.000000 0.707028 0.412295 -0.574564
9.32999992 1.57000005 0.63000000 140 90 140 97.000000 1.000000 4.000000 1.000000 -60.708740 114.000000 31.000000 0.521019 0.558114 -0.645793
9.31999969 1.54999995 0.58999997 140 90 140 97.000000 1.000000 4.000000 1.000000 -60.708740 114.000000 31.000000 -0.471566 -0.432405 0.768539
9.38000011 1.59000003 0.34000000 140 90 140 97.000000 1.000000 4.000000 1.000000 -60.708740 114.000000 31.000000 0.532117 0.626715 -0.569280
9.34000015 1.44000006 0.33000001 140 90 140 97.000000 1.000000 4.000000 1.000000 -60.708740 114.000000 31.000000 0.854525 0.502233 -0.132473
9.39999962 1.46000004 0.34000000 140 90 140 97.000000 1.000000 4.000000 1.000000 -60.708740 114.000000 31.000000 0.795008 0.571364 -0.203730
9.50000000 1.33000004 0.06000000 140 90 140 97.000000 1.000000 4.000000 1.000000 -60.708740 114.000000 31.000000 0.955558 0.269449 0.119609
9.35000038 1.37000000 0.23999999 140 90 140 97.000000 1.000000 4.000000 1.000000 -60.708740 114.000000 31.000000 0.579674 0.807456 -0.109510
9.43000031 1.38999999 0.03000000 140 90 140 97.000000 1.000000 4.000000 1.000000 -60.708740 114.000000 31.000000 0.846295 0.518228 -0.123388
9.47999954 1.35000002 0.06000000 140 90 140 97.000000 1.000000 4.000000 1.000000 -60.708740 114.000000 31.000000 0.666394 0.737318 0.110819
9.35999966 1.40999997 0.10000000 140 90 140 97.000000 1.000000 4.000000 1.000000 -60.708740 114.000000 31.000000 0.786521 0.597034 0.157906
9.39000034 1.44000006 0.08000000 140 90 140 97.000000 1.000000 4.000000 1.000000 -60.708740 114.000000 31.000000 0.748935 0.662466 0.015341
9.39000034 1.40999997 0.04000000 140 90 140 97.000000 1.000000 4.000000 1.000000 -60.708740 114.000000 31.000000 0.889117 0.450800 -0.079063
9.59000015 1.15999997 0.34000000 140 90 140 97.000000 1.000000 4.000000 1.000000 -60.708740 114.000000 31.000000 0.728382 0.633168 -0.261836
9.48999977 1.29999995 0.31999999 140 90 140 97.000000 1.000000 4.000000 1.000000 -60.708740 114.000000 31.000000 -0.496082 -0.417495 0.761315
9.60999966 1.16999996 0.41000000 140 90 140 97.000000 1.000000 4.000000 1.000000 -60.708740 114.000000 31.000000 0.108020 0.714707 -0.691032
9.64000034 1.21000004 0.36000001 140 90 140 97.000000 1.000000 4.000000 1.000000 -60.708740 114.000000 31.000000 0.692669 0.343890 -0.633995
9.63000011 1.12000000 0.47999999 140 90 140 97.000000 1.000000 4.000000 1.000000 -60.708740 114.000000 31.000000 -0.044650 -0.445143 0.894346
9.43000031 1.25000000 0.34999999 140 90 140 97.000000 1.000000 4.000000 1.000000 -60.708740 114.000000 31.000000 0.324784 0.830003 -0.453442
9.59000015 1.15999997 0.15000001 140 90 140 97.000000 1.000000 4.000000 1.000000 -60.708740 114.000000 31.000000 0.834486 0.389637 -0.389637
9.56999969 1.23000002 0.20999999 140 90 140 97.000000 1.000000 4.000000 1.000000 -60.708740 114.000000 31.000000 0.853107 0.346526 -0.390036
9.53999996 1.15999997 0.11000000 140 90 140 97.000000 1.000000 4.000000 1.000000 -60.708740 114.000000 31.000000 0.927126 0.272014 -0.257772
9.47000027 1.25999999 0.13000000 140 90 140 97.000000 1.000000 4.000000 1.000000 -60.708740 114.000000 31.000000 0.560500 0.825926 0.060709
9.27999973 1.62000000 0.36000001 140 90 140 97.000000 1.000000 4.000000 1.000000 -60.708740 114.000000 31.000000 0.502793 0.755009 -0.420905
9.27999973 1.61000001 0.47999999 140 90 140 97.000000 1.000000 4.000000 1.000000 -60.708740 114.000000 31.000000 0.828209 0.378474 -0.413313
9.27000046 1.57000005 0.50999999 140 90 140 97.000000 1.000000 4.000000 1.000000 -60.708740 114.000000 31.000000 0.736255 0.632645 -0.240185
9.25000000 1.59000003 0.40000001 140 90 140 97.000000 1.000000 4.000000 1.000000 -60.708740 114.000000 31.000000 0.771254 0.636526 0.001375
9.26000023 1.47000003 0.14000000 140 90 140 97.000000 1.000000 4.000000 1.000000 -60.708740 114.000000 31.000000 0.993263 0.113547 -0.023150
9.30000019 1.42999995 0.31000000 140 90 140 97.000000 1.000000 4.000000 1.000000 -60.708740 114.000000 31.000000 0.489555 0.861443 -0.135100
9.27999973 1.35000002 -0.02000000 140 90 140 97.000000 1.000000 4.000000 1.000000 -60.708740 114.000000 31.000000 0.606855 0.769707 0.198188
9.80000019 0.94999999 -0.03000000 140 90 140 97.000000 1.000000 4.000000 1.000000 -60.708740 114.000000 31.000000 0.839751 0.473034 0.266563
9.75000000 0.81999999 -0.14000000 140 90 140 97.000000 1.000000 4.000000 1.000000 -60.708740 114.000000 31.000000 0.967069 0.177361 0.182539
9.72999954 0.86000001 -0.07000000 140 90 140 97.000000 1.000000 4.000000 1.000000 -60.708740 114.000000 31.000000 0.660827 0.660827 0.355830
9.65999985 0.86000001 -0.22000000 140 90 140 97.000000 1.000000 4.000000 1.000000 -60.708740 114.000000 31.000000 0.945352 0.320304 0.060949
9.73999977 0.79000002 -0.04000000 140 90 140 97.000000 1.000000 4.000000 1.000000 -60.708740 114.000000 31.000000 0.533100 0.836894 -0.124147
9.81999969 0.72000003 -0.11000000 140 90 140 97.000000 1.000000 4.000000 1.000000 -60.708740 114.000000 31.000000 0.776196 0.629157 -0.041001
9.72999954 0.80000001 -0.12000000 140 90 140 97.000000 1.000000 4.000000 1.000000 -60.708740 114.000000 31.000000 0.640541 0.767241 0.032379
9.89000034 0.62000000 -0.06000000 140 90 140 97.000000 1.000000 4.000000 1.000000 -60.708740 114.000000 31.000000 0.931160 0.275533 -0.238795
9.39999962 1.44000006 -0.04000000 140 90 140 97.000000 1.000000 4.000000 1.000000 -60.708740 114.000000 31.000000 0.862089 0.485745 0.144411
9.38000011 1.45000005 -0.05000000 140 90 140 97.000000 1.000000 4.000000 1.000000 -60.708740 114.000000 31.000000 0.843833 0.485014 0.229583
9.32999992 1.46000004 -0.04000000 140 90 140 97.000000 1.000000 4.000000 1.000000 -60.708740 114.000000 31.000000 0.775255 0.523821 0.352975
9.51000023 1.16999996 -0.20000000 140 90 140 97.000000 1.000000 4.000000 1.000000 -60.708740 114.000000 31.000000 0.740506 0.489822 0.460136
9.60999966 1.10000002 -0.08000000 140 90 140 97.000000 1.000000 4.000000 1.000000 -60.708740 114.000000 31.000000 0.913832 0.309453 0.262963
9.59000015 1.12000000 -0.15000001 140 90 140 97.000000 1.000000 4.000000 1.000000 -60.708740 114.000000 31.000000 0.883493 0.312621 0.348867
9.55000019 1.07000005 -0.13000000 140 90 140 97.000000 1.000000 4.000000 1.000000 -60.708740 114.000000 31.000000 0.921846 0.382879 0.060033
9.57999992 1.12000000 -0.25000000 140 90 140 97.000000 1.000000 4.000000 1.000000 -60.708740 114.000000 31.000000 0.566150 0.327432 0.756480
9.39999962 1.16999996 -0.23000000 140 90 140 97.000000 1.000000 4.000000 1.000000 -60.708740 114.000000 31.000000 0.813880 0.031999 0.580151
9.48999977 1.27999997 -0.40000001 140 90 140 97.000000 1.000000 4.000000 1.000000 -60.708740 114.000000 31.000000 0.653842 -0.009717 0.756569
9.52999973 0.89999998 -0.22000000 140 90 140 97.000000 1.000000 4.000000 1.000000 -60.708740 114.000000 31.000000 0.981954 0.185074 0.038901
9.53999996 0.85000002 -0.47999999 140 90 140 97.000000 1.000000 4.000000 1.000000 -60.708740 114.000000 31.000000 0.699504 0.172963 0.693381
9.53999996 0.68000001 -0.46000001 140 90 140 97.000000 1.000000 4.000000 1.000000 -60.708740 114.000000 31.000000 0.933986 0.126804 0.334053
9.53999996 0.60000002 -0.44000000 140 90 140 97.000000 1.000000 4.000000 1.000000 -60.708740 114.000000 31.000000 0.727252 0.133455 0.673271
9.68999958 1.13999999 0.37000000 140 90 140 97.000000 1.000000 4.000000 1.000000 -60.708740 114.000000 31.000000 -0.131122 -0.407466 0.903758
9.67000008 1.14999998 0.44999999 140 90 140 97.000000 1.000000 4.000000 1.000000 -60.708740 114.000000 31.000000 0.370644 0.772040 -0.516312
9.72999954 0.98000002 0.57999998 140 90 140 97.000000 1.000000 4.000000 1.000000 -60.708740 114.000000 31.000000 0.471863 0.646502 -0.599484
9.73999977 1.11000001 0.49000001 140 90 140 97.000000 1.000000 4.000000 1.000000 -60.708740 114.000000 31.000000 -0.246932 -0.313358 0.916969
9.77999973 0.98000002 0.38999999 140 90 140 97.000000 1.000000 4.000000 1.000000 -60.708740 114.000000 31.000000 -0.022896 -0.475421 0.879461
9.72000027 1.03999996 0.34000000 140 90 140 97.000000 1.000000 4.000000 1.000000 -60.708740 114.000000 31.000000 0.230898 0.683271 -0.692695
9.69999981 1.01999998 0.43000001 140 90 140 97.000000 1.000000 4.000000 1.000000 -60.708740 114.000000 31.000000 -0.101796 -0.430891 0.896644
9.67000008 1.16999996 0.27000001 140 90 140 97.000000 1.000000 4.000000 1.000000 -60.708740 114.000000 31.000000 0.486841 0.500133 -0.716138
9.67000008 1.08000004 0.19000000 140 90 140 97.000000 1.000000 4.000000 1.000000 -60.708740 114.000000 31.000000 0.573878 0.780287 -0.248628
9.69999981 1.07000005 0.02000000 140 90 140 97.000000 1.000000 4.000000 1.000000 -60.708740 114.000000 31.000000 0.931612 0.328071 0.156422
9.67000008 1.20000005 0.20000000 140 90 140 97.000000 1.000000 4.000000 1.000000 -60.708740 114.000000 31.000000 0.787034 0.561720 -0.255043
9.68000031 1.10000002 0.03000000 140 90 140 97.000000 1.000000 4.000000 1.000000 -60.708740 114.000000 31.000000 0.696825 0.702846 0.142977
10.06000042 0.51999998 0.30000001 140 90 140 97.000000 1.000000 4.000000 1.000000 -60.708740 114.000000 31.000000 -0.452122 -0.350593 0.820165
9.89999962 0.85000002 0.49000001 140 90 140 97.000000 1.000000 4.000000 1.000000 -60.708740 114.000000 31.000000 -0.385753 -0.189265 0.902980
9.85000038 0.94000000 0.38999999 140 90 140 97.000000 1.000000 4.000000 1.000000 -60.708740 114.000000 31.000000 -0.315779 -0.553013 0.771013
9.94999981 0.82999998 0.34999999 140 90 140 97.000000 1.000000 4.000000 1.000000 -60.708740 114.000000 31.000000 -0.419769 -0.188677 0.887804
9.65999985 0.81000000 0.51999998 140 90 140 97.000000 1.000000 4.000000 1.000000 -60.708740 114.000000 31.000000 0.405521 0.773584 -0.486951
9.68999958 0.85000002 0.52999997 140 90 140 97.000000 1.000000 4.000000 1.000000 -60.708740 114.000000 31.000000 0.303897 0.817215 -0.489699
9.71000004 0.88999999 0.57999998 140 90 140 97.000000 1.000000 4.000000 1.000000 -60.708740 114.000000 31.000000 -0.415320 -0.147003 0.897719
9.85000038 0.88999999 0.06000000 140 90 140 97.000000 1.000000 4.000000 1.000000 -60.708740 114.000000 31.000000 0.784134 0.331934 -0.524360
