//X Y Z R G B PointSourceId ScanDirectionFlag NumberOfReturns ReturnNumber GpsTime Intensity Classification Nx Ny Nz
-6.34999990 5.98000002 -1.25999999 223 224 32 97.000000 1.000000 4.000000 1.000000 -60.708740 114.000000 228.000000 -0.599290 0.439035 0.669402
-6.38000011 5.94000006 -1.24000001 223 224 32 97.000000 1.000000 4.000000 1.000000 -60.708740 114.000000 228.000000 -0.579889 0.812411 0.060966
-6.38999987 5.98999977 -1.32000005 223 224 32 97.000000 1.000000 4.000000 1.000000 -60.708740 114.000000 228.000000 0.355047 -0.753866 -0.552835
-6.40000010 5.98000002 -1.32000005 223 224 32 97.000000 1.000000 4.000000 1.000000 -60.708740 114.000000 228.000000 0.743494 -0.668729 -0.004154
-6.38000011 6.00000000 -1.33000004 223 224 32 97.000000 1.000000 4.000000 1.000000 -60.708740 114.000000 228.000000 0.848510 -0.528782 0.020495
-6.38000011 6.00000000 -1.33000004 223 224 32 97.000000 1.000000 4.000000 1.000000 -60.708740 114.000000 228.000000 0.848510 -0.528782 0.020495
-6.38999987 5.98000002 -1.35000002 223 224 32 97.000000 1.000000 4.000000 1.000000 -60.708740 114.000000 228.000000 0.730304 -0.683008 0.012519
-6.38000011 6.00000000 -1.33000004 223 224 32 97.000000 1.000000 4.000000 1.000000 -60.708740 114.000000 228.000000 0.848510 -0.528782 0.020495
-6.40000010 5.92000008 -1.22000003 223 224 32 97.000000 1.000000 4.000000 1.000000 -60.708740 114.000000 228.000000 -0.394014 0.914822 0.088619
-6.38999987 5.92000008 -1.22000003 223 224 32 97.000000 1.000000 4.000000 1.000000 -60.708740 114.000000 228.000000 -0.580711 0.812430 0.052278
-6.42999983 5.90999985 -1.22000003 223 224 32 97.000000 1.000000 4.000000 1.000000 -60.708740 114.000000 228.000000 -0.272193 0.950663 0.148834
-6.44000006 5.90999985 -1.23000002 223 224 32 97.000000 1.000000 4.000000 1.000000 -60.708740 114.000000 228.000000 0.739373 -0.670460 -0.061734
-6.53000021 6.38000011 -0.10000000 223 224 32 97.000000 1.000000 4.000000 1.000000 -60.708740 114.000000 228.000000 0.069647 0.961124 0.267190
-6.61000013 6.42999983 -0.18000001 223 224 32 97.000000 1.000000 4.000000 1.000000 -60.708740 114.000000 228.000000 -0.116974 0.850585 0.512662
-6.59000015 6.42000008 -0.10000000 223 224 32 97.000000 1.000000 4.000000 1.000000 -60.708740 114.000000 228.000000 -0.475688 0.613520 0.630329
-6.61999989 6.42000008 -0.18000001 223 224 32 97.000000 1.000000 4.000000 1.000000 -60.708740 114.000000 228.000000 -0.401052 0.701428 0.589200
-6.61000013 6.42000008 -0.17000000 223 224 32 97.000000 1.000000 4.000000 1.000000 -60.708740 114.000000 228.000000 -0.450433 0.624579 0.637974
-6.61999989 6.42000008 -0.18000001 223 224 32 97.000000 1.000000 4.000000 1.000000 -60.708740 114.000000 228.000000 -0.401052 0.701428 0.589200
-6.46999979 6.34999990 -0.23000000 223 224 32 97.000000 1.000000 4.000000 1.000000 -60.708740 114.000000 228.000000 -0.483753 0.795541 0.364824
-6.53000021 6.34999990 -0.20999999 223 224 32 97.000000 1.000000 4.000000 1.000000 -60.708740 114.000000 228.000000 -0.548703 0.738702 0.391463
-6.53000021 6.34999990 -0.22000000 223 224 32 97.000000 1.000000 4.000000 1.000000 -60.708740 114.000000 228.000000 -0.114381 0.841210 0.528471
-6.51000023 6.34999990 -0.25000000 223 224 32 97.000000 1.000000 4.000000 1.000000 -60.708740 114.000000 228.000000 0.104985 0.849950 0.516298
-6.48999977 6.38000011 -0.30000001 223 224 32 97.000000 1.000000 4.000000 1.000000 -60.708740 114.000000 228.000000 0.212177 0.856234 0.471004
-6.53000021 6.40999985 -0.28999999 223 224 32 97.000000 1.000000 4.000000 1.000000 -60.708740 114.000000 228.000000 -0.128144 0.811577 0.570019
-6.61999989 6.42999983 -0.34000000 223 224 32 97.000000 1.000000 4.000000 1.000000 -60.708740 114.000000 228.000000 -0.172547 0.820723 0.544648
-6.61999989 6.40999985 -0.25000000 223 224 32 97.000000 1.000000 4.000000 1.000000 -60.708740 114.000000 228.000000 0.414544 -0.725040 -0.549973
-6.73999977 6.38000011 -0.18000001 223 224 32 97.000000 1.000000 4.000000 1.000000 -60.708740 114.000000 228.000000 0.779222 -0.324809 -0.536015
-6.69000006 6.44000006 -0.28000000 223 224 32 97.000000 1.000000 4.000000 1.000000 -60.708740 114.000000 228.000000 0.711679 -0.505009 -0.488342
-6.65999985 6.40000010 -0.25999999 223 224 32 97.000000 1.000000 4.000000 1.000000 -60.708740 114.000000 228.000000 -0.237144 0.739701 0.629766
-6.71999979 6.42000008 -0.31999999 223 224 32 97.000000 1.000000 4.000000 1.000000 -60.708740 114.000000 228.000000 0.806087 -0.405447 -0.431088
-6.46999979 6.34999990 -0.36000001 223 224 32 97.000000 1.000000 4.000000 1.000000 -60.708740 114.000000 228.000000 0.136624 0.926009 0.351911
-6.53000021 6.40000010 -0.38999999 223 224 32 97.000000 1.000000 4.000000 1.000000 -60.708740 114.000000 228.000000 -0.300695 0.907954 0.291895
-6.53000021 6.40000010 -0.38999999 223 224 32 97.000000 1.000000 4.000000 1.000000 -60.708740 114.000000 228.000000 -0.300695 0.907954 0.291895
-6.53999996 6.40000010 -0.40000001 223 224 32 97.000000 1.000000 4.000000 1.000000 -60.708740 114.000000 228.000000 0.057209 0.855349 0.514884
-6.53000021 6.40999985 -0.40000001 223 224 32 97.000000 1.000000 4.000000 1.000000 -60.708740 114.000000 228.000000 -0.067087 -0.800760 -0.595217
-6.53000021 6.40000010 -0.40000001 223 224 32 97.000000 1.000000 4.000000 1.000000 -60.708740 114.000000 228.000000 -0.482082 0.814007 0.324022
-6.48999977 6.36999989 -0.44000000 223 224 32 97.000000 1.000000 4.000000 1.000000 -60.708740 114.000000 228.000000 -0.213430 0.918181 0.333754
-6.48000002 6.36999989 -0.44000000 223 224 32 97.000000 1.000000 4.000000 1.000000 -60.708740 114.000000 228.000000 -0.232311 0.971813 0.040137
-6.50000000 6.36999989 -0.50999999 223 224 32 97.000000 1.000000 4.000000 1.000000 -60.708740 114.000000 228.000000 0.450224 0.832994 0.321589
-6.53000021 6.40999985 -0.47999999 223 224 32 97.000000 1.000000 4.000000 1.000000 -60.708740 114.000000 228.000000 0.316322 0.898474 0.304442
-6.59000015 6.44999981 -0.47999999 223 224 32 97.000000 1.000000 4.000000 1.000000 -60.708740 114.000000 228.000000 -0.306649 0.842116 0.443629
-6.61999989 6.42999983 -0.47999999 223 224 32 97.000000 1.000000 4.000000 1.000000 -60.708740 114.000000 228.000000 -0.314847 0.811641 0.492047
-6.55999994 6.40000010 -0.41000000 223 224 32 97.000000 1.000000 4.000000 1.000000 -60.708740 114.000000 228.000000 -0.212963 0.871212 0.442308
-6.55999994 6.40000010 -0.41000000 223 224 32 97.000000 1.000000 4.000000 1.000000 -60.708740 114.000000 228.000000 -0.212963 0.871212 0.442308
-6.61000013 6.42000008 -0.43000001 223 224 32 97.000000 1.000000 4.000000 1.000000 -60.708740 114.000000 228.000000 0.001364 0.816854 0.576843
-6.53999996 6.42999983 -0.57999998 223 224 32 97.000000 1.000000 4.000000 1.000000 -60.708740 114.000000 228.000000 0.039307 0.949710 0.310653
-6.53999996 6.46999979 -0.60000002 223 224 32 97.000000 1.000000 4.000000 1.000000 -60.708740 114.000000 228.000000 0.360005 0.834771 0.416599
-6.53000021 6.42999983 -0.57999998 223 224 32 97.000000 1.000000 4.000000 1.000000 -60.708740 114.000000 228.000000 -0.040615 0.966149 0.254768
-6.53000021 6.42999983 -0.62000000 223 224 32 97.000000 1.000000 4.000000 1.000000 -60.708740 114.000000 228.000000 0.119214 0.796233 0.593128
-6.50000000 6.40000010 -0.61000001 223 224 32 97.000000 1.000000 4.000000 1.000000 -60.708740 114.000000 228.000000 -0.212718 0.956564 0.199340
-6.48999977 6.34999990 -0.63999999 223 224 32 97.000000 1.000000 4.000000 1.000000 -60.708740 114.000000 228.000000 0.121884 0.873261 0.471762
-6.51999998 6.40000010 -0.63000000 223 224 32 97.000000 1.000000 4.000000 1.000000 -60.708740 114.000000 228.000000 0.452103 0.847114 0.279285
-6.51999998 6.40000010 -0.63000000 223 224 32 97.000000 1.000000 4.000000 1.000000 -60.708740 114.000000 228.000000 0.452103 0.847114 0.279285
-6.53000021 6.40999985 -0.69000000 223 224 32 97.000000 1.000000 4.000000 1.000000 -60.708740 114.000000 228.000000 0.538081 0.807898 0.240353
-6.57999992 6.44000006 -0.62000000 223 224 32 97.000000 1.000000 4.000000 1.000000 -60.708740 114.000000 228.000000 0.265126 0.868099 0.419657
-6.55999994 6.42999983 -0.61000001 223 224 32 97.000000 1.000000 4.000000 1.000000 -60.708740 114.000000 228.000000 0.112901 0.929051 0.352305
-6.61000013 6.46999979 -0.62000000 223 224 32 97.000000 1.000000 4.000000 1.000000 -60.708740 114.000000 228.000000 -0.050590 0.884644 0.463515
-6.61999989 6.42999983 -0.64999998 223 224 32 97.000000 1.000000 4.000000 1.000000 -60.708740 114.000000 228.000000 0.014527 0.896697 0.442406
-6.59000015 6.44000006 -0.68000001 223 224 32 97.000000 1.000000 4.000000 1.000000 -60.708740 114.000000 228.000000 -0.156160 0.932816 0.324758
-6.57000017 6.40999985 -0.56999999 223 224 32 97.000000 1.000000 4.000000 1.000000 -60.708740 114.000000 228.000000 0.185108 0.863346 0.469435
-6.65000010 6.44000006 -0.38000000 223 224 32 97.000000 1.000000 4.000000 1.000000 -60.708740 114.000000 228.000000 -0.384690 0.625741 0.678574
-6.65000010 6.42999983 -0.37000000 223 224 32 97.000000 1.000000 4.000000 1.000000 -60.708740 114.000000 228.000000 -0.685415 0.718125 0.120431
-6.67999983 6.44000006 -0.36000001 223 224 32 97.000000 1.000000 4.000000 1.000000 -60.708740 114.000000 228.000000 -0.101691 0.855063 0.508455
-6.63999987 6.42999983 -0.50999999 223 224 32 97.000000 1.000000 4.000000 1.000000 -60.708740 114.000000 228.000000 -0.530692 0.838930 0.120678
-6.69000006 6.40999985 -0.49000001 223 224 32 97.000000 1.000000 4.000000 1.000000 -60.708740 114.000000 228.000000 0.727463 -0.677089 -0.111120
-6.71999979 6.44999981 -0.51999998 223 224 32 97.000000 1.000000 4.000000 1.000000 -60.708740 114.000000 228.000000 -0.522828 0.693206 0.496102
-6.71999979 6.38999987 -0.37000000 223 224 32 97.000000 1.000000 4.000000 1.000000 -60.708740 114.000000 228.000000 -0.637974 0.450433 0.624579
-6.73000002 6.40999985 -0.41000000 223 224 32 97.000000 1.000000 4.000000 1.000000 -60.708740 114.000000 228.000000 0.520732 -0.500639 -0.691519
-6.71999979 6.40999985 -0.41000000 223 224 32 97.000000 1.000000 4.000000 1.000000 -60.708740 114.000000 228.000000 0.787532 -0.409129 -0.460876
-6.75000000 6.38000011 -0.44999999 223 224 32 97.000000 1.000000 4.000000 1.000000 -60.708740 114.000000 228.000000 0.681656 -0.434993 -0.588324
-6.76000023 6.38000011 -0.44000000 223 224 32 97.000000 1.000000 4.000000 1.000000 -60.708740 114.000000 228.000000 0.695767 -0.394984 -0.599913
-6.76000023 6.34999990 -0.51999998 223 224 32 97.000000 1.000000 4.000000 1.000000 -60.708740 114.000000 228.000000 0.596200 -0.552287 -0.582688
-6.63000011 6.44999981 -0.60000002 223 224 32 97.000000 1.000000 4.000000 1.000000 -60.708740 114.000000 228.000000 -0.307650 0.905286 0.292930
-6.63999987 6.42999983 -0.58999997 223 224 32 97.000000 1.000000 4.000000 1.000000 -60.708740 114.000000 228.000000 -0.456558 0.886908 -0.070346
-6.63000011 6.44999981 -0.64999998 223 224 32 97.000000 1.000000 4.000000 1.000000 -60.708740 114.000000 228.000000 -0.278297 0.902624 0.328361
-6.63999987 6.42999983 -0.66000003 223 224 32 97.000000 1.000000 4.000000 1.000000 -60.708740 114.000000 228.000000 -0.347683 0.926693 0.142675
-6.63999987 6.42999983 -0.67000002 223 224 32 97.000000 1.000000 4.000000 1.000000 -60.708740 114.000000 228.000000 -0.192835 0.915607 0.352816
-6.71000004 6.42999983 -0.67000002 223 224 32 97.000000 1.000000 4.000000 1.000000 -60.708740 114.000000 228.000000 -0.104314 0.858807 0.501566
-6.69000006 6.42000008 -0.54000002 223 224 32 97.000000 1.000000 4.000000 1.000000 -60.708740 114.000000 228.000000 -0.612356 0.585365 0.531383
-6.67999983 6.40000010 -0.55000001 223 224 32 97.000000 1.000000 4.000000 1.000000 -60.708740 114.000000 228.000000 0.657290 -0.536254 -0.529530
-6.71999979 6.42999983 -0.61000001 223 224 32 97.000000 1.000000 4.000000 1.000000 -60.708740 114.000000 228.000000 0.600616 -0.624170 -0.499672
-6.73000002 6.40000010 -0.60000002 223 224 32 97.000000 1.000000 4.000000 1.000000 -60.708740 114.000000 228.000000 0.653979 -0.516122 -0.553108
-6.71999979 6.40000010 -0.58999997 223 224 32 97.000000 1.000000 4.000000 1.000000 -60.708740 114.000000 228.000000 0.799397 -0.485406 -0.354042
-6.76999998 6.36000013 -0.56000000 223 224 32 97.000000 1.000000 4.000000 1.000000 -60.708740 114.000000 228.000000 0.709167 -0.368505 -0.601072
-6.73000002 6.42000008 -0.63000000 223 224 32 97.000000 1.000000 4.000000 1.000000 -60.708740 114.000000 228.000000 -0.339908 0.707465 0.619642
-6.78000021 6.36000013 -0.63999999 223 224 32 97.000000 1.000000 4.000000 1.000000 -60.708740 114.000000 228.000000 0.638526 -0.547549 -0.540810
-6.46999979 6.40999985 -0.73000002 223 224 32 97.000000 1.000000 4.000000 1.000000 -60.708740 114.000000 228.000000 0.055177 0.998385 0.013534
-6.50000000 6.40999985 -0.76999998 223 224 32 97.000000 1.000000 4.000000 1.000000 -60.708740 114.000000 228.000000 0.360649 0.894943 0.262695
-6.51000023 6.40999985 -0.75999999 223 224 32 97.000000 1.000000 4.000000 1.000000 -60.708740 114.000000 228.000000 0.069012 0.910682 0.407303
-6.53999996 6.40999985 -0.76999998 223 224 32 97.000000 1.000000 4.000000 1.000000 -60.708740 114.000000 228.000000 0.597127 0.760983 0.253661
-6.61000013 6.44000006 -0.72000003 223 224 32 97.000000 1.000000 4.000000 1.000000 -60.708740 114.000000 228.000000 -0.071005 0.875733 0.477546
-6.59999990 6.44000006 -0.72000003 223 224 32 97.000000 1.000000 4.000000 1.000000 -60.708740 114.000000 228.000000 0.017978 0.800700 0.598796
-6.61999989 6.44000006 -0.72000003 223 224 32 97.000000 1.000000 4.000000 1.000000 -60.708740 114.000000 228.000000 -0.042279 0.876954 0.478711
-6.61000013 6.44000006 -0.72000003 223 224 32 97.000000 1.000000 4.000000 1.000000 -60.708740 114.000000 228.000000 -0.071005 0.875733 0.477546
-6.59999990 6.44000006 -0.72000003 223 224 32 97.000000 1.000000 4.000000 1.000000 -60.708740 114.000000 228.000000 0.017978 0.800700 0.598796
-6.61999989 6.44999981 -0.74000001 223 224 32 97.000000 1.000000 4.000000 1.000000 -60.708740 114.000000 228.000000 -0.068992 0.913134 0.401779
-6.57999992 6.42999983 -0.79000002 223 224 32 97.000000 1.000000 4.000000 1.000000 -60.708740 114.000000 228.000000 0.086335 0.861936 0.499612
-6.57999992 6.42999983 -0.79000002 223 224 32 97.000000 1.000000 4.000000 1.000000 -60.708740 114.000000 228.000000 0.086335 0.861936 0.499612
-6.57999992 6.42999983 -0.83999997 223 224 32 97.000000 1.000000 4.000000 1.000000 -60.708740 114.000000 228.000000 0.299091 0.885248 0.356203
-6.61000013 6.42999983 -0.80000001 223 224 32 97.000000 1.000000 4.000000 1.000000 -60.708740 114.000000 228.000000 -0.341373 0.937128 0.072492
-6.61999989 6.42999983 -0.81999999 223 224 32 97.000000 1.000000 4.000000 1.000000 -60.708740 114.000000 228.000000 -0.053150 0.967819 0.245972
-6.55999994 6.42000008 -0.76999998 223 224 32 97.000000 1.000000 4.000000 1.000000 -60.708740 114.000000 228.000000 0.281824 0.893188 0.350416
-6.55999994 6.42000008 -0.76999998 223 224 32 97.000000 1.000000 4.000000 1.000000 -60.708740 114.000000 228.000000 0.281824 0.893188 0.350416
-6.59000015 6.42000008 -0.69999999 223 224 32 97.000000 1.000000 4.000000 1.000000 -60.708740 114.000000 228.000000 0.023777 0.952344 0.304099
-6.57000017 6.40999985 -0.80000001 223 224 32 97.000000 1.000000 4.000000 1.000000 -60.708740 114.000000 228.000000 0.159356 0.866956 0.472221
-6.55999994 6.40999985 -0.82999998 223 224 32 97.000000 1.000000 4.000000 1.000000 -60.708740 114.000000 228.000000 0.169270 0.889752 0.423898
-6.55000019 6.38000011 -0.85000002 223 224 32 97.000000 1.000000 4.000000 1.000000 -60.708740 114.000000 228.000000 0.594110 0.747842 0.296254
-6.59000015 6.42000008 -0.82999998 223 224 32 97.000000 1.000000 4.000000 1.000000 -60.708740 114.000000 228.000000 0.064443 0.935084 0.348519
-6.59000015 6.42000008 -0.82999998 223 224 32 97.000000 1.000000 4.000000 1.000000 -60.708740 114.000000 228.000000 0.064443 0.935084 0.348519
-6.53999996 6.38999987 -0.88000000 223 224 32 97.000000 1.000000 4.000000 1.000000 -60.708740 114.000000 228.000000 0.461909 0.768760 0.442322
-6.53999996 6.38999987 -0.88000000 223 224 32 97.000000 1.000000 4.000000 1.000000 -60.708740 114.000000 228.000000 0.461909 0.768760 0.442322
-6.53999996 6.38999987 -0.88999999 223 224 32 97.000000 1.000000 4.000000 1.000000 -60.708740 114.000000 228.000000 0.134411 0.921478 0.364434
-6.51000023 6.38000011 -0.87000000 223 224 32 97.000000 1.000000 4.000000 1.000000 -60.708740 114.000000 228.000000 0.758457 0.604567 0.243397
-6.61000013 6.42999983 -0.89999998 223 224 32 97.000000 1.000000 4.000000 1.000000 -60.708740 114.000000 228.000000 0.291306 0.830300 0.475125
-6.61999989 6.42999983 -0.99000001 223 224 32 97.000000 1.000000 4.000000 1.000000 -60.708740 114.000000 228.000000 0.146649 0.957840 0.247057
-6.57999992 6.42000008 -0.89999998 223 224 32 97.000000 1.000000 4.000000 1.000000 -60.708740 114.000000 228.000000 0.099519 0.984402 0.145082
-6.57000017 6.40000010 -0.88000000 223 224 32 97.000000 1.000000 4.000000 1.000000 -60.708740 114.000000 228.000000 0.248986 0.919666 0.303677
-6.57999992 6.42000008 -0.89999998 223 224 32 97.000000 1.000000 4.000000 1.000000 -60.708740 114.000000 228.000000 0.099519 0.984402 0.145082
-6.55000019 6.36000013 -0.92000002 223 224 32 97.000000 1.000000 4.000000 1.000000 -60.708740 114.000000 228.000000 0.736778 0.669398 0.095210
-6.55000019 6.36999989 -0.94000000 223 224 32 97.000000 1.000000 4.000000 1.000000 -60.708740 114.000000 228.000000 0.173428 0.969912 0.170859
-6.57999992 6.40999985 -1.00000000 223 224 32 97.000000 1.000000 4.000000 1.000000 -60.708740 114.000000 228.000000 0.074204 0.992054 -0.101603
-6.55999994 6.38000011 -0.94999999 223 224 32 97.000000 1.000000 4.000000 1.000000 -60.708740 114.000000 228.000000 0.760045 0.643339 0.091906
-6.55999994 6.38000011 -0.94999999 223 224 32 97.000000 1.000000 4.000000 1.000000 -60.708740 114.000000 228.000000 0.760045 0.643339 0.091906
-6.59000015 6.40999985 -1.00999999 223 224 32 97.000000 1.000000 4.000000 1.000000 -60.708740 114.000000 228.000000 0.499187 0.822648 0.272143
-6.59999990 6.40999985 -1.00999999 223 224 32 97.000000 1.000000 4.000000 1.000000 -60.708740 114.000000 228.000000 0.311788 0.884153 0.347938
-6.65999985 6.42999983 -0.74000001 223 224 32 97.000000 1.000000 4.000000 1.000000 -60.708740 114.000000 228.000000 -0.442341 0.822849 0.356726
-6.65999985 6.42999983 -0.74000001 223 224 32 97.000000 1.000000 4.000000 1.000000 -60.708740 114.000000 228.000000 -0.442341 0.822849 0.356726
-6.65000010 6.44999981 -0.75000000 223 224 32 97.000000 1.000000 4.000000 1.000000 -60.708740 114.000000 228.000000 -0.462710 0.829742 0.312134
-6.67000008 6.44000006 -0.69999999 223 224 32 97.000000 1.000000 4.000000 1.000000 -60.708740 114.000000 228.000000 -0.199085 0.816095 0.542544
-6.67000008 6.42999983 -0.75999999 223 224 32 97.000000 1.000000 4.000000 1.000000 -60.708740 114.000000 228.000000 -0.461339 0.837244 0.293579
-6.65999985 6.42999983 -0.79000002 223 224 32 97.000000 1.000000 4.000000 1.000000 -60.708740 114.000000 228.000000 -0.098273 0.761247 0.640973
-6.63999987 6.40999985 -0.81999999 223 224 32 97.000000 1.000000 4.000000 1.000000 -60.708740 114.000000 228.000000 -0.475334 0.856201 0.202429
-6.73000002 6.40999985 -0.73000002 223 224 32 97.000000 1.000000 4.000000 1.000000 -60.708740 114.000000 228.000000 0.437719 -0.697355 -0.567537
-6.73999977 6.38000011 -0.74000001 223 224 32 97.000000 1.000000 4.000000 1.000000 -60.708740 114.000000 228.000000 0.602955 -0.562421 -0.565798
-6.78000021 6.34999990 -0.75999999 223 224 32 97.000000 1.000000 4.000000 1.000000 -60.708740 114.000000 228.000000 0.638352 -0.527188 -0.560874
-6.71999979 6.42000008 -0.77999997 223 224 32 97.000000 1.000000 4.000000 1.000000 -60.708740 114.000000 228.000000 -0.610660 0.566679 0.553146
-6.73000002 6.40999985 -0.82999998 223 224 32 97.000000 1.000000 4.000000 1.000000 -60.708740 114.000000 228.000000 -0.255340 0.696237 0.670862
-6.73999977 6.40999985 -0.82999998 223 224 32 97.000000 1.000000 4.000000 1.000000 -60.708740 114.000000 228.000000 0.485900 -0.692951 -0.532654
-6.63000011 6.44999981 -0.92000002 223 224 32 97.000000 1.000000 4.000000 1.000000 -60.708740 114.000000 228.000000 0.011664 0.916244 0.400452
-6.65000010 6.44999981 -0.93000001 223 224 32 97.000000 1.000000 4.000000 1.000000 -60.708740 114.000000 228.000000 -0.244382 0.893104 0.377681
-6.63000011 6.42999983 -0.99000001 223 224 32 97.000000 1.000000 4.000000 1.000000 -60.708740 114.000000 228.000000 0.097164 0.977787 0.185718
-6.63999987 6.42999983 -1.00999999 223 224 32 97.000000 1.000000 4.000000 1.000000 -60.708740 114.000000 228.000000 0.152291 0.937067 0.314185
-6.63999987 6.42999983 -1.00999999 223 224 32 97.000000 1.000000 4.000000 1.000000 -60.708740 114.000000 228.000000 0.152291 0.937067 0.314185
-6.65999985 6.42999983 -1.00999999 223 224 32 97.000000 1.000000 4.000000 1.000000 -60.708740 114.000000 228.000000 0.017409 0.882479 0.470030
-6.63000011 6.42999983 -0.99000001 223 224 32 97.000000 1.000000 4.000000 1.000000 -60.708740 114.000000 228.000000 0.097164 0.977787 0.185718
-6.67000008 6.44999981 -0.94999999 223 224 32 97.000000 1.000000 4.000000 1.000000 -60.708740 114.000000 228.000000 -0.269055 0.960182 -0.075233
-6.65999985 6.42000008 -0.91000003 223 224 32 97.000000 1.000000 4.000000 1.000000 -60.708740 114.000000 228.000000 -0.447067 0.826206 0.342804
-6.63000011 6.42000008 -0.98000002 223 224 32 97.000000 1.000000 4.000000 1.000000 -60.708740 114.000000 228.000000 0.139376 0.928712 0.343610
-6.78999996 6.40000010 -0.87000000 223 224 32 97.000000 1.000000 4.000000 1.000000 -60.708740 114.000000 228.000000 -0.457255 0.758814 0.463810
-6.76000023 6.40000010 -0.91000003 223 224 32 97.000000 1.000000 4.000000 1.000000 -60.708740 114.000000 228.000000 -0.430258 0.840176 0.330125
-6.78999996 6.38999987 -0.94000000 223 224 32 97.000000 1.000000 4.000000 1.000000 -60.708740 114.000000 228.000000 0.521363 -0.481387 -0.704590
-6.78999996 6.34999990 -0.88999999 223 224 32 97.000000 1.000000 4.000000 1.000000 -60.708740 114.000000 228.000000 0.732008 -0.296327 -0.613477
-6.78999996 6.34999990 -0.88999999 223 224 32 97.000000 1.000000 4.000000 1.000000 -60.708740 114.000000 228.000000 0.732008 -0.296327 -0.613477
-6.78999996 6.38000011 -0.91000003 223 224 32 97.000000 1.000000 4.000000 1.000000 -60.708740 114.000000 228.000000 -0.634577 0.772829 -0.006913
-6.61999989 6.42999983 -1.05999994 223 224 32 97.000000 1.000000 4.000000 1.000000 -60.708740 114.000000 228.000000 0.143235 0.966514 0.212917
-6.61999989 6.42999983 -1.05999994 223 224 32 97.000000 1.000000 4.000000 1.000000 -60.708740 114.000000 228.000000 0.143235 0.966514 0.212917
-6.61000013 6.42999983 -1.08000004 223 224 32 97.000000 1.000000 4.000000 1.000000 -60.708740 114.000000 228.000000 0.456050 0.808089 0.372841
-6.57999992 6.36000013 -1.09000003 223 224 32 97.000000 1.000000 4.000000 1.000000 -60.708740 114.000000 228.000000 0.893300 0.445968 0.055917
-6.57999992 6.34999990 -1.08000004 223 224 32 97.000000 1.000000 4.000000 1.000000 -60.708740 114.000000 228.000000 0.892458 0.419556 0.165804
-6.57999992 6.38000011 -1.07000005 223 224 32 97.000000 1.000000 4.000000 1.000000 -60.708740 114.000000 228.000000 0.662787 0.727076 0.179090
-6.59999990 6.40000010 -1.09000003 223 224 32 97.000000 1.000000 4.000000 1.000000 -60.708740 114.000000 228.000000 0.477740 0.793016 0.378009
-6.61000013 6.40999985 -1.10000002 223 224 32 97.000000 1.000000 4.000000 1.000000 -60.708740 114.000000 228.000000 0.336653 0.904112 0.263148
-6.61000013 6.40999985 -1.10000002 223 224 32 97.000000 1.000000 4.000000 1.000000 -60.708740 114.000000 228.000000 0.336653 0.904112 0.263148
-6.61000013 6.40999985 -1.10000002 223 224 32 97.000000 1.000000 4.000000 1.000000 -60.708740 114.000000 228.000000 0.336653 0.904112 0.263148
-6.59999990 6.36000013 -1.08000004 223 224 32 97.000000 1.000000 4.000000 1.000000 -60.708740 114.000000 228.000000 0.700752 0.632465 0.330052
-6.57999992 6.34999990 -1.12000000 223 224 32 97.000000 1.000000 4.000000 1.000000 -60.708740 114.000000 228.000000 0.893616 0.434846 -0.111174
-6.57999992 6.38000011 -1.13999999 223 224 32 97.000000 1.000000 4.000000 1.000000 -60.708740 114.000000 228.000000 0.715262 0.662048 0.223813
-6.57999992 6.38000011 -1.12000000 223 224 32 97.000000 1.000000 4.000000 1.000000 -60.708740 114.000000 228.000000 0.843962 0.476356 0.246602
-6.59000015 6.38999987 -1.13999999 223 224 32 97.000000 1.000000 4.000000 1.000000 -60.708740 114.000000 228.000000 0.506166 0.801298 0.318932
-6.59999990 6.40999985 -1.13000000 223 224 32 97.000000 1.000000 4.000000 1.000000 -60.708740 114.000000 228.000000 0.408158 0.880605 0.240709
-6.59999990 6.38999987 -1.17999995 223 224 32 97.000000 1.000000 4.000000 1.000000 -60.708740 114.000000 228.000000 0.527060 0.838305 0.139473
-6.61000013 6.38999987 -1.17999995 223 224 32 97.000000 1.000000 4.000000 1.000000 -60.708740 114.000000 228.000000 0.721727 0.683195 0.111149
-6.61000013 6.38999987 -1.17999995 223 224 32 97.000000 1.000000 4.000000 1.000000 -60.708740 114.000000 228.000000 0.721727 0.683195 0.111149
-6.59999990 6.36999989 -1.12000000 223 224 32 97.000000 1.000000 4.000000 1.000000 -60.708740 114.000000 228.000000 0.719401 0.629676 0.293208
-6.59000015 6.36999989 -1.17999995 223 224 32 97.000000 1.000000 4.000000 1.000000 -60.708740 114.000000 228.000000 0.791161 0.606026 0.082443
-6.61999989 6.34999990 -1.28999996 223 224 32 97.000000 1.000000 4.000000 1.000000 -60.708740 114.000000 228.000000 0.935166 0.169905 -0.310801
-6.65000010 6.42999983 -1.08000004 223 224 32 97.000000 1.000000 4.000000 1.000000 -60.708740 114.000000 228.000000 -0.014894 0.999885 0.002979
-6.71000004 6.46000004 -1.08000004 223 224 32 97.000000 1.000000 4.000000 1.000000 -60.708740 114.000000 228.000000 -0.426959 0.823761 0.372994
-6.65000010 6.44000006 -1.12000000 223 224 32 97.000000 1.000000 4.000000 1.000000 -60.708740 114.000000 228.000000 0.068046 0.997655 -0.007328
-6.63000011 6.44999981 -1.14999998 223 224 32 97.000000 1.000000 4.000000 1.000000 -60.708740 114.000000 228.000000 0.286244 0.905706 0.312667
-6.65000010 6.44000006 -1.16999996 223 224 32 97.000000 1.000000 4.000000 1.000000 -60.708740 114.000000 228.000000 0.037924 0.927176 0.372701
-6.65000010 6.44000006 -1.16999996 223 224 32 97.000000 1.000000 4.000000 1.000000 -60.708740 114.000000 228.000000 0.037924 0.927176 0.372701
-6.65000010 6.44999981 -1.19000006 223 224 32 97.000000 1.000000 4.000000 1.000000 -60.708740 114.000000 228.000000 0.201867 0.901867 0.381950
-6.69000006 6.44999981 -1.14999998 223 224 32 97.000000 1.000000 4.000000 1.000000 -60.708740 114.000000 228.000000 -0.249009 0.968098 -0.027938
-6.65000010 6.42000008 -1.08000004 223 224 32 97.000000 1.000000 4.000000 1.000000 -60.708740 114.000000 228.000000 -0.005245 0.997514 -0.070277
-6.65999985 6.42000008 -1.07000005 223 224 32 97.000000 1.000000 4.000000 1.000000 -60.708740 114.000000 228.000000 -0.221618 0.896744 0.383061
-6.65999985 6.42000008 -1.07000005 223 224 32 97.000000 1.000000 4.000000 1.000000 -60.708740 114.000000 228.000000 -0.221618 0.896744 0.383061
-6.75000000 6.44000006 -1.08000004 223 224 32 97.000000 1.000000 4.000000 1.000000 -60.708740 114.000000 228.000000 -0.027659 0.972871 0.229689
-6.76000023 6.44999981 -1.03999996 223 224 32 97.000000 1.000000 4.000000 1.000000 -60.708740 114.000000 228.000000 -0.452631 0.717909 0.528898
-6.76999998 6.42999983 -1.08000004 223 224 32 97.000000 1.000000 4.000000 1.000000 -60.708740 114.000000 228.000000 -0.511927 0.666345 0.542139
-6.78999996 6.44999981 -1.11000001 223 224 32 97.000000 1.000000 4.000000 1.000000 -60.708740 114.000000 228.000000 0.542717 -0.617108 -0.569768
-6.78000021 6.44000006 -1.09000003 223 224 32 97.000000 1.000000 4.000000 1.000000 -60.708740 114.000000 228.000000 -0.257310 0.857194 0.446106
-6.78000021 6.44000006 -1.10000002 223 224 32 97.000000 1.000000 4.000000 1.000000 -60.708740 114.000000 228.000000 -0.152718 0.874128 0.461062
-6.76999998 6.44999981 -1.14999998 223 224 32 97.000000 1.000000 4.000000 1.000000 -60.708740 114.000000 228.000000 -0.066490 0.942600 0.327237
-6.78999996 6.44000006 -1.15999997 223 224 32 97.000000 1.000000 4.000000 1.000000 -60.708740 114.000000 228.000000 -0.370831 0.926414 0.065128
-6.76000023 6.44999981 -1.16999996 223 224 32 97.000000 1.000000 4.000000 1.000000 -60.708740 114.000000 228.000000 -0.101515 0.947916 0.301909
-6.78999996 6.42000008 -1.05999994 223 224 32 97.000000 1.000000 4.000000 1.000000 -60.708740 114.000000 228.000000 -0.363820 0.847872 0.385680
-6.78000021 6.42000008 -1.08000004 223 224 32 97.000000 1.000000 4.000000 1.000000 -60.708740 114.000000 228.000000 0.503014 -0.634235 -0.587130
-6.78999996 6.42000008 -1.13999999 223 224 32 97.000000 1.000000 4.000000 1.000000 -60.708740 114.000000 228.000000 -0.192166 0.938710 0.286175
-6.76999998 6.42000008 -1.13000000 223 224 32 97.000000 1.000000 4.000000 1.000000 -60.708740 114.000000 228.000000 0.496368 -0.700263 -0.513080
-6.63000011 6.46000004 -1.20000005 223 224 32 97.000000 1.000000 4.000000 1.000000 -60.708740 114.000000 228.000000 0.408741 0.822253 0.396018
-6.65000010 6.46000004 -1.20000005 223 224 32 97.000000 1.000000 4.000000 1.000000 -60.708740 114.000000 228.000000 0.198511 0.937027 0.287355
-6.63999987 6.42999983 -1.21000004 223 224 32 97.000000 1.000000 4.000000 1.000000 -60.708740 114.000000 228.000000 0.374167 0.913533 0.159551
-6.63000011 6.42999983 -1.23000002 223 224 32 97.000000 1.000000 4.000000 1.000000 -60.708740 114.000000 228.000000 0.278217 0.953322 0.117352
-6.65000010 6.46000004 -1.21000004 223 224 32 97.000000 1.000000 4.000000 1.000000 -60.708740 114.000000 228.000000 0.152979 0.988224 0.003350
-6.67000008 6.48000002 -1.25999999 223 224 32 97.000000 1.000000 4.000000 1.000000 -60.708740 114.000000 228.000000 0.279310 0.819206 0.500886
-6.67999983 6.48000002 -1.25000000 223 224 32 97.000000 1.000000 4.000000 1.000000 -60.708740 114.000000 228.000000 0.091487 0.874052 0.477140
-6.63000011 6.42000008 -1.23000002 223 224 32 97.000000 1.000000 4.000000 1.000000 -60.708740 114.000000 228.000000 0.454626 0.829023 0.325632
-6.63999987 6.42000008 -1.24000001 223 224 32 97.000000 1.000000 4.000000 1.000000 -60.708740 114.000000 228.000000 0.417311 0.857720 0.300279
-6.78000021 6.46999979 -1.23000002 223 224 32 97.000000 1.000000 4.000000 1.000000 -60.708740 114.000000 228.000000 0.133379 0.944429 0.300439
-6.76000023 6.46999979 -1.20000005 223 224 32 97.000000 1.000000 4.000000 1.000000 -60.708740 114.000000 228.000000 -0.006509 0.907291 0.420452
-6.76000023 6.46999979 -1.20000005 223 224 32 97.000000 1.000000 4.000000 1.000000 -60.708740 114.000000 228.000000 -0.006509 0.907291 0.420452
-6.78000021 6.48000002 -1.24000001 223 224 32 97.000000 1.000000 4.000000 1.000000 -60.708740 114.000000 228.000000 0.177829 0.914753 0.362772
-6.76999998 6.44999981 -1.21000004 223 224 32 97.000000 1.000000 4.000000 1.000000 -60.708740 114.000000 228.000000 0.039179 0.951678 0.304588
-6.76999998 6.44999981 -1.21000004 223 224 32 97.000000 1.000000 4.000000 1.000000 -60.708740 114.000000 228.000000 0.039179 0.951678 0.304588
-6.78999996 6.46000004 -1.21000004 223 224 32 97.000000 1.000000 4.000000 1.000000 -60.708740 114.000000 228.000000 0.167558 -0.798541 -0.578150
-6.80999994 6.38999987 -0.86000001 223 224 32 97.000000 1.000000 4.000000 1.000000 -60.708740 114.000000 228.000000 -0.538247 0.544997 0.642860
-6.80999994 6.36000013 -0.88999999 223 224 32 97.000000 1.000000 4.000000 1.000000 -60.708740 114.000000 228.000000 0.585336 -0.448591 -0.675388
-6.82999992 6.34999990 -0.89999998 223 224 32 97.000000 1.000000 4.000000 1.000000 -60.708740 114.000000 228.000000 -0.603474 0.772386 0.198087
-6.80000019 6.36999989 -0.89999998 223 224 32 97.000000 1.000000 4.000000 1.000000 -60.708740 114.000000 228.000000 -0.563676 0.778410 0.276312
-6.80000019 6.36999989 -0.89999998 223 224 32 97.000000 1.000000 4.000000 1.000000 -60.708740 114.000000 228.000000 -0.563676 0.778410 0.276312
-6.80999994 6.36999989 -0.91000003 223 224 32 97.000000 1.000000 4.000000 1.000000 -60.708740 114.000000 228.000000 0.740691 -0.664118 -0.101606
-6.82000017 6.38000011 -0.93000001 223 224 32 97.000000 1.000000 4.000000 1.000000 -60.708740 114.000000 228.000000 -0.712488 0.601111 0.361977
-6.80999994 6.36000013 -0.93000001 223 224 32 97.000000 1.000000 4.000000 1.000000 -60.708740 114.000000 228.000000 0.567036 -0.473367 -0.674087
-6.80999994 6.38000011 -0.92000002 223 224 32 97.000000 1.000000 4.000000 1.000000 -60.708740 114.000000 228.000000 -0.456786 0.864149 0.211170
-6.80000019 6.38999987 -0.94999999 223 224 32 97.000000 1.000000 4.000000 1.000000 -60.708740 114.000000 228.000000 -0.555333 0.817367 0.153349
-6.80000019 6.38999987 -0.95999998 223 224 32 97.000000 1.000000 4.000000 1.000000 -60.708740 114.000000 228.000000 -0.677400 0.735582 -0.006926
-6.80000019 6.40000010 -0.98000002 223 224 32 97.000000 1.000000 4.000000 1.000000 -60.708740 114.000000 228.000000 -0.562279 0.633198 0.531886
-6.80000019 6.42000008 -1.01999998 223 224 32 97.000000 1.000000 4.000000 1.000000 -60.708740 114.000000 228.000000 -0.251586 0.716784 0.650327
-6.80999994 6.40999985 -1.01999998 223 224 32 97.000000 1.000000 4.000000 1.000000 -60.708740 114.000000 228.000000 -0.325366 0.780558 0.533729
-6.82999992 6.36999989 -0.95999998 223 224 32 97.000000 1.000000 4.000000 1.000000 -60.708740 114.000000 228.000000 -0.636551 0.646523 0.420489
-6.80999994 6.36999989 -0.98000002 223 224 32 97.000000 1.000000 4.000000 1.000000 -60.708740 114.000000 228.000000 0.749604 -0.652022 -0.113845
-6.82000017 6.36999989 -0.95999998 223 224 32 97.000000 1.000000 4.000000 1.000000 -60.708740 114.000000 228.000000 0.795044 -0.583837 -0.164440
-6.82000017 6.36999989 -0.95999998 223 224 32 97.000000 1.000000 4.000000 1.000000 -60.708740 114.000000 228.000000 0.795044 -0.583837 -0.164440
-6.82999992 6.38000011 -0.97000003 223 224 32 97.000000 1.000000 4.000000 1.000000 -60.708740 114.000000 228.000000 0.609447 -0.572306 -0.548671
-6.80000019 6.38000011 -0.97000003 223 224 32 97.000000 1.000000 4.000000 1.000000 -60.708740 114.000000 228.000000 0.727185 -0.648993 -0.223629
-6.80999994 6.38000011 -0.98000002 223 224 32 97.000000 1.000000 4.000000 1.000000 -60.708740 114.000000 228.000000 -0.654127 0.663964 0.362311
-6.82000017 6.36999989 -1.00999999 223 224 32 97.000000 1.000000 4.000000 1.000000 -60.708740 114.000000 228.000000 0.791446 -0.320082 -0.520730
-6.84999990 6.36999989 -1.01999998 223 224 32 97.000000 1.000000 4.000000 1.000000 -60.708740 114.000000 228.000000 0.792488 -0.547680 -0.268347
-6.84999990 6.36999989 -1.01999998 223 224 32 97.000000 1.000000 4.000000 1.000000 -60.708740 114.000000 228.000000 0.792488 -0.547680 -0.268347
-6.80999994 6.42999983 -1.09000003 223 224 32 97.000000 1.000000 4.000000 1.000000 -60.708740 114.000000 228.000000 -0.458147 0.887744 -0.044863
-6.80999994 6.42999983 -1.11000001 223 224 32 97.000000 1.000000 4.000000 1.000000 -60.708740 114.000000 228.000000 -0.195753 0.962998 0.185243
-6.80000019 6.42999983 -1.07000005 223 224 32 97.000000 1.000000 4.000000 1.000000 -60.708740 114.000000 228.000000 -0.340990 0.934017 0.106475
-6.82000017 6.42999983 -1.11000001 223 224 32 97.000000 1.000000 4.000000 1.000000 -60.708740 114.000000 228.000000 -0.517733 0.854605 0.040038
-6.84000015 6.44000006 -1.15999997 223 224 32 97.000000 1.000000 4.000000 1.000000 -60.708740 114.000000 228.000000 0.602200 -0.527979 -0.598826
-6.80000019 6.42999983 -1.19000006 223 224 32 97.000000 1.000000 4.000000 1.000000 -60.708740 114.000000 228.000000 -0.519505 0.748940 0.411343
-6.80999994 6.44999981 -1.14999998 223 224 32 97.000000 1.000000 4.000000 1.000000 -60.708740 114.000000 228.000000 -0.266392 0.780261 0.565886
-6.82000017 6.44999981 -1.16999996 223 224 32 97.000000 1.000000 4.000000 1.000000 -60.708740 114.000000 228.000000 -0.331992 0.941295 0.061191
-6.80999994 6.42999983 -1.13000000 223 224 32 97.000000 1.000000 4.000000 1.000000 -60.708740 114.000000 228.000000 -0.512449 0.858589 0.014873
-6.82999992 6.38999987 -1.05999994 223 224 32 97.000000 1.000000 4.000000 1.000000 -60.708740 114.000000 228.000000 0.705546 -0.702613 -0.092410
-6.80999994 6.42000008 -1.02999997 223 224 32 97.000000 1.000000 4.000000 1.000000 -60.708740 114.000000 228.000000 -0.394544 0.893224 0.215606
-6.82000017 6.40999985 -1.10000002 223 224 32 97.000000 1.000000 4.000000 1.000000 -60.708740 114.000000 228.000000 -0.509581 0.778123 0.367222
-6.82999992 6.40999985 -1.09000003 223 224 32 97.000000 1.000000 4.000000 1.000000 -60.708740 114.000000 228.000000 -0.530812 0.829862 0.171953
-6.80000019 6.42000008 -1.10000002 223 224 32 97.000000 1.000000 4.000000 1.000000 -60.708740 114.000000 228.000000 -0.431914 0.849895 0.301875
-6.80999994 6.38000011 -1.05999994 223 224 32 97.000000 1.000000 4.000000 1.000000 -60.708740 114.000000 228.000000 -0.565502 0.732693 0.378640
-6.86000013 6.36000013 -1.09000003 223 224 32 97.000000 1.000000 4.000000 1.000000 -60.708740 114.000000 228.000000 0.876063 -0.399581 -0.269906
-6.86999989 6.36000013 -1.10000002 223 224 32 97.000000 1.000000 4.000000 1.000000 -60.708740 114.000000 228.000000 0.676705 -0.528938 -0.512147
-6.86000013 6.36000013 -1.10000002 223 224 32 97.000000 1.000000 4.000000 1.000000 -60.708740 114.000000 228.000000 0.878497 -0.362626 -0.311039
-6.84000015 6.38000011 -1.09000003 223 224 32 97.000000 1.000000 4.000000 1.000000 -60.708740 114.000000 228.000000 0.730265 -0.683151 0.004157
-6.84999990 6.36999989 -1.10000002 223 224 32 97.000000 1.000000 4.000000 1.000000 -60.708740 114.000000 228.000000 0.806693 -0.586815 -0.069961
-6.84999990 6.38000011 -1.10000002 223 224 32 97.000000 1.000000 4.000000 1.000000 -60.708740 114.000000 228.000000 -0.670560 0.741145 0.032469
-6.84999990 6.38000011 -1.09000003 223 224 32 97.000000 1.000000 4.000000 1.000000 -60.708740 114.000000 228.000000 0.824419 -0.540137 -0.169073
-6.86000013 6.36999989 -1.10000002 223 224 32 97.000000 1.000000 4.000000 1.000000 -60.708740 114.000000 228.000000 0.813566 -0.471012 -0.340968
-6.80999994 6.42000008 -1.13999999 223 224 32 97.000000 1.000000 4.000000 1.000000 -60.708740 114.000000 228.000000 -0.568817 0.802412 0.180505
-6.82999992 6.40999985 -1.14999998 223 224 32 97.000000 1.000000 4.000000 1.000000 -60.708740 114.000000 228.000000 0.426248 -0.812586 -0.397513
-6.80000019 6.40999985 -1.19000006 223 224 32 97.000000 1.000000 4.000000 1.000000 -60.708740 114.000000 228.000000 -0.160323 0.813601 0.558883
-6.84000015 6.40000010 -1.13999999 223 224 32 97.000000 1.000000 4.000000 1.000000 -60.708740 114.000000 228.000000 0.759377 -0.487116 -0.431352
-6.84000015 6.40000010 -1.13999999 223 224 32 97.000000 1.000000 4.000000 1.000000 -60.708740 114.000000 228.000000 0.759377 -0.487116 -0.431352
-6.86000013 6.42000008 -1.16999996 223 224 32 97.000000 1.000000 4.000000 1.000000 -60.708740 114.000000 228.000000 -0.629964 0.565786 0.532007
-6.88000011 6.36000013 -1.11000001 223 224 32 97.000000 1.000000 4.000000 1.000000 -60.708740 114.000000 228.000000 0.808738 -0.516650 -0.281095
-6.88000011 6.34999990 -1.11000001 223 224 32 97.000000 1.000000 4.000000 1.000000 -60.708740 114.000000 228.000000 0.904126 -0.426174 -0.030536
-6.88999987 6.36000013 -1.13999999 223 224 32 97.000000 1.000000 4.000000 1.000000 -60.708740 114.000000 228.000000 0.840548 -0.084198 -0.535154
-6.88000011 6.38000011 -1.17999995 223 224 32 97.000000 1.000000 4.000000 1.000000 -60.708740 114.000000 228.000000 0.847889 -0.435570 -0.302264
-6.88999987 6.36999989 -1.19000006 223 224 32 97.000000 1.000000 4.000000 1.000000 -60.708740 114.000000 228.000000 0.786271 -0.145273 -0.600561
-6.82000017 6.42999983 -1.20000005 223 224 32 97.000000 1.000000 4.000000 1.000000 -60.708740 114.000000 228.000000 0.571957 -0.783909 -0.241562
-6.80999994 6.44000006 -1.22000003 223 224 32 97.000000 1.000000 4.000000 1.000000 -60.708740 114.000000 228.000000 -0.356700 0.916620 0.180482
-6.80999994 6.44000006 -1.22000003 223 224 32 97.000000 1.000000 4.000000 1.000000 -60.708740 114.000000 228.000000 -0.356700 0.916620 0.180482
-6.50000000 6.25000000 -0.18000001 223 224 32 97.000000 1.000000 4.000000 1.000000 -60.708740 114.000000 228.000000 -0.264324 0.742324 0.615701
-6.50000000 6.25000000 -0.18000001 223 224 32 97.000000 1.000000 4.000000 1.000000 -60.708740 114.000000 228.000000 -0.264324 0.742324 0.615701
-6.55000019 6.25000000 -0.08000000 223 224 32 97.000000 1.000000 4.000000 1.000000 -60.708740 114.000000 228.000000 -0.482965 0.543127 0.686846
-6.57000017 6.23000002 -0.09000000 223 224 32 97.000000 1.000000 4.000000 1.000000 -60.708740 114.000000 228.000000 -0.290670 0.779885 0.554338
-6.57000017 6.17999983 -0.11000000 223 224 32 97.000000 1.000000 4.000000 1.000000 -60.708740 114.000000 228.000000 -0.488342 0.505009 0.711679
-6.59000015 6.17999983 -0.13000000 223 224 32 97.000000 1.000000 4.000000 1.000000 -60.708740 114.000000 228.000000 -0.430001 0.736439 0.522262
-6.48000002 6.26999998 -0.22000000 223 224 32 97.000000 1.000000 4.000000 1.000000 -60.708740 114.000000 228.000000 -0.511771 0.742151 0.432784
-6.48000002 6.26999998 -0.22000000 223 224 32 97.000000 1.000000 4.000000 1.000000 -60.708740 114.000000 228.000000 -0.511771 0.742151 0.432784
-6.46000004 6.21000004 -0.19000000 223 224 32 97.000000 1.000000 4.000000 1.000000 -60.708740 114.000000 228.000000 -0.325996 0.766011 0.554033
-6.48000002 6.07000017 -0.03000000 223 224 32 97.000000 1.000000 4.000000 1.000000 -60.708740 114.000000 228.000000 -0.631823 0.571168 0.523992
-6.48999977 6.07000017 -0.04000000 223 224 32 97.000000 1.000000 4.000000 1.000000 -60.708740 114.000000 228.000000 0.672037 -0.571483 -0.470929
-6.48999977 6.07000017 -0.05000000 223 224 32 97.000000 1.000000 4.000000 1.000000 -60.708740 114.000000 228.000000 -0.776891 0.421834 0.467437
-6.51000023 6.05999994 -0.06000000 223 224 32 97.000000 1.000000 4.000000 1.000000 -60.708740 114.000000 228.000000 0.714967 -0.261573 -0.648384
-6.51999998 6.03999996 -0.07000000 223 224 32 97.000000 1.000000 4.000000 1.000000 -60.708740 114.000000 228.000000 -0.771387 0.218844 0.597553
-6.61000013 6.09999990 -0.18000001 223 224 32 97.000000 1.000000 4.000000 1.000000 -60.708740 114.000000 228.000000 0.737617 -0.499995 -0.453791
-6.55000019 6.03999996 -0.06000000 223 224 32 97.000000 1.000000 4.000000 1.000000 -60.708740 114.000000 228.000000 0.777208 -0.252789 -0.576233
-6.57000017 6.01999998 -0.09000000 223 224 32 97.000000 1.000000 4.000000 1.000000 -60.708740 114.000000 228.000000 0.839510 -0.093279 -0.535277
-6.55999994 6.03999996 -0.07000000 223 224 32 97.000000 1.000000 4.000000 1.000000 -60.708740 114.000000 228.000000 0.892817 -0.257001 -0.369903
-6.59000015 6.01999998 -0.10000000 223 224 32 97.000000 1.000000 4.000000 1.000000 -60.708740 114.000000 228.000000 0.945717 -0.273509 -0.175536
-6.59000015 6.01000023 -0.10000000 223 224 32 97.000000 1.000000 4.000000 1.000000 -60.708740 114.000000 228.000000 0.901032 -0.230020 -0.367738
-6.59000015 6.01000023 -0.09000000 223 224 32 97.000000 1.000000 4.000000 1.000000 -60.708740 114.000000 228.000000 0.838107 -0.075160 -0.540303
-6.57000017 6.03999996 -0.11000000 223 224 32 97.000000 1.000000 4.000000 1.000000 -60.708740 114.000000 228.000000 0.800704 -0.196744 -0.565831
-6.61999989 6.03000021 -0.13000000 223 224 32 97.000000 1.000000 4.000000 1.000000 -60.708740 114.000000 228.000000 0.952992 -0.274366 -0.128568
-6.76999998 6.30000019 -0.18000001 223 224 32 97.000000 1.000000 4.000000 1.000000 -60.708740 114.000000 228.000000 0.723671 -0.254948 -0.641328
-6.75000000 6.23000002 -0.13000000 223 224 32 97.000000 1.000000 4.000000 1.000000 -60.708740 114.000000 228.000000 0.800146 -0.599766 0.006862
-6.75000000 6.26999998 -0.22000000 223 224 32 97.000000 1.000000 4.000000 1.000000 -60.708740 114.000000 228.000000 0.831485 -0.121289 -0.542146
-6.78000021 6.34000015 -0.20000000 223 224 32 97.000000 1.000000 4.000000 1.000000 -60.708740 114.000000 228.000000 0.737156 -0.243623 -0.630276
-6.76000023 6.26000023 -0.28000000 223 224 32 97.000000 1.000000 4.000000 1.000000 -60.708740 114.000000 228.000000 0.946675 -0.316419 -0.060701
-6.76999998 6.28000021 -0.28999999 223 224 32 97.000000 1.000000 4.000000 1.000000 -60.708740 114.000000 228.000000 -0.585848 0.394416 0.707968
-6.76999998 6.28000021 -0.28999999 223 224 32 97.000000 1.000000 4.000000 1.000000 -60.708740 114.000000 228.000000 -0.585848 0.394416 0.707968
-6.75000000 6.23999977 -0.20999999 223 224 32 97.000000 1.000000 4.000000 1.000000 -60.708740 114.000000 228.000000 0.982983 -0.122418 -0.136963
-6.75000000 6.23999977 -0.20999999 223 224 32 97.000000 1.000000 4.000000 1.000000 -60.708740 114.000000 228.000000 0.982983 -0.122418 -0.136963
-6.75000000 6.21000004 -0.23999999 223 224 32 97.000000 1.000000 4.000000 1.000000 -60.708740 114.000000 228.000000 0.995179 -0.058670 -0.078596
-6.75000000 6.25000000 -0.31000000 223 224 32 97.000000 1.000000 4.000000 1.000000 -60.708740 114.000000 228.000000 0.928001 -0.166063 -0.333522
-6.69999981 6.15000010 -0.15000001 223 224 32 97.000000 1.000000 4.000000 1.000000 -60.708740 114.000000 228.000000 0.980842 0.096257 -0.169363
-6.63999987 6.07000017 -0.18000001 223 224 32 97.000000 1.000000 4.000000 1.000000 -60.708740 114.000000 228.000000 0.836409 -0.379613 -0.395365
-6.63999987 6.07000017 -0.18000001 223 224 32 97.000000 1.000000 4.000000 1.000000 -60.708740 114.000000 228.000000 0.836409 -0.379613 -0.395365
-6.65999985 6.01999998 -0.17000000 223 224 32 97.000000 1.000000 4.000000 1.000000 -60.708740 114.000000 228.000000 0.897706 0.440259 0.017187
-6.69000006 6.11000013 -0.20999999 223 224 32 97.000000 1.000000 4.000000 1.000000 -60.708740 114.000000 228.000000 0.864637 -0.486448 -0.125582
-6.67999983 6.15999985 -0.34999999 223 224 32 97.000000 1.000000 4.000000 1.000000 -60.708740 114.000000 228.000000 0.887602 0.120714 -0.444511
-6.67000008 6.13999987 -0.34999999 223 224 32 97.000000 1.000000 4.000000 1.000000 -60.708740 114.000000 228.000000 0.993520 0.061744 -0.095423
-6.69999981 6.09000015 -0.31000000 223 224 32 97.000000 1.000000 4.000000 1.000000 -60.708740 114.000000 228.000000 0.954144 -0.295240 -0.049418
-6.69999981 6.09000015 -0.30000001 223 224 32 97.000000 1.000000 4.000000 1.000000 -60.708740 114.000000 228.000000 0.978031 -0.205589 0.034463
-6.65000010 6.03000021 -0.19000000 223 224 32 97.000000 1.000000 4.000000 1.000000 -60.708740 114.000000 228.000000 0.957334 -0.187739 -0.219694
-6.65000010 6.03000021 -0.19000000 223 224 32 97.000000 1.000000 4.000000 1.000000 -60.708740 114.000000 228.000000 0.957334 -0.187739 -0.219694
-6.69000006 6.01000023 -0.23999999 223 224 32 97.000000 1.000000 4.000000 1.000000 -60.708740 114.000000 228.000000 0.942640 0.281283 0.179747
-6.69999981 6.07000017 -0.34999999 223 224 32 97.000000 1.000000 4.000000 1.000000 -60.708740 114.000000 228.000000 0.924742 0.369626 -0.090714
-6.69999981 6.03000021 -0.28999999 223 224 32 97.000000 1.000000 4.000000 1.000000 -60.708740 114.000000 228.000000 0.986526 0.162714 -0.017068
-6.67999983 6.01000023 -0.28999999 223 224 32 97.000000 1.000000 4.000000 1.000000 -60.708740 114.000000 228.000000 0.839272 0.543696 -0.004068
-6.69999981 6.03000021 -0.31000000 223 224 32 97.000000 1.000000 4.000000 1.000000 -60.708740 114.000000 228.000000 0.910685 0.413000 -0.009120
-6.69999981 6.03999996 -0.34999999 223 224 32 97.000000 1.000000 4.000000 1.000000 -60.708740 114.000000 228.000000 0.993937 -0.043311 -0.101060
-6.69999981 6.03999996 -0.34999999 223 224 32 97.000000 1.000000 4.000000 1.000000 -60.708740 114.000000 228.000000 0.993937 -0.043311 -0.101060
-6.67000008 6.01999998 -0.34999999 223 224 32 97.000000 1.000000 4.000000 1.000000 -60.708740 114.000000 228.000000 0.973713 0.227081 -0.017834
-6.73000002 6.11999989 -0.22000000 223 224 32 97.000000 1.000000 4.000000 1.000000 -60.708740 114.000000 228.000000 0.875942 -0.471226 -0.103302
-6.73999977 6.11999989 -0.27000001 223 224 32 97.000000 1.000000 4.000000 1.000000 -60.708740 114.000000 228.000000 0.997432 0.046167 0.054757
