//X Y Z R G B PointSourceId ScanDirectionFlag NumberOfReturns ReturnNumber GpsTime Intensity Classification Nx Ny Nz
1.61000001 1.20000005 -1.13999999 171 118 111 97.000000 1.000000 4.000000 1.000000 -60.708740 114.000000 133.000000 -0.083113 0.680944 0.727604
1.69000006 1.00000000 -1.04999995 171 118 111 97.000000 1.000000 4.000000 1.000000 -60.708740 114.000000 133.000000 0.681905 -0.615861 -0.394614
1.69000006 1.01999998 -1.09000003 171 118 111 97.000000 1.000000 4.000000 1.000000 -60.708740 114.000000 133.000000 -0.324797 0.336883 0.883751
1.63999999 1.08000004 -1.13000000 171 118 111 97.000000 1.000000 4.000000 1.000000 -60.708740 114.000000 133.000000 -0.174582 0.787896 0.590543
1.63999999 1.08000004 -1.14999998 171 118 111 97.000000 1.000000 4.000000 1.000000 -60.708740 114.000000 133.000000 -0.226544 0.748376 0.623387
1.63000000 1.13000000 -1.19000006 171 118 111 97.000000 1.000000 4.000000 1.000000 -60.708740 114.000000 133.000000 -0.496893 0.587850 0.638381
1.65999997 1.08000004 -1.12000000 171 118 111 97.000000 1.000000 4.000000 1.000000 -60.708740 114.000000 133.000000 0.001355 0.830587 0.556887
1.64999998 1.08000004 -1.13000000 171 118 111 97.000000 1.000000 4.000000 1.000000 -60.708740 114.000000 133.000000 -0.369485 0.704485 0.605955
1.65999997 0.99000001 -1.08000004 171 118 111 97.000000 1.000000 4.000000 1.000000 -60.708740 114.000000 133.000000 -0.308310 0.276164 0.910318
1.67999995 1.02999997 -1.15999997 171 118 111 97.000000 1.000000 4.000000 1.000000 -60.708740 114.000000 133.000000 0.308365 -0.708755 -0.634489
1.63999999 1.00999999 -1.15999997 171 118 111 97.000000 1.000000 4.000000 1.000000 -60.708740 114.000000 133.000000 0.563463 -0.513004 -0.647562
1.63999999 1.00999999 -1.15999997 171 118 111 97.000000 1.000000 4.000000 1.000000 -60.708740 114.000000 133.000000 0.563463 -0.513004 -0.647562
1.69000006 1.10000002 -1.25999999 171 118 111 97.000000 1.000000 4.000000 1.000000 -60.708740 114.000000 133.000000 -0.240751 0.452734 0.858528
1.60000002 1.12000000 -1.26999998 171 118 111 97.000000 1.000000 4.000000 1.000000 -60.708740 114.000000 133.000000 -0.089177 0.864871 0.494010
1.60000002 1.08000004 -1.25999999 171 118 111 97.000000 1.000000 4.000000 1.000000 -60.708740 114.000000 133.000000 -0.304117 0.709606 0.635588
1.76999998 0.92000002 -0.10000000 171 118 111 97.000000 1.000000 4.000000 1.000000 -60.708740 114.000000 133.000000 0.252483 0.364698 0.896241
1.76999998 0.87000000 -0.06000000 171 118 111 97.000000 1.000000 4.000000 1.000000 -60.708740 114.000000 133.000000 0.310364 0.586957 0.747767
1.73000002 0.89999998 -0.03000000 171 118 111 97.000000 1.000000 4.000000 1.000000 -60.708740 114.000000 133.000000 0.038110 0.630931 0.774902
1.74000001 0.88999999 -0.07000000 171 118 111 97.000000 1.000000 4.000000 1.000000 -60.708740 114.000000 133.000000 0.168095 0.843448 0.510234
1.72000003 0.88999999 -0.05000000 171 118 111 97.000000 1.000000 4.000000 1.000000 -60.708740 114.000000 133.000000 0.012495 0.637262 0.770546
1.72000003 0.88999999 -0.05000000 171 118 111 97.000000 1.000000 4.000000 1.000000 -60.708740 114.000000 133.000000 0.012495 0.637262 0.770546
1.71000004 0.91000003 -0.10000000 171 118 111 97.000000 1.000000 4.000000 1.000000 -60.708740 114.000000 133.000000 0.061397 0.792454 0.606834
1.70000005 0.92000002 -0.10000000 171 118 111 97.000000 1.000000 4.000000 1.000000 -60.708740 114.000000 133.000000 0.316173 0.402543 0.859066
1.74000001 0.93000001 -0.17000000 171 118 111 97.000000 1.000000 4.000000 1.000000 -60.708740 114.000000 133.000000 0.407462 0.478889 0.777586
1.73000002 0.91000003 -0.16000000 171 118 111 97.000000 1.000000 4.000000 1.000000 -60.708740 114.000000 133.000000 0.315432 0.766964 0.558811
1.73000002 0.91000003 -0.16000000 171 118 111 97.000000 1.000000 4.000000 1.000000 -60.708740 114.000000 133.000000 0.315432 0.766964 0.558811
1.73000002 0.88000000 -0.05000000 171 118 111 97.000000 1.000000 4.000000 1.000000 -60.708740 114.000000 133.000000 0.640214 0.352036 0.682786
1.70000005 0.87000000 -0.07000000 171 118 111 97.000000 1.000000 4.000000 1.000000 -60.708740 114.000000 133.000000 0.199474 0.326797 0.923804
1.65999997 0.94999999 -0.10000000 171 118 111 97.000000 1.000000 4.000000 1.000000 -60.708740 114.000000 133.000000 0.430514 0.395304 0.811414
1.64999998 0.92000002 -0.07000000 171 118 111 97.000000 1.000000 4.000000 1.000000 -60.708740 114.000000 133.000000 -0.034983 0.600304 0.799006
1.67999995 0.94000000 -0.13000000 171 118 111 97.000000 1.000000 4.000000 1.000000 -60.708740 114.000000 133.000000 0.470797 0.717009 0.514051
1.66999996 0.94999999 -0.13000000 171 118 111 97.000000 1.000000 4.000000 1.000000 -60.708740 114.000000 133.000000 0.597349 0.424301 0.680546
1.64999998 0.95999998 -0.11000000 171 118 111 97.000000 1.000000 4.000000 1.000000 -60.708740 114.000000 133.000000 0.495909 0.590048 0.637117
1.74000001 0.95999998 -0.27000001 171 118 111 97.000000 1.000000 4.000000 1.000000 -60.708740 114.000000 133.000000 0.194339 0.579956 0.791128
1.72000003 0.93000001 -0.20999999 171 118 111 97.000000 1.000000 4.000000 1.000000 -60.708740 114.000000 133.000000 0.139743 0.743794 0.653637
1.70000005 0.94999999 -0.28999999 171 118 111 97.000000 1.000000 4.000000 1.000000 -60.708740 114.000000 133.000000 0.660535 0.417618 0.623931
1.71000004 0.93000001 -0.28999999 171 118 111 97.000000 1.000000 4.000000 1.000000 -60.708740 114.000000 133.000000 0.331609 0.418792 0.845369
1.69000006 0.91000003 -0.31999999 171 118 111 97.000000 1.000000 4.000000 1.000000 -60.708740 114.000000 133.000000 0.482825 0.728385 0.486143
1.72000003 0.87000000 -0.30000001 171 118 111 97.000000 1.000000 4.000000 1.000000 -60.708740 114.000000 133.000000 0.676957 0.395581 0.620681
1.66999996 0.94999999 -0.25999999 171 118 111 97.000000 1.000000 4.000000 1.000000 -60.708740 114.000000 133.000000 0.247981 0.326290 0.912162
1.66999996 0.89999998 -0.30000001 171 118 111 97.000000 1.000000 4.000000 1.000000 -60.708740 114.000000 133.000000 0.194339 0.579956 0.791128
1.61000001 0.95999998 -0.30000001 171 118 111 97.000000 1.000000 4.000000 1.000000 -60.708740 114.000000 133.000000 0.406554 0.387571 0.827346
1.60000002 0.94999999 -0.33000001 171 118 111 97.000000 1.000000 4.000000 1.000000 -60.708740 114.000000 133.000000 0.395266 0.266016 0.879204
1.61000001 0.94000000 -0.34999999 171 118 111 97.000000 1.000000 4.000000 1.000000 -60.708740 114.000000 133.000000 -0.047963 0.475514 0.878400
1.61000001 0.94000000 -0.34999999 171 118 111 97.000000 1.000000 4.000000 1.000000 -60.708740 114.000000 133.000000 -0.047963 0.475514 0.878400
1.69000006 0.94999999 -0.49000001 171 118 111 97.000000 1.000000 4.000000 1.000000 -60.708740 114.000000 133.000000 0.612296 0.416494 0.672032
1.69000006 0.92000002 -0.46000001 171 118 111 97.000000 1.000000 4.000000 1.000000 -60.708740 114.000000 133.000000 0.771307 0.110608 0.626779
1.66999996 0.91000003 -0.43000001 171 118 111 97.000000 1.000000 4.000000 1.000000 -60.708740 114.000000 133.000000 0.752220 0.475693 0.455941
1.60000002 0.93000001 -0.47999999 171 118 111 97.000000 1.000000 4.000000 1.000000 -60.708740 114.000000 133.000000 0.527127 0.270602 0.805550
1.67999995 0.88999999 -0.54000002 171 118 111 97.000000 1.000000 4.000000 1.000000 -60.708740 114.000000 133.000000 0.690715 0.621807 0.369147
1.60000002 0.91000003 -0.55000001 171 118 111 97.000000 1.000000 4.000000 1.000000 -60.708740 114.000000 133.000000 0.232881 0.401978 0.885539
1.60000002 0.91000003 -0.63000000 171 118 111 97.000000 1.000000 4.000000 1.000000 -60.708740 114.000000 133.000000 0.746769 0.345037 0.568582
1.65999997 0.64999998 -0.68000001 171 118 111 97.000000 1.000000 4.000000 1.000000 -60.708740 114.000000 133.000000 -0.559122 0.258418 0.787783
1.65999997 0.64999998 -0.69000000 171 118 111 97.000000 1.000000 4.000000 1.000000 -60.708740 114.000000 133.000000 0.753595 -0.421948 -0.504039
1.67999995 0.68000001 -0.66000003 171 118 111 97.000000 1.000000 4.000000 1.000000 -60.708740 114.000000 133.000000 0.517346 -0.618456 -0.591494
1.74000001 0.31999999 -0.34000000 171 118 111 97.000000 1.000000 4.000000 1.000000 -60.708740 114.000000 133.000000 0.845794 -0.523038 -0.105184
1.72000003 0.50000000 -0.51999998 171 118 111 97.000000 1.000000 4.000000 1.000000 -60.708740 114.000000 133.000000 0.747443 -0.223141 -0.625730
1.65999997 0.50000000 -0.50999999 171 118 111 97.000000 1.000000 4.000000 1.000000 -60.708740 114.000000 133.000000 -0.402850 0.738284 0.540970
1.65999997 0.47000000 -0.50999999 171 118 111 97.000000 1.000000 4.000000 1.000000 -60.708740 114.000000 133.000000 -0.438044 0.319569 0.840234
1.66999996 0.47999999 -0.49000001 171 118 111 97.000000 1.000000 4.000000 1.000000 -60.708740 114.000000 133.000000 0.800590 -0.383449 -0.460459
1.70000005 0.60000002 -0.58999997 171 118 111 97.000000 1.000000 4.000000 1.000000 -60.708740 114.000000 133.000000 0.674926 -0.571092 -0.467257
1.73000002 0.61000001 -0.68000001 171 118 111 97.000000 1.000000 4.000000 1.000000 -60.708740 114.000000 133.000000 0.685575 -0.501191 -0.528010
1.74000001 0.56000000 -0.62000000 171 118 111 97.000000 1.000000 4.000000 1.000000 -60.708740 114.000000 133.000000 0.579595 -0.572835 -0.579595
1.75000000 0.50999999 -0.52999997 171 118 111 97.000000 1.000000 4.000000 1.000000 -60.708740 114.000000 133.000000 0.701001 -0.315693 -0.639481
1.66999996 0.60000002 -0.63000000 171 118 111 97.000000 1.000000 4.000000 1.000000 -60.708740 114.000000 133.000000 0.669303 -0.410218 -0.619479
1.65999997 0.51999998 -0.52999997 171 118 111 97.000000 1.000000 4.000000 1.000000 -60.708740 114.000000 133.000000 0.716040 -0.594789 -0.365394
1.67999995 0.47999999 -0.60000002 171 118 111 97.000000 1.000000 4.000000 1.000000 -60.708740 114.000000 133.000000 -0.311513 0.423100 0.850850
1.72000003 0.44000000 -0.46000001 171 118 111 97.000000 1.000000 4.000000 1.000000 -60.708740 114.000000 133.000000 0.746315 -0.383772 -0.543814
1.70000005 0.31000000 -0.41000000 171 118 111 97.000000 1.000000 4.000000 1.000000 -60.708740 114.000000 133.000000 0.750345 -0.175743 -0.637258
1.73000002 0.31000000 -0.46000001 171 118 111 97.000000 1.000000 4.000000 1.000000 -60.708740 114.000000 133.000000 0.854385 -0.503348 -0.129101
1.69000006 0.37000000 -0.50000000 171 118 111 97.000000 1.000000 4.000000 1.000000 -60.708740 114.000000 133.000000 0.710048 -0.523806 -0.470594
1.69000006 0.31000000 -0.44999999 171 118 111 97.000000 1.000000 4.000000 1.000000 -60.708740 114.000000 133.000000 0.871023 -0.373731 -0.318816
1.70000005 0.31999999 -0.47999999 171 118 111 97.000000 1.000000 4.000000 1.000000 -60.708740 114.000000 133.000000 0.723596 -0.237013 -0.648254
1.67999995 0.44000000 -0.44999999 171 118 111 97.000000 1.000000 4.000000 1.000000 -60.708740 114.000000 133.000000 -0.522117 0.488755 0.698936
1.67999995 0.44999999 -0.47000000 171 118 111 97.000000 1.000000 4.000000 1.000000 -60.708740 114.000000 133.000000 -0.608000 0.236010 0.758047
1.64999998 0.44000000 -0.51999998 171 118 111 97.000000 1.000000 4.000000 1.000000 -60.708740 114.000000 133.000000 0.756178 -0.451082 -0.474046
1.64999998 0.41000000 -0.50000000 171 118 111 97.000000 1.000000 4.000000 1.000000 -60.708740 114.000000 133.000000 -0.295691 0.746419 0.596176
1.65999997 0.37000000 -0.41999999 171 118 111 97.000000 1.000000 4.000000 1.000000 -60.708740 114.000000 133.000000 -0.456033 0.686555 0.566283
1.63999999 0.33000001 -0.41999999 171 118 111 97.000000 1.000000 4.000000 1.000000 -60.708740 114.000000 133.000000 0.724477 -0.489063 -0.485748
1.64999998 0.31000000 -0.40000001 171 118 111 97.000000 1.000000 4.000000 1.000000 -60.708740 114.000000 133.000000 0.820165 -0.350593 -0.452122
1.64999998 0.33000001 -0.41000000 171 118 111 97.000000 1.000000 4.000000 1.000000 -60.708740 114.000000 133.000000 -0.434164 0.516705 0.737914
1.64999998 0.38000000 -0.44999999 171 118 111 97.000000 1.000000 4.000000 1.000000 -60.708740 114.000000 133.000000 -0.741037 0.586049 0.327735
1.64999998 0.36000001 -0.44999999 171 118 111 97.000000 1.000000 4.000000 1.000000 -60.708740 114.000000 133.000000 -0.489392 0.219696 0.843937
1.63999999 0.36000001 -0.44999999 171 118 111 97.000000 1.000000 4.000000 1.000000 -60.708740 114.000000 133.000000 0.582236 -0.609239 -0.538358
1.65999997 0.38000000 -0.44000000 171 118 111 97.000000 1.000000 4.000000 1.000000 -60.708740 114.000000 133.000000 0.600785 -0.570323 -0.560169
1.67999995 0.36000001 -0.50999999 171 118 111 97.000000 1.000000 4.000000 1.000000 -60.708740 114.000000 133.000000 0.732638 -0.484566 -0.477951
1.64999998 0.33000001 -0.47000000 171 118 111 97.000000 1.000000 4.000000 1.000000 -60.708740 114.000000 133.000000 -0.694162 0.652287 0.304401
1.63000000 0.34999999 -0.44999999 171 118 111 97.000000 1.000000 4.000000 1.000000 -60.708740 114.000000 133.000000 0.669883 -0.488561 -0.559075
1.74000001 0.46000001 -0.57999998 171 118 111 97.000000 1.000000 4.000000 1.000000 -60.708740 114.000000 133.000000 0.820937 -0.275723 -0.500039
1.67999995 0.46000001 -0.55000001 171 118 111 97.000000 1.000000 4.000000 1.000000 -60.708740 114.000000 133.000000 -0.548860 0.772885 0.318435
1.71000004 0.93000001 -0.80000001 171 118 111 97.000000 1.000000 4.000000 1.000000 -60.708740 114.000000 133.000000 0.849033 -0.142239 -0.508833
1.70000005 0.83999997 -0.83999997 171 118 111 97.000000 1.000000 4.000000 1.000000 -60.708740 114.000000 133.000000 0.701001 -0.636243 -0.322169
1.61000001 0.89999998 -0.74000001 171 118 111 97.000000 1.000000 4.000000 1.000000 -60.708740 114.000000 133.000000 0.880115 -0.468561 -0.076471
1.60000002 0.94999999 -0.81000000 171 118 111 97.000000 1.000000 4.000000 1.000000 -60.708740 114.000000 133.000000 -0.501148 0.792550 0.347441
1.73000002 0.88999999 -0.97000003 171 118 111 97.000000 1.000000 4.000000 1.000000 -60.708740 114.000000 133.000000 0.812288 -0.387792 -0.435667
1.69000006 0.92000002 -0.95999998 171 118 111 97.000000 1.000000 4.000000 1.000000 -60.708740 114.000000 133.000000 0.558781 -0.612802 -0.558781
1.72000003 0.88999999 -1.00999999 171 118 111 97.000000 1.000000 4.000000 1.000000 -60.708740 114.000000 133.000000 -0.652148 0.251069 0.715310
1.72000003 0.88999999 -1.00999999 171 118 111 97.000000 1.000000 4.000000 1.000000 -60.708740 114.000000 133.000000 -0.652148 0.251069 0.715310
1.73000002 0.83999997 -0.93000001 171 118 111 97.000000 1.000000 4.000000 1.000000 -60.708740 114.000000 133.000000 0.659164 -0.625957 -0.416751
1.70000005 0.82999998 -0.88000000 171 118 111 97.000000 1.000000 4.000000 1.000000 -60.708740 114.000000 133.000000 -0.612279 0.608906 0.504329
1.69000006 0.81999999 -0.87000000 171 118 111 97.000000 1.000000 4.000000 1.000000 -60.708740 114.000000 133.000000 0.800315 -0.511885 -0.312202
1.72000003 0.82999998 -0.93000001 171 118 111 97.000000 1.000000 4.000000 1.000000 -60.708740 114.000000 133.000000 0.760372 -0.256606 -0.596648
1.72000003 0.88000000 -0.98000002 171 118 111 97.000000 1.000000 4.000000 1.000000 -60.708740 114.000000 133.000000 0.787561 -0.282512 -0.547663
1.65999997 0.94999999 -0.99000001 171 118 111 97.000000 1.000000 4.000000 1.000000 -60.708740 114.000000 133.000000 -0.499322 0.664081 0.556483
1.66999996 0.89999998 -0.99000001 171 118 111 97.000000 1.000000 4.000000 1.000000 -60.708740 114.000000 133.000000 -0.544372 0.723071 0.425239
1.69000006 0.75000000 -0.76999998 171 118 111 97.000000 1.000000 4.000000 1.000000 -60.708740 114.000000 133.000000 -0.686910 0.600839 0.408836
1.71000004 0.73000002 -0.73000002 171 118 111 97.000000 1.000000 4.000000 1.000000 -60.708740 114.000000 133.000000 0.715102 -0.586877 -0.379744
1.71000004 0.73000002 -0.73000002 171 118 111 97.000000 1.000000 4.000000 1.000000 -60.708740 114.000000 133.000000 0.715102 -0.586877 -0.379744
1.73000002 0.74000001 -0.83999997 171 118 111 97.000000 1.000000 4.000000 1.000000 -60.708740 114.000000 133.000000 -0.457825 0.431757 0.777163
1.73000002 0.73000002 -0.83999997 171 118 111 97.000000 1.000000 4.000000 1.000000 -60.708740 114.000000 133.000000 0.572833 -0.401148 -0.714803
1.73000002 0.72000003 -0.81999999 171 118 111 97.000000 1.000000 4.000000 1.000000 -60.708740 114.000000 133.000000 -0.608369 0.690803 0.390741
1.70000005 0.80000001 -0.81000000 171 118 111 97.000000 1.000000 4.000000 1.000000 -60.708740 114.000000 133.000000 -0.476472 0.540002 0.693810
1.72000003 0.76999998 -0.85000002 171 118 111 97.000000 1.000000 4.000000 1.000000 -60.708740 114.000000 133.000000 0.561415 -0.454796 -0.691357
1.69000006 0.76999998 -0.81999999 171 118 111 97.000000 1.000000 4.000000 1.000000 -60.708740 114.000000 133.000000 0.625770 -0.665607 -0.406668
1.71000004 0.80000001 -0.82999998 171 118 111 97.000000 1.000000 4.000000 1.000000 -60.708740 114.000000 133.000000 0.738352 -0.216065 -0.638868
1.72000003 0.70999998 -0.82999998 171 118 111 97.000000 1.000000 4.000000 1.000000 -60.708740 114.000000 133.000000 0.622683 -0.511309 -0.592308
1.72000003 0.66000003 -0.79000002 171 118 111 97.000000 1.000000 4.000000 1.000000 -60.708740 114.000000 133.000000 0.788782 -0.190711 -0.584339
1.67999995 0.73000002 -0.73000002 171 118 111 97.000000 1.000000 4.000000 1.000000 -60.708740 114.000000 133.000000 0.562485 -0.569241 -0.599646
1.66999996 0.75000000 -0.76999998 171 118 111 97.000000 1.000000 4.000000 1.000000 -60.708740 114.000000 133.000000 -0.248028 0.458015 0.853642
1.67999995 0.75999999 -0.76999998 171 118 111 97.000000 1.000000 4.000000 1.000000 -60.708740 114.000000 133.000000 -0.563205 0.385869 0.730688
1.64999998 0.69999999 -0.75999999 171 118 111 97.000000 1.000000 4.000000 1.000000 -60.708740 114.000000 133.000000 0.769152 -0.382137 -0.512226
1.65999997 0.64999998 -0.70999998 171 118 111 97.000000 1.000000 4.000000 1.000000 -60.708740 114.000000 133.000000 0.788364 -0.502562 -0.354844
1.69000006 0.88999999 -1.04999995 171 118 111 97.000000 1.000000 4.000000 1.000000 -60.708740 114.000000 133.000000 0.588063 -0.517293 -0.621763
1.64999998 0.95999998 -1.11000001 171 118 111 97.000000 1.000000 4.000000 1.000000 -60.708740 114.000000 133.000000 -0.367402 0.729906 0.576414
1.72000003 0.63000000 -0.72000003 171 118 111 97.000000 1.000000 4.000000 1.000000 -60.708740 114.000000 133.000000 0.773663 -0.501178 -0.387642
1.72000003 0.63000000 -0.70999998 171 118 111 97.000000 1.000000 4.000000 1.000000 -60.708740 114.000000 133.000000 0.662629 -0.435633 -0.609218
1.71000004 0.15000001 -0.23999999 171 118 111 97.000000 1.000000 4.000000 1.000000 -60.708740 114.000000 133.000000 0.735142 -0.434477 -0.520381
1.69000006 0.14000000 -0.23000000 171 118 111 97.000000 1.000000 4.000000 1.000000 -60.708740 114.000000 133.000000 0.871167 -0.156139 -0.465498
1.71000004 0.20000000 -0.31000000 171 118 111 97.000000 1.000000 4.000000 1.000000 -60.708740 114.000000 133.000000 -0.679151 0.186343 0.709951
1.70000005 0.18000001 -0.31999999 171 118 111 97.000000 1.000000 4.000000 1.000000 -60.708740 114.000000 133.000000 0.637227 -0.704983 -0.311354
1.71000004 0.13000000 -0.31000000 171 118 111 97.000000 1.000000 4.000000 1.000000 -60.708740 114.000000 133.000000 0.653326 -0.376855 -0.656617
1.69000006 0.15000001 -0.34999999 171 118 111 97.000000 1.000000 4.000000 1.000000 -60.708740 114.000000 133.000000 -0.261752 0.661519 0.702765
1.63999999 0.28000000 -0.34999999 171 118 111 97.000000 1.000000 4.000000 1.000000 -60.708740 114.000000 133.000000 -0.615667 0.531329 0.581932
1.64999998 0.19000000 -0.22000000 171 118 111 97.000000 1.000000 4.000000 1.000000 -60.708740 114.000000 133.000000 0.926630 -0.240554 -0.288949
1.63999999 0.13000000 -0.27000001 171 118 111 97.000000 1.000000 4.000000 1.000000 -60.708740 114.000000 133.000000 0.704983 -0.637227 -0.311354
1.63999999 0.16000000 -0.25999999 171 118 111 97.000000 1.000000 4.000000 1.000000 -60.708740 114.000000 133.000000 0.913711 -0.328704 -0.238926
1.63999999 0.20999999 -0.28999999 171 118 111 97.000000 1.000000 4.000000 1.000000 -60.708740 114.000000 133.000000 -0.632391 0.622326 0.461293
1.66999996 0.14000000 -0.34000000 171 118 111 97.000000 1.000000 4.000000 1.000000 -60.708740 114.000000 133.000000 -0.276262 0.643547 0.713811
1.66999996 0.13000000 -0.33000001 171 118 111 97.000000 1.000000 4.000000 1.000000 -60.708740 114.000000 133.000000 -0.584717 0.305975 0.751322
1.67999995 0.15000001 -0.34999999 171 118 111 97.000000 1.000000 4.000000 1.000000 -60.708740 114.000000 133.000000 0.677430 -0.677430 -0.286667
1.63000000 0.20000000 -0.30000001 171 118 111 97.000000 1.000000 4.000000 1.000000 -60.708740 114.000000 133.000000 0.840599 -0.482311 -0.246514
1.69000006 0.03000000 -0.16000000 171 118 111 97.000000 1.000000 4.000000 1.000000 -60.708740 114.000000 133.000000 0.848583 -0.524911 -0.066142
1.63000000 0.06000000 -0.18000001 171 118 111 97.000000 1.000000 4.000000 1.000000 -60.708740 114.000000 133.000000 -0.411502 0.560237 0.718888
1.63999999 0.09000000 -0.18000001 171 118 111 97.000000 1.000000 4.000000 1.000000 -60.708740 114.000000 133.000000 0.869284 -0.319298 -0.377352
1.66999996 0.04000000 -0.14000000 171 118 111 97.000000 1.000000 4.000000 1.000000 -60.708740 114.000000 133.000000 0.933087 -0.182168 -0.310102
1.65999997 0.04000000 -0.18000001 171 118 111 97.000000 1.000000 4.000000 1.000000 -60.708740 114.000000 133.000000 0.546248 -0.657178 -0.519356
1.66999996 0.04000000 -0.15000001 171 118 111 97.000000 1.000000 4.000000 1.000000 -60.708740 114.000000 133.000000 0.856383 -0.447273 -0.257983
1.63999999 0.01000000 -0.16000000 171 118 111 97.000000 1.000000 4.000000 1.000000 -60.708740 114.000000 133.000000 0.806186 -0.424730 -0.411908
1.64999998 0.01000000 -0.15000001 171 118 111 97.000000 1.000000 4.000000 1.000000 -60.708740 114.000000 133.000000 -0.467703 0.520965 0.714038
1.63999999 0.02000000 -0.17000000 171 118 111 97.000000 1.000000 4.000000 1.000000 -60.708740 114.000000 133.000000 0.709155 -0.587398 -0.389953
1.63999999 0.00000000 -0.11000000 171 118 111 97.000000 1.000000 4.000000 1.000000 -60.708740 114.000000 133.000000 -0.620305 0.754005 0.216096
1.66999996 -0.02000000 -0.14000000 171 118 111 97.000000 1.000000 4.000000 1.000000 -60.708740 114.000000 133.000000 0.653184 -0.649876 -0.388603
1.65999997 0.00000000 -0.12000000 171 118 111 97.000000 1.000000 4.000000 1.000000 -60.708740 114.000000 133.000000 -0.451421 0.729219 0.514256
1.66999996 -0.01000000 -0.15000001 171 118 111 97.000000 1.000000 4.000000 1.000000 -60.708740 114.000000 133.000000 -0.642977 0.713178 0.279208
1.63999999 -0.01000000 -0.18000001 171 118 111 97.000000 1.000000 4.000000 1.000000 -60.708740 114.000000 133.000000 0.812818 -0.469239 -0.345169
1.65999997 0.00000000 -0.17000000 171 118 111 97.000000 1.000000 4.000000 1.000000 -60.708740 114.000000 133.000000 0.752213 -0.640214 -0.155891
1.61000001 0.03000000 -0.17000000 171 118 111 97.000000 1.000000 4.000000 1.000000 -60.708740 114.000000 133.000000 -0.385197 0.739250 0.552388
1.62000000 -0.03000000 -0.11000000 171 118 111 97.000000 1.000000 4.000000 1.000000 -60.708740 114.000000 133.000000 0.777766 -0.547790 -0.308232
1.70000005 0.07000000 -0.25999999 171 118 111 97.000000 1.000000 4.000000 1.000000 -60.708740 114.000000 133.000000 0.890578 -0.251265 -0.379127
1.69000006 0.07000000 -0.28999999 171 118 111 97.000000 1.000000 4.000000 1.000000 -60.708740 114.000000 133.000000 0.788776 -0.579666 -0.204498
1.69000006 0.02000000 -0.19000000 171 118 111 97.000000 1.000000 4.000000 1.000000 -60.708740 114.000000 133.000000 0.774242 -0.546618 -0.318994
1.66999996 0.11000000 -0.27000001 171 118 111 97.000000 1.000000 4.000000 1.000000 -60.708740 114.000000 133.000000 0.806992 -0.196790 -0.556810
1.65999997 0.11000000 -0.27000001 171 118 111 97.000000 1.000000 4.000000 1.000000 -60.708740 114.000000 133.000000 -0.334169 0.556948 0.760355
1.64999998 0.05000000 -0.20999999 171 118 111 97.000000 1.000000 4.000000 1.000000 -60.708740 114.000000 133.000000 0.689074 -0.609756 -0.391632
1.63000000 0.10000000 -0.25999999 171 118 111 97.000000 1.000000 4.000000 1.000000 -60.708740 114.000000 133.000000 -0.460136 0.740506 0.489822
1.64999998 0.11000000 -0.28000000 171 118 111 97.000000 1.000000 4.000000 1.000000 -60.708740 114.000000 133.000000 -0.515472 0.266301 0.814477
1.65999997 0.12000000 -0.34000000 171 118 111 97.000000 1.000000 4.000000 1.000000 -60.708740 114.000000 133.000000 -0.162569 0.718647 0.676105
1.64999998 0.01000000 -0.20000000 171 118 111 97.000000 1.000000 4.000000 1.000000 -60.708740 114.000000 133.000000 0.774523 -0.565449 -0.283517
1.65999997 0.04000000 -0.25999999 171 118 111 97.000000 1.000000 4.000000 1.000000 -60.708740 114.000000 133.000000 -0.206326 0.693442 0.690339
1.65999997 0.00000000 -0.19000000 171 118 111 97.000000 1.000000 4.000000 1.000000 -60.708740 114.000000 133.000000 -0.432538 0.785696 0.442258
1.65999997 0.00000000 -0.19000000 171 118 111 97.000000 1.000000 4.000000 1.000000 -60.708740 114.000000 133.000000 -0.432538 0.785696 0.442258
1.72000003 0.23000000 -0.38000000 171 118 111 97.000000 1.000000 4.000000 1.000000 -60.708740 114.000000 133.000000 -0.794901 0.489787 0.358107
1.69000006 0.18000001 -0.38999999 171 118 111 97.000000 1.000000 4.000000 1.000000 -60.708740 114.000000 133.000000 0.691244 -0.419388 -0.588469
1.66999996 0.25000000 -0.44000000 171 118 111 97.000000 1.000000 4.000000 1.000000 -60.708740 114.000000 133.000000 -0.189601 0.664375 0.722951
1.62000000 0.20000000 -0.36000001 171 118 111 97.000000 1.000000 4.000000 1.000000 -60.708740 114.000000 133.000000 0.714513 -0.488001 -0.501325
1.71000004 -0.04000000 -0.08000000 171 118 111 97.000000 1.000000 4.000000 1.000000 -60.708740 114.000000 133.000000 0.614946 -0.467493 -0.635053
1.69000006 -0.09000000 -0.10000000 171 118 111 97.000000 1.000000 4.000000 1.000000 -60.708740 114.000000 133.000000 0.819286 -0.536564 -0.202162
1.69000006 -0.08000000 -0.11000000 171 118 111 97.000000 1.000000 4.000000 1.000000 -60.708740 114.000000 133.000000 0.904444 -0.259460 -0.338617
1.61000001 -0.06000000 -0.09000000 171 118 111 97.000000 1.000000 4.000000 1.000000 -60.708740 114.000000 133.000000 -0.540053 0.782201 0.310650
1.60000002 -0.12000000 -0.05000000 171 118 111 97.000000 1.000000 4.000000 1.000000 -60.708740 114.000000 133.000000 -0.453871 0.304140 0.837556
1.63999999 -0.15000001 -0.05000000 171 118 111 97.000000 1.000000 4.000000 1.000000 -60.708740 114.000000 133.000000 -0.636463 0.733897 0.237299
1.67999995 -0.15000001 -0.08000000 171 118 111 97.000000 1.000000 4.000000 1.000000 -60.708740 114.000000 133.000000 0.679907 -0.663758 -0.311692
1.64999998 -0.18000001 -0.03000000 171 118 111 97.000000 1.000000 4.000000 1.000000 -60.708740 114.000000 133.000000 0.924556 -0.220132 -0.311026
1.61000001 -0.14000000 -0.06000000 171 118 111 97.000000 1.000000 4.000000 1.000000 -60.708740 114.000000 133.000000 -0.430375 0.446615 0.784419
1.50999999 1.49000001 -0.58999997 171 118 111 97.000000 1.000000 4.000000 1.000000 -60.708740 114.000000 133.000000 -0.026696 0.658966 0.751699
1.50000000 1.48000002 -0.64999998 171 118 111 97.000000 1.000000 4.000000 1.000000 -60.708740 114.000000 133.000000 0.117393 0.667208 0.735563
1.48000002 1.50000000 -0.55000001 171 118 111 97.000000 1.000000 4.000000 1.000000 -60.708740 114.000000 133.000000 -0.470298 0.399188 0.787063
1.57000005 1.35000002 -0.41999999 171 118 111 97.000000 1.000000 4.000000 1.000000 -60.708740 114.000000 133.000000 -0.319665 0.374727 0.870284
1.50999999 1.46000004 -0.44000000 171 118 111 97.000000 1.000000 4.000000 1.000000 -60.708740 114.000000 133.000000 0.132947 0.748389 0.649799
1.50999999 1.45000005 -0.49000001 171 118 111 97.000000 1.000000 4.000000 1.000000 -60.708740 114.000000 133.000000 0.202668 0.812195 0.547051
1.57000005 1.37000000 -0.52999997 171 118 111 97.000000 1.000000 4.000000 1.000000 -60.708740 114.000000 133.000000 -0.146494 0.681121 0.717366
1.57000005 1.36000001 -0.56000000 171 118 111 97.000000 1.000000 4.000000 1.000000 -60.708740 114.000000 133.000000 -0.167082 0.387003 0.906814
1.48000002 1.39999998 -0.64999998 171 118 111 97.000000 1.000000 4.000000 1.000000 -60.708740 114.000000 133.000000 -0.487967 0.335378 0.805860
1.47000003 1.42999995 -0.69000000 171 118 111 97.000000 1.000000 4.000000 1.000000 -60.708740 114.000000 133.000000 0.663369 -0.442803 -0.603214
1.37000000 1.39999998 -0.50000000 171 118 111 97.000000 1.000000 4.000000 1.000000 -60.708740 114.000000 133.000000 0.676251 -0.358593 -0.643503
1.37000000 1.38999999 -0.47000000 171 118 111 97.000000 1.000000 4.000000 1.000000 -60.708740 114.000000 133.000000 -0.549247 0.708545 0.443048
1.35000002 1.37000000 -0.41999999 171 118 111 97.000000 1.000000 4.000000 1.000000 -60.708740 114.000000 133.000000 0.621608 -0.513795 -0.591285
1.37000000 1.37000000 -0.43000001 171 118 111 97.000000 1.000000 4.000000 1.000000 -60.708740 114.000000 133.000000 -0.645392 0.438600 0.625380
1.34000003 1.33000004 -0.41000000 171 118 111 97.000000 1.000000 4.000000 1.000000 -60.708740 114.000000 133.000000 -0.330382 0.251789 0.909643
1.29999995 1.30999994 -0.40000001 171 118 111 97.000000 1.000000 4.000000 1.000000 -60.708740 114.000000 133.000000 -0.305879 0.436304 0.846213
1.35000002 1.38999999 -0.63999999 171 118 111 97.000000 1.000000 4.000000 1.000000 -60.708740 114.000000 133.000000 -0.646218 0.485083 0.589149
1.35000002 1.34000003 -0.52999997 171 118 111 97.000000 1.000000 4.000000 1.000000 -60.708740 114.000000 133.000000 -0.137405 0.817044 0.559963
1.41999996 1.38000000 -0.66000003 171 118 111 97.000000 1.000000 4.000000 1.000000 -60.708740 114.000000 133.000000 -0.344789 0.815100 0.465545
1.36000001 1.36000001 -0.64999998 171 118 111 97.000000 1.000000 4.000000 1.000000 -60.708740 114.000000 133.000000 -0.632910 0.182364 0.752442
1.35000002 1.33000004 -0.64999998 171 118 111 97.000000 1.000000 4.000000 1.000000 -60.708740 114.000000 133.000000 -0.362681 0.746505 0.557846
1.38000000 1.32000005 -0.68000001 171 118 111 97.000000 1.000000 4.000000 1.000000 -60.708740 114.000000 133.000000 -0.447698 0.513779 0.731846
1.35000002 1.22000003 -0.27000001 171 118 111 97.000000 1.000000 4.000000 1.000000 -60.708740 114.000000 133.000000 -0.477446 0.331516 0.813721
1.37000000 1.13999999 -0.20999999 171 118 111 97.000000 1.000000 4.000000 1.000000 -60.708740 114.000000 133.000000 -0.120676 0.719589 0.683833
1.36000001 1.16999996 -0.23999999 171 118 111 97.000000 1.000000 4.000000 1.000000 -60.708740 114.000000 133.000000 -0.384076 0.359197 0.850566
1.37000000 1.08000004 -0.20000000 171 118 111 97.000000 1.000000 4.000000 1.000000 -60.708740 114.000000 133.000000 0.070957 0.693644 0.716814
1.38999999 1.11000001 -0.34999999 171 118 111 97.000000 1.000000 4.000000 1.000000 -60.708740 114.000000 133.000000 -0.328734 0.540406 0.774529
1.29999995 1.05999994 -0.34000000 171 118 111 97.000000 1.000000 4.000000 1.000000 -60.708740 114.000000 133.000000 -0.374862 0.474611 0.796381
1.26999998 1.03999996 -0.25000000 171 118 111 97.000000 1.000000 4.000000 1.000000 -60.708740 114.000000 133.000000 -0.307916 0.723844 0.617444
1.29999995 1.04999995 -0.33000001 171 118 111 97.000000 1.000000 4.000000 1.000000 -60.708740 114.000000 133.000000 -0.191719 0.774544 0.602764
1.27999997 1.01999998 -0.33000001 171 118 111 97.000000 1.000000 4.000000 1.000000 -60.708740 114.000000 133.000000 -0.504738 0.251597 0.825795
1.45000005 1.14999998 -0.51999998 171 118 111 97.000000 1.000000 4.000000 1.000000 -60.708740 114.000000 133.000000 0.040702 0.585262 0.809822
1.58000004 1.24000001 -0.62000000 171 118 111 97.000000 1.000000 4.000000 1.000000 -60.708740 114.000000 133.000000 -0.076302 0.456422 0.886486
1.55999994 1.22000003 -0.62000000 171 118 111 97.000000 1.000000 4.000000 1.000000 -60.708740 114.000000 133.000000 0.267584 0.438838 0.857799
1.59000003 0.98000002 -0.43000001 171 118 111 97.000000 1.000000 4.000000 1.000000 -60.708740 114.000000 133.000000 -0.006805 0.559390 0.828877
1.57000005 0.97000003 -0.56000000 171 118 111 97.000000 1.000000 4.000000 1.000000 -60.708740 114.000000 133.000000 -0.043125 0.367212 0.929137
1.51999998 1.02999997 -0.55000001 171 118 111 97.000000 1.000000 4.000000 1.000000 -60.708740 114.000000 133.000000 -0.424687 0.431146 0.796087
1.51999998 1.01999998 -0.68000001 171 118 111 97.000000 1.000000 4.000000 1.000000 -60.708740 114.000000 133.000000 0.535803 -0.423696 -0.730340
1.54999995 0.99000001 -0.61000001 171 118 111 97.000000 1.000000 4.000000 1.000000 -60.708740 114.000000 133.000000 -0.070264 0.447761 0.891388
1.49000001 1.01999998 -0.69000000 171 118 111 97.000000 1.000000 4.000000 1.000000 -60.708740 114.000000 133.000000 0.786796 -0.442877 -0.429899
1.48000002 0.97000003 -0.69000000 171 118 111 97.000000 1.000000 4.000000 1.000000 -60.708740 114.000000 133.000000 0.900640 -0.279509 -0.332749
1.47000003 0.98000002 -0.63000000 171 118 111 97.000000 1.000000 4.000000 1.000000 -60.708740 114.000000 133.000000 0.800953 -0.454248 -0.390043
1.45000005 0.97000003 -0.61000001 171 118 111 97.000000 1.000000 4.000000 1.000000 -60.708740 114.000000 133.000000 -0.443192 0.763730 0.469359
1.42999995 0.99000001 -0.66000003 171 118 111 97.000000 1.000000 4.000000 1.000000 -60.708740 114.000000 133.000000 0.860765 -0.456763 -0.224613
1.45000005 0.98000002 -0.67000002 171 118 111 97.000000 1.000000 4.000000 1.000000 -60.708740 114.000000 133.000000 0.902207 0.025172 -0.430569
1.35000002 1.29999995 -0.43000001 171 118 111 97.000000 1.000000 4.000000 1.000000 -60.708740 114.000000 133.000000 -0.108960 0.547704 0.829547
1.39999998 1.28999996 -0.44000000 171 118 111 97.000000 1.000000 4.000000 1.000000 -60.708740 114.000000 133.000000 -0.354900 0.639474 0.681996
1.27999997 1.27999997 -0.37000000 171 118 111 97.000000 1.000000 4.000000 1.000000 -60.708740 114.000000 133.000000 0.622683 -0.592308 -0.511309
1.26999998 1.26999998 -0.41999999 171 118 111 97.000000 1.000000 4.000000 1.000000 -60.708740 114.000000 133.000000 -0.563676 0.276312 0.778410
1.34000003 1.25000000 -0.50000000 171 118 111 97.000000 1.000000 4.000000 1.000000 -60.708740 114.000000 133.000000 -0.631071 0.460331 0.624376
1.26999998 1.24000001 -0.44999999 171 118 111 97.000000 1.000000 4.000000 1.000000 -60.708740 114.000000 133.000000 -0.497489 0.776213 0.387296
1.29999995 1.15999997 -0.43000001 171 118 111 97.000000 1.000000 4.000000 1.000000 -60.708740 114.000000 133.000000 0.241873 -0.778674 -0.578934
1.27999997 1.17999995 -0.51999998 171 118 111 97.000000 1.000000 4.000000 1.000000 -60.708740 114.000000 133.000000 0.697182 -0.694117 -0.179275
1.32000005 1.20000005 -0.50999999 171 118 111 97.000000 1.000000 4.000000 1.000000 -60.708740 114.000000 133.000000 -0.528427 0.720583 0.448915
1.36000001 1.25000000 -0.52999997 171 118 111 97.000000 1.000000 4.000000 1.000000 -60.708740 114.000000 133.000000 0.682683 -0.508238 -0.525012
1.36000001 1.24000001 -0.57999998 171 118 111 97.000000 1.000000 4.000000 1.000000 -60.708740 114.000000 133.000000 -0.542520 0.333239 0.771119
1.36000001 1.25000000 -0.57999998 171 118 111 97.000000 1.000000 4.000000 1.000000 -60.708740 114.000000 133.000000 0.517722 -0.471110 -0.714156
1.38999999 1.25999999 -0.62000000 171 118 111 97.000000 1.000000 4.000000 1.000000 -60.708740 114.000000 133.000000 -0.677853 0.172906 0.714576
1.36000001 1.24000001 -0.62000000 171 118 111 97.000000 1.000000 4.000000 1.000000 -60.708740 114.000000 133.000000 0.730316 -0.162461 -0.663510
1.37000000 1.24000001 -0.67000002 171 118 111 97.000000 1.000000 4.000000 1.000000 -60.708740 114.000000 133.000000 -0.421531 0.367853 0.828852
1.35000002 1.23000002 -0.64999998 171 118 111 97.000000 1.000000 4.000000 1.000000 -60.708740 114.000000 133.000000 0.768675 -0.229199 -0.597165
1.36000001 1.20000005 -0.58999997 171 118 111 97.000000 1.000000 4.000000 1.000000 -60.708740 114.000000 133.000000 -0.268867 0.666600 0.695237
1.37000000 1.17999995 -0.61000001 171 118 111 97.000000 1.000000 4.000000 1.000000 -60.708740 114.000000 133.000000 0.548146 -0.645970 -0.531280
1.36000001 1.21000004 -0.61000001 171 118 111 97.000000 1.000000 4.000000 1.000000 -60.708740 114.000000 133.000000 0.762246 -0.236343 -0.602597
1.33000004 1.25999999 -0.57999998 171 118 111 97.000000 1.000000 4.000000 1.000000 -60.708740 114.000000 133.000000 0.761347 -0.456808 -0.460083
1.34000003 1.23000002 -0.67000002 171 118 111 97.000000 1.000000 4.000000 1.000000 -60.708740 114.000000 133.000000 -0.499865 0.373685 0.781342
1.28999996 1.24000001 -0.61000001 171 118 111 97.000000 1.000000 4.000000 1.000000 -60.708740 114.000000 133.000000 0.723227 -0.397034 -0.565073
1.36000001 1.09000003 -0.40000001 171 118 111 97.000000 1.000000 4.000000 1.000000 -60.708740 114.000000 133.000000 -0.168358 0.778085 0.605177
1.40999997 1.13000000 -0.44000000 171 118 111 97.000000 1.000000 4.000000 1.000000 -60.708740 114.000000 133.000000 -0.468316 0.782686 0.409979
1.39999998 1.09000003 -0.44000000 171 118 111 97.000000 1.000000 4.000000 1.000000 -60.708740 114.000000 133.000000 -0.435839 0.291073 0.851658
1.34000003 1.07000005 -0.47000000 171 118 111 97.000000 1.000000 4.000000 1.000000 -60.708740 114.000000 133.000000 0.717142 -0.311030 -0.623672
1.30999994 0.99000001 -0.40000001 171 118 111 97.000000 1.000000 4.000000 1.000000 -60.708740 114.000000 133.000000 -0.707424 0.561632 0.429093
1.26999998 1.00999999 -0.44000000 171 118 111 97.000000 1.000000 4.000000 1.000000 -60.708740 114.000000 133.000000 0.783401 -0.194700 -0.590233
1.40999997 1.13000000 -0.56000000 171 118 111 97.000000 1.000000 4.000000 1.000000 -60.708740 114.000000 133.000000 -0.566827 0.657654 0.496184
1.40999997 1.12000000 -0.56000000 171 118 111 97.000000 1.000000 4.000000 1.000000 -60.708740 114.000000 133.000000 0.295091 -0.800060 -0.522327
1.37000000 1.12000000 -0.56999999 171 118 111 97.000000 1.000000 4.000000 1.000000 -60.708740 114.000000 133.000000 0.737035 -0.367701 -0.567076
1.35000002 1.13000000 -0.62000000 171 118 111 97.000000 1.000000 4.000000 1.000000 -60.708740 114.000000 133.000000 -0.658030 0.651433 0.377666
1.40999997 0.98000002 -0.52999997 171 118 111 97.000000 1.000000 4.000000 1.000000 -60.708740 114.000000 133.000000 0.779059 -0.249236 -0.575281
1.38999999 0.99000001 -0.56999999 171 118 111 97.000000 1.000000 4.000000 1.000000 -60.708740 114.000000 133.000000 0.485466 -0.623211 -0.613132
1.38000000 1.00999999 -0.56999999 171 118 111 97.000000 1.000000 4.000000 1.000000 -60.708740 114.000000 133.000000 0.701551 -0.276465 -0.656805
1.38000000 0.99000001 -0.64999998 171 118 111 97.000000 1.000000 4.000000 1.000000 -60.708740 114.000000 133.000000 0.836384 -0.323610 -0.442424
1.34000003 0.99000001 -0.68000001 171 118 111 97.000000 1.000000 4.000000 1.000000 -60.708740 114.000000 133.000000 0.863975 -0.437283 -0.249660
1.26999998 1.02999997 -0.63999999 171 118 111 97.000000 1.000000 4.000000 1.000000 -60.708740 114.000000 133.000000 0.723840 -0.624332 -0.293709
1.22000003 1.35000002 -0.57999998 171 118 111 97.000000 1.000000 4.000000 1.000000 -60.708740 114.000000 133.000000 0.896232 -0.307662 -0.319552
1.16999996 1.34000003 -0.55000001 171 118 111 97.000000 1.000000 4.000000 1.000000 -60.708740 114.000000 133.000000 0.777577 -0.232182 -0.584351
1.25999999 1.17999995 -0.28999999 171 118 111 97.000000 1.000000 4.000000 1.000000 -60.708740 114.000000 133.000000 0.654053 -0.519544 -0.549808
1.23000002 1.15999997 -0.30000001 171 118 111 97.000000 1.000000 4.000000 1.000000 -60.708740 114.000000 133.000000 -0.434198 0.570613 0.697046
1.22000003 1.10000002 -0.25000000 171 118 111 97.000000 1.000000 4.000000 1.000000 -60.708740 114.000000 133.000000 -0.407457 0.800420 0.439667
1.17999995 1.10000002 -0.28999999 171 118 111 97.000000 1.000000 4.000000 1.000000 -60.708740 114.000000 133.000000 -0.365186 0.487451 0.793114
1.22000003 1.25999999 -0.41000000 171 118 111 97.000000 1.000000 4.000000 1.000000 -60.708740 114.000000 133.000000 0.747222 -0.243830 -0.618228
1.23000002 1.23000002 -0.47000000 171 118 111 97.000000 1.000000 4.000000 1.000000 -60.708740 114.000000 133.000000 -0.496082 0.417495 0.761315
1.24000001 1.25999999 -0.47000000 171 118 111 97.000000 1.000000 4.000000 1.000000 -60.708740 114.000000 133.000000 -0.580536 0.334738 0.742245
1.25000000 1.25999999 -0.49000001 171 118 111 97.000000 1.000000 4.000000 1.000000 -60.708740 114.000000 133.000000 -0.473149 0.417867 0.775575
1.23000002 1.20000005 -0.41000000 171 118 111 97.000000 1.000000 4.000000 1.000000 -60.708740 114.000000 133.000000 -0.800206 0.487151 0.349791
1.25000000 1.22000003 -0.43000001 171 118 111 97.000000 1.000000 4.000000 1.000000 -60.708740 114.000000 133.000000 -0.554251 0.757854 0.344185
1.25000000 1.19000006 -0.46000001 171 118 111 97.000000 1.000000 4.000000 1.000000 -60.708740 114.000000 133.000000 0.842065 -0.123619 -0.525018
1.25999999 1.19000006 -0.44999999 171 118 111 97.000000 1.000000 4.000000 1.000000 -60.708740 114.000000 133.000000 -0.364385 0.573539 0.733673
1.19000006 1.16999996 -0.55000001 171 118 111 97.000000 1.000000 4.000000 1.000000 -60.708740 114.000000 133.000000 0.826590 -0.017880 -0.562521
1.25999999 0.97000003 -0.55000001 171 118 111 97.000000 1.000000 4.000000 1.000000 -60.708740 114.000000 133.000000 0.820194 -0.406115 -0.402930
1.25999999 0.97000003 -0.55000001 171 118 111 97.000000 1.000000 4.000000 1.000000 -60.708740 114.000000 133.000000 0.820194 -0.406115 -0.402930
1.53999996 1.50999999 -0.70999998 171 118 111 97.000000 1.000000 4.000000 1.000000 -60.708740 114.000000 133.000000 -0.148477 0.348296 0.925551
1.51999998 1.50000000 -0.87000000 171 118 111 97.000000 1.000000 4.000000 1.000000 -60.708740 114.000000 133.000000 -0.532343 0.736711 0.416975
1.51999998 1.50000000 -0.87000000 171 118 111 97.000000 1.000000 4.000000 1.000000 -60.708740 114.000000 133.000000 -0.532343 0.736711 0.416975
1.47000003 1.48000002 -0.95999998 171 118 111 97.000000 1.000000 4.000000 1.000000 -60.708740 114.000000 133.000000 0.647500 -0.670449 -0.362272
1.55999994 1.41999996 -0.70999998 171 118 111 97.000000 1.000000 4.000000 1.000000 -60.708740 114.000000 133.000000 -0.030412 0.411219 0.911029
1.52999997 1.44000006 -0.73000002 171 118 111 97.000000 1.000000 4.000000 1.000000 -60.708740 114.000000 133.000000 -0.218376 0.291638 0.931268
1.58000004 1.36000001 -0.75000000 171 118 111 97.000000 1.000000 4.000000 1.000000 -60.708740 114.000000 133.000000 0.128881 0.789579 0.599962
1.59000003 1.30999994 -0.70999998 171 118 111 97.000000 1.000000 4.000000 1.000000 -60.708740 114.000000 133.000000 0.399535 0.644893 0.651525
1.59000003 1.34000003 -0.73000002 171 118 111 97.000000 1.000000 4.000000 1.000000 -60.708740 114.000000 133.000000 0.037751 0.585839 0.809548
1.44000006 1.44000006 -0.76999998 171 118 111 97.000000 1.000000 4.000000 1.000000 -60.708740 114.000000 133.000000 -0.467767 0.451354 0.759916
1.50000000 1.46000004 -0.70999998 171 118 111 97.000000 1.000000 4.000000 1.000000 -60.708740 114.000000 133.000000 -0.404269 0.562676 0.721084
1.48000002 1.40999997 -0.77999997 171 118 111 97.000000 1.000000 4.000000 1.000000 -60.708740 114.000000 133.000000 -0.309827 0.858576 0.408479
1.50999999 1.37000000 -0.69999999 171 118 111 97.000000 1.000000 4.000000 1.000000 -60.708740 114.000000 133.000000 0.289298 -0.542236 -0.788851
1.57000005 1.36000001 -0.93000001 171 118 111 97.000000 1.000000 4.000000 1.000000 -60.708740 114.000000 133.000000 0.128540 0.808179 0.574738
1.53999996 1.34000003 -0.93000001 171 118 111 97.000000 1.000000 4.000000 1.000000 -60.708740 114.000000 133.000000 -0.456549 0.722178 0.519636
1.57000005 1.36000001 -0.98000002 171 118 111 97.000000 1.000000 4.000000 1.000000 -60.708740 114.000000 133.000000 -0.513653 0.713129 0.477082
1.59000003 1.37000000 -0.98000002 171 118 111 97.000000 1.000000 4.000000 1.000000 -60.708740 114.000000 133.000000 0.182457 0.473203 0.861852
1.57000005 1.38000000 -0.99000001 171 118 111 97.000000 1.000000 4.000000 1.000000 -60.708740 114.000000 133.000000 -0.438810 0.592309 0.675733
1.52999997 1.38000000 -0.95999998 171 118 111 97.000000 1.000000 4.000000 1.000000 -60.708740 114.000000 133.000000 -0.451702 0.311034 0.836196
1.52999997 1.37000000 -0.94999999 171 118 111 97.000000 1.000000 4.000000 1.000000 -60.708740 114.000000 133.000000 -0.576831 0.301997 0.758988
1.52999997 1.33000004 -0.95999998 171 118 111 97.000000 1.000000 4.000000 1.000000 -60.708740 114.000000 133.000000 0.794856 -0.217621 -0.566432
1.46000004 1.45000005 -0.99000001 171 118 111 97.000000 1.000000 4.000000 1.000000 -60.708740 114.000000 133.000000 0.815962 -0.410376 -0.407183
1.39999998 1.41999996 -0.79000002 171 118 111 97.000000 1.000000 4.000000 1.000000 -60.708740 114.000000 133.000000 0.477187 -0.668063 -0.570951
1.38999999 1.41999996 -0.81000000 171 118 111 97.000000 1.000000 4.000000 1.000000 -60.708740 114.000000 133.000000 -0.518071 0.632822 0.575446
1.38000000 1.39999998 -0.82999998 171 118 111 97.000000 1.000000 4.000000 1.000000 -60.708740 114.000000 133.000000 0.769720 -0.433070 -0.469022
1.38999999 1.37000000 -0.74000001 171 118 111 97.000000 1.000000 4.000000 1.000000 -60.708740 114.000000 133.000000 -0.261982 0.785947 0.560046
1.36000001 1.36000001 -0.81000000 171 118 111 97.000000 1.000000 4.000000 1.000000 -60.708740 114.000000 133.000000 0.614384 -0.680625 -0.399101
1.30999994 1.36000001 -0.70999998 171 118 111 97.000000 1.000000 4.000000 1.000000 -60.708740 114.000000 133.000000 -0.603214 0.663369 0.442803
1.28999996 1.36000001 -0.83999997 171 118 111 97.000000 1.000000 4.000000 1.000000 -60.708740 114.000000 133.000000 0.772964 -0.516930 -0.367846
1.36000001 1.41999996 -0.86000001 171 118 111 97.000000 1.000000 4.000000 1.000000 -60.708740 114.000000 133.000000 0.837148 -0.090154 -0.539495
1.40999997 1.38000000 -0.86000001 171 118 111 97.000000 1.000000 4.000000 1.000000 -60.708740 114.000000 133.000000 0.408759 -0.706641 -0.577559
1.33000004 1.35000002 -0.86000001 171 118 111 97.000000 1.000000 4.000000 1.000000 -60.708740 114.000000 133.000000 0.791038 -0.055387 -0.609255
1.52999997 1.45000005 -1.13000000 171 118 111 97.000000 1.000000 4.000000 1.000000 -60.708740 114.000000 133.000000 0.943914 0.182207 -0.275365
1.52999997 1.45000005 -1.13000000 171 118 111 97.000000 1.000000 4.000000 1.000000 -60.708740 114.000000 133.000000 0.943914 0.182207 -0.275365
1.57000005 1.34000003 -1.08000004 171 118 111 97.000000 1.000000 4.000000 1.000000 -60.708740 114.000000 133.000000 0.593183 0.708205 0.382858
1.50000000 1.46000004 -1.14999998 171 118 111 97.000000 1.000000 4.000000 1.000000 -60.708740 114.000000 133.000000 0.981915 -0.105857 -0.156960
1.30999994 1.40999997 -1.12000000 171 118 111 97.000000 1.000000 4.000000 1.000000 -60.708740 114.000000 133.000000 0.990517 0.093619 0.100554
1.29999995 1.37000000 -1.10000002 171 118 111 97.000000 1.000000 4.000000 1.000000 -60.708740 114.000000 133.000000 0.932248 0.310749 -0.185335
1.34000003 1.33000004 -1.13000000 171 118 111 97.000000 1.000000 4.000000 1.000000 -60.708740 114.000000 133.000000 0.938157 0.319055 0.134410
1.30999994 1.30999994 -1.14999998 171 118 111 97.000000 1.000000 4.000000 1.000000 -60.708740 114.000000 133.000000 0.885473 0.427419 0.182346
1.55999994 1.15999997 -0.85000002 171 118 111 97.000000 1.000000 4.000000 1.000000 -60.708740 114.000000 133.000000 -0.406652 0.818088 0.406652
1.59000003 1.21000004 -0.70999998 171 118 111 97.000000 1.000000 4.000000 1.000000 -60.708740 114.000000 133.000000 0.199413 0.817441 0.540394
1.50999999 1.29999995 -0.92000002 171 118 111 97.000000 1.000000 4.000000 1.000000 -60.708740 114.000000 133.000000 -0.585580 0.342264 0.734814
1.53999996 1.01999998 -0.72000003 171 118 111 97.000000 1.000000 4.000000 1.000000 -60.708740 114.000000 133.000000 0.643220 -0.388577 -0.659755
1.51999998 0.97000003 -0.72000003 171 118 111 97.000000 1.000000 4.000000 1.000000 -60.708740 114.000000 133.000000 0.991674 0.120991 0.044100
1.50000000 1.08000004 -0.75000000 171 118 111 97.000000 1.000000 4.000000 1.000000 -60.708740 114.000000 133.000000 -0.467880 0.384273 0.795879
1.45000005 1.02999997 -0.73000002 171 118 111 97.000000 1.000000 4.000000 1.000000 -60.708740 114.000000 133.000000 0.821809 -0.100009 -0.560917
