//X Y Z R G B PointSourceId ScanDirectionFlag NumberOfReturns ReturnNumber GpsTime Intensity Classification Nx Ny Nz
0.87000000 2.48000002 -0.28999999 81 209 110 97.000000 1.000000 4.000000 1.000000 -60.708740 114.000000 238.000000 0.379014 0.901791 0.207659
0.87000000 2.48000002 -0.28999999 81 209 110 97.000000 1.000000 4.000000 1.000000 -60.708740 114.000000 238.000000 0.379014 0.901791 0.207659
0.83999997 2.48000002 -0.20000000 81 209 110 97.000000 1.000000 4.000000 1.000000 -60.708740 114.000000 238.000000 -0.054785 0.993965 0.095036
0.81000000 2.50999999 -0.27000001 81 209 110 97.000000 1.000000 4.000000 1.000000 -60.708740 114.000000 238.000000 0.168577 0.913716 0.369736
0.80000001 2.50000000 -0.23999999 81 209 110 97.000000 1.000000 4.000000 1.000000 -60.708740 114.000000 238.000000 -0.494012 0.756609 0.428362
0.82999998 2.50000000 -0.28000000 81 209 110 97.000000 1.000000 4.000000 1.000000 -60.708740 114.000000 238.000000 0.318643 0.921636 0.221479
0.82999998 2.49000001 -0.28999999 81 209 110 97.000000 1.000000 4.000000 1.000000 -60.708740 114.000000 238.000000 0.171451 0.871910 0.458669
0.83999997 2.50000000 -0.28999999 81 209 110 97.000000 1.000000 4.000000 1.000000 -60.708740 114.000000 238.000000 0.205120 0.977618 0.046782
0.82999998 2.50000000 -0.34999999 81 209 110 97.000000 1.000000 4.000000 1.000000 -60.708740 114.000000 238.000000 0.637481 0.640810 -0.427762
0.75999999 2.50000000 -0.28000000 81 209 110 97.000000 1.000000 4.000000 1.000000 -60.708740 114.000000 238.000000 -0.460062 0.573823 0.677547
0.80000001 2.50999999 -0.33000001 81 209 110 97.000000 1.000000 4.000000 1.000000 -60.708740 114.000000 238.000000 0.217993 0.940007 0.262424
0.76999998 2.50999999 -0.34999999 81 209 110 97.000000 1.000000 4.000000 1.000000 -60.708740 114.000000 238.000000 0.253484 0.930387 0.264813
0.86000001 2.46000004 -0.13000000 81 209 110 97.000000 1.000000 4.000000 1.000000 -60.708740 114.000000 238.000000 -0.177731 0.584842 0.791436
0.86000001 2.44000006 -0.14000000 81 209 110 97.000000 1.000000 4.000000 1.000000 -60.708740 114.000000 238.000000 -0.524218 0.707278 0.474292
0.87000000 2.46000004 -0.13000000 81 209 110 97.000000 1.000000 4.000000 1.000000 -60.708740 114.000000 238.000000 -0.253913 0.604030 0.755431
0.85000002 2.47000003 -0.18000001 81 209 110 97.000000 1.000000 4.000000 1.000000 -60.708740 114.000000 238.000000 0.129253 0.785920 0.604668
0.92000002 2.39000010 -0.14000000 81 209 110 97.000000 1.000000 4.000000 1.000000 -60.708740 114.000000 238.000000 0.430697 0.856795 0.283555
0.92000002 2.35999990 -0.14000000 81 209 110 97.000000 1.000000 4.000000 1.000000 -60.708740 114.000000 238.000000 0.108406 0.975655 0.190645
0.92000002 2.35999990 -0.15000001 81 209 110 97.000000 1.000000 4.000000 1.000000 -60.708740 114.000000 238.000000 0.171476 0.772402 0.611548
0.91000003 2.38000011 -0.16000000 81 209 110 97.000000 1.000000 4.000000 1.000000 -60.708740 114.000000 238.000000 0.254805 0.729596 0.634637
0.83999997 2.42000008 -0.18000001 81 209 110 97.000000 1.000000 4.000000 1.000000 -60.708740 114.000000 238.000000 -0.001380 0.732842 0.680398
0.83999997 2.45000005 -0.18000001 81 209 110 97.000000 1.000000 4.000000 1.000000 -60.708740 114.000000 238.000000 0.101667 0.673357 0.732294
0.89999998 2.45000005 -0.20000000 81 209 110 97.000000 1.000000 4.000000 1.000000 -60.708740 114.000000 238.000000 0.429777 0.889740 0.153800
0.85000002 2.45000005 -0.20999999 81 209 110 97.000000 1.000000 4.000000 1.000000 -60.708740 114.000000 238.000000 -0.358820 0.887292 0.289759
0.88999999 2.43000007 -0.31000000 81 209 110 97.000000 1.000000 4.000000 1.000000 -60.708740 114.000000 238.000000 0.632640 0.088715 -0.769348
0.88000000 2.45000005 -0.31000000 81 209 110 97.000000 1.000000 4.000000 1.000000 -60.708740 114.000000 238.000000 0.705841 0.446756 -0.549725
0.86000001 2.45000005 -0.34999999 81 209 110 97.000000 1.000000 4.000000 1.000000 -60.708740 114.000000 238.000000 0.961866 0.233615 -0.142257
0.87000000 2.44000006 -0.31999999 81 209 110 97.000000 1.000000 4.000000 1.000000 -60.708740 114.000000 238.000000 0.818672 0.186131 -0.543260
0.86000001 2.47000003 -0.34000000 81 209 110 97.000000 1.000000 4.000000 1.000000 -60.708740 114.000000 238.000000 0.903141 0.310869 -0.296136
0.85000002 2.47000003 -0.34000000 81 209 110 97.000000 1.000000 4.000000 1.000000 -60.708740 114.000000 238.000000 0.762216 0.645826 -0.044001
0.87000000 2.41000009 -0.31999999 81 209 110 97.000000 1.000000 4.000000 1.000000 -60.708740 114.000000 238.000000 0.773824 -0.280096 -0.568104
0.89999998 2.38000011 -0.27000001 81 209 110 97.000000 1.000000 4.000000 1.000000 -60.708740 114.000000 238.000000 0.921355 0.088200 -0.378583
0.89999998 2.39000010 -0.25000000 81 209 110 97.000000 1.000000 4.000000 1.000000 -60.708740 114.000000 238.000000 0.960489 0.061845 -0.271360
0.88999999 2.35999990 -0.23999999 81 209 110 97.000000 1.000000 4.000000 1.000000 -60.708740 114.000000 238.000000 -0.236541 0.486818 0.840867
0.89999998 2.38000011 -0.27000001 81 209 110 97.000000 1.000000 4.000000 1.000000 -60.708740 114.000000 238.000000 0.921355 0.088200 -0.378583
0.89999998 2.38000011 -0.27000001 81 209 110 97.000000 1.000000 4.000000 1.000000 -60.708740 114.000000 238.000000 0.921355 0.088200 -0.378583
0.87000000 2.38000011 -0.19000000 81 209 110 97.000000 1.000000 4.000000 1.000000 -60.708740 114.000000 238.000000 -0.534629 0.571733 0.622329
0.86000001 2.36999989 -0.23999999 81 209 110 97.000000 1.000000 4.000000 1.000000 -60.708740 114.000000 238.000000 -0.388621 0.864797 0.317963
0.81000000 2.47000003 -0.22000000 81 209 110 97.000000 1.000000 4.000000 1.000000 -60.708740 114.000000 238.000000 -0.461957 0.831522 0.308493
0.81000000 2.44000006 -0.20999999 81 209 110 97.000000 1.000000 4.000000 1.000000 -60.708740 114.000000 238.000000 -0.300055 0.726870 0.617760
0.81999999 2.46000004 -0.20000000 81 209 110 97.000000 1.000000 4.000000 1.000000 -60.708740 114.000000 238.000000 -0.306239 0.824491 0.475849
0.75999999 2.41000009 -0.25999999 81 209 110 97.000000 1.000000 4.000000 1.000000 -60.708740 114.000000 238.000000 -0.602906 -0.267431 0.751655
0.77999997 2.41000009 -0.27000001 81 209 110 97.000000 1.000000 4.000000 1.000000 -60.708740 114.000000 238.000000 0.712621 0.408393 -0.570427
0.81999999 2.40000010 -0.34000000 81 209 110 97.000000 1.000000 4.000000 1.000000 -60.708740 114.000000 238.000000 -0.554036 0.530460 0.641604
0.81000000 2.40000010 -0.34000000 81 209 110 97.000000 1.000000 4.000000 1.000000 -60.708740 114.000000 238.000000 0.627411 -0.650710 -0.427705
0.77999997 2.41000009 -0.30000001 81 209 110 97.000000 1.000000 4.000000 1.000000 -60.708740 114.000000 238.000000 0.443080 0.616968 -0.650408
0.76999998 2.42000008 -0.28000000 81 209 110 97.000000 1.000000 4.000000 1.000000 -60.708740 114.000000 238.000000 0.834731 -0.114685 -0.538583
0.75999999 2.42000008 -0.28999999 81 209 110 97.000000 1.000000 4.000000 1.000000 -60.708740 114.000000 238.000000 -0.655596 -0.035247 0.754288
0.76999998 2.43000007 -0.31999999 81 209 110 97.000000 1.000000 4.000000 1.000000 -60.708740 114.000000 238.000000 0.771040 -0.067484 -0.633201
0.74000001 2.50000000 -0.31000000 81 209 110 97.000000 1.000000 4.000000 1.000000 -60.708740 114.000000 238.000000 -0.382097 0.858558 0.341876
0.74000001 2.49000001 -0.33000001 81 209 110 97.000000 1.000000 4.000000 1.000000 -60.708740 114.000000 238.000000 -0.337528 0.644075 0.686470
0.72000003 2.50999999 -0.31999999 81 209 110 97.000000 1.000000 4.000000 1.000000 -60.708740 114.000000 238.000000 -0.104440 0.748734 0.654591
0.70999998 2.52999997 -0.34999999 81 209 110 97.000000 1.000000 4.000000 1.000000 -60.708740 114.000000 238.000000 -0.534077 0.655381 0.534077
0.69999999 2.50000000 -0.34999999 81 209 110 97.000000 1.000000 4.000000 1.000000 -60.708740 114.000000 238.000000 -0.362395 0.885688 0.290217
0.74000001 2.47000003 -0.31000000 81 209 110 97.000000 1.000000 4.000000 1.000000 -60.708740 114.000000 238.000000 -0.453424 0.719167 0.526503
0.74000001 2.47000003 -0.31000000 81 209 110 97.000000 1.000000 4.000000 1.000000 -60.708740 114.000000 238.000000 -0.453424 0.719167 0.526503
0.75000000 2.47000003 -0.30000001 81 209 110 97.000000 1.000000 4.000000 1.000000 -60.708740 114.000000 238.000000 -0.468520 0.623014 0.626373
0.73000002 2.47000003 -0.31999999 81 209 110 97.000000 1.000000 4.000000 1.000000 -60.708740 114.000000 238.000000 -0.279698 0.338893 0.898288
0.74000001 2.40000010 -0.31000000 81 209 110 97.000000 1.000000 4.000000 1.000000 -60.708740 114.000000 238.000000 0.825411 0.500202 -0.261716
0.74000001 2.43000007 -0.31000000 81 209 110 97.000000 1.000000 4.000000 1.000000 -60.708740 114.000000 238.000000 0.750919 0.422289 -0.507733
0.74000001 2.42000008 -0.31000000 81 209 110 97.000000 1.000000 4.000000 1.000000 -60.708740 114.000000 238.000000 -0.517740 -0.400146 0.756194
0.72000003 2.42000008 -0.33000001 81 209 110 97.000000 1.000000 4.000000 1.000000 -60.708740 114.000000 238.000000 -0.536020 -0.401605 0.742560
0.70999998 2.45000005 -0.34000000 81 209 110 97.000000 1.000000 4.000000 1.000000 -60.708740 114.000000 238.000000 0.860658 0.116383 -0.495704
0.69999999 2.45000005 -0.34999999 81 209 110 97.000000 1.000000 4.000000 1.000000 -60.708740 114.000000 238.000000 0.894311 0.144060 -0.423621
0.69999999 2.45000005 -0.34999999 81 209 110 97.000000 1.000000 4.000000 1.000000 -60.708740 114.000000 238.000000 0.894311 0.144060 -0.423621
0.68000001 2.47000003 -0.34000000 81 209 110 97.000000 1.000000 4.000000 1.000000 -60.708740 114.000000 238.000000 -0.526185 0.133378 0.839845
0.67000002 2.45000005 -0.34000000 81 209 110 97.000000 1.000000 4.000000 1.000000 -60.708740 114.000000 238.000000 -0.505480 -0.025887 0.862450
0.81000000 2.50999999 -0.38999999 81 209 110 97.000000 1.000000 4.000000 1.000000 -60.708740 114.000000 238.000000 0.732958 0.649280 -0.202997
0.75999999 2.50999999 -0.43000001 81 209 110 97.000000 1.000000 4.000000 1.000000 -60.708740 114.000000 238.000000 0.800729 0.343626 -0.490666
0.77999997 2.49000001 -0.41000000 81 209 110 97.000000 1.000000 4.000000 1.000000 -60.708740 114.000000 238.000000 0.657101 0.698669 -0.282985
0.76999998 2.50000000 -0.40000001 81 209 110 97.000000 1.000000 4.000000 1.000000 -60.708740 114.000000 238.000000 0.622347 0.622347 -0.474729
0.76999998 2.50000000 -0.40000001 81 209 110 97.000000 1.000000 4.000000 1.000000 -60.708740 114.000000 238.000000 0.622347 0.622347 -0.474729
0.76999998 2.50000000 -0.46000001 81 209 110 97.000000 1.000000 4.000000 1.000000 -60.708740 114.000000 238.000000 -0.508544 -0.381814 0.771752
0.75999999 2.50999999 -0.44999999 81 209 110 97.000000 1.000000 4.000000 1.000000 -60.708740 114.000000 238.000000 0.485018 0.806243 -0.338718
0.76999998 2.48000002 -0.46000001 81 209 110 97.000000 1.000000 4.000000 1.000000 -60.708740 114.000000 238.000000 0.854844 0.120054 -0.504806
0.86000001 2.45000005 -0.38000000 81 209 110 97.000000 1.000000 4.000000 1.000000 -60.708740 114.000000 238.000000 0.850682 0.110833 -0.513864
0.81000000 2.47000003 -0.40000001 81 209 110 97.000000 1.000000 4.000000 1.000000 -60.708740 114.000000 238.000000 0.908174 -0.046813 -0.415968
0.81000000 2.40000010 -0.37000000 81 209 110 97.000000 1.000000 4.000000 1.000000 -60.708740 114.000000 238.000000 0.729586 -0.346106 -0.589843
0.82999998 2.42000008 -0.38000000 81 209 110 97.000000 1.000000 4.000000 1.000000 -60.708740 114.000000 238.000000 0.948665 -0.066005 -0.309319
0.79000002 2.47000003 -0.41999999 81 209 110 97.000000 1.000000 4.000000 1.000000 -60.708740 114.000000 238.000000 0.818393 0.172688 -0.548098
0.76999998 2.44000006 -0.40000001 81 209 110 97.000000 1.000000 4.000000 1.000000 -60.708740 114.000000 238.000000 0.868312 -0.303680 -0.392190
0.80000001 2.47000003 -0.41000000 81 209 110 97.000000 1.000000 4.000000 1.000000 -60.708740 114.000000 238.000000 0.743550 0.098260 -0.661422
0.80000001 2.47000003 -0.41000000 81 209 110 97.000000 1.000000 4.000000 1.000000 -60.708740 114.000000 238.000000 0.743550 0.098260 -0.661422
0.80000001 2.40000010 -0.36000001 81 209 110 97.000000 1.000000 4.000000 1.000000 -60.708740 114.000000 238.000000 -0.619132 0.538155 0.571896
0.76999998 2.42000008 -0.41999999 81 209 110 97.000000 1.000000 4.000000 1.000000 -60.708740 114.000000 238.000000 0.599215 -0.592464 -0.538450
0.79000002 2.43000007 -0.40000001 81 209 110 97.000000 1.000000 4.000000 1.000000 -60.708740 114.000000 238.000000 0.891491 -0.297164 -0.341962
0.79000002 2.45000005 -0.44000000 81 209 110 97.000000 1.000000 4.000000 1.000000 -60.708740 114.000000 238.000000 0.899827 -0.257725 -0.351978
0.76999998 2.46000004 -0.44999999 81 209 110 97.000000 1.000000 4.000000 1.000000 -60.708740 114.000000 238.000000 -0.576832 0.157318 0.801571
0.75999999 2.41000009 -0.44999999 81 209 110 97.000000 1.000000 4.000000 1.000000 -60.708740 114.000000 238.000000 0.585753 -0.679206 -0.442235
0.81000000 2.39000010 -0.37000000 81 209 110 97.000000 1.000000 4.000000 1.000000 -60.708740 114.000000 238.000000 -0.512649 0.327393 0.793728
0.80000001 2.39000010 -0.36000001 81 209 110 97.000000 1.000000 4.000000 1.000000 -60.708740 114.000000 238.000000 -0.534251 0.722810 0.438317
0.81999999 2.39000010 -0.36000001 81 209 110 97.000000 1.000000 4.000000 1.000000 -60.708740 114.000000 238.000000 0.617790 -0.617790 -0.486489
0.68000001 2.56999993 -0.50999999 81 209 110 97.000000 1.000000 4.000000 1.000000 -60.708740 114.000000 238.000000 0.856563 0.514490 0.040001
0.69999999 2.51999998 -0.37000000 81 209 110 97.000000 1.000000 4.000000 1.000000 -60.708740 114.000000 238.000000 0.085598 0.613694 0.784890
0.69000000 2.48000002 -0.38000000 81 209 110 97.000000 1.000000 4.000000 1.000000 -60.708740 114.000000 238.000000 -0.464137 0.258875 0.847089
0.72000003 2.52999997 -0.49000001 81 209 110 97.000000 1.000000 4.000000 1.000000 -60.708740 114.000000 238.000000 0.626285 0.722390 -0.293121
0.70999998 2.54999995 -0.44999999 81 209 110 97.000000 1.000000 4.000000 1.000000 -60.708740 114.000000 238.000000 0.537462 0.838440 -0.090294
0.70999998 2.54999995 -0.49000001 81 209 110 97.000000 1.000000 4.000000 1.000000 -60.708740 114.000000 238.000000 0.711226 0.699685 0.067805
0.61000001 2.56999993 -0.50999999 81 209 110 97.000000 1.000000 4.000000 1.000000 -60.708740 114.000000 238.000000 -0.122921 0.982148 0.142393
0.67000002 2.52999997 -0.38999999 81 209 110 97.000000 1.000000 4.000000 1.000000 -60.708740 114.000000 238.000000 -0.172451 0.724905 0.666913
0.66000003 2.50000000 -0.37000000 81 209 110 97.000000 1.000000 4.000000 1.000000 -60.708740 114.000000 238.000000 0.314751 -0.627887 -0.711821
0.67000002 2.48000002 -0.41000000 81 209 110 97.000000 1.000000 4.000000 1.000000 -60.708740 114.000000 238.000000 0.865440 0.168974 -0.471658
0.67000002 2.48000002 -0.41000000 81 209 110 97.000000 1.000000 4.000000 1.000000 -60.708740 114.000000 238.000000 0.865440 0.168974 -0.471658
0.63000000 2.49000001 -0.41000000 81 209 110 97.000000 1.000000 4.000000 1.000000 -60.708740 114.000000 238.000000 0.710063 -0.387157 -0.588150
0.64999998 2.55999994 -0.50999999 81 209 110 97.000000 1.000000 4.000000 1.000000 -60.708740 114.000000 238.000000 0.653916 0.755605 -0.038133
0.66000003 2.54999995 -0.51999998 81 209 110 97.000000 1.000000 4.000000 1.000000 -60.708740 114.000000 238.000000 0.658857 0.748635 0.073850
0.63999999 2.51999998 -0.44000000 81 209 110 97.000000 1.000000 4.000000 1.000000 -60.708740 114.000000 238.000000 -0.586775 0.711691 0.386253
0.60000002 2.55999994 -0.50000000 81 209 110 97.000000 1.000000 4.000000 1.000000 -60.708740 114.000000 238.000000 -0.595612 0.737654 0.317982
0.63000000 2.51999998 -0.44000000 81 209 110 97.000000 1.000000 4.000000 1.000000 -60.708740 114.000000 238.000000 0.656555 -0.565880 -0.498713
0.63000000 2.51999998 -0.46000001 81 209 110 97.000000 1.000000 4.000000 1.000000 -60.708740 114.000000 238.000000 0.704488 -0.524619 -0.477986
0.60000002 2.49000001 -0.46000001 81 209 110 97.000000 1.000000 4.000000 1.000000 -60.708740 114.000000 238.000000 0.734227 0.338749 -0.588354
0.61000001 2.49000001 -0.44999999 81 209 110 97.000000 1.000000 4.000000 1.000000 -60.708740 114.000000 238.000000 0.816199 0.256520 -0.517703
0.61000001 2.50000000 -0.46000001 81 209 110 97.000000 1.000000 4.000000 1.000000 -60.708740 114.000000 238.000000 0.878142 -0.062231 -0.474335
0.63000000 2.56999993 -0.58999997 81 209 110 97.000000 1.000000 4.000000 1.000000 -60.708740 114.000000 238.000000 0.903829 0.419586 -0.083917
0.62000000 2.58999991 -0.60000002 81 209 110 97.000000 1.000000 4.000000 1.000000 -60.708740 114.000000 238.000000 0.629717 0.619641 -0.468509
0.74000001 2.47000003 -0.41999999 81 209 110 97.000000 1.000000 4.000000 1.000000 -60.708740 114.000000 238.000000 0.755223 -0.182295 -0.629608
0.75000000 2.43000007 -0.43000001 81 209 110 97.000000 1.000000 4.000000 1.000000 -60.708740 114.000000 238.000000 0.585002 -0.477724 -0.655403
0.69000000 2.45000005 -0.36000001 81 209 110 97.000000 1.000000 4.000000 1.000000 -60.708740 114.000000 238.000000 0.726870 0.300055 -0.617760
0.68000001 2.45000005 -0.37000000 81 209 110 97.000000 1.000000 4.000000 1.000000 -60.708740 114.000000 238.000000 -0.570613 -0.434198 0.697046
0.68000001 2.46000004 -0.37000000 81 209 110 97.000000 1.000000 4.000000 1.000000 -60.708740 114.000000 238.000000 -0.560964 -0.265554 0.784092
0.69999999 2.43000007 -0.38000000 81 209 110 97.000000 1.000000 4.000000 1.000000 -60.708740 114.000000 238.000000 0.633434 0.679502 -0.370189
0.69999999 2.43000007 -0.38000000 81 209 110 97.000000 1.000000 4.000000 1.000000 -60.708740 114.000000 238.000000 0.633434 0.679502 -0.370189
0.74000001 2.47000003 -0.49000001 81 209 110 97.000000 1.000000 4.000000 1.000000 -60.708740 114.000000 238.000000 0.805600 0.230392 -0.545829
0.68000001 2.43000007 -0.51999998 81 209 110 97.000000 1.000000 4.000000 1.000000 -60.708740 114.000000 238.000000 -0.563483 0.736611 0.374022
0.74000001 2.39000010 -0.44000000 81 209 110 97.000000 1.000000 4.000000 1.000000 -60.708740 114.000000 238.000000 -0.413970 0.868881 0.271431
0.64999998 2.46000004 -0.38000000 81 209 110 97.000000 1.000000 4.000000 1.000000 -60.708740 114.000000 238.000000 0.950901 0.196132 -0.239416
0.66000003 2.44000006 -0.38999999 81 209 110 97.000000 1.000000 4.000000 1.000000 -60.708740 114.000000 238.000000 0.615656 0.354369 -0.703840
0.63999999 2.44000006 -0.40000001 81 209 110 97.000000 1.000000 4.000000 1.000000 -60.708740 114.000000 238.000000 0.958751 0.236712 -0.157367
0.64999998 2.44000006 -0.44000000 81 209 110 97.000000 1.000000 4.000000 1.000000 -60.708740 114.000000 238.000000 0.760449 0.639367 0.113698
0.64999998 2.44000006 -0.44000000 81 209 110 97.000000 1.000000 4.000000 1.000000 -60.708740 114.000000 238.000000 0.760449 0.639367 0.113698
0.63000000 2.47000003 -0.44999999 81 209 110 97.000000 1.000000 4.000000 1.000000 -60.708740 114.000000 238.000000 0.730306 0.448782 -0.515023
0.63000000 2.47000003 -0.44000000 81 209 110 97.000000 1.000000 4.000000 1.000000 -60.708740 114.000000 238.000000 0.802066 0.285214 -0.524731
0.63000000 2.45000005 -0.49000001 81 209 110 97.000000 1.000000 4.000000 1.000000 -60.708740 114.000000 238.000000 0.681172 0.731734 -0.023876
0.62000000 2.47000003 -0.55000001 81 209 110 97.000000 1.000000 4.000000 1.000000 -60.708740 114.000000 238.000000 -0.315399 0.935177 0.161142
0.60000002 2.44000006 -0.55000001 81 209 110 97.000000 1.000000 4.000000 1.000000 -60.708740 114.000000 238.000000 0.262407 0.962994 -0.061521
0.62000000 2.47000003 -0.58999997 81 209 110 97.000000 1.000000 4.000000 1.000000 -60.708740 114.000000 238.000000 -0.620150 0.660052 0.423963
0.62000000 2.46000004 -0.58999997 81 209 110 97.000000 1.000000 4.000000 1.000000 -60.708740 114.000000 238.000000 -0.380351 0.877383 0.292461
0.47000000 2.65000010 -0.67000002 81 209 110 97.000000 1.000000 4.000000 1.000000 -60.708740 114.000000 238.000000 -0.149892 0.956389 0.250704
0.58999997 2.53999996 -0.46000001 81 209 110 97.000000 1.000000 4.000000 1.000000 -60.708740 114.000000 238.000000 0.451735 -0.555084 -0.698439
0.55000001 2.52999997 -0.47000000 81 209 110 97.000000 1.000000 4.000000 1.000000 -60.708740 114.000000 238.000000 0.838776 0.197271 -0.507482
0.57999998 2.52999997 -0.47999999 81 209 110 97.000000 1.000000 4.000000 1.000000 -60.708740 114.000000 238.000000 0.683471 -0.165921 -0.710871
0.58999997 2.53999996 -0.47999999 81 209 110 97.000000 1.000000 4.000000 1.000000 -60.708740 114.000000 238.000000 0.691713 -0.133541 -0.709718
0.57999998 2.54999995 -0.47999999 81 209 110 97.000000 1.000000 4.000000 1.000000 -60.708740 114.000000 238.000000 -0.453571 0.427560 0.781963
0.56999999 2.53999996 -0.50000000 81 209 110 97.000000 1.000000 4.000000 1.000000 -60.708740 114.000000 238.000000 -0.348726 0.361016 0.864903
0.56999999 2.53999996 -0.50000000 81 209 110 97.000000 1.000000 4.000000 1.000000 -60.708740 114.000000 238.000000 -0.348726 0.361016 0.864903
0.57999998 2.51999998 -0.46000001 81 209 110 97.000000 1.000000 4.000000 1.000000 -60.708740 114.000000 238.000000 -0.636350 0.528322 0.562081
0.58999997 2.50999999 -0.44000000 81 209 110 97.000000 1.000000 4.000000 1.000000 -60.708740 114.000000 238.000000 0.665727 -0.272996 -0.694464
0.56999999 2.48000002 -0.46000001 81 209 110 97.000000 1.000000 4.000000 1.000000 -60.708740 114.000000 238.000000 0.719334 0.456852 -0.523303
0.58999997 2.50000000 -0.47999999 81 209 110 97.000000 1.000000 4.000000 1.000000 -60.708740 114.000000 238.000000 0.786307 0.070437 -0.613808
0.57999998 2.48000002 -0.47000000 81 209 110 97.000000 1.000000 4.000000 1.000000 -60.708740 114.000000 238.000000 0.723811 0.675657 -0.139947
0.56999999 2.49000001 -0.47999999 81 209 110 97.000000 1.000000 4.000000 1.000000 -60.708740 114.000000 238.000000 0.898685 0.385983 -0.208285
0.56999999 2.49000001 -0.46000001 81 209 110 97.000000 1.000000 4.000000 1.000000 -60.708740 114.000000 238.000000 0.703826 0.035404 -0.709490
0.56999999 2.48000002 -0.50999999 81 209 110 97.000000 1.000000 4.000000 1.000000 -60.708740 114.000000 238.000000 0.700566 0.662440 -0.265294
0.56000000 2.50000000 -0.50000000 81 209 110 97.000000 1.000000 4.000000 1.000000 -60.708740 114.000000 238.000000 0.594016 0.583862 -0.553399
0.56000000 2.50000000 -0.49000001 81 209 110 97.000000 1.000000 4.000000 1.000000 -60.708740 114.000000 238.000000 -0.594076 -0.061260 0.802073
0.55000001 2.51999998 -0.49000001 81 209 110 97.000000 1.000000 4.000000 1.000000 -60.708740 114.000000 238.000000 0.781260 -0.201071 -0.590934
0.56999999 2.49000001 -0.49000001 81 209 110 97.000000 1.000000 4.000000 1.000000 -60.708740 114.000000 238.000000 0.951799 0.263719 -0.156625
0.56000000 2.50000000 -0.50000000 81 209 110 97.000000 1.000000 4.000000 1.000000 -60.708740 114.000000 238.000000 0.594016 0.583862 -0.553399
0.57999998 2.50999999 -0.49000001 81 209 110 97.000000 1.000000 4.000000 1.000000 -60.708740 114.000000 238.000000 0.602751 0.413458 -0.682454
0.51999998 2.53999996 -0.51999998 81 209 110 97.000000 1.000000 4.000000 1.000000 -60.708740 114.000000 238.000000 0.779986 0.348983 -0.519454
0.52999997 2.50999999 -0.50999999 81 209 110 97.000000 1.000000 4.000000 1.000000 -60.708740 114.000000 238.000000 0.782489 0.487638 -0.387194
0.58999997 2.60999990 -0.56999999 81 209 110 97.000000 1.000000 4.000000 1.000000 -60.708740 114.000000 238.000000 0.173784 0.984778 0.003408
0.55000001 2.58999991 -0.60000002 81 209 110 97.000000 1.000000 4.000000 1.000000 -60.708740 114.000000 238.000000 0.435206 0.883512 0.173209
0.52999997 2.56999993 -0.55000001 81 209 110 97.000000 1.000000 4.000000 1.000000 -60.708740 114.000000 238.000000 0.594016 -0.583862 -0.553399
0.54000002 2.56999993 -0.56999999 81 209 110 97.000000 1.000000 4.000000 1.000000 -60.708740 114.000000 238.000000 -0.281824 0.350416 0.893188
0.55000001 2.60999990 -0.63999999 81 209 110 97.000000 1.000000 4.000000 1.000000 -60.708740 114.000000 238.000000 0.189308 0.978295 0.084273
0.55000001 2.59999990 -0.62000000 81 209 110 97.000000 1.000000 4.000000 1.000000 -60.708740 114.000000 238.000000 0.083530 0.971196 0.223163
0.56999999 2.59999990 -0.64999998 81 209 110 97.000000 1.000000 4.000000 1.000000 -60.708740 114.000000 238.000000 0.851084 0.427859 -0.304290
0.56999999 2.57999992 -0.67000002 81 209 110 97.000000 1.000000 4.000000 1.000000 -60.708740 114.000000 238.000000 0.749651 0.459676 -0.476152
0.56000000 2.59999990 -0.66000003 81 209 110 97.000000 1.000000 4.000000 1.000000 -60.708740 114.000000 238.000000 0.879985 0.440725 -0.177168
0.58999997 2.58999991 -0.69000000 81 209 110 97.000000 1.000000 4.000000 1.000000 -60.708740 114.000000 238.000000 0.861505 -0.157038 -0.482854
0.50999999 2.61999989 -0.62000000 81 209 110 97.000000 1.000000 4.000000 1.000000 -60.708740 114.000000 238.000000 -0.115362 0.982396 0.146934
0.55000001 2.55999994 -0.56000000 81 209 110 97.000000 1.000000 4.000000 1.000000 -60.708740 114.000000 238.000000 0.595335 -0.435245 -0.675380
0.56999999 2.49000001 -0.55000001 81 209 110 97.000000 1.000000 4.000000 1.000000 -60.708740 114.000000 238.000000 0.741044 0.670198 -0.041090
0.54000002 2.54999995 -0.52999997 81 209 110 97.000000 1.000000 4.000000 1.000000 -60.708740 114.000000 238.000000 0.854192 0.135332 -0.502038
0.51999998 2.55999994 -0.54000002 81 209 110 97.000000 1.000000 4.000000 1.000000 -60.708740 114.000000 238.000000 -0.584988 -0.157902 0.795523
0.51999998 2.52999997 -0.57999998 81 209 110 97.000000 1.000000 4.000000 1.000000 -60.708740 114.000000 238.000000 0.456686 0.674155 -0.580476
0.50999999 2.49000001 -0.56000000 81 209 110 97.000000 1.000000 4.000000 1.000000 -60.708740 114.000000 238.000000 0.485332 0.733795 -0.475393
0.51999998 2.49000001 -0.55000001 81 209 110 97.000000 1.000000 4.000000 1.000000 -60.708740 114.000000 238.000000 0.597530 0.724526 -0.343539
0.52999997 2.50999999 -0.56999999 81 209 110 97.000000 1.000000 4.000000 1.000000 -60.708740 114.000000 238.000000 0.706239 0.405219 -0.580538
0.56000000 2.54999995 -0.63000000 81 209 110 97.000000 1.000000 4.000000 1.000000 -60.708740 114.000000 238.000000 0.650899 -0.038122 -0.758206
0.56999999 2.55999994 -0.68000001 81 209 110 97.000000 1.000000 4.000000 1.000000 -60.708740 114.000000 238.000000 0.710633 -0.079928 -0.699008
0.56999999 2.53999996 -0.66000003 81 209 110 97.000000 1.000000 4.000000 1.000000 -60.708740 114.000000 238.000000 -0.773112 0.276676 0.570743
0.55000001 2.48000002 -0.62000000 81 209 110 97.000000 1.000000 4.000000 1.000000 -60.708740 114.000000 238.000000 0.419586 0.903829 0.083917
0.50999999 2.50999999 -0.61000001 81 209 110 97.000000 1.000000 4.000000 1.000000 -60.708740 114.000000 238.000000 0.790999 0.588334 0.167879
0.50999999 2.49000001 -0.62000000 81 209 110 97.000000 1.000000 4.000000 1.000000 -60.708740 114.000000 238.000000 0.333782 0.904299 -0.266143
0.47999999 2.56999993 -0.57999998 81 209 110 97.000000 1.000000 4.000000 1.000000 -60.708740 114.000000 238.000000 -0.502994 0.214266 0.837310
0.44999999 2.57999992 -0.58999997 81 209 110 97.000000 1.000000 4.000000 1.000000 -60.708740 114.000000 238.000000 -0.527795 0.215708 0.821525
0.49000001 2.56999993 -0.55000001 81 209 110 97.000000 1.000000 4.000000 1.000000 -60.708740 114.000000 238.000000 -0.642124 -0.070706 0.763333
0.50000000 2.57999992 -0.58999997 81 209 110 97.000000 1.000000 4.000000 1.000000 -60.708740 114.000000 238.000000 0.727868 -0.364752 -0.580659
0.47000000 2.64000010 -0.68000001 81 209 110 97.000000 1.000000 4.000000 1.000000 -60.708740 114.000000 238.000000 -0.082842 0.983294 0.162081
0.49000001 2.55999994 -0.58999997 81 209 110 97.000000 1.000000 4.000000 1.000000 -60.708740 114.000000 238.000000 0.761831 0.079811 -0.642840
0.49000001 2.52999997 -0.57999998 81 209 110 97.000000 1.000000 4.000000 1.000000 -60.708740 114.000000 238.000000 0.862318 0.474792 -0.176013
0.49000001 2.51999998 -0.58999997 81 209 110 97.000000 1.000000 4.000000 1.000000 -60.708740 114.000000 238.000000 0.466802 0.764901 -0.443872
0.50000000 2.49000001 -0.60000002 81 209 110 97.000000 1.000000 4.000000 1.000000 -60.708740 114.000000 238.000000 0.328980 0.870651 -0.365704
0.44999999 2.52999997 -0.58999997 81 209 110 97.000000 1.000000 4.000000 1.000000 -60.708740 114.000000 238.000000 0.700155 0.621816 -0.350894
0.46000001 2.54999995 -0.57999998 81 209 110 97.000000 1.000000 4.000000 1.000000 -60.708740 114.000000 238.000000 0.762715 0.123402 -0.634852
0.46000001 2.50999999 -0.55000001 81 209 110 97.000000 1.000000 4.000000 1.000000 -60.708740 114.000000 238.000000 0.807544 0.112851 -0.578911
0.50000000 2.48000002 -0.61000001 81 209 110 97.000000 1.000000 4.000000 1.000000 -60.708740 114.000000 238.000000 0.411457 0.849310 -0.330719
0.46000001 2.52999997 -0.67000002 81 209 110 97.000000 1.000000 4.000000 1.000000 -60.708740 114.000000 238.000000 0.660818 0.743236 -0.104495
0.46000001 2.52999997 -0.69000000 81 209 110 97.000000 1.000000 4.000000 1.000000 -60.708740 114.000000 238.000000 0.588185 0.697537 0.409244
0.46000001 2.52999997 -0.67000002 81 209 110 97.000000 1.000000 4.000000 1.000000 -60.708740 114.000000 238.000000 0.660818 0.743236 -0.104495
0.43000001 2.54999995 -0.67000002 81 209 110 97.000000 1.000000 4.000000 1.000000 -60.708740 114.000000 238.000000 0.420363 0.797240 -0.433248
0.44999999 2.50000000 -0.63000000 81 209 110 97.000000 1.000000 4.000000 1.000000 -60.708740 114.000000 238.000000 0.422485 0.867685 -0.261971
0.46000001 2.51999998 -0.68000001 81 209 110 97.000000 1.000000 4.000000 1.000000 -60.708740 114.000000 238.000000 0.387877 0.919362 0.065765
0.57999998 2.46000004 -0.50000000 81 209 110 97.000000 1.000000 4.000000 1.000000 -60.708740 114.000000 238.000000 0.370874 0.879501 -0.298213
0.55000001 2.47000003 -0.54000002 81 209 110 97.000000 1.000000 4.000000 1.000000 -60.708740 114.000000 238.000000 0.504209 0.823801 -0.259086
0.56000000 2.46000004 -0.57999998 81 209 110 97.000000 1.000000 4.000000 1.000000 -60.708740 114.000000 238.000000 0.536889 0.841267 0.063412
0.56000000 2.46000004 -0.57999998 81 209 110 97.000000 1.000000 4.000000 1.000000 -60.708740 114.000000 238.000000 0.536889 0.841267 0.063412
0.41000000 2.63000011 -0.67000002 81 209 110 97.000000 1.000000 4.000000 1.000000 -60.708740 114.000000 238.000000 -0.467010 0.149851 0.871462
0.40000001 2.57999992 -0.63999999 81 209 110 97.000000 1.000000 4.000000 1.000000 -60.708740 114.000000 238.000000 -0.601752 0.049556 0.797144
0.41999999 2.59999990 -0.68000001 81 209 110 97.000000 1.000000 4.000000 1.000000 -60.708740 114.000000 238.000000 -0.542800 -0.272187 0.794533
0.41000000 2.59999990 -0.69000000 81 209 110 97.000000 1.000000 4.000000 1.000000 -60.708740 114.000000 238.000000 0.934901 0.256502 -0.245289
0.38999999 2.57999992 -0.67000002 81 209 110 97.000000 1.000000 4.000000 1.000000 -60.708740 114.000000 238.000000 0.943365 0.188124 -0.273260
0.38000000 2.57999992 -0.69000000 81 209 110 97.000000 1.000000 4.000000 1.000000 -60.708740 114.000000 238.000000 0.587617 0.700175 -0.405539
0.36000001 2.56999993 -0.69000000 81 209 110 97.000000 1.000000 4.000000 1.000000 -60.708740 114.000000 238.000000 0.650750 0.337607 -0.680107
0.38000000 2.58999991 -0.69000000 81 209 110 97.000000 1.000000 4.000000 1.000000 -60.708740 114.000000 238.000000 0.651781 0.387768 -0.651781
0.41999999 2.52999997 -0.67000002 81 209 110 97.000000 1.000000 4.000000 1.000000 -60.708740 114.000000 238.000000 0.640219 0.744619 0.188842
0.41999999 2.54999995 -0.68000001 81 209 110 97.000000 1.000000 4.000000 1.000000 -60.708740 114.000000 238.000000 0.842282 0.384281 -0.378007
0.41999999 2.54999995 -0.69000000 81 209 110 97.000000 1.000000 4.000000 1.000000 -60.708740 114.000000 238.000000 0.890946 0.452864 0.033595
0.49000001 2.65000010 -0.75000000 81 209 110 97.000000 1.000000 4.000000 1.000000 -60.708740 114.000000 238.000000 0.517095 0.793939 -0.319803
0.44000000 2.68000007 -0.75000000 81 209 110 97.000000 1.000000 4.000000 1.000000 -60.708740 114.000000 238.000000 0.449234 0.857353 0.251267
0.43000001 2.65000010 -0.80000001 81 209 110 97.000000 1.000000 4.000000 1.000000 -60.708740 114.000000 238.000000 0.692111 0.268889 -0.669836
0.44999999 2.66000009 -0.73000002 81 209 110 97.000000 1.000000 4.000000 1.000000 -60.708740 114.000000 238.000000 0.112559 0.989826 0.087030
0.44999999 2.65000010 -0.72000003 81 209 110 97.000000 1.000000 4.000000 1.000000 -60.708740 114.000000 238.000000 -0.042412 0.973063 0.226604
0.37000000 2.65000010 -0.76999998 81 209 110 97.000000 1.000000 4.000000 1.000000 -60.708740 114.000000 238.000000 -0.405061 0.171538 0.898053
0.34999999 2.65000010 -0.74000001 81 209 110 97.000000 1.000000 4.000000 1.000000 -60.708740 114.000000 238.000000 0.805022 -0.233317 -0.545437
0.36000001 2.65000010 -0.76999998 81 209 110 97.000000 1.000000 4.000000 1.000000 -60.708740 114.000000 238.000000 0.657231 -0.297281 -0.692583
0.34999999 2.65000010 -0.74000001 81 209 110 97.000000 1.000000 4.000000 1.000000 -60.708740 114.000000 238.000000 0.805022 -0.233317 -0.545437
0.41000000 2.69000006 -0.79000002 81 209 110 97.000000 1.000000 4.000000 1.000000 -60.708740 114.000000 238.000000 0.096526 0.985517 -0.139426
0.40000001 2.66000009 -0.79000002 81 209 110 97.000000 1.000000 4.000000 1.000000 -60.708740 114.000000 238.000000 0.173213 0.945168 0.276867
0.40000001 2.68000007 -0.80000001 81 209 110 97.000000 1.000000 4.000000 1.000000 -60.708740 114.000000 238.000000 0.055481 0.970293 0.235484
0.36000001 2.70000005 -0.83999997 81 209 110 97.000000 1.000000 4.000000 1.000000 -60.708740 114.000000 238.000000 0.212249 0.894374 0.393759
0.34999999 2.66000009 -0.79000002 81 209 110 97.000000 1.000000 4.000000 1.000000 -60.708740 114.000000 238.000000 -0.685354 0.061782 0.725584
0.31999999 2.65000010 -0.74000001 81 209 110 97.000000 1.000000 4.000000 1.000000 -60.708740 114.000000 238.000000 -0.605789 -0.026460 0.795185
0.33000001 2.67000008 -0.76999998 81 209 110 97.000000 1.000000 4.000000 1.000000 -60.708740 114.000000 238.000000 -0.741798 0.480765 0.467548
0.31000000 2.67000008 -0.79000002 81 209 110 97.000000 1.000000 4.000000 1.000000 -60.708740 114.000000 238.000000 -0.479613 -0.125304 0.868488
0.33000001 2.65000010 -0.79000002 81 209 110 97.000000 1.000000 4.000000 1.000000 -60.708740 114.000000 238.000000 0.820422 0.480285 -0.310217
0.31000000 2.67000008 -0.81000000 81 209 110 97.000000 1.000000 4.000000 1.000000 -60.708740 114.000000 238.000000 0.873977 0.085574 -0.478373
0.33000001 2.66000009 -0.79000002 81 209 110 97.000000 1.000000 4.000000 1.000000 -60.708740 114.000000 238.000000 0.968509 0.001191 -0.248977
0.27000001 2.71000004 -0.82999998 81 209 110 97.000000 1.000000 4.000000 1.000000 -60.708740 114.000000 238.000000 0.726333 0.080057 -0.682665
0.28000000 2.69000006 -0.82999998 81 209 110 97.000000 1.000000 4.000000 1.000000 -60.708740 114.000000 238.000000 0.683750 -0.237348 -0.690037
0.28999999 2.66000009 -0.81000000 81 209 110 97.000000 1.000000 4.000000 1.000000 -60.708740 114.000000 238.000000 0.873427 -0.097677 -0.477058
0.28999999 2.67000008 -0.81000000 81 209 110 97.000000 1.000000 4.000000 1.000000 -60.708740 114.000000 238.000000 0.826280 -0.302603 -0.475072
0.38999999 2.69000006 -0.88000000 81 209 110 97.000000 1.000000 4.000000 1.000000 -60.708740 114.000000 238.000000 0.731966 0.310482 -0.606486
0.38999999 2.66000009 -0.88000000 81 209 110 97.000000 1.000000 4.000000 1.000000 -60.708740 114.000000 238.000000 0.880361 -0.118045 -0.459380
0.38999999 2.66000009 -0.91000003 81 209 110 97.000000 1.000000 4.000000 1.000000 -60.708740 114.000000 238.000000 0.811518 -0.067032 -0.580470
0.36000001 2.71000004 -0.86000001 81 209 110 97.000000 1.000000 4.000000 1.000000 -60.708740 114.000000 238.000000 0.140706 0.966869 0.212995
0.34999999 2.72000003 -0.93000001 81 209 110 97.000000 1.000000 4.000000 1.000000 -60.708740 114.000000 238.000000 0.562810 0.738994 -0.370313
0.36000001 2.70000005 -0.93000001 81 209 110 97.000000 1.000000 4.000000 1.000000 -60.708740 114.000000 238.000000 0.914618 0.041151 -0.402220
0.34000000 2.65000010 -0.95999998 81 209 110 97.000000 1.000000 4.000000 1.000000 -60.708740 114.000000 238.000000 -0.669324 0.679001 0.301599
0.34000000 2.70000005 -0.97000003 81 209 110 97.000000 1.000000 4.000000 1.000000 -60.708740 114.000000 238.000000 0.846091 0.004048 -0.533024
0.28999999 2.75999999 -0.94000000 81 209 110 97.000000 1.000000 4.000000 1.000000 -60.708740 114.000000 238.000000 0.498706 0.837277 -0.224189
0.25999999 2.74000001 -0.93000001 81 209 110 97.000000 1.000000 4.000000 1.000000 -60.708740 114.000000 238.000000 -0.269588 0.903047 0.334407
0.30000001 2.74000001 -0.92000002 81 209 110 97.000000 1.000000 4.000000 1.000000 -60.708740 114.000000 238.000000 0.394557 0.751459 0.528804
0.31000000 2.75000000 -0.98000002 81 209 110 97.000000 1.000000 4.000000 1.000000 -60.708740 114.000000 238.000000 0.665294 0.743225 -0.070715
0.28000000 2.74000001 -0.94999999 81 209 110 97.000000 1.000000 4.000000 1.000000 -60.708740 114.000000 238.000000 0.521690 0.824607 -0.218773
0.25999999 2.77999997 -0.95999998 81 209 110 97.000000 1.000000 4.000000 1.000000 -60.708740 114.000000 238.000000 0.246168 0.812819 0.527945
0.25999999 2.77999997 -0.99000001 81 209 110 97.000000 1.000000 4.000000 1.000000 -60.708740 114.000000 238.000000 0.164570 0.986286 -0.012485
0.31999999 2.72000003 -0.88000000 81 209 110 97.000000 1.000000 4.000000 1.000000 -60.708740 114.000000 238.000000 0.293920 0.835105 0.464984
0.27000001 2.72000003 -0.86000001 81 209 110 97.000000 1.000000 4.000000 1.000000 -60.708740 114.000000 238.000000 0.843702 -0.312310 -0.436612
0.25999999 2.70000005 -0.87000000 81 209 110 97.000000 1.000000 4.000000 1.000000 -60.708740 114.000000 238.000000 0.779394 -0.366299 -0.508301
0.27000001 2.71000004 -0.86000001 81 209 110 97.000000 1.000000 4.000000 1.000000 -60.708740 114.000000 238.000000 0.917030 -0.170972 -0.360312
0.25999999 2.67000008 -0.87000000 81 209 110 97.000000 1.000000 4.000000 1.000000 -60.708740 114.000000 238.000000 0.742101 0.288861 -0.604852
0.25999999 2.67000008 -0.87000000 81 209 110 97.000000 1.000000 4.000000 1.000000 -60.708740 114.000000 238.000000 0.742101 0.288861 -0.604852
0.25999999 2.68000007 -0.91000003 81 209 110 97.000000 1.000000 4.000000 1.000000 -60.708740 114.000000 238.000000 0.715358 0.698690 -0.009723
0.25999999 2.75000000 -1.02999997 81 209 110 97.000000 1.000000 4.000000 1.000000 -60.708740 114.000000 238.000000 0.931496 0.089799 -0.352494
0.51999998 2.58999991 -0.75000000 81 209 110 97.000000 1.000000 4.000000 1.000000 -60.708740 114.000000 238.000000 0.861032 0.101382 -0.498342
0.50999999 2.63000011 -0.69999999 81 209 110 97.000000 1.000000 4.000000 1.000000 -60.708740 114.000000 238.000000 0.350935 0.931793 -0.092776
0.50999999 2.57999992 -0.75999999 81 209 110 97.000000 1.000000 4.000000 1.000000 -60.708740 114.000000 238.000000 0.842770 -0.045969 -0.536308
0.56000000 2.57999992 -0.72000003 81 209 110 97.000000 1.000000 4.000000 1.000000 -60.708740 114.000000 238.000000 0.867758 0.249009 -0.430106
0.50000000 2.61999989 -0.73000002 81 209 110 97.000000 1.000000 4.000000 1.000000 -60.708740 114.000000 238.000000 0.480838 0.551205 -0.681886
0.49000001 2.63000011 -0.73000002 81 209 110 97.000000 1.000000 4.000000 1.000000 -60.708740 114.000000 238.000000 0.532654 0.485900 -0.692951
0.47999999 2.60999990 -0.75000000 81 209 110 97.000000 1.000000 4.000000 1.000000 -60.708740 114.000000 238.000000 0.842794 -0.401852 -0.358070
0.47999999 2.63000011 -0.77999997 81 209 110 97.000000 1.000000 4.000000 1.000000 -60.708740 114.000000 238.000000 0.856827 0.345520 -0.382706
0.44000000 2.52999997 -0.69999999 81 209 110 97.000000 1.000000 4.000000 1.000000 -60.708740 114.000000 238.000000 0.576329 0.816349 -0.037678
0.43000001 2.54999995 -0.69999999 81 209 110 97.000000 1.000000 4.000000 1.000000 -60.708740 114.000000 238.000000 0.704014 0.652929 0.279371
0.44000000 2.53999996 -0.69999999 81 209 110 97.000000 1.000000 4.000000 1.000000 -60.708740 114.000000 238.000000 0.517999 0.784215 -0.341591
0.44999999 2.52999997 -0.74000001 81 209 110 97.000000 1.000000 4.000000 1.000000 -60.708740 114.000000 238.000000 0.000978 0.999999 -0.000978
0.46000001 2.50000000 -0.73000002 81 209 110 97.000000 1.000000 4.000000 1.000000 -60.708740 114.000000 238.000000 0.423793 0.892121 0.156588
0.46000001 2.54999995 -0.79000002 81 209 110 97.000000 1.000000 4.000000 1.000000 -60.708740 114.000000 238.000000 -0.149349 0.935828 0.319250
0.40000001 2.60999990 -0.70999998 81 209 110 97.000000 1.000000 4.000000 1.000000 -60.708740 114.000000 238.000000 0.674890 0.369465 -0.638764
0.34999999 2.61999989 -0.69999999 81 209 110 97.000000 1.000000 4.000000 1.000000 -60.708740 114.000000 238.000000 0.855063 0.101691 -0.508455
0.36000001 2.63000011 -0.75999999 81 209 110 97.000000 1.000000 4.000000 1.000000 -60.708740 114.000000 238.000000 0.902202 0.282030 -0.326328
0.34000000 2.64000010 -0.76999998 81 209 110 97.000000 1.000000 4.000000 1.000000 -60.708740 114.000000 238.000000 0.693675 0.234371 -0.681091
0.36000001 2.64000010 -0.75000000 81 209 110 97.000000 1.000000 4.000000 1.000000 -60.708740 114.000000 238.000000 -0.627839 0.152067 0.763344
0.34000000 2.60999990 -0.75000000 81 209 110 97.000000 1.000000 4.000000 1.000000 -60.708740 114.000000 238.000000 0.667670 0.523036 -0.529764
0.36000001 2.57999992 -0.70999998 81 209 110 97.000000 1.000000 4.000000 1.000000 -60.708740 114.000000 238.000000 0.658275 0.597975 -0.457275
0.36000001 2.59999990 -0.72000003 81 209 110 97.000000 1.000000 4.000000 1.000000 -60.708740 114.000000 238.000000 0.606285 0.692190 -0.391525
0.37000000 2.58999991 -0.73000002 81 209 110 97.000000 1.000000 4.000000 1.000000 -60.708740 114.000000 238.000000 0.915565 0.165566 -0.366509
0.37000000 2.56999993 -0.70999998 81 209 110 97.000000 1.000000 4.000000 1.000000 -60.708740 114.000000 238.000000 0.677246 0.719668 -0.153024
0.37000000 2.58999991 -0.73000002 81 209 110 97.000000 1.000000 4.000000 1.000000 -60.708740 114.000000 238.000000 0.915565 0.165566 -0.366509
0.34999999 2.57999992 -0.75999999 81 209 110 97.000000 1.000000 4.000000 1.000000 -60.708740 114.000000 238.000000 0.492992 0.866598 0.077249
0.38000000 2.57999992 -0.75000000 81 209 110 97.000000 1.000000 4.000000 1.000000 -60.708740 114.000000 238.000000 0.270597 0.935173 -0.228536
0.34000000 2.56999993 -0.76999998 81 209 110 97.000000 1.000000 4.000000 1.000000 -60.708740 114.000000 238.000000 0.781188 0.620650 0.067369
0.36000001 2.56999993 -0.75000000 81 209 110 97.000000 1.000000 4.000000 1.000000 -60.708740 114.000000 238.000000 0.601568 0.786666 0.138823
0.34000000 2.59999990 -0.75999999 81 209 110 97.000000 1.000000 4.000000 1.000000 -60.708740 114.000000 238.000000 0.948846 0.221896 -0.224619
0.34000000 2.59999990 -0.75999999 81 209 110 97.000000 1.000000 4.000000 1.000000 -60.708740 114.000000 238.000000 0.948846 0.221896 -0.224619
0.34999999 2.57999992 -0.76999998 81 209 110 97.000000 1.000000 4.000000 1.000000 -60.708740 114.000000 238.000000 0.749433 0.643453 -0.155943
0.38999999 2.56999993 -0.83999997 81 209 110 97.000000 1.000000 4.000000 1.000000 -60.708740 114.000000 238.000000 0.122861 0.988741 0.085418
0.38999999 2.56999993 -0.85000002 81 209 110 97.000000 1.000000 4.000000 1.000000 -60.708740 114.000000 238.000000 0.060099 0.972630 0.224453
0.38000000 2.56999993 -0.83999997 81 209 110 97.000000 1.000000 4.000000 1.000000 -60.708740 114.000000 238.000000 0.449634 0.845188 0.288940
0.34000000 2.58999991 -0.85000002 81 209 110 97.000000 1.000000 4.000000 1.000000 -60.708740 114.000000 238.000000 0.575130 0.763123 0.294734
0.37000000 2.56999993 -0.85000002 81 209 110 97.000000 1.000000 4.000000 1.000000 -60.708740 114.000000 238.000000 0.014953 0.999876 0.004984
0.34000000 2.58999991 -0.85000002 81 209 110 97.000000 1.000000 4.000000 1.000000 -60.708740 114.000000 238.000000 0.575130 0.763123 0.294734
0.41999999 2.55999994 -0.73000002 81 209 110 97.000000 1.000000 4.000000 1.000000 -60.708740 114.000000 238.000000 0.702042 0.660651 -0.265852
0.40000001 2.55999994 -0.69999999 81 209 110 97.000000 1.000000 4.000000 1.000000 -60.708740 114.000000 238.000000 0.379427 0.820768 -0.427054
0.41999999 2.55999994 -0.70999998 81 209 110 97.000000 1.000000 4.000000 1.000000 -60.708740 114.000000 238.000000 0.278646 0.938524 -0.203786
0.40000001 2.55999994 -0.75000000 81 209 110 97.000000 1.000000 4.000000 1.000000 -60.708740 114.000000 238.000000 0.523246 0.761234 -0.383062
0.40000001 2.52999997 -0.76999998 81 209 110 97.000000 1.000000 4.000000 1.000000 -60.708740 114.000000 238.000000 0.484727 0.863193 0.141197
0.41000000 2.55999994 -0.75000000 81 209 110 97.000000 1.000000 4.000000 1.000000 -60.708740 114.000000 238.000000 0.305379 0.932871 -0.191036
0.40000001 2.55999994 -0.75000000 81 209 110 97.000000 1.000000 4.000000 1.000000 -60.708740 114.000000 238.000000 0.523246 0.761234 -0.383062
0.40000001 2.54999995 -0.76999998 81 209 110 97.000000 1.000000 4.000000 1.000000 -60.708740 114.000000 238.000000 0.023063 0.999721 0.005014
0.41999999 2.50999999 -0.69999999 81 209 110 97.000000 1.000000 4.000000 1.000000 -60.708740 114.000000 238.000000 0.788579 0.592565 0.164350
0.41000000 2.51999998 -0.76999998 81 209 110 97.000000 1.000000 4.000000 1.000000 -60.708740 114.000000 238.000000 0.400341 0.913321 -0.074640
0.38000000 2.54999995 -0.73000002 81 209 110 97.000000 1.000000 4.000000 1.000000 -60.708740 114.000000 238.000000 0.660710 0.650824 -0.374018
0.34000000 2.55999994 -0.76999998 81 209 110 97.000000 1.000000 4.000000 1.000000 -60.708740 114.000000 238.000000 0.560654 0.828022 0.006821
0.34999999 2.54999995 -0.75999999 81 209 110 97.000000 1.000000 4.000000 1.000000 -60.708740 114.000000 238.000000 0.805060 0.553575 -0.213149
0.36000001 2.55999994 -0.76999998 81 209 110 97.000000 1.000000 4.000000 1.000000 -60.708740 114.000000 238.000000 0.184043 0.982721 -0.019678
0.36000001 2.54999995 -0.81000000 81 209 110 97.000000 1.000000 4.000000 1.000000 -60.708740 114.000000 238.000000 0.545923 0.812004 -0.206442
0.37000000 2.54999995 -0.79000002 81 209 110 97.000000 1.000000 4.000000 1.000000 -60.708740 114.000000 238.000000 0.135383 0.981834 -0.132944
0.34999999 2.55999994 -0.77999997 81 209 110 97.000000 1.000000 4.000000 1.000000 -60.708740 114.000000 238.000000 0.358810 0.931854 -0.053887
0.31000000 2.63000011 -0.75999999 81 209 110 97.000000 1.000000 4.000000 1.000000 -60.708740 114.000000 238.000000 0.791586 -0.174058 -0.585743
0.31000000 2.61999989 -0.75999999 81 209 110 97.000000 1.000000 4.000000 1.000000 -60.708740 114.000000 238.000000 0.722848 0.480237 -0.496854
0.30000001 2.60999990 -0.79000002 81 209 110 97.000000 1.000000 4.000000 1.000000 -60.708740 114.000000 238.000000 0.754823 0.603543 -0.256860
0.31999999 2.64000010 -0.80000001 81 209 110 97.000000 1.000000 4.000000 1.000000 -60.708740 114.000000 238.000000 0.806018 0.009612 -0.591812
0.31999999 2.59999990 -0.79000002 81 209 110 97.000000 1.000000 4.000000 1.000000 -60.708740 114.000000 238.000000 0.790467 0.501858 -0.351141
0.31999999 2.57999992 -0.77999997 81 209 110 97.000000 1.000000 4.000000 1.000000 -60.708740 114.000000 238.000000 0.871894 0.485313 -0.065357
0.33000001 2.59999990 -0.81000000 81 209 110 97.000000 1.000000 4.000000 1.000000 -60.708740 114.000000 238.000000 0.584843 0.811146 -0.001363
0.30000001 2.59999990 -0.85000002 81 209 110 97.000000 1.000000 4.000000 1.000000 -60.708740 114.000000 238.000000 0.174474 0.971708 -0.159192
0.33000001 2.58999991 -0.83999997 81 209 110 97.000000 1.000000 4.000000 1.000000 -60.708740 114.000000 238.000000 0.193075 0.970487 0.144486
0.31000000 2.59999990 -0.85000002 81 209 110 97.000000 1.000000 4.000000 1.000000 -60.708740 114.000000 238.000000 0.551442 0.806427 -0.213511
0.28999999 2.64000010 -0.80000001 81 209 110 97.000000 1.000000 4.000000 1.000000 -60.708740 114.000000 238.000000 0.689177 0.143264 -0.710289
0.27000001 2.64000010 -0.82999998 81 209 110 97.000000 1.000000 4.000000 1.000000 -60.708740 114.000000 238.000000 0.583289 0.423757 -0.692967
