//X Y Z R G B PointSourceId ScanDirectionFlag NumberOfReturns ReturnNumber GpsTime Intensity Classification Nx Ny Nz
-2.45000005 2.18000007 -0.36000001 125 116 135 97.000000 1.000000 4.000000 1.000000 -60.708740 114.000000 229.000000 -0.281557 0.945325 -0.164582
-2.46000004 2.17000008 -0.37000000 125 116 135 97.000000 1.000000 4.000000 1.000000 -60.708740 114.000000 229.000000 0.797053 -0.597428 -0.088240
-2.44000006 2.16000009 -0.38000000 125 116 135 97.000000 1.000000 4.000000 1.000000 -60.708740 114.000000 229.000000 -0.251544 0.901733 -0.351573
-2.47000003 2.17000008 -0.41000000 125 116 135 97.000000 1.000000 4.000000 1.000000 -60.708740 114.000000 229.000000 0.817161 -0.571011 -0.078711
-2.49000001 2.17000008 -0.38999999 125 116 135 97.000000 1.000000 4.000000 1.000000 -60.708740 114.000000 229.000000 0.853351 -0.413511 -0.317490
-2.48000002 2.15000010 -0.41999999 125 116 135 97.000000 1.000000 4.000000 1.000000 -60.708740 114.000000 229.000000 0.987583 -0.143415 -0.064129
-2.49000001 2.15000010 -0.43000001 125 116 135 97.000000 1.000000 4.000000 1.000000 -60.708740 114.000000 229.000000 0.932567 -0.188186 -0.308068
-2.46000004 2.16000009 -0.47999999 125 116 135 97.000000 1.000000 4.000000 1.000000 -60.708740 114.000000 229.000000 -0.495647 0.859795 0.122828
-2.44000006 2.15000010 -0.47999999 125 116 135 97.000000 1.000000 4.000000 1.000000 -60.708740 114.000000 229.000000 0.145123 0.981717 -0.123172
-2.44000006 2.16000009 -0.46000001 125 116 135 97.000000 1.000000 4.000000 1.000000 -60.708740 114.000000 229.000000 0.066688 0.978491 -0.195213
-2.45000005 2.17000008 -0.47999999 125 116 135 97.000000 1.000000 4.000000 1.000000 -60.708740 114.000000 229.000000 -0.035572 0.987997 -0.150322
-2.46000004 2.17000008 -0.47999999 125 116 135 97.000000 1.000000 4.000000 1.000000 -60.708740 114.000000 229.000000 -0.202345 0.964726 -0.168403
-2.46000004 2.16000009 -0.44999999 125 116 135 97.000000 1.000000 4.000000 1.000000 -60.708740 114.000000 229.000000 -0.215823 0.955786 -0.199736
-2.46000004 2.17000008 -0.49000001 125 116 135 97.000000 1.000000 4.000000 1.000000 -60.708740 114.000000 229.000000 -0.213449 0.966344 0.143593
-2.50000000 2.16000009 -0.47999999 125 116 135 97.000000 1.000000 4.000000 1.000000 -60.708740 114.000000 229.000000 0.723123 -0.616829 -0.310830
-2.48000002 2.16000009 -0.50000000 125 116 135 97.000000 1.000000 4.000000 1.000000 -60.708740 114.000000 229.000000 -0.643368 0.666404 0.376806
-2.45000005 2.16000009 -0.56000000 125 116 135 97.000000 1.000000 4.000000 1.000000 -60.708740 114.000000 229.000000 0.130093 0.988004 0.083213
-2.45000005 2.18000007 -0.54000002 125 116 135 97.000000 1.000000 4.000000 1.000000 -60.708740 114.000000 229.000000 0.391075 0.901927 -0.183271
-2.47000003 2.16000009 -0.57999998 125 116 135 97.000000 1.000000 4.000000 1.000000 -60.708740 114.000000 229.000000 0.133227 0.990807 -0.023511
-2.44000006 2.15000010 -0.58999997 125 116 135 97.000000 1.000000 4.000000 1.000000 -60.708740 114.000000 229.000000 0.520801 0.755895 -0.396723
-2.45000005 2.17000008 -0.57999998 125 116 135 97.000000 1.000000 4.000000 1.000000 -60.708740 114.000000 229.000000 0.316862 0.928052 -0.195750
-2.46000004 2.16000009 -0.57999998 125 116 135 97.000000 1.000000 4.000000 1.000000 -60.708740 114.000000 229.000000 -0.125190 0.988649 -0.083070
-2.48000002 2.19000006 -0.52999997 125 116 135 97.000000 1.000000 4.000000 1.000000 -60.708740 114.000000 229.000000 -0.310312 0.904464 0.292664
-2.48000002 2.16000009 -0.56000000 125 116 135 97.000000 1.000000 4.000000 1.000000 -60.708740 114.000000 229.000000 0.693895 -0.687658 -0.213626
-2.49000001 2.18000007 -0.58999997 125 116 135 97.000000 1.000000 4.000000 1.000000 -60.708740 114.000000 229.000000 -0.562148 0.809312 -0.170302
-2.50000000 2.18000007 -0.56999999 125 116 135 97.000000 1.000000 4.000000 1.000000 -60.708740 114.000000 229.000000 -0.278874 0.930051 -0.239237
-2.45000005 2.15000010 -0.63000000 125 116 135 97.000000 1.000000 4.000000 1.000000 -60.708740 114.000000 229.000000 0.521968 0.802664 -0.288581
-2.47000003 2.15000010 -0.62000000 125 116 135 97.000000 1.000000 4.000000 1.000000 -60.708740 114.000000 229.000000 -0.261572 0.954671 -0.142072
-2.47000003 2.15000010 -0.62000000 125 116 135 97.000000 1.000000 4.000000 1.000000 -60.708740 114.000000 229.000000 -0.261572 0.954671 -0.142072
-2.46000004 2.15000010 -0.69000000 125 116 135 97.000000 1.000000 4.000000 1.000000 -60.708740 114.000000 229.000000 0.227501 0.920019 -0.319074
-2.44000006 2.15000010 -0.64999998 125 116 135 97.000000 1.000000 4.000000 1.000000 -60.708740 114.000000 229.000000 0.470668 0.848420 0.242188
-2.49000001 2.18000007 -0.63000000 125 116 135 97.000000 1.000000 4.000000 1.000000 -60.708740 114.000000 229.000000 -0.499809 0.841068 -0.206870
-2.50999999 2.16000009 -0.61000001 125 116 135 97.000000 1.000000 4.000000 1.000000 -60.708740 114.000000 229.000000 0.649522 -0.691635 -0.315852
-2.50000000 2.17000008 -0.62000000 125 116 135 97.000000 1.000000 4.000000 1.000000 -60.708740 114.000000 229.000000 -0.364171 0.918161 0.156073
-2.50999999 2.17000008 -0.61000001 125 116 135 97.000000 1.000000 4.000000 1.000000 -60.708740 114.000000 229.000000 -0.624266 0.779978 -0.043883
-2.48000002 2.17000008 -0.64999998 125 116 135 97.000000 1.000000 4.000000 1.000000 -60.708740 114.000000 229.000000 -0.011531 0.928856 -0.370261
-2.51999998 2.17000008 -0.58999997 125 116 135 97.000000 1.000000 4.000000 1.000000 -60.708740 114.000000 229.000000 0.684644 -0.668610 0.290212
-2.51999998 2.16000009 -0.61000001 125 116 135 97.000000 1.000000 4.000000 1.000000 -60.708740 114.000000 229.000000 0.853906 -0.520412 -0.004034
-2.46000004 2.09999990 -0.37000000 125 116 135 97.000000 1.000000 4.000000 1.000000 -60.708740 114.000000 229.000000 0.646057 0.721878 -0.247997
-2.44000006 2.08999991 -0.41000000 125 116 135 97.000000 1.000000 4.000000 1.000000 -60.708740 114.000000 229.000000 0.624305 0.780730 -0.026536
-2.49000001 2.11999989 -0.41999999 125 116 135 97.000000 1.000000 4.000000 1.000000 -60.708740 114.000000 229.000000 0.992858 0.109068 -0.048350
-2.49000001 2.13000011 -0.43000001 125 116 135 97.000000 1.000000 4.000000 1.000000 -60.708740 114.000000 229.000000 0.951666 -0.280058 -0.126092
-2.47000003 2.11999989 -0.46000001 125 116 135 97.000000 1.000000 4.000000 1.000000 -60.708740 114.000000 229.000000 0.844515 -0.009489 -0.535447
-2.45000005 2.11999989 -0.50999999 125 116 135 97.000000 1.000000 4.000000 1.000000 -60.708740 114.000000 229.000000 0.706162 -0.671715 0.223905
-2.45000005 2.08999991 -0.47999999 125 116 135 97.000000 1.000000 4.000000 1.000000 -60.708740 114.000000 229.000000 0.129155 0.857647 -0.497755
-2.46000004 2.09999990 -0.47999999 125 116 135 97.000000 1.000000 4.000000 1.000000 -60.708740 114.000000 229.000000 0.633675 0.646981 -0.424113
-2.47000003 2.06999993 -0.47999999 125 116 135 97.000000 1.000000 4.000000 1.000000 -60.708740 114.000000 229.000000 0.332285 0.926753 -0.175256
-2.44000006 2.07999992 -0.50999999 125 116 135 97.000000 1.000000 4.000000 1.000000 -60.708740 114.000000 229.000000 -0.256676 0.956941 0.135578
-2.45000005 2.08999991 -0.51999998 125 116 135 97.000000 1.000000 4.000000 1.000000 -60.708740 114.000000 229.000000 -0.295248 0.952786 -0.070911
-2.47000003 2.06999993 -0.49000001 125 116 135 97.000000 1.000000 4.000000 1.000000 -60.708740 114.000000 229.000000 0.484314 0.861816 0.150708
-2.49000001 2.13000011 -0.44999999 125 116 135 97.000000 1.000000 4.000000 1.000000 -60.708740 114.000000 229.000000 0.975029 -0.221544 -0.015401
-2.49000001 2.13000011 -0.44000000 125 116 135 97.000000 1.000000 4.000000 1.000000 -60.708740 114.000000 229.000000 0.942207 -0.300473 -0.148197
-2.50000000 2.11999989 -0.47999999 125 116 135 97.000000 1.000000 4.000000 1.000000 -60.708740 114.000000 229.000000 0.984102 -0.176515 0.019613
-2.50000000 2.11999989 -0.47999999 125 116 135 97.000000 1.000000 4.000000 1.000000 -60.708740 114.000000 229.000000 0.984102 -0.176515 0.019613
-2.48000002 2.11999989 -0.50999999 125 116 135 97.000000 1.000000 4.000000 1.000000 -60.708740 114.000000 229.000000 0.895058 -0.403140 0.190655
-2.50000000 2.13000011 -0.50999999 125 116 135 97.000000 1.000000 4.000000 1.000000 -60.708740 114.000000 229.000000 0.907649 -0.418813 -0.027745
-2.48000002 2.09999990 -0.50999999 125 116 135 97.000000 1.000000 4.000000 1.000000 -60.708740 114.000000 229.000000 0.881213 0.346137 -0.321953
-2.48000002 2.07999992 -0.49000001 125 116 135 97.000000 1.000000 4.000000 1.000000 -60.708740 114.000000 229.000000 0.696874 0.716584 -0.029564
-2.48000002 2.07999992 -0.49000001 125 116 135 97.000000 1.000000 4.000000 1.000000 -60.708740 114.000000 229.000000 0.696874 0.716584 -0.029564
-2.45000005 2.04999995 -0.41000000 125 116 135 97.000000 1.000000 4.000000 1.000000 -60.708740 114.000000 229.000000 -0.016304 0.994521 0.103256
-2.51999998 2.11999989 -0.51999998 125 116 135 97.000000 1.000000 4.000000 1.000000 -60.708740 114.000000 229.000000 0.996733 0.039956 0.070192
-2.46000004 2.11999989 -0.56000000 125 116 135 97.000000 1.000000 4.000000 1.000000 -60.708740 114.000000 229.000000 -0.451065 0.889714 -0.070350
-2.44000006 2.14000010 -0.56000000 125 116 135 97.000000 1.000000 4.000000 1.000000 -60.708740 114.000000 229.000000 0.703767 0.697765 -0.133551
-2.44000006 2.08999991 -0.52999997 125 116 135 97.000000 1.000000 4.000000 1.000000 -60.708740 114.000000 229.000000 -0.376078 0.880537 -0.288478
-2.50000000 2.11999989 -0.56999999 125 116 135 97.000000 1.000000 4.000000 1.000000 -60.708740 114.000000 229.000000 0.967620 0.079066 -0.239709
-2.48000002 2.14000010 -0.56999999 125 116 135 97.000000 1.000000 4.000000 1.000000 -60.708740 114.000000 229.000000 -0.303308 0.932289 -0.197081
-2.48000002 2.07999992 -0.54000002 125 116 135 97.000000 1.000000 4.000000 1.000000 -60.708740 114.000000 229.000000 0.638117 0.753311 0.159150
-2.50000000 2.09999990 -0.56000000 125 116 135 97.000000 1.000000 4.000000 1.000000 -60.708740 114.000000 229.000000 0.991711 0.106377 -0.072062
-2.50000000 2.08999991 -0.57999998 125 116 135 97.000000 1.000000 4.000000 1.000000 -60.708740 114.000000 229.000000 0.769792 0.619148 -0.155164
-2.45000005 2.14000010 -0.61000001 125 116 135 97.000000 1.000000 4.000000 1.000000 -60.708740 114.000000 229.000000 0.548605 0.830827 -0.093594
-2.45000005 2.14000010 -0.67000002 125 116 135 97.000000 1.000000 4.000000 1.000000 -60.708740 114.000000 229.000000 0.581197 0.754116 -0.305809
-2.44000006 2.07999992 -0.62000000 125 116 135 97.000000 1.000000 4.000000 1.000000 -60.708740 114.000000 229.000000 -0.645152 0.658352 0.387751
-2.45000005 2.08999991 -0.63000000 125 116 135 97.000000 1.000000 4.000000 1.000000 -60.708740 114.000000 229.000000 0.794646 -0.449708 -0.407800
-2.46000004 2.06999993 -0.69000000 125 116 135 97.000000 1.000000 4.000000 1.000000 -60.708740 114.000000 229.000000 -0.509977 0.843023 0.170984
-2.45000005 2.09999990 -0.64999998 125 116 135 97.000000 1.000000 4.000000 1.000000 -60.708740 114.000000 229.000000 0.995233 -0.016209 0.096173
-2.45000005 2.08999991 -0.69000000 125 116 135 97.000000 1.000000 4.000000 1.000000 -60.708740 114.000000 229.000000 0.856862 -0.501402 -0.119932
-2.46000004 2.08999991 -0.68000001 125 116 135 97.000000 1.000000 4.000000 1.000000 -60.708740 114.000000 229.000000 0.884121 -0.451315 -0.121015
-2.46000004 2.06999993 -0.69000000 125 116 135 97.000000 1.000000 4.000000 1.000000 -60.708740 114.000000 229.000000 -0.509977 0.843023 0.170984
-2.45000005 2.09999990 -0.66000003 125 116 135 97.000000 1.000000 4.000000 1.000000 -60.708740 114.000000 229.000000 0.971395 0.223209 -0.081053
-2.50999999 2.13000011 -0.63000000 125 116 135 97.000000 1.000000 4.000000 1.000000 -60.708740 114.000000 229.000000 -0.566819 0.807378 0.163881
-2.48000002 2.14000010 -0.61000001 125 116 135 97.000000 1.000000 4.000000 1.000000 -60.708740 114.000000 229.000000 0.548860 -0.772885 -0.318435
-2.49000001 2.14000010 -0.68000001 125 116 135 97.000000 1.000000 4.000000 1.000000 -60.708740 114.000000 229.000000 -0.675161 0.731057 -0.098553
-2.50000000 2.11999989 -0.66000003 125 116 135 97.000000 1.000000 4.000000 1.000000 -60.708740 114.000000 229.000000 0.944935 -0.243455 -0.218697
-2.47000003 2.05999994 -0.62000000 125 116 135 97.000000 1.000000 4.000000 1.000000 -60.708740 114.000000 229.000000 -0.164435 0.961613 -0.219685
-2.45000005 2.05999994 -0.61000001 125 116 135 97.000000 1.000000 4.000000 1.000000 -60.708740 114.000000 229.000000 -0.174469 0.941031 0.289865
-2.49000001 2.05999994 -0.69000000 125 116 135 97.000000 1.000000 4.000000 1.000000 -60.708740 114.000000 229.000000 0.293888 0.954820 -0.044146
-2.52999997 2.13000011 -0.60000002 125 116 135 97.000000 1.000000 4.000000 1.000000 -60.708740 114.000000 229.000000 0.873808 -0.466512 -0.137209
-2.52999997 2.13000011 -0.69000000 125 116 135 97.000000 1.000000 4.000000 1.000000 -60.708740 114.000000 229.000000 0.713859 -0.699779 0.026752
-2.52999997 2.13000011 -0.69000000 125 116 135 97.000000 1.000000 4.000000 1.000000 -60.708740 114.000000 229.000000 0.713859 -0.699779 0.026752
-2.52999997 2.13000011 -0.69000000 125 116 135 97.000000 1.000000 4.000000 1.000000 -60.708740 114.000000 229.000000 0.713859 -0.699779 0.026752
-2.51999998 2.14000010 -0.68000001 125 116 135 97.000000 1.000000 4.000000 1.000000 -60.708740 114.000000 229.000000 -0.530727 0.840197 -0.111351
-2.53999996 2.05999994 -0.61000001 125 116 135 97.000000 1.000000 4.000000 1.000000 -60.708740 114.000000 229.000000 0.625990 0.771018 -0.116911
-2.51999998 2.15000010 -0.69999999 125 116 135 97.000000 1.000000 4.000000 1.000000 -60.708740 114.000000 229.000000 0.830427 -0.553146 -0.066491
-2.51999998 2.15000010 -0.72000003 125 116 135 97.000000 1.000000 4.000000 1.000000 -60.708740 114.000000 229.000000 -0.691446 0.717648 0.082973
-2.49000001 2.15000010 -0.75000000 125 116 135 97.000000 1.000000 4.000000 1.000000 -60.708740 114.000000 229.000000 -0.163383 0.983877 0.072747
-2.46000004 2.13000011 -0.69999999 125 116 135 97.000000 1.000000 4.000000 1.000000 -60.708740 114.000000 229.000000 0.299872 0.953915 -0.011106
-2.45000005 2.11999989 -0.72000003 125 116 135 97.000000 1.000000 4.000000 1.000000 -60.708740 114.000000 229.000000 0.347061 0.880535 -0.322812
-2.45000005 2.10999990 -0.73000002 125 116 135 97.000000 1.000000 4.000000 1.000000 -60.708740 114.000000 229.000000 0.718083 0.695945 0.004151
-2.46000004 2.11999989 -0.72000003 125 116 135 97.000000 1.000000 4.000000 1.000000 -60.708740 114.000000 229.000000 0.358869 0.930941 -0.067536
-2.47000003 2.11999989 -0.72000003 125 116 135 97.000000 1.000000 4.000000 1.000000 -60.708740 114.000000 229.000000 0.568170 0.822819 -0.012322
-2.45000005 2.10999990 -0.74000001 125 116 135 97.000000 1.000000 4.000000 1.000000 -60.708740 114.000000 229.000000 0.722887 0.684763 0.092377
-2.44000006 2.10999990 -0.76999998 125 116 135 97.000000 1.000000 4.000000 1.000000 -60.708740 114.000000 229.000000 0.896624 0.392182 -0.205568
-2.45000005 2.10999990 -0.74000001 125 116 135 97.000000 1.000000 4.000000 1.000000 -60.708740 114.000000 229.000000 0.722887 0.684763 0.092377
-2.45000005 2.13000011 -0.76999998 125 116 135 97.000000 1.000000 4.000000 1.000000 -60.708740 114.000000 229.000000 0.242299 0.960027 -0.140140
-2.44000006 2.10999990 -0.75999999 125 116 135 97.000000 1.000000 4.000000 1.000000 -60.708740 114.000000 229.000000 0.938103 0.298926 0.174947
-2.46000004 2.13000011 -0.75999999 125 116 135 97.000000 1.000000 4.000000 1.000000 -60.708740 114.000000 229.000000 0.130938 0.991385 0.003301
-2.47000003 2.06999993 -0.72000003 125 116 135 97.000000 1.000000 4.000000 1.000000 -60.708740 114.000000 229.000000 -0.535888 0.828462 -0.162707
-2.45000005 2.07999992 -0.73000002 125 116 135 97.000000 1.000000 4.000000 1.000000 -60.708740 114.000000 229.000000 0.785920 -0.604668 0.129253
-2.44000006 2.08999991 -0.73000002 125 116 135 97.000000 1.000000 4.000000 1.000000 -60.708740 114.000000 229.000000 0.971028 0.199805 -0.131082
-2.46000004 2.06999993 -0.73000002 125 116 135 97.000000 1.000000 4.000000 1.000000 -60.708740 114.000000 229.000000 -0.441620 0.895470 -0.055712
-2.45000005 2.09999990 -0.72000003 125 116 135 97.000000 1.000000 4.000000 1.000000 -60.708740 114.000000 229.000000 0.914231 0.383838 0.129807
-2.44000006 2.07999992 -0.75999999 125 116 135 97.000000 1.000000 4.000000 1.000000 -60.708740 114.000000 229.000000 0.905524 -0.118964 -0.407276
-2.46000004 2.07999992 -0.75999999 125 116 135 97.000000 1.000000 4.000000 1.000000 -60.708740 114.000000 229.000000 0.999928 -0.010901 -0.004955
-2.46000004 2.07999992 -0.75999999 125 116 135 97.000000 1.000000 4.000000 1.000000 -60.708740 114.000000 229.000000 0.999928 -0.010901 -0.004955
-2.46000004 2.06999993 -0.74000001 125 116 135 97.000000 1.000000 4.000000 1.000000 -60.708740 114.000000 229.000000 -0.463590 0.886001 -0.009298
-2.48000002 2.14000010 -0.75999999 125 116 135 97.000000 1.000000 4.000000 1.000000 -60.708740 114.000000 229.000000 0.328544 0.933394 -0.144339
-2.50000000 2.14000010 -0.75000000 125 116 135 97.000000 1.000000 4.000000 1.000000 -60.708740 114.000000 229.000000 -0.278398 0.960290 -0.018396
-2.44000006 2.10999990 -0.80000001 125 116 135 97.000000 1.000000 4.000000 1.000000 -60.708740 114.000000 229.000000 0.805416 0.566662 0.173776
-2.47000003 2.14000010 -0.77999997 125 116 135 97.000000 1.000000 4.000000 1.000000 -60.708740 114.000000 229.000000 0.423598 0.866934 -0.262661
-2.44000006 2.09999990 -0.77999997 125 116 135 97.000000 1.000000 4.000000 1.000000 -60.708740 114.000000 229.000000 0.845910 0.135872 -0.515728
-2.46000004 2.08999991 -0.85000002 125 116 135 97.000000 1.000000 4.000000 1.000000 -60.708740 114.000000 229.000000 0.728564 0.678723 -0.092353
-2.50999999 2.13000011 -0.77999997 125 116 135 97.000000 1.000000 4.000000 1.000000 -60.708740 114.000000 229.000000 0.748959 -0.660511 -0.052784
-2.49000001 2.13000011 -0.81000000 125 116 135 97.000000 1.000000 4.000000 1.000000 -60.708740 114.000000 229.000000 -0.023601 0.990118 -0.138234
-2.49000001 2.13000011 -0.81000000 125 116 135 97.000000 1.000000 4.000000 1.000000 -60.708740 114.000000 229.000000 -0.023601 0.990118 -0.138234
-2.49000001 2.14000010 -0.83999997 125 116 135 97.000000 1.000000 4.000000 1.000000 -60.708740 114.000000 229.000000 -0.087231 0.989779 -0.112819
-2.48000002 2.14000010 -0.81999999 125 116 135 97.000000 1.000000 4.000000 1.000000 -60.708740 114.000000 229.000000 0.155689 0.977728 -0.140743
-2.50000000 2.13000011 -0.82999998 125 116 135 97.000000 1.000000 4.000000 1.000000 -60.708740 114.000000 229.000000 -0.207349 0.975400 0.074842
-2.47000003 2.04999995 -0.74000001 125 116 135 97.000000 1.000000 4.000000 1.000000 -60.708740 114.000000 229.000000 -0.287971 0.916008 -0.279288
-2.48000002 2.05999994 -0.72000003 125 116 135 97.000000 1.000000 4.000000 1.000000 -60.708740 114.000000 229.000000 0.042743 0.970886 -0.235699
-2.45000005 2.05999994 -0.77999997 125 116 135 97.000000 1.000000 4.000000 1.000000 -60.708740 114.000000 229.000000 0.794871 -0.521981 0.309381
-2.44000006 2.05999994 -0.79000002 125 116 135 97.000000 1.000000 4.000000 1.000000 -60.708740 114.000000 229.000000 0.688852 -0.707099 0.159668
-2.45000005 2.05999994 -0.77999997 125 116 135 97.000000 1.000000 4.000000 1.000000 -60.708740 114.000000 229.000000 0.794871 -0.521981 0.309381
-2.46000004 2.04999995 -0.81999999 125 116 135 97.000000 1.000000 4.000000 1.000000 -60.708740 114.000000 229.000000 0.781253 -0.624176 -0.006889
-2.47000003 2.03999996 -0.81999999 125 116 135 97.000000 1.000000 4.000000 1.000000 -60.708740 114.000000 229.000000 -0.739536 0.654845 -0.155771
-2.50000000 2.04999995 -0.81000000 125 116 135 97.000000 1.000000 4.000000 1.000000 -60.708740 114.000000 229.000000 -0.058879 0.989397 -0.132766
-2.48000002 2.05999994 -0.77999997 125 116 135 97.000000 1.000000 4.000000 1.000000 -60.708740 114.000000 229.000000 -0.464572 0.809410 -0.359205
-2.50999999 2.03999996 -0.85000002 125 116 135 97.000000 1.000000 4.000000 1.000000 -60.708740 114.000000 229.000000 -0.051255 0.980995 -0.187140
-2.50000000 2.03999996 -0.85000002 125 116 135 97.000000 1.000000 4.000000 1.000000 -60.708740 114.000000 229.000000 -0.218438 0.951088 -0.218438
-2.48000002 2.05999994 -0.81999999 125 116 135 97.000000 1.000000 4.000000 1.000000 -60.708740 114.000000 229.000000 0.737953 -0.652394 0.172647
-2.53999996 2.13000011 -0.72000003 125 116 135 97.000000 1.000000 4.000000 1.000000 -60.708740 114.000000 229.000000 0.783695 -0.618106 0.061382
-2.54999995 2.13000011 -0.75999999 125 116 135 97.000000 1.000000 4.000000 1.000000 -60.708740 114.000000 229.000000 0.867096 -0.496072 -0.045347
-2.53999996 2.10999990 -0.75999999 125 116 135 97.000000 1.000000 4.000000 1.000000 -60.708740 114.000000 229.000000 0.856294 -0.476715 -0.198756
-2.53999996 2.14000010 -0.75000000 125 116 135 97.000000 1.000000 4.000000 1.000000 -60.708740 114.000000 229.000000 -0.586957 0.747767 0.310364
-2.53999996 2.09999990 -0.76999998 125 116 135 97.000000 1.000000 4.000000 1.000000 -60.708740 114.000000 229.000000 0.957279 -0.256767 -0.132992
-2.52999997 2.07999992 -0.75000000 125 116 135 97.000000 1.000000 4.000000 1.000000 -60.708740 114.000000 229.000000 0.852186 0.349256 -0.389615
-2.53999996 2.09999990 -0.75999999 125 116 135 97.000000 1.000000 4.000000 1.000000 -60.708740 114.000000 229.000000 0.960065 0.113025 -0.255931
-2.53999996 2.13000011 -0.79000002 125 116 135 97.000000 1.000000 4.000000 1.000000 -60.708740 114.000000 229.000000 0.937788 -0.347095 0.008835
-2.51999998 2.13000011 -0.81000000 125 116 135 97.000000 1.000000 4.000000 1.000000 -60.708740 114.000000 229.000000 0.799661 -0.600092 -0.020788
-2.52999997 2.10999990 -0.80000001 125 116 135 97.000000 1.000000 4.000000 1.000000 -60.708740 114.000000 229.000000 0.734438 -0.662050 -0.149301
-2.54999995 2.10999990 -0.81999999 125 116 135 97.000000 1.000000 4.000000 1.000000 -60.708740 114.000000 229.000000 -0.762288 0.473766 0.440979
-2.51999998 2.14000010 -0.81999999 125 116 135 97.000000 1.000000 4.000000 1.000000 -60.708740 114.000000 229.000000 -0.194126 0.977956 -0.076918
-2.54999995 2.08999991 -0.79000002 125 116 135 97.000000 1.000000 4.000000 1.000000 -60.708740 114.000000 229.000000 0.986224 -0.164939 -0.012513
-2.54999995 2.08999991 -0.79000002 125 116 135 97.000000 1.000000 4.000000 1.000000 -60.708740 114.000000 229.000000 0.986224 -0.164939 -0.012513
-2.54999995 2.07999992 -0.81999999 125 116 135 97.000000 1.000000 4.000000 1.000000 -60.708740 114.000000 229.000000 0.970064 -0.170434 -0.172997
-2.55999994 2.13000011 -0.80000001 125 116 135 97.000000 1.000000 4.000000 1.000000 -60.708740 114.000000 229.000000 -0.659005 0.615627 0.432107
-2.53999996 2.05999994 -0.81000000 125 116 135 97.000000 1.000000 4.000000 1.000000 -60.708740 114.000000 229.000000 0.845989 0.173956 -0.504025
-2.53999996 2.05999994 -0.82999998 125 116 135 97.000000 1.000000 4.000000 1.000000 -60.708740 114.000000 229.000000 0.916201 0.027525 -0.399773
-2.51999998 2.02999997 -0.80000001 125 116 135 97.000000 1.000000 4.000000 1.000000 -60.708740 114.000000 229.000000 0.334398 0.941220 -0.047771
-2.47000003 2.10999990 -0.88000000 125 116 135 97.000000 1.000000 4.000000 1.000000 -60.708740 114.000000 229.000000 0.841347 0.426137 -0.332480
-2.47000003 2.10999990 -0.87000000 125 116 135 97.000000 1.000000 4.000000 1.000000 -60.708740 114.000000 229.000000 0.370074 0.836210 -0.404719
-2.46000004 2.07999992 -0.87000000 125 116 135 97.000000 1.000000 4.000000 1.000000 -60.708740 114.000000 229.000000 0.994598 -0.034145 -0.098028
-2.46000004 2.07999992 -0.87000000 125 116 135 97.000000 1.000000 4.000000 1.000000 -60.708740 114.000000 229.000000 0.994598 -0.034145 -0.098028
-2.44000006 2.08999991 -0.91000003 125 116 135 97.000000 1.000000 4.000000 1.000000 -60.708740 114.000000 229.000000 0.955077 0.210896 0.208209
-2.46000004 2.08999991 -0.93000001 125 116 135 97.000000 1.000000 4.000000 1.000000 -60.708740 114.000000 229.000000 0.819931 0.524571 -0.229212
-2.49000001 2.13000011 -0.89999998 125 116 135 97.000000 1.000000 4.000000 1.000000 -60.708740 114.000000 229.000000 0.079319 0.986157 -0.145615
-2.48000002 2.13000011 -0.88999999 125 116 135 97.000000 1.000000 4.000000 1.000000 -60.708740 114.000000 229.000000 0.250704 0.956389 -0.149892
-2.49000001 2.13000011 -0.89999998 125 116 135 97.000000 1.000000 4.000000 1.000000 -60.708740 114.000000 229.000000 0.079319 0.986157 -0.145615
-2.49000001 2.13000011 -0.86000001 125 116 135 97.000000 1.000000 4.000000 1.000000 -60.708740 114.000000 229.000000 0.216817 0.975069 -0.047239
-2.50999999 2.11999989 -0.93000001 125 116 135 97.000000 1.000000 4.000000 1.000000 -60.708740 114.000000 229.000000 -0.165539 0.974278 0.152902
-2.49000001 2.11999989 -0.93000001 125 116 135 97.000000 1.000000 4.000000 1.000000 -60.708740 114.000000 229.000000 0.360795 0.919535 0.155830
-2.50999999 2.13000011 -0.91000003 125 116 135 97.000000 1.000000 4.000000 1.000000 -60.708740 114.000000 229.000000 -0.209229 0.931001 -0.299100
-2.49000001 2.07999992 -0.87000000 125 116 135 97.000000 1.000000 4.000000 1.000000 -60.708740 114.000000 229.000000 0.930973 0.361097 -0.053836
-2.49000001 2.07999992 -0.94000000 125 116 135 97.000000 1.000000 4.000000 1.000000 -60.708740 114.000000 229.000000 0.914561 0.232614 -0.330860
-2.47000003 2.10999990 -0.94999999 125 116 135 97.000000 1.000000 4.000000 1.000000 -60.708740 114.000000 229.000000 0.610116 0.656920 -0.442961
-2.45000005 2.08999991 -0.94999999 125 116 135 97.000000 1.000000 4.000000 1.000000 -60.708740 114.000000 229.000000 0.804765 0.471979 -0.359984
-2.46000004 2.09999990 -0.94999999 125 116 135 97.000000 1.000000 4.000000 1.000000 -60.708740 114.000000 229.000000 0.738284 0.540970 -0.402850
-2.47000003 2.07999992 -0.99000001 125 116 135 97.000000 1.000000 4.000000 1.000000 -60.708740 114.000000 229.000000 0.933924 0.323228 -0.152674
-2.47000003 2.07999992 -0.99000001 125 116 135 97.000000 1.000000 4.000000 1.000000 -60.708740 114.000000 229.000000 0.933924 0.323228 -0.152674
-2.50000000 2.10999990 -0.95999998 125 116 135 97.000000 1.000000 4.000000 1.000000 -60.708740 114.000000 229.000000 0.317984 0.894238 -0.314999
-2.50000000 2.10999990 -0.98000002 125 116 135 97.000000 1.000000 4.000000 1.000000 -60.708740 114.000000 229.000000 0.296976 0.908482 -0.294050
-2.49000001 2.11999989 -0.94999999 125 116 135 97.000000 1.000000 4.000000 1.000000 -60.708740 114.000000 229.000000 0.420134 0.835547 -0.354045
-2.50999999 2.13000011 -0.94999999 125 116 135 97.000000 1.000000 4.000000 1.000000 -60.708740 114.000000 229.000000 0.282349 0.956919 0.067713
-2.49000001 2.13000011 -0.94999999 125 116 135 97.000000 1.000000 4.000000 1.000000 -60.708740 114.000000 229.000000 0.312856 0.930150 -0.192203
-2.49000001 2.10999990 -0.98000002 125 116 135 97.000000 1.000000 4.000000 1.000000 -60.708740 114.000000 229.000000 0.419002 0.787854 -0.451358
-2.50000000 2.10999990 -1.00000000 125 116 135 97.000000 1.000000 4.000000 1.000000 -60.708740 114.000000 229.000000 0.678558 0.732843 -0.049999
-2.48000002 2.09999990 -0.97000003 125 116 135 97.000000 1.000000 4.000000 1.000000 -60.708740 114.000000 229.000000 0.745908 0.653230 -0.130048
-2.49000001 2.08999991 -0.99000001 125 116 135 97.000000 1.000000 4.000000 1.000000 -60.708740 114.000000 229.000000 0.652561 0.753846 0.076687
-2.50000000 2.09999990 -1.00999999 125 116 135 97.000000 1.000000 4.000000 1.000000 -60.708740 114.000000 229.000000 0.238796 0.948361 -0.208776
-2.46000004 2.03999996 -0.92000002 125 116 135 97.000000 1.000000 4.000000 1.000000 -60.708740 114.000000 229.000000 0.755519 -0.579071 0.306378
-2.49000001 2.03999996 -0.88000000 125 116 135 97.000000 1.000000 4.000000 1.000000 -60.708740 114.000000 229.000000 -0.361391 0.927164 -0.098807
-2.49000001 2.02999997 -0.88000000 125 116 135 97.000000 1.000000 4.000000 1.000000 -60.708740 114.000000 229.000000 -0.243473 0.967648 0.066175
-2.49000001 2.03999996 -0.88000000 125 116 135 97.000000 1.000000 4.000000 1.000000 -60.708740 114.000000 229.000000 -0.361391 0.927164 -0.098807
-2.50000000 2.03999996 -0.88000000 125 116 135 97.000000 1.000000 4.000000 1.000000 -60.708740 114.000000 229.000000 0.245522 0.968651 0.037867
-2.49000001 2.05999994 -0.93000001 125 116 135 97.000000 1.000000 4.000000 1.000000 -60.708740 114.000000 229.000000 0.761787 -0.606002 -0.229003
-2.49000001 2.04999995 -0.93000001 125 116 135 97.000000 1.000000 4.000000 1.000000 -60.708740 114.000000 229.000000 0.726430 -0.682931 0.076848
-2.49000001 2.05999994 -0.94000000 125 116 135 97.000000 1.000000 4.000000 1.000000 -60.708740 114.000000 229.000000 0.696445 -0.702488 -0.146541
-2.50999999 2.05999994 -0.91000003 125 116 135 97.000000 1.000000 4.000000 1.000000 -60.708740 114.000000 229.000000 0.016525 0.992626 0.120085
-2.48000002 2.02999997 -0.93000001 125 116 135 97.000000 1.000000 4.000000 1.000000 -60.708740 114.000000 229.000000 -0.462962 0.854583 0.235276
-2.46000004 2.03999996 -0.94999999 125 116 135 97.000000 1.000000 4.000000 1.000000 -60.708740 114.000000 229.000000 0.937152 -0.137776 -0.320569
-2.46000004 2.02999997 -0.95999998 125 116 135 97.000000 1.000000 4.000000 1.000000 -60.708740 114.000000 229.000000 0.977787 -0.185718 -0.097164
-2.46000004 2.05999994 -0.98000002 125 116 135 97.000000 1.000000 4.000000 1.000000 -60.708740 114.000000 229.000000 0.992255 -0.083163 0.092276
-2.46000004 2.01999998 -0.99000001 125 116 135 97.000000 1.000000 4.000000 1.000000 -60.708740 114.000000 229.000000 0.636522 -0.728131 0.254293
-2.46000004 2.05999994 -1.00000000 125 116 135 97.000000 1.000000 4.000000 1.000000 -60.708740 114.000000 229.000000 0.908582 0.030418 -0.416599
-2.46000004 2.03999996 -1.01999998 125 116 135 97.000000 1.000000 4.000000 1.000000 -60.708740 114.000000 229.000000 0.997549 0.054528 -0.043837
-2.49000001 2.03999996 -0.98000002 125 116 135 97.000000 1.000000 4.000000 1.000000 -60.708740 114.000000 229.000000 0.935517 -0.329943 0.126274
-2.50000000 2.04999995 -0.95999998 125 116 135 97.000000 1.000000 4.000000 1.000000 -60.708740 114.000000 229.000000 -0.660542 0.710990 0.241200
-2.49000001 2.04999995 -0.99000001 125 116 135 97.000000 1.000000 4.000000 1.000000 -60.708740 114.000000 229.000000 0.833327 -0.521017 0.184683
-2.48000002 2.00000000 -1.00000000 125 116 135 97.000000 1.000000 4.000000 1.000000 -60.708740 114.000000 229.000000 0.720267 -0.684771 -0.110924
-2.51999998 2.11999989 -0.92000002 125 116 135 97.000000 1.000000 4.000000 1.000000 -60.708740 114.000000 229.000000 -0.347980 0.911101 0.220917
-2.54999995 2.09999990 -0.87000000 125 116 135 97.000000 1.000000 4.000000 1.000000 -60.708740 114.000000 229.000000 0.710472 -0.578598 -0.400568
-2.51999998 2.09999990 -0.88999999 125 116 135 97.000000 1.000000 4.000000 1.000000 -60.708740 114.000000 229.000000 0.777440 -0.626232 -0.058486
-2.54999995 2.06999993 -0.92000002 125 116 135 97.000000 1.000000 4.000000 1.000000 -60.708740 114.000000 229.000000 0.985500 -0.010230 -0.169365
-2.52999997 2.10999990 -0.94999999 125 116 135 97.000000 1.000000 4.000000 1.000000 -60.708740 114.000000 229.000000 -0.381813 0.813150 -0.439325
-2.52999997 2.10999990 -0.97000003 125 116 135 97.000000 1.000000 4.000000 1.000000 -60.708740 114.000000 229.000000 -0.456976 0.881210 0.121006
-2.51999998 2.10999990 -0.95999998 125 116 135 97.000000 1.000000 4.000000 1.000000 -60.708740 114.000000 229.000000 -0.290600 0.909766 -0.296441
-2.51999998 2.11999989 -1.00999999 125 116 135 97.000000 1.000000 4.000000 1.000000 -60.708740 114.000000 229.000000 0.049508 0.989010 0.139313
-2.51999998 2.06999993 -0.94999999 125 116 135 97.000000 1.000000 4.000000 1.000000 -60.708740 114.000000 229.000000 0.789003 -0.419613 -0.448776
-2.52999997 2.09999990 -0.99000001 125 116 135 97.000000 1.000000 4.000000 1.000000 -60.708740 114.000000 229.000000 -0.378711 0.920118 0.099805
-2.52999997 2.09999990 -0.99000001 125 116 135 97.000000 1.000000 4.000000 1.000000 -60.708740 114.000000 229.000000 -0.378711 0.920118 0.099805
-2.51999998 2.09999990 -1.00999999 125 116 135 97.000000 1.000000 4.000000 1.000000 -60.708740 114.000000 229.000000 -0.250218 0.892791 -0.374587
-2.55999994 2.10999990 -0.94999999 125 116 135 97.000000 1.000000 4.000000 1.000000 -60.708740 114.000000 229.000000 -0.644909 0.742947 -0.179226
-2.56999993 2.09999990 -0.98000002 125 116 135 97.000000 1.000000 4.000000 1.000000 -60.708740 114.000000 229.000000 -0.693740 0.714274 0.092401
-2.56999993 2.08999991 -1.00000000 125 116 135 97.000000 1.000000 4.000000 1.000000 -60.708740 114.000000 229.000000 0.947086 -0.220030 0.233697
-2.52999997 2.05999994 -0.86000001 125 116 135 97.000000 1.000000 4.000000 1.000000 -60.708740 114.000000 229.000000 0.978984 0.184553 -0.086776
-2.53999996 2.04999995 -0.94000000 125 116 135 97.000000 1.000000 4.000000 1.000000 -60.708740 114.000000 229.000000 0.564822 0.824221 -0.040444
-2.51999998 2.00000000 -0.94000000 125 116 135 97.000000 1.000000 4.000000 1.000000 -60.708740 114.000000 229.000000 0.429929 0.833085 -0.348038
-2.53999996 2.02999997 -0.97000003 125 116 135 97.000000 1.000000 4.000000 1.000000 -60.708740 114.000000 229.000000 0.745897 0.657276 0.107823
-2.51999998 2.00000000 -0.98000002 125 116 135 97.000000 1.000000 4.000000 1.000000 -60.708740 114.000000 229.000000 -0.120732 0.991807 0.041748
-2.52999997 2.00999999 -0.99000001 125 116 135 97.000000 1.000000 4.000000 1.000000 -60.708740 114.000000 229.000000 0.023972 0.987405 0.156387
-2.52999997 2.00999999 -1.00999999 125 116 135 97.000000 1.000000 4.000000 1.000000 -60.708740 114.000000 229.000000 0.287560 0.950141 0.120590
-2.51999998 2.00999999 -1.00000000 125 116 135 97.000000 1.000000 4.000000 1.000000 -60.708740 114.000000 229.000000 -0.065772 0.981797 -0.178182
-2.58999991 2.03999996 -1.01999998 125 116 135 97.000000 1.000000 4.000000 1.000000 -60.708740 114.000000 229.000000 0.984454 0.021928 0.174270
-2.46000004 2.06999993 -1.07000005 125 116 135 97.000000 1.000000 4.000000 1.000000 -60.708740 114.000000 229.000000 0.864926 0.431706 -0.255994
-2.48000002 2.07999992 -1.02999997 125 116 135 97.000000 1.000000 4.000000 1.000000 -60.708740 114.000000 229.000000 0.965849 0.063724 -0.251146
-2.50000000 2.07999992 -1.05999994 125 116 135 97.000000 1.000000 4.000000 1.000000 -60.708740 114.000000 229.000000 0.555756 0.711699 -0.429674
-2.50000000 2.06999993 -1.04999995 125 116 135 97.000000 1.000000 4.000000 1.000000 -60.708740 114.000000 229.000000 0.900904 0.158479 -0.404050
-2.48000002 2.06999993 -1.05999994 125 116 135 97.000000 1.000000 4.000000 1.000000 -60.708740 114.000000 229.000000 0.994969 0.100035 -0.005378
-2.50999999 2.07999992 -1.05999994 125 116 135 97.000000 1.000000 4.000000 1.000000 -60.708740 114.000000 229.000000 0.667300 0.708123 0.230807
-2.50000000 2.06999993 -1.07000005 125 116 135 97.000000 1.000000 4.000000 1.000000 -60.708740 114.000000 229.000000 0.926636 0.122179 -0.355554
-2.50999999 2.08999991 -1.07000005 125 116 135 97.000000 1.000000 4.000000 1.000000 -60.708740 114.000000 229.000000 0.273682 0.942070 -0.193915
-2.50999999 2.08999991 -1.07000005 125 116 135 97.000000 1.000000 4.000000 1.000000 -60.708740 114.000000 229.000000 0.273682 0.942070 -0.193915
-2.50999999 2.08999991 -1.07000005 125 116 135 97.000000 1.000000 4.000000 1.000000 -60.708740 114.000000 229.000000 0.273682 0.942070 -0.193915
-2.49000001 2.07999992 -1.08000004 125 116 135 97.000000 1.000000 4.000000 1.000000 -60.708740 114.000000 229.000000 0.582028 0.751986 -0.309453
-2.47000003 2.05999994 -1.02999997 125 116 135 97.000000 1.000000 4.000000 1.000000 -60.708740 114.000000 229.000000 0.986512 -0.161554 0.026353
-2.47000003 2.01999998 -1.07000005 125 116 135 97.000000 1.000000 4.000000 1.000000 -60.708740 114.000000 229.000000 0.906989 -0.373466 -0.194664
-2.47000003 2.05999994 -1.11000001 125 116 135 97.000000 1.000000 4.000000 1.000000 -60.708740 114.000000 229.000000 0.994057 0.100846 0.041003
-2.49000001 2.01999998 -1.05999994 125 116 135 97.000000 1.000000 4.000000 1.000000 -60.708740 114.000000 229.000000 0.685008 -0.625871 0.372894
-2.50000000 2.03999996 -1.04999995 125 116 135 97.000000 1.000000 4.000000 1.000000 -60.708740 114.000000 229.000000 0.935385 -0.181534 -0.303480
-2.48000002 2.04999995 -1.11000001 125 116 135 97.000000 1.000000 4.000000 1.000000 -60.708740 114.000000 229.000000 0.985629 -0.091770 0.141826
-2.48000002 2.03999996 -1.08000004 125 116 135 97.000000 1.000000 4.000000 1.000000 -60.708740 114.000000 229.000000 0.956001 -0.049252 -0.289200
-2.49000001 2.00999999 -1.03999996 125 116 135 97.000000 1.000000 4.000000 1.000000 -60.708740 114.000000 229.000000 0.876120 -0.478762 0.056568
-2.49000001 2.00999999 -1.03999996 125 116 135 97.000000 1.000000 4.000000 1.000000 -60.708740 114.000000 229.000000 0.876120 -0.478762 0.056568
-2.49000001 1.99000001 -1.02999997 125 116 135 97.000000 1.000000 4.000000 1.000000 -60.708740 114.000000 229.000000 0.619184 -0.747723 -0.239836
-2.49000001 2.00999999 -1.08000004 125 116 135 97.000000 1.000000 4.000000 1.000000 -60.708740 114.000000 229.000000 0.717307 -0.644145 0.265610
-2.50000000 2.00999999 -1.08000004 125 116 135 97.000000 1.000000 4.000000 1.000000 -60.708740 114.000000 229.000000 -0.448326 0.835730 -0.317109
-2.47000003 2.01999998 -1.13999999 125 116 135 97.000000 1.000000 4.000000 1.000000 -60.708740 114.000000 229.000000 0.994003 -0.077324 0.077324
-2.47000003 2.01999998 -1.13999999 125 116 135 97.000000 1.000000 4.000000 1.000000 -60.708740 114.000000 229.000000 0.994003 -0.077324 0.077324
-2.47000003 2.00999999 -1.13999999 125 116 135 97.000000 1.000000 4.000000 1.000000 -60.708740 114.000000 229.000000 0.873015 -0.485314 0.048119
-2.47000003 1.99000001 -1.19000006 125 116 135 97.000000 1.000000 4.000000 1.000000 -60.708740 114.000000 229.000000 0.942953 -0.332733 -0.011300
-2.48000002 2.03999996 -1.14999998 125 116 135 97.000000 1.000000 4.000000 1.000000 -60.708740 114.000000 229.000000 0.872953 0.124708 -0.471595
-2.48000002 2.03999996 -1.14999998 125 116 135 97.000000 1.000000 4.000000 1.000000 -60.708740 114.000000 229.000000 0.872953 0.124708 -0.471595
-2.50999999 2.01999998 -1.13000000 125 116 135 97.000000 1.000000 4.000000 1.000000 -60.708740 114.000000 229.000000 -0.464468 0.854803 0.231478
-2.48000002 2.01999998 -1.15999997 125 116 135 97.000000 1.000000 4.000000 1.000000 -60.708740 114.000000 229.000000 0.911587 -0.145121 -0.384642
-2.49000001 2.03999996 -1.15999997 125 116 135 97.000000 1.000000 4.000000 1.000000 -60.708740 114.000000 229.000000 0.954509 0.254269 -0.155757
-2.49000001 1.98000002 -1.13000000 125 116 135 97.000000 1.000000 4.000000 1.000000 -60.708740 114.000000 229.000000 -0.600814 0.794812 -0.085417
-2.49000001 2.00999999 -1.13000000 125 116 135 97.000000 1.000000 4.000000 1.000000 -60.708740 114.000000 229.000000 -0.771840 0.623124 -0.126409
-2.48000002 1.99000001 -1.12000000 125 116 135 97.000000 1.000000 4.000000 1.000000 -60.708740 114.000000 229.000000 0.892471 -0.435661 -0.117022
-2.49000001 1.98000002 -1.13000000 125 116 135 97.000000 1.000000 4.000000 1.000000 -60.708740 114.000000 229.000000 -0.600814 0.794812 -0.085417
-2.50999999 1.99000001 -1.19000006 125 116 135 97.000000 1.000000 4.000000 1.000000 -60.708740 114.000000 229.000000 -0.514490 0.856563 0.040001
-2.49000001 2.00999999 -1.17999995 125 116 135 97.000000 1.000000 4.000000 1.000000 -60.708740 114.000000 229.000000 0.956973 -0.288215 -0.033687
-2.50000000 1.98000002 -1.15999997 125 116 135 97.000000 1.000000 4.000000 1.000000 -60.708740 114.000000 229.000000 -0.641540 0.748209 0.169147
-2.50000000 1.98000002 -1.16999996 125 116 135 97.000000 1.000000 4.000000 1.000000 -60.708740 114.000000 229.000000 -0.672258 0.726400 -0.142874
-2.50000000 1.98000002 -1.15999997 125 116 135 97.000000 1.000000 4.000000 1.000000 -60.708740 114.000000 229.000000 -0.641540 0.748209 0.169147
-2.54999995 2.08999991 -1.02999997 125 116 135 97.000000 1.000000 4.000000 1.000000 -60.708740 114.000000 229.000000 0.716449 -0.696587 0.038305
-2.51999998 2.09999990 -1.03999996 125 116 135 97.000000 1.000000 4.000000 1.000000 -60.708740 114.000000 229.000000 -0.169905 0.953875 -0.247499
-2.54999995 2.07999992 -1.02999997 125 116 135 97.000000 1.000000 4.000000 1.000000 -60.708740 114.000000 229.000000 -0.491573 0.841609 -0.223719
-2.53999996 2.08999991 -1.10000002 125 116 135 97.000000 1.000000 4.000000 1.000000 -60.708740 114.000000 229.000000 -0.440002 0.889908 -0.120258
-2.53999996 2.08999991 -1.09000003 125 116 135 97.000000 1.000000 4.000000 1.000000 -60.708740 114.000000 229.000000 -0.478780 0.876621 0.048015
-2.52999997 2.08999991 -1.07000005 125 116 135 97.000000 1.000000 4.000000 1.000000 -60.708740 114.000000 229.000000 -0.147959 0.985996 0.076938
-2.51999998 2.08999991 -1.09000003 125 116 135 97.000000 1.000000 4.000000 1.000000 -60.708740 114.000000 229.000000 0.195114 0.967817 -0.158934
-2.51999998 2.08999991 -1.10000002 125 116 135 97.000000 1.000000 4.000000 1.000000 -60.708740 114.000000 229.000000 0.219769 0.969271 -0.110520
-2.52999997 2.09999990 -1.12000000 125 116 135 97.000000 1.000000 4.000000 1.000000 -60.708740 114.000000 229.000000 0.234151 0.940762 -0.245235
-2.52999997 2.05999994 -1.11000001 125 116 135 97.000000 1.000000 4.000000 1.000000 -60.708740 114.000000 229.000000 0.284220 0.955544 -0.078450
-2.52999997 2.05999994 -1.11000001 125 116 135 97.000000 1.000000 4.000000 1.000000 -60.708740 114.000000 229.000000 0.284220 0.955544 -0.078450
-2.54999995 2.02999997 -1.07000005 125 116 135 97.000000 1.000000 4.000000 1.000000 -60.708740 114.000000 229.000000 0.328514 0.831503 -0.447974
-2.51999998 1.99000001 -1.03999996 125 116 135 97.000000 1.000000 4.000000 1.000000 -60.708740 114.000000 229.000000 -0.206542 0.931545 -0.299275
-2.52999997 1.99000001 -1.03999996 125 116 135 97.000000 1.000000 4.000000 1.000000 -60.708740 114.000000 229.000000 -0.278753 0.881461 -0.381213
-2.54999995 1.98000002 -1.05999994 125 116 135 97.000000 1.000000 4.000000 1.000000 -60.708740 114.000000 229.000000 0.134629 0.968048 -0.211560
-2.53999996 1.99000001 -1.04999995 125 116 135 97.000000 1.000000 4.000000 1.000000 -60.708740 114.000000 229.000000 -0.012182 0.991203 -0.131791
-2.53999996 1.98000002 -1.03999996 125 116 135 97.000000 1.000000 4.000000 1.000000 -60.708740 114.000000 229.000000 -0.011142 0.952034 -0.305790
-2.53999996 1.98000002 -1.09000003 125 116 135 97.000000 1.000000 4.000000 1.000000 -60.708740 114.000000 229.000000 0.197316 0.954368 -0.224162
-2.57999992 2.03999996 -1.10000002 125 116 135 97.000000 1.000000 4.000000 1.000000 -60.708740 114.000000 229.000000 0.813639 0.580774 -0.026336
-2.56999993 2.02999997 -1.10000002 125 116 135 97.000000 1.000000 4.000000 1.000000 -60.708740 114.000000 229.000000 0.841104 0.537801 -0.057571
-2.56999993 2.03999996 -1.09000003 125 116 135 97.000000 1.000000 4.000000 1.000000 -60.708740 114.000000 229.000000 0.979337 0.079077 -0.186135
-2.51999998 2.04999995 -1.12000000 125 116 135 97.000000 1.000000 4.000000 1.000000 -60.708740 114.000000 229.000000 0.969727 -0.131597 0.205700
-2.53999996 2.05999994 -1.14999998 125 116 135 97.000000 1.000000 4.000000 1.000000 -60.708740 114.000000 229.000000 0.005472 0.992580 -0.121473
-2.52999997 2.04999995 -1.14999998 125 116 135 97.000000 1.000000 4.000000 1.000000 -60.708740 114.000000 229.000000 0.996159 -0.027040 0.083284
-2.54999995 2.05999994 -1.16999996 125 116 135 97.000000 1.000000 4.000000 1.000000 -60.708740 114.000000 229.000000 -0.164591 0.954093 -0.250232
-2.52999997 2.03999996 -1.15999997 125 116 135 97.000000 1.000000 4.000000 1.000000 -60.708740 114.000000 229.000000 0.949660 -0.299962 0.090381
-2.54999995 1.98000002 -1.13999999 125 116 135 97.000000 1.000000 4.000000 1.000000 -60.708740 114.000000 229.000000 -0.028585 0.958218 -0.284607
-2.54999995 1.98000002 -1.14999998 125 116 135 97.000000 1.000000 4.000000 1.000000 -60.708740 114.000000 229.000000 0.048941 0.998606 0.019785
-2.57999992 2.04999995 -1.13999999 125 116 135 97.000000 1.000000 4.000000 1.000000 -60.708740 114.000000 229.000000 0.923783 -0.382655 -0.014172
-2.57999992 2.04999995 -1.14999998 125 116 135 97.000000 1.000000 4.000000 1.000000 -60.708740 114.000000 229.000000 0.908513 -0.374600 0.185147
-2.55999994 2.05999994 -1.12000000 125 116 135 97.000000 1.000000 4.000000 1.000000 -60.708740 114.000000 229.000000 -0.649613 0.756676 0.073787
-2.57999992 2.01999998 -1.15999997 125 116 135 97.000000 1.000000 4.000000 1.000000 -60.708740 114.000000 229.000000 0.792454 0.606834 -0.061397
-2.57999992 2.01999998 -1.15999997 125 116 135 97.000000 1.000000 4.000000 1.000000 -60.708740 114.000000 229.000000 0.792454 0.606834 -0.061397
-2.58999991 2.02999997 -1.15999997 125 116 135 97.000000 1.000000 4.000000 1.000000 -60.708740 114.000000 229.000000 0.926295 0.332121 -0.177972
-2.56999993 2.00999999 -1.12000000 125 116 135 97.000000 1.000000 4.000000 1.000000 -60.708740 114.000000 229.000000 0.819310 0.545705 -0.175889
-2.57999992 2.00999999 -1.17999995 125 116 135 97.000000 1.000000 4.000000 1.000000 -60.708740 114.000000 229.000000 0.885261 0.431728 -0.172982
-2.50999999 2.01999998 -1.21000004 125 116 135 97.000000 1.000000 4.000000 1.000000 -60.708740 114.000000 229.000000 0.859376 -0.454609 0.234101
-2.50000000 2.01999998 -1.22000003 125 116 135 97.000000 1.000000 4.000000 1.000000 -60.708740 114.000000 229.000000 0.853503 -0.371561 -0.365343
-2.50999999 1.99000001 -1.23000002 125 116 135 97.000000 1.000000 4.000000 1.000000 -60.708740 114.000000 229.000000 -0.572141 0.771835 -0.277354
-2.50000000 1.99000001 -1.25999999 125 116 135 97.000000 1.000000 4.000000 1.000000 -60.708740 114.000000 229.000000 0.905551 -0.413374 -0.095394
-2.50999999 2.00999999 -1.29999995 125 116 135 97.000000 1.000000 4.000000 1.000000 -60.708740 114.000000 229.000000 0.844189 -0.410391 -0.344854
-2.50999999 1.98000002 -1.30999994 125 116 135 97.000000 1.000000 4.000000 1.000000 -60.708740 114.000000 229.000000 0.805220 -0.583894 0.103383
-2.54999995 2.04999995 -1.21000004 125 116 135 97.000000 1.000000 4.000000 1.000000 -60.708740 114.000000 229.000000 0.548593 0.820648 -0.159944
-2.53999996 2.01999998 -1.26999998 125 116 135 97.000000 1.000000 4.000000 1.000000 -60.708740 114.000000 229.000000 0.792878 -0.609379 0.001369
-2.51999998 1.98000002 -1.21000004 125 116 135 97.000000 1.000000 4.000000 1.000000 -60.708740 114.000000 229.000000 -0.171631 0.984864 -0.024190
-2.54999995 2.00999999 -1.26999998 125 116 135 97.000000 1.000000 4.000000 1.000000 -60.708740 114.000000 229.000000 -0.175069 0.982531 0.063120
-2.58999991 2.04999995 -1.21000004 125 116 135 97.000000 1.000000 4.000000 1.000000 -60.708740 114.000000 229.000000 0.885851 -0.406693 -0.223311
-2.55999994 2.05999994 -1.26999998 125 116 135 97.000000 1.000000 4.000000 1.000000 -60.708740 114.000000 229.000000 -0.285611 0.953341 0.097812
-2.56999993 2.04999995 -1.25999999 125 116 135 97.000000 1.000000 4.000000 1.000000 -60.708740 114.000000 229.000000 -0.548304 0.799933 -0.243863
-2.57999992 1.98000002 -1.32000005 125 116 135 97.000000 1.000000 4.000000 1.000000 -60.708740 114.000000 229.000000 0.029491 0.995038 0.095026
-2.50999999 1.97000003 -1.15999997 125 116 135 97.000000 1.000000 4.000000 1.000000 -60.708740 114.000000 229.000000 -0.556412 0.804727 0.206930
-2.50999999 1.96000004 -1.14999998 125 116 135 97.000000 1.000000 4.000000 1.000000 -60.708740 114.000000 229.000000 -0.591274 0.803159 -0.073014
-2.49000001 1.97000003 -1.19000006 125 116 135 97.000000 1.000000 4.000000 1.000000 -60.708740 114.000000 229.000000 0.707710 -0.612913 0.351403
-2.50999999 1.97000003 -1.13999999 125 116 135 97.000000 1.000000 4.000000 1.000000 -60.708740 114.000000 229.000000 -0.625169 0.770696 -0.123252
-2.51999998 1.96000004 -1.13999999 125 116 135 97.000000 1.000000 4.000000 1.000000 -60.708740 114.000000 229.000000 -0.604782 0.795618 -0.035080
-2.49000001 1.95000005 -1.21000004 125 116 135 97.000000 1.000000 4.000000 1.000000 -60.708740 114.000000 229.000000 -0.535132 0.839282 0.096123
