//X Y Z R G B PointSourceId ScanDirectionFlag NumberOfReturns ReturnNumber GpsTime Intensity Classification Nx Ny Nz
-16.77000046 -2.07999992 -0.01000000 200 87 112 97.000000 1.000000 4.000000 1.000000 -60.708740 114.000000 208.000000 0.604738 0.274592 -0.747590
-16.77000046 -2.07999992 -0.01000000 200 87 112 97.000000 1.000000 4.000000 1.000000 -60.708740 114.000000 208.000000 0.604738 0.274592 -0.747590
-16.77000046 -2.10999990 0.02000000 200 87 112 97.000000 1.000000 4.000000 1.000000 -60.708740 114.000000 208.000000 0.730137 0.518215 -0.445367
-16.78000069 -2.10999990 -0.01000000 200 87 112 97.000000 1.000000 4.000000 1.000000 -60.708740 114.000000 208.000000 0.890077 0.300682 -0.342568
-16.70000076 -2.16000009 0.09000000 200 87 112 97.000000 1.000000 4.000000 1.000000 -60.708740 114.000000 208.000000 -0.362772 -0.177829 0.914753
-16.70999908 -2.17000008 0.05000000 200 87 112 97.000000 1.000000 4.000000 1.000000 -60.708740 114.000000 208.000000 -0.423672 -0.423672 0.800627
-16.77000046 -2.15000010 0.00000000 200 87 112 97.000000 1.000000 4.000000 1.000000 -60.708740 114.000000 208.000000 0.532669 0.529309 -0.660375
-16.75000000 -2.21000004 0.03000000 200 87 112 97.000000 1.000000 4.000000 1.000000 -60.708740 114.000000 208.000000 -0.388953 -0.049117 0.919947
-16.70999908 -2.22000003 0.02000000 200 87 112 97.000000 1.000000 4.000000 1.000000 -60.708740 114.000000 208.000000 -0.407133 -0.326635 0.852967
-16.72999954 -2.25999999 0.01000000 200 87 112 97.000000 1.000000 4.000000 1.000000 -60.708740 114.000000 208.000000 0.516965 0.574218 -0.634839
-16.71999931 -2.27999997 0.01000000 200 87 112 97.000000 1.000000 4.000000 1.000000 -60.708740 114.000000 208.000000 0.691204 0.152761 -0.706329
-16.72999954 -2.27999997 0.00000000 200 87 112 97.000000 1.000000 4.000000 1.000000 -60.708740 114.000000 208.000000 0.709933 0.354150 -0.608747
-16.73999977 -2.24000001 -0.02000000 200 87 112 97.000000 1.000000 4.000000 1.000000 -60.708740 114.000000 208.000000 0.758011 0.110820 -0.642758
-16.79000092 -2.25000000 0.01000000 200 87 112 97.000000 1.000000 4.000000 1.000000 -60.708740 114.000000 208.000000 -0.504676 -0.265537 0.821457
-16.87000084 -1.77999997 0.00000000 200 87 112 97.000000 1.000000 4.000000 1.000000 -60.708740 114.000000 208.000000 0.797104 0.058255 -0.601025
-16.92000008 -1.85000002 0.02000000 200 87 112 97.000000 1.000000 4.000000 1.000000 -60.708740 114.000000 208.000000 0.898826 0.128404 -0.419076
-17.00000000 -1.91999996 0.03000000 200 87 112 97.000000 1.000000 4.000000 1.000000 -60.708740 114.000000 208.000000 0.932783 0.095292 -0.347613
-16.07999992 -2.79999995 0.22000000 200 87 112 97.000000 1.000000 4.000000 1.000000 -60.708740 114.000000 208.000000 0.179385 -0.005713 0.983762
-16.07999992 -2.76999998 0.15000001 200 87 112 97.000000 1.000000 4.000000 1.000000 -60.708740 114.000000 208.000000 0.089625 0.049792 0.994730
-16.06999969 -2.82999992 0.18000001 200 87 112 97.000000 1.000000 4.000000 1.000000 -60.708740 114.000000 208.000000 0.165302 0.178116 0.970026
-16.05999947 -2.84999990 0.18000001 200 87 112 97.000000 1.000000 4.000000 1.000000 -60.708740 114.000000 208.000000 0.530341 0.009495 0.847731
-16.12999916 -2.74000001 0.18000001 200 87 112 97.000000 1.000000 4.000000 1.000000 -60.708740 114.000000 208.000000 0.147400 0.052228 0.987697
-16.13999939 -2.79999995 0.16000000 200 87 112 97.000000 1.000000 4.000000 1.000000 -60.708740 114.000000 208.000000 0.167134 0.028816 0.985513
-16.12999916 -2.78999996 0.16000000 200 87 112 97.000000 1.000000 4.000000 1.000000 -60.708740 114.000000 208.000000 -0.123896 -0.007675 0.992266
-16.14999962 -2.77999997 0.18000001 200 87 112 97.000000 1.000000 4.000000 1.000000 -60.708740 114.000000 208.000000 -0.144864 -0.014599 0.989344
-16.13999939 -2.78999996 0.17000000 200 87 112 97.000000 1.000000 4.000000 1.000000 -60.708740 114.000000 208.000000 0.491704 0.042459 0.869727
-16.17000008 -2.80999994 0.17000000 200 87 112 97.000000 1.000000 4.000000 1.000000 -60.708740 114.000000 208.000000 -0.102444 -0.442052 0.891120
-16.17000008 -2.89000010 0.15000001 200 87 112 97.000000 1.000000 4.000000 1.000000 -60.708740 114.000000 208.000000 0.007473 0.088608 0.996039
-16.19000053 -2.96000004 0.18000001 200 87 112 97.000000 1.000000 4.000000 1.000000 -60.708740 114.000000 208.000000 -0.059086 0.003110 0.998248
-16.19000053 -2.97000003 0.20999999 200 87 112 97.000000 1.000000 4.000000 1.000000 -60.708740 114.000000 208.000000 -0.220557 -0.344530 0.912499
-16.36000061 -2.47000003 0.18000001 200 87 112 97.000000 1.000000 4.000000 1.000000 -60.708740 114.000000 208.000000 0.150979 -0.496910 0.854568
-16.21999931 -2.72000003 0.15000001 200 87 112 97.000000 1.000000 4.000000 1.000000 -60.708740 114.000000 208.000000 -0.114895 -0.082399 0.989954
-16.26000023 -2.70000005 0.15000001 200 87 112 97.000000 1.000000 4.000000 1.000000 -60.708740 114.000000 208.000000 -0.281671 -0.281671 0.917237
-16.25000000 -2.72000003 0.14000000 200 87 112 97.000000 1.000000 4.000000 1.000000 -60.708740 114.000000 208.000000 -0.259052 -0.165096 0.951649
-16.23999977 -2.71000004 0.14000000 200 87 112 97.000000 1.000000 4.000000 1.000000 -60.708740 114.000000 208.000000 -0.057610 -0.015712 0.998216
-16.37999916 -2.49000001 0.18000001 200 87 112 97.000000 1.000000 4.000000 1.000000 -60.708740 114.000000 208.000000 0.328686 -0.225343 0.917162
-16.37999916 -2.48000002 0.18000001 200 87 112 97.000000 1.000000 4.000000 1.000000 -60.708740 114.000000 208.000000 0.289705 -0.211331 0.933494
-16.44000053 -2.48000002 0.15000001 200 87 112 97.000000 1.000000 4.000000 1.000000 -60.708740 114.000000 208.000000 -0.087968 -0.459388 0.883869
-16.50000000 -2.54999995 0.15000001 200 87 112 97.000000 1.000000 4.000000 1.000000 -60.708740 114.000000 208.000000 0.525142 0.394265 -0.754176
-16.51000023 -2.39000010 0.10000000 200 87 112 97.000000 1.000000 4.000000 1.000000 -60.708740 114.000000 208.000000 0.122130 -0.230118 0.965469
-16.50000000 -2.47000003 0.05000000 200 87 112 97.000000 1.000000 4.000000 1.000000 -60.708740 114.000000 208.000000 -0.038664 -0.417307 0.907943
-16.45000076 -2.48000002 0.07000000 200 87 112 97.000000 1.000000 4.000000 1.000000 -60.708740 114.000000 208.000000 -0.514597 -0.374991 0.771085
-16.45999908 -2.53999996 0.13000000 200 87 112 97.000000 1.000000 4.000000 1.000000 -60.708740 114.000000 208.000000 -0.543171 -0.373532 0.751957
-16.39999962 -2.57999992 0.18000001 200 87 112 97.000000 1.000000 4.000000 1.000000 -60.708740 114.000000 208.000000 -0.168687 -0.618519 0.767450
-16.42000008 -2.60999990 0.13000000 200 87 112 97.000000 1.000000 4.000000 1.000000 -60.708740 114.000000 208.000000 -0.037712 -0.571272 0.819894
-16.38999939 -2.56999993 0.10000000 200 87 112 97.000000 1.000000 4.000000 1.000000 -60.708740 114.000000 208.000000 0.148569 -0.507487 0.848754
-16.39999962 -2.64000010 0.13000000 200 87 112 97.000000 1.000000 4.000000 1.000000 -60.708740 114.000000 208.000000 -0.354742 -0.492786 0.794557
-16.39999962 -2.65000010 0.10000000 200 87 112 97.000000 1.000000 4.000000 1.000000 -60.708740 114.000000 208.000000 -0.315163 -0.495708 0.809287
-16.39999962 -2.68000007 0.07000000 200 87 112 97.000000 1.000000 4.000000 1.000000 -60.708740 114.000000 208.000000 -0.451175 -0.206975 0.868103
-16.43000031 -2.67000008 0.13000000 200 87 112 97.000000 1.000000 4.000000 1.000000 -60.708740 114.000000 208.000000 -0.388637 -0.512221 0.765892
-16.48999977 -2.67000008 0.09000000 200 87 112 97.000000 1.000000 4.000000 1.000000 -60.708740 114.000000 208.000000 -0.614396 -0.079510 0.784981
-16.50000000 -2.71000004 0.08000000 200 87 112 97.000000 1.000000 4.000000 1.000000 -60.708740 114.000000 208.000000 0.427687 0.539975 -0.724921
-16.52000046 -2.68000007 0.04000000 200 87 112 97.000000 1.000000 4.000000 1.000000 -60.708740 114.000000 208.000000 -0.576224 -0.330885 0.747316
-16.21999931 -2.79999995 0.17000000 200 87 112 97.000000 1.000000 4.000000 1.000000 -60.708740 114.000000 208.000000 -0.151565 -0.269598 0.950971
-16.27000046 -2.78999996 0.15000001 200 87 112 97.000000 1.000000 4.000000 1.000000 -60.708740 114.000000 208.000000 -0.260800 -0.252341 0.931830
-16.23999977 -2.77999997 0.15000001 200 87 112 97.000000 1.000000 4.000000 1.000000 -60.708740 114.000000 208.000000 -0.273778 -0.056774 0.960116
-16.26000023 -2.80999994 0.15000001 200 87 112 97.000000 1.000000 4.000000 1.000000 -60.708740 114.000000 208.000000 -0.070130 0.005234 0.997524
-16.23999977 -2.88000011 0.16000000 200 87 112 97.000000 1.000000 4.000000 1.000000 -60.708740 114.000000 208.000000 0.266635 0.077822 0.960651
-16.32999992 -2.76999998 0.15000001 200 87 112 97.000000 1.000000 4.000000 1.000000 -60.708740 114.000000 208.000000 -0.267848 -0.481508 0.834510
-16.26000023 -2.82999992 0.13000000 200 87 112 97.000000 1.000000 4.000000 1.000000 -60.708740 114.000000 208.000000 -0.302261 -0.284739 0.909704
-16.30999947 -2.75999999 0.14000000 200 87 112 97.000000 1.000000 4.000000 1.000000 -60.708740 114.000000 208.000000 -0.247886 0.020556 0.968571
-16.30999947 -2.74000001 0.13000000 200 87 112 97.000000 1.000000 4.000000 1.000000 -60.708740 114.000000 208.000000 0.149085 0.159107 0.975940
-16.30999947 -2.78999996 0.12000000 200 87 112 97.000000 1.000000 4.000000 1.000000 -60.708740 114.000000 208.000000 -0.334669 -0.132501 0.932974
-16.29999924 -2.80999994 0.13000000 200 87 112 97.000000 1.000000 4.000000 1.000000 -60.708740 114.000000 208.000000 -0.142020 -0.073944 0.987098
-16.29000092 -2.80999994 0.13000000 200 87 112 97.000000 1.000000 4.000000 1.000000 -60.708740 114.000000 208.000000 -0.188254 -0.196153 0.962333
-16.29000092 -2.81999993 0.13000000 200 87 112 97.000000 1.000000 4.000000 1.000000 -60.708740 114.000000 208.000000 -0.214346 -0.284394 0.934439
-16.32999992 -2.82999992 0.12000000 200 87 112 97.000000 1.000000 4.000000 1.000000 -60.708740 114.000000 208.000000 -0.202855 -0.032030 0.978685
-16.32999992 -2.84999990 0.12000000 200 87 112 97.000000 1.000000 4.000000 1.000000 -60.708740 114.000000 208.000000 -0.237725 -0.015530 0.971208
-16.22999954 -2.91000009 0.17000000 200 87 112 97.000000 1.000000 4.000000 1.000000 -60.708740 114.000000 208.000000 -0.068227 -0.081649 0.994323
-16.20999908 -2.93000007 0.15000001 200 87 112 97.000000 1.000000 4.000000 1.000000 -60.708740 114.000000 208.000000 -0.090521 -0.547439 0.831935
-16.20999908 -2.95000005 0.20000000 200 87 112 97.000000 1.000000 4.000000 1.000000 -60.708740 114.000000 208.000000 -0.063231 0.076543 0.995059
-16.20000076 -2.96000004 0.18000001 200 87 112 97.000000 1.000000 4.000000 1.000000 -60.708740 114.000000 208.000000 -0.014516 0.137341 0.990417
-16.25000000 -2.97000003 0.18000001 200 87 112 97.000000 1.000000 4.000000 1.000000 -60.708740 114.000000 208.000000 -0.041450 0.047827 0.997995
-16.26000023 -2.95000005 0.17000000 200 87 112 97.000000 1.000000 4.000000 1.000000 -60.708740 114.000000 208.000000 0.024245 0.172022 0.984795
-16.20999908 -3.00000000 0.19000000 200 87 112 97.000000 1.000000 4.000000 1.000000 -60.708740 114.000000 208.000000 -0.111863 -0.107153 0.987930
-16.27000046 -3.00000000 0.17000000 200 87 112 97.000000 1.000000 4.000000 1.000000 -60.708740 114.000000 208.000000 -0.313252 0.003714 0.949663
-16.28000069 -2.92000008 0.19000000 200 87 112 97.000000 1.000000 4.000000 1.000000 -60.708740 114.000000 208.000000 -0.372965 -0.329989 0.867182
-16.43000031 -2.75999999 0.10000000 200 87 112 97.000000 1.000000 4.000000 1.000000 -60.708740 114.000000 208.000000 -0.499657 -0.138389 0.855097
-16.42000008 -2.78999996 0.11000000 200 87 112 97.000000 1.000000 4.000000 1.000000 -60.708740 114.000000 208.000000 -0.445899 0.058635 0.893161
-16.42000008 -2.79999995 0.10000000 200 87 112 97.000000 1.000000 4.000000 1.000000 -60.708740 114.000000 208.000000 -0.317711 -0.001236 0.948187
-16.37999916 -2.83999991 0.14000000 200 87 112 97.000000 1.000000 4.000000 1.000000 -60.708740 114.000000 208.000000 -0.214274 0.151940 0.964884
-16.38999939 -2.80999994 0.10000000 200 87 112 97.000000 1.000000 4.000000 1.000000 -60.708740 114.000000 208.000000 -0.427356 -0.398546 0.811497
-16.39999962 -2.84999990 0.12000000 200 87 112 97.000000 1.000000 4.000000 1.000000 -60.708740 114.000000 208.000000 0.519402 0.277747 -0.808133
-16.38999939 -2.88000011 0.11000000 200 87 112 97.000000 1.000000 4.000000 1.000000 -60.708740 114.000000 208.000000 -0.219262 -0.060021 0.973818
-16.42000008 -2.86999989 0.10000000 200 87 112 97.000000 1.000000 4.000000 1.000000 -60.708740 114.000000 208.000000 -0.451719 -0.039104 0.891303
-16.50000000 -2.73000002 0.07000000 200 87 112 97.000000 1.000000 4.000000 1.000000 -60.708740 114.000000 208.000000 0.508811 0.429772 -0.745927
-16.50000000 -2.79999995 0.08000000 200 87 112 97.000000 1.000000 4.000000 1.000000 -60.708740 114.000000 208.000000 -0.374471 -0.470901 0.798764
-16.39999962 -2.96000004 0.12000000 200 87 112 97.000000 1.000000 4.000000 1.000000 -60.708740 114.000000 208.000000 -0.230719 -0.180041 0.956218
-16.43000031 -2.99000001 0.14000000 200 87 112 97.000000 1.000000 4.000000 1.000000 -60.708740 114.000000 208.000000 -0.210204 0.126123 0.969488
-16.50000000 -2.91000009 0.11000000 200 87 112 97.000000 1.000000 4.000000 1.000000 -60.708740 114.000000 208.000000 -0.328241 0.129389 0.935690
-16.21999931 -3.05999994 0.18000001 200 87 112 97.000000 1.000000 4.000000 1.000000 -60.708740 114.000000 208.000000 -0.129147 -0.095972 0.986970
-16.55999947 -2.40000010 0.07000000 200 87 112 97.000000 1.000000 4.000000 1.000000 -60.708740 114.000000 208.000000 -0.646462 -0.307916 0.698050
-16.54000092 -2.50000000 0.11000000 200 87 112 97.000000 1.000000 4.000000 1.000000 -60.708740 114.000000 208.000000 -0.645978 -0.336820 0.685029
-16.68000031 -2.42000008 0.00000000 200 87 112 97.000000 1.000000 4.000000 1.000000 -60.708740 114.000000 208.000000 0.654287 0.395885 -0.644348
-16.68000031 -2.48000002 0.00000000 200 87 112 97.000000 1.000000 4.000000 1.000000 -60.708740 114.000000 208.000000 -0.532913 -0.376462 0.757813
-16.57999992 -2.71000004 0.09000000 200 87 112 97.000000 1.000000 4.000000 1.000000 -60.708740 114.000000 208.000000 0.597197 0.499627 -0.627478
-16.62000084 -2.75999999 0.08000000 200 87 112 97.000000 1.000000 4.000000 1.000000 -60.708740 114.000000 208.000000 -0.165611 -0.535626 0.828057
-16.65999985 -2.88000011 0.03000000 200 87 112 97.000000 1.000000 4.000000 1.000000 -60.708740 114.000000 208.000000 -0.401866 -0.312563 0.860702
-16.56999969 -2.94000006 0.12000000 200 87 112 97.000000 1.000000 4.000000 1.000000 -60.708740 114.000000 208.000000 -0.396098 -0.513461 0.761226
-16.57999992 -2.92000008 0.13000000 200 87 112 97.000000 1.000000 4.000000 1.000000 -60.708740 114.000000 208.000000 0.528261 0.478268 -0.701570
-16.60000038 -2.92000008 0.09000000 200 87 112 97.000000 1.000000 4.000000 1.000000 -60.708740 114.000000 208.000000 -0.582222 -0.416347 0.698335
-16.65999985 -2.91000009 0.01000000 200 87 112 97.000000 1.000000 4.000000 1.000000 -60.708740 114.000000 208.000000 -0.628214 -0.070440 0.774845
-16.64999962 -2.98000002 0.06000000 200 87 112 97.000000 1.000000 4.000000 1.000000 -60.708740 114.000000 208.000000 -0.580855 -0.112659 0.806174
-16.76000023 -2.94000006 -0.02000000 200 87 112 97.000000 1.000000 4.000000 1.000000 -60.708740 114.000000 208.000000 0.865796 0.086156 -0.492925
-16.72999954 -2.95000005 0.00000000 200 87 112 97.000000 1.000000 4.000000 1.000000 -60.708740 114.000000 208.000000 0.725571 -0.117219 -0.678090
-16.72999954 -3.00000000 -0.01000000 200 87 112 97.000000 1.000000 4.000000 1.000000 -60.708740 114.000000 208.000000 -0.562144 -0.432801 0.704753
-16.73999977 -3.04999995 -0.02000000 200 87 112 97.000000 1.000000 4.000000 1.000000 -60.708740 114.000000 208.000000 0.784626 0.399593 -0.474011
-16.68000031 -3.09999990 0.00000000 200 87 112 97.000000 1.000000 4.000000 1.000000 -60.708740 114.000000 208.000000 -0.405138 -0.483237 0.776109
-16.68000031 -3.09999990 0.00000000 200 87 112 97.000000 1.000000 4.000000 1.000000 -60.708740 114.000000 208.000000 -0.405138 -0.483237 0.776109
-17.27000046 -1.08000004 0.20000000 200 87 112 97.000000 1.000000 4.000000 1.000000 -60.708740 114.000000 208.000000 0.897461 0.104681 -0.428492
-17.26000023 -1.07000005 0.15000001 200 87 112 97.000000 1.000000 4.000000 1.000000 -60.708740 114.000000 208.000000 0.959953 0.235709 -0.151433
-17.27000046 -1.12000000 0.20000000 200 87 112 97.000000 1.000000 4.000000 1.000000 -60.708740 114.000000 208.000000 0.881503 0.361371 -0.303914
-17.28000069 -1.10000002 0.19000000 200 87 112 97.000000 1.000000 4.000000 1.000000 -60.708740 114.000000 208.000000 0.939530 0.342446 -0.003763
-17.27000046 -1.13000000 0.16000000 200 87 112 97.000000 1.000000 4.000000 1.000000 -60.708740 114.000000 208.000000 0.709771 0.219951 -0.669213
-17.29999924 -1.05999994 0.15000001 200 87 112 97.000000 1.000000 4.000000 1.000000 -60.708740 114.000000 208.000000 0.817117 -0.058062 -0.573540
-17.29999924 -1.05999994 0.15000001 200 87 112 97.000000 1.000000 4.000000 1.000000 -60.708740 114.000000 208.000000 0.817117 -0.058062 -0.573540
-17.22999954 -1.09000003 0.12000000 200 87 112 97.000000 1.000000 4.000000 1.000000 -60.708740 114.000000 208.000000 0.765463 0.524935 -0.372168
-17.26000023 -1.12000000 0.12000000 200 87 112 97.000000 1.000000 4.000000 1.000000 -60.708740 114.000000 208.000000 0.947717 0.277150 -0.158178
-17.26000023 -1.11000001 0.14000000 200 87 112 97.000000 1.000000 4.000000 1.000000 -60.708740 114.000000 208.000000 0.963189 0.184775 -0.195259
-17.27000046 -1.09000003 0.07000000 200 87 112 97.000000 1.000000 4.000000 1.000000 -60.708740 114.000000 208.000000 0.884448 -0.204556 -0.419414
-17.27000046 -1.05999994 0.04000000 200 87 112 97.000000 1.000000 4.000000 1.000000 -60.708740 114.000000 208.000000 0.928935 0.027207 -0.369242
-17.25000000 -1.08000004 0.05000000 200 87 112 97.000000 1.000000 4.000000 1.000000 -60.708740 114.000000 208.000000 0.865712 0.339827 -0.367505
-17.25000000 -1.19000006 0.12000000 200 87 112 97.000000 1.000000 4.000000 1.000000 -60.708740 114.000000 208.000000 0.949256 -0.068637 -0.306922
-17.29000092 -1.21000004 0.13000000 200 87 112 97.000000 1.000000 4.000000 1.000000 -60.708740 114.000000 208.000000 0.991695 -0.117004 -0.053390
-17.29000092 -1.16999996 0.04000000 200 87 112 97.000000 1.000000 4.000000 1.000000 -60.708740 114.000000 208.000000 0.862710 0.166075 -0.477650
-16.80999947 -1.53999996 -0.05000000 200 87 112 97.000000 1.000000 4.000000 1.000000 -60.708740 114.000000 208.000000 0.956389 -0.065121 -0.284746
-16.86000061 -1.52999997 -0.04000000 200 87 112 97.000000 1.000000 4.000000 1.000000 -60.708740 114.000000 208.000000 0.742220 -0.058861 -0.667567
-16.84000015 -1.59000003 -0.04000000 200 87 112 97.000000 1.000000 4.000000 1.000000 -60.708740 114.000000 208.000000 -0.619641 -0.468509 0.629717
-16.85000038 -1.65999997 -0.03000000 200 87 112 97.000000 1.000000 4.000000 1.000000 -60.708740 114.000000 208.000000 0.929121 -0.062295 -0.364491
-17.02000046 -1.13000000 -0.04000000 200 87 112 97.000000 1.000000 4.000000 1.000000 -60.708740 114.000000 208.000000 0.871082 0.216650 -0.440771
-16.94000053 -1.38000000 -0.12000000 200 87 112 97.000000 1.000000 4.000000 1.000000 -60.708740 114.000000 208.000000 0.938692 -0.019053 -0.344229
-16.96999931 -1.25999999 -0.07000000 200 87 112 97.000000 1.000000 4.000000 1.000000 -60.708740 114.000000 208.000000 0.855648 0.247728 -0.454420
-17.02000046 -1.24000001 -0.09000000 200 87 112 97.000000 1.000000 4.000000 1.000000 -60.708740 114.000000 208.000000 0.959500 0.240862 -0.146097
-17.02000046 -1.28999996 -0.09000000 200 87 112 97.000000 1.000000 4.000000 1.000000 -60.708740 114.000000 208.000000 0.852031 0.048648 -0.521226
-16.97999954 -1.23000002 -0.14000000 200 87 112 97.000000 1.000000 4.000000 1.000000 -60.708740 114.000000 208.000000 0.914809 0.123548 -0.384525
-17.03000069 -1.23000002 -0.14000000 200 87 112 97.000000 1.000000 4.000000 1.000000 -60.708740 114.000000 208.000000 0.908361 0.412892 -0.066333
-17.01000023 -1.25999999 -0.11000000 200 87 112 97.000000 1.000000 4.000000 1.000000 -60.708740 114.000000 208.000000 0.915831 0.019597 -0.401085
-17.01000023 -1.26999998 -0.12000000 200 87 112 97.000000 1.000000 4.000000 1.000000 -60.708740 114.000000 208.000000 0.973011 -0.225291 0.049929
-17.02000046 -1.29999995 -0.08000000 200 87 112 97.000000 1.000000 4.000000 1.000000 -60.708740 114.000000 208.000000 0.899994 0.033432 -0.434618
-16.95000076 -1.33000004 -0.12000000 200 87 112 97.000000 1.000000 4.000000 1.000000 -60.708740 114.000000 208.000000 0.868498 0.268279 -0.416818
-16.98999977 -1.38000000 -0.11000000 200 87 112 97.000000 1.000000 4.000000 1.000000 -60.708740 114.000000 208.000000 0.813685 0.223033 -0.536817
-16.98999977 -1.37000000 -0.15000001 200 87 112 97.000000 1.000000 4.000000 1.000000 -60.708740 114.000000 208.000000 0.988694 0.030719 -0.146768
-17.02000046 -1.30999994 -0.15000001 200 87 112 97.000000 1.000000 4.000000 1.000000 -60.708740 114.000000 208.000000 0.949567 -0.174245 -0.260692
-17.04999924 -1.11000001 -0.08000000 200 87 112 97.000000 1.000000 4.000000 1.000000 -60.708740 114.000000 208.000000 0.925946 0.024606 -0.376854
-17.10000038 -1.08000004 -0.03000000 200 87 112 97.000000 1.000000 4.000000 1.000000 -60.708740 114.000000 208.000000 0.989969 -0.129625 -0.056209
-17.09000015 -1.04999995 -0.04000000 200 87 112 97.000000 1.000000 4.000000 1.000000 -60.708740 114.000000 208.000000 0.962388 -0.242216 -0.123051
-17.09000015 -1.05999994 -0.09000000 200 87 112 97.000000 1.000000 4.000000 1.000000 -60.708740 114.000000 208.000000 0.943988 0.162099 -0.287419
-17.10000038 -1.11000001 -0.07000000 200 87 112 97.000000 1.000000 4.000000 1.000000 -60.708740 114.000000 208.000000 0.916833 0.237484 -0.320964
-17.10000038 -1.11000001 -0.08000000 200 87 112 97.000000 1.000000 4.000000 1.000000 -60.708740 114.000000 208.000000 0.995812 -0.009627 -0.090917
-17.10000038 -1.12000000 -0.10000000 200 87 112 97.000000 1.000000 4.000000 1.000000 -60.708740 114.000000 208.000000 0.990085 -0.127642 -0.058646
-17.09000015 -1.09000003 -0.12000000 200 87 112 97.000000 1.000000 4.000000 1.000000 -60.708740 114.000000 208.000000 0.945059 -0.192841 -0.263960
-17.06999969 -1.21000004 -0.05000000 200 87 112 97.000000 1.000000 4.000000 1.000000 -60.708740 114.000000 208.000000 0.893537 0.448754 0.014561
-17.05999947 -1.16999996 -0.05000000 200 87 112 97.000000 1.000000 4.000000 1.000000 -60.708740 114.000000 208.000000 0.967399 0.223639 0.118848
-17.10000038 -1.13000000 -0.08000000 200 87 112 97.000000 1.000000 4.000000 1.000000 -60.708740 114.000000 208.000000 0.956457 -0.266338 -0.119393
-17.04999924 -1.19000006 -0.03000000 200 87 112 97.000000 1.000000 4.000000 1.000000 -60.708740 114.000000 208.000000 0.792106 0.496472 -0.355082
-17.05999947 -1.22000003 -0.05000000 200 87 112 97.000000 1.000000 4.000000 1.000000 -60.708740 114.000000 208.000000 0.944274 -0.024082 -0.328278
-17.06999969 -1.25000000 -0.06000000 200 87 112 97.000000 1.000000 4.000000 1.000000 -60.708740 114.000000 208.000000 0.959758 0.199894 0.197247
-17.06999969 -1.22000003 -0.04000000 200 87 112 97.000000 1.000000 4.000000 1.000000 -60.708740 114.000000 208.000000 0.939175 0.341401 -0.037361
-17.06999969 -1.26999998 -0.05000000 200 87 112 97.000000 1.000000 4.000000 1.000000 -60.708740 114.000000 208.000000 0.984674 0.137926 -0.106743
-17.06999969 -1.25999999 -0.06000000 200 87 112 97.000000 1.000000 4.000000 1.000000 -60.708740 114.000000 208.000000 0.925428 0.181154 -0.332817
-17.04999924 -1.25999999 -0.03000000 200 87 112 97.000000 1.000000 4.000000 1.000000 -60.708740 114.000000 208.000000 0.968533 -0.194221 -0.155634
-17.04999924 -1.23000002 -0.11000000 200 87 112 97.000000 1.000000 4.000000 1.000000 -60.708740 114.000000 208.000000 0.903801 0.287506 -0.316994
-17.04000092 -1.22000003 -0.13000000 200 87 112 97.000000 1.000000 4.000000 1.000000 -60.708740 114.000000 208.000000 0.876819 0.471484 -0.094297
-17.04000092 -1.23000002 -0.14000000 200 87 112 97.000000 1.000000 4.000000 1.000000 -60.708740 114.000000 208.000000 0.943247 0.289916 -0.161972
-17.06999969 -1.23000002 -0.14000000 200 87 112 97.000000 1.000000 4.000000 1.000000 -60.708740 114.000000 208.000000 0.960362 -0.220606 0.170408
-17.04000092 -1.22000003 -0.15000001 200 87 112 97.000000 1.000000 4.000000 1.000000 -60.708740 114.000000 208.000000 0.948384 0.313568 -0.047355
-17.11000061 -1.24000001 -0.11000000 200 87 112 97.000000 1.000000 4.000000 1.000000 -60.708740 114.000000 208.000000 0.964884 -0.214274 0.151940
-17.12999916 -1.23000002 -0.06000000 200 87 112 97.000000 1.000000 4.000000 1.000000 -60.708740 114.000000 208.000000 0.962749 -0.048699 -0.265974
-17.12000084 -1.25000000 -0.08000000 200 87 112 97.000000 1.000000 4.000000 1.000000 -60.708740 114.000000 208.000000 0.979339 -0.058880 0.193464
-17.12000084 -1.25999999 -0.07000000 200 87 112 97.000000 1.000000 4.000000 1.000000 -60.708740 114.000000 208.000000 0.920699 0.390170 -0.009014
-16.93000031 -1.40999997 -0.06000000 200 87 112 97.000000 1.000000 4.000000 1.000000 -60.708740 114.000000 208.000000 0.988226 0.090480 -0.123381
-16.93000031 -1.40999997 -0.08000000 200 87 112 97.000000 1.000000 4.000000 1.000000 -60.708740 114.000000 208.000000 0.971701 -0.120041 -0.203438
-16.93000031 -1.42999995 -0.07000000 200 87 112 97.000000 1.000000 4.000000 1.000000 -60.708740 114.000000 208.000000 0.962749 0.048699 -0.265974
-16.93000031 -1.44000006 -0.09000000 200 87 112 97.000000 1.000000 4.000000 1.000000 -60.708740 114.000000 208.000000 0.791218 0.076384 -0.606745
-16.93000031 -1.51999998 -0.07000000 200 87 112 97.000000 1.000000 4.000000 1.000000 -60.708740 114.000000 208.000000 0.767329 0.365008 -0.527234
-16.94000053 -1.50999999 -0.08000000 200 87 112 97.000000 1.000000 4.000000 1.000000 -60.708740 114.000000 208.000000 0.815229 0.124855 -0.565520
-16.97999954 -1.45000005 -0.09000000 200 87 112 97.000000 1.000000 4.000000 1.000000 -60.708740 114.000000 208.000000 0.896179 -0.193180 -0.399431
-16.98999977 -1.38999999 -0.12000000 200 87 112 97.000000 1.000000 4.000000 1.000000 -60.708740 114.000000 208.000000 0.935531 0.281079 0.213955
-16.98999977 -1.40999997 -0.12000000 200 87 112 97.000000 1.000000 4.000000 1.000000 -60.708740 114.000000 208.000000 0.889509 0.266704 -0.371001
-16.98999977 -1.39999998 -0.12000000 200 87 112 97.000000 1.000000 4.000000 1.000000 -60.708740 114.000000 208.000000 0.994570 0.052229 -0.090011
-17.00000000 -1.38999999 -0.11000000 200 87 112 97.000000 1.000000 4.000000 1.000000 -60.708740 114.000000 208.000000 0.973716 0.225074 0.034905
-17.00000000 -1.48000002 -0.09000000 200 87 112 97.000000 1.000000 4.000000 1.000000 -60.708740 114.000000 208.000000 0.991868 -0.009930 -0.126880
-16.92000008 -1.57000005 -0.06000000 200 87 112 97.000000 1.000000 4.000000 1.000000 -60.708740 114.000000 208.000000 0.900241 -0.174287 -0.398987
-16.90999985 -1.54999995 -0.04000000 200 87 112 97.000000 1.000000 4.000000 1.000000 -60.708740 114.000000 208.000000 0.935626 0.267122 -0.230760
-16.90999985 -1.63000000 -0.05000000 200 87 112 97.000000 1.000000 4.000000 1.000000 -60.708740 114.000000 208.000000 0.801610 0.037904 -0.596645
-16.89999962 -1.64999998 -0.04000000 200 87 112 97.000000 1.000000 4.000000 1.000000 -60.708740 114.000000 208.000000 0.730365 -0.015361 -0.682884
-16.89999962 -1.63999999 -0.06000000 200 87 112 97.000000 1.000000 4.000000 1.000000 -60.708740 114.000000 208.000000 0.821852 0.486849 -0.295867
-16.89999962 -1.64999998 -0.03000000 200 87 112 97.000000 1.000000 4.000000 1.000000 -60.708740 114.000000 208.000000 -0.629938 -0.219312 0.745037
-16.89999962 -1.67999995 -0.03000000 200 87 112 97.000000 1.000000 4.000000 1.000000 -60.708740 114.000000 208.000000 0.766839 -0.018092 -0.641584
-16.97999954 -1.61000001 -0.09000000 200 87 112 97.000000 1.000000 4.000000 1.000000 -60.708740 114.000000 208.000000 0.930459 0.174374 -0.322243
-16.97999954 -1.62000000 -0.08000000 200 87 112 97.000000 1.000000 4.000000 1.000000 -60.708740 114.000000 208.000000 0.969423 0.091787 -0.227582
-16.96999931 -1.63000000 -0.10000000 200 87 112 97.000000 1.000000 4.000000 1.000000 -60.708740 114.000000 208.000000 0.812017 0.147504 -0.564687
-16.98999977 -1.62000000 -0.10000000 200 87 112 97.000000 1.000000 4.000000 1.000000 -60.708740 114.000000 208.000000 0.918934 -0.027450 -0.393455
-16.98999977 -1.60000002 -0.08000000 200 87 112 97.000000 1.000000 4.000000 1.000000 -60.708740 114.000000 208.000000 0.976889 0.095095 -0.191426
-16.97999954 -1.69000006 -0.06000000 200 87 112 97.000000 1.000000 4.000000 1.000000 -60.708740 114.000000 208.000000 0.963222 0.234648 -0.130936
-16.97999954 -1.70000005 -0.07000000 200 87 112 97.000000 1.000000 4.000000 1.000000 -60.708740 114.000000 208.000000 0.803946 -0.106512 -0.585086
-17.04000092 -1.66999996 -0.07000000 200 87 112 97.000000 1.000000 4.000000 1.000000 -60.708740 114.000000 208.000000 0.938376 0.332369 -0.094772
-17.04999924 -1.63999999 -0.07000000 200 87 112 97.000000 1.000000 4.000000 1.000000 -60.708740 114.000000 208.000000 0.998301 0.041200 0.041200
-16.79999924 -2.00000000 -0.04000000 200 87 112 97.000000 1.000000 4.000000 1.000000 -60.708740 114.000000 208.000000 0.541793 0.432440 -0.720733
-16.78000069 -2.04999995 -0.05000000 200 87 112 97.000000 1.000000 4.000000 1.000000 -60.708740 114.000000 208.000000 0.881576 0.396634 -0.255941
-16.65999985 -2.36999989 -0.06000000 200 87 112 97.000000 1.000000 4.000000 1.000000 -60.708740 114.000000 208.000000 -0.644675 -0.220095 0.732088
-16.78000069 -2.06999993 -0.04000000 200 87 112 97.000000 1.000000 4.000000 1.000000 -60.708740 114.000000 208.000000 0.701318 0.143280 -0.698301
-16.75000000 -2.05999994 -0.04000000 200 87 112 97.000000 1.000000 4.000000 1.000000 -60.708740 114.000000 208.000000 0.727572 -0.006929 -0.685996
-16.77000046 -2.18000007 -0.04000000 200 87 112 97.000000 1.000000 4.000000 1.000000 -60.708740 114.000000 208.000000 -0.570598 -0.091007 0.816172
-16.78000069 -2.20000005 -0.06000000 200 87 112 97.000000 1.000000 4.000000 1.000000 -60.708740 114.000000 208.000000 -0.621620 -0.243927 0.744371
-16.77000046 -2.19000006 -0.04000000 200 87 112 97.000000 1.000000 4.000000 1.000000 -60.708740 114.000000 208.000000 0.737085 0.292596 -0.609174
-16.75000000 -2.20000005 -0.04000000 200 87 112 97.000000 1.000000 4.000000 1.000000 -60.708740 114.000000 208.000000 -0.490855 -0.282047 0.824325
-16.79000092 -2.07999992 -0.06000000 200 87 112 97.000000 1.000000 4.000000 1.000000 -60.708740 114.000000 208.000000 0.684356 0.326735 -0.651845
-16.79000092 -2.10999990 -0.04000000 200 87 112 97.000000 1.000000 4.000000 1.000000 -60.708740 114.000000 208.000000 0.837677 0.133500 -0.529599
-16.79999924 -2.07999992 -0.06000000 200 87 112 97.000000 1.000000 4.000000 1.000000 -60.708740 114.000000 208.000000 0.793175 0.247770 -0.556313
-16.79000092 -2.17000008 -0.03000000 200 87 112 97.000000 1.000000 4.000000 1.000000 -60.708740 114.000000 208.000000 0.580476 0.456686 -0.674155
-16.86000061 -2.19000006 -0.09000000 200 87 112 97.000000 1.000000 4.000000 1.000000 -60.708740 114.000000 208.000000 0.920253 0.176700 -0.349159
-16.85000038 -2.19000006 -0.07000000 200 87 112 97.000000 1.000000 4.000000 1.000000 -60.708740 114.000000 208.000000 0.808045 0.070078 -0.584938
-16.85000038 -2.20000005 -0.09000000 200 87 112 97.000000 1.000000 4.000000 1.000000 -60.708740 114.000000 208.000000 0.728225 0.469448 -0.499307
-16.84000015 -2.21000004 -0.07000000 200 87 112 97.000000 1.000000 4.000000 1.000000 -60.708740 114.000000 208.000000 0.910817 0.054998 -0.409130
-16.70999908 -2.28999996 -0.08000000 200 87 112 97.000000 1.000000 4.000000 1.000000 -60.708740 114.000000 208.000000 0.831894 0.364644 -0.418315
-16.77000046 -2.28999996 -0.05000000 200 87 112 97.000000 1.000000 4.000000 1.000000 -60.708740 114.000000 208.000000 -0.571596 -0.294555 0.765843
-16.73999977 -2.36999989 -0.09000000 200 87 112 97.000000 1.000000 4.000000 1.000000 -60.708740 114.000000 208.000000 0.487272 0.554251 -0.674813
-16.77000046 -2.33999991 -0.06000000 200 87 112 97.000000 1.000000 4.000000 1.000000 -60.708740 114.000000 208.000000 0.737966 0.561247 -0.374710
-16.73999977 -2.35999990 -0.06000000 200 87 112 97.000000 1.000000 4.000000 1.000000 -60.708740 114.000000 208.000000 -0.654786 -0.341272 0.674380
-16.78000069 -2.31999993 -0.10000000 200 87 112 97.000000 1.000000 4.000000 1.000000 -60.708740 114.000000 208.000000 -0.628778 -0.145564 0.763838
-16.80999947 -2.25999999 -0.06000000 200 87 112 97.000000 1.000000 4.000000 1.000000 -60.708740 114.000000 208.000000 0.891834 0.256718 -0.372463
-16.79999924 -2.25999999 -0.05000000 200 87 112 97.000000 1.000000 4.000000 1.000000 -60.708740 114.000000 208.000000 -0.523596 -0.328248 0.786194
-16.80999947 -2.23000002 -0.07000000 200 87 112 97.000000 1.000000 4.000000 1.000000 -60.708740 114.000000 208.000000 -0.516800 -0.252968 0.817878
-16.79999924 -2.29999995 -0.10000000 200 87 112 97.000000 1.000000 4.000000 1.000000 -60.708740 114.000000 208.000000 -0.592612 0.015195 0.805345
-16.80999947 -2.26999998 -0.07000000 200 87 112 97.000000 1.000000 4.000000 1.000000 -60.708740 114.000000 208.000000 0.725571 0.117219 -0.678090
-16.79999924 -2.28999996 -0.09000000 200 87 112 97.000000 1.000000 4.000000 1.000000 -60.708740 114.000000 208.000000 0.739979 0.338415 -0.581297
-16.86000061 -2.26999998 -0.05000000 200 87 112 97.000000 1.000000 4.000000 1.000000 -60.708740 114.000000 208.000000 0.631995 0.530876 -0.564582
-16.82999992 -2.28999996 -0.10000000 200 87 112 97.000000 1.000000 4.000000 1.000000 -60.708740 114.000000 208.000000 0.882053 0.424035 -0.205369
-16.84000015 -2.29999995 -0.07000000 200 87 112 97.000000 1.000000 4.000000 1.000000 -60.708740 114.000000 208.000000 0.866646 0.420422 -0.268645
-16.82999992 -2.26999998 -0.14000000 200 87 112 97.000000 1.000000 4.000000 1.000000 -60.708740 114.000000 208.000000 0.771561 0.101020 -0.628083
-16.84000015 -2.25000000 -0.11000000 200 87 112 97.000000 1.000000 4.000000 1.000000 -60.708740 114.000000 208.000000 0.956341 0.182732 -0.228081
-16.81999969 -2.29999995 -0.11000000 200 87 112 97.000000 1.000000 4.000000 1.000000 -60.708740 114.000000 208.000000 0.970701 0.133583 -0.199738
-16.84000015 -2.28999996 -0.13000000 200 87 112 97.000000 1.000000 4.000000 1.000000 -60.708740 114.000000 208.000000 0.862868 0.083321 -0.498514
-16.84000015 -2.29999995 -0.13000000 200 87 112 97.000000 1.000000 4.000000 1.000000 -60.708740 114.000000 208.000000 0.705130 0.098630 -0.702185
-16.85000038 -2.24000001 -0.12000000 200 87 112 97.000000 1.000000 4.000000 1.000000 -60.708740 114.000000 208.000000 0.918278 0.161718 -0.361405
-16.81999969 -2.31999993 -0.10000000 200 87 112 97.000000 1.000000 4.000000 1.000000 -60.708740 114.000000 208.000000 -0.601083 -0.296534 0.742137
-16.81999969 -2.34999990 -0.10000000 200 87 112 97.000000 1.000000 4.000000 1.000000 -60.708740 114.000000 208.000000 0.970179 0.035301 -0.239806
-16.79999924 -2.34999990 -0.10000000 200 87 112 97.000000 1.000000 4.000000 1.000000 -60.708740 114.000000 208.000000 0.732133 0.507370 -0.454485
-16.81999969 -2.34999990 -0.09000000 200 87 112 97.000000 1.000000 4.000000 1.000000 -60.708740 114.000000 208.000000 0.771087 0.061515 -0.633751
-16.82999992 -2.38000011 -0.10000000 200 87 112 97.000000 1.000000 4.000000 1.000000 -60.708740 114.000000 208.000000 0.958544 0.033655 -0.282951
-16.81999969 -2.32999992 -0.11000000 200 87 112 97.000000 1.000000 4.000000 1.000000 -60.708740 114.000000 208.000000 0.947624 0.265117 -0.178104
-16.79999924 -2.36999989 -0.12000000 200 87 112 97.000000 1.000000 4.000000 1.000000 -60.708740 114.000000 208.000000 0.490565 0.457530 -0.741628
-16.92000008 -1.72000003 -0.03000000 200 87 112 97.000000 1.000000 4.000000 1.000000 -60.708740 114.000000 208.000000 0.797363 -0.125744 -0.590255
-16.89999962 -1.83000004 -0.03000000 200 87 112 97.000000 1.000000 4.000000 1.000000 -60.708740 114.000000 208.000000 -0.667844 -0.055773 0.742208
-17.02000046 -1.73000002 -0.11000000 200 87 112 97.000000 1.000000 4.000000 1.000000 -60.708740 114.000000 208.000000 -0.760344 -0.139471 0.634370
-16.96999931 -1.83000004 -0.03000000 200 87 112 97.000000 1.000000 4.000000 1.000000 -60.708740 114.000000 208.000000 0.785941 -0.125810 -0.605367
-16.88999939 -2.20000005 -0.13000000 200 87 112 97.000000 1.000000 4.000000 1.000000 -60.708740 114.000000 208.000000 0.924666 0.024640 -0.379982
-16.87000084 -2.24000001 -0.08000000 200 87 112 97.000000 1.000000 4.000000 1.000000 -60.708740 114.000000 208.000000 0.680480 0.255378 -0.686825
-16.88999939 -2.24000001 -0.08000000 200 87 112 97.000000 1.000000 4.000000 1.000000 -60.708740 114.000000 208.000000 0.682665 0.080057 -0.726333
-16.89999962 -2.26999998 -0.12000000 200 87 112 97.000000 1.000000 4.000000 1.000000 -60.708740 114.000000 208.000000 0.899966 0.087093 -0.427173
-16.89999962 -2.29999995 -0.17000000 200 87 112 97.000000 1.000000 4.000000 1.000000 -60.708740 114.000000 208.000000 -0.631656 -0.236675 0.738238
-16.88999939 -2.32999992 -0.17000000 200 87 112 97.000000 1.000000 4.000000 1.000000 -60.708740 114.000000 208.000000 -0.719451 -0.101518 0.687083
-16.90999985 -2.33999991 -0.13000000 200 87 112 97.000000 1.000000 4.000000 1.000000 -60.708740 114.000000 208.000000 0.991734 0.048626 -0.118737
-16.90999985 -2.35999990 -0.17000000 200 87 112 97.000000 1.000000 4.000000 1.000000 -60.708740 114.000000 208.000000 0.839173 0.020534 -0.543477
-16.95999908 -2.38000011 -0.13000000 200 87 112 97.000000 1.000000 4.000000 1.000000 -60.708740 114.000000 208.000000 0.682625 0.358501 -0.636789
-16.95000076 -2.38000011 -0.12000000 200 87 112 97.000000 1.000000 4.000000 1.000000 -60.708740 114.000000 208.000000 0.695213 0.468477 -0.545167
-16.98999977 -2.34999990 -0.12000000 200 87 112 97.000000 1.000000 4.000000 1.000000 -60.708740 114.000000 208.000000 0.732433 0.064753 -0.677753
-16.65999985 -2.46000004 -0.06000000 200 87 112 97.000000 1.000000 4.000000 1.000000 -60.708740 114.000000 208.000000 -0.546776 -0.264771 0.794313
-16.68000031 -2.46000004 -0.06000000 200 87 112 97.000000 1.000000 4.000000 1.000000 -60.708740 114.000000 208.000000 0.826129 0.215313 -0.520721
-16.65999985 -2.47000003 -0.06000000 200 87 112 97.000000 1.000000 4.000000 1.000000 -60.708740 114.000000 208.000000 0.655436 0.351418 -0.668512
-16.62000084 -2.48000002 -0.07000000 200 87 112 97.000000 1.000000 4.000000 1.000000 -60.708740 114.000000 208.000000 -0.527862 -0.474576 0.704371
-16.79999924 -2.40000010 -0.08000000 200 87 112 97.000000 1.000000 4.000000 1.000000 -60.708740 114.000000 208.000000 -0.523538 -0.270364 0.807967
-16.80999947 -2.42000008 -0.10000000 200 87 112 97.000000 1.000000 4.000000 1.000000 -60.708740 114.000000 208.000000 -0.588150 -0.387157 0.710063
-16.79000092 -2.46000004 -0.10000000 200 87 112 97.000000 1.000000 4.000000 1.000000 -60.708740 114.000000 208.000000 0.562966 0.492386 -0.663796
-16.80999947 -2.43000007 -0.09000000 200 87 112 97.000000 1.000000 4.000000 1.000000 -60.708740 114.000000 208.000000 -0.476828 -0.137686 0.868146
-16.79000092 -2.46000004 -0.10000000 200 87 112 97.000000 1.000000 4.000000 1.000000 -60.708740 114.000000 208.000000 0.562966 0.492386 -0.663796
-16.82999992 -2.44000006 -0.10000000 200 87 112 97.000000 1.000000 4.000000 1.000000 -60.708740 114.000000 208.000000 0.657721 0.272325 -0.702312
-16.79999924 -2.45000005 -0.12000000 200 87 112 97.000000 1.000000 4.000000 1.000000 -60.708740 114.000000 208.000000 0.871738 0.401757 -0.280472
-16.79999924 -2.49000001 -0.14000000 200 87 112 97.000000 1.000000 4.000000 1.000000 -60.708740 114.000000 208.000000 0.670697 0.220439 -0.708218
-16.85000038 -2.48000002 -0.14000000 200 87 112 97.000000 1.000000 4.000000 1.000000 -60.708740 114.000000 208.000000 0.775651 0.126062 -0.618445
-16.85000038 -2.50999999 -0.17000000 200 87 112 97.000000 1.000000 4.000000 1.000000 -60.708740 114.000000 208.000000 0.813948 0.186435 -0.550210
-16.79000092 -2.56999993 -0.09000000 200 87 112 97.000000 1.000000 4.000000 1.000000 -60.708740 114.000000 208.000000 0.858338 0.172850 -0.483092
-16.80999947 -2.61999989 -0.15000001 200 87 112 97.000000 1.000000 4.000000 1.000000 -60.708740 114.000000 208.000000 -0.611230 -0.424696 0.667856
-16.81999969 -2.63000011 -0.18000001 200 87 112 97.000000 1.000000 4.000000 1.000000 -60.708740 114.000000 208.000000 0.929330 0.265320 -0.256807
-16.82999992 -2.55999994 -0.16000000 200 87 112 97.000000 1.000000 4.000000 1.000000 -60.708740 114.000000 208.000000 0.768105 0.371873 -0.521272
-16.81999969 -2.66000009 -0.12000000 200 87 112 97.000000 1.000000 4.000000 1.000000 -60.708740 114.000000 208.000000 0.707712 0.276375 -0.650200
-16.80999947 -2.72000003 -0.14000000 200 87 112 97.000000 1.000000 4.000000 1.000000 -60.708740 114.000000 208.000000 0.898609 0.171095 -0.404015
-16.79999924 -2.72000003 -0.13000000 200 87 112 97.000000 1.000000 4.000000 1.000000 -60.708740 114.000000 208.000000 0.846042 0.430007 -0.315131
-16.82999992 -2.65000010 -0.13000000 200 87 112 97.000000 1.000000 4.000000 1.000000 -60.708740 114.000000 208.000000 0.874399 0.146458 -0.462576
-16.85000038 -2.65000010 -0.12000000 200 87 112 97.000000 1.000000 4.000000 1.000000 -60.708740 114.000000 208.000000 -0.594390 -0.302803 0.744990
-16.86000061 -2.65000010 -0.18000001 200 87 112 97.000000 1.000000 4.000000 1.000000 -60.708740 114.000000 208.000000 0.758748 0.450660 -0.470326
-16.82999992 -2.69000006 -0.15000001 200 87 112 97.000000 1.000000 4.000000 1.000000 -60.708740 114.000000 208.000000 0.739798 0.278419 -0.612521
-16.78000069 -2.78999996 -0.14000000 200 87 112 97.000000 1.000000 4.000000 1.000000 -60.708740 114.000000 208.000000 0.876628 0.036696 -0.479767
-16.76000023 -2.85999990 -0.09000000 200 87 112 97.000000 1.000000 4.000000 1.000000 -60.708740 114.000000 208.000000 0.821596 0.163122 -0.546234
-16.79000092 -2.75000000 -0.11000000 200 87 112 97.000000 1.000000 4.000000 1.000000 -60.708740 114.000000 208.000000 -0.420768 -0.357731 0.833656
-16.81999969 -2.78999996 -0.13000000 200 87 112 97.000000 1.000000 4.000000 1.000000 -60.708740 114.000000 208.000000 0.538064 0.541437 -0.646014
-16.86000061 -2.75999999 -0.12000000 200 87 112 97.000000 1.000000 4.000000 1.000000 -60.708740 114.000000 208.000000 0.575638 0.455505 -0.679085
-16.84000015 -2.75000000 -0.13000000 200 87 112 97.000000 1.000000 4.000000 1.000000 -60.708740 114.000000 208.000000 0.692254 0.351855 -0.630066
-16.86000061 -2.73000002 -0.14000000 200 87 112 97.000000 1.000000 4.000000 1.000000 -60.708740 114.000000 208.000000 0.744001 0.418808 -0.520636
-16.79000092 -2.85999990 -0.08000000 200 87 112 97.000000 1.000000 4.000000 1.000000 -60.708740 114.000000 208.000000 0.888405 0.201176 -0.412631
-16.84000015 -2.81999993 -0.12000000 200 87 112 97.000000 1.000000 4.000000 1.000000 -60.708740 114.000000 208.000000 0.674398 0.437942 -0.594469
-16.85000038 -2.81999993 -0.17000000 200 87 112 97.000000 1.000000 4.000000 1.000000 -60.708740 114.000000 208.000000 0.788260 0.279603 -0.548149
-16.71999931 -2.91000009 -0.06000000 200 87 112 97.000000 1.000000 4.000000 1.000000 -60.708740 114.000000 208.000000 -0.531595 -0.445480 0.720385
-16.71999931 -2.92000008 -0.07000000 200 87 112 97.000000 1.000000 4.000000 1.000000 -60.708740 114.000000 208.000000 0.753843 -0.006916 -0.657019
-16.72999954 -2.96000004 -0.08000000 200 87 112 97.000000 1.000000 4.000000 1.000000 -60.708740 114.000000 208.000000 0.526115 0.492711 -0.693136
-16.76000023 -2.91000009 -0.07000000 200 87 112 97.000000 1.000000 4.000000 1.000000 -60.708740 114.000000 208.000000 0.732883 0.179013 -0.656382
-16.78000069 -2.91000009 -0.08000000 200 87 112 97.000000 1.000000 4.000000 1.000000 -60.708740 114.000000 208.000000 -0.467082 -0.513624 0.719739
-16.75000000 -2.99000001 -0.05000000 200 87 112 97.000000 1.000000 4.000000 1.000000 -60.708740 114.000000 208.000000 0.792316 -0.070205 -0.606058
-16.75000000 -3.04999995 -0.05000000 200 87 112 97.000000 1.000000 4.000000 1.000000 -60.708740 114.000000 208.000000 0.679560 -0.029546 -0.733025
-16.76000023 -3.02999997 -0.08000000 200 87 112 97.000000 1.000000 4.000000 1.000000 -60.708740 114.000000 208.000000 0.690895 0.258887 -0.675012
-16.81999969 -2.96000004 -0.07000000 200 87 112 97.000000 1.000000 4.000000 1.000000 -60.708740 114.000000 208.000000 0.774263 0.366926 -0.515637
-16.81999969 -2.96000004 -0.07000000 200 87 112 97.000000 1.000000 4.000000 1.000000 -60.708740 114.000000 208.000000 0.774263 0.366926 -0.515637
-16.84000015 -2.95000005 -0.07000000 200 87 112 97.000000 1.000000 4.000000 1.000000 -60.708740 114.000000 208.000000 0.843014 0.253365 -0.474483
-16.86000061 -2.91000009 -0.17000000 200 87 112 97.000000 1.000000 4.000000 1.000000 -60.708740 114.000000 208.000000 0.886184 0.420388 -0.194814
-16.86000061 -2.96000004 -0.16000000 200 87 112 97.000000 1.000000 4.000000 1.000000 -60.708740 114.000000 208.000000 0.842686 0.456133 -0.286049
-16.80999947 -2.98000002 -0.09000000 200 87 112 97.000000 1.000000 4.000000 1.000000 -60.708740 114.000000 208.000000 0.796839 0.187402 -0.574394
-16.80999947 -2.99000001 -0.10000000 200 87 112 97.000000 1.000000 4.000000 1.000000 -60.708740 114.000000 208.000000 0.759446 0.271118 -0.591385
-16.80999947 -3.00000000 -0.13000000 200 87 112 97.000000 1.000000 4.000000 1.000000 -60.708740 114.000000 208.000000 0.866965 0.310395 -0.389905
-16.81999969 -2.98000002 -0.11000000 200 87 112 97.000000 1.000000 4.000000 1.000000 -60.708740 114.000000 208.000000 -0.638031 -0.314977 0.702642
-16.81999969 -3.00000000 -0.13000000 200 87 112 97.000000 1.000000 4.000000 1.000000 -60.708740 114.000000 208.000000 0.626691 0.472118 -0.619970
-16.80999947 -3.01999998 -0.12000000 200 87 112 97.000000 1.000000 4.000000 1.000000 -60.708740 114.000000 208.000000 0.801148 -0.001369 -0.598464
-16.87999916 -2.40000010 -0.14000000 200 87 112 97.000000 1.000000 4.000000 1.000000 -60.708740 114.000000 208.000000 0.972200 0.027708 -0.232509
-16.87999916 -2.47000003 -0.11000000 200 87 112 97.000000 1.000000 4.000000 1.000000 -60.708740 114.000000 208.000000 -0.545923 -0.206442 0.812004
-16.94000053 -2.39000010 -0.11000000 200 87 112 97.000000 1.000000 4.000000 1.000000 -60.708740 114.000000 208.000000 0.810062 0.439383 -0.388255
-16.87999916 -2.50000000 -0.11000000 200 87 112 97.000000 1.000000 4.000000 1.000000 -60.708740 114.000000 208.000000 0.967056 0.156645 -0.200661
-16.89999962 -2.49000001 -0.15000001 200 87 112 97.000000 1.000000 4.000000 1.000000 -60.708740 114.000000 208.000000 0.795689 0.541445 -0.271507
-16.88999939 -2.50000000 -0.16000000 200 87 112 97.000000 1.000000 4.000000 1.000000 -60.708740 114.000000 208.000000 0.946601 0.066223 -0.315534
-16.89999962 -2.53999996 -0.17000000 200 87 112 97.000000 1.000000 4.000000 1.000000 -60.708740 114.000000 208.000000 0.629668 0.435924 -0.643030
-16.92000008 -2.51999998 -0.18000001 200 87 112 97.000000 1.000000 4.000000 1.000000 -60.708740 114.000000 208.000000 0.833585 0.340655 -0.434845
-16.87999916 -2.58999991 -0.13000000 200 87 112 97.000000 1.000000 4.000000 1.000000 -60.708740 114.000000 208.000000 0.749188 0.352654 -0.560672
-16.87000084 -2.59999990 -0.11000000 200 87 112 97.000000 1.000000 4.000000 1.000000 -60.708740 114.000000 208.000000 0.777202 0.161477 -0.608179
-16.87999916 -2.59999990 -0.13000000 200 87 112 97.000000 1.000000 4.000000 1.000000 -60.708740 114.000000 208.000000 0.848757 0.301471 -0.434427
-16.94000053 -2.65000010 -0.18000001 200 87 112 97.000000 1.000000 4.000000 1.000000 -60.708740 114.000000 208.000000 0.846220 0.259549 -0.465344
-16.88999939 -2.61999989 -0.20999999 200 87 112 97.000000 1.000000 4.000000 1.000000 -60.708740 114.000000 208.000000 0.960739 0.148109 -0.234614
-16.87000084 -2.59999990 -0.20999999 200 87 112 97.000000 1.000000 4.000000 1.000000 -60.708740 114.000000 208.000000 0.698875 0.361713 -0.617039
-16.88999939 -2.64000010 -0.19000000 200 87 112 97.000000 1.000000 4.000000 1.000000 -60.708740 114.000000 208.000000 0.649631 0.322385 -0.688511
-16.88999939 -2.64000010 -0.19000000 200 87 112 97.000000 1.000000 4.000000 1.000000 -60.708740 114.000000 208.000000 0.649631 0.322385 -0.688511
