//X Y Z R G B PointSourceId ScanDirectionFlag NumberOfReturns ReturnNumber GpsTime Intensity Classification Nx Ny Nz
4.76000023 -11.18000031 0.09000000 30 131 175 0.000000 0.000000 0.000000 0.000000 -60.708740 0.000000 179.000000 -0.715609 0.635563 0.289765
4.76000023 -11.18999958 0.13000000 30 131 175 0.000000 0.000000 0.000000 0.000000 -60.708740 0.000000 179.000000 0.878214 -0.421960 -0.225145
4.76000023 -11.18000031 -0.01000000 30 131 175 0.000000 0.000000 0.000000 0.000000 -60.708740 0.000000 179.000000 0.750588 -0.583433 -0.310200
4.73999977 -11.18999958 0.05000000 30 131 175 0.000000 0.000000 0.000000 0.000000 -60.708740 0.000000 179.000000 0.829527 -0.484020 -0.278584
4.73999977 -11.18000031 0.04000000 30 131 175 0.000000 0.000000 0.000000 0.000000 -60.708740 0.000000 179.000000 0.716960 -0.690569 -0.095301
4.73000002 -11.18000031 -0.02000000 30 131 175 0.000000 0.000000 0.000000 0.000000 -60.708740 0.000000 179.000000 -0.446264 0.721653 0.529212
4.73000002 -11.18999958 -0.02000000 30 131 175 0.000000 0.000000 0.000000 0.000000 -60.708740 0.000000 179.000000 -0.355196 0.760671 0.543337
4.73000002 -11.18000031 -0.02000000 30 131 175 0.000000 0.000000 0.000000 0.000000 -60.708740 0.000000 179.000000 -0.446264 0.721653 0.529212
4.69999981 -11.23999977 0.10000000 30 131 175 0.000000 0.000000 0.000000 0.000000 -60.708740 0.000000 179.000000 -0.559752 0.821454 -0.109043
4.65000010 -11.23999977 0.13000000 30 131 175 0.000000 0.000000 0.000000 0.000000 -60.708740 0.000000 179.000000 -0.380197 0.919831 0.096753
4.63000011 -11.25000000 0.07000000 30 131 175 0.000000 0.000000 0.000000 0.000000 -60.708740 0.000000 179.000000 -0.171291 0.973185 0.153527
4.67999983 -11.25000000 0.01000000 30 131 175 0.000000 0.000000 0.000000 0.000000 -60.708740 0.000000 179.000000 -0.365343 0.853503 0.371561
4.65999985 -11.27000046 0.06000000 30 131 175 0.000000 0.000000 0.000000 0.000000 -60.708740 0.000000 179.000000 -0.130605 0.905810 0.403051
4.63999987 -11.26000023 0.01000000 30 131 175 0.000000 0.000000 0.000000 0.000000 -60.708740 0.000000 179.000000 0.607628 -0.627826 -0.486439
4.65000010 -11.26000023 0.02000000 30 131 175 0.000000 0.000000 0.000000 0.000000 -60.708740 0.000000 179.000000 0.358224 -0.623212 -0.695184
4.75000000 -11.42000008 0.25000000 30 131 175 0.000000 0.000000 0.000000 0.000000 -60.708740 0.000000 179.000000 -0.390567 0.911322 0.130189
4.76999998 -11.36999989 0.23999999 30 131 175 0.000000 0.000000 0.000000 0.000000 -60.708740 0.000000 179.000000 -0.519669 0.847881 0.105085
4.71999979 -11.43999958 0.25000000 30 131 175 0.000000 0.000000 0.000000 0.000000 -60.708740 0.000000 179.000000 -0.300181 0.936511 0.181215
4.76000023 -11.38000011 0.20000000 30 131 175 0.000000 0.000000 0.000000 0.000000 -60.708740 0.000000 179.000000 0.753028 -0.645666 0.126747
4.76000023 -11.42000008 0.15000001 30 131 175 0.000000 0.000000 0.000000 0.000000 -60.708740 0.000000 179.000000 -0.210980 0.914246 0.345892
4.76000023 -11.42000008 0.16000000 30 131 175 0.000000 0.000000 0.000000 0.000000 -60.708740 0.000000 179.000000 -0.543070 0.829974 0.127351
4.76000023 -11.40999985 0.15000001 30 131 175 0.000000 0.000000 0.000000 0.000000 -60.708740 0.000000 179.000000 -0.620468 0.552842 0.556224
4.71000004 -11.43999958 0.19000000 30 131 175 0.000000 0.000000 0.000000 0.000000 -60.708740 0.000000 179.000000 -0.181317 0.894979 0.407600
4.71999979 -11.43000031 0.22000000 30 131 175 0.000000 0.000000 0.000000 0.000000 -60.708740 0.000000 179.000000 -0.587557 0.806646 -0.064020
4.71999979 -11.43000031 0.17000000 30 131 175 0.000000 0.000000 0.000000 0.000000 -60.708740 0.000000 179.000000 -0.438244 0.688193 0.578215
4.61999989 -11.28999996 0.23000000 30 131 175 0.000000 0.000000 0.000000 0.000000 -60.708740 0.000000 179.000000 -0.446988 0.778572 0.440486
4.69999981 -11.43999958 0.23999999 30 131 175 0.000000 0.000000 0.000000 0.000000 -60.708740 0.000000 179.000000 -0.655659 0.754360 0.032430
4.67000008 -11.43999958 0.18000001 30 131 175 0.000000 0.000000 0.000000 0.000000 -60.708740 0.000000 179.000000 -0.097458 0.795668 0.597842
4.65999985 -11.44999981 0.18000001 30 131 175 0.000000 0.000000 0.000000 0.000000 -60.708740 0.000000 179.000000 -0.223879 0.709210 0.668505
4.67000008 -11.43999958 0.18000001 30 131 175 0.000000 0.000000 0.000000 0.000000 -60.708740 0.000000 179.000000 -0.097458 0.795668 0.597842
4.76999998 -11.35000038 0.09000000 30 131 175 0.000000 0.000000 0.000000 0.000000 -60.708740 0.000000 179.000000 -0.488617 0.870651 0.056751
4.78000021 -11.35999966 0.06000000 30 131 175 0.000000 0.000000 0.000000 0.000000 -60.708740 0.000000 179.000000 -0.269725 0.947427 0.172136
4.73000002 -11.34000015 0.01000000 30 131 175 0.000000 0.000000 0.000000 0.000000 -60.708740 0.000000 179.000000 -0.597942 0.799623 -0.055391
4.75000000 -11.38000011 0.11000000 30 131 175 0.000000 0.000000 0.000000 0.000000 -60.708740 0.000000 179.000000 -0.375131 0.876318 0.302231
4.78000021 -11.38000011 0.11000000 30 131 175 0.000000 0.000000 0.000000 0.000000 -60.708740 0.000000 179.000000 -0.456639 0.813040 0.361174
4.76999998 -11.36999989 0.07000000 30 131 175 0.000000 0.000000 0.000000 0.000000 -60.708740 0.000000 179.000000 0.459642 -0.725139 -0.512741
4.76000023 -11.38000011 0.10000000 30 131 175 0.000000 0.000000 0.000000 0.000000 -60.708740 0.000000 179.000000 -0.360865 0.914287 0.183998
4.71999979 -11.39999962 0.12000000 30 131 175 0.000000 0.000000 0.000000 0.000000 -60.708740 0.000000 179.000000 -0.281320 0.959437 -0.018427
4.71999979 -11.38000011 0.08000000 30 131 175 0.000000 0.000000 0.000000 0.000000 -60.708740 0.000000 179.000000 -0.303897 0.817215 0.489699
4.73999977 -11.38000011 0.09000000 30 131 175 0.000000 0.000000 0.000000 0.000000 -60.708740 0.000000 179.000000 -0.165077 0.900027 0.403362
4.63000011 -11.28999996 0.04000000 30 131 175 0.000000 0.000000 0.000000 0.000000 -60.708740 0.000000 179.000000 -0.585403 0.787161 0.194115
4.65000010 -11.30000019 0.03000000 30 131 175 0.000000 0.000000 0.000000 0.000000 -60.708740 0.000000 179.000000 -0.617442 0.782286 0.082422
4.63000011 -11.31000042 -0.01000000 30 131 175 0.000000 0.000000 0.000000 0.000000 -60.708740 0.000000 179.000000 0.111371 0.940613 0.320694
4.65999985 -11.39000034 0.08000000 30 131 175 0.000000 0.000000 0.000000 0.000000 -60.708740 0.000000 179.000000 0.616611 -0.726088 -0.304281
4.75000000 -11.46000004 0.23000000 30 131 175 0.000000 0.000000 0.000000 0.000000 -60.708740 0.000000 179.000000 -0.456625 0.643958 0.613851
4.67000008 -11.46000004 0.28000000 30 131 175 0.000000 0.000000 0.000000 0.000000 -60.708740 0.000000 179.000000 -0.502899 0.859059 -0.095451
4.65999985 -11.47999954 0.27000001 30 131 175 0.000000 0.000000 0.000000 0.000000 -60.708740 0.000000 179.000000 -0.439075 0.876671 0.196623
4.67000008 -11.47999954 0.22000000 30 131 175 0.000000 0.000000 0.000000 0.000000 -60.708740 0.000000 179.000000 0.642092 -0.628750 -0.438624
4.67000008 -11.46000004 0.19000000 30 131 175 0.000000 0.000000 0.000000 0.000000 -60.708740 0.000000 179.000000 -0.416690 0.739501 0.528685
4.67999983 -11.47000027 0.23000000 30 131 175 0.000000 0.000000 0.000000 0.000000 -60.708740 0.000000 179.000000 -0.545514 0.762424 0.348028
4.63999987 -11.48999977 0.20999999 30 131 175 0.000000 0.000000 0.000000 0.000000 -60.708740 0.000000 179.000000 -0.254822 0.678999 0.688495
4.53999996 -11.35999966 0.33000001 30 131 175 0.000000 0.000000 0.000000 0.000000 -60.708740 0.000000 179.000000 0.112708 0.908619 0.402130
4.59999990 -11.32999992 0.31999999 30 131 175 0.000000 0.000000 0.000000 0.000000 -60.708740 0.000000 179.000000 -0.664215 0.617604 0.421169
4.50000000 -11.38000011 0.38999999 30 131 175 0.000000 0.000000 0.000000 0.000000 -60.708740 0.000000 179.000000 -0.145991 0.738986 0.657713
4.53000021 -11.38000011 0.36000001 30 131 175 0.000000 0.000000 0.000000 0.000000 -60.708740 0.000000 179.000000 -0.256459 0.966279 -0.023093
4.53000021 -11.39000034 0.34000000 30 131 175 0.000000 0.000000 0.000000 0.000000 -60.708740 0.000000 179.000000 -0.619362 0.733999 0.278633
4.51000023 -11.39000034 0.34999999 30 131 175 0.000000 0.000000 0.000000 0.000000 -60.708740 0.000000 179.000000 0.123388 0.846295 0.518228
4.46000004 -11.40999985 0.36000001 30 131 175 0.000000 0.000000 0.000000 0.000000 -60.708740 0.000000 179.000000 -0.342397 0.867509 0.360822
4.36999989 -11.43000031 0.46000001 30 131 175 0.000000 0.000000 0.000000 0.000000 -60.708740 0.000000 179.000000 -0.238469 0.823101 0.515400
4.44999981 -11.40999985 0.41999999 30 131 175 0.000000 0.000000 0.000000 0.000000 -60.708740 0.000000 179.000000 -0.221396 0.832144 0.508448
4.44000006 -11.40999985 0.40000001 30 131 175 0.000000 0.000000 0.000000 0.000000 -60.708740 0.000000 179.000000 -0.276617 0.916745 0.288203
4.42999983 -11.44999981 0.44000000 30 131 175 0.000000 0.000000 0.000000 0.000000 -60.708740 0.000000 179.000000 0.115209 0.977418 0.177149
4.44999981 -11.39000034 0.38999999 30 131 175 0.000000 0.000000 0.000000 0.000000 -60.708740 0.000000 179.000000 -0.120475 0.655917 0.745157
4.40000010 -11.40999985 0.37000000 30 131 175 0.000000 0.000000 0.000000 0.000000 -60.708740 0.000000 179.000000 0.223221 0.811293 0.540349
4.40000010 -11.42000008 0.38000000 30 131 175 0.000000 0.000000 0.000000 0.000000 -60.708740 0.000000 179.000000 0.498072 0.765887 0.406622
4.30999994 -11.43000031 0.46000001 30 131 175 0.000000 0.000000 0.000000 0.000000 -60.708740 0.000000 179.000000 0.543239 0.773996 0.325303
4.32999992 -11.43999958 0.44999999 30 131 175 0.000000 0.000000 0.000000 0.000000 -60.708740 0.000000 179.000000 0.385518 0.912625 0.135983
4.30999994 -11.43000031 0.46000001 30 131 175 0.000000 0.000000 0.000000 0.000000 -60.708740 0.000000 179.000000 0.543239 0.773996 0.325303
4.61000013 -11.31999969 0.28000000 30 131 175 0.000000 0.000000 0.000000 0.000000 -60.708740 0.000000 179.000000 -0.363820 0.847872 0.385680
4.59000015 -11.30000019 0.25000000 30 131 175 0.000000 0.000000 0.000000 0.000000 -60.708740 0.000000 179.000000 -0.486483 0.621150 0.614416
4.59000015 -11.30000019 0.23999999 30 131 175 0.000000 0.000000 0.000000 0.000000 -60.708740 0.000000 179.000000 -0.343615 0.821825 0.454458
4.57999992 -11.35000038 0.28000000 30 131 175 0.000000 0.000000 0.000000 0.000000 -60.708740 0.000000 179.000000 -0.468706 0.692218 0.548770
4.57999992 -11.34000015 0.27000001 30 131 175 0.000000 0.000000 0.000000 0.000000 -60.708740 0.000000 179.000000 -0.116539 0.777416 0.618097
4.55999994 -11.31000042 0.28000000 30 131 175 0.000000 0.000000 0.000000 0.000000 -60.708740 0.000000 179.000000 -0.474595 0.669129 0.571862
4.57000017 -11.31999969 0.28999999 30 131 175 0.000000 0.000000 0.000000 0.000000 -60.708740 0.000000 179.000000 -0.122652 0.858563 0.497822
4.55999994 -11.34000015 0.28999999 30 131 175 0.000000 0.000000 0.000000 0.000000 -60.708740 0.000000 179.000000 -0.184891 0.865291 0.465926
4.53999996 -11.34000015 0.28999999 30 131 175 0.000000 0.000000 0.000000 0.000000 -60.708740 0.000000 179.000000 -0.383135 0.818733 0.427649
4.57999992 -11.31000042 0.18000001 30 131 175 0.000000 0.000000 0.000000 0.000000 -60.708740 0.000000 179.000000 -0.651249 0.726212 0.220206
4.59000015 -11.28999996 0.17000000 30 131 175 0.000000 0.000000 0.000000 0.000000 -60.708740 0.000000 179.000000 -0.656645 0.672939 0.340543
4.46000004 -11.35000038 0.20999999 30 131 175 0.000000 0.000000 0.000000 0.000000 -60.708740 0.000000 179.000000 0.311692 0.663758 0.679907
4.48999977 -11.39999962 0.16000000 30 131 175 0.000000 0.000000 0.000000 0.000000 -60.708740 0.000000 179.000000 -0.398678 0.824359 0.401855
4.61000013 -11.30000019 0.12000000 30 131 175 0.000000 0.000000 0.000000 0.000000 -60.708740 0.000000 179.000000 0.491859 -0.751772 -0.439219
4.59000015 -11.32999992 0.11000000 30 131 175 0.000000 0.000000 0.000000 0.000000 -60.708740 0.000000 179.000000 -0.343561 0.772610 0.533891
4.57000017 -11.35999966 0.09000000 30 131 175 0.000000 0.000000 0.000000 0.000000 -60.708740 0.000000 179.000000 -0.260551 0.962134 0.080072
4.57999992 -11.38000011 0.10000000 30 131 175 0.000000 0.000000 0.000000 0.000000 -60.708740 0.000000 179.000000 -0.048396 0.858676 0.510228
4.42999983 -11.39999962 0.31000000 30 131 175 0.000000 0.000000 0.000000 0.000000 -60.708740 0.000000 179.000000 -0.111384 0.990971 0.074639
4.42000008 -11.43000031 0.18000001 30 131 175 0.000000 0.000000 0.000000 0.000000 -60.708740 0.000000 179.000000 -0.034843 0.820889 0.570023
4.55000019 -11.53999996 0.34999999 30 131 175 0.000000 0.000000 0.000000 0.000000 -60.708740 0.000000 179.000000 -0.448121 0.777286 0.441603
4.42000008 -11.47000027 0.49000001 30 131 175 0.000000 0.000000 0.000000 0.000000 -60.708740 0.000000 179.000000 0.126903 0.979496 0.156473
4.32000017 -11.47000027 0.52999997 30 131 175 0.000000 0.000000 0.000000 0.000000 -60.708740 0.000000 179.000000 0.535259 0.824751 0.182440
4.42999983 -11.57999992 0.34000000 30 131 175 0.000000 0.000000 0.000000 0.000000 -60.708740 0.000000 179.000000 0.137909 0.988539 0.061422
4.34999990 -11.57999992 0.47000000 30 131 175 0.000000 0.000000 0.000000 0.000000 -60.708740 0.000000 179.000000 0.009949 0.991551 0.129333
4.36000013 -11.53999996 0.31999999 30 131 175 0.000000 0.000000 0.000000 0.000000 -60.708740 0.000000 179.000000 0.259158 0.941008 0.217582
4.30999994 -11.53999996 0.31999999 30 131 175 0.000000 0.000000 0.000000 0.000000 -60.708740 0.000000 179.000000 0.073464 0.773532 0.629485
4.28999996 -11.59000015 0.37000000 30 131 175 0.000000 0.000000 0.000000 0.000000 -60.708740 0.000000 179.000000 -0.077012 0.917391 0.390465
4.32000017 -11.59000015 0.38999999 30 131 175 0.000000 0.000000 0.000000 0.000000 -60.708740 0.000000 179.000000 0.510096 0.631307 0.584169
4.28999996 -11.63000011 0.55000001 30 131 175 0.000000 0.000000 0.000000 0.000000 -60.708740 0.000000 179.000000 0.484436 0.845865 0.223235
4.32999992 -11.61999989 0.41999999 30 131 175 0.000000 0.000000 0.000000 0.000000 -60.708740 0.000000 179.000000 0.463020 0.858171 0.221707
4.57999992 -11.52999973 0.28000000 30 131 175 0.000000 0.000000 0.000000 0.000000 -60.708740 0.000000 179.000000 -0.373580 0.620439 0.689560
4.59999990 -11.50000000 0.23000000 30 131 175 0.000000 0.000000 0.000000 0.000000 -60.708740 0.000000 179.000000 -0.166431 0.814164 0.556271
4.48999977 -11.52000046 0.25999999 30 131 175 0.000000 0.000000 0.000000 0.000000 -60.708740 0.000000 179.000000 0.104664 0.712012 0.694323
4.50000000 -11.56000042 0.28999999 30 131 175 0.000000 0.000000 0.000000 0.000000 -60.708740 0.000000 179.000000 0.082908 0.914710 0.395514
4.46000004 -11.56000042 0.31000000 30 131 175 0.000000 0.000000 0.000000 0.000000 -60.708740 0.000000 179.000000 -0.004151 0.707101 0.707101
4.05999994 -11.50000000 0.69000000 30 131 175 0.000000 0.000000 0.000000 0.000000 -60.708740 0.000000 179.000000 0.697586 0.272968 0.662467
3.97000003 -11.52000046 0.69000000 30 131 175 0.000000 0.000000 0.000000 0.000000 -60.708740 0.000000 179.000000 0.892719 0.448391 0.044704
3.97000003 -11.56000042 0.69999999 30 131 175 0.000000 0.000000 0.000000 0.000000 -60.708740 0.000000 179.000000 0.887801 0.273976 0.369792
4.11000013 -11.72000027 0.69000000 30 131 175 0.000000 0.000000 0.000000 0.000000 -60.708740 0.000000 179.000000 0.303207 0.891698 0.336067
4.19000006 -11.44999981 0.52999997 30 131 175 0.000000 0.000000 0.000000 0.000000 -60.708740 0.000000 179.000000 0.648925 0.363069 0.668639
4.17999983 -11.44999981 0.54000002 30 131 175 0.000000 0.000000 0.000000 0.000000 -60.708740 0.000000 179.000000 0.527196 0.431343 0.732125
4.23999977 -11.44999981 0.57999998 30 131 175 0.000000 0.000000 0.000000 0.000000 -60.708740 0.000000 179.000000 0.778613 0.479521 0.404749
4.23000002 -11.43000031 0.43000001 30 131 175 0.000000 0.000000 0.000000 0.000000 -60.708740 0.000000 179.000000 0.303931 0.931403 0.200287
4.28000021 -11.43000031 0.46000001 30 131 175 0.000000 0.000000 0.000000 0.000000 -60.708740 0.000000 179.000000 0.049881 0.759618 0.648454
4.15999985 -11.43000031 0.43000001 30 131 175 0.000000 0.000000 0.000000 0.000000 -60.708740 0.000000 179.000000 0.362348 0.827545 0.428804
4.15999985 -11.43999958 0.43000001 30 131 175 0.000000 0.000000 0.000000 0.000000 -60.708740 0.000000 179.000000 0.520631 0.728884 0.444603
4.17999983 -11.43999958 0.34999999 30 131 175 0.000000 0.000000 0.000000 0.000000 -60.708740 0.000000 179.000000 0.641546 0.527044 0.557354
4.23999977 -11.47999954 0.51999998 30 131 175 0.000000 0.000000 0.000000 0.000000 -60.708740 0.000000 179.000000 0.236241 0.810630 0.535788
4.26999998 -11.57999992 0.63999999 30 131 175 0.000000 0.000000 0.000000 0.000000 -60.708740 0.000000 179.000000 -0.028407 0.875205 0.482918
4.23000002 -11.56000042 0.62000000 30 131 175 0.000000 0.000000 0.000000 0.000000 -60.708740 0.000000 179.000000 0.612984 0.771173 0.171879
4.13000011 -11.52999973 0.63999999 30 131 175 0.000000 0.000000 0.000000 0.000000 -60.708740 0.000000 179.000000 0.367526 0.522956 0.769053
4.17000008 -11.48999977 0.56999999 30 131 175 0.000000 0.000000 0.000000 0.000000 -60.708740 0.000000 179.000000 0.709037 0.556270 0.433393
4.25000000 -11.46000004 0.37000000 30 131 175 0.000000 0.000000 0.000000 0.000000 -60.708740 0.000000 179.000000 0.607167 0.496161 0.620622
4.28000021 -11.52999973 0.34000000 30 131 175 0.000000 0.000000 0.000000 0.000000 -60.708740 0.000000 179.000000 0.594760 0.725118 0.347079
4.21999979 -11.60000038 0.41000000 30 131 175 0.000000 0.000000 0.000000 0.000000 -60.708740 0.000000 179.000000 -0.006565 0.896759 0.442471
4.19999981 -11.56000042 0.38999999 30 131 175 0.000000 0.000000 0.000000 0.000000 -60.708740 0.000000 179.000000 0.040575 0.927983 0.370408
4.19000006 -11.46000004 0.41000000 30 131 175 0.000000 0.000000 0.000000 0.000000 -60.708740 0.000000 179.000000 0.638178 0.567457 0.520309
4.15000010 -11.52999973 0.44000000 30 131 175 0.000000 0.000000 0.000000 0.000000 -60.708740 0.000000 179.000000 0.512221 0.388637 0.765892
4.17999983 -11.53999996 0.41999999 30 131 175 0.000000 0.000000 0.000000 0.000000 -60.708740 0.000000 179.000000 0.409296 0.791089 0.454593
4.17000008 -11.60999966 0.46000001 30 131 175 0.000000 0.000000 0.000000 0.000000 -60.708740 0.000000 179.000000 0.431069 0.857536 0.280732
4.15000010 -11.56000042 0.43000001 30 131 175 0.000000 0.000000 0.000000 0.000000 -60.708740 0.000000 179.000000 0.417562 0.663774 0.620521
4.21000004 -11.67000008 0.63000000 30 131 175 0.000000 0.000000 0.000000 0.000000 -60.708740 0.000000 179.000000 0.572045 0.615919 0.541671
4.25000000 -11.64999962 0.54000002 30 131 175 0.000000 0.000000 0.000000 0.000000 -60.708740 0.000000 179.000000 0.282513 0.949298 0.137909
4.28000021 -11.61999989 0.54000002 30 131 175 0.000000 0.000000 0.000000 0.000000 -60.708740 0.000000 179.000000 0.558114 0.645793 0.521019
4.28000021 -11.63000011 0.55000001 30 131 175 0.000000 0.000000 0.000000 0.000000 -60.708740 0.000000 179.000000 0.322477 0.659538 0.678984
4.13000011 -11.64000034 0.46000001 30 131 175 0.000000 0.000000 0.000000 0.000000 -60.708740 0.000000 179.000000 0.280288 0.840865 0.463018
4.09000015 -11.48999977 0.57999998 30 131 175 0.000000 0.000000 0.000000 0.000000 -60.708740 0.000000 179.000000 0.579666 0.788776 0.204498
4.05000019 -11.51000023 0.57999998 30 131 175 0.000000 0.000000 0.000000 0.000000 -60.708740 0.000000 179.000000 0.499223 0.761111 0.414110
4.05000019 -11.52999973 0.54000002 30 131 175 0.000000 0.000000 0.000000 0.000000 -60.708740 0.000000 179.000000 0.568256 0.534532 0.625588
3.98000002 -11.48999977 0.62000000 30 131 175 0.000000 0.000000 0.000000 0.000000 -60.708740 0.000000 179.000000 0.940205 0.338268 0.039872
4.00000000 -11.47000027 0.58999997 30 131 175 0.000000 0.000000 0.000000 0.000000 -60.708740 0.000000 179.000000 0.787362 0.076289 0.611753
4.01000023 -11.55000019 0.57999998 30 131 175 0.000000 0.000000 0.000000 0.000000 -60.708740 0.000000 179.000000 0.573344 0.692998 0.437071
4.01999998 -11.56999969 0.60000002 30 131 175 0.000000 0.000000 0.000000 0.000000 -60.708740 0.000000 179.000000 0.483399 0.430963 0.761969
4.11000013 -11.67000008 0.52999997 30 131 175 0.000000 0.000000 0.000000 0.000000 -60.708740 0.000000 179.000000 0.588068 0.794566 0.151132
4.05999994 -11.73999977 0.55000001 30 131 175 0.000000 0.000000 0.000000 0.000000 -60.708740 0.000000 179.000000 0.589193 0.752059 0.295395
3.96000004 -11.64000034 0.56999999 30 131 175 0.000000 0.000000 0.000000 0.000000 -60.708740 0.000000 179.000000 0.434170 0.835424 0.336991
4.01999998 -11.63000011 0.50000000 30 131 175 0.000000 0.000000 0.000000 0.000000 -60.708740 0.000000 179.000000 0.363869 0.867451 0.339304
4.00000000 -11.75000000 0.56000000 30 131 175 0.000000 0.000000 0.000000 0.000000 -60.708740 0.000000 179.000000 0.271297 0.927524 0.257093
4.01000023 -11.61999989 0.47000000 30 131 175 0.000000 0.000000 0.000000 0.000000 -60.708740 0.000000 179.000000 0.474921 0.866549 0.153436
4.26999998 -11.51000023 0.31000000 30 131 175 0.000000 0.000000 0.000000 0.000000 -60.708740 0.000000 179.000000 0.438468 0.615189 0.655201
4.28000021 -11.51000023 0.30000001 30 131 175 0.000000 0.000000 0.000000 0.000000 -60.708740 0.000000 179.000000 0.351923 0.689114 0.633461
3.93000007 -11.71000004 0.57999998 30 131 175 0.000000 0.000000 0.000000 0.000000 -60.708740 0.000000 179.000000 0.710526 0.585236 0.390707
3.91000009 -11.93999958 0.69999999 30 131 175 0.000000 0.000000 0.000000 0.000000 -60.708740 0.000000 179.000000 0.536550 0.420985 0.731359
3.89000010 -11.81999969 0.62000000 30 131 175 0.000000 0.000000 0.000000 0.000000 -60.708740 0.000000 179.000000 0.665366 0.739132 0.104747
4.88000011 -10.85999966 -0.30000001 30 131 175 0.000000 0.000000 0.000000 0.000000 -60.708740 0.000000 179.000000 0.959503 -0.281633 -0.006096
4.92000008 -11.02999973 -0.08000000 30 131 175 0.000000 0.000000 0.000000 0.000000 -60.708740 0.000000 179.000000 0.927828 -0.369815 -0.048695
4.92000008 -10.97999954 -0.18000001 30 131 175 0.000000 0.000000 0.000000 0.000000 -60.708740 0.000000 179.000000 0.987055 -0.153902 -0.045129
4.92000008 -11.00000000 -0.17000000 30 131 175 0.000000 0.000000 0.000000 0.000000 -60.708740 0.000000 179.000000 0.921050 -0.224194 -0.318441
4.94999981 -11.05000019 -0.04000000 30 131 175 0.000000 0.000000 0.000000 0.000000 -60.708740 0.000000 179.000000 0.682294 -0.669451 -0.293788
4.92999983 -11.05000019 -0.06000000 30 131 175 0.000000 0.000000 0.000000 0.000000 -60.708740 0.000000 179.000000 0.948474 -0.310996 0.060651
4.92999983 -11.06999969 -0.04000000 30 131 175 0.000000 0.000000 0.000000 0.000000 -60.708740 0.000000 179.000000 0.811057 -0.583342 -0.043575
4.92999983 -11.03999996 -0.11000000 30 131 175 0.000000 0.000000 0.000000 0.000000 -60.708740 0.000000 179.000000 0.816969 -0.500217 0.286958
4.90000010 -11.06000042 -0.14000000 30 131 175 0.000000 0.000000 0.000000 0.000000 -60.708740 0.000000 179.000000 -0.687491 0.574296 0.444455
4.92999983 -11.01000023 -0.19000000 30 131 175 0.000000 0.000000 0.000000 0.000000 -60.708740 0.000000 179.000000 0.980932 -0.194346 0.001150
4.73999977 -11.10999966 -0.13000000 30 131 175 0.000000 0.000000 0.000000 0.000000 -60.708740 0.000000 179.000000 -0.496273 0.843212 0.206655
4.76999998 -11.10000038 -0.38999999 30 131 175 0.000000 0.000000 0.000000 0.000000 -60.708740 0.000000 179.000000 -0.142989 0.981370 0.128324
4.73999977 -11.10999966 -0.40000001 30 131 175 0.000000 0.000000 0.000000 0.000000 -60.708740 0.000000 179.000000 -0.455302 0.887078 0.076114
4.82999992 -11.15999985 -0.18000001 30 131 175 0.000000 0.000000 0.000000 0.000000 -60.708740 0.000000 179.000000 0.728202 -0.664083 -0.169456
4.78999996 -11.14999962 -0.17000000 30 131 175 0.000000 0.000000 0.000000 0.000000 -60.708740 0.000000 179.000000 -0.280104 0.944156 0.173528
4.86000013 -11.19999981 -0.11000000 30 131 175 0.000000 0.000000 0.000000 0.000000 -60.708740 0.000000 179.000000 0.825989 -0.544233 -0.146809
4.84999990 -11.27999973 -0.06000000 30 131 175 0.000000 0.000000 0.000000 0.000000 -60.708740 0.000000 179.000000 -0.660152 0.549287 0.512332
4.82000017 -11.21000004 -0.05000000 30 131 175 0.000000 0.000000 0.000000 0.000000 -60.708740 0.000000 179.000000 0.700023 -0.678098 -0.223945
4.86000013 -11.27999973 -0.11000000 30 131 175 0.000000 0.000000 0.000000 0.000000 -60.708740 0.000000 179.000000 -0.587933 0.693926 0.415693
4.84999990 -11.27000046 -0.13000000 30 131 175 0.000000 0.000000 0.000000 0.000000 -60.708740 0.000000 179.000000 0.805433 -0.507945 -0.305400
4.84999990 -11.25000000 -0.18000001 30 131 175 0.000000 0.000000 0.000000 0.000000 -60.708740 0.000000 179.000000 0.439570 -0.708288 -0.552365
4.84000015 -11.25000000 -0.17000000 30 131 175 0.000000 0.000000 0.000000 0.000000 -60.708740 0.000000 179.000000 -0.468716 0.733714 0.491903
4.82000017 -11.14000034 -0.23999999 30 131 175 0.000000 0.000000 0.000000 0.000000 -60.708740 0.000000 179.000000 0.644841 -0.540454 -0.540454
4.82999992 -11.19999981 -0.30000001 30 131 175 0.000000 0.000000 0.000000 0.000000 -60.708740 0.000000 179.000000 -0.241853 0.946917 0.211792
4.82000017 -11.27999973 -0.23999999 30 131 175 0.000000 0.000000 0.000000 0.000000 -60.708740 0.000000 179.000000 -0.654696 0.687027 0.315224
4.80000019 -11.27999973 -0.27000001 30 131 175 0.000000 0.000000 0.000000 0.000000 -60.708740 0.000000 179.000000 0.656395 -0.743117 -0.130083
4.78999996 -11.27999973 -0.31000000 30 131 175 0.000000 0.000000 0.000000 0.000000 -60.708740 0.000000 179.000000 -0.209433 0.921788 0.326259
4.82999992 -11.31000042 -0.14000000 30 131 175 0.000000 0.000000 0.000000 0.000000 -60.708740 0.000000 179.000000 -0.404661 0.905936 0.124619
4.82000017 -11.28999996 -0.23000000 30 131 175 0.000000 0.000000 0.000000 0.000000 -60.708740 0.000000 179.000000 -0.234684 0.784871 0.573499
4.78999996 -11.30000019 -0.25000000 30 131 175 0.000000 0.000000 0.000000 0.000000 -60.708740 0.000000 179.000000 -0.552170 0.820069 0.150321
4.80000019 -11.34000015 -0.23999999 30 131 175 0.000000 0.000000 0.000000 0.000000 -60.708740 0.000000 179.000000 -0.447804 0.704168 0.551016
4.80999994 -11.30000019 -0.23999999 30 131 175 0.000000 0.000000 0.000000 0.000000 -60.708740 0.000000 179.000000 0.716836 -0.640203 -0.276198
4.78999996 -11.30000019 -0.25000000 30 131 175 0.000000 0.000000 0.000000 0.000000 -60.708740 0.000000 179.000000 -0.552170 0.820069 0.150321
4.78999996 -11.31000042 -0.31000000 30 131 175 0.000000 0.000000 0.000000 0.000000 -60.708740 0.000000 179.000000 -0.215590 0.938860 0.268444
4.76999998 -11.14000034 -0.14000000 30 131 175 0.000000 0.000000 0.000000 0.000000 -60.708740 0.000000 179.000000 -0.369505 0.671678 0.642118
4.76000023 -11.13000011 -0.18000001 30 131 175 0.000000 0.000000 0.000000 0.000000 -60.708740 0.000000 179.000000 -0.520893 0.732558 0.438212
4.71999979 -11.11999989 -0.12000000 30 131 175 0.000000 0.000000 0.000000 0.000000 -60.708740 0.000000 179.000000 -0.464784 0.609085 0.642644
4.63999987 -11.27999973 -0.03000000 30 131 175 0.000000 0.000000 0.000000 0.000000 -60.708740 0.000000 179.000000 -0.414042 0.882993 0.221119
4.67999983 -11.25000000 -0.13000000 30 131 175 0.000000 0.000000 0.000000 0.000000 -60.708740 0.000000 179.000000 -0.264134 0.801779 0.536082
4.65000010 -11.22999954 -0.16000000 30 131 175 0.000000 0.000000 0.000000 0.000000 -60.708740 0.000000 179.000000 -0.341401 0.939175 0.037361
4.65999985 -11.22999954 -0.16000000 30 131 175 0.000000 0.000000 0.000000 0.000000 -60.708740 0.000000 179.000000 -0.197260 0.979125 0.049016
4.76000023 -11.13000011 -0.19000000 30 131 175 0.000000 0.000000 0.000000 0.000000 -60.708740 0.000000 179.000000 -0.450156 0.887691 0.096763
4.78000021 -11.14000034 -0.20999999 30 131 175 0.000000 0.000000 0.000000 0.000000 -60.708740 0.000000 179.000000 -0.382504 0.922511 0.051618
4.75000000 -11.14000034 -0.27000001 30 131 175 0.000000 0.000000 0.000000 0.000000 -60.708740 0.000000 179.000000 -0.058847 0.888176 0.455720
4.73000002 -11.11999989 -0.20999999 30 131 175 0.000000 0.000000 0.000000 0.000000 -60.708740 0.000000 179.000000 -0.450034 0.845940 0.286104
4.78000021 -11.13000011 -0.28000000 30 131 175 0.000000 0.000000 0.000000 0.000000 -60.708740 0.000000 179.000000 0.492619 -0.617035 -0.613672
4.78000021 -11.23999977 -0.19000000 30 131 175 0.000000 0.000000 0.000000 0.000000 -60.708740 0.000000 179.000000 -0.615361 0.716027 0.329600
4.65000010 -11.18999958 -0.25999999 30 131 175 0.000000 0.000000 0.000000 0.000000 -60.708740 0.000000 179.000000 -0.195450 0.749480 0.632518
4.69000006 -11.14000034 -0.33000001 30 131 175 0.000000 0.000000 0.000000 0.000000 -60.708740 0.000000 179.000000 -0.545749 0.673370 0.498730
4.63999987 -11.18999958 -0.28000000 30 131 175 0.000000 0.000000 0.000000 0.000000 -60.708740 0.000000 179.000000 -0.356975 0.900518 0.248267
4.61999989 -11.18999958 -0.28999999 30 131 175 0.000000 0.000000 0.000000 0.000000 -60.708740 0.000000 179.000000 -0.407978 0.842530 0.351705
4.67000008 -11.22999954 -0.19000000 30 131 175 0.000000 0.000000 0.000000 0.000000 -60.708740 0.000000 179.000000 -0.182211 0.983012 -0.022051
4.67999983 -11.27999973 -0.19000000 30 131 175 0.000000 0.000000 0.000000 0.000000 -60.708740 0.000000 179.000000 0.085046 0.948593 0.304858
4.63999987 -11.22000027 -0.27000001 30 131 175 0.000000 0.000000 0.000000 0.000000 -60.708740 0.000000 179.000000 -0.408292 0.891217 0.197560
4.65999985 -11.26000023 -0.25999999 30 131 175 0.000000 0.000000 0.000000 0.000000 -60.708740 0.000000 179.000000 0.060800 0.945627 0.319521
4.67999983 -11.27000046 -0.28999999 30 131 175 0.000000 0.000000 0.000000 0.000000 -60.708740 0.000000 179.000000 -0.046902 0.749013 0.660894
4.63999987 -11.21000004 -0.31000000 30 131 175 0.000000 0.000000 0.000000 0.000000 -60.708740 0.000000 179.000000 0.061439 0.997034 0.046349
4.63999987 -11.27000046 -0.30000001 30 131 175 0.000000 0.000000 0.000000 0.000000 -60.708740 0.000000 179.000000 -0.474628 0.732614 0.487858
4.75000000 -11.31999969 -0.10000000 30 131 175 0.000000 0.000000 0.000000 0.000000 -60.708740 0.000000 179.000000 -0.048098 0.984252 0.170103
4.78000021 -11.31999969 -0.14000000 30 131 175 0.000000 0.000000 0.000000 0.000000 -60.708740 0.000000 179.000000 -0.049838 0.973670 0.222449
4.78000021 -11.31000042 -0.18000001 30 131 175 0.000000 0.000000 0.000000 0.000000 -60.708740 0.000000 179.000000 -0.015593 0.970376 0.241095
4.78000021 -11.31999969 -0.15000001 30 131 175 0.000000 0.000000 0.000000 0.000000 -60.708740 0.000000 179.000000 -0.165244 0.985683 0.033511
4.76000023 -11.34000015 -0.11000000 30 131 175 0.000000 0.000000 0.000000 0.000000 -60.708740 0.000000 179.000000 -0.584447 0.786933 0.197884
4.73999977 -11.32999992 -0.13000000 30 131 175 0.000000 0.000000 0.000000 0.000000 -60.708740 0.000000 179.000000 0.001326 0.879361 0.476155
4.67000008 -11.28999996 -0.05000000 30 131 175 0.000000 0.000000 0.000000 0.000000 -60.708740 0.000000 179.000000 -0.179613 0.920694 0.346498
4.65999985 -11.30000019 -0.03000000 30 131 175 0.000000 0.000000 0.000000 0.000000 -60.708740 0.000000 179.000000 -0.443988 0.877719 0.180233
4.65000010 -11.30000019 -0.16000000 30 131 175 0.000000 0.000000 0.000000 0.000000 -60.708740 0.000000 179.000000 0.032249 0.975820 0.216185
4.71000004 -11.31000042 -0.22000000 30 131 175 0.000000 0.000000 0.000000 0.000000 -60.708740 0.000000 179.000000 -0.013704 0.950569 0.310212
4.73000002 -11.31999969 -0.20000000 30 131 175 0.000000 0.000000 0.000000 0.000000 -60.708740 0.000000 179.000000 -0.548704 0.826714 0.124373
4.73000002 -11.31999969 -0.20000000 30 131 175 0.000000 0.000000 0.000000 0.000000 -60.708740 0.000000 179.000000 -0.548704 0.826714 0.124373
4.73999977 -11.31999969 -0.25999999 30 131 175 0.000000 0.000000 0.000000 0.000000 -60.708740 0.000000 179.000000 -0.158000 0.793010 0.588363
4.73999977 -11.30000019 -0.25000000 30 131 175 0.000000 0.000000 0.000000 0.000000 -60.708740 0.000000 179.000000 0.023637 0.802272 0.596490
4.76999998 -11.34000015 -0.34000000 30 131 175 0.000000 0.000000 0.000000 0.000000 -60.708740 0.000000 179.000000 -0.070288 0.796124 0.601038
4.71999979 -11.31999969 -0.34000000 30 131 175 0.000000 0.000000 0.000000 0.000000 -60.708740 0.000000 179.000000 -0.402105 0.623841 0.670174
4.69000006 -11.31000042 -0.23000000 30 131 175 0.000000 0.000000 0.000000 0.000000 -60.708740 0.000000 179.000000 -0.140800 0.990032 -0.003326
4.69000006 -11.30000019 -0.33000001 30 131 175 0.000000 0.000000 0.000000 0.000000 -60.708740 0.000000 179.000000 -0.030966 0.987456 0.154828
4.86000013 -11.18000031 -0.50000000 30 131 175 0.000000 0.000000 0.000000 0.000000 -60.708740 0.000000 179.000000 -0.230183 0.801779 0.551513
4.82000017 -11.17000008 -0.50000000 30 131 175 0.000000 0.000000 0.000000 0.000000 -60.708740 0.000000 179.000000 -0.270780 0.928591 0.253767
4.84000015 -11.27000046 -0.38000000 30 131 175 0.000000 0.000000 0.000000 0.000000 -60.708740 0.000000 179.000000 -0.364385 0.733673 0.573539
4.82999992 -11.26000023 -0.38999999 30 131 175 0.000000 0.000000 0.000000 0.000000 -60.708740 0.000000 179.000000 0.474745 -0.818580 -0.323331
4.80000019 -11.27000046 -0.38999999 30 131 175 0.000000 0.000000 0.000000 0.000000 -60.708740 0.000000 179.000000 -0.434092 0.844845 0.312733
4.82000017 -11.27000046 -0.38000000 30 131 175 0.000000 0.000000 0.000000 0.000000 -60.708740 0.000000 179.000000 -0.445968 0.893300 0.055917
4.82000017 -11.27000046 -0.37000000 30 131 175 0.000000 0.000000 0.000000 0.000000 -60.708740 0.000000 179.000000 -0.208270 0.861548 0.462988
4.82000017 -11.27999973 -0.49000001 30 131 175 0.000000 0.000000 0.000000 0.000000 -60.708740 0.000000 179.000000 -0.550770 0.828323 0.102637
4.82000017 -11.27000046 -0.51999998 30 131 175 0.000000 0.000000 0.000000 0.000000 -60.708740 0.000000 179.000000 -0.533502 0.830717 0.159010
4.84000015 -11.22999954 -0.60000002 30 131 175 0.000000 0.000000 0.000000 0.000000 -60.708740 0.000000 179.000000 -0.181769 0.959265 0.216266
4.80999994 -11.30000019 -0.50000000 30 131 175 0.000000 0.000000 0.000000 0.000000 -60.708740 0.000000 179.000000 -0.269889 0.935523 0.227938
4.76000023 -11.17000008 -0.41999999 30 131 175 0.000000 0.000000 0.000000 0.000000 -60.708740 0.000000 179.000000 0.054679 0.918870 0.390753
4.76000023 -11.17000008 -0.41999999 30 131 175 0.000000 0.000000 0.000000 0.000000 -60.708740 0.000000 179.000000 0.054679 0.918870 0.390753
4.73999977 -11.14999962 -0.36000001 30 131 175 0.000000 0.000000 0.000000 0.000000 -60.708740 0.000000 179.000000 -0.293365 0.636425 0.713373
4.78000021 -11.18999958 -0.50000000 30 131 175 0.000000 0.000000 0.000000 0.000000 -60.708740 0.000000 179.000000 -0.351144 0.926745 0.133572
4.71000004 -11.14000034 -0.50999999 30 131 175 0.000000 0.000000 0.000000 0.000000 -60.708740 0.000000 179.000000 -0.358655 0.903226 0.235688
4.69999981 -11.18999958 -0.44000000 30 131 175 0.000000 0.000000 0.000000 0.000000 -60.708740 0.000000 179.000000 -0.329301 0.631026 0.702401
4.63000011 -11.19999981 -0.46000001 30 131 175 0.000000 0.000000 0.000000 0.000000 -60.708740 0.000000 179.000000 -0.038122 0.650899 0.758206
4.65999985 -11.15999985 -0.47000000 30 131 175 0.000000 0.000000 0.000000 0.000000 -60.708740 0.000000 179.000000 -0.006918 0.751272 0.659957
4.61999989 -11.22000027 -0.43000001 30 131 175 0.000000 0.000000 0.000000 0.000000 -60.708740 0.000000 179.000000 0.046156 0.826617 0.560869
4.61999989 -11.25000000 -0.49000001 30 131 175 0.000000 0.000000 0.000000 0.000000 -60.708740 0.000000 179.000000 -0.372841 0.808089 0.456050
4.75000000 -11.14000034 -0.56000000 30 131 175 0.000000 0.000000 0.000000 0.000000 -60.708740 0.000000 179.000000 -0.122286 0.986597 0.108039
4.75000000 -11.18000031 -0.67000002 30 131 175 0.000000 0.000000 0.000000 0.000000 -60.708740 0.000000 179.000000 -0.306587 0.913948 0.265902
4.73000002 -11.14999962 -0.61000001 30 131 175 0.000000 0.000000 0.000000 0.000000 -60.708740 0.000000 179.000000 -0.213006 0.936949 0.277047
4.78000021 -11.21000004 -0.68000001 30 131 175 0.000000 0.000000 0.000000 0.000000 -60.708740 0.000000 179.000000 -0.025169 0.904742 0.425216
4.65999985 -11.19999981 -0.55000001 30 131 175 0.000000 0.000000 0.000000 0.000000 -60.708740 0.000000 179.000000 0.050468 0.885236 0.462396
4.65999985 -11.15999985 -0.54000002 30 131 175 0.000000 0.000000 0.000000 0.000000 -60.708740 0.000000 179.000000 0.067236 0.791096 0.607985
4.61999989 -11.18999958 -0.67000002 30 131 175 0.000000 0.000000 0.000000 0.000000 -60.708740 0.000000 179.000000 -0.216195 0.943269 0.251998
4.69999981 -11.14999962 -0.64999998 30 131 175 0.000000 0.000000 0.000000 0.000000 -60.708740 0.000000 179.000000 -0.136497 0.697482 0.703482
4.63000011 -11.18999958 -0.66000003 30 131 175 0.000000 0.000000 0.000000 0.000000 -60.708740 0.000000 179.000000 0.052921 0.742324 0.667948
4.63000011 -11.21000004 -0.62000000 30 131 175 0.000000 0.000000 0.000000 0.000000 -60.708740 0.000000 179.000000 0.235555 0.778424 0.581868
4.71000004 -11.35999966 -0.50000000 30 131 175 0.000000 0.000000 0.000000 0.000000 -60.708740 0.000000 179.000000 -0.076932 0.741741 0.666260
4.67000008 -11.32999992 -0.43000001 30 131 175 0.000000 0.000000 0.000000 0.000000 -60.708740 0.000000 179.000000 0.122698 0.861772 0.492235
4.65000010 -11.32999992 -0.43000001 30 131 175 0.000000 0.000000 0.000000 0.000000 -60.708740 0.000000 179.000000 0.285604 0.914801 0.285604
4.69999981 -11.31999969 -0.49000001 30 131 175 0.000000 0.000000 0.000000 0.000000 -60.708740 0.000000 179.000000 -0.409284 0.892851 0.187892
4.63999987 -11.30000019 -0.47999999 30 131 175 0.000000 0.000000 0.000000 0.000000 -60.708740 0.000000 179.000000 0.327756 0.903901 0.274845
4.63999987 -11.28999996 -0.47999999 30 131 175 0.000000 0.000000 0.000000 0.000000 -60.708740 0.000000 179.000000 0.031891 0.830559 0.556017
4.63000011 -11.28999996 -0.56000000 30 131 175 0.000000 0.000000 0.000000 0.000000 -60.708740 0.000000 179.000000 0.253650 0.840887 0.478091
4.61999989 -11.30000019 -0.54000002 30 131 175 0.000000 0.000000 0.000000 0.000000 -60.708740 0.000000 179.000000 0.277593 0.883796 0.376626
4.67999983 -11.35000038 -0.64999998 30 131 175 0.000000 0.000000 0.000000 0.000000 -60.708740 0.000000 179.000000 -0.273259 0.859468 0.432024
4.69000006 -11.38000011 -0.63000000 30 131 175 0.000000 0.000000 0.000000 0.000000 -60.708740 0.000000 179.000000 -0.335797 0.721882 0.605084
4.61999989 -11.36999989 -0.68000001 30 131 175 0.000000 0.000000 0.000000 0.000000 -60.708740 0.000000 179.000000 0.196054 0.711661 0.674612
4.61000013 -11.22999954 -0.34000000 30 131 175 0.000000 0.000000 0.000000 0.000000 -60.708740 0.000000 179.000000 0.044146 0.954820 0.293888
4.61000013 -11.26000023 -0.31000000 30 131 175 0.000000 0.000000 0.000000 0.000000 -60.708740 0.000000 179.000000 0.018197 0.718099 0.695703
4.57999992 -11.25000000 -0.38000000 30 131 175 0.000000 0.000000 0.000000 0.000000 -60.708740 0.000000 179.000000 0.288598 0.796404 0.531462
4.61000013 -11.21000004 -0.36000001 30 131 175 0.000000 0.000000 0.000000 0.000000 -60.708740 0.000000 179.000000 0.205415 0.755246 0.622421
4.61000013 -11.21000004 -0.36000001 30 131 175 0.000000 0.000000 0.000000 0.000000 -60.708740 0.000000 179.000000 0.205415 0.755246 0.622421
4.61000013 -11.21000004 -0.44000000 30 131 175 0.000000 0.000000 0.000000 0.000000 -60.708740 0.000000 179.000000 -0.242251 0.851688 0.464696
4.61000013 -11.21000004 -0.44999999 30 131 175 0.000000 0.000000 0.000000 0.000000 -60.708740 0.000000 179.000000 -0.298039 0.905862 0.300975
4.61000013 -11.19999981 -0.66000003 30 131 175 0.000000 0.000000 0.000000 0.000000 -60.708740 0.000000 179.000000 -0.179476 0.905993 0.383360
4.53000021 -11.22999954 -0.62000000 30 131 175 0.000000 0.000000 0.000000 0.000000 -60.708740 0.000000 179.000000 0.363780 0.742241 0.562798
4.59999990 -11.31000042 -0.61000001 30 131 175 0.000000 0.000000 0.000000 0.000000 -60.708740 0.000000 179.000000 0.190862 0.978625 0.076588
4.59999990 -11.34000015 -0.61000001 30 131 175 0.000000 0.000000 0.000000 0.000000 -60.708740 0.000000 179.000000 -0.247770 0.793175 0.556313
4.82999992 -11.26000023 -0.70999998 30 131 175 0.000000 0.000000 0.000000 0.000000 -60.708740 0.000000 179.000000 0.126751 0.975101 0.181969
4.73999977 -11.19999981 -0.76999998 30 131 175 0.000000 0.000000 0.000000 0.000000 -60.708740 0.000000 179.000000 -0.185278 0.982321 0.026801
4.71999979 -11.18999958 -0.79000002 30 131 175 0.000000 0.000000 0.000000 0.000000 -60.708740 0.000000 179.000000 -0.334430 0.882229 0.331403
4.67000008 -11.18000031 -0.83999997 30 131 175 0.000000 0.000000 0.000000 0.000000 -60.708740 0.000000 179.000000 -0.324006 0.834277 0.446096
4.63000011 -11.26000023 -0.77999997 30 131 175 0.000000 0.000000 0.000000 0.000000 -60.708740 0.000000 179.000000 0.170826 0.979483 0.106920
4.71999979 -11.23999977 -0.89999998 30 131 175 0.000000 0.000000 0.000000 0.000000 -60.708740 0.000000 179.000000 0.334787 0.848647 0.409531
4.63999987 -11.22000027 -0.98000002 30 131 175 0.000000 0.000000 0.000000 0.000000 -60.708740 0.000000 179.000000 -0.122361 0.964717 0.233129
4.59000015 -11.26000023 -0.80000001 30 131 175 0.000000 0.000000 0.000000 0.000000 -60.708740 0.000000 179.000000 -0.266401 0.877468 0.398849
4.61000013 -11.25000000 -0.85000002 30 131 175 0.000000 0.000000 0.000000 0.000000 -60.708740 0.000000 179.000000 -0.159210 0.726302 0.668683
4.57000017 -11.23999977 -0.81000000 30 131 175 0.000000 0.000000 0.000000 0.000000 -60.708740 0.000000 179.000000 0.336916 0.655928 0.675460
4.55999994 -11.22999954 -0.81000000 30 131 175 0.000000 0.000000 0.000000 0.000000 -60.708740 0.000000 179.000000 -0.084201 0.968946 0.232497
4.59999990 -11.21000004 -0.86000001 30 131 175 0.000000 0.000000 0.000000 0.000000 -60.708740 0.000000 179.000000 -0.067938 0.695282 0.715519
4.59000015 -11.23999977 -0.88999999 30 131 175 0.000000 0.000000 0.000000 0.000000 -60.708740 0.000000 179.000000 0.214541 0.946987 0.239138
4.57999992 -11.23999977 -0.88000000 30 131 175 0.000000 0.000000 0.000000 0.000000 -60.708740 0.000000 179.000000 0.036324 0.891946 0.450681
4.59000015 -11.23999977 -0.88000000 30 131 175 0.000000 0.000000 0.000000 0.000000 -60.708740 0.000000 179.000000 -0.130938 0.905304 0.404078
4.59999990 -11.23999977 -0.86000001 30 131 175 0.000000 0.000000 0.000000 0.000000 -60.708740 0.000000 179.000000 0.089072 0.993325 0.073287
4.59000015 -11.22999954 -0.93000001 30 131 175 0.000000 0.000000 0.000000 0.000000 -60.708740 0.000000 179.000000 0.433108 0.739413 0.515448
4.57999992 -11.27999973 -0.88000000 30 131 175 0.000000 0.000000 0.000000 0.000000 -60.708740 0.000000 179.000000 0.519454 0.779986 0.348983
4.92000008 -11.10000038 0.04000000 30 131 175 0.000000 0.000000 0.000000 0.000000 -60.708740 0.000000 179.000000 -0.615875 0.763317 0.195053
4.88999987 -11.19999981 0.18000001 30 131 175 0.000000 0.000000 0.000000 0.000000 -60.708740 0.000000 179.000000 0.689441 -0.660513 -0.297311
4.92999983 -11.19999981 0.18000001 30 131 175 0.000000 0.000000 0.000000 0.000000 -60.708740 0.000000 179.000000 0.740809 -0.649162 -0.172601
4.88000011 -11.25000000 0.25000000 30 131 175 0.000000 0.000000 0.000000 0.000000 -60.708740 0.000000 179.000000 0.949085 -0.306866 -0.071214
4.90999985 -11.27000046 0.28000000 30 131 175 0.000000 0.000000 0.000000 0.000000 -60.708740 0.000000 179.000000 0.884589 -0.434305 -0.169946
4.88000011 -11.27000046 0.16000000 30 131 175 0.000000 0.000000 0.000000 0.000000 -60.708740 0.000000 179.000000 0.947774 -0.317612 0.029104
4.88999987 -11.26000023 0.22000000 30 131 175 0.000000 0.000000 0.000000 0.000000 -60.708740 0.000000 179.000000 0.834985 -0.486174 -0.257749
4.88000011 -11.26000023 0.20999999 30 131 175 0.000000 0.000000 0.000000 0.000000 -60.708740 0.000000 179.000000 0.933209 -0.314767 0.173330
4.88000011 -11.27000046 0.19000000 30 131 175 0.000000 0.000000 0.000000 0.000000 -60.708740 0.000000 179.000000 0.863975 -0.437283 0.249660
4.88000011 -11.27999973 0.15000001 30 131 175 0.000000 0.000000 0.000000 0.000000 -60.708740 0.000000 179.000000 0.875115 -0.468351 -0.121743
4.82000017 -11.18000031 0.25000000 30 131 175 0.000000 0.000000 0.000000 0.000000 -60.708740 0.000000 179.000000 0.919454 -0.392940 0.014265
4.84999990 -11.21000004 0.23999999 30 131 175 0.000000 0.000000 0.000000 0.000000 -60.708740 0.000000 179.000000 -0.618249 0.782539 -0.073498
4.80000019 -11.22000027 0.25999999 30 131 175 0.000000 0.000000 0.000000 0.000000 -60.708740 0.000000 179.000000 0.851985 -0.486634 0.193156
4.80999994 -11.22000027 0.23999999 30 131 175 0.000000 0.000000 0.000000 0.000000 -60.708740 0.000000 179.000000 -0.591469 0.804228 -0.058154
4.88999987 -11.13000011 0.11000000 30 131 175 0.000000 0.000000 0.000000 0.000000 -60.708740 0.000000 179.000000 -0.682852 0.730331 0.018154
4.88999987 -11.27000046 0.00000000 30 131 175 0.000000 0.000000 0.000000 0.000000 -60.708740 0.000000 179.000000 -0.577394 0.715574 0.393154
4.88000011 -11.21000004 0.02000000 30 131 175 0.000000 0.000000 0.000000 0.000000 -60.708740 0.000000 179.000000 0.921382 -0.386216 0.043499
4.88000011 -11.26000023 -0.02000000 30 131 175 0.000000 0.000000 0.000000 0.000000 -60.708740 0.000000 179.000000 0.630029 -0.535440 -0.562465
4.90000010 -11.27000046 0.01000000 30 131 175 0.000000 0.000000 0.000000 0.000000 -60.708740 0.000000 179.000000 -0.589851 0.773499 -0.231894
4.80000019 -11.17000008 0.03000000 30 131 175 0.000000 0.000000 0.000000 0.000000 -60.708740 0.000000 179.000000 -0.549806 0.826897 -0.118128
4.80000019 -11.14000034 0.01000000 30 131 175 0.000000 0.000000 0.000000 0.000000 -60.708740 0.000000 179.000000 0.866799 -0.497074 0.039711
4.88000011 -11.28999996 0.16000000 30 131 175 0.000000 0.000000 0.000000 0.000000 -60.708740 0.000000 179.000000 0.912764 -0.391976 -0.114961
4.78999996 -11.35000038 0.25000000 30 131 175 0.000000 0.000000 0.000000 0.000000 -60.708740 0.000000 179.000000 0.789592 -0.590307 0.167581
4.82999992 -11.28999996 0.28000000 30 131 175 0.000000 0.000000 0.000000 0.000000 -60.708740 0.000000 179.000000 0.860773 -0.508944 -0.006714
4.82000017 -11.36999989 0.17000000 30 131 175 0.000000 0.000000 0.000000 0.000000 -60.708740 0.000000 179.000000 0.722334 -0.687593 -0.073826
4.88000011 -11.28999996 0.11000000 30 131 175 0.000000 0.000000 0.000000 0.000000 -60.708740 0.000000 179.000000 -0.599205 0.798466 0.058355
4.82000017 -11.35999966 0.11000000 30 131 175 0.000000 0.000000 0.000000 0.000000 -60.708740 0.000000 179.000000 0.637225 -0.603598 -0.479180
4.82000017 -11.32999992 0.03000000 30 131 175 0.000000 0.000000 0.000000 0.000000 -60.708740 0.000000 179.000000 -0.379014 0.901791 0.207659
4.82999992 -11.31000042 -0.01000000 30 131 175 0.000000 0.000000 0.000000 0.000000 -60.708740 0.000000 179.000000 -0.604398 0.787639 0.119697
4.65999985 -11.26000023 0.23999999 30 131 175 0.000000 0.000000 0.000000 0.000000 -60.708740 0.000000 179.000000 -0.544375 0.685075 0.484075
4.63000011 -11.27999973 0.22000000 30 131 175 0.000000 0.000000 0.000000 0.000000 -60.708740 0.000000 179.000000 -0.535888 0.828462 0.162707
4.61999989 -11.27999973 0.22000000 30 131 175 0.000000 0.000000 0.000000 0.000000 -60.708740 0.000000 179.000000 -0.286947 0.896525 0.337498
4.73999977 -11.18999958 0.09000000 30 131 175 0.000000 0.000000 0.000000 0.000000 -60.708740 0.000000 179.000000 0.801351 -0.587462 0.112804
4.76999998 -11.17000008 0.11000000 30 131 175 0.000000 0.000000 0.000000 0.000000 -60.708740 0.000000 179.000000 -0.591827 0.769844 0.238917
4.75000000 -11.18999958 0.10000000 30 131 175 0.000000 0.000000 0.000000 0.000000 -60.708740 0.000000 179.000000 0.888104 -0.354942 -0.292041
4.76000023 -11.14999962 0.03000000 30 131 175 0.000000 0.000000 0.000000 0.000000 -60.708740 0.000000 179.000000 0.883698 -0.415945 -0.214634
4.65999985 -11.23999977 0.14000000 30 131 175 0.000000 0.000000 0.000000 0.000000 -60.708740 0.000000 179.000000 -0.347095 0.937788 0.008835
4.63000011 -11.27999973 0.07000000 30 131 175 0.000000 0.000000 0.000000 0.000000 -60.708740 0.000000 179.000000 -0.018073 0.785466 0.618641
4.63999987 -11.26000023 0.01000000 30 131 175 0.000000 0.000000 0.000000 0.000000 -60.708740 0.000000 179.000000 0.607628 -0.627826 -0.486439
