//X Y Z R G B PointSourceId ScanDirectionFlag NumberOfReturns ReturnNumber GpsTime Intensity Classification Nx Ny Nz
15.96000004 -5.73999977 -0.05000000 9 116 193 97.000000 1.000000 4.000000 1.000000 -60.708740 114.000000 23.000000 0.700725 0.162641 -0.694645
15.96000004 -5.73999977 -0.05000000 9 116 193 97.000000 1.000000 4.000000 1.000000 -60.708740 114.000000 23.000000 0.700725 0.162641 -0.694645
15.96000004 -5.73000002 -0.05000000 9 116 193 97.000000 1.000000 4.000000 1.000000 -60.708740 114.000000 23.000000 0.629166 -0.406717 -0.662368
15.97000027 -5.73000002 -0.07000000 9 116 193 97.000000 1.000000 4.000000 1.000000 -60.708740 114.000000 23.000000 -0.591827 0.238917 0.769844
15.94999981 -5.73000002 -0.09000000 9 116 193 97.000000 1.000000 4.000000 1.000000 -60.708740 114.000000 23.000000 0.666235 -0.592765 -0.452505
15.96000004 -5.71999979 -0.10000000 9 116 193 97.000000 1.000000 4.000000 1.000000 -60.708740 114.000000 23.000000 0.630718 -0.456727 -0.627372
15.94999981 -5.67000008 -0.12000000 9 116 193 97.000000 1.000000 4.000000 1.000000 -60.708740 114.000000 23.000000 0.869655 -0.091915 -0.485027
15.94999981 -5.67000008 -0.12000000 9 116 193 97.000000 1.000000 4.000000 1.000000 -60.708740 114.000000 23.000000 0.869655 -0.091915 -0.485027
15.93000031 -5.59999990 -0.14000000 9 116 193 97.000000 1.000000 4.000000 1.000000 -60.708740 114.000000 23.000000 -0.480146 0.162985 0.861914
15.93000031 -5.61000013 -0.13000000 9 116 193 97.000000 1.000000 4.000000 1.000000 -60.708740 114.000000 23.000000 0.776563 -0.353570 -0.521476
15.92000008 -5.61000013 -0.14000000 9 116 193 97.000000 1.000000 4.000000 1.000000 -60.708740 114.000000 23.000000 -0.673002 -0.006938 0.739608
15.93999958 -5.61000013 -0.13000000 9 116 193 97.000000 1.000000 4.000000 1.000000 -60.708740 114.000000 23.000000 0.726673 -0.226597 -0.648536
15.93000031 -5.59999990 -0.13000000 9 116 193 97.000000 1.000000 4.000000 1.000000 -60.708740 114.000000 23.000000 -0.486777 0.361468 0.795229
15.93000031 -5.59999990 -0.17000000 9 116 193 97.000000 1.000000 4.000000 1.000000 -60.708740 114.000000 23.000000 -0.374085 0.358563 0.855274
15.93000031 -5.57999992 -0.18000001 9 116 193 97.000000 1.000000 4.000000 1.000000 -60.708740 114.000000 23.000000 0.608777 -0.441989 -0.658814
15.90999985 -5.59999990 -0.16000000 9 116 193 97.000000 1.000000 4.000000 1.000000 -60.708740 114.000000 23.000000 0.581171 -0.500313 -0.641815
15.93999958 -5.61000013 -0.16000000 9 116 193 97.000000 1.000000 4.000000 1.000000 -60.708740 114.000000 23.000000 -0.418393 0.349444 0.838353
15.93999958 -5.61000013 -0.16000000 9 116 193 97.000000 1.000000 4.000000 1.000000 -60.708740 114.000000 23.000000 -0.418393 0.349444 0.838353
15.93000031 -5.61000013 -0.16000000 9 116 193 97.000000 1.000000 4.000000 1.000000 -60.708740 114.000000 23.000000 -0.347300 0.329101 0.878109
15.93000031 -5.63000011 -0.12000000 9 116 193 97.000000 1.000000 4.000000 1.000000 -60.708740 114.000000 23.000000 -0.516513 0.334214 0.788362
15.90999985 -5.63999987 -0.14000000 9 116 193 97.000000 1.000000 4.000000 1.000000 -60.708740 114.000000 23.000000 -0.580723 0.313687 0.751240
15.93999958 -5.61999989 -0.17000000 9 116 193 97.000000 1.000000 4.000000 1.000000 -60.708740 114.000000 23.000000 -0.423653 0.069474 0.903157
15.93999958 -5.65000010 -0.17000000 9 116 193 97.000000 1.000000 4.000000 1.000000 -60.708740 114.000000 23.000000 0.902009 -0.247869 -0.353470
15.89999962 -5.61000013 -0.16000000 9 116 193 97.000000 1.000000 4.000000 1.000000 -60.708740 114.000000 23.000000 0.835878 -0.069303 -0.544523
15.89999962 -5.59999990 -0.17000000 9 116 193 97.000000 1.000000 4.000000 1.000000 -60.708740 114.000000 23.000000 0.749658 -0.236322 -0.618194
15.89999962 -5.61000013 -0.16000000 9 116 193 97.000000 1.000000 4.000000 1.000000 -60.708740 114.000000 23.000000 0.835878 -0.069303 -0.544523
15.89999962 -5.61000013 -0.16000000 9 116 193 97.000000 1.000000 4.000000 1.000000 -60.708740 114.000000 23.000000 0.835878 -0.069303 -0.544523
15.89999962 -5.61999989 -0.15000001 9 116 193 97.000000 1.000000 4.000000 1.000000 -60.708740 114.000000 23.000000 0.610215 -0.417340 -0.673398
15.86999989 -5.65999985 -0.16000000 9 116 193 97.000000 1.000000 4.000000 1.000000 -60.708740 114.000000 23.000000 -0.651021 0.230603 0.723183
15.93999958 -5.67999983 -0.09000000 9 116 193 97.000000 1.000000 4.000000 1.000000 -60.708740 114.000000 23.000000 0.815295 -0.128265 -0.564662
15.93000031 -5.71000004 -0.08000000 9 116 193 97.000000 1.000000 4.000000 1.000000 -60.708740 114.000000 23.000000 -0.619093 0.354468 0.700768
15.93999958 -5.71000004 -0.08000000 9 116 193 97.000000 1.000000 4.000000 1.000000 -60.708740 114.000000 23.000000 0.639399 -0.373120 -0.672273
15.92000008 -5.71999979 -0.10000000 9 116 193 97.000000 1.000000 4.000000 1.000000 -60.708740 114.000000 23.000000 -0.581764 0.302902 0.754851
15.93000031 -5.73000002 -0.07000000 9 116 193 97.000000 1.000000 4.000000 1.000000 -60.708740 114.000000 23.000000 0.693405 0.146537 -0.705490
15.89999962 -5.69999981 -0.17000000 9 116 193 97.000000 1.000000 4.000000 1.000000 -60.708740 114.000000 23.000000 -0.520615 -0.111045 0.846540
15.92000008 -5.59000015 -0.19000000 9 116 193 97.000000 1.000000 4.000000 1.000000 -60.708740 114.000000 23.000000 0.761128 -0.358655 -0.540417
15.85999966 -5.40999985 -0.25000000 9 116 193 97.000000 1.000000 4.000000 1.000000 -60.708740 114.000000 23.000000 -0.647900 0.009712 0.761664
15.84000015 -5.40999985 -0.27000001 9 116 193 97.000000 1.000000 4.000000 1.000000 -60.708740 114.000000 23.000000 -0.462269 -0.103198 0.880714
15.81000042 -5.48999977 -0.27000001 9 116 193 97.000000 1.000000 4.000000 1.000000 -60.708740 114.000000 23.000000 -0.363893 0.482519 0.796717
15.85999966 -5.40999985 -0.28000000 9 116 193 97.000000 1.000000 4.000000 1.000000 -60.708740 114.000000 23.000000 -0.437048 0.229788 0.869590
15.82999992 -5.40999985 -0.30000001 9 116 193 97.000000 1.000000 4.000000 1.000000 -60.708740 114.000000 23.000000 -0.207999 0.312705 0.926797
15.84000015 -5.42000008 -0.31999999 9 116 193 97.000000 1.000000 4.000000 1.000000 -60.708740 114.000000 23.000000 0.782092 -0.026583 -0.622596
15.84000015 -5.46999979 -0.28000000 9 116 193 97.000000 1.000000 4.000000 1.000000 -60.708740 114.000000 23.000000 0.576414 -0.367402 -0.729906
15.84000015 -5.46000004 -0.28000000 9 116 193 97.000000 1.000000 4.000000 1.000000 -60.708740 114.000000 23.000000 0.836272 -0.240908 -0.492557
15.82999992 -5.50000000 -0.27000001 9 116 193 97.000000 1.000000 4.000000 1.000000 -60.708740 114.000000 23.000000 -0.316083 0.208359 0.925569
15.85000038 -5.53000021 -0.25999999 9 116 193 97.000000 1.000000 4.000000 1.000000 -60.708740 114.000000 23.000000 -0.572881 0.348922 0.741661
15.85999966 -5.53999996 -0.23999999 9 116 193 97.000000 1.000000 4.000000 1.000000 -60.708740 114.000000 23.000000 0.706752 -0.248233 -0.662481
15.84000015 -5.51999998 -0.27000001 9 116 193 97.000000 1.000000 4.000000 1.000000 -60.708740 114.000000 23.000000 -0.556740 0.244841 0.793784
15.85000038 -5.53000021 -0.25000000 9 116 193 97.000000 1.000000 4.000000 1.000000 -60.708740 114.000000 23.000000 0.793494 -0.079205 -0.603401
16.30999947 -5.98999977 -0.08000000 9 116 193 97.000000 1.000000 4.000000 1.000000 -60.708740 114.000000 18.000000 0.752288 0.264489 -0.603414
16.27000046 -6.00000000 -0.09000000 9 116 193 97.000000 1.000000 4.000000 1.000000 -60.708740 114.000000 18.000000 0.976221 -0.054571 -0.209797
16.28000069 -6.03000021 -0.10000000 9 116 193 97.000000 1.000000 4.000000 1.000000 -60.708740 114.000000 18.000000 0.649655 -0.488501 -0.582508
16.26000023 -6.00000000 -0.11000000 9 116 193 97.000000 1.000000 4.000000 1.000000 -60.708740 114.000000 18.000000 0.749027 -0.341349 -0.567837
16.00000000 -5.76999998 -0.04000000 9 116 193 97.000000 1.000000 4.000000 1.000000 -60.708740 114.000000 23.000000 0.938927 -0.091895 -0.331621
16.00000000 -5.80000019 -0.06000000 9 116 193 97.000000 1.000000 4.000000 1.000000 -60.708740 114.000000 23.000000 0.742771 -0.518787 -0.423264
16.01000023 -5.80000019 -0.06000000 9 116 193 97.000000 1.000000 4.000000 1.000000 -60.708740 114.000000 23.000000 0.748417 -0.481948 -0.455630
16.00000000 -5.80999994 -0.05000000 9 116 193 97.000000 1.000000 4.000000 1.000000 -60.708740 114.000000 23.000000 0.783345 -0.442760 -0.436273
16.00000000 -5.80000019 -0.06000000 9 116 193 97.000000 1.000000 4.000000 1.000000 -60.708740 114.000000 23.000000 0.742771 -0.518787 -0.423264
15.97000027 -5.76999998 -0.04000000 9 116 193 97.000000 1.000000 4.000000 1.000000 -60.708740 114.000000 23.000000 0.619292 -0.478315 -0.622649
15.94999981 -5.76999998 -0.03000000 9 116 193 97.000000 1.000000 4.000000 1.000000 -60.708740 114.000000 23.000000 -0.566653 0.156988 0.808863
15.96000004 -5.76000023 -0.05000000 9 116 193 97.000000 1.000000 4.000000 1.000000 -60.708740 114.000000 23.000000 0.618652 -0.097990 -0.779531
15.98999977 -5.76999998 -0.06000000 9 116 193 97.000000 1.000000 4.000000 1.000000 -60.708740 114.000000 23.000000 -0.616214 0.261376 0.742942
15.98999977 -5.75000000 -0.05000000 9 116 193 97.000000 1.000000 4.000000 1.000000 -60.708740 114.000000 23.000000 0.729201 -0.336179 -0.596028
15.98999977 -5.76000023 -0.06000000 9 116 193 97.000000 1.000000 4.000000 1.000000 -60.708740 114.000000 23.000000 0.929761 -0.124607 -0.346435
15.97000027 -5.76999998 -0.04000000 9 116 193 97.000000 1.000000 4.000000 1.000000 -60.708740 114.000000 23.000000 0.619292 -0.478315 -0.622649
15.97999954 -5.80000019 -0.03000000 9 116 193 97.000000 1.000000 4.000000 1.000000 -60.708740 114.000000 23.000000 0.760112 0.120018 -0.638612
15.97999954 -5.78999996 -0.04000000 9 116 193 97.000000 1.000000 4.000000 1.000000 -60.708740 114.000000 23.000000 -0.792708 0.392318 0.466584
16.00000000 -5.86000013 -0.04000000 9 116 193 97.000000 1.000000 4.000000 1.000000 -60.708740 114.000000 23.000000 -0.554231 0.023379 0.832034
16.02000046 -5.88999987 -0.05000000 9 116 193 97.000000 1.000000 4.000000 1.000000 -60.708740 114.000000 23.000000 -0.461814 0.279560 0.841768
16.00000000 -5.88000011 -0.03000000 9 116 193 97.000000 1.000000 4.000000 1.000000 -60.708740 114.000000 23.000000 -0.464539 0.188487 0.865260
15.90999985 -5.78000021 -0.05000000 9 116 193 97.000000 1.000000 4.000000 1.000000 -60.708740 114.000000 23.000000 0.754703 -0.478472 -0.448875
15.93000031 -5.76999998 -0.06000000 9 116 193 97.000000 1.000000 4.000000 1.000000 -60.708740 114.000000 23.000000 -0.357867 0.288989 0.887928
15.93000031 -5.82000017 -0.04000000 9 116 193 97.000000 1.000000 4.000000 1.000000 -60.708740 114.000000 23.000000 0.783201 -0.379489 -0.492528
15.93999958 -5.82000017 -0.03000000 9 116 193 97.000000 1.000000 4.000000 1.000000 -60.708740 114.000000 23.000000 0.853887 -0.117030 -0.507131
15.90999985 -5.80999994 -0.03000000 9 116 193 97.000000 1.000000 4.000000 1.000000 -60.708740 114.000000 23.000000 0.521646 -0.341879 -0.781667
15.93000031 -5.82999992 -0.04000000 9 116 193 97.000000 1.000000 4.000000 1.000000 -60.708740 114.000000 23.000000 0.509752 -0.330779 -0.794190
15.90999985 -5.82999992 -0.03000000 9 116 193 97.000000 1.000000 4.000000 1.000000 -60.708740 114.000000 23.000000 -0.629635 0.085793 0.772139
16.00000000 -5.92999983 -0.06000000 9 116 193 97.000000 1.000000 4.000000 1.000000 -60.708740 114.000000 23.000000 0.650360 -0.502474 -0.569695
15.98999977 -5.92000008 -0.05000000 9 116 193 97.000000 1.000000 4.000000 1.000000 -60.708740 114.000000 23.000000 0.728884 -0.444603 -0.520631
15.96000004 -5.94999981 -0.04000000 9 116 193 97.000000 1.000000 4.000000 1.000000 -60.708740 114.000000 23.000000 0.798199 -0.247395 -0.549248
15.97999954 -5.92999983 -0.06000000 9 116 193 97.000000 1.000000 4.000000 1.000000 -60.708740 114.000000 23.000000 -0.271048 0.524862 0.806878
15.98999977 -5.92999983 -0.06000000 9 116 193 97.000000 1.000000 4.000000 1.000000 -60.708740 114.000000 23.000000 0.433374 -0.572850 -0.695723
15.88000011 -6.03999996 -0.06000000 9 116 193 97.000000 1.000000 4.000000 1.000000 -60.708740 114.000000 23.000000 -0.399521 -0.006465 0.916701
15.88000011 -6.03999996 -0.06000000 9 116 193 97.000000 1.000000 4.000000 1.000000 -60.708740 114.000000 23.000000 -0.399521 -0.006465 0.916701
15.86999989 -6.05000019 -0.08000000 9 116 193 97.000000 1.000000 4.000000 1.000000 -60.708740 114.000000 23.000000 0.103878 0.346709 0.932203
15.85999966 -6.03999996 -0.04000000 9 116 193 97.000000 1.000000 4.000000 1.000000 -60.708740 114.000000 23.000000 -0.605808 0.534934 0.588933
15.85999966 -6.03999996 -0.03000000 9 116 193 97.000000 1.000000 4.000000 1.000000 -60.708740 114.000000 23.000000 0.617035 -0.492619 -0.613672
15.78999996 -6.03999996 -0.05000000 9 116 193 97.000000 1.000000 4.000000 1.000000 -60.708740 114.000000 23.000000 -0.063996 0.330429 0.941659
15.81000042 -6.03999996 -0.04000000 9 116 193 97.000000 1.000000 4.000000 1.000000 -60.708740 114.000000 23.000000 -0.014836 0.497681 0.867233
15.77000046 -6.03000021 -0.06000000 9 116 193 97.000000 1.000000 4.000000 1.000000 -60.708740 114.000000 23.000000 0.172320 -0.754851 -0.632855
15.77999973 -6.01000023 -0.04000000 9 116 193 97.000000 1.000000 4.000000 1.000000 -60.708740 114.000000 23.000000 -0.341354 0.293654 0.892886
15.47000027 -5.23999977 -0.13000000 9 116 193 97.000000 1.000000 4.000000 1.000000 -60.708740 114.000000 21.000000 0.927815 0.107317 0.357270
15.43999958 -5.23000002 -0.10000000 9 116 193 97.000000 1.000000 4.000000 1.000000 -60.708740 114.000000 21.000000 0.942340 0.233855 -0.239390
15.39000034 -5.21000004 -0.10000000 9 116 193 97.000000 1.000000 4.000000 1.000000 -60.708740 114.000000 21.000000 0.963531 0.025776 -0.266352
15.39000034 -5.21999979 -0.10000000 9 116 193 97.000000 1.000000 4.000000 1.000000 -60.708740 114.000000 21.000000 0.953870 0.254810 -0.158756
15.39000034 -5.21000004 -0.10000000 9 116 193 97.000000 1.000000 4.000000 1.000000 -60.708740 114.000000 21.000000 0.963531 0.025776 -0.266352
15.39000034 -5.21999979 -0.10000000 9 116 193 97.000000 1.000000 4.000000 1.000000 -60.708740 114.000000 21.000000 0.953870 0.254810 -0.158756
15.39000034 -5.21000004 -0.10000000 9 116 193 97.000000 1.000000 4.000000 1.000000 -60.708740 114.000000 21.000000 0.963531 0.025776 -0.266352
15.40999985 -5.17999983 -0.15000001 9 116 193 97.000000 1.000000 4.000000 1.000000 -60.708740 114.000000 21.000000 0.936097 0.321143 -0.143489
15.40999985 -5.23999977 -0.14000000 9 116 193 97.000000 1.000000 4.000000 1.000000 -60.708740 114.000000 21.000000 0.989885 0.046919 -0.133892
15.39000034 -5.21999979 -0.12000000 9 116 193 97.000000 1.000000 4.000000 1.000000 -60.708740 114.000000 21.000000 0.984699 -0.005692 -0.174172
15.36999989 -5.23000002 -0.14000000 9 116 193 97.000000 1.000000 4.000000 1.000000 -60.708740 114.000000 21.000000 0.986131 -0.093974 0.136797
15.39000034 -5.21999979 -0.11000000 9 116 193 97.000000 1.000000 4.000000 1.000000 -60.708740 114.000000 21.000000 0.941008 0.259158 -0.217582
15.39000034 -5.21999979 -0.11000000 9 116 193 97.000000 1.000000 4.000000 1.000000 -60.708740 114.000000 21.000000 0.941008 0.259158 -0.217582
15.38000011 -5.21000004 -0.15000001 9 116 193 97.000000 1.000000 4.000000 1.000000 -60.708740 114.000000 21.000000 0.910869 0.074661 0.405886
15.38000011 -5.21999979 -0.18000001 9 116 193 97.000000 1.000000 4.000000 1.000000 -60.708740 114.000000 21.000000 0.985004 0.094322 0.144467
15.44999981 -5.13999987 -0.31999999 9 116 193 97.000000 1.000000 4.000000 1.000000 -60.708740 114.000000 21.000000 0.846783 0.180707 0.500304
15.36999989 -5.09999990 -0.27000001 9 116 193 97.000000 1.000000 4.000000 1.000000 -60.708740 114.000000 21.000000 0.716044 0.159628 0.679558
15.38000011 -5.15000010 -0.25999999 9 116 193 97.000000 1.000000 4.000000 1.000000 -60.708740 114.000000 21.000000 0.626162 0.278825 0.728133
15.39000034 -5.15000010 -0.23999999 9 116 193 97.000000 1.000000 4.000000 1.000000 -60.708740 114.000000 21.000000 0.860786 0.004029 0.508951
15.43999958 -5.11000013 -0.33000001 9 116 193 97.000000 1.000000 4.000000 1.000000 -60.708740 114.000000 21.000000 0.711931 0.340489 0.614183
15.40999985 -5.13999987 -0.28999999 9 116 193 97.000000 1.000000 4.000000 1.000000 -60.708740 114.000000 21.000000 0.806657 0.209700 0.552567
15.43000031 -5.13999987 -0.31999999 9 116 193 97.000000 1.000000 4.000000 1.000000 -60.708740 114.000000 21.000000 0.380858 0.507271 0.773061
15.43000031 -5.13999987 -0.31999999 9 116 193 97.000000 1.000000 4.000000 1.000000 -60.708740 114.000000 21.000000 0.380858 0.507271 0.773061
15.38000011 -5.09999990 -0.30000001 9 116 193 97.000000 1.000000 4.000000 1.000000 -60.708740 114.000000 21.000000 0.854730 0.170354 0.490322
15.38000011 -5.09999990 -0.30000001 9 116 193 97.000000 1.000000 4.000000 1.000000 -60.708740 114.000000 21.000000 0.854730 0.170354 0.490322
15.39000034 -5.11999989 -0.28000000 9 116 193 97.000000 1.000000 4.000000 1.000000 -60.708740 114.000000 21.000000 0.531309 0.497788 0.685506
15.42000008 -5.19000006 -0.22000000 9 116 193 97.000000 1.000000 4.000000 1.000000 -60.708740 114.000000 21.000000 0.881576 0.255941 0.396634
15.42000008 -5.17999983 -0.22000000 9 116 193 97.000000 1.000000 4.000000 1.000000 -60.708740 114.000000 21.000000 0.707135 0.287023 0.646203
15.43000031 -5.17000008 -0.23000000 9 116 193 97.000000 1.000000 4.000000 1.000000 -60.708740 114.000000 21.000000 0.957915 0.096955 0.270181
15.40999985 -5.19000006 -0.27000001 9 116 193 97.000000 1.000000 4.000000 1.000000 -60.708740 114.000000 21.000000 0.847553 0.151822 0.508532
15.43999958 -5.19000006 -0.23000000 9 116 193 97.000000 1.000000 4.000000 1.000000 -60.708740 114.000000 21.000000 0.963109 0.200484 0.179518
15.43000031 -5.15999985 -0.25999999 9 116 193 97.000000 1.000000 4.000000 1.000000 -60.708740 114.000000 21.000000 0.539519 0.482728 0.689850
15.43000031 -5.17999983 -0.23000000 9 116 193 97.000000 1.000000 4.000000 1.000000 -60.708740 114.000000 21.000000 0.881573 0.112149 0.458532
15.42000008 -5.21999979 -0.20999999 9 116 193 97.000000 1.000000 4.000000 1.000000 -60.708740 114.000000 21.000000 0.785102 0.119761 0.607678
15.39000034 -5.17000008 -0.25000000 9 116 193 97.000000 1.000000 4.000000 1.000000 -60.708740 114.000000 21.000000 0.894688 0.070091 0.441159
15.39999962 -5.17999983 -0.25999999 9 116 193 97.000000 1.000000 4.000000 1.000000 -60.708740 114.000000 21.000000 0.704281 0.089316 0.704281
15.39999962 -5.19000006 -0.25000000 9 116 193 97.000000 1.000000 4.000000 1.000000 -60.708740 114.000000 21.000000 0.885937 0.217417 0.409690
15.36999989 -5.17999983 -0.23999999 9 116 193 97.000000 1.000000 4.000000 1.000000 -60.708740 114.000000 21.000000 0.813664 0.212993 0.540911
15.38000011 -5.23999977 -0.19000000 9 116 193 97.000000 1.000000 4.000000 1.000000 -60.708740 114.000000 21.000000 0.855623 0.045615 0.515585
15.39999962 -5.19000006 -0.28999999 9 116 193 97.000000 1.000000 4.000000 1.000000 -60.708740 114.000000 21.000000 0.541082 0.454509 0.707568
15.39000034 -5.19000006 -0.28999999 9 116 193 97.000000 1.000000 4.000000 1.000000 -60.708740 114.000000 21.000000 0.720688 0.104640 0.685317
15.38000011 -5.17999983 -0.28000000 9 116 193 97.000000 1.000000 4.000000 1.000000 -60.708740 114.000000 21.000000 0.585476 0.422936 0.691624
15.36999989 -5.28000021 -0.09000000 9 116 193 97.000000 1.000000 4.000000 1.000000 -60.708740 114.000000 21.000000 0.996672 -0.068325 0.044465
15.36999989 -5.28999996 -0.09000000 9 116 193 97.000000 1.000000 4.000000 1.000000 -60.708740 114.000000 21.000000 0.960641 0.272495 -0.053997
15.38000011 -5.30999994 -0.09000000 9 116 193 97.000000 1.000000 4.000000 1.000000 -60.708740 114.000000 21.000000 0.900927 0.420432 -0.107552
15.43000031 -5.25000000 -0.11000000 9 116 193 97.000000 1.000000 4.000000 1.000000 -60.708740 114.000000 21.000000 0.995906 -0.058195 -0.069175
15.40999985 -5.26000023 -0.14000000 9 116 193 97.000000 1.000000 4.000000 1.000000 -60.708740 114.000000 21.000000 0.883267 0.207914 0.420252
15.40999985 -5.26000023 -0.13000000 9 116 193 97.000000 1.000000 4.000000 1.000000 -60.708740 114.000000 21.000000 0.973787 0.190222 0.124715
15.40999985 -5.25000000 -0.17000000 9 116 193 97.000000 1.000000 4.000000 1.000000 -60.708740 114.000000 21.000000 0.967076 0.179951 0.179951
15.65999985 -5.11000013 -0.55000001 9 116 193 97.000000 1.000000 4.000000 1.000000 -60.708740 114.000000 23.000000 0.119958 0.169425 0.978215
15.67000008 -5.09999990 -0.60000002 9 116 193 97.000000 1.000000 4.000000 1.000000 -60.708740 114.000000 23.000000 -0.170638 0.314917 0.933654
15.67000008 -5.13000011 -0.55000001 9 116 193 97.000000 1.000000 4.000000 1.000000 -60.708740 114.000000 23.000000 -0.226016 0.185895 0.956222
15.68999958 -5.11999989 -0.60000002 9 116 193 97.000000 1.000000 4.000000 1.000000 -60.708740 114.000000 23.000000 0.142309 0.346793 0.927083
15.65999985 -5.09999990 -0.63999999 9 116 193 97.000000 1.000000 4.000000 1.000000 -60.708740 114.000000 23.000000 0.215898 0.297741 0.929913
15.68999958 -5.09999990 -0.61000001 9 116 193 97.000000 1.000000 4.000000 1.000000 -60.708740 114.000000 23.000000 -0.286363 0.286363 0.914326
15.68000031 -5.07999992 -0.68000001 9 116 193 97.000000 1.000000 4.000000 1.000000 -60.708740 114.000000 23.000000 -0.277906 0.374046 0.884792
15.68999958 -5.11999989 -0.62000000 9 116 193 97.000000 1.000000 4.000000 1.000000 -60.708740 114.000000 23.000000 -0.344332 0.103975 0.933073
15.67000008 -5.13999987 -0.61000001 9 116 193 97.000000 1.000000 4.000000 1.000000 -60.708740 114.000000 23.000000 -0.168316 0.366336 0.915133
15.65999985 -5.15000010 -0.67000002 9 116 193 97.000000 1.000000 4.000000 1.000000 -60.708740 114.000000 23.000000 -0.186924 0.327469 0.926188
15.68000031 -5.13999987 -0.64999998 9 116 193 97.000000 1.000000 4.000000 1.000000 -60.708740 114.000000 23.000000 -0.435018 0.638359 0.635026
15.64999962 -5.09000015 -0.63999999 9 116 193 97.000000 1.000000 4.000000 1.000000 -60.708740 114.000000 23.000000 -0.332582 0.120816 0.935303
15.64999962 -5.09999990 -0.63000000 9 116 193 97.000000 1.000000 4.000000 1.000000 -60.708740 114.000000 23.000000 0.448168 -0.481001 -0.753514
15.64999962 -5.09000015 -0.63999999 9 116 193 97.000000 1.000000 4.000000 1.000000 -60.708740 114.000000 23.000000 -0.332582 0.120816 0.935303
15.63000011 -5.07999992 -0.68000001 9 116 193 97.000000 1.000000 4.000000 1.000000 -60.708740 114.000000 23.000000 -0.330913 0.443832 0.832772
15.68999958 -5.17000008 -0.57999998 9 116 193 97.000000 1.000000 4.000000 1.000000 -60.708740 114.000000 23.000000 0.115696 0.349809 0.929649
15.65999985 -5.15999985 -0.57999998 9 116 193 97.000000 1.000000 4.000000 1.000000 -60.708740 114.000000 23.000000 0.062509 0.107970 0.992187
15.68999958 -5.15999985 -0.63999999 9 116 193 97.000000 1.000000 4.000000 1.000000 -60.708740 114.000000 23.000000 -0.081330 0.353319 0.931961
15.68999958 -5.15999985 -0.63999999 9 116 193 97.000000 1.000000 4.000000 1.000000 -60.708740 114.000000 23.000000 -0.081330 0.353319 0.931961
15.60999966 -5.11000013 -0.69000000 9 116 193 97.000000 1.000000 4.000000 1.000000 -60.708740 114.000000 23.000000 -0.308563 0.344688 0.886555
15.60999966 -5.11000013 -0.69000000 9 116 193 97.000000 1.000000 4.000000 1.000000 -60.708740 114.000000 23.000000 -0.308563 0.344688 0.886555
15.36999989 -5.15000010 -0.36000001 9 116 193 97.000000 1.000000 4.000000 1.000000 -60.708740 114.000000 21.000000 0.689629 0.337478 0.640719
15.38000011 -5.13999987 -0.41000000 9 116 193 97.000000 1.000000 4.000000 1.000000 -60.708740 114.000000 21.000000 0.768614 0.208779 0.604685
15.40999985 -5.11000013 -0.46000001 9 116 193 97.000000 1.000000 4.000000 1.000000 -60.708740 114.000000 21.000000 0.355577 0.161626 0.920566
15.38000011 -5.09999990 -0.47999999 9 116 193 97.000000 1.000000 4.000000 1.000000 -60.708740 114.000000 21.000000 0.645433 0.233989 0.727094
15.39999962 -5.09999990 -0.44999999 9 116 193 97.000000 1.000000 4.000000 1.000000 -60.708740 114.000000 21.000000 0.274166 0.318149 0.907532
15.39999962 -5.11999989 -0.44999999 9 116 193 97.000000 1.000000 4.000000 1.000000 -60.708740 114.000000 21.000000 0.313523 0.441428 0.840741
15.35999966 -5.11999989 -0.25000000 9 116 193 97.000000 1.000000 4.000000 1.000000 -60.708740 114.000000 21.000000 0.906733 0.209691 0.365875
15.35999966 -5.11000013 -0.25999999 9 116 193 97.000000 1.000000 4.000000 1.000000 -60.708740 114.000000 21.000000 0.956952 0.080923 0.278736
15.35000038 -5.09999990 -0.34000000 9 116 193 97.000000 1.000000 4.000000 1.000000 -60.708740 114.000000 21.000000 0.836289 0.090371 0.540790
15.35999966 -5.13999987 -0.34999999 9 116 193 97.000000 1.000000 4.000000 1.000000 -60.708740 114.000000 21.000000 0.550216 0.179386 0.815526
15.35000038 -5.21999979 -0.19000000 9 116 193 97.000000 1.000000 4.000000 1.000000 -60.708740 114.000000 21.000000 0.960252 0.121172 0.251464
15.35999966 -5.26000023 -0.11000000 9 116 193 97.000000 1.000000 4.000000 1.000000 -60.708740 114.000000 21.000000 0.913547 0.291928 -0.283214
15.10000038 -5.28000021 -0.33000001 9 116 193 97.000000 1.000000 4.000000 1.000000 -60.708740 114.000000 21.000000 0.962500 0.185147 0.198278
15.07999992 -5.28000021 -0.33000001 9 116 193 97.000000 1.000000 4.000000 1.000000 -60.708740 114.000000 21.000000 0.949523 -0.055101 0.308819
15.07999992 -5.28999996 -0.33000001 9 116 193 97.000000 1.000000 4.000000 1.000000 -60.708740 114.000000 21.000000 0.817508 0.497409 0.290286
15.07999992 -5.28999996 -0.34000000 9 116 193 97.000000 1.000000 4.000000 1.000000 -60.708740 114.000000 21.000000 0.848074 0.490832 0.199635
15.07999992 -5.28999996 -0.34000000 9 116 193 97.000000 1.000000 4.000000 1.000000 -60.708740 114.000000 21.000000 0.848074 0.490832 0.199635
15.07999992 -5.28999996 -0.33000001 9 116 193 97.000000 1.000000 4.000000 1.000000 -60.708740 114.000000 21.000000 0.817508 0.497409 0.290286
15.07999992 -5.28999996 -0.34000000 9 116 193 97.000000 1.000000 4.000000 1.000000 -60.708740 114.000000 21.000000 0.848074 0.490832 0.199635
15.06000042 -5.30999994 -0.31000000 9 116 193 97.000000 1.000000 4.000000 1.000000 -60.708740 114.000000 21.000000 0.774894 0.064455 0.628796
15.03999996 -5.30000019 -0.31000000 9 116 193 97.000000 1.000000 4.000000 1.000000 -60.708740 114.000000 21.000000 0.884345 0.465800 -0.031053
15.05000019 -5.30000019 -0.34000000 9 116 193 97.000000 1.000000 4.000000 1.000000 -60.708740 114.000000 21.000000 0.759802 0.474261 0.444722
15.03999996 -5.34999990 -0.30000001 9 116 193 97.000000 1.000000 4.000000 1.000000 -60.708740 114.000000 21.000000 0.966695 0.255285 0.018148
15.35000038 -5.09999990 -0.43000001 9 116 193 97.000000 1.000000 4.000000 1.000000 -60.708740 114.000000 21.000000 0.318261 0.602596 0.731839
15.26000023 -5.07999992 -0.47000000 9 116 193 97.000000 1.000000 4.000000 1.000000 -60.708740 114.000000 21.000000 0.834845 0.108515 0.539683
15.26000023 -5.11000013 -0.50999999 9 116 193 97.000000 1.000000 4.000000 1.000000 -60.708740 114.000000 21.000000 0.705933 0.086232 0.703010
15.18000031 -5.15000010 -0.43000001 9 116 193 97.000000 1.000000 4.000000 1.000000 -60.708740 114.000000 21.000000 0.956006 0.152484 0.250603
15.18000031 -5.17000008 -0.43000001 9 116 193 97.000000 1.000000 4.000000 1.000000 -60.708740 114.000000 21.000000 0.630041 0.370128 0.682681
15.18000031 -5.15999985 -0.43000001 9 116 193 97.000000 1.000000 4.000000 1.000000 -60.708740 114.000000 21.000000 0.788535 0.049549 0.612990
15.15999985 -5.19000006 -0.43000001 9 116 193 97.000000 1.000000 4.000000 1.000000 -60.708740 114.000000 21.000000 0.642607 0.432299 0.632592
15.17000008 -5.21999979 -0.43000001 9 116 193 97.000000 1.000000 4.000000 1.000000 -60.708740 114.000000 21.000000 0.581344 0.221686 0.782876
15.14999962 -5.17000008 -0.41999999 9 116 193 97.000000 1.000000 4.000000 1.000000 -60.708740 114.000000 21.000000 0.662947 0.166118 0.730004
15.14000034 -5.21999979 -0.40000001 9 116 193 97.000000 1.000000 4.000000 1.000000 -60.708740 114.000000 21.000000 0.779671 0.165018 0.604055
15.13000011 -5.19999981 -0.40000001 9 116 193 97.000000 1.000000 4.000000 1.000000 -60.708740 114.000000 21.000000 0.860348 -0.059959 0.506169
15.13000011 -5.19999981 -0.40000001 9 116 193 97.000000 1.000000 4.000000 1.000000 -60.708740 114.000000 21.000000 0.860348 -0.059959 0.506169
15.18999958 -5.15999985 -0.46000001 9 116 193 97.000000 1.000000 4.000000 1.000000 -60.708740 114.000000 21.000000 0.651473 0.199620 0.731939
15.09000015 -5.21000004 -0.36000001 9 116 193 97.000000 1.000000 4.000000 1.000000 -60.708740 114.000000 21.000000 0.926142 -0.107754 0.361455
15.10999966 -5.28000021 -0.38000000 9 116 193 97.000000 1.000000 4.000000 1.000000 -60.708740 114.000000 21.000000 0.813714 0.006838 0.581225
15.02999973 -5.42999983 -0.31000000 9 116 193 97.000000 1.000000 4.000000 1.000000 -60.708740 114.000000 21.000000 0.934379 -0.061766 0.350885
15.64999962 -5.07999992 -0.73000002 9 116 193 97.000000 1.000000 4.000000 1.000000 -60.708740 114.000000 23.000000 -0.423964 0.539440 0.727502
15.64000034 -5.09000015 -0.74000001 9 116 193 97.000000 1.000000 4.000000 1.000000 -60.708740 114.000000 23.000000 -0.100346 0.091119 0.990771
15.02000046 -5.36000013 -0.30000001 9 116 193 97.000000 1.000000 4.000000 1.000000 -60.708740 114.000000 21.000000 0.988912 0.137317 -0.056542
15.02000046 -5.36999989 -0.31000000 9 116 193 97.000000 1.000000 4.000000 1.000000 -60.708740 114.000000 21.000000 0.812655 0.094158 0.575088
15.02000046 -5.40999985 -0.28999999 9 116 193 97.000000 1.000000 4.000000 1.000000 -60.708740 114.000000 21.000000 0.885729 -0.039336 0.462532
16.47999954 -6.40000010 0.57999998 9 116 193 97.000000 1.000000 4.000000 1.000000 -60.708740 114.000000 23.000000 0.848423 0.496529 -0.183403
16.47999954 -6.40000010 0.56999999 9 116 193 97.000000 1.000000 4.000000 1.000000 -60.708740 114.000000 23.000000 0.915925 0.385435 -0.111900
16.47999954 -6.38999987 0.56999999 9 116 193 97.000000 1.000000 4.000000 1.000000 -60.708740 114.000000 23.000000 0.889991 0.418048 0.182077
16.48999977 -6.38999987 0.61000001 9 116 193 97.000000 1.000000 4.000000 1.000000 -60.708740 114.000000 23.000000 0.919118 0.340572 -0.198073
16.50000000 -6.38999987 0.56000000 9 116 193 97.000000 1.000000 4.000000 1.000000 -60.708740 114.000000 23.000000 0.955212 0.092022 -0.281250
16.47999954 -6.40000010 0.56000000 9 116 193 97.000000 1.000000 4.000000 1.000000 -60.708740 114.000000 23.000000 0.939746 0.267904 0.212380
16.47999954 -6.40000010 0.50999999 9 116 193 97.000000 1.000000 4.000000 1.000000 -60.708740 114.000000 23.000000 0.956054 0.243335 -0.163553
16.45999908 -6.38000011 0.51999998 9 116 193 97.000000 1.000000 4.000000 1.000000 -60.708740 114.000000 23.000000 0.984369 0.084921 0.154294
16.43000031 -6.34000015 0.50999999 9 116 193 97.000000 1.000000 4.000000 1.000000 -60.708740 114.000000 23.000000 0.948234 0.257125 -0.186382
16.43000031 -6.36999989 0.50000000 9 116 193 97.000000 1.000000 4.000000 1.000000 -60.708740 114.000000 23.000000 0.925947 -0.278212 -0.255384
16.38999939 -6.30999994 0.44999999 9 116 193 97.000000 1.000000 4.000000 1.000000 -60.708740 114.000000 23.000000 0.957124 0.059741 -0.283451
16.37999916 -6.32999992 0.44999999 9 116 193 97.000000 1.000000 4.000000 1.000000 -60.708740 114.000000 23.000000 0.895605 -0.193684 -0.400474
16.37000084 -6.30000019 0.40000001 9 116 193 97.000000 1.000000 4.000000 1.000000 -60.708740 114.000000 23.000000 0.913948 0.306587 -0.265902
16.37000084 -6.30000019 0.40000001 9 116 193 97.000000 1.000000 4.000000 1.000000 -60.708740 114.000000 23.000000 0.913948 0.306587 -0.265902
16.38999939 -6.30000019 0.41000000 9 116 193 97.000000 1.000000 4.000000 1.000000 -60.708740 114.000000 23.000000 0.946193 0.268202 -0.181070
16.37999916 -6.32999992 0.38999999 9 116 193 97.000000 1.000000 4.000000 1.000000 -60.708740 114.000000 23.000000 0.962032 0.106892 -0.251133
16.43000031 -6.36000013 0.46000001 9 116 193 97.000000 1.000000 4.000000 1.000000 -60.708740 114.000000 23.000000 0.940014 -0.008809 -0.341022
16.47999954 -6.57000017 0.67000002 9 116 193 97.000000 1.000000 4.000000 1.000000 -60.708740 114.000000 23.000000 0.993514 0.050404 0.101928
16.53000069 -6.59999990 0.67000002 9 116 193 97.000000 1.000000 4.000000 1.000000 -60.708740 114.000000 23.000000 0.959424 -0.112950 -0.258356
16.53000069 -6.65000010 0.67000002 9 116 193 97.000000 1.000000 4.000000 1.000000 -60.708740 114.000000 23.000000 0.993325 0.073287 0.089072
16.52000046 -6.67000008 0.66000003 9 116 193 97.000000 1.000000 4.000000 1.000000 -60.708740 114.000000 23.000000 0.976638 -0.175870 -0.123483
16.53000069 -6.65999985 0.67000002 9 116 193 97.000000 1.000000 4.000000 1.000000 -60.708740 114.000000 23.000000 0.999312 -0.015343 -0.033754
16.51000023 -6.42000008 0.56999999 9 116 193 97.000000 1.000000 4.000000 1.000000 -60.708740 114.000000 23.000000 0.961098 0.252240 -0.112538
16.51000023 -6.42999983 0.56999999 9 116 193 97.000000 1.000000 4.000000 1.000000 -60.708740 114.000000 23.000000 0.981778 -0.186949 0.034098
16.52000046 -6.42000008 0.57999998 9 116 193 97.000000 1.000000 4.000000 1.000000 -60.708740 114.000000 23.000000 0.914427 0.205280 -0.348832
16.52000046 -6.42000008 0.60000002 9 116 193 97.000000 1.000000 4.000000 1.000000 -60.708740 114.000000 23.000000 0.993961 -0.025317 0.106771
16.53000069 -6.46999979 0.63999999 9 116 193 97.000000 1.000000 4.000000 1.000000 -60.708740 114.000000 23.000000 0.866254 0.482854 -0.128281
16.52000046 -6.50000000 0.63000000 9 116 193 97.000000 1.000000 4.000000 1.000000 -60.708740 114.000000 23.000000 0.950636 0.003709 -0.310286
16.52000046 -6.46000004 0.61000001 9 116 193 97.000000 1.000000 4.000000 1.000000 -60.708740 114.000000 23.000000 0.959450 0.056735 0.276110
16.50000000 -6.46000004 0.61000001 9 116 193 97.000000 1.000000 4.000000 1.000000 -60.708740 114.000000 23.000000 0.995574 0.073705 -0.058304
16.46999931 -6.44999981 0.56999999 9 116 193 97.000000 1.000000 4.000000 1.000000 -60.708740 114.000000 23.000000 0.963746 -0.176534 0.200072
16.48999977 -6.48000002 0.56999999 9 116 193 97.000000 1.000000 4.000000 1.000000 -60.708740 114.000000 23.000000 0.909852 0.319836 -0.264339
16.48999977 -6.48000002 0.57999998 9 116 193 97.000000 1.000000 4.000000 1.000000 -60.708740 114.000000 23.000000 0.988671 0.054348 0.139917
16.48999977 -6.48000002 0.57999998 9 116 193 97.000000 1.000000 4.000000 1.000000 -60.708740 114.000000 23.000000 0.988671 0.054348 0.139917
16.46999931 -6.42000008 0.56000000 9 116 193 97.000000 1.000000 4.000000 1.000000 -60.708740 114.000000 23.000000 0.944156 0.280104 -0.173528
16.50000000 -6.55999994 0.63000000 9 116 193 97.000000 1.000000 4.000000 1.000000 -60.708740 114.000000 23.000000 0.991715 0.083694 0.097452
16.48999977 -6.51999998 0.62000000 9 116 193 97.000000 1.000000 4.000000 1.000000 -60.708740 114.000000 23.000000 0.931582 -0.106814 -0.347484
16.52000046 -6.51999998 0.56000000 9 116 193 97.000000 1.000000 4.000000 1.000000 -60.708740 114.000000 23.000000 0.873372 0.485207 0.042370
16.47999954 -6.44000006 0.47999999 9 116 193 97.000000 1.000000 4.000000 1.000000 -60.708740 114.000000 23.000000 0.917958 0.386006 -0.091387
16.52000046 -6.59000015 0.63999999 9 116 193 97.000000 1.000000 4.000000 1.000000 -60.708740 114.000000 23.000000 0.869106 0.335686 -0.363277
16.50000000 -6.59000015 0.63000000 9 116 193 97.000000 1.000000 4.000000 1.000000 -60.708740 114.000000 23.000000 0.943269 0.251998 -0.216195
16.52000046 -6.59000015 0.64999998 9 116 193 97.000000 1.000000 4.000000 1.000000 -60.708740 114.000000 23.000000 0.940795 -0.011335 -0.338787
16.04000092 -5.38000011 0.01000000 9 116 193 97.000000 1.000000 4.000000 1.000000 -60.708740 114.000000 23.000000 0.937680 0.321607 -0.131628
16.28000069 -5.57000017 0.40000001 9 116 193 97.000000 1.000000 4.000000 1.000000 -60.708740 114.000000 23.000000 0.849608 0.514957 0.113954
16.25000000 -5.55000019 0.40000001 9 116 193 97.000000 1.000000 4.000000 1.000000 -60.708740 114.000000 23.000000 0.900123 0.110591 0.421364
16.23999977 -5.55999994 0.34999999 9 116 193 97.000000 1.000000 4.000000 1.000000 -60.708740 114.000000 23.000000 0.960282 0.275972 -0.041208
16.23999977 -5.55999994 0.34000000 9 116 193 97.000000 1.000000 4.000000 1.000000 -60.708740 114.000000 23.000000 0.986685 0.159661 0.031013
16.21999931 -5.57000017 0.33000001 9 116 193 97.000000 1.000000 4.000000 1.000000 -60.708740 114.000000 23.000000 0.838776 0.507482 0.197271
16.32999992 -5.61999989 0.50000000 9 116 193 97.000000 1.000000 4.000000 1.000000 -60.708740 114.000000 23.000000 0.972331 0.027644 0.231965
16.34000015 -5.65999985 0.51999998 9 116 193 97.000000 1.000000 4.000000 1.000000 -60.708740 114.000000 23.000000 0.951769 -0.036655 0.304617
16.29999924 -5.59999990 0.51999998 9 116 193 97.000000 1.000000 4.000000 1.000000 -60.708740 114.000000 23.000000 0.862055 0.249981 0.440875
16.30999947 -5.59999990 0.49000001 9 116 193 97.000000 1.000000 4.000000 1.000000 -60.708740 114.000000 23.000000 0.872014 0.319178 0.371102
16.29999924 -5.59999990 0.51999998 9 116 193 97.000000 1.000000 4.000000 1.000000 -60.708740 114.000000 23.000000 0.862055 0.249981 0.440875
16.29999924 -5.59999990 0.50999999 9 116 193 97.000000 1.000000 4.000000 1.000000 -60.708740 114.000000 23.000000 0.940182 0.340389 0.013919
16.31999969 -5.63999987 0.52999997 9 116 193 97.000000 1.000000 4.000000 1.000000 -60.708740 114.000000 23.000000 0.811440 0.023580 0.583960
16.31999969 -5.63000011 0.52999997 9 116 193 97.000000 1.000000 4.000000 1.000000 -60.708740 114.000000 23.000000 0.864440 0.233836 0.445043
16.31999969 -5.63000011 0.52999997 9 116 193 97.000000 1.000000 4.000000 1.000000 -60.708740 114.000000 23.000000 0.864440 0.233836 0.445043
16.31999969 -5.65000010 0.49000001 9 116 193 97.000000 1.000000 4.000000 1.000000 -60.708740 114.000000 23.000000 0.893563 -0.093399 0.439114
16.32999992 -5.67000008 0.54000002 9 116 193 97.000000 1.000000 4.000000 1.000000 -60.708740 114.000000 23.000000 0.647929 0.530123 0.546953
16.29999924 -5.67000008 0.55000001 9 116 193 97.000000 1.000000 4.000000 1.000000 -60.708740 114.000000 23.000000 0.845457 -0.037361 0.532735
16.28000069 -5.65000010 0.50000000 9 116 193 97.000000 1.000000 4.000000 1.000000 -60.708740 114.000000 23.000000 0.609674 0.439299 0.659784
16.27000046 -5.61999989 0.49000001 9 116 193 97.000000 1.000000 4.000000 1.000000 -60.708740 114.000000 23.000000 0.919342 0.351638 0.176525
16.26000023 -5.59999990 0.50000000 9 116 193 97.000000 1.000000 4.000000 1.000000 -60.708740 114.000000 23.000000 0.888284 0.096522 0.449038
16.34000015 -5.65000010 0.46000001 9 116 193 97.000000 1.000000 4.000000 1.000000 -60.708740 114.000000 23.000000 0.854730 0.392462 0.339720
16.29000092 -5.59000015 0.47999999 9 116 193 97.000000 1.000000 4.000000 1.000000 -60.708740 114.000000 23.000000 0.788769 0.611902 0.058480
16.29000092 -5.59000015 0.44999999 9 116 193 97.000000 1.000000 4.000000 1.000000 -60.708740 114.000000 23.000000 0.797111 0.012433 0.603705
16.29000092 -5.59000015 0.47999999 9 116 193 97.000000 1.000000 4.000000 1.000000 -60.708740 114.000000 23.000000 0.788769 0.611902 0.058480
16.30999947 -5.59999990 0.41000000 9 116 193 97.000000 1.000000 4.000000 1.000000 -60.708740 114.000000 23.000000 0.853827 0.342460 0.392047
16.29999924 -5.59999990 0.43000001 9 116 193 97.000000 1.000000 4.000000 1.000000 -60.708740 114.000000 23.000000 0.998443 0.049241 0.026192
16.29999924 -5.61000013 0.43000001 9 116 193 97.000000 1.000000 4.000000 1.000000 -60.708740 114.000000 23.000000 0.827015 0.419042 0.374766
16.29999924 -5.59999990 0.41999999 9 116 193 97.000000 1.000000 4.000000 1.000000 -60.708740 114.000000 23.000000 0.963408 0.267815 0.010907
16.29999924 -5.65999985 0.47000000 9 116 193 97.000000 1.000000 4.000000 1.000000 -60.708740 114.000000 23.000000 0.725419 0.588486 0.357004
16.29999924 -5.61999989 0.43000001 9 116 193 97.000000 1.000000 4.000000 1.000000 -60.708740 114.000000 23.000000 0.942782 0.333408 -0.001249
16.26000023 -5.57999992 0.41000000 9 116 193 97.000000 1.000000 4.000000 1.000000 -60.708740 114.000000 23.000000 0.692371 0.613431 0.379900
16.26000023 -5.59000015 0.41999999 9 116 193 97.000000 1.000000 4.000000 1.000000 -60.708740 114.000000 23.000000 0.959821 0.242910 0.140494
16.28000069 -5.63999987 0.46000001 9 116 193 97.000000 1.000000 4.000000 1.000000 -60.708740 114.000000 23.000000 0.843977 0.265953 0.465802
16.28000069 -5.63999987 0.46000001 9 116 193 97.000000 1.000000 4.000000 1.000000 -60.708740 114.000000 23.000000 0.843977 0.265953 0.465802
16.27000046 -5.65999985 0.40000001 9 116 193 97.000000 1.000000 4.000000 1.000000 -60.708740 114.000000 23.000000 0.996825 0.079281 0.007400
16.28000069 -5.63000011 0.41999999 9 116 193 97.000000 1.000000 4.000000 1.000000 -60.708740 114.000000 23.000000 0.934587 0.029649 0.354498
16.27000046 -5.63999987 0.44000000 9 116 193 97.000000 1.000000 4.000000 1.000000 -60.708740 114.000000 23.000000 0.782362 0.038061 0.621660
16.28000069 -5.63000011 0.41999999 9 116 193 97.000000 1.000000 4.000000 1.000000 -60.708740 114.000000 23.000000 0.934587 0.029649 0.354498
16.28000069 -5.59999990 0.37000000 9 116 193 97.000000 1.000000 4.000000 1.000000 -60.708740 114.000000 23.000000 0.927161 0.358066 0.110279
16.23999977 -5.59999990 0.38000000 9 116 193 97.000000 1.000000 4.000000 1.000000 -60.708740 114.000000 23.000000 0.824976 0.565033 -0.012313
16.23999977 -5.59000015 0.37000000 9 116 193 97.000000 1.000000 4.000000 1.000000 -60.708740 114.000000 23.000000 0.979212 0.182151 -0.089242
16.22999954 -5.61000013 0.38999999 9 116 193 97.000000 1.000000 4.000000 1.000000 -60.708740 114.000000 23.000000 0.793850 0.275096 0.542333
16.21999931 -5.57999992 0.34000000 9 116 193 97.000000 1.000000 4.000000 1.000000 -60.708740 114.000000 23.000000 0.819974 0.306900 0.483171
16.21999931 -5.59000015 0.31999999 9 116 193 97.000000 1.000000 4.000000 1.000000 -60.708740 114.000000 23.000000 0.974084 0.218772 0.057443
16.21999931 -5.57999992 0.34999999 9 116 193 97.000000 1.000000 4.000000 1.000000 -60.708740 114.000000 23.000000 0.893394 0.399176 0.206168
16.26000023 -5.57000017 0.30000001 9 116 193 97.000000 1.000000 4.000000 1.000000 -60.708740 114.000000 23.000000 0.996756 -0.048807 -0.063992
16.22999954 -5.53000021 0.31000000 9 116 193 97.000000 1.000000 4.000000 1.000000 -60.708740 114.000000 23.000000 0.990125 0.001104 0.140185
16.22999954 -5.55000019 0.31000000 9 116 193 97.000000 1.000000 4.000000 1.000000 -60.708740 114.000000 23.000000 0.928656 0.305794 0.209969
16.19000053 -5.48000002 0.20000000 9 116 193 97.000000 1.000000 4.000000 1.000000 -60.708740 114.000000 23.000000 0.842969 0.158520 0.514077
16.15999985 -5.48000002 0.20000000 9 116 193 97.000000 1.000000 4.000000 1.000000 -60.708740 114.000000 23.000000 0.972083 0.234394 0.010708
16.15999985 -5.46999979 0.20000000 9 116 193 97.000000 1.000000 4.000000 1.000000 -60.708740 114.000000 23.000000 0.997905 -0.047823 0.043572
16.12000084 -5.44999981 0.20000000 9 116 193 97.000000 1.000000 4.000000 1.000000 -60.708740 114.000000 23.000000 0.970614 0.164966 -0.175197
16.14999962 -5.42999983 0.16000000 9 116 193 97.000000 1.000000 4.000000 1.000000 -60.708740 114.000000 23.000000 0.926067 0.266833 -0.266833
16.13999939 -5.48000002 0.17000000 9 116 193 97.000000 1.000000 4.000000 1.000000 -60.708740 114.000000 23.000000 0.997549 -0.043837 0.054528
16.12000084 -5.48999977 0.16000000 9 116 193 97.000000 1.000000 4.000000 1.000000 -60.708740 114.000000 23.000000 0.898831 0.001308 0.438294
16.17000008 -5.53000021 0.27000001 9 116 193 97.000000 1.000000 4.000000 1.000000 -60.708740 114.000000 23.000000 0.925815 0.359659 -0.116240
16.17000008 -5.53999996 0.28999999 9 116 193 97.000000 1.000000 4.000000 1.000000 -60.708740 114.000000 23.000000 0.772394 0.455598 0.442535
16.18000031 -5.55000019 0.27000001 9 116 193 97.000000 1.000000 4.000000 1.000000 -60.708740 114.000000 23.000000 0.922312 0.315040 -0.223807
16.14999962 -5.53999996 0.23999999 9 116 193 97.000000 1.000000 4.000000 1.000000 -60.708740 114.000000 23.000000 0.959382 0.178643 -0.218342
16.14999962 -5.55000019 0.23999999 9 116 193 97.000000 1.000000 4.000000 1.000000 -60.708740 114.000000 23.000000 0.814073 0.283906 0.506639
16.18000031 -5.53000021 0.22000000 9 116 193 97.000000 1.000000 4.000000 1.000000 -60.708740 114.000000 23.000000 0.998739 -0.050193 0.001024
16.18000031 -5.53000021 0.20999999 9 116 193 97.000000 1.000000 4.000000 1.000000 -60.708740 114.000000 23.000000 0.931249 0.241644 -0.272733
16.18000031 -5.51000023 0.19000000 9 116 193 97.000000 1.000000 4.000000 1.000000 -60.708740 114.000000 23.000000 0.850347 0.525093 -0.034455
16.18000031 -5.51000023 0.17000000 9 116 193 97.000000 1.000000 4.000000 1.000000 -60.708740 114.000000 23.000000 0.989995 -0.137216 -0.032886
16.19000053 -5.51999998 0.16000000 9 116 193 97.000000 1.000000 4.000000 1.000000 -60.708740 114.000000 23.000000 0.921138 0.348424 -0.173507
16.18000031 -5.51000023 0.17000000 9 116 193 97.000000 1.000000 4.000000 1.000000 -60.708740 114.000000 23.000000 0.989995 -0.137216 -0.032886
16.18000031 -5.51000023 0.15000001 9 116 193 97.000000 1.000000 4.000000 1.000000 -60.708740 114.000000 23.000000 0.850448 0.522598 0.060246
16.18000031 -5.51999998 0.15000001 9 116 193 97.000000 1.000000 4.000000 1.000000 -60.708740 114.000000 23.000000 0.932692 0.206174 -0.295937
16.18000031 -5.53999996 0.22000000 9 116 193 97.000000 1.000000 4.000000 1.000000 -60.708740 114.000000 23.000000 0.941623 0.268838 -0.202663
16.13999939 -5.51000023 0.15000001 9 116 193 97.000000 1.000000 4.000000 1.000000 -60.708740 114.000000 23.000000 0.989137 -0.028391 -0.144226
16.12999916 -5.51999998 0.17000000 9 116 193 97.000000 1.000000 4.000000 1.000000 -60.708740 114.000000 23.000000 0.805802 0.562999 0.183620
16.14999962 -5.53999996 0.20999999 9 116 193 97.000000 1.000000 4.000000 1.000000 -60.708740 114.000000 23.000000 0.990783 0.122277 -0.058281
16.14999962 -5.55000019 0.19000000 9 116 193 97.000000 1.000000 4.000000 1.000000 -60.708740 114.000000 23.000000 0.973141 0.101447 -0.206652
16.13999939 -5.57000017 0.17000000 9 116 193 97.000000 1.000000 4.000000 1.000000 -60.708740 114.000000 23.000000 0.998380 -0.019863 -0.053317
16.12000084 -5.44999981 0.08000000 9 116 193 97.000000 1.000000 4.000000 1.000000 -60.708740 114.000000 23.000000 0.899144 0.432517 0.066856
16.14999962 -5.46999979 0.14000000 9 116 193 97.000000 1.000000 4.000000 1.000000 -60.708740 114.000000 23.000000 0.922010 0.170325 -0.347689
16.12999916 -5.48000002 0.08000000 9 116 193 97.000000 1.000000 4.000000 1.000000 -60.708740 114.000000 23.000000 0.962998 0.109578 -0.246228
16.12999916 -5.48000002 0.08000000 9 116 193 97.000000 1.000000 4.000000 1.000000 -60.708740 114.000000 23.000000 0.962998 0.109578 -0.246228
16.12000084 -5.44999981 0.05000000 9 116 193 97.000000 1.000000 4.000000 1.000000 -60.708740 114.000000 23.000000 0.861212 0.508101 -0.012130
16.12000084 -5.46999979 0.04000000 9 116 193 97.000000 1.000000 4.000000 1.000000 -60.708740 114.000000 23.000000 0.862372 0.350194 -0.365621
16.13999939 -5.53000021 0.13000000 9 116 193 97.000000 1.000000 4.000000 1.000000 -60.708740 114.000000 23.000000 0.904558 0.414185 0.101122
16.12000084 -5.50000000 0.08000000 9 116 193 97.000000 1.000000 4.000000 1.000000 -60.708740 114.000000 23.000000 0.982947 0.181161 0.031557
16.13999939 -5.51999998 0.07000000 9 116 193 97.000000 1.000000 4.000000 1.000000 -60.708740 114.000000 23.000000 0.987328 -0.086111 0.133295
16.13999939 -5.51000023 0.06000000 9 116 193 97.000000 1.000000 4.000000 1.000000 -60.708740 114.000000 23.000000 0.956013 0.288200 -0.054593
16.09000015 -5.46999979 0.07000000 9 116 193 97.000000 1.000000 4.000000 1.000000 -60.708740 114.000000 23.000000 0.984768 -0.005679 -0.173783
16.09000015 -5.46999979 0.07000000 9 116 193 97.000000 1.000000 4.000000 1.000000 -60.708740 114.000000 23.000000 0.984768 -0.005679 -0.173783
16.11000061 -5.44000006 0.05000000 9 116 193 97.000000 1.000000 4.000000 1.000000 -60.708740 114.000000 23.000000 0.970124 0.224647 0.091616
16.11000061 -5.44999981 0.01000000 9 116 193 97.000000 1.000000 4.000000 1.000000 -60.708740 114.000000 23.000000 0.953077 -0.262596 -0.150626
