//X Y Z R G B PointSourceId ScanDirectionFlag NumberOfReturns ReturnNumber GpsTime Intensity Classification Nx Ny Nz
9.56999969 1.22000003 0.05000000 235 35 120 97.000000 1.000000 4.000000 1.000000 -60.708740 114.000000 31.000000 0.993250 -0.102131 -0.054993
9.51000023 1.21000004 0.04000000 235 35 120 97.000000 1.000000 4.000000 1.000000 -60.708740 114.000000 31.000000 0.817860 -0.533520 0.215548
9.51000023 1.22000003 0.05000000 235 35 120 97.000000 1.000000 4.000000 1.000000 -60.708740 114.000000 31.000000 0.878920 -0.465644 0.103319
9.50000000 1.20000005 -0.02000000 235 35 120 97.000000 1.000000 4.000000 1.000000 -60.708740 114.000000 31.000000 -0.605177 0.778085 -0.168358
9.51000023 1.22000003 0.06000000 235 35 120 97.000000 1.000000 4.000000 1.000000 -60.708740 114.000000 31.000000 0.870133 -0.492401 -0.020236
9.56999969 1.22000003 0.06000000 235 35 120 97.000000 1.000000 4.000000 1.000000 -60.708740 114.000000 31.000000 0.972627 -0.200581 0.117321
9.57999992 1.13000000 0.30000001 235 35 120 97.000000 1.000000 4.000000 1.000000 -60.708740 114.000000 31.000000 -0.412875 0.906679 -0.086416
9.57999992 1.13000000 0.25000000 235 35 120 97.000000 1.000000 4.000000 1.000000 -60.708740 114.000000 31.000000 0.734640 -0.651474 0.189436
9.59000015 1.07000005 0.22000000 235 35 120 97.000000 1.000000 4.000000 1.000000 -60.708740 114.000000 31.000000 -0.559357 0.708740 -0.429892
9.59000015 1.08000004 0.17000000 235 35 120 97.000000 1.000000 4.000000 1.000000 -60.708740 114.000000 31.000000 -0.221945 0.964357 -0.144069
9.63000011 1.02999997 0.25000000 235 35 120 97.000000 1.000000 4.000000 1.000000 -60.708740 114.000000 31.000000 0.832615 -0.552768 -0.034635
9.56999969 1.10000002 0.17000000 235 35 120 97.000000 1.000000 4.000000 1.000000 -60.708740 114.000000 31.000000 -0.265089 0.957194 -0.116221
9.64999962 1.10000002 0.07000000 235 35 120 97.000000 1.000000 4.000000 1.000000 -60.708740 114.000000 31.000000 -0.607347 0.772570 0.185111
9.61999989 1.05999994 0.13000000 235 35 120 97.000000 1.000000 4.000000 1.000000 -60.708740 114.000000 31.000000 0.815508 -0.470302 0.337288
9.61999989 1.08000004 0.09000000 235 35 120 97.000000 1.000000 4.000000 1.000000 -60.708740 114.000000 31.000000 0.654068 -0.676903 0.337636
9.59000015 1.12000000 0.11000000 235 35 120 97.000000 1.000000 4.000000 1.000000 -60.708740 114.000000 31.000000 0.872397 -0.444373 0.203609
9.60999966 1.08000004 0.14000000 235 35 120 97.000000 1.000000 4.000000 1.000000 -60.708740 114.000000 31.000000 -0.703407 0.648929 -0.290015
9.64000034 1.04999995 -0.01000000 235 35 120 97.000000 1.000000 4.000000 1.000000 -60.708740 114.000000 31.000000 -0.549748 0.745504 -0.376830
9.57999992 1.00000000 -0.01000000 235 35 120 97.000000 1.000000 4.000000 1.000000 -60.708740 114.000000 31.000000 -0.638216 0.769491 -0.023741
9.56999969 1.09000003 0.13000000 235 35 120 97.000000 1.000000 4.000000 1.000000 -60.708740 114.000000 31.000000 -0.408087 0.857753 -0.312610
9.56999969 1.12000000 0.08000000 235 35 120 97.000000 1.000000 4.000000 1.000000 -60.708740 114.000000 31.000000 0.748225 -0.649261 -0.136450
9.55000019 1.12000000 0.01000000 235 35 120 97.000000 1.000000 4.000000 1.000000 -60.708740 114.000000 31.000000 -0.308310 0.910318 -0.276164
9.52000046 1.09000003 0.06000000 235 35 120 97.000000 1.000000 4.000000 1.000000 -60.708740 114.000000 31.000000 -0.606294 0.776482 -0.171707
9.35000038 1.28999996 0.22000000 235 35 120 97.000000 1.000000 4.000000 1.000000 -60.708740 114.000000 31.000000 0.810263 0.559790 0.173520
9.47000027 1.27999997 0.00000000 235 35 120 97.000000 1.000000 4.000000 1.000000 -60.708740 114.000000 31.000000 0.944564 0.060898 -0.322629
9.27999973 1.60000002 0.49000001 235 35 120 97.000000 1.000000 4.000000 1.000000 -60.708740 114.000000 31.000000 -0.664449 0.747332 -0.001381
9.27999973 1.60000002 0.49000001 235 35 120 97.000000 1.000000 4.000000 1.000000 -60.708740 114.000000 31.000000 -0.664449 0.747332 -0.001381
9.28999996 1.57000005 0.50999999 235 35 120 97.000000 1.000000 4.000000 1.000000 -60.708740 114.000000 31.000000 -0.167272 0.980433 0.103782
9.22999954 1.63999999 0.52999997 235 35 120 97.000000 1.000000 4.000000 1.000000 -60.708740 114.000000 31.000000 0.744661 -0.664001 0.067696
9.22999954 1.63999999 0.51999998 235 35 120 97.000000 1.000000 4.000000 1.000000 -60.708740 114.000000 31.000000 0.815295 -0.564662 0.128265
9.28999996 1.57000005 0.40000001 235 35 120 97.000000 1.000000 4.000000 1.000000 -60.708740 114.000000 31.000000 0.740951 -0.671443 0.012511
9.23999977 1.62000000 0.47000000 235 35 120 97.000000 1.000000 4.000000 1.000000 -60.708740 114.000000 31.000000 -0.645808 0.759006 -0.082721
9.27000046 1.61000001 0.44999999 235 35 120 97.000000 1.000000 4.000000 1.000000 -60.708740 114.000000 31.000000 0.761432 -0.590466 0.267530
9.23999977 1.59000003 0.46000001 235 35 120 97.000000 1.000000 4.000000 1.000000 -60.708740 114.000000 31.000000 -0.626629 0.572580 -0.528666
9.30000019 1.54999995 0.34999999 235 35 120 97.000000 1.000000 4.000000 1.000000 -60.708740 114.000000 31.000000 0.648857 -0.678276 0.344858
9.30000019 1.36000001 0.33000001 235 35 120 97.000000 1.000000 4.000000 1.000000 -60.708740 114.000000 31.000000 0.808671 -0.487745 0.328870
9.28999996 1.40999997 0.23999999 235 35 120 97.000000 1.000000 4.000000 1.000000 -60.708740 114.000000 31.000000 -0.607267 0.789882 0.085510
9.27999973 1.35000002 0.23000000 235 35 120 97.000000 1.000000 4.000000 1.000000 -60.708740 114.000000 31.000000 0.960052 -0.279042 -0.020897
9.27999973 1.37000000 0.20999999 235 35 120 97.000000 1.000000 4.000000 1.000000 -60.708740 114.000000 31.000000 0.981737 -0.093211 -0.165842
9.25000000 1.42999995 0.13000000 235 35 120 97.000000 1.000000 4.000000 1.000000 -60.708740 114.000000 31.000000 0.833814 -0.360951 0.417695
9.25000000 1.39999998 0.14000000 235 35 120 97.000000 1.000000 4.000000 1.000000 -60.708740 114.000000 31.000000 0.896709 -0.196200 0.396761
9.26000023 1.38999999 -0.02000000 235 35 120 97.000000 1.000000 4.000000 1.000000 -60.708740 114.000000 31.000000 0.947937 -0.309025 0.076930
9.27000046 1.34000003 0.12000000 235 35 120 97.000000 1.000000 4.000000 1.000000 -60.708740 114.000000 31.000000 0.960763 -0.038530 0.274681
9.31000042 1.37000000 0.11000000 235 35 120 97.000000 1.000000 4.000000 1.000000 -60.708740 114.000000 31.000000 0.855347 -0.516514 -0.039944
9.27999973 1.35000002 0.13000000 235 35 120 97.000000 1.000000 4.000000 1.000000 -60.708740 114.000000 31.000000 0.938193 -0.224442 0.263475
9.31000042 1.38000000 0.00000000 235 35 120 97.000000 1.000000 4.000000 1.000000 -60.708740 114.000000 31.000000 -0.769265 0.626974 -0.123023
9.31000042 1.34000003 0.04000000 235 35 120 97.000000 1.000000 4.000000 1.000000 -60.708740 114.000000 31.000000 0.762071 -0.598658 0.246691
9.27999973 1.35000002 0.03000000 235 35 120 97.000000 1.000000 4.000000 1.000000 -60.708740 114.000000 31.000000 0.983552 -0.180184 0.012624
9.85999966 1.40999997 -0.23999999 235 35 120 97.000000 1.000000 4.000000 1.000000 -60.708740 114.000000 1.000000 0.997328 0.050566 -0.052717
9.81000042 1.36000001 -0.30000001 235 35 120 97.000000 1.000000 4.000000 1.000000 -60.708740 114.000000 1.000000 0.914425 0.305774 0.265198
9.75000000 1.46000004 -0.41999999 235 35 120 97.000000 1.000000 4.000000 1.000000 -60.708740 114.000000 1.000000 0.756798 0.613240 -0.226259
9.73999977 1.46000004 -0.41999999 235 35 120 97.000000 1.000000 4.000000 1.000000 -60.708740 114.000000 1.000000 0.763119 0.593188 0.256471
9.77999973 1.47000003 -0.40000001 235 35 120 97.000000 1.000000 4.000000 1.000000 -60.708740 114.000000 1.000000 0.739979 0.581297 0.338415
9.73999977 1.46000004 -0.41999999 235 35 120 97.000000 1.000000 4.000000 1.000000 -60.708740 114.000000 1.000000 0.763119 0.593188 0.256471
9.75000000 1.40999997 -0.43000001 235 35 120 97.000000 1.000000 4.000000 1.000000 -60.708740 114.000000 1.000000 0.675597 0.703682 -0.219998
9.77000046 1.41999996 -0.40000001 235 35 120 97.000000 1.000000 4.000000 1.000000 -60.708740 114.000000 1.000000 0.739758 0.666515 0.092287
9.76000023 1.46000004 -0.44999999 235 35 120 97.000000 1.000000 4.000000 1.000000 -60.708740 114.000000 1.000000 0.915358 0.402024 -0.022262
9.75000000 1.41999996 -0.49000001 235 35 120 97.000000 1.000000 4.000000 1.000000 -60.708740 114.000000 1.000000 0.800030 0.588646 0.115968
9.65999985 1.17999995 -0.17000000 235 35 120 97.000000 1.000000 4.000000 1.000000 -60.708740 114.000000 31.000000 0.937772 -0.284805 0.198669
9.69999981 1.14999998 -0.14000000 235 35 120 97.000000 1.000000 4.000000 1.000000 -60.708740 114.000000 31.000000 0.953469 -0.219824 0.206338
9.68000031 1.09000003 -0.16000000 235 35 120 97.000000 1.000000 4.000000 1.000000 -60.708740 114.000000 31.000000 -0.583601 0.790832 -0.184375
9.72000027 1.12000000 -0.15000001 235 35 120 97.000000 1.000000 4.000000 1.000000 -60.708740 114.000000 31.000000 0.995038 -0.095026 -0.029491
9.71000004 1.00999999 -0.09000000 235 35 120 97.000000 1.000000 4.000000 1.000000 -60.708740 114.000000 31.000000 -0.542989 0.825642 0.153227
9.67000008 1.04999995 -0.10000000 235 35 120 97.000000 1.000000 4.000000 1.000000 -60.708740 114.000000 31.000000 0.704089 -0.709710 -0.023891
9.71000004 1.00999999 -0.09000000 235 35 120 97.000000 1.000000 4.000000 1.000000 -60.708740 114.000000 31.000000 -0.542989 0.825642 0.153227
9.68000031 1.02999997 -0.16000000 235 35 120 97.000000 1.000000 4.000000 1.000000 -60.708740 114.000000 31.000000 0.628500 -0.756952 0.178916
9.68000031 0.99000001 -0.19000000 235 35 120 97.000000 1.000000 4.000000 1.000000 -60.708740 114.000000 31.000000 0.825280 -0.514840 0.232062
9.92000008 1.20000005 -0.38000000 235 35 120 97.000000 1.000000 4.000000 1.000000 -60.708740 114.000000 1.000000 0.873009 -0.082677 0.480645
9.90999985 1.17999995 -0.37000000 235 35 120 97.000000 1.000000 4.000000 1.000000 -60.708740 114.000000 1.000000 0.976333 0.163764 0.141262
9.71000004 0.91000003 -0.05000000 235 35 120 97.000000 1.000000 4.000000 1.000000 -60.708740 114.000000 31.000000 -0.251079 0.935585 -0.248274
9.67000008 0.95999998 -0.31000000 235 35 120 97.000000 1.000000 4.000000 1.000000 -60.708740 114.000000 31.000000 -0.487518 0.685206 -0.541128
9.46000004 1.41999996 -0.16000000 235 35 120 97.000000 1.000000 4.000000 1.000000 -60.708740 114.000000 31.000000 -0.205813 0.924027 -0.322203
9.40999985 1.38000000 -0.06000000 235 35 120 97.000000 1.000000 4.000000 1.000000 -60.708740 114.000000 31.000000 0.683930 -0.705447 0.185968
9.42000008 1.33000004 -0.13000000 235 35 120 97.000000 1.000000 4.000000 1.000000 -60.708740 114.000000 31.000000 -0.182128 0.958496 -0.219351
9.38000011 1.42999995 -0.05000000 235 35 120 97.000000 1.000000 4.000000 1.000000 -60.708740 114.000000 31.000000 -0.660485 0.633999 -0.402250
9.34000015 1.46000004 -0.05000000 235 35 120 97.000000 1.000000 4.000000 1.000000 -60.708740 114.000000 31.000000 -0.382979 0.913257 0.138882
9.35000038 1.42999995 -0.08000000 235 35 120 97.000000 1.000000 4.000000 1.000000 -60.708740 114.000000 31.000000 -0.601025 0.797104 0.058255
9.35000038 1.42999995 -0.09000000 235 35 120 97.000000 1.000000 4.000000 1.000000 -60.708740 114.000000 31.000000 0.787556 -0.612544 -0.067423
9.35000038 1.42999995 -0.08000000 235 35 120 97.000000 1.000000 4.000000 1.000000 -60.708740 114.000000 31.000000 -0.601025 0.797104 0.058255
9.39999962 1.38999999 -0.11000000 235 35 120 97.000000 1.000000 4.000000 1.000000 -60.708740 114.000000 31.000000 -0.350697 0.929278 -0.115989
9.35000038 1.40999997 -0.18000001 235 35 120 97.000000 1.000000 4.000000 1.000000 -60.708740 114.000000 31.000000 -0.501756 0.864958 0.009416
9.35000038 1.42999995 -0.15000001 235 35 120 97.000000 1.000000 4.000000 1.000000 -60.708740 114.000000 31.000000 -0.475004 0.804468 -0.356653
9.39000034 1.37000000 -0.04000000 235 35 120 97.000000 1.000000 4.000000 1.000000 -60.708740 114.000000 31.000000 -0.498097 0.866553 0.031387
9.35000038 1.32000005 -0.04000000 235 35 120 97.000000 1.000000 4.000000 1.000000 -60.708740 114.000000 31.000000 0.673568 -0.586656 0.449602
9.42000008 1.40999997 -0.19000000 235 35 120 97.000000 1.000000 4.000000 1.000000 -60.708740 114.000000 31.000000 -0.309265 0.948500 0.068582
9.64000034 1.14999998 -0.08000000 235 35 120 97.000000 1.000000 4.000000 1.000000 -60.708740 114.000000 31.000000 0.648873 -0.605280 0.461086
9.63000011 1.17999995 -0.10000000 235 35 120 97.000000 1.000000 4.000000 1.000000 -60.708740 114.000000 31.000000 0.704238 -0.471157 0.531092
9.64000034 1.16999996 -0.18000001 235 35 120 97.000000 1.000000 4.000000 1.000000 -60.708740 114.000000 31.000000 0.744796 -0.664433 -0.061708
9.52000046 1.16999996 -0.03000000 235 35 120 97.000000 1.000000 4.000000 1.000000 -60.708740 114.000000 31.000000 -0.543844 0.681060 -0.490296
9.53999996 1.19000006 -0.10000000 235 35 120 97.000000 1.000000 4.000000 1.000000 -60.708740 114.000000 31.000000 0.848852 -0.417443 0.324333
9.56999969 1.22000003 -0.17000000 235 35 120 97.000000 1.000000 4.000000 1.000000 -60.708740 114.000000 31.000000 0.884225 -0.395143 0.249014
9.61999989 1.17999995 -0.22000000 235 35 120 97.000000 1.000000 4.000000 1.000000 -60.708740 114.000000 31.000000 0.929031 -0.279419 -0.242541
9.56999969 1.25999999 -0.25999999 235 35 120 97.000000 1.000000 4.000000 1.000000 -60.708740 114.000000 31.000000 0.774567 0.625780 0.091898
9.52000046 1.23000002 -0.28999999 235 35 120 97.000000 1.000000 4.000000 1.000000 -60.708740 114.000000 31.000000 0.985683 0.165244 0.033511
9.60000038 1.10000002 -0.16000000 235 35 120 97.000000 1.000000 4.000000 1.000000 -60.708740 114.000000 31.000000 -0.290986 0.926896 -0.237047
9.64999962 1.13000000 -0.11000000 235 35 120 97.000000 1.000000 4.000000 1.000000 -60.708740 114.000000 31.000000 0.874008 -0.428787 0.228587
9.61999989 1.10000002 -0.18000001 235 35 120 97.000000 1.000000 4.000000 1.000000 -60.708740 114.000000 31.000000 -0.581376 0.625190 -0.520711
9.64999962 1.13000000 -0.13000000 235 35 120 97.000000 1.000000 4.000000 1.000000 -60.708740 114.000000 31.000000 0.926734 -0.171928 0.334072
9.57999992 0.97000003 -0.10000000 235 35 120 97.000000 1.000000 4.000000 1.000000 -60.708740 114.000000 31.000000 -0.399773 0.916201 0.027525
9.61999989 1.00999999 -0.16000000 235 35 120 97.000000 1.000000 4.000000 1.000000 -60.708740 114.000000 31.000000 -0.612349 0.763508 -0.205145
9.61999989 0.97000003 -0.18000001 235 35 120 97.000000 1.000000 4.000000 1.000000 -60.708740 114.000000 31.000000 -0.360822 0.867509 -0.342397
9.53999996 1.13000000 -0.07000000 235 35 120 97.000000 1.000000 4.000000 1.000000 -60.708740 114.000000 31.000000 -0.483582 0.722880 -0.493552
9.48999977 1.08000004 -0.10000000 235 35 120 97.000000 1.000000 4.000000 1.000000 -60.708740 114.000000 31.000000 -0.032876 0.989685 -0.139440
9.53999996 1.07000005 -0.14000000 235 35 120 97.000000 1.000000 4.000000 1.000000 -60.708740 114.000000 31.000000 -0.390561 0.859852 -0.328812
9.50000000 1.07000005 -0.12000000 235 35 120 97.000000 1.000000 4.000000 1.000000 -60.708740 114.000000 31.000000 0.085245 0.989074 -0.120277
9.51000023 1.07000005 -0.11000000 235 35 120 97.000000 1.000000 4.000000 1.000000 -60.708740 114.000000 31.000000 -0.023952 0.998710 -0.044781
9.53999996 1.04999995 -0.09000000 235 35 120 97.000000 1.000000 4.000000 1.000000 -60.708740 114.000000 31.000000 -0.486239 0.873052 0.036774
9.56999969 1.03999996 -0.10000000 235 35 120 97.000000 1.000000 4.000000 1.000000 -60.708740 114.000000 31.000000 -0.292709 0.795851 -0.530040
9.56999969 1.00000000 -0.09000000 235 35 120 97.000000 1.000000 4.000000 1.000000 -60.708740 114.000000 31.000000 -0.501298 0.845472 -0.184059
9.56000042 0.97000003 -0.10000000 235 35 120 97.000000 1.000000 4.000000 1.000000 -60.708740 114.000000 31.000000 0.003251 0.993746 -0.111620
9.52000046 0.97000003 -0.16000000 235 35 120 97.000000 1.000000 4.000000 1.000000 -60.708740 114.000000 31.000000 -0.299872 0.953915 0.011106
9.60999966 1.09000003 -0.19000000 235 35 120 97.000000 1.000000 4.000000 1.000000 -60.708740 114.000000 31.000000 0.903593 -0.405839 0.137165
9.55000019 1.09000003 -0.27000001 235 35 120 97.000000 1.000000 4.000000 1.000000 -60.708740 114.000000 31.000000 -0.675703 0.697754 -0.237835
9.56999969 1.10000002 -0.23000000 235 35 120 97.000000 1.000000 4.000000 1.000000 -60.708740 114.000000 31.000000 0.840497 -0.541774 0.006789
9.55000019 1.09000003 -0.25999999 235 35 120 97.000000 1.000000 4.000000 1.000000 -60.708740 114.000000 31.000000 -0.209753 0.969948 -0.123309
9.53999996 1.09000003 -0.25999999 235 35 120 97.000000 1.000000 4.000000 1.000000 -60.708740 114.000000 31.000000 -0.147707 0.988845 -0.019168
9.44999981 1.27999997 -0.06000000 235 35 120 97.000000 1.000000 4.000000 1.000000 -60.708740 114.000000 31.000000 -0.398069 0.905216 0.148744
9.42000008 1.25999999 -0.14000000 235 35 120 97.000000 1.000000 4.000000 1.000000 -60.708740 114.000000 31.000000 0.989351 0.075567 -0.124395
9.43000031 1.21000004 -0.18000001 235 35 120 97.000000 1.000000 4.000000 1.000000 -60.708740 114.000000 31.000000 0.608734 0.728220 0.314862
9.36999989 1.29999995 -0.10000000 235 35 120 97.000000 1.000000 4.000000 1.000000 -60.708740 114.000000 31.000000 0.786644 -0.489431 0.376362
9.39000034 1.26999998 -0.14000000 235 35 120 97.000000 1.000000 4.000000 1.000000 -60.708740 114.000000 31.000000 0.981707 -0.189371 0.019750
9.35000038 1.26999998 -0.17000000 235 35 120 97.000000 1.000000 4.000000 1.000000 -60.708740 114.000000 31.000000 0.840865 -0.463018 0.280288
9.47999954 1.27999997 -0.20000000 235 35 120 97.000000 1.000000 4.000000 1.000000 -60.708740 114.000000 31.000000 0.361353 0.907010 0.216231
9.46000004 1.26999998 -0.34999999 235 35 120 97.000000 1.000000 4.000000 1.000000 -60.708740 114.000000 31.000000 -0.228426 0.959919 -0.162407
9.46000004 1.26999998 -0.34999999 235 35 120 97.000000 1.000000 4.000000 1.000000 -60.708740 114.000000 31.000000 -0.228426 0.959919 -0.162407
9.47000027 1.16999996 -0.27000001 235 35 120 97.000000 1.000000 4.000000 1.000000 -60.708740 114.000000 31.000000 0.289455 0.930491 0.224504
9.38000011 1.13999999 -0.27000001 235 35 120 97.000000 1.000000 4.000000 1.000000 -60.708740 114.000000 31.000000 0.823947 0.561198 -0.078539
9.43000031 1.00999999 -0.13000000 235 35 120 97.000000 1.000000 4.000000 1.000000 -60.708740 114.000000 31.000000 0.043810 0.981592 -0.185899
9.43999958 1.00000000 -0.13000000 235 35 120 97.000000 1.000000 4.000000 1.000000 -60.708740 114.000000 31.000000 -0.075869 0.993097 0.089458
9.46000004 1.25999999 -0.36000001 235 35 120 97.000000 1.000000 4.000000 1.000000 -60.708740 114.000000 31.000000 0.727773 -0.632640 0.264789
9.43999958 1.28999996 -0.37000000 235 35 120 97.000000 1.000000 4.000000 1.000000 -60.708740 114.000000 31.000000 -0.534394 0.820622 -0.202491
9.43000031 1.28999996 -0.36000001 235 35 120 97.000000 1.000000 4.000000 1.000000 -60.708740 114.000000 31.000000 -0.604720 0.795537 0.037883
9.40999985 1.14999998 -0.36000001 235 35 120 97.000000 1.000000 4.000000 1.000000 -60.708740 114.000000 31.000000 0.745520 0.660901 0.086078
9.27000046 1.48000002 -0.08000000 235 35 120 97.000000 1.000000 4.000000 1.000000 -60.708740 114.000000 31.000000 -0.520202 0.852127 -0.057180
9.31000042 1.42999995 -0.22000000 235 35 120 97.000000 1.000000 4.000000 1.000000 -60.708740 114.000000 31.000000 -0.681738 0.720524 -0.126800
9.57999992 0.95999998 -0.14000000 235 35 120 97.000000 1.000000 4.000000 1.000000 -60.708740 114.000000 31.000000 -0.446283 0.885436 0.129750
9.60000038 0.88999999 -0.17000000 235 35 120 97.000000 1.000000 4.000000 1.000000 -60.708740 114.000000 31.000000 -0.461678 0.796274 -0.390898
9.61999989 0.88999999 -0.22000000 235 35 120 97.000000 1.000000 4.000000 1.000000 -60.708740 114.000000 31.000000 -0.333239 0.771119 -0.542520
9.64999962 0.95999998 -0.23999999 235 35 120 97.000000 1.000000 4.000000 1.000000 -60.708740 114.000000 31.000000 -0.281363 0.954016 -0.103384
9.64000034 0.95999998 -0.23999999 235 35 120 97.000000 1.000000 4.000000 1.000000 -60.708740 114.000000 31.000000 -0.291899 0.941478 -0.168562
9.59000015 0.91000003 -0.25999999 235 35 120 97.000000 1.000000 4.000000 1.000000 -60.708740 114.000000 31.000000 -0.134455 0.951833 -0.275566
9.59000015 0.94000000 -0.23999999 235 35 120 97.000000 1.000000 4.000000 1.000000 -60.708740 114.000000 31.000000 -0.165317 0.832543 -0.528717
9.59000015 0.82999998 -0.23000000 235 35 120 97.000000 1.000000 4.000000 1.000000 -60.708740 114.000000 31.000000 -0.424733 0.905318 -0.001299
9.60000038 0.83999997 -0.25999999 235 35 120 97.000000 1.000000 4.000000 1.000000 -60.708740 114.000000 31.000000 -0.298117 0.809173 -0.506325
9.23999977 1.64999998 0.52999997 235 35 120 97.000000 1.000000 4.000000 1.000000 -60.708740 114.000000 31.000000 -0.453838 0.886731 -0.087975
9.67000008 1.30999994 0.33000001 235 35 120 97.000000 1.000000 4.000000 1.000000 -60.708740 114.000000 31.000000 0.977686 0.158173 -0.138246
9.67000008 1.27999997 0.50000000 235 35 120 97.000000 1.000000 4.000000 1.000000 -60.708740 114.000000 31.000000 0.992943 0.003263 0.118544
9.65999985 1.16999996 0.50999999 235 35 120 97.000000 1.000000 4.000000 1.000000 -60.708740 114.000000 31.000000 0.762908 -0.596169 -0.250108
9.67000008 1.25999999 0.40000001 235 35 120 97.000000 1.000000 4.000000 1.000000 -60.708740 114.000000 31.000000 0.989559 -0.007809 0.143916
9.67000008 1.25000000 0.34000000 235 35 120 97.000000 1.000000 4.000000 1.000000 -60.708740 114.000000 31.000000 0.992827 -0.119314 -0.007662
9.67000008 1.23000002 0.31999999 235 35 120 97.000000 1.000000 4.000000 1.000000 -60.708740 114.000000 31.000000 0.979078 -0.190477 0.071581
9.67000008 1.20000005 0.47999999 235 35 120 97.000000 1.000000 4.000000 1.000000 -60.708740 114.000000 31.000000 0.909337 -0.354193 -0.218299
9.65999985 1.16999996 0.41999999 235 35 120 97.000000 1.000000 4.000000 1.000000 -60.708740 114.000000 31.000000 0.691131 -0.703337 -0.166299
9.68000031 1.21000004 0.41999999 235 35 120 97.000000 1.000000 4.000000 1.000000 -60.708740 114.000000 31.000000 0.665234 -0.601878 0.441822
9.65999985 1.21000004 0.41000000 235 35 120 97.000000 1.000000 4.000000 1.000000 -60.708740 114.000000 31.000000 0.627478 -0.597197 0.499627
9.67000008 1.22000003 0.34999999 235 35 120 97.000000 1.000000 4.000000 1.000000 -60.708740 114.000000 31.000000 0.947804 -0.290090 -0.132345
9.65999985 1.07000005 0.56999999 235 35 120 97.000000 1.000000 4.000000 1.000000 -60.708740 114.000000 31.000000 -0.361264 0.854319 -0.373668
9.69999981 1.10000002 0.47999999 235 35 120 97.000000 1.000000 4.000000 1.000000 -60.708740 114.000000 31.000000 -0.502923 0.758479 -0.414461
9.69999981 1.10000002 0.47999999 235 35 120 97.000000 1.000000 4.000000 1.000000 -60.708740 114.000000 31.000000 -0.502923 0.758479 -0.414461
9.72999954 1.12000000 0.31999999 235 35 120 97.000000 1.000000 4.000000 1.000000 -60.708740 114.000000 31.000000 0.954093 -0.250232 0.164591
9.68000031 1.04999995 0.44000000 235 35 120 97.000000 1.000000 4.000000 1.000000 -60.708740 114.000000 31.000000 -0.354281 0.934942 0.019185
9.69999981 1.25999999 0.28999999 235 35 120 97.000000 1.000000 4.000000 1.000000 -60.708740 114.000000 31.000000 0.989071 0.144216 0.030660
9.67000008 1.16999996 0.15000001 235 35 120 97.000000 1.000000 4.000000 1.000000 -60.708740 114.000000 31.000000 0.815962 -0.407183 0.410376
9.65999985 1.11000001 0.27000001 235 35 120 97.000000 1.000000 4.000000 1.000000 -60.708740 114.000000 31.000000 0.861443 -0.489555 -0.135100
9.67000008 1.13000000 0.18000001 235 35 120 97.000000 1.000000 4.000000 1.000000 -60.708740 114.000000 31.000000 0.883520 -0.448204 0.136036
9.67000008 1.01999998 -0.02000000 235 35 120 97.000000 1.000000 4.000000 1.000000 -60.708740 114.000000 31.000000 0.828616 -0.553842 -0.081574
9.72999954 1.01999998 0.05000000 235 35 120 97.000000 1.000000 4.000000 1.000000 -60.708740 114.000000 31.000000 -0.588380 0.808153 0.026428
9.69999981 0.99000001 0.01000000 235 35 120 97.000000 1.000000 4.000000 1.000000 -60.708740 114.000000 31.000000 -0.501999 0.864630 -0.020296
9.68999958 0.94999999 0.08000000 235 35 120 97.000000 1.000000 4.000000 1.000000 -60.708740 114.000000 31.000000 0.648993 -0.727185 -0.223629
9.48999977 1.51999998 0.38000000 235 35 120 97.000000 1.000000 4.000000 1.000000 -60.708740 114.000000 31.000000 0.021878 0.984525 -0.173875
9.51000023 1.47000003 0.33000001 235 35 120 97.000000 1.000000 4.000000 1.000000 -60.708740 114.000000 31.000000 0.591296 0.781739 0.198123
9.56999969 1.42999995 0.37000000 235 35 120 97.000000 1.000000 4.000000 1.000000 -60.708740 114.000000 31.000000 0.866499 0.464987 0.181566
9.51000023 1.30999994 0.33000001 235 35 120 97.000000 1.000000 4.000000 1.000000 -60.708740 114.000000 31.000000 0.998083 -0.026404 -0.055977
9.36999989 1.50999999 0.60000002 235 35 120 97.000000 1.000000 4.000000 1.000000 -60.708740 114.000000 31.000000 0.089272 0.993295 0.073452
9.35999966 1.55999994 0.44000000 235 35 120 97.000000 1.000000 4.000000 1.000000 -60.708740 114.000000 31.000000 -0.429695 0.854770 -0.291084
9.34000015 1.58000004 0.38000000 235 35 120 97.000000 1.000000 4.000000 1.000000 -60.708740 114.000000 31.000000 -0.530727 0.840197 -0.111351
9.39000034 1.48000002 0.44999999 235 35 120 97.000000 1.000000 4.000000 1.000000 -60.708740 114.000000 31.000000 -0.070799 0.970071 -0.232271
9.35000038 1.54999995 0.33000001 235 35 120 97.000000 1.000000 4.000000 1.000000 -60.708740 114.000000 31.000000 -0.336973 0.919923 0.200478
9.46000004 1.40999997 0.50000000 235 35 120 97.000000 1.000000 4.000000 1.000000 -60.708740 114.000000 31.000000 0.961772 0.259283 0.088131
9.43000031 1.47000003 0.52999997 235 35 120 97.000000 1.000000 4.000000 1.000000 -60.708740 114.000000 31.000000 0.038149 0.999080 -0.019590
9.46000004 1.39999998 0.50000000 235 35 120 97.000000 1.000000 4.000000 1.000000 -60.708740 114.000000 31.000000 0.992034 0.116245 0.048530
9.44999981 1.36000001 0.50000000 235 35 120 97.000000 1.000000 4.000000 1.000000 -60.708740 114.000000 31.000000 0.901791 -0.379014 0.207659
9.36999989 1.44000006 0.54000002 235 35 120 97.000000 1.000000 4.000000 1.000000 -60.708740 114.000000 31.000000 -0.179241 0.817880 -0.546759
9.40999985 1.36000001 0.47000000 235 35 120 97.000000 1.000000 4.000000 1.000000 -60.708740 114.000000 31.000000 0.886334 -0.289446 0.361432
9.46000004 1.36000001 0.34999999 235 35 120 97.000000 1.000000 4.000000 1.000000 -60.708740 114.000000 31.000000 0.819804 0.571210 0.040501
9.31999969 1.42999995 0.41999999 235 35 120 97.000000 1.000000 4.000000 1.000000 -60.708740 114.000000 31.000000 0.675920 -0.626342 0.388365
9.38000011 1.47000003 0.41999999 235 35 120 97.000000 1.000000 4.000000 1.000000 -60.708740 114.000000 31.000000 -0.243273 0.907540 -0.342330
9.39999962 1.46000004 0.36000001 235 35 120 97.000000 1.000000 4.000000 1.000000 -60.708740 114.000000 31.000000 -0.322351 0.828679 -0.457582
9.34000015 1.46000004 0.38999999 235 35 120 97.000000 1.000000 4.000000 1.000000 -60.708740 114.000000 31.000000 -0.675770 0.721124 0.152691
9.50000000 1.39999998 0.25999999 235 35 120 97.000000 1.000000 4.000000 1.000000 -60.708740 114.000000 31.000000 0.823517 0.508325 -0.251845
9.50000000 1.39999998 0.27000001 235 35 120 97.000000 1.000000 4.000000 1.000000 -60.708740 114.000000 31.000000 0.915355 0.394620 0.080009
9.52000046 1.39999998 0.20000000 235 35 120 97.000000 1.000000 4.000000 1.000000 -60.708740 114.000000 31.000000 0.872534 0.466029 0.146632
9.52999973 1.38999999 0.20999999 235 35 120 97.000000 1.000000 4.000000 1.000000 -60.708740 114.000000 31.000000 0.813124 0.536447 -0.225953
9.56000042 1.36000001 0.20000000 235 35 120 97.000000 1.000000 4.000000 1.000000 -60.708740 114.000000 31.000000 0.998849 0.017633 -0.044601
9.52999973 1.35000002 0.20000000 235 35 120 97.000000 1.000000 4.000000 1.000000 -60.708740 114.000000 31.000000 0.815862 0.419906 0.397553
9.53999996 1.30999994 0.10000000 235 35 120 97.000000 1.000000 4.000000 1.000000 -60.708740 114.000000 31.000000 0.963187 -0.268028 -0.020806
9.48999977 1.34000003 0.07000000 235 35 120 97.000000 1.000000 4.000000 1.000000 -60.708740 114.000000 31.000000 0.742072 0.593980 0.310672
9.55000019 1.33000004 0.04000000 235 35 120 97.000000 1.000000 4.000000 1.000000 -60.708740 114.000000 31.000000 0.916386 0.386064 0.105790
9.56000042 1.32000005 0.06000000 235 35 120 97.000000 1.000000 4.000000 1.000000 -60.708740 114.000000 31.000000 0.930124 0.305351 0.204036
9.52999973 1.30999994 0.06000000 235 35 120 97.000000 1.000000 4.000000 1.000000 -60.708740 114.000000 31.000000 0.837183 0.535391 0.111721
9.44999981 1.51999998 0.18000001 235 35 120 97.000000 1.000000 4.000000 1.000000 -60.708740 114.000000 31.000000 0.187536 0.970850 0.149263
9.42000008 1.47000003 0.30000001 235 35 120 97.000000 1.000000 4.000000 1.000000 -60.708740 114.000000 31.000000 -0.174709 0.983764 0.041039
9.32999992 1.44000006 0.31000000 235 35 120 97.000000 1.000000 4.000000 1.000000 -60.708740 114.000000 31.000000 0.582369 -0.606001 0.541856
9.39000034 1.46000004 0.25000000 235 35 120 97.000000 1.000000 4.000000 1.000000 -60.708740 114.000000 31.000000 -0.195612 0.973011 0.122415
9.34000015 1.30999994 0.28999999 235 35 120 97.000000 1.000000 4.000000 1.000000 -60.708740 114.000000 31.000000 0.886685 0.295562 0.355574
9.32999992 1.30999994 0.22000000 235 35 120 97.000000 1.000000 4.000000 1.000000 -60.708740 114.000000 31.000000 0.909682 0.392274 -0.136382
9.40999985 1.38000000 0.11000000 235 35 120 97.000000 1.000000 4.000000 1.000000 -60.708740 114.000000 31.000000 -0.331052 0.940398 -0.077817
9.43000031 1.32000005 0.00000000 235 35 120 97.000000 1.000000 4.000000 1.000000 -60.708740 114.000000 31.000000 -0.355504 0.933686 0.042973
9.32999992 1.44000006 0.04000000 235 35 120 97.000000 1.000000 4.000000 1.000000 -60.708740 114.000000 31.000000 0.835164 -0.549986 0.004074
9.34000015 1.38999999 0.06000000 235 35 120 97.000000 1.000000 4.000000 1.000000 -60.708740 114.000000 31.000000 0.687150 -0.641449 0.341127
9.36999989 1.38999999 0.04000000 235 35 120 97.000000 1.000000 4.000000 1.000000 -60.708740 114.000000 31.000000 -0.714159 0.610045 -0.343252
9.35999966 1.38000000 0.14000000 235 35 120 97.000000 1.000000 4.000000 1.000000 -60.708740 114.000000 31.000000 -0.459766 0.847260 -0.266018
9.63000011 1.15999997 0.50999999 235 35 120 97.000000 1.000000 4.000000 1.000000 -60.708740 114.000000 31.000000 -0.671885 0.738067 0.061865
9.52999973 1.22000003 0.57999998 235 35 120 97.000000 1.000000 4.000000 1.000000 -60.708740 114.000000 31.000000 0.822681 -0.550916 0.140314
9.52000046 1.19000006 0.57999998 235 35 120 97.000000 1.000000 4.000000 1.000000 -60.708740 114.000000 31.000000 -0.718846 0.642677 -0.265005
9.61999989 1.13999999 0.40000001 235 35 120 97.000000 1.000000 4.000000 1.000000 -60.708740 114.000000 31.000000 -0.345438 0.912014 -0.221138
9.64000034 1.21000004 0.34000000 235 35 120 97.000000 1.000000 4.000000 1.000000 -60.708740 114.000000 31.000000 -0.638784 0.756020 -0.142787
9.64000034 1.21000004 0.34000000 235 35 120 97.000000 1.000000 4.000000 1.000000 -60.708740 114.000000 31.000000 -0.638784 0.756020 -0.142787
9.64999962 1.13999999 0.36000001 235 35 120 97.000000 1.000000 4.000000 1.000000 -60.708740 114.000000 31.000000 0.910731 -0.385472 0.148259
9.52999973 1.25999999 0.31999999 235 35 120 97.000000 1.000000 4.000000 1.000000 -60.708740 114.000000 31.000000 0.685430 -0.709747 0.162619
9.60999966 1.07000005 0.50999999 235 35 120 97.000000 1.000000 4.000000 1.000000 -60.708740 114.000000 31.000000 -0.275003 0.953958 -0.119738
9.64999962 1.05999994 0.56000000 235 35 120 97.000000 1.000000 4.000000 1.000000 -60.708740 114.000000 31.000000 -0.422324 0.892213 0.159993
9.64999962 1.11000001 0.50000000 235 35 120 97.000000 1.000000 4.000000 1.000000 -60.708740 114.000000 31.000000 -0.484370 0.866692 0.119296
9.60999966 1.08000004 0.52999997 235 35 120 97.000000 1.000000 4.000000 1.000000 -60.708740 114.000000 31.000000 -0.384430 0.922370 -0.038049
9.63000011 1.03999996 0.56999999 235 35 120 97.000000 1.000000 4.000000 1.000000 -60.708740 114.000000 31.000000 -0.279444 0.952229 -0.123167
9.59000015 1.04999995 0.56000000 235 35 120 97.000000 1.000000 4.000000 1.000000 -60.708740 114.000000 31.000000 -0.452885 0.862136 0.227195
9.63000011 1.20000005 0.28999999 235 35 120 97.000000 1.000000 4.000000 1.000000 -60.708740 114.000000 31.000000 0.971594 -0.104324 0.212418
9.63000011 1.16999996 0.27000001 235 35 120 97.000000 1.000000 4.000000 1.000000 -60.708740 114.000000 31.000000 -0.599228 0.794597 -0.097684
9.59000015 1.16999996 0.28999999 235 35 120 97.000000 1.000000 4.000000 1.000000 -60.708740 114.000000 31.000000 -0.503909 0.862059 0.054139
9.57999992 1.13999999 0.31000000 235 35 120 97.000000 1.000000 4.000000 1.000000 -60.708740 114.000000 31.000000 0.554988 -0.755625 0.347879
9.63000011 1.16999996 0.28999999 235 35 120 97.000000 1.000000 4.000000 1.000000 -60.708740 114.000000 31.000000 0.735582 -0.677400 0.006926
9.63000011 1.22000003 0.30000001 235 35 120 97.000000 1.000000 4.000000 1.000000 -60.708740 114.000000 31.000000 0.882186 -0.461430 -0.093969
9.63000011 1.20000005 0.15000001 235 35 120 97.000000 1.000000 4.000000 1.000000 -60.708740 114.000000 31.000000 0.944037 -0.329723 0.008776
9.56999969 1.25999999 0.19000000 235 35 120 97.000000 1.000000 4.000000 1.000000 -60.708740 114.000000 31.000000 0.982872 -0.181148 0.033892
9.52000046 1.20000005 0.28000000 235 35 120 97.000000 1.000000 4.000000 1.000000 -60.708740 114.000000 31.000000 -0.355495 0.898325 -0.258139
9.56000042 1.21000004 0.20000000 235 35 120 97.000000 1.000000 4.000000 1.000000 -60.708740 114.000000 31.000000 0.951902 -0.299316 -0.065516
9.60000038 1.13999999 0.12000000 235 35 120 97.000000 1.000000 4.000000 1.000000 -60.708740 114.000000 31.000000 -0.544372 0.723071 -0.425239
9.55000019 1.26999998 0.14000000 235 35 120 97.000000 1.000000 4.000000 1.000000 -60.708740 114.000000 31.000000 0.906751 -0.414398 0.077956
9.56999969 1.23000002 0.00000000 235 35 120 97.000000 1.000000 4.000000 1.000000 -60.708740 114.000000 31.000000 0.820356 -0.272414 0.502799
9.51000023 1.29999995 -0.02000000 235 35 120 97.000000 1.000000 4.000000 1.000000 -60.708740 114.000000 31.000000 0.992481 0.119187 0.027847
9.51000023 1.27999997 0.02000000 235 35 120 97.000000 1.000000 4.000000 1.000000 -60.708740 114.000000 31.000000 0.974662 0.129536 -0.182356
9.52000046 1.25000000 0.03000000 235 35 120 97.000000 1.000000 4.000000 1.000000 -60.708740 114.000000 31.000000 0.980207 -0.197893 0.005786
9.52000046 1.24000001 0.04000000 235 35 120 97.000000 1.000000 4.000000 1.000000 -60.708740 114.000000 31.000000 0.981549 -0.176607 -0.073286
9.48999977 1.24000001 0.05000000 235 35 120 97.000000 1.000000 4.000000 1.000000 -60.708740 114.000000 31.000000 0.771309 -0.601281 0.208671
9.56000042 1.20000005 0.09000000 235 35 120 97.000000 1.000000 4.000000 1.000000 -60.708740 114.000000 31.000000 0.809848 -0.564349 -0.160173
9.55000019 1.21000004 0.14000000 235 35 120 97.000000 1.000000 4.000000 1.000000 -60.708740 114.000000 31.000000 -0.551592 0.833609 0.029031
9.64000034 1.04999995 0.22000000 235 35 120 97.000000 1.000000 4.000000 1.000000 -60.708740 114.000000 31.000000 0.841033 -0.491236 0.226607
9.61999989 1.00000000 0.22000000 235 35 120 97.000000 1.000000 4.000000 1.000000 -60.708740 114.000000 31.000000 -0.330376 0.937190 0.111923
9.60999966 1.11000001 0.11000000 235 35 120 97.000000 1.000000 4.000000 1.000000 -60.708740 114.000000 31.000000 0.893569 -0.447457 -0.036280
9.60000038 1.13000000 0.11000000 235 35 120 97.000000 1.000000 4.000000 1.000000 -60.708740 114.000000 31.000000 0.891992 -0.348131 0.288366
9.64999962 1.13000000 0.05000000 235 35 120 97.000000 1.000000 4.000000 1.000000 -60.708740 114.000000 31.000000 0.675563 -0.524693 0.517988
9.35000038 1.29999995 0.30000001 235 35 120 97.000000 1.000000 4.000000 1.000000 -60.708740 114.000000 31.000000 0.868882 0.427641 0.249331
9.46000004 1.25999999 0.15000001 235 35 120 97.000000 1.000000 4.000000 1.000000 -60.708740 114.000000 31.000000 0.566513 -0.660652 0.492547
9.35999966 1.29999995 0.03000000 235 35 120 97.000000 1.000000 4.000000 1.000000 -60.708740 114.000000 31.000000 0.895554 -0.406544 -0.180847
9.35999966 1.28999996 0.04000000 235 35 120 97.000000 1.000000 4.000000 1.000000 -60.708740 114.000000 31.000000 0.915175 -0.397609 -0.066044
9.32999992 1.29999995 0.01000000 235 35 120 97.000000 1.000000 4.000000 1.000000 -60.708740 114.000000 31.000000 0.974213 0.129476 -0.184786
9.30000019 1.63000000 0.49000001 235 35 120 97.000000 1.000000 4.000000 1.000000 -60.708740 114.000000 31.000000 -0.589265 0.777953 -0.218074
9.31000042 1.52999997 0.41999999 235 35 120 97.000000 1.000000 4.000000 1.000000 -60.708740 114.000000 31.000000 -0.608347 0.788383 -0.091470
9.30000019 1.42999995 0.25999999 235 35 120 97.000000 1.000000 4.000000 1.000000 -60.708740 114.000000 31.000000 -0.466829 0.883592 -0.036534
9.27000046 1.36000001 0.16000000 235 35 120 97.000000 1.000000 4.000000 1.000000 -60.708740 114.000000 31.000000 0.973138 -0.227910 -0.032559
9.27999973 1.36000001 0.11000000 235 35 120 97.000000 1.000000 4.000000 1.000000 -60.708740 114.000000 31.000000 0.948322 -0.063221 0.310947
9.86999989 1.36000001 -0.36000001 235 35 120 97.000000 1.000000 4.000000 1.000000 -60.708740 114.000000 1.000000 0.866056 0.256328 0.429236
9.81000042 1.40999997 -0.43000001 235 35 120 97.000000 1.000000 4.000000 1.000000 -60.708740 114.000000 1.000000 0.621620 0.744371 0.243927
9.77999973 1.47000003 -0.40000001 235 35 120 97.000000 1.000000 4.000000 1.000000 -60.708740 114.000000 1.000000 0.739979 0.581297 0.338415
9.75000000 1.39999998 -0.38000000 235 35 120 97.000000 1.000000 4.000000 1.000000 -60.708740 114.000000 1.000000 0.965244 0.221553 0.138632
9.75000000 1.45000005 -0.43000001 235 35 120 97.000000 1.000000 4.000000 1.000000 -60.708740 114.000000 1.000000 0.942776 0.333406 0.003746
9.76000023 1.38999999 -0.47000000 235 35 120 97.000000 1.000000 4.000000 1.000000 -60.708740 114.000000 1.000000 0.584339 0.788782 0.190711
9.68000031 1.13999999 -0.06000000 235 35 120 97.000000 1.000000 4.000000 1.000000 -60.708740 114.000000 31.000000 0.916373 -0.321813 0.238113
9.69999981 1.16999996 -0.12000000 235 35 120 97.000000 1.000000 4.000000 1.000000 -60.708740 114.000000 31.000000 0.961891 -0.245341 0.120723
9.72999954 0.99000001 -0.03000000 235 35 120 97.000000 1.000000 4.000000 1.000000 -60.708740 114.000000 31.000000 0.462680 -0.745886 0.479146
9.72000027 1.11000001 -0.19000000 235 35 120 97.000000 1.000000 4.000000 1.000000 -60.708740 114.000000 31.000000 0.898819 -0.438224 -0.009212
9.67000008 0.88999999 -0.17000000 235 35 120 97.000000 1.000000 4.000000 1.000000 -60.708740 114.000000 31.000000 -0.255884 0.966536 0.018191
9.42000008 1.33000004 -0.13000000 235 35 120 97.000000 1.000000 4.000000 1.000000 -60.708740 114.000000 31.000000 -0.182128 0.958496 -0.219351
9.44999981 1.32000005 -0.16000000 235 35 120 97.000000 1.000000 4.000000 1.000000 -60.708740 114.000000 31.000000 -0.395910 0.861143 -0.318885
9.44999981 1.32000005 -0.16000000 235 35 120 97.000000 1.000000 4.000000 1.000000 -60.708740 114.000000 31.000000 -0.395910 0.861143 -0.318885
9.35999966 1.44000006 -0.07000000 235 35 120 97.000000 1.000000 4.000000 1.000000 -60.708740 114.000000 31.000000 -0.090271 0.983356 -0.157674
9.38000011 1.40999997 -0.03000000 235 35 120 97.000000 1.000000 4.000000 1.000000 -60.708740 114.000000 31.000000 -0.410262 0.911547 0.027703
9.31999969 1.42999995 -0.05000000 235 35 120 97.000000 1.000000 4.000000 1.000000 -60.708740 114.000000 31.000000 -0.440313 0.884956 -0.151583
9.39000034 1.36000001 -0.05000000 235 35 120 97.000000 1.000000 4.000000 1.000000 -60.708740 114.000000 31.000000 -0.729043 0.613169 -0.304170
9.36999989 1.34000003 -0.04000000 235 35 120 97.000000 1.000000 4.000000 1.000000 -60.708740 114.000000 31.000000 0.754768 -0.475224 0.452203
9.43000031 1.40999997 -0.20999999 235 35 120 97.000000 1.000000 4.000000 1.000000 -60.708740 114.000000 31.000000 -0.077867 0.905722 -0.416659
9.47999954 1.35000002 -0.22000000 235 35 120 97.000000 1.000000 4.000000 1.000000 -60.708740 114.000000 31.000000 -0.161809 0.945017 -0.284185
9.31999969 1.33000004 -0.20999999 235 35 120 97.000000 1.000000 4.000000 1.000000 -60.708740 114.000000 31.000000 0.804111 -0.592874 0.043656
9.64000034 1.22000003 -0.09000000 235 35 120 97.000000 1.000000 4.000000 1.000000 -60.708740 114.000000 31.000000 0.874947 -0.439694 0.202822
9.64000034 1.20000005 -0.12000000 235 35 120 97.000000 1.000000 4.000000 1.000000 -60.708740 114.000000 31.000000 0.804138 -0.304909 0.510288
9.64999962 1.17999995 -0.15000001 235 35 120 97.000000 1.000000 4.000000 1.000000 -60.708740 114.000000 31.000000 0.944302 -0.119210 0.306731
9.51000023 1.23000002 -0.18000001 235 35 120 97.000000 1.000000 4.000000 1.000000 -60.708740 114.000000 31.000000 0.728131 -0.636522 0.254293
9.52999973 1.13999999 -0.10000000 235 35 120 97.000000 1.000000 4.000000 1.000000 -60.708740 114.000000 31.000000 -0.150913 0.988312 -0.021559
9.50000000 1.22000003 -0.18000001 235 35 120 97.000000 1.000000 4.000000 1.000000 -60.708740 114.000000 31.000000 0.925242 -0.326307 0.193524
9.57999992 1.25000000 -0.28000000 235 35 120 97.000000 1.000000 4.000000 1.000000 -60.708740 114.000000 31.000000 0.932001 0.293798 -0.212266
9.60000038 1.21000004 -0.20999999 235 35 120 97.000000 1.000000 4.000000 1.000000 -60.708740 114.000000 31.000000 0.931294 0.011497 0.364086
9.60000038 1.21000004 -0.20999999 235 35 120 97.000000 1.000000 4.000000 1.000000 -60.708740 114.000000 31.000000 0.931294 0.011497 0.364086
9.56000042 1.21000004 -0.25000000 235 35 120 97.000000 1.000000 4.000000 1.000000 -60.708740 114.000000 31.000000 0.843124 -0.370724 0.389495
9.63000011 1.12000000 -0.14000000 235 35 120 97.000000 1.000000 4.000000 1.000000 -60.708740 114.000000 31.000000 0.869201 -0.265463 0.417156
9.63000011 1.01999998 -0.10000000 235 35 120 97.000000 1.000000 4.000000 1.000000 -60.708740 114.000000 31.000000 -0.387567 0.873926 -0.293335
9.57999992 0.97000003 -0.04000000 235 35 120 97.000000 1.000000 4.000000 1.000000 -60.708740 114.000000 31.000000 -0.575121 0.794796 -0.193741
9.56000042 1.12000000 -0.05000000 235 35 120 97.000000 1.000000 4.000000 1.000000 -60.708740 114.000000 31.000000 -0.522841 0.722019 -0.453129
9.53999996 1.12000000 -0.08000000 235 35 120 97.000000 1.000000 4.000000 1.000000 -60.708740 114.000000 31.000000 -0.659288 0.750421 -0.046990
9.56999969 1.12000000 -0.13000000 235 35 120 97.000000 1.000000 4.000000 1.000000 -60.708740 114.000000 31.000000 -0.648661 0.742846 -0.165583
9.56000042 1.02999997 -0.10000000 235 35 120 97.000000 1.000000 4.000000 1.000000 -60.708740 114.000000 31.000000 -0.341331 0.758694 -0.554866
9.53999996 1.04999995 -0.09000000 235 35 120 97.000000 1.000000 4.000000 1.000000 -60.708740 114.000000 31.000000 -0.486239 0.873052 0.036774
9.55000019 1.04999995 -0.13000000 235 35 120 97.000000 1.000000 4.000000 1.000000 -60.708740 114.000000 31.000000 -0.005063 0.999494 -0.031392
9.61999989 1.09000003 -0.19000000 235 35 120 97.000000 1.000000 4.000000 1.000000 -60.708740 114.000000 31.000000 0.827557 -0.511274 0.231839
9.50000000 1.04999995 -0.23999999 235 35 120 97.000000 1.000000 4.000000 1.000000 -60.708740 114.000000 31.000000 0.013650 0.951772 -0.306503
9.42000008 1.15999997 -0.13000000 235 35 120 97.000000 1.000000 4.000000 1.000000 -60.708740 114.000000 31.000000 0.574403 0.788063 0.221401
9.39000034 1.23000002 -0.18000001 235 35 120 97.000000 1.000000 4.000000 1.000000 -60.708740 114.000000 31.000000 0.983359 0.041022 0.176981
9.34000015 1.26999998 -0.15000001 235 35 120 97.000000 1.000000 4.000000 1.000000 -60.708740 114.000000 31.000000 0.988312 0.021559 -0.150913
9.46000004 1.27999997 -0.19000000 235 35 120 97.000000 1.000000 4.000000 1.000000 -60.708740 114.000000 31.000000 -0.554033 0.766011 -0.325996
9.47999954 1.24000001 -0.20999999 235 35 120 97.000000 1.000000 4.000000 1.000000 -60.708740 114.000000 31.000000 0.972350 -0.062693 0.224956
9.47000027 1.25999999 -0.31999999 235 35 120 97.000000 1.000000 4.000000 1.000000 -60.708740 114.000000 31.000000 -0.209592 0.977704 0.012880
9.43000031 1.17999995 -0.23999999 235 35 120 97.000000 1.000000 4.000000 1.000000 -60.708740 114.000000 31.000000 0.823342 0.499608 -0.269259
9.43000031 1.28999996 -0.36000001 235 35 120 97.000000 1.000000 4.000000 1.000000 -60.708740 114.000000 31.000000 -0.604720 0.795537 0.037883
9.25000000 1.47000003 -0.09000000 235 35 120 97.000000 1.000000 4.000000 1.000000 -60.708740 114.000000 31.000000 -0.447922 0.821454 -0.352956
9.26000023 1.38999999 -0.09000000 235 35 120 97.000000 1.000000 4.000000 1.000000 -60.708740 114.000000 31.000000 0.934819 -0.354850 -0.013990
9.31000042 1.26999998 -0.18000001 235 35 120 97.000000 1.000000 4.000000 1.000000 -60.708740 114.000000 31.000000 0.848812 -0.458942 0.262472
9.59000015 0.95999998 -0.12000000 235 35 120 97.000000 1.000000 4.000000 1.000000 -60.708740 114.000000 31.000000 -0.228101 0.919578 -0.319916
9.52000046 0.94999999 -0.18000001 235 35 120 97.000000 1.000000 4.000000 1.000000 -60.708740 114.000000 31.000000 0.003813 0.929082 -0.369854
9.52000046 0.94000000 -0.16000000 235 35 120 97.000000 1.000000 4.000000 1.000000 -60.708740 114.000000 31.000000 -0.133898 0.963288 -0.232697
9.57999992 0.82999998 -0.20999999 235 35 120 97.000000 1.000000 4.000000 1.000000 -60.708740 114.000000 31.000000 -0.169888 0.810349 -0.560779
9.63000011 0.83999997 -0.28000000 235 35 120 97.000000 1.000000 4.000000 1.000000 -60.708740 114.000000 31.000000 0.535454 -0.765165 0.357508
9.21000004 1.73000002 0.49000001 235 35 120 97.000000 1.000000 4.000000 1.000000 -60.708740 114.000000 31.000000 -0.369601 0.835142 -0.407348
9.67000008 1.23000002 0.46000001 235 35 120 97.000000 1.000000 4.000000 1.000000 -60.708740 114.000000 31.000000 0.908277 -0.414325 -0.058033
9.67000008 1.24000001 0.41000000 235 35 120 97.000000 1.000000 4.000000 1.000000 -60.708740 114.000000 31.000000 0.991868 -0.125511 -0.021104
9.67000008 1.23000002 0.34999999 235 35 120 97.000000 1.000000 4.000000 1.000000 -60.708740 114.000000 31.000000 0.978010 -0.207812 0.017611
9.67000008 1.25000000 0.37000000 235 35 120 97.000000 1.000000 4.000000 1.000000 -60.708740 114.000000 31.000000 0.925790 -0.131073 0.354587
9.67000008 1.17999995 0.44999999 235 35 120 97.000000 1.000000 4.000000 1.000000 -60.708740 114.000000 31.000000 0.791869 -0.364613 0.489899
9.67000008 1.22000003 0.40000001 235 35 120 97.000000 1.000000 4.000000 1.000000 -60.708740 114.000000 31.000000 0.985274 -0.045582 0.164797
9.65999985 1.11000001 0.33000001 235 35 120 97.000000 1.000000 4.000000 1.000000 -60.708740 114.000000 31.000000 0.808487 -0.379428 0.449871
9.71000004 1.25000000 0.25000000 235 35 120 97.000000 1.000000 4.000000 1.000000 -60.708740 114.000000 31.000000 0.991100 0.131027 0.023518
9.67000008 1.16999996 0.30000001 235 35 120 97.000000 1.000000 4.000000 1.000000 -60.708740 114.000000 31.000000 -0.592698 0.775305 -0.218200
9.69999981 1.24000001 0.25000000 235 35 120 97.000000 1.000000 4.000000 1.000000 -60.708740 114.000000 31.000000 0.990272 -0.007780 0.138927
9.73999977 1.00999999 0.02000000 235 35 120 97.000000 1.000000 4.000000 1.000000 -60.708740 114.000000 31.000000 -0.627344 0.753737 0.195756
9.67000008 1.11000001 0.08000000 235 35 120 97.000000 1.000000 4.000000 1.000000 -60.708740 114.000000 31.000000 -0.461072 0.798442 -0.387172
9.68000031 1.13000000 0.03000000 235 35 120 97.000000 1.000000 4.000000 1.000000 -60.708740 114.000000 31.000000 -0.676100 0.724071 -0.136419
9.69999981 1.07000005 -0.01000000 235 35 120 97.000000 1.000000 4.000000 1.000000 -60.708740 114.000000 31.000000 -0.611548 0.772402 0.171476
9.72000027 1.03999996 0.14000000 235 35 120 97.000000 1.000000 4.000000 1.000000 -60.708740 114.000000 31.000000 0.606001 -0.582369 0.541856
9.65999985 0.89999998 0.04000000 235 35 120 97.000000 1.000000 4.000000 1.000000 -60.708740 114.000000 31.000000 -0.420669 0.889372 -0.179039
