//X Y Z R G B PointSourceId ScanDirectionFlag NumberOfReturns ReturnNumber GpsTime Intensity Classification Nx Ny Nz
-16.55999947 -8.93000031 -0.99000001 79 199 116 97.000000 1.000000 4.000000 1.000000 -60.708740 114.000000 178.000000 0.765689 0.642955 -0.018131
-16.56999969 -8.93000031 -1.00000000 79 199 116 97.000000 1.000000 4.000000 1.000000 -60.708740 114.000000 178.000000 0.885687 0.405013 -0.226985
-16.57999992 -8.90999985 -0.98000002 79 199 116 97.000000 1.000000 4.000000 1.000000 -60.708740 114.000000 178.000000 0.479927 0.869600 0.116042
-16.57999992 -8.90999985 -0.95999998 79 199 116 97.000000 1.000000 4.000000 1.000000 -60.708740 114.000000 178.000000 0.429870 0.901513 0.049859
-16.59000015 -8.90999985 -0.94999999 79 199 116 97.000000 1.000000 4.000000 1.000000 -60.708740 114.000000 178.000000 0.064000 0.814938 0.576003
-16.57999992 -8.90999985 -1.00000000 79 199 116 97.000000 1.000000 4.000000 1.000000 -60.708740 114.000000 178.000000 0.432282 0.894133 -0.116871
-16.57999992 -8.90999985 -1.00999999 79 199 116 97.000000 1.000000 4.000000 1.000000 -60.708740 114.000000 178.000000 0.396172 0.898280 0.190105
-16.57999992 -8.89999962 -0.99000001 79 199 116 97.000000 1.000000 4.000000 1.000000 -60.708740 114.000000 178.000000 0.195821 0.853541 0.482826
-16.62999916 -8.81000042 -0.87000000 79 199 116 97.000000 1.000000 4.000000 1.000000 -60.708740 114.000000 178.000000 -0.490805 0.856330 0.160654
-16.69000053 -8.80000019 -0.86000001 79 199 116 97.000000 1.000000 4.000000 1.000000 -60.708740 114.000000 178.000000 -0.440378 0.893260 0.090298
-16.62999916 -8.89000034 -0.92000002 79 199 116 97.000000 1.000000 4.000000 1.000000 -60.708740 114.000000 178.000000 -0.221656 0.854961 0.468947
-16.65999985 -8.89000034 -0.93000001 79 199 116 97.000000 1.000000 4.000000 1.000000 -60.708740 114.000000 178.000000 -0.475710 0.616910 0.626995
-16.65999985 -8.93000031 -0.88000000 79 199 116 97.000000 1.000000 4.000000 1.000000 -60.708740 114.000000 178.000000 0.858056 -0.505158 -0.092494
-16.65999985 -8.93000031 -0.87000000 79 199 116 97.000000 1.000000 4.000000 1.000000 -60.708740 114.000000 178.000000 0.964710 -0.207003 -0.162738
-16.69000053 -8.92000008 -0.92000002 79 199 116 97.000000 1.000000 4.000000 1.000000 -60.708740 114.000000 178.000000 -0.701483 0.673235 0.233828
-16.69000053 -8.93000031 -0.93000001 79 199 116 97.000000 1.000000 4.000000 1.000000 -60.708740 114.000000 178.000000 0.899069 0.104543 -0.425141
-16.69000053 -8.92000008 -0.94000000 79 199 116 97.000000 1.000000 4.000000 1.000000 -60.708740 114.000000 178.000000 0.717514 -0.535236 -0.445754
-16.67000008 -8.89999962 -0.93000001 79 199 116 97.000000 1.000000 4.000000 1.000000 -60.708740 114.000000 178.000000 0.711395 -0.518135 -0.474819
-16.64999962 -8.88000011 -0.98000002 79 199 116 97.000000 1.000000 4.000000 1.000000 -60.708740 114.000000 178.000000 -0.664746 0.738771 0.111038
-16.63999939 -8.86999989 -1.01999998 79 199 116 97.000000 1.000000 4.000000 1.000000 -60.708740 114.000000 178.000000 -0.307896 0.849423 0.428580
-16.69000053 -8.89000034 -0.99000001 79 199 116 97.000000 1.000000 4.000000 1.000000 -60.708740 114.000000 178.000000 -0.534269 0.805297 0.257010
-16.69000053 -8.89000034 -0.99000001 79 199 116 97.000000 1.000000 4.000000 1.000000 -60.708740 114.000000 178.000000 -0.534269 0.805297 0.257010
-16.56999969 -8.97000027 -0.72000003 79 199 116 97.000000 1.000000 4.000000 1.000000 -60.708740 114.000000 178.000000 -0.321938 0.945127 -0.055596
-16.56999969 -8.97000027 -0.74000001 79 199 116 97.000000 1.000000 4.000000 1.000000 -60.708740 114.000000 178.000000 -0.158620 0.877504 0.452577
-16.56999969 -9.00000000 -0.72000003 79 199 116 97.000000 1.000000 4.000000 1.000000 -60.708740 114.000000 178.000000 -0.634049 0.590321 0.499503
-16.54999924 -8.98999977 -0.70999998 79 199 116 97.000000 1.000000 4.000000 1.000000 -60.708740 114.000000 178.000000 -0.329851 0.801522 0.498760
-16.55999947 -8.98999977 -0.73000002 79 199 116 97.000000 1.000000 4.000000 1.000000 -60.708740 114.000000 178.000000 -0.273193 0.934461 0.228361
-16.54999924 -8.98999977 -0.70999998 79 199 116 97.000000 1.000000 4.000000 1.000000 -60.708740 114.000000 178.000000 -0.329851 0.801522 0.498760
-16.54000092 -8.98999977 -0.74000001 79 199 116 97.000000 1.000000 4.000000 1.000000 -60.708740 114.000000 178.000000 -0.006484 0.911587 0.411057
-16.57999992 -8.98999977 -0.73000002 79 199 116 97.000000 1.000000 4.000000 1.000000 -60.708740 114.000000 178.000000 0.765895 -0.429489 -0.478480
-16.57999992 -9.00000000 -0.74000001 79 199 116 97.000000 1.000000 4.000000 1.000000 -60.708740 114.000000 178.000000 0.988460 -0.097322 -0.116082
-16.55999947 -8.94999981 -0.77999997 79 199 116 97.000000 1.000000 4.000000 1.000000 -60.708740 114.000000 178.000000 0.136757 0.926906 0.349489
-16.55999947 -8.93999958 -0.82999998 79 199 116 97.000000 1.000000 4.000000 1.000000 -60.708740 114.000000 178.000000 0.129967 0.986077 0.103735
-16.54999924 -8.93999958 -0.81999999 79 199 116 97.000000 1.000000 4.000000 1.000000 -60.708740 114.000000 178.000000 0.086124 0.996270 0.005316
-16.57999992 -8.96000004 -0.77999997 79 199 116 97.000000 1.000000 4.000000 1.000000 -60.708740 114.000000 178.000000 -0.099952 0.918738 0.382009
-16.59000015 -8.94999981 -0.81000000 79 199 116 97.000000 1.000000 4.000000 1.000000 -60.708740 114.000000 178.000000 -0.328476 0.913076 0.241654
-16.59000015 -8.94999981 -0.81999999 79 199 116 97.000000 1.000000 4.000000 1.000000 -60.708740 114.000000 178.000000 -0.703692 0.700717 0.117530
-16.57999992 -8.94999981 -0.83999997 79 199 116 97.000000 1.000000 4.000000 1.000000 -60.708740 114.000000 178.000000 -0.102215 0.958749 0.265241
-16.59000015 -8.98999977 -0.77999997 79 199 116 97.000000 1.000000 4.000000 1.000000 -60.708740 114.000000 178.000000 0.918112 -0.260877 -0.298351
-16.56999969 -9.09000015 -0.70999998 79 199 116 97.000000 1.000000 4.000000 1.000000 -60.708740 114.000000 178.000000 0.757157 0.632735 0.162356
-16.56999969 -9.09000015 -0.75999999 79 199 116 97.000000 1.000000 4.000000 1.000000 -60.708740 114.000000 178.000000 0.648440 0.745176 0.155686
-16.59000015 -9.03999996 -0.72000003 79 199 116 97.000000 1.000000 4.000000 1.000000 -60.708740 114.000000 178.000000 0.722573 0.537382 -0.434866
-16.59000015 -9.02999973 -0.72000003 79 199 116 97.000000 1.000000 4.000000 1.000000 -60.708740 114.000000 178.000000 0.883834 0.233213 -0.405524
-16.59000015 -9.03999996 -0.72000003 79 199 116 97.000000 1.000000 4.000000 1.000000 -60.708740 114.000000 178.000000 0.722573 0.537382 -0.434866
-16.60000038 -9.03999996 -0.75000000 79 199 116 97.000000 1.000000 4.000000 1.000000 -60.708740 114.000000 178.000000 0.707150 0.629477 -0.322020
-16.60000038 -9.06999969 -0.70999998 79 199 116 97.000000 1.000000 4.000000 1.000000 -60.708740 114.000000 178.000000 0.758181 0.572242 -0.312569
-16.60000038 -9.07999992 -0.70999998 79 199 116 97.000000 1.000000 4.000000 1.000000 -60.708740 114.000000 178.000000 0.671483 0.725806 -0.149386
-16.59000015 -9.07999992 -0.70999998 79 199 116 97.000000 1.000000 4.000000 1.000000 -60.708740 114.000000 178.000000 0.607133 0.794158 -0.026518
-16.61000061 -9.06000042 -0.73000002 79 199 116 97.000000 1.000000 4.000000 1.000000 -60.708740 114.000000 178.000000 0.581255 0.791789 -0.187649
-16.57999992 -9.09000015 -0.75999999 79 199 116 97.000000 1.000000 4.000000 1.000000 -60.708740 114.000000 178.000000 0.659702 0.737844 0.142760
-16.60000038 -9.06999969 -0.76999998 79 199 116 97.000000 1.000000 4.000000 1.000000 -60.708740 114.000000 178.000000 0.831055 0.554502 -0.043299
-16.56999969 -9.07999992 -0.80000001 79 199 116 97.000000 1.000000 4.000000 1.000000 -60.708740 114.000000 178.000000 0.118848 0.967399 -0.223639
-16.55999947 -9.09000015 -0.81999999 79 199 116 97.000000 1.000000 4.000000 1.000000 -60.708740 114.000000 178.000000 0.345348 0.934707 0.084004
-16.55999947 -9.09000015 -0.83999997 79 199 116 97.000000 1.000000 4.000000 1.000000 -60.708740 114.000000 178.000000 0.198138 0.978683 0.054038
-16.56999969 -9.09000015 -0.85000002 79 199 116 97.000000 1.000000 4.000000 1.000000 -60.708740 114.000000 178.000000 0.241219 0.952748 0.184620
-16.54999924 -9.09000015 -0.82999998 79 199 116 97.000000 1.000000 4.000000 1.000000 -60.708740 114.000000 178.000000 0.220411 0.963807 0.149984
-16.55999947 -9.09000015 -0.83999997 79 199 116 97.000000 1.000000 4.000000 1.000000 -60.708740 114.000000 178.000000 0.198138 0.978683 0.054038
-16.56999969 -9.09000015 -0.83999997 79 199 116 97.000000 1.000000 4.000000 1.000000 -60.708740 114.000000 178.000000 0.003086 0.998724 -0.050399
-16.61000061 -9.05000019 -0.80000001 79 199 116 97.000000 1.000000 4.000000 1.000000 -60.708740 114.000000 178.000000 0.655163 0.746856 0.113877
-16.61000061 -9.05000019 -0.81999999 79 199 116 97.000000 1.000000 4.000000 1.000000 -60.708740 114.000000 178.000000 0.481844 0.875957 0.022945
-16.60000038 -9.05000019 -0.82999998 79 199 116 97.000000 1.000000 4.000000 1.000000 -60.708740 114.000000 178.000000 0.659186 0.734954 -0.159114
-16.60000038 -9.07999992 -0.77999997 79 199 116 97.000000 1.000000 4.000000 1.000000 -60.708740 114.000000 178.000000 0.375223 0.922481 -0.090758
-16.60000038 -9.06000042 -0.85000002 79 199 116 97.000000 1.000000 4.000000 1.000000 -60.708740 114.000000 178.000000 0.252453 0.967129 -0.030490
-16.59000015 -9.06000042 -0.82999998 79 199 116 97.000000 1.000000 4.000000 1.000000 -60.708740 114.000000 178.000000 0.264219 0.962959 0.053846
-16.61000061 -9.06000042 -0.85000002 79 199 116 97.000000 1.000000 4.000000 1.000000 -60.708740 114.000000 178.000000 0.455389 0.883991 0.105741
-16.57999992 -9.06999969 -0.85000002 79 199 116 97.000000 1.000000 4.000000 1.000000 -60.708740 114.000000 178.000000 0.471139 0.881180 -0.039375
-16.59000015 -9.06999969 -0.82999998 79 199 116 97.000000 1.000000 4.000000 1.000000 -60.708740 114.000000 178.000000 0.451166 0.811462 0.371455
-16.61000061 -9.06000042 -0.85000002 79 199 116 97.000000 1.000000 4.000000 1.000000 -60.708740 114.000000 178.000000 0.455389 0.883991 0.105741
-16.60000038 -9.06000042 -0.82999998 79 199 116 97.000000 1.000000 4.000000 1.000000 -60.708740 114.000000 178.000000 0.623857 0.780873 0.032244
-16.57999992 -9.09000015 -0.81999999 79 199 116 97.000000 1.000000 4.000000 1.000000 -60.708740 114.000000 178.000000 0.166337 0.985228 0.040712
-16.59000015 -9.06000042 -0.82999998 79 199 116 97.000000 1.000000 4.000000 1.000000 -60.708740 114.000000 178.000000 0.264219 0.962959 0.053846
-16.62999916 -8.94999981 -0.80000001 79 199 116 97.000000 1.000000 4.000000 1.000000 -60.708740 114.000000 178.000000 0.636641 -0.449492 -0.626615
-16.64999962 -8.96000004 -0.85000002 79 199 116 97.000000 1.000000 4.000000 1.000000 -60.708740 114.000000 178.000000 0.848583 -0.066142 -0.524911
-16.64999962 -8.94999981 -0.82999998 79 199 116 97.000000 1.000000 4.000000 1.000000 -60.708740 114.000000 178.000000 0.873354 -0.473126 0.115780
-16.64999962 -8.94999981 -0.85000002 79 199 116 97.000000 1.000000 4.000000 1.000000 -60.708740 114.000000 178.000000 0.787664 -0.389789 -0.477127
-16.64999962 -9.00000000 -0.81000000 79 199 116 97.000000 1.000000 4.000000 1.000000 -60.708740 114.000000 178.000000 0.986475 0.155268 -0.052534
-16.63999939 -9.01000023 -0.81000000 79 199 116 97.000000 1.000000 4.000000 1.000000 -60.708740 114.000000 178.000000 0.837097 0.545571 -0.040258
-16.64999962 -9.00000000 -0.80000001 79 199 116 97.000000 1.000000 4.000000 1.000000 -60.708740 114.000000 178.000000 0.967056 -0.156645 -0.200661
-16.63999939 -8.97999954 -0.80000001 79 199 116 97.000000 1.000000 4.000000 1.000000 -60.708740 114.000000 178.000000 0.905004 -0.319327 -0.281066
-16.63999939 -8.97999954 -0.79000002 79 199 116 97.000000 1.000000 4.000000 1.000000 -60.708740 114.000000 178.000000 0.972197 -0.217842 0.085892
-16.64999962 -9.01000023 -0.79000002 79 199 116 97.000000 1.000000 4.000000 1.000000 -60.708740 114.000000 178.000000 0.999220 -0.025780 -0.029904
-16.63999939 -8.98999977 -0.79000002 79 199 116 97.000000 1.000000 4.000000 1.000000 -60.708740 114.000000 178.000000 0.909580 -0.278860 -0.308060
-16.64999962 -9.01000023 -0.80000001 79 199 116 97.000000 1.000000 4.000000 1.000000 -60.708740 114.000000 178.000000 0.978347 0.193239 0.074136
-16.64999962 -9.00000000 -0.79000002 79 199 116 97.000000 1.000000 4.000000 1.000000 -60.708740 114.000000 178.000000 0.923138 -0.312469 -0.224007
-16.64999962 -9.01000023 -0.82999998 79 199 116 97.000000 1.000000 4.000000 1.000000 -60.708740 114.000000 178.000000 0.957008 0.086298 -0.276927
-16.67000008 -8.97000027 -0.85000002 79 199 116 97.000000 1.000000 4.000000 1.000000 -60.708740 114.000000 178.000000 0.991784 0.104097 0.074355
-16.65999985 -8.96000004 -0.83999997 79 199 116 97.000000 1.000000 4.000000 1.000000 -60.708740 114.000000 178.000000 0.790637 -0.307028 -0.529743
-16.65999985 -9.01000023 -0.85000002 79 199 116 97.000000 1.000000 4.000000 1.000000 -60.708740 114.000000 178.000000 0.800761 0.593742 0.079070
-16.65999985 -9.01000023 -0.85000002 79 199 116 97.000000 1.000000 4.000000 1.000000 -60.708740 114.000000 178.000000 0.800761 0.593742 0.079070
-16.67000008 -8.98999977 -0.85000002 79 199 116 97.000000 1.000000 4.000000 1.000000 -60.708740 114.000000 178.000000 0.949441 -0.298096 -0.098490
-16.67000008 -8.97999954 -0.85000002 79 199 116 97.000000 1.000000 4.000000 1.000000 -60.708740 114.000000 178.000000 0.968119 -0.242340 -0.063381
-16.62000084 -9.03999996 -0.75999999 79 199 116 97.000000 1.000000 4.000000 1.000000 -60.708740 114.000000 178.000000 0.932374 0.350143 -0.089884
-16.62000084 -9.05000019 -0.72000003 79 199 116 97.000000 1.000000 4.000000 1.000000 -60.708740 114.000000 178.000000 0.777185 0.384536 -0.498112
-16.62999916 -9.05000019 -0.74000001 79 199 116 97.000000 1.000000 4.000000 1.000000 -60.708740 114.000000 178.000000 0.986911 0.157768 0.033396
-16.63999939 -9.05000019 -0.76999998 79 199 116 97.000000 1.000000 4.000000 1.000000 -60.708740 114.000000 178.000000 0.624012 0.756518 -0.195678
-16.62000084 -9.06000042 -0.75999999 79 199 116 97.000000 1.000000 4.000000 1.000000 -60.708740 114.000000 178.000000 0.633461 0.689114 0.351923
-16.64999962 -9.02999973 -0.76999998 79 199 116 97.000000 1.000000 4.000000 1.000000 -60.708740 114.000000 178.000000 0.880853 0.214662 -0.421921
-16.62999916 -9.06000042 -0.74000001 79 199 116 97.000000 1.000000 4.000000 1.000000 -60.708740 114.000000 178.000000 0.697176 0.716736 -0.015369
-16.62000084 -9.02000046 -0.75999999 79 199 116 97.000000 1.000000 4.000000 1.000000 -60.708740 114.000000 178.000000 0.946870 -0.066061 -0.314760
-16.63999939 -9.05000019 -0.80000001 79 199 116 97.000000 1.000000 4.000000 1.000000 -60.708740 114.000000 178.000000 0.670288 0.735107 0.101648
-16.62000084 -9.03999996 -0.79000002 79 199 116 97.000000 1.000000 4.000000 1.000000 -60.708740 114.000000 178.000000 0.567331 0.760192 -0.316613
-16.62999916 -9.03999996 -0.81000000 79 199 116 97.000000 1.000000 4.000000 1.000000 -60.708740 114.000000 178.000000 0.760638 0.600668 0.246227
-16.64999962 -9.02000046 -0.81999999 79 199 116 97.000000 1.000000 4.000000 1.000000 -60.708740 114.000000 178.000000 0.846980 0.375916 -0.375916
-16.64999962 -9.02000046 -0.81999999 79 199 116 97.000000 1.000000 4.000000 1.000000 -60.708740 114.000000 178.000000 0.846980 0.375916 -0.375916
-16.63999939 -9.03999996 -0.83999997 79 199 116 97.000000 1.000000 4.000000 1.000000 -60.708740 114.000000 178.000000 0.601613 0.795959 0.067163
-16.63999939 -9.02999973 -0.85000002 79 199 116 97.000000 1.000000 4.000000 1.000000 -60.708740 114.000000 178.000000 0.644487 0.756572 0.110610
-16.62999916 -9.03999996 -0.85000002 79 199 116 97.000000 1.000000 4.000000 1.000000 -60.708740 114.000000 178.000000 0.551056 0.834141 0.023361
-16.62999916 -9.03999996 -0.83999997 79 199 116 97.000000 1.000000 4.000000 1.000000 -60.708740 114.000000 178.000000 0.465658 0.883521 0.050526
-16.62000084 -9.06000042 -0.83999997 79 199 116 97.000000 1.000000 4.000000 1.000000 -60.708740 114.000000 178.000000 0.589032 0.796751 0.135017
-16.54999924 -8.93999958 -0.88999999 79 199 116 97.000000 1.000000 4.000000 1.000000 -60.708740 114.000000 178.000000 0.607114 0.789683 0.088387
-16.56999969 -8.96000004 -0.86000001 79 199 116 97.000000 1.000000 4.000000 1.000000 -60.708740 114.000000 178.000000 0.453070 0.825629 0.336250
-16.61000061 -8.93999958 -0.86000001 79 199 116 97.000000 1.000000 4.000000 1.000000 -60.708740 114.000000 178.000000 0.804057 -0.594423 -0.012413
-16.61000061 -8.93999958 -0.87000000 79 199 116 97.000000 1.000000 4.000000 1.000000 -60.708740 114.000000 178.000000 0.752509 -0.547723 -0.365690
-16.57999992 -8.96000004 -0.94000000 79 199 116 97.000000 1.000000 4.000000 1.000000 -60.708740 114.000000 178.000000 0.926914 0.204570 -0.314615
-16.59000015 -8.93999958 -0.91000003 79 199 116 97.000000 1.000000 4.000000 1.000000 -60.708740 114.000000 178.000000 -0.218324 0.880723 0.420311
-16.54000092 -8.96000004 -0.98000002 79 199 116 97.000000 1.000000 4.000000 1.000000 -60.708740 114.000000 178.000000 0.972209 -0.050139 -0.228683
-16.54000092 -8.96000004 -0.97000003 79 199 116 97.000000 1.000000 4.000000 1.000000 -60.708740 114.000000 178.000000 0.989137 0.028391 -0.144226
-16.54000092 -8.94999981 -0.98000002 79 199 116 97.000000 1.000000 4.000000 1.000000 -60.708740 114.000000 178.000000 0.939169 0.280783 -0.197793
-16.54999924 -8.94999981 -0.94999999 79 199 116 97.000000 1.000000 4.000000 1.000000 -60.708740 114.000000 178.000000 0.879149 0.457502 0.133378
-16.54999924 -8.96000004 -0.99000001 79 199 116 97.000000 1.000000 4.000000 1.000000 -60.708740 114.000000 178.000000 0.997347 -0.039637 -0.061062
-16.54999924 -8.97000027 -1.00000000 79 199 116 97.000000 1.000000 4.000000 1.000000 -60.708740 114.000000 178.000000 0.943621 -0.113448 -0.310981
-16.54000092 -9.01000023 -0.95999998 79 199 116 97.000000 1.000000 4.000000 1.000000 -60.708740 114.000000 178.000000 0.893362 -0.437594 -0.102059
-16.54000092 -8.98999977 -1.00999999 79 199 116 97.000000 1.000000 4.000000 1.000000 -60.708740 114.000000 178.000000 0.715605 -0.631984 -0.297499
-16.54000092 -9.00000000 -1.01999998 79 199 116 97.000000 1.000000 4.000000 1.000000 -60.708740 114.000000 178.000000 0.748968 -0.436212 -0.498764
-16.56999969 -8.98999977 -1.01999998 79 199 116 97.000000 1.000000 4.000000 1.000000 -60.708740 114.000000 178.000000 0.693242 -0.657856 -0.294347
-16.61000061 -9.01000023 -0.97000003 79 199 116 97.000000 1.000000 4.000000 1.000000 -60.708740 114.000000 178.000000 0.523300 0.793698 0.310163
-16.56999969 -9.03999996 -0.88000000 79 199 116 97.000000 1.000000 4.000000 1.000000 -60.708740 114.000000 178.000000 0.212616 0.975605 -0.054673
-16.54999924 -9.05000019 -0.94000000 79 199 116 97.000000 1.000000 4.000000 1.000000 -60.708740 114.000000 178.000000 0.060303 0.950736 0.304081
-16.56999969 -9.06999969 -0.87000000 79 199 116 97.000000 1.000000 4.000000 1.000000 -60.708740 114.000000 178.000000 0.191266 0.942569 0.273827
-16.55999947 -9.06999969 -0.88000000 79 199 116 97.000000 1.000000 4.000000 1.000000 -60.708740 114.000000 178.000000 0.149666 0.988255 0.030847
-16.55999947 -9.06999969 -0.89999998 79 199 116 97.000000 1.000000 4.000000 1.000000 -60.708740 114.000000 178.000000 0.130938 0.991385 -0.003301
-16.56999969 -9.07999992 -0.94000000 79 199 116 97.000000 1.000000 4.000000 1.000000 -60.708740 114.000000 178.000000 0.311472 0.895668 0.317433
-16.55999947 -9.06999969 -0.92000002 79 199 116 97.000000 1.000000 4.000000 1.000000 -60.708740 114.000000 178.000000 -0.138822 0.988083 0.066494
-16.54000092 -9.06000042 -0.91000003 79 199 116 97.000000 1.000000 4.000000 1.000000 -60.708740 114.000000 178.000000 0.462257 -0.797273 -0.388167
-16.61000061 -9.05000019 -0.87000000 79 199 116 97.000000 1.000000 4.000000 1.000000 -60.708740 114.000000 178.000000 0.337917 0.901605 0.270039
-16.59000015 -9.05000019 -0.88000000 79 199 116 97.000000 1.000000 4.000000 1.000000 -60.708740 114.000000 178.000000 0.243941 0.944064 0.221890
-16.59000015 -9.05000019 -0.87000000 79 199 116 97.000000 1.000000 4.000000 1.000000 -60.708740 114.000000 178.000000 0.256321 0.893418 0.368924
-16.60000038 -9.05000019 -0.87000000 79 199 116 97.000000 1.000000 4.000000 1.000000 -60.708740 114.000000 178.000000 0.332420 0.885953 0.323395
-16.60000038 -9.05000019 -0.88999999 79 199 116 97.000000 1.000000 4.000000 1.000000 -60.708740 114.000000 178.000000 0.478106 0.872507 0.100728
-16.59000015 -9.05000019 -0.88000000 79 199 116 97.000000 1.000000 4.000000 1.000000 -60.708740 114.000000 178.000000 0.243941 0.944064 0.221890
-16.61000061 -9.05000019 -0.91000003 79 199 116 97.000000 1.000000 4.000000 1.000000 -60.708740 114.000000 178.000000 0.539532 0.841561 0.026084
-16.59000015 -9.06999969 -0.86000001 79 199 116 97.000000 1.000000 4.000000 1.000000 -60.708740 114.000000 178.000000 0.376733 0.911266 0.166331
-16.60000038 -9.06999969 -0.86000001 79 199 116 97.000000 1.000000 4.000000 1.000000 -60.708740 114.000000 178.000000 0.600354 0.720750 0.346546
-16.57999992 -9.06999969 -0.88000000 79 199 116 97.000000 1.000000 4.000000 1.000000 -60.708740 114.000000 178.000000 0.309706 0.917594 0.249205
-16.60000038 -9.06000042 -0.91000003 79 199 116 97.000000 1.000000 4.000000 1.000000 -60.708740 114.000000 178.000000 0.484163 0.873148 -0.056555
-16.54999924 -9.02000046 -0.98000002 79 199 116 97.000000 1.000000 4.000000 1.000000 -60.708740 114.000000 178.000000 -0.503393 0.813897 0.290117
-16.56999969 -9.02999973 -0.98000002 79 199 116 97.000000 1.000000 4.000000 1.000000 -60.708740 114.000000 178.000000 -0.295600 0.936760 0.187352
-16.56999969 -9.05000019 -0.94999999 79 199 116 97.000000 1.000000 4.000000 1.000000 -60.708740 114.000000 178.000000 0.005650 0.986470 0.163847
-16.55999947 -9.02999973 -0.98000002 79 199 116 97.000000 1.000000 4.000000 1.000000 -60.708740 114.000000 178.000000 -0.516029 0.670670 0.532838
-16.54999924 -9.03999996 -0.95999998 79 199 116 97.000000 1.000000 4.000000 1.000000 -60.708740 114.000000 178.000000 0.697466 -0.598535 -0.394077
-16.56999969 -9.05000019 -0.94999999 79 199 116 97.000000 1.000000 4.000000 1.000000 -60.708740 114.000000 178.000000 0.005650 0.986470 0.163847
-16.54000092 -9.05000019 -0.94999999 79 199 116 97.000000 1.000000 4.000000 1.000000 -60.708740 114.000000 178.000000 -0.486351 0.600786 0.634444
-16.54999924 -9.05000019 -0.95999998 79 199 116 97.000000 1.000000 4.000000 1.000000 -60.708740 114.000000 178.000000 -0.322625 0.889846 0.322625
-16.54000092 -9.02999973 -0.99000001 79 199 116 97.000000 1.000000 4.000000 1.000000 -60.708740 114.000000 178.000000 -0.446379 0.600188 0.663717
-16.56999969 -9.03999996 -0.99000001 79 199 116 97.000000 1.000000 4.000000 1.000000 -60.708740 114.000000 178.000000 -0.324809 0.779222 0.536015
-16.56999969 -9.02999973 -0.99000001 79 199 116 97.000000 1.000000 4.000000 1.000000 -60.708740 114.000000 178.000000 -0.448043 0.759867 0.471019
-16.55999947 -9.02000046 -1.00000000 79 199 116 97.000000 1.000000 4.000000 1.000000 -60.708740 114.000000 178.000000 -0.331064 0.744491 0.579766
-16.61000061 -9.02999973 -0.98000002 79 199 116 97.000000 1.000000 4.000000 1.000000 -60.708740 114.000000 178.000000 0.158458 0.935589 0.315537
-16.60000038 -9.03999996 -0.94999999 79 199 116 97.000000 1.000000 4.000000 1.000000 -60.708740 114.000000 178.000000 -0.026427 0.950099 0.310827
-16.59000015 -9.02999973 -0.97000003 79 199 116 97.000000 1.000000 4.000000 1.000000 -60.708740 114.000000 178.000000 0.229136 0.950438 0.210154
-16.57999992 -9.05000019 -0.98000002 79 199 116 97.000000 1.000000 4.000000 1.000000 -60.708740 114.000000 178.000000 -0.405006 0.811614 0.421015
-16.60000038 -9.02999973 -0.97000003 79 199 116 97.000000 1.000000 4.000000 1.000000 -60.708740 114.000000 178.000000 0.366227 0.889409 0.273549
-16.57999992 -9.05000019 -0.95999998 79 199 116 97.000000 1.000000 4.000000 1.000000 -60.708740 114.000000 178.000000 0.205948 0.978546 -0.005818
-16.61000061 -9.03999996 -0.97000003 79 199 116 97.000000 1.000000 4.000000 1.000000 -60.708740 114.000000 178.000000 0.143285 0.989666 -0.005554
-16.61000061 -9.02999973 -0.97000003 79 199 116 97.000000 1.000000 4.000000 1.000000 -60.708740 114.000000 178.000000 0.060790 0.909145 0.412020
-16.57999992 -9.02999973 -1.00000000 79 199 116 97.000000 1.000000 4.000000 1.000000 -60.708740 114.000000 178.000000 -0.138899 0.964507 0.224576
-16.61000061 -9.02000046 -0.99000001 79 199 116 97.000000 1.000000 4.000000 1.000000 -60.708740 114.000000 178.000000 0.349950 0.872584 0.340781
-16.61000061 -9.02000046 -1.00000000 79 199 116 97.000000 1.000000 4.000000 1.000000 -60.708740 114.000000 178.000000 0.376466 0.845095 0.379590
-16.61000061 -9.02000046 -0.99000001 79 199 116 97.000000 1.000000 4.000000 1.000000 -60.708740 114.000000 178.000000 0.349950 0.872584 0.340781
-16.59000015 -9.03999996 -1.00000000 79 199 116 97.000000 1.000000 4.000000 1.000000 -60.708740 114.000000 178.000000 0.017370 0.885855 0.463637
-16.61000061 -9.06000042 -0.94999999 79 199 116 97.000000 1.000000 4.000000 1.000000 -60.708740 114.000000 178.000000 0.556497 0.829864 0.040447
-16.64999962 -8.97000027 -0.87000000 79 199 116 97.000000 1.000000 4.000000 1.000000 -60.708740 114.000000 178.000000 0.988244 0.068839 -0.136511
-16.64999962 -8.94999981 -0.86000001 79 199 116 97.000000 1.000000 4.000000 1.000000 -60.708740 114.000000 178.000000 0.789862 -0.309905 -0.529223
-16.64999962 -9.01000023 -0.87000000 79 199 116 97.000000 1.000000 4.000000 1.000000 -60.708740 114.000000 178.000000 0.735699 0.677066 0.018148
-16.63999939 -9.01000023 -0.94000000 79 199 116 97.000000 1.000000 4.000000 1.000000 -60.708740 114.000000 178.000000 0.675657 0.723811 -0.139947
-16.65999985 -8.94999981 -0.86000001 79 199 116 97.000000 1.000000 4.000000 1.000000 -60.708740 114.000000 178.000000 0.696602 -0.621206 -0.358955
-16.68000031 -8.97000027 -0.88000000 79 199 116 97.000000 1.000000 4.000000 1.000000 -60.708740 114.000000 178.000000 0.992008 -0.005481 -0.126056
-16.65999985 -8.93999958 -0.88000000 79 199 116 97.000000 1.000000 4.000000 1.000000 -60.708740 114.000000 178.000000 0.845565 -0.401683 -0.351668
-16.68000031 -8.96000004 -0.88000000 79 199 116 97.000000 1.000000 4.000000 1.000000 -60.708740 114.000000 178.000000 0.946193 -0.181070 -0.268202
-16.65999985 -8.96000004 -0.88000000 79 199 116 97.000000 1.000000 4.000000 1.000000 -60.708740 114.000000 178.000000 0.926037 0.272532 -0.261117
-16.68000031 -8.94999981 -0.88999999 79 199 116 97.000000 1.000000 4.000000 1.000000 -60.708740 114.000000 178.000000 0.916983 -0.380347 -0.120328
-16.68000031 -8.96000004 -0.88000000 79 199 116 97.000000 1.000000 4.000000 1.000000 -60.708740 114.000000 178.000000 0.946193 -0.181070 -0.268202
-16.67000008 -8.96000004 -0.87000000 79 199 116 97.000000 1.000000 4.000000 1.000000 -60.708740 114.000000 178.000000 0.759446 -0.271118 -0.591385
-16.69000053 -8.97000027 -0.94000000 79 199 116 97.000000 1.000000 4.000000 1.000000 -60.708740 114.000000 178.000000 0.931683 0.323520 0.165231
-16.69000053 -8.97000027 -0.92000002 79 199 116 97.000000 1.000000 4.000000 1.000000 -60.708740 114.000000 178.000000 0.977793 0.092245 -0.188179
-16.68000031 -8.93999958 -0.92000002 79 199 116 97.000000 1.000000 4.000000 1.000000 -60.708740 114.000000 178.000000 0.999094 0.032095 -0.027954
-16.69000053 -8.96000004 -0.93000001 79 199 116 97.000000 1.000000 4.000000 1.000000 -60.708740 114.000000 178.000000 0.931279 0.171222 -0.321563
-16.68000031 -8.97999954 -0.88000000 79 199 116 97.000000 1.000000 4.000000 1.000000 -60.708740 114.000000 178.000000 0.935843 -0.006315 -0.352362
-16.65999985 -9.00000000 -0.88000000 79 199 116 97.000000 1.000000 4.000000 1.000000 -60.708740 114.000000 178.000000 0.882871 0.436328 -0.173656
-16.65999985 -9.00000000 -0.87000000 79 199 116 97.000000 1.000000 4.000000 1.000000 -60.708740 114.000000 178.000000 0.902739 0.396289 -0.167386
-16.68000031 -8.97999954 -0.87000000 79 199 116 97.000000 1.000000 4.000000 1.000000 -60.708740 114.000000 178.000000 0.843007 -0.174570 -0.508788
-16.67000008 -8.97999954 -0.88000000 79 199 116 97.000000 1.000000 4.000000 1.000000 -60.708740 114.000000 178.000000 0.922279 0.379920 0.071151
-16.65999985 -9.00000000 -0.87000000 79 199 116 97.000000 1.000000 4.000000 1.000000 -60.708740 114.000000 178.000000 0.902739 0.396289 -0.167386
-16.67000008 -8.98999977 -0.92000002 79 199 116 97.000000 1.000000 4.000000 1.000000 -60.708740 114.000000 178.000000 0.881346 0.461120 -0.102941
-16.65999985 -9.01000023 -0.92000002 79 199 116 97.000000 1.000000 4.000000 1.000000 -60.708740 114.000000 178.000000 0.856998 0.474116 0.201911
-16.65999985 -9.01000023 -0.91000003 79 199 116 97.000000 1.000000 4.000000 1.000000 -60.708740 114.000000 178.000000 0.820669 0.521964 0.232497
-16.65999985 -8.98999977 -0.91000003 79 199 116 97.000000 1.000000 4.000000 1.000000 -60.708740 114.000000 178.000000 0.897063 0.356165 -0.261582
-16.65999985 -9.01000023 -0.92000002 79 199 116 97.000000 1.000000 4.000000 1.000000 -60.708740 114.000000 178.000000 0.856998 0.474116 0.201911
-16.67000008 -9.00000000 -0.92000002 79 199 116 97.000000 1.000000 4.000000 1.000000 -60.708740 114.000000 178.000000 0.955801 0.292847 -0.026169
-16.67000008 -9.01000023 -0.91000003 79 199 116 97.000000 1.000000 4.000000 1.000000 -60.708740 114.000000 178.000000 0.653246 0.748048 0.117021
-16.64999962 -9.00000000 -0.94999999 79 199 116 97.000000 1.000000 4.000000 1.000000 -60.708740 114.000000 178.000000 0.647840 0.737091 -0.192352
-16.64999962 -9.00000000 -1.00999999 79 199 116 97.000000 1.000000 4.000000 1.000000 -60.708740 114.000000 178.000000 0.841287 0.464637 0.276313
-16.62999916 -9.01000023 -0.99000001 79 199 116 97.000000 1.000000 4.000000 1.000000 -60.708740 114.000000 178.000000 0.569351 0.822094 -0.001359
-16.64999962 -9.00000000 -0.99000001 79 199 116 97.000000 1.000000 4.000000 1.000000 -60.708740 114.000000 178.000000 0.532982 0.841625 0.087163
-16.64999962 -9.00000000 -1.00000000 79 199 116 97.000000 1.000000 4.000000 1.000000 -60.708740 114.000000 178.000000 0.663237 0.746321 0.055867
-16.62999916 -9.01000023 -0.99000001 79 199 116 97.000000 1.000000 4.000000 1.000000 -60.708740 114.000000 178.000000 0.569351 0.822094 -0.001359
-16.64999962 -9.00000000 -0.99000001 79 199 116 97.000000 1.000000 4.000000 1.000000 -60.708740 114.000000 178.000000 0.532982 0.841625 0.087163
-16.62999916 -9.01000023 -1.01999998 79 199 116 97.000000 1.000000 4.000000 1.000000 -60.708740 114.000000 178.000000 0.382938 0.876369 0.292123
-16.63999939 -9.01000023 -1.00000000 79 199 116 97.000000 1.000000 4.000000 1.000000 -60.708740 114.000000 178.000000 0.577877 0.785478 -0.221545
-16.63999939 -9.01000023 -1.00000000 79 199 116 97.000000 1.000000 4.000000 1.000000 -60.708740 114.000000 178.000000 0.577877 0.785478 -0.221545
-16.64999962 -9.01000023 -0.99000001 79 199 116 97.000000 1.000000 4.000000 1.000000 -60.708740 114.000000 178.000000 0.655998 0.737809 -0.159076
-16.67000008 -8.98999977 -0.95999998 79 199 116 97.000000 1.000000 4.000000 1.000000 -60.708740 114.000000 178.000000 0.936666 0.230328 -0.263830
-16.68000031 -8.98999977 -0.97000003 79 199 116 97.000000 1.000000 4.000000 1.000000 -60.708740 114.000000 178.000000 0.810103 0.583104 0.061006
-16.67000008 -8.98999977 -0.98000002 79 199 116 97.000000 1.000000 4.000000 1.000000 -60.708740 114.000000 178.000000 0.680499 0.724783 0.107758
-16.67000008 -8.98999977 -0.97000003 79 199 116 97.000000 1.000000 4.000000 1.000000 -60.708740 114.000000 178.000000 0.881271 0.471188 -0.036663
-16.68000031 -8.98999977 -0.97000003 79 199 116 97.000000 1.000000 4.000000 1.000000 -60.708740 114.000000 178.000000 0.810103 0.583104 0.061006
-16.67000008 -8.97999954 -0.94999999 79 199 116 97.000000 1.000000 4.000000 1.000000 -60.708740 114.000000 178.000000 0.763997 0.645183 0.006908
-16.67000008 -8.98999977 -0.98000002 79 199 116 97.000000 1.000000 4.000000 1.000000 -60.708740 114.000000 178.000000 0.680499 0.724783 0.107758
-16.68000031 -8.97999954 -0.99000001 79 199 116 97.000000 1.000000 4.000000 1.000000 -60.708740 114.000000 178.000000 0.693644 0.716814 -0.070957
-16.65999985 -9.00000000 -0.99000001 79 199 116 97.000000 1.000000 4.000000 1.000000 -60.708740 114.000000 178.000000 0.578246 0.815118 0.034834
-16.68000031 -8.97999954 -1.00000000 79 199 116 97.000000 1.000000 4.000000 1.000000 -60.708740 114.000000 178.000000 0.700075 0.708844 -0.086230
-16.65999985 -9.00000000 -1.00000000 79 199 116 97.000000 1.000000 4.000000 1.000000 -60.708740 114.000000 178.000000 0.610433 0.754803 -0.240093
-16.68000031 -8.97999954 -0.99000001 79 199 116 97.000000 1.000000 4.000000 1.000000 -60.708740 114.000000 178.000000 0.693644 0.716814 -0.070957
-16.63999939 -9.02999973 -0.86000001 79 199 116 97.000000 1.000000 4.000000 1.000000 -60.708740 114.000000 178.000000 0.711560 0.696949 0.089128
-16.62999916 -9.02999973 -0.87000000 79 199 116 97.000000 1.000000 4.000000 1.000000 -60.708740 114.000000 178.000000 0.514029 0.837733 0.184331
-16.62000084 -9.03999996 -0.88999999 79 199 116 97.000000 1.000000 4.000000 1.000000 -60.708740 114.000000 178.000000 0.358869 0.930941 -0.067536
-16.62999916 -9.03999996 -0.87000000 79 199 116 97.000000 1.000000 4.000000 1.000000 -60.708740 114.000000 178.000000 0.512867 0.766858 0.385871
-16.62999916 -9.02999973 -0.88999999 79 199 116 97.000000 1.000000 4.000000 1.000000 -60.708740 114.000000 178.000000 0.745039 0.665568 -0.043993
-16.62000084 -9.05000019 -0.88999999 79 199 116 97.000000 1.000000 4.000000 1.000000 -60.708740 114.000000 178.000000 0.623178 0.769632 -0.138982
-16.62000084 -9.05000019 -0.86000001 79 199 116 97.000000 1.000000 4.000000 1.000000 -60.708740 114.000000 178.000000 0.587014 0.788276 0.184490
-16.63999939 -9.02999973 -0.87000000 79 199 116 97.000000 1.000000 4.000000 1.000000 -60.708740 114.000000 178.000000 0.743258 0.620171 0.250909
-16.62000084 -9.03999996 -0.86000001 79 199 116 97.000000 1.000000 4.000000 1.000000 -60.708740 114.000000 178.000000 0.650591 0.758315 -0.041105
-16.62000084 -9.03999996 -0.88000000 79 199 116 97.000000 1.000000 4.000000 1.000000 -60.708740 114.000000 178.000000 0.518422 0.849755 0.095687
-16.63999939 -9.05000019 -0.87000000 79 199 116 97.000000 1.000000 4.000000 1.000000 -60.708740 114.000000 178.000000 0.587167 0.808581 0.037837
-16.63999939 -9.02999973 -0.89999998 79 199 116 97.000000 1.000000 4.000000 1.000000 -60.708740 114.000000 178.000000 0.498031 0.859714 -0.113385
-16.62000084 -9.05000019 -0.86000001 79 199 116 97.000000 1.000000 4.000000 1.000000 -60.708740 114.000000 178.000000 0.587014 0.788276 0.184490
-16.63999939 -9.02000046 -0.91000003 79 199 116 97.000000 1.000000 4.000000 1.000000 -60.708740 114.000000 178.000000 0.615485 0.758116 0.215497
-16.62999916 -9.02999973 -0.91000003 79 199 116 97.000000 1.000000 4.000000 1.000000 -60.708740 114.000000 178.000000 0.723062 0.671306 -0.162879
-16.63999939 -9.02999973 -0.92000002 79 199 116 97.000000 1.000000 4.000000 1.000000 -60.708740 114.000000 178.000000 0.708624 0.702874 0.061807
-16.63999939 -9.02000046 -0.91000003 79 199 116 97.000000 1.000000 4.000000 1.000000 -60.708740 114.000000 178.000000 0.615485 0.758116 0.215497
-16.62000084 -9.03999996 -0.94000000 79 199 116 97.000000 1.000000 4.000000 1.000000 -60.708740 114.000000 178.000000 0.186818 0.972214 0.141066
-16.62999916 -9.03999996 -0.94000000 79 199 116 97.000000 1.000000 4.000000 1.000000 -60.708740 114.000000 178.000000 0.404441 0.913640 -0.041107
-16.65999985 -9.02000046 -0.89999998 79 199 116 97.000000 1.000000 4.000000 1.000000 -60.708740 114.000000 178.000000 0.609538 0.783691 -0.119546
-16.65999985 -9.02999973 -0.92000002 79 199 116 97.000000 1.000000 4.000000 1.000000 -60.708740 114.000000 178.000000 0.860765 0.453748 -0.230643
-16.67000008 -9.02000046 -0.94000000 79 199 116 97.000000 1.000000 4.000000 1.000000 -60.708740 114.000000 178.000000 0.544348 0.831764 0.108870
-16.65999985 -9.02999973 -0.93000001 79 199 116 97.000000 1.000000 4.000000 1.000000 -60.708740 114.000000 178.000000 0.665018 0.671522 -0.326818
-16.63999939 -9.02000046 -0.98000002 79 199 116 97.000000 1.000000 4.000000 1.000000 -60.708740 114.000000 178.000000 0.349270 0.823392 0.447255
-16.62000084 -9.02000046 -0.98000002 79 199 116 97.000000 1.000000 4.000000 1.000000 -60.708740 114.000000 178.000000 0.212004 0.910032 0.356225
-16.62000084 -9.02999973 -0.95999998 79 199 116 97.000000 1.000000 4.000000 1.000000 -60.708740 114.000000 178.000000 0.252671 0.946493 0.200771
-16.62999916 -9.02000046 -0.98000002 79 199 116 97.000000 1.000000 4.000000 1.000000 -60.708740 114.000000 178.000000 0.346095 0.802239 0.486447
-16.62999916 -9.02000046 -1.00000000 79 199 116 97.000000 1.000000 4.000000 1.000000 -60.708740 114.000000 178.000000 0.283871 0.951957 0.114869
-16.62999916 -9.02999973 -1.00000000 79 199 116 97.000000 1.000000 4.000000 1.000000 -60.708740 114.000000 178.000000 0.146109 0.988250 0.044868
-16.62999916 -9.02000046 -0.99000001 79 199 116 97.000000 1.000000 4.000000 1.000000 -60.708740 114.000000 178.000000 0.347205 0.892600 0.287599
-16.62999916 -9.02000046 -0.99000001 79 199 116 97.000000 1.000000 4.000000 1.000000 -60.708740 114.000000 178.000000 0.347205 0.892600 0.287599
-16.71999931 -8.78999996 -0.69999999 79 199 116 97.000000 1.000000 4.000000 1.000000 -60.708740 114.000000 178.000000 0.706239 -0.580538 -0.405219
-16.71999931 -8.77000046 -0.73000002 79 199 116 97.000000 1.000000 4.000000 1.000000 -60.708740 114.000000 178.000000 -0.460512 0.737810 0.493524
-16.70000076 -8.77999973 -0.70999998 79 199 116 97.000000 1.000000 4.000000 1.000000 -60.708740 114.000000 178.000000 -0.514737 0.759850 0.397083
-16.70000076 -8.77999973 -0.70999998 79 199 116 97.000000 1.000000 4.000000 1.000000 -60.708740 114.000000 178.000000 -0.514737 0.759850 0.397083
-16.70999908 -8.84000015 -0.70999998 79 199 116 97.000000 1.000000 4.000000 1.000000 -60.708740 114.000000 178.000000 0.892696 -0.441474 -0.090523
-16.72999954 -8.82999992 -0.70999998 79 199 116 97.000000 1.000000 4.000000 1.000000 -60.708740 114.000000 178.000000 0.832946 -0.468630 -0.294256
-16.70999908 -8.81000042 -0.73000002 79 199 116 97.000000 1.000000 4.000000 1.000000 -60.708740 114.000000 178.000000 0.814728 -0.562444 -0.140982
-16.73999977 -8.78999996 -0.69999999 79 199 116 97.000000 1.000000 4.000000 1.000000 -60.708740 114.000000 178.000000 0.698335 -0.416347 -0.582222
-16.70999908 -8.78999996 -0.87000000 79 199 116 97.000000 1.000000 4.000000 1.000000 -60.708740 114.000000 178.000000 -0.333243 0.819682 0.465908
-16.70999908 -8.77999973 -0.91000003 79 199 116 97.000000 1.000000 4.000000 1.000000 -60.708740 114.000000 178.000000 -0.273910 0.934104 0.228961
-16.70000076 -8.81000042 -0.86000001 79 199 116 97.000000 1.000000 4.000000 1.000000 -60.708740 114.000000 178.000000 -0.667386 0.740086 -0.082878
-16.70000076 -8.77000046 -0.95999998 79 199 116 97.000000 1.000000 4.000000 1.000000 -60.708740 114.000000 178.000000 -0.708005 0.705167 0.038309
-16.71999931 -8.80000019 -1.00000000 79 199 116 97.000000 1.000000 4.000000 1.000000 -60.708740 114.000000 178.000000 0.813705 -0.576315 -0.075793
-16.70000076 -8.78999996 -1.00000000 79 199 116 97.000000 1.000000 4.000000 1.000000 -60.708740 114.000000 178.000000 -0.471424 0.701305 0.534725
-16.71999931 -8.80000019 -1.00999999 79 199 116 97.000000 1.000000 4.000000 1.000000 -60.708740 114.000000 178.000000 0.837191 -0.491295 -0.240291
-16.71999931 -8.78999996 -1.00999999 79 199 116 97.000000 1.000000 4.000000 1.000000 -60.708740 114.000000 178.000000 0.780696 -0.496219 -0.379842
-16.70999908 -8.81000042 -0.94999999 79 199 116 97.000000 1.000000 4.000000 1.000000 -60.708740 114.000000 178.000000 -0.376301 0.917840 0.126359
-16.72999954 -8.81000042 -1.00999999 79 199 116 97.000000 1.000000 4.000000 1.000000 -60.708740 114.000000 178.000000 0.726812 -0.614003 -0.307807
-16.71999931 -8.81000042 -1.00000000 79 199 116 97.000000 1.000000 4.000000 1.000000 -60.708740 114.000000 178.000000 0.709508 -0.700802 -0.073998
-16.70000076 -8.93000031 -0.92000002 79 199 116 97.000000 1.000000 4.000000 1.000000 -60.708740 114.000000 178.000000 0.954671 -0.261572 -0.142072
-16.72999954 -8.89000034 -1.00999999 79 199 116 97.000000 1.000000 4.000000 1.000000 -60.708740 114.000000 178.000000 0.728152 -0.605448 -0.321291
-16.70000076 -8.90999985 -0.95999998 79 199 116 97.000000 1.000000 4.000000 1.000000 -60.708740 114.000000 178.000000 0.688542 -0.423080 -0.588994
-16.70999908 -8.92000008 -0.98000002 79 199 116 97.000000 1.000000 4.000000 1.000000 -60.708740 114.000000 178.000000 0.965242 -0.127582 -0.228101
-16.70999908 -8.93000031 -0.95999998 79 199 116 97.000000 1.000000 4.000000 1.000000 -60.708740 114.000000 178.000000 0.858423 0.068618 -0.508332
-16.70999908 -8.89999962 -1.00999999 79 199 116 97.000000 1.000000 4.000000 1.000000 -60.708740 114.000000 178.000000 0.940442 -0.234763 -0.245876
-16.70999908 -8.90999985 -1.00999999 79 199 116 97.000000 1.000000 4.000000 1.000000 -60.708740 114.000000 178.000000 0.928104 -0.147999 -0.341642
-16.72999954 -8.92000008 -1.00000000 79 199 116 97.000000 1.000000 4.000000 1.000000 -60.708740 114.000000 178.000000 0.895769 0.132023 -0.424461
-16.72999954 -8.93000031 -0.99000001 79 199 116 97.000000 1.000000 4.000000 1.000000 -60.708740 114.000000 178.000000 0.837277 0.224189 -0.498706
-16.72999954 -8.89999962 -1.00000000 79 199 116 97.000000 1.000000 4.000000 1.000000 -60.708740 114.000000 178.000000 0.822212 -0.392817 -0.411901
-16.70000076 -8.89999962 -1.00000000 79 199 116 97.000000 1.000000 4.000000 1.000000 -60.708740 114.000000 178.000000 0.805717 -0.523009 -0.277996
-16.73999977 -8.88000011 -1.01999998 79 199 116 97.000000 1.000000 4.000000 1.000000 -60.708740 114.000000 178.000000 0.661291 -0.470437 -0.584280
-16.73999977 -8.90999985 -1.00000000 79 199 116 97.000000 1.000000 4.000000 1.000000 -60.708740 114.000000 178.000000 0.868871 -0.159171 -0.468752
-16.73999977 -8.89999962 -1.01999998 79 199 116 97.000000 1.000000 4.000000 1.000000 -60.708740 114.000000 178.000000 0.982213 -0.175865 -0.065800
-16.73999977 -8.92000008 -1.00999999 79 199 116 97.000000 1.000000 4.000000 1.000000 -60.708740 114.000000 178.000000 0.972162 0.161815 -0.169459
-16.70000076 -8.94999981 -0.94000000 79 199 116 97.000000 1.000000 4.000000 1.000000 -60.708740 114.000000 178.000000 0.939530 -0.003763 -0.342446
-16.70000076 -8.94999981 -0.94000000 79 199 116 97.000000 1.000000 4.000000 1.000000 -60.708740 114.000000 178.000000 0.939530 -0.003763 -0.342446
-16.70000076 -8.96000004 -0.94000000 79 199 116 97.000000 1.000000 4.000000 1.000000 -60.708740 114.000000 178.000000 0.937114 0.328598 -0.117646
-16.70000076 -8.94999981 -0.94999999 79 199 116 97.000000 1.000000 4.000000 1.000000 -60.708740 114.000000 178.000000 0.851658 0.291073 -0.435839
-16.70999908 -8.93999958 -0.97000003 79 199 116 97.000000 1.000000 4.000000 1.000000 -60.708740 114.000000 178.000000 0.984084 0.161032 0.075148
-16.70000076 -8.94999981 -0.94999999 79 199 116 97.000000 1.000000 4.000000 1.000000 -60.708740 114.000000 178.000000 0.851658 0.291073 -0.435839
-16.70000076 -8.93999958 -0.94999999 79 199 116 97.000000 1.000000 4.000000 1.000000 -60.708740 114.000000 178.000000 0.816855 0.109205 -0.566411
-16.71999931 -8.96000004 -0.98000002 79 199 116 97.000000 1.000000 4.000000 1.000000 -60.708740 114.000000 178.000000 0.967197 0.254023 -0.001193
-16.71999931 -8.93999958 -0.97000003 79 199 116 97.000000 1.000000 4.000000 1.000000 -60.708740 114.000000 178.000000 0.913716 0.369736 -0.168577
-16.70000076 -8.94999981 -0.94999999 79 199 116 97.000000 1.000000 4.000000 1.000000 -60.708740 114.000000 178.000000 0.851658 0.291073 -0.435839
-16.61000061 -8.85000038 -1.07000005 79 199 116 97.000000 1.000000 4.000000 1.000000 -60.708740 114.000000 178.000000 0.368748 0.923910 -0.102052
-16.56999969 -8.90999985 -1.05999994 79 199 116 97.000000 1.000000 4.000000 1.000000 -60.708740 114.000000 178.000000 0.834065 0.455371 0.311405
-16.56999969 -8.92000008 -1.02999997 79 199 116 97.000000 1.000000 4.000000 1.000000 -60.708740 114.000000 178.000000 0.752587 0.649088 0.110892
-16.56999969 -8.93000031 -1.11000001 79 199 116 97.000000 1.000000 4.000000 1.000000 -60.708740 114.000000 178.000000 0.974656 0.139596 -0.174809
-16.56999969 -8.93000031 -1.09000003 79 199 116 97.000000 1.000000 4.000000 1.000000 -60.708740 114.000000 178.000000 0.979365 0.111822 -0.168347
-16.56999969 -8.93000031 -1.09000003 79 199 116 97.000000 1.000000 4.000000 1.000000 -60.708740 114.000000 178.000000 0.979365 0.111822 -0.168347
-16.56999969 -8.92000008 -1.09000003 79 199 116 97.000000 1.000000 4.000000 1.000000 -60.708740 114.000000 178.000000 0.995751 0.077776 -0.049295
-16.56999969 -8.90999985 -1.08000004 79 199 116 97.000000 1.000000 4.000000 1.000000 -60.708740 114.000000 178.000000 0.942486 0.334188 -0.006258
-16.56999969 -8.90999985 -1.07000005 79 199 116 97.000000 1.000000 4.000000 1.000000 -60.708740 114.000000 178.000000 0.986362 0.163441 -0.019430
-16.59000015 -8.89999962 -1.03999996 79 199 116 97.000000 1.000000 4.000000 1.000000 -60.708740 114.000000 178.000000 0.463590 0.856207 -0.228020
-16.60000038 -8.90999985 -1.02999997 79 199 116 97.000000 1.000000 4.000000 1.000000 -60.708740 114.000000 178.000000 0.575633 0.710881 0.404097
-16.57999992 -8.90999985 -1.05999994 79 199 116 97.000000 1.000000 4.000000 1.000000 -60.708740 114.000000 178.000000 0.891515 0.449171 0.058706
-16.57999992 -8.90999985 -1.10000002 79 199 116 97.000000 1.000000 4.000000 1.000000 -60.708740 114.000000 178.000000 0.920982 0.387156 -0.043605
-16.60000038 -8.89999962 -1.08000004 79 199 116 97.000000 1.000000 4.000000 1.000000 -60.708740 114.000000 178.000000 0.772204 0.630753 0.076499
-16.61000061 -8.88000011 -1.12000000 79 199 116 97.000000 1.000000 4.000000 1.000000 -60.708740 114.000000 178.000000 0.733197 0.660333 -0.162427
-16.61000061 -8.89999962 -1.13999999 79 199 116 97.000000 1.000000 4.000000 1.000000 -60.708740 114.000000 178.000000 0.981323 0.155203 0.113653
-16.59000015 -8.90999985 -1.13999999 79 199 116 97.000000 1.000000 4.000000 1.000000 -60.708740 114.000000 178.000000 0.880711 -0.161052 -0.445433
-16.60000038 -8.93000031 -1.17999995 79 199 116 97.000000 1.000000 4.000000 1.000000 -60.708740 114.000000 178.000000 0.729987 -0.659590 -0.179053
-16.61000061 -8.89999962 -1.17999995 79 199 116 97.000000 1.000000 4.000000 1.000000 -60.708740 114.000000 178.000000 0.955429 0.277635 -0.100366
-16.61000061 -8.90999985 -1.19000006 79 199 116 97.000000 1.000000 4.000000 1.000000 -60.708740 114.000000 178.000000 0.989576 0.092081 -0.110730
-16.63999939 -8.85000038 -1.04999995 79 199 116 97.000000 1.000000 4.000000 1.000000 -60.708740 114.000000 178.000000 -0.279231 0.949921 0.140284
-16.69000053 -8.81999969 -1.04999995 79 199 116 97.000000 1.000000 4.000000 1.000000 -60.708740 114.000000 178.000000 -0.234705 0.961109 0.145543
-16.65999985 -8.82999992 -1.09000003 79 199 116 97.000000 1.000000 4.000000 1.000000 -60.708740 114.000000 178.000000 0.276465 -0.701551 -0.656805
-16.67000008 -8.84000015 -1.12000000 79 199 116 97.000000 1.000000 4.000000 1.000000 -60.708740 114.000000 178.000000 -0.429295 0.847742 0.311510
-16.63999939 -8.85999966 -1.03999996 79 199 116 97.000000 1.000000 4.000000 1.000000 -60.708740 114.000000 178.000000 -0.264797 0.800658 0.537428
-16.62000084 -8.88000011 -1.03999996 79 199 116 97.000000 1.000000 4.000000 1.000000 -60.708740 114.000000 178.000000 0.059534 0.996929 0.050875
-16.63999939 -8.85999966 -1.04999995 79 199 116 97.000000 1.000000 4.000000 1.000000 -60.708740 114.000000 178.000000 -0.592553 0.652983 0.471692
-16.63999939 -8.85999966 -1.05999994 79 199 116 97.000000 1.000000 4.000000 1.000000 -60.708740 114.000000 178.000000 -0.467513 0.880923 0.073526
-16.62999916 -8.86999989 -1.11000001 79 199 116 97.000000 1.000000 4.000000 1.000000 -60.708740 114.000000 178.000000 0.138541 0.986367 -0.088809
-16.62999916 -8.85999966 -1.10000002 79 199 116 97.000000 1.000000 4.000000 1.000000 -60.708740 114.000000 178.000000 0.156292 0.982579 0.100560
