//X Y Z R G B PointSourceId ScanDirectionFlag NumberOfReturns ReturnNumber GpsTime Intensity Classification Nx Ny Nz
6.44000006 1.86000001 -0.92000002 215 173 61 97.000000 1.000000 4.000000 1.000000 -60.708740 114.000000 18.000000 0.702062 -0.436507 0.562646
6.44000006 1.85000002 -0.88999999 215 173 61 97.000000 1.000000 4.000000 1.000000 -60.708740 114.000000 18.000000 0.776067 -0.457180 0.434403
6.44999981 1.85000002 -0.88999999 215 173 61 97.000000 1.000000 4.000000 1.000000 -60.708740 114.000000 18.000000 -0.334794 0.869853 -0.362311
6.38999987 1.82000005 -0.89999998 215 173 61 97.000000 1.000000 4.000000 1.000000 -60.708740 114.000000 18.000000 -0.375783 0.874799 -0.305799
6.38000011 1.88999999 -0.92000002 215 173 61 97.000000 1.000000 4.000000 1.000000 -60.708740 114.000000 18.000000 0.746283 -0.436567 0.502464
6.38000011 1.82000005 -0.89999998 215 173 61 97.000000 1.000000 4.000000 1.000000 -60.708740 114.000000 18.000000 -0.764161 0.605415 -0.222556
6.36999989 1.83000004 -0.93000001 215 173 61 97.000000 1.000000 4.000000 1.000000 -60.708740 114.000000 18.000000 -0.146604 0.869462 -0.471745
6.30999994 1.83000004 -0.88999999 215 173 61 97.000000 1.000000 4.000000 1.000000 -60.708740 114.000000 18.000000 0.654085 -0.708194 0.265772
6.25000000 2.05999994 -0.63999999 215 173 61 97.000000 1.000000 4.000000 1.000000 -60.708740 114.000000 18.000000 0.657372 -0.337657 0.673684
6.07999992 1.91999996 -0.69000000 215 173 61 97.000000 1.000000 4.000000 1.000000 -60.708740 114.000000 18.000000 -0.573366 0.610576 -0.546305
6.01000023 1.87000000 -0.69000000 215 173 61 97.000000 1.000000 4.000000 1.000000 -60.708740 114.000000 18.000000 -0.114112 0.980378 -0.160738
5.98999977 1.86000001 -0.69000000 215 173 61 97.000000 1.000000 4.000000 1.000000 -60.708740 114.000000 18.000000 -0.604641 0.792239 -0.082254
5.98999977 1.87000000 -0.68000001 215 173 61 97.000000 1.000000 4.000000 1.000000 -60.708740 114.000000 18.000000 -0.413218 0.870330 -0.267910
5.98000002 1.80999994 -0.66000003 215 173 61 97.000000 1.000000 4.000000 1.000000 -60.708740 114.000000 18.000000 -0.299586 0.738552 -0.603978
5.92000008 1.87000000 -0.63999999 215 173 61 97.000000 1.000000 4.000000 1.000000 -60.708740 114.000000 18.000000 -0.251141 0.873730 -0.416563
5.92000008 1.88000000 -0.68000001 215 173 61 97.000000 1.000000 4.000000 1.000000 -60.708740 114.000000 18.000000 -0.263017 0.963566 -0.048615
5.96000004 1.82000005 -0.63999999 215 173 61 97.000000 1.000000 4.000000 1.000000 -60.708740 114.000000 18.000000 -0.308848 0.829342 -0.465623
5.84000015 1.89999998 -0.61000001 215 173 61 97.000000 1.000000 4.000000 1.000000 -60.708740 114.000000 18.000000 -0.546997 0.833993 0.072459
5.82999992 1.95000005 -0.64999998 215 173 61 97.000000 1.000000 4.000000 1.000000 -60.708740 114.000000 18.000000 -0.610739 0.774410 -0.165187
5.80000019 1.86000001 -0.60000002 215 173 61 97.000000 1.000000 4.000000 1.000000 -60.708740 114.000000 18.000000 -0.577828 0.794323 -0.187527
5.82000017 1.88000000 -0.61000001 215 173 61 97.000000 1.000000 4.000000 1.000000 -60.708740 114.000000 18.000000 -0.322831 0.932470 0.162108
5.73000002 1.95000005 -0.49000001 215 173 61 97.000000 1.000000 4.000000 1.000000 -60.708740 114.000000 18.000000 0.595955 -0.592578 0.541931
5.73000002 1.82000005 -0.51999998 215 173 61 97.000000 1.000000 4.000000 1.000000 -60.708740 114.000000 18.000000 -0.247933 0.958935 -0.137740
5.73000002 1.88000000 -0.51999998 215 173 61 97.000000 1.000000 4.000000 1.000000 -60.708740 114.000000 18.000000 -0.317170 0.923065 -0.217610
5.63000011 1.96000004 -0.43000001 215 173 61 97.000000 1.000000 4.000000 1.000000 -60.708740 114.000000 18.000000 -0.508387 0.857638 0.077455
5.69000006 1.90999997 -0.49000001 215 173 61 97.000000 1.000000 4.000000 1.000000 -60.708740 114.000000 18.000000 -0.085776 0.973373 -0.212576
5.63000011 1.90999997 -0.49000001 215 173 61 97.000000 1.000000 4.000000 1.000000 -60.708740 114.000000 18.000000 -0.499387 0.865329 0.042647
5.63999987 1.91999996 -0.49000001 215 173 61 97.000000 1.000000 4.000000 1.000000 -60.708740 114.000000 18.000000 -0.117233 0.992576 0.032379
5.65999985 1.90999997 -0.49000001 215 173 61 97.000000 1.000000 4.000000 1.000000 -60.708740 114.000000 18.000000 -0.487516 0.871451 -0.053861
5.65999985 1.90999997 -0.50000000 215 173 61 97.000000 1.000000 4.000000 1.000000 -60.708740 114.000000 18.000000 -0.539458 0.838366 -0.078285
5.78000021 1.90999997 -0.56999999 215 173 61 97.000000 1.000000 4.000000 1.000000 -60.708740 114.000000 18.000000 -0.632996 0.739276 -0.229754
5.76999998 1.88999999 -0.55000001 215 173 61 97.000000 1.000000 4.000000 1.000000 -60.708740 114.000000 18.000000 -0.057517 0.972902 -0.223951
5.76999998 1.88000000 -0.57999998 215 173 61 97.000000 1.000000 4.000000 1.000000 -60.708740 114.000000 18.000000 -0.426572 0.736207 -0.525391
5.76999998 1.88000000 -0.58999997 215 173 61 97.000000 1.000000 4.000000 1.000000 -60.708740 114.000000 18.000000 -0.423637 0.780726 -0.459346
5.71999979 1.88999999 -0.56000000 215 173 61 97.000000 1.000000 4.000000 1.000000 -60.708740 114.000000 18.000000 -0.534701 0.844909 -0.014966
5.69999981 1.90999997 -0.52999997 215 173 61 97.000000 1.000000 4.000000 1.000000 -60.708740 114.000000 18.000000 -0.143792 0.965088 0.218926
5.67000008 1.90999997 -0.54000002 215 173 61 97.000000 1.000000 4.000000 1.000000 -60.708740 114.000000 18.000000 0.049315 0.977879 -0.203274
5.67000008 1.90999997 -0.56000000 215 173 61 97.000000 1.000000 4.000000 1.000000 -60.708740 114.000000 18.000000 0.169747 0.984535 0.043315
5.67000008 1.90999997 -0.54000002 215 173 61 97.000000 1.000000 4.000000 1.000000 -60.708740 114.000000 18.000000 0.049315 0.977879 -0.203274
6.26000023 1.84000003 -0.85000002 215 173 61 97.000000 1.000000 4.000000 1.000000 -60.708740 114.000000 18.000000 -0.264339 0.909852 -0.319836
6.26999998 1.84000003 -0.85000002 215 173 61 97.000000 1.000000 4.000000 1.000000 -60.708740 114.000000 18.000000 0.513564 -0.780810 0.355792
6.21999979 1.83000004 -0.83999997 215 173 61 97.000000 1.000000 4.000000 1.000000 -60.708740 114.000000 18.000000 -0.534678 0.645999 -0.544798
6.17000008 1.80999994 -0.72000003 215 173 61 97.000000 1.000000 4.000000 1.000000 -60.708740 114.000000 18.000000 -0.306266 0.844175 -0.439966
6.13000011 1.85000002 -0.75999999 215 173 61 97.000000 1.000000 4.000000 1.000000 -60.708740 114.000000 18.000000 0.739590 -0.643860 0.196092
6.17999983 1.88000000 -0.83999997 215 173 61 97.000000 1.000000 4.000000 1.000000 -60.708740 114.000000 18.000000 -0.260692 0.949567 -0.174245
6.17999983 1.85000002 -0.81000000 215 173 61 97.000000 1.000000 4.000000 1.000000 -60.708740 114.000000 18.000000 -0.283324 0.926855 -0.246307
6.19000006 1.84000003 -0.82999998 215 173 61 97.000000 1.000000 4.000000 1.000000 -60.708740 114.000000 18.000000 0.560340 -0.657937 0.503128
6.19000006 1.82000005 -0.83999997 215 173 61 97.000000 1.000000 4.000000 1.000000 -60.708740 114.000000 18.000000 -0.183061 0.883087 -0.432025
6.15000010 1.86000001 -0.81000000 215 173 61 97.000000 1.000000 4.000000 1.000000 -60.708740 114.000000 18.000000 -0.521483 0.842844 -0.132927
6.17000008 1.84000003 -0.79000002 215 173 61 97.000000 1.000000 4.000000 1.000000 -60.708740 114.000000 18.000000 -0.518561 0.849984 -0.092855
6.28999996 1.88999999 -0.88000000 215 173 61 97.000000 1.000000 4.000000 1.000000 -60.708740 114.000000 18.000000 0.750210 -0.618649 0.233364
6.21999979 1.83000004 -0.88999999 215 173 61 97.000000 1.000000 4.000000 1.000000 -60.708740 114.000000 18.000000 -0.502238 0.757448 -0.417169
6.19999981 1.80999994 -0.86000001 215 173 61 97.000000 1.000000 4.000000 1.000000 -60.708740 114.000000 18.000000 -0.267464 0.808647 -0.523978
6.19999981 1.80999994 -0.88000000 215 173 61 97.000000 1.000000 4.000000 1.000000 -60.708740 114.000000 18.000000 0.641371 -0.735002 0.220033
6.07000017 1.94000006 -0.72000003 215 173 61 97.000000 1.000000 4.000000 1.000000 -60.708740 114.000000 18.000000 -0.624724 0.763887 -0.161853
6.05000019 1.88999999 -0.74000001 215 173 61 97.000000 1.000000 4.000000 1.000000 -60.708740 114.000000 18.000000 0.749687 -0.557793 0.356142
6.07000017 1.87000000 -0.75000000 215 173 61 97.000000 1.000000 4.000000 1.000000 -60.708740 114.000000 18.000000 -0.432644 0.848231 -0.305487
6.05999994 1.86000001 -0.75000000 215 173 61 97.000000 1.000000 4.000000 1.000000 -60.708740 114.000000 18.000000 0.644589 -0.705672 0.294164
6.05000019 1.85000002 -0.75999999 215 173 61 97.000000 1.000000 4.000000 1.000000 -60.708740 114.000000 18.000000 -0.620167 0.772593 -0.135988
6.05000019 1.85000002 -0.75999999 215 173 61 97.000000 1.000000 4.000000 1.000000 -60.708740 114.000000 18.000000 -0.620167 0.772593 -0.135988
6.05000019 1.85000002 -0.75999999 215 173 61 97.000000 1.000000 4.000000 1.000000 -60.708740 114.000000 18.000000 -0.620167 0.772593 -0.135988
6.09999990 1.85000002 -0.80000001 215 173 61 97.000000 1.000000 4.000000 1.000000 -60.708740 114.000000 18.000000 -0.425169 0.713026 -0.557517
6.11000013 1.83000004 -0.77999997 215 173 61 97.000000 1.000000 4.000000 1.000000 -60.708740 114.000000 18.000000 0.723620 -0.562083 0.400546
6.03999996 1.89999998 -0.73000002 215 173 61 97.000000 1.000000 4.000000 1.000000 -60.708740 114.000000 18.000000 0.735072 -0.558262 0.384726
6.03000021 1.87000000 -0.70999998 215 173 61 97.000000 1.000000 4.000000 1.000000 -60.708740 114.000000 18.000000 0.768255 -0.535353 0.350971
5.96999979 1.86000001 -0.70999998 215 173 61 97.000000 1.000000 4.000000 1.000000 -60.708740 114.000000 18.000000 0.212609 -0.740252 0.637827
5.96999979 1.86000001 -0.73000002 215 173 61 97.000000 1.000000 4.000000 1.000000 -60.708740 114.000000 18.000000 -0.082734 0.989318 -0.120023
5.96999979 1.87000000 -0.69999999 215 173 61 97.000000 1.000000 4.000000 1.000000 -60.708740 114.000000 18.000000 -0.188063 0.951138 -0.244887
5.98000002 1.86000001 -0.72000003 215 173 61 97.000000 1.000000 4.000000 1.000000 -60.708740 114.000000 18.000000 -0.132437 0.982947 -0.127577
6.11999989 1.78999996 -0.73000002 215 173 61 97.000000 1.000000 4.000000 1.000000 -60.708740 114.000000 18.000000 -0.360870 0.875529 -0.321281
6.05000019 1.79999995 -0.81000000 215 173 61 97.000000 1.000000 4.000000 1.000000 -60.708740 114.000000 18.000000 -0.559127 0.692650 -0.455647
5.96000004 1.87000000 -0.69999999 215 173 61 97.000000 1.000000 4.000000 1.000000 -60.708740 114.000000 18.000000 -0.296175 0.819573 -0.490490
5.96000004 1.86000001 -0.72000003 215 173 61 97.000000 1.000000 4.000000 1.000000 -60.708740 114.000000 18.000000 -0.200127 0.979568 0.019896
5.96000004 1.87000000 -0.69999999 215 173 61 97.000000 1.000000 4.000000 1.000000 -60.708740 114.000000 18.000000 -0.296175 0.819573 -0.490490
5.86000013 1.89999998 -0.72000003 215 173 61 97.000000 1.000000 4.000000 1.000000 -60.708740 114.000000 18.000000 0.155168 0.987326 0.033332
5.13000011 2.41000009 -0.47000000 215 173 61 97.000000 1.000000 4.000000 1.000000 -60.708740 114.000000 18.000000 0.655793 -0.727109 0.203094
5.13999987 2.41000009 -0.47000000 215 173 61 97.000000 1.000000 4.000000 1.000000 -60.708740 114.000000 18.000000 -0.165128 0.875324 -0.454467
5.13000011 2.34999990 -0.44999999 215 173 61 97.000000 1.000000 4.000000 1.000000 -60.708740 114.000000 18.000000 0.424696 -0.611230 0.667856
5.09999990 2.41000009 -0.44999999 215 173 61 97.000000 1.000000 4.000000 1.000000 -60.708740 114.000000 18.000000 -0.163346 0.857937 -0.487096
5.09000015 2.40000010 -0.44999999 215 173 61 97.000000 1.000000 4.000000 1.000000 -60.708740 114.000000 18.000000 -0.427684 0.828539 -0.361401
5.09999990 2.38000011 -0.38999999 215 173 61 97.000000 1.000000 4.000000 1.000000 -60.708740 114.000000 18.000000 0.665714 -0.384892 0.639284
5.03999996 2.33999991 -0.38000000 215 173 61 97.000000 1.000000 4.000000 1.000000 -60.708740 114.000000 18.000000 0.755486 -0.284699 0.590074
5.05999994 2.32999992 -0.41000000 215 173 61 97.000000 1.000000 4.000000 1.000000 -60.708740 114.000000 18.000000 0.601974 -0.321160 0.731084
5.03000021 2.31999993 -0.38000000 215 173 61 97.000000 1.000000 4.000000 1.000000 -60.708740 114.000000 18.000000 -0.545668 0.552426 -0.630137
5.46000004 2.00000000 -0.34999999 215 173 61 97.000000 1.000000 4.000000 1.000000 -60.708740 114.000000 18.000000 0.079565 0.993998 0.075082
5.42000008 1.99000001 -0.30000001 215 173 61 97.000000 1.000000 4.000000 1.000000 -60.708740 114.000000 18.000000 0.181701 0.977725 0.105065
5.40999985 2.00999999 -0.34000000 215 173 61 97.000000 1.000000 4.000000 1.000000 -60.708740 114.000000 18.000000 0.324797 0.883751 0.336883
5.36999989 2.00000000 -0.34000000 215 173 61 97.000000 1.000000 4.000000 1.000000 -60.708740 114.000000 18.000000 -0.107558 0.859028 0.500502
5.34999990 2.00000000 -0.34000000 215 173 61 97.000000 1.000000 4.000000 1.000000 -60.708740 114.000000 18.000000 0.188526 0.981953 0.015036
5.30000019 2.02999997 -0.30000001 215 173 61 97.000000 1.000000 4.000000 1.000000 -60.708740 114.000000 18.000000 0.387616 0.631732 0.671318
5.30000019 2.01999998 -0.33000001 215 173 61 97.000000 1.000000 4.000000 1.000000 -60.708740 114.000000 18.000000 0.239040 0.851103 0.467422
5.30999994 2.00000000 -0.31000000 215 173 61 97.000000 1.000000 4.000000 1.000000 -60.708740 114.000000 18.000000 -0.060651 0.948474 0.310996
5.30999994 2.00000000 -0.31000000 215 173 61 97.000000 1.000000 4.000000 1.000000 -60.708740 114.000000 18.000000 -0.060651 0.948474 0.310996
5.59000015 1.98000002 -0.41999999 215 173 61 97.000000 1.000000 4.000000 1.000000 -60.708740 114.000000 18.000000 -0.627623 0.776308 -0.058616
5.46000004 2.03999996 -0.38999999 215 173 61 97.000000 1.000000 4.000000 1.000000 -60.708740 114.000000 18.000000 -0.143840 0.898642 0.414429
5.46999979 2.00000000 -0.38999999 215 173 61 97.000000 1.000000 4.000000 1.000000 -60.708740 114.000000 18.000000 0.364399 0.920073 0.143805
5.46000004 2.00999999 -0.38999999 215 173 61 97.000000 1.000000 4.000000 1.000000 -60.708740 114.000000 18.000000 0.139227 0.990185 0.012252
5.46000004 2.00999999 -0.38999999 215 173 61 97.000000 1.000000 4.000000 1.000000 -60.708740 114.000000 18.000000 0.139227 0.990185 0.012252
5.46000004 2.00999999 -0.40000001 215 173 61 97.000000 1.000000 4.000000 1.000000 -60.708740 114.000000 18.000000 0.124971 0.964986 0.230617
5.48000002 2.00000000 -0.40000001 215 173 61 97.000000 1.000000 4.000000 1.000000 -60.708740 114.000000 18.000000 0.197644 0.959035 0.202949
5.38000011 2.16000009 -0.41000000 215 173 61 97.000000 1.000000 4.000000 1.000000 -60.708740 114.000000 18.000000 0.335847 -0.538319 0.772929
5.42000008 2.10999990 -0.38000000 215 173 61 97.000000 1.000000 4.000000 1.000000 -60.708740 114.000000 18.000000 0.705958 0.156373 0.690776
5.38000011 2.10999990 -0.37000000 215 173 61 97.000000 1.000000 4.000000 1.000000 -60.708740 114.000000 18.000000 0.705475 0.329222 0.627629
5.40000010 2.06999993 -0.38000000 215 173 61 97.000000 1.000000 4.000000 1.000000 -60.708740 114.000000 18.000000 0.445135 0.757222 0.477986
5.42999983 2.03999996 -0.43000001 215 173 61 97.000000 1.000000 4.000000 1.000000 -60.708740 114.000000 18.000000 0.036715 0.950792 0.307646
5.42000008 2.01999998 -0.47999999 215 173 61 97.000000 1.000000 4.000000 1.000000 -60.708740 114.000000 18.000000 0.686533 0.433862 0.583470
5.44000006 2.05999994 -0.44999999 215 173 61 97.000000 1.000000 4.000000 1.000000 -60.708740 114.000000 18.000000 0.693098 0.462622 0.552808
5.44000006 1.98000002 -0.47000000 215 173 61 97.000000 1.000000 4.000000 1.000000 -60.708740 114.000000 18.000000 0.532914 0.815497 0.225759
5.38999987 2.04999995 -0.51999998 215 173 61 97.000000 1.000000 4.000000 1.000000 -60.708740 114.000000 18.000000 0.522052 0.162119 0.837365
5.40000010 2.03999996 -0.50000000 215 173 61 97.000000 1.000000 4.000000 1.000000 -60.708740 114.000000 18.000000 0.510989 0.759136 0.403240
5.40999985 2.03999996 -0.50999999 215 173 61 97.000000 1.000000 4.000000 1.000000 -60.708740 114.000000 18.000000 0.426678 0.861002 0.276805
5.38000011 2.00999999 -0.50000000 215 173 61 97.000000 1.000000 4.000000 1.000000 -60.708740 114.000000 18.000000 0.480131 0.716043 0.506712
5.32999992 2.08999991 -0.36000001 215 173 61 97.000000 1.000000 4.000000 1.000000 -60.708740 114.000000 18.000000 0.454081 0.133216 0.880945
5.30000019 2.06999993 -0.38000000 215 173 61 97.000000 1.000000 4.000000 1.000000 -60.708740 114.000000 18.000000 0.862456 0.289528 0.415143
5.30000019 2.06999993 -0.38000000 215 173 61 97.000000 1.000000 4.000000 1.000000 -60.708740 114.000000 18.000000 0.862456 0.289528 0.415143
5.32999992 2.13000011 -0.46000001 215 173 61 97.000000 1.000000 4.000000 1.000000 -60.708740 114.000000 18.000000 0.775451 -0.168444 0.608524
5.30000019 2.06999993 -0.44999999 215 173 61 97.000000 1.000000 4.000000 1.000000 -60.708740 114.000000 18.000000 0.712792 0.209645 0.669310
5.30000019 2.09999990 -0.50999999 215 173 61 97.000000 1.000000 4.000000 1.000000 -60.708740 114.000000 18.000000 0.557571 0.112096 0.822526
5.36999989 2.02999997 -0.37000000 215 173 61 97.000000 1.000000 4.000000 1.000000 -60.708740 114.000000 18.000000 0.191761 0.904015 0.382080
5.36999989 2.04999995 -0.51999998 215 173 61 97.000000 1.000000 4.000000 1.000000 -60.708740 114.000000 18.000000 0.667492 0.129915 0.733196
5.34000015 2.02999997 -0.47000000 215 173 61 97.000000 1.000000 4.000000 1.000000 -60.708740 114.000000 18.000000 0.588241 0.779690 0.214608
5.36000013 2.00999999 -0.44000000 215 173 61 97.000000 1.000000 4.000000 1.000000 -60.708740 114.000000 18.000000 0.378995 0.880296 0.285379
5.32000017 2.11999989 -0.54000002 215 173 61 97.000000 1.000000 4.000000 1.000000 -60.708740 114.000000 18.000000 0.440842 0.078771 0.894122
5.32999992 2.13000011 -0.55000001 215 173 61 97.000000 1.000000 4.000000 1.000000 -60.708740 114.000000 18.000000 0.684018 -0.261863 0.680843
5.32999992 2.13000011 -0.55000001 215 173 61 97.000000 1.000000 4.000000 1.000000 -60.708740 114.000000 18.000000 0.684018 -0.261863 0.680843
5.55999994 1.85000002 -0.25999999 215 173 61 97.000000 1.000000 4.000000 1.000000 -60.708740 114.000000 18.000000 -0.339955 0.862964 -0.373797
5.55000019 1.86000001 -0.33000001 215 173 61 97.000000 1.000000 4.000000 1.000000 -60.708740 114.000000 18.000000 -0.614145 0.788411 -0.035134
5.50000000 1.95000005 -0.33000001 215 173 61 97.000000 1.000000 4.000000 1.000000 -60.708740 114.000000 18.000000 -0.413413 0.910037 0.030379
5.46000004 1.90999997 -0.31000000 215 173 61 97.000000 1.000000 4.000000 1.000000 -60.708740 114.000000 18.000000 -0.103476 0.994460 0.018517
5.48000002 1.90999997 -0.34999999 215 173 61 97.000000 1.000000 4.000000 1.000000 -60.708740 114.000000 18.000000 -0.358863 0.926494 -0.113253
5.48999977 1.88999999 -0.30000001 215 173 61 97.000000 1.000000 4.000000 1.000000 -60.708740 114.000000 18.000000 -0.540053 0.782201 -0.310650
5.46999979 1.86000001 -0.31999999 215 173 61 97.000000 1.000000 4.000000 1.000000 -60.708740 114.000000 18.000000 -0.019722 0.982642 -0.184463
5.50000000 1.88000000 -0.34999999 215 173 61 97.000000 1.000000 4.000000 1.000000 -60.708740 114.000000 18.000000 -0.240908 0.836272 -0.492557
5.48000002 1.79999995 -0.33000001 215 173 61 97.000000 1.000000 4.000000 1.000000 -60.708740 114.000000 18.000000 -0.248571 0.933898 0.256997
5.46000004 1.66999996 -0.31000000 215 173 61 97.000000 1.000000 4.000000 1.000000 -60.708740 114.000000 18.000000 -0.267171 0.917045 0.296054
5.30000019 1.90999997 -0.13000000 215 173 61 97.000000 1.000000 4.000000 1.000000 -60.708740 114.000000 18.000000 -0.174693 0.949301 -0.261362
5.36999989 1.86000001 -0.05000000 215 173 61 97.000000 1.000000 4.000000 1.000000 -60.708740 114.000000 18.000000 -0.249480 0.813521 -0.525302
5.34999990 1.85000002 -0.04000000 215 173 61 97.000000 1.000000 4.000000 1.000000 -60.708740 114.000000 18.000000 -0.386517 0.860808 -0.331080
5.30999994 1.87000000 -0.10000000 215 173 61 97.000000 1.000000 4.000000 1.000000 -60.708740 114.000000 18.000000 -0.090416 0.982516 -0.162748
5.30999994 1.87000000 -0.09000000 215 173 61 97.000000 1.000000 4.000000 1.000000 -60.708740 114.000000 18.000000 -0.236662 0.963460 0.125444
5.34000015 1.83000004 -0.11000000 215 173 61 97.000000 1.000000 4.000000 1.000000 -60.708740 114.000000 18.000000 -0.075854 0.992893 -0.091704
5.30000019 1.82000005 -0.11000000 215 173 61 97.000000 1.000000 4.000000 1.000000 -60.708740 114.000000 18.000000 0.055403 0.998306 -0.017771
5.40999985 1.94000006 -0.31999999 215 173 61 97.000000 1.000000 4.000000 1.000000 -60.708740 114.000000 18.000000 -0.432930 0.895282 -0.105080
5.38000011 1.92999995 -0.30000001 215 173 61 97.000000 1.000000 4.000000 1.000000 -60.708740 114.000000 18.000000 0.000978 0.999999 0.000978
5.38999987 1.89999998 -0.30000001 215 173 61 97.000000 1.000000 4.000000 1.000000 -60.708740 114.000000 18.000000 -0.262034 0.953698 -0.147644
5.40000010 1.89999998 -0.31000000 215 173 61 97.000000 1.000000 4.000000 1.000000 -60.708740 114.000000 18.000000 0.022907 0.970523 -0.239918
5.38000011 1.92999995 -0.30000001 215 173 61 97.000000 1.000000 4.000000 1.000000 -60.708740 114.000000 18.000000 0.000978 0.999999 0.000978
5.40999985 1.90999997 -0.31000000 215 173 61 97.000000 1.000000 4.000000 1.000000 -60.708740 114.000000 18.000000 -0.415631 0.909111 -0.027709
5.42999983 1.86000001 -0.34000000 215 173 61 97.000000 1.000000 4.000000 1.000000 -60.708740 114.000000 18.000000 0.205929 0.954272 0.216697
5.38999987 1.88999999 -0.33000001 215 173 61 97.000000 1.000000 4.000000 1.000000 -60.708740 114.000000 18.000000 -0.078349 0.988130 0.132140
5.40999985 1.84000003 -0.31000000 215 173 61 97.000000 1.000000 4.000000 1.000000 -60.708740 114.000000 18.000000 0.018458 0.958573 -0.284249
5.38000011 1.80999994 -0.34999999 215 173 61 97.000000 1.000000 4.000000 1.000000 -60.708740 114.000000 18.000000 0.439626 0.889211 0.126624
5.34999990 1.90999997 -0.25000000 215 173 61 97.000000 1.000000 4.000000 1.000000 -60.708740 114.000000 18.000000 -0.240779 0.966898 -0.084462
5.32999992 1.96000004 -0.25999999 215 173 61 97.000000 1.000000 4.000000 1.000000 -60.708740 114.000000 18.000000 0.131667 0.899016 0.417653
5.30000019 1.94000006 -0.27000001 215 173 61 97.000000 1.000000 4.000000 1.000000 -60.708740 114.000000 18.000000 0.160924 0.848911 0.503441
5.30999994 1.91999996 -0.20999999 215 173 61 97.000000 1.000000 4.000000 1.000000 -60.708740 114.000000 18.000000 0.116480 0.966404 0.229121
5.34999990 1.91999996 -0.28999999 215 173 61 97.000000 1.000000 4.000000 1.000000 -60.708740 114.000000 18.000000 0.106133 0.936392 0.334522
5.34000015 1.91999996 -0.31999999 215 173 61 97.000000 1.000000 4.000000 1.000000 -60.708740 114.000000 18.000000 0.206746 0.952651 0.222961
5.32999992 1.96000004 -0.28999999 215 173 61 97.000000 1.000000 4.000000 1.000000 -60.708740 114.000000 18.000000 0.120328 0.916983 0.380347
5.30000019 1.94000006 -0.31000000 215 173 61 97.000000 1.000000 4.000000 1.000000 -60.708740 114.000000 18.000000 -0.021069 0.992445 0.120868
5.32000017 1.94000006 -0.31000000 215 173 61 97.000000 1.000000 4.000000 1.000000 -60.708740 114.000000 18.000000 0.330820 0.787895 0.519403
5.32999992 1.89999998 -0.30000001 215 173 61 97.000000 1.000000 4.000000 1.000000 -60.708740 114.000000 18.000000 0.006742 0.856281 0.516466
5.30999994 1.90999997 -0.33000001 215 173 61 97.000000 1.000000 4.000000 1.000000 -60.708740 114.000000 18.000000 0.299990 0.893999 0.332824
5.34999990 1.88999999 -0.34000000 215 173 61 97.000000 1.000000 4.000000 1.000000 -60.708740 114.000000 18.000000 0.091515 0.990452 0.103100
5.30999994 1.84000003 -0.31000000 215 173 61 97.000000 1.000000 4.000000 1.000000 -60.708740 114.000000 18.000000 0.297599 0.952058 -0.070857
5.38000011 1.79999995 -0.18000001 215 173 61 97.000000 1.000000 4.000000 1.000000 -60.708740 114.000000 18.000000 -0.166977 0.966914 0.192865
5.36000013 1.75999999 -0.10000000 215 173 61 97.000000 1.000000 4.000000 1.000000 -60.708740 114.000000 18.000000 -0.319933 0.947253 0.018820
5.42999983 1.71000004 -0.31000000 215 173 61 97.000000 1.000000 4.000000 1.000000 -60.708740 114.000000 18.000000 -0.063737 0.943049 -0.326490
5.40000010 1.65999997 -0.34999999 215 173 61 97.000000 1.000000 4.000000 1.000000 -60.708740 114.000000 18.000000 -0.276739 0.959108 0.059391
5.34999990 1.77999997 -0.30000001 215 173 61 97.000000 1.000000 4.000000 1.000000 -60.708740 114.000000 18.000000 0.278023 0.951132 -0.134356
5.34999990 1.77999997 -0.31000000 215 173 61 97.000000 1.000000 4.000000 1.000000 -60.708740 114.000000 18.000000 0.356045 0.913705 -0.195896
5.36000013 1.77999997 -0.31999999 215 173 61 97.000000 1.000000 4.000000 1.000000 -60.708740 114.000000 18.000000 0.102621 0.994206 -0.032000
5.57999992 1.96000004 -0.43000001 215 173 61 97.000000 1.000000 4.000000 1.000000 -60.708740 114.000000 18.000000 -0.173907 0.963680 0.202674
5.55000019 1.89999998 -0.43000001 215 173 61 97.000000 1.000000 4.000000 1.000000 -60.708740 114.000000 18.000000 0.070018 0.974108 -0.214967
5.61000013 1.89999998 -0.49000001 215 173 61 97.000000 1.000000 4.000000 1.000000 -60.708740 114.000000 18.000000 -0.092641 0.965746 0.242388
5.59999990 1.92999995 -0.50000000 215 173 61 97.000000 1.000000 4.000000 1.000000 -60.708740 114.000000 18.000000 0.249592 0.968224 0.015675
5.55000019 1.90999997 -0.47999999 215 173 61 97.000000 1.000000 4.000000 1.000000 -60.708740 114.000000 18.000000 0.326121 0.918025 0.225555
5.57000017 1.88999999 -0.41999999 215 173 61 97.000000 1.000000 4.000000 1.000000 -60.708740 114.000000 18.000000 -0.387807 0.919196 -0.068437
5.59000015 1.88999999 -0.47000000 215 173 61 97.000000 1.000000 4.000000 1.000000 -60.708740 114.000000 18.000000 -0.231027 0.971779 0.047672
5.59999990 1.88999999 -0.46000001 215 173 61 97.000000 1.000000 4.000000 1.000000 -60.708740 114.000000 18.000000 -0.297441 0.934216 0.196898
5.57999992 1.88999999 -0.47999999 215 173 61 97.000000 1.000000 4.000000 1.000000 -60.708740 114.000000 18.000000 -0.131527 0.969214 -0.208145
5.55999994 1.85000002 -0.47999999 215 173 61 97.000000 1.000000 4.000000 1.000000 -60.708740 114.000000 18.000000 -0.049199 0.977984 0.202797
5.51000023 1.90999997 -0.38999999 215 173 61 97.000000 1.000000 4.000000 1.000000 -60.708740 114.000000 18.000000 -0.199666 0.979863 0.001154
5.53000021 1.90999997 -0.41000000 215 173 61 97.000000 1.000000 4.000000 1.000000 -60.708740 114.000000 18.000000 -0.186046 0.918868 -0.347949
5.46999979 1.96000004 -0.38999999 215 173 61 97.000000 1.000000 4.000000 1.000000 -60.708740 114.000000 18.000000 0.306699 0.950641 0.047087
5.46000004 1.95000005 -0.36000001 215 173 61 97.000000 1.000000 4.000000 1.000000 -60.708740 114.000000 18.000000 0.200800 0.952789 0.227753
5.48999977 1.89999998 -0.38999999 215 173 61 97.000000 1.000000 4.000000 1.000000 -60.708740 114.000000 18.000000 -0.105746 0.918752 0.380410
5.51000023 1.91999996 -0.44000000 215 173 61 97.000000 1.000000 4.000000 1.000000 -60.708740 114.000000 18.000000 -0.149154 0.979978 -0.131896
5.51000023 1.88999999 -0.38999999 215 173 61 97.000000 1.000000 4.000000 1.000000 -60.708740 114.000000 18.000000 -0.261805 0.915594 -0.305198
5.53000021 1.88999999 -0.44000000 215 173 61 97.000000 1.000000 4.000000 1.000000 -60.708740 114.000000 18.000000 -0.115253 0.912300 -0.392970
5.44999981 1.89999998 -0.38000000 215 173 61 97.000000 1.000000 4.000000 1.000000 -60.708740 114.000000 18.000000 0.181969 0.982631 0.036394
5.44999981 1.89999998 -0.38000000 215 173 61 97.000000 1.000000 4.000000 1.000000 -60.708740 114.000000 18.000000 0.181969 0.982631 0.036394
5.44999981 1.89999998 -0.38999999 215 173 61 97.000000 1.000000 4.000000 1.000000 -60.708740 114.000000 18.000000 0.282159 0.957824 0.054407
5.44999981 1.89999998 -0.37000000 215 173 61 97.000000 1.000000 4.000000 1.000000 -60.708740 114.000000 18.000000 0.139019 0.954597 0.263474
5.44000006 1.89999998 -0.38999999 215 173 61 97.000000 1.000000 4.000000 1.000000 -60.708740 114.000000 18.000000 0.112237 0.991998 0.057819
5.38999987 1.92999995 -0.38000000 215 173 61 97.000000 1.000000 4.000000 1.000000 -60.708740 114.000000 18.000000 0.133002 0.846243 0.515930
5.38000011 1.87000000 -0.37000000 215 173 61 97.000000 1.000000 4.000000 1.000000 -60.708740 114.000000 18.000000 -0.050292 0.993543 -0.101701
5.36999989 1.92999995 -0.38999999 215 173 61 97.000000 1.000000 4.000000 1.000000 -60.708740 114.000000 18.000000 0.330779 0.794190 0.509752
5.36000013 1.94000006 -0.38000000 215 173 61 97.000000 1.000000 4.000000 1.000000 -60.708740 114.000000 18.000000 0.164375 0.845568 0.507933
5.36000013 1.95000005 -0.41000000 215 173 61 97.000000 1.000000 4.000000 1.000000 -60.708740 114.000000 18.000000 0.323076 0.894786 0.308188
5.34000015 1.86000001 -0.38000000 215 173 61 97.000000 1.000000 4.000000 1.000000 -60.708740 114.000000 18.000000 0.255508 0.936863 0.238753
5.42999983 1.70000005 -0.37000000 215 173 61 97.000000 1.000000 4.000000 1.000000 -60.708740 114.000000 18.000000 0.020623 0.995318 -0.094430
5.44000006 1.65999997 -0.36000001 215 173 61 97.000000 1.000000 4.000000 1.000000 -60.708740 114.000000 18.000000 -0.432915 0.901357 0.011843
5.25000000 2.17000008 -0.33000001 215 173 61 97.000000 1.000000 4.000000 1.000000 -60.708740 114.000000 18.000000 0.803989 -0.425264 0.415635
5.19999981 2.15000010 -0.25999999 215 173 61 97.000000 1.000000 4.000000 1.000000 -60.708740 114.000000 18.000000 0.515236 -0.208222 0.831369
5.19999981 2.17000008 -0.31000000 215 173 61 97.000000 1.000000 4.000000 1.000000 -60.708740 114.000000 18.000000 0.374770 -0.412721 0.830186
5.21999979 2.06999993 -0.18000001 215 173 61 97.000000 1.000000 4.000000 1.000000 -60.708740 114.000000 18.000000 0.461232 0.759966 0.457949
5.26999998 2.00999999 -0.10000000 215 173 61 97.000000 1.000000 4.000000 1.000000 -60.708740 114.000000 18.000000 -0.506305 0.843841 -0.177729
5.25000000 1.99000001 -0.10000000 215 173 61 97.000000 1.000000 4.000000 1.000000 -60.708740 114.000000 18.000000 -0.139440 0.989685 -0.032876
5.23999977 1.98000002 -0.07000000 215 173 61 97.000000 1.000000 4.000000 1.000000 -60.708740 114.000000 18.000000 -0.454815 0.801953 -0.387316
5.19000006 2.08999991 -0.12000000 215 173 61 97.000000 1.000000 4.000000 1.000000 -60.708740 114.000000 18.000000 0.548896 0.545519 0.633342
5.13000011 2.10999990 -0.11000000 215 173 61 97.000000 1.000000 4.000000 1.000000 -60.708740 114.000000 18.000000 0.942363 -0.013877 0.334305
5.15999985 2.09999990 -0.14000000 215 173 61 97.000000 1.000000 4.000000 1.000000 -60.708740 114.000000 18.000000 0.483080 0.361106 0.797644
5.15999985 2.09999990 -0.14000000 215 173 61 97.000000 1.000000 4.000000 1.000000 -60.708740 114.000000 18.000000 0.483080 0.361106 0.797644
5.15999985 2.09999990 -0.14000000 215 173 61 97.000000 1.000000 4.000000 1.000000 -60.708740 114.000000 18.000000 0.483080 0.361106 0.797644
5.17000008 2.04999995 -0.15000001 215 173 61 97.000000 1.000000 4.000000 1.000000 -60.708740 114.000000 18.000000 0.705666 0.593812 0.386553
5.17000008 2.02999997 -0.18000001 215 173 61 97.000000 1.000000 4.000000 1.000000 -60.708740 114.000000 18.000000 0.481233 0.771605 0.415981
5.15999985 2.03999996 -0.14000000 215 173 61 97.000000 1.000000 4.000000 1.000000 -60.708740 114.000000 18.000000 0.445974 0.525553 0.724501
5.15999985 2.02999997 -0.17000000 215 173 61 97.000000 1.000000 4.000000 1.000000 -60.708740 114.000000 18.000000 0.564540 0.451299 0.691103
5.25000000 2.09999990 -0.22000000 215 173 61 97.000000 1.000000 4.000000 1.000000 -60.708740 114.000000 18.000000 0.792409 0.180992 0.582520
5.21000004 2.07999992 -0.20999999 215 173 61 97.000000 1.000000 4.000000 1.000000 -60.708740 114.000000 18.000000 0.664686 0.152923 0.731305
5.21000004 2.09999990 -0.20999999 215 173 61 97.000000 1.000000 4.000000 1.000000 -60.708740 114.000000 18.000000 0.552935 0.395423 0.733419
5.23000002 2.04999995 -0.22000000 215 173 61 97.000000 1.000000 4.000000 1.000000 -60.708740 114.000000 18.000000 0.607527 0.654389 0.450206
5.23000002 1.99000001 -0.20000000 215 173 61 97.000000 1.000000 4.000000 1.000000 -60.708740 114.000000 18.000000 0.379080 0.925363 -0.001276
5.21000004 2.00999999 -0.27000001 215 173 61 97.000000 1.000000 4.000000 1.000000 -60.708740 114.000000 18.000000 0.169090 0.638278 0.751005
5.26000023 2.05999994 -0.28999999 215 173 61 97.000000 1.000000 4.000000 1.000000 -60.708740 114.000000 18.000000 0.645433 0.233989 0.727094
5.25000000 2.02999997 -0.31999999 215 173 61 97.000000 1.000000 4.000000 1.000000 -60.708740 114.000000 18.000000 0.152979 0.725515 0.670988
5.26000023 2.00000000 -0.31000000 215 173 61 97.000000 1.000000 4.000000 1.000000 -60.708740 114.000000 18.000000 0.567457 0.638178 0.520309
5.21999979 2.01999998 -0.31000000 215 173 61 97.000000 1.000000 4.000000 1.000000 -60.708740 114.000000 18.000000 0.754401 0.636004 0.162416
5.23999977 2.04999995 -0.31999999 215 173 61 97.000000 1.000000 4.000000 1.000000 -60.708740 114.000000 18.000000 0.378390 0.481440 0.790593
5.23999977 2.04999995 -0.31999999 215 173 61 97.000000 1.000000 4.000000 1.000000 -60.708740 114.000000 18.000000 0.378390 0.481440 0.790593
5.17000008 2.14000010 -0.23999999 215 173 61 97.000000 1.000000 4.000000 1.000000 -60.708740 114.000000 18.000000 0.760983 0.253661 0.597127
5.19000006 2.10999990 -0.22000000 215 173 61 97.000000 1.000000 4.000000 1.000000 -60.708740 114.000000 18.000000 0.629320 0.478283 0.612538
5.17000008 2.05999994 -0.20000000 215 173 61 97.000000 1.000000 4.000000 1.000000 -60.708740 114.000000 18.000000 0.562642 0.502179 0.656696
5.17999983 2.00000000 -0.20000000 215 173 61 97.000000 1.000000 4.000000 1.000000 -60.708740 114.000000 18.000000 0.247797 0.730765 0.636065
5.17999983 1.99000001 -0.19000000 215 173 61 97.000000 1.000000 4.000000 1.000000 -60.708740 114.000000 18.000000 0.196825 0.909420 0.366354
5.13000011 2.01999998 -0.20999999 215 173 61 97.000000 1.000000 4.000000 1.000000 -60.708740 114.000000 18.000000 0.441425 0.694619 0.568022
5.13000011 2.01999998 -0.20999999 215 173 61 97.000000 1.000000 4.000000 1.000000 -60.708740 114.000000 18.000000 0.441425 0.694619 0.568022
5.13999987 2.01999998 -0.25999999 215 173 61 97.000000 1.000000 4.000000 1.000000 -60.708740 114.000000 18.000000 0.485368 0.633161 0.602931
5.15999985 2.03999996 -0.28999999 215 173 61 97.000000 1.000000 4.000000 1.000000 -60.708740 114.000000 18.000000 0.361855 0.431382 0.826420
5.15999985 2.04999995 -0.28999999 215 173 61 97.000000 1.000000 4.000000 1.000000 -60.708740 114.000000 18.000000 0.598391 0.103877 0.794441
5.19000006 1.99000001 -0.31000000 215 173 61 97.000000 1.000000 4.000000 1.000000 -60.708740 114.000000 18.000000 0.488119 0.368908 0.790978
5.15000010 2.03999996 -0.28000000 215 173 61 97.000000 1.000000 4.000000 1.000000 -60.708740 114.000000 18.000000 0.818325 0.103199 0.565415
5.07999992 2.20000005 -0.19000000 215 173 61 97.000000 1.000000 4.000000 1.000000 -60.708740 114.000000 18.000000 0.630782 -0.647425 0.427733
5.03000021 2.22000003 -0.34999999 215 173 61 97.000000 1.000000 4.000000 1.000000 -60.708740 114.000000 18.000000 0.818855 -0.246121 0.518557
5.09999990 2.06999993 -0.07000000 215 173 61 97.000000 1.000000 4.000000 1.000000 -60.708740 114.000000 18.000000 0.234267 0.665066 0.709089
5.07999992 2.11999989 -0.07000000 215 173 61 97.000000 1.000000 4.000000 1.000000 -60.708740 114.000000 18.000000 0.512009 -0.177636 0.840412
5.03999996 2.08999991 -0.07000000 215 173 61 97.000000 1.000000 4.000000 1.000000 -60.708740 114.000000 18.000000 0.412462 0.264399 0.871761
5.07999992 2.06999993 -0.03000000 215 173 61 97.000000 1.000000 4.000000 1.000000 -60.708740 114.000000 18.000000 0.387258 0.614669 0.687177
5.07000017 2.06999993 -0.14000000 215 173 61 97.000000 1.000000 4.000000 1.000000 -60.708740 114.000000 18.000000 0.438095 0.253155 0.862546
5.09000015 2.08999991 -0.15000001 215 173 61 97.000000 1.000000 4.000000 1.000000 -60.708740 114.000000 18.000000 0.650548 0.233570 0.722657
5.07999992 2.05999994 -0.06000000 215 173 61 97.000000 1.000000 4.000000 1.000000 -60.708740 114.000000 18.000000 0.659480 0.366743 0.656191
5.03999996 2.04999995 -0.03000000 215 173 61 97.000000 1.000000 4.000000 1.000000 -60.708740 114.000000 18.000000 0.311661 0.778354 0.545007
5.05000019 1.98000002 -0.04000000 215 173 61 97.000000 1.000000 4.000000 1.000000 -60.708740 114.000000 18.000000 0.193276 0.877857 0.438191
5.03999996 2.00000000 -0.16000000 215 173 61 97.000000 1.000000 4.000000 1.000000 -60.708740 114.000000 18.000000 0.313091 0.839581 0.443934
4.98999977 2.08999991 -0.06000000 215 173 61 97.000000 1.000000 4.000000 1.000000 -60.708740 114.000000 18.000000 0.871368 0.235464 0.430435
5.03000021 2.06999993 -0.07000000 215 173 61 97.000000 1.000000 4.000000 1.000000 -60.708740 114.000000 18.000000 0.474324 0.287705 0.832011
5.03000021 2.07999992 -0.07000000 215 173 61 97.000000 1.000000 4.000000 1.000000 -60.708740 114.000000 18.000000 0.578325 0.252332 0.775802
4.98000002 2.11999989 -0.05000000 215 173 61 97.000000 1.000000 4.000000 1.000000 -60.708740 114.000000 18.000000 0.816466 -0.169909 0.551829
5.01999998 2.05999994 -0.11000000 215 173 61 97.000000 1.000000 4.000000 1.000000 -60.708740 114.000000 18.000000 0.550877 0.199903 0.810292
4.96000004 2.01999998 -0.12000000 215 173 61 97.000000 1.000000 4.000000 1.000000 -60.708740 114.000000 18.000000 0.369941 0.333100 0.867288
4.96000004 1.98000002 -0.13000000 215 173 61 97.000000 1.000000 4.000000 1.000000 -60.708740 114.000000 18.000000 0.831183 0.450944 0.325245
4.98999977 1.98000002 -0.13000000 215 173 61 97.000000 1.000000 4.000000 1.000000 -60.708740 114.000000 18.000000 0.800220 0.400915 0.445998
4.96000004 1.99000001 -0.14000000 215 173 61 97.000000 1.000000 4.000000 1.000000 -60.708740 114.000000 18.000000 0.734180 0.292712 0.612617
4.98999977 1.98000002 -0.12000000 215 173 61 97.000000 1.000000 4.000000 1.000000 -60.708740 114.000000 18.000000 0.487025 0.389944 0.781505
5.09000015 1.99000001 -0.23000000 215 173 61 97.000000 1.000000 4.000000 1.000000 -60.708740 114.000000 18.000000 0.601629 0.470913 0.645201
5.07000017 1.99000001 -0.22000000 215 173 61 97.000000 1.000000 4.000000 1.000000 -60.708740 114.000000 18.000000 0.613974 0.650779 0.446679
5.09000015 2.00000000 -0.23999999 215 173 61 97.000000 1.000000 4.000000 1.000000 -60.708740 114.000000 18.000000 0.496060 0.482788 0.721693
5.11999989 2.03999996 -0.23000000 215 173 61 97.000000 1.000000 4.000000 1.000000 -60.708740 114.000000 18.000000 0.393803 0.591528 0.703572
5.07000017 1.98000002 -0.20000000 215 173 61 97.000000 1.000000 4.000000 1.000000 -60.708740 114.000000 18.000000 0.538831 0.666405 0.515331
5.21999979 2.20000005 -0.50000000 215 173 61 97.000000 1.000000 4.000000 1.000000 -60.708740 114.000000 18.000000 0.560463 -0.301788 0.771236
5.23999977 2.20000005 -0.51999998 215 173 61 97.000000 1.000000 4.000000 1.000000 -60.708740 114.000000 18.000000 -0.887449 0.061724 -0.456755
5.17000008 2.30999994 -0.41000000 215 173 61 97.000000 1.000000 4.000000 1.000000 -60.708740 114.000000 18.000000 -0.230261 0.712712 -0.662587
5.19000006 2.25000000 -0.44999999 215 173 61 97.000000 1.000000 4.000000 1.000000 -60.708740 114.000000 18.000000 0.546152 -0.420751 0.724352
5.19999981 2.18000007 -0.38999999 215 173 61 97.000000 1.000000 4.000000 1.000000 -60.708740 114.000000 18.000000 0.831603 0.105577 0.545242
5.15999985 2.19000006 -0.40000001 215 173 61 97.000000 1.000000 4.000000 1.000000 -60.708740 114.000000 18.000000 0.776175 0.061465 0.627515
5.15000010 2.15000010 -0.40000001 215 173 61 97.000000 1.000000 4.000000 1.000000 -60.708740 114.000000 18.000000 0.695510 -0.319383 0.643630
5.13000011 2.21000004 -0.44000000 215 173 61 97.000000 1.000000 4.000000 1.000000 -60.708740 114.000000 18.000000 0.667151 -0.213053 0.713805
5.13000011 2.20000005 -0.44000000 215 173 61 97.000000 1.000000 4.000000 1.000000 -60.708740 114.000000 18.000000 0.534489 -0.541234 0.649143
5.17999983 2.22000003 -0.46000001 215 173 61 97.000000 1.000000 4.000000 1.000000 -60.708740 114.000000 18.000000 0.646168 -0.675614 0.354983
5.21999979 2.24000001 -0.55000001 215 173 61 97.000000 1.000000 4.000000 1.000000 -60.708740 114.000000 18.000000 0.746243 -0.317516 0.585068
5.25000000 2.19000006 -0.56000000 215 173 61 97.000000 1.000000 4.000000 1.000000 -60.708740 114.000000 18.000000 0.663998 -0.202759 0.719719
5.21999979 2.21000004 -0.55000001 215 173 61 97.000000 1.000000 4.000000 1.000000 -60.708740 114.000000 18.000000 0.670902 0.076799 0.737558
5.19999981 2.25999999 -0.60000002 215 173 61 97.000000 1.000000 4.000000 1.000000 -60.708740 114.000000 18.000000 0.704328 0.004151 0.709863
5.19000006 2.21000004 -0.56999999 215 173 61 97.000000 1.000000 4.000000 1.000000 -60.708740 114.000000 18.000000 0.493971 -0.464233 0.735174
5.26999998 2.07999992 -0.37000000 215 173 61 97.000000 1.000000 4.000000 1.000000 -60.708740 114.000000 18.000000 0.393303 0.421964 0.816859
5.26999998 2.05999994 -0.36000001 215 173 61 97.000000 1.000000 4.000000 1.000000 -60.708740 114.000000 18.000000 0.562948 0.620426 0.546042
5.17999983 2.08999991 -0.41000000 215 173 61 97.000000 1.000000 4.000000 1.000000 -60.708740 114.000000 18.000000 0.866191 0.025836 0.499045
5.13000011 2.11999989 -0.36000001 215 173 61 97.000000 1.000000 4.000000 1.000000 -60.708740 114.000000 18.000000 0.553630 -0.051859 0.831146
5.09000015 2.29999995 -0.41000000 215 173 61 97.000000 1.000000 4.000000 1.000000 -60.708740 114.000000 18.000000 0.665691 -0.265323 0.697466
5.05999994 2.29999995 -0.41000000 215 173 61 97.000000 1.000000 4.000000 1.000000 -60.708740 114.000000 18.000000 0.704983 -0.311354 0.637227
5.03999996 2.25999999 -0.38000000 215 173 61 97.000000 1.000000 4.000000 1.000000 -60.708740 114.000000 18.000000 0.813897 -0.290117 0.503393
5.11999989 2.28999996 -0.47999999 215 173 61 97.000000 1.000000 4.000000 1.000000 -60.708740 114.000000 18.000000 0.714418 -0.481274 0.507919
5.11999989 2.26999998 -0.46000001 215 173 61 97.000000 1.000000 4.000000 1.000000 -60.708740 114.000000 18.000000 -0.571720 0.514379 -0.639179
5.09000015 2.24000001 -0.47000000 215 173 61 97.000000 1.000000 4.000000 1.000000 -60.708740 114.000000 18.000000 0.889357 -0.003953 0.457196
5.07000017 2.24000001 -0.44000000 215 173 61 97.000000 1.000000 4.000000 1.000000 -60.708740 114.000000 18.000000 0.701261 -0.023891 0.712504
5.09000015 2.20000005 -0.41000000 215 173 61 97.000000 1.000000 4.000000 1.000000 -60.708740 114.000000 18.000000 0.862780 -0.292701 0.412234
5.11999989 2.18000007 -0.38000000 215 173 61 97.000000 1.000000 4.000000 1.000000 -60.708740 114.000000 18.000000 0.673162 -0.041098 0.738352
5.09999990 2.20000005 -0.44000000 215 173 61 97.000000 1.000000 4.000000 1.000000 -60.708740 114.000000 18.000000 0.582359 -0.134846 0.801670
5.11000013 2.18000007 -0.47999999 215 173 61 97.000000 1.000000 4.000000 1.000000 -60.708740 114.000000 18.000000 0.579271 -0.255884 0.773931
5.11999989 2.15000010 -0.44000000 215 173 61 97.000000 1.000000 4.000000 1.000000 -60.708740 114.000000 18.000000 0.685911 0.076857 0.723615
5.07999992 2.20000005 -0.51999998 215 173 61 97.000000 1.000000 4.000000 1.000000 -60.708740 114.000000 18.000000 0.424026 -0.060962 0.903596
4.96999979 2.23000002 -0.36000001 215 173 61 97.000000 1.000000 4.000000 1.000000 -60.708740 114.000000 18.000000 0.638881 -0.362963 0.678298
4.98999977 2.28999996 -0.38999999 215 173 61 97.000000 1.000000 4.000000 1.000000 -60.708740 114.000000 18.000000 0.486857 -0.680931 0.547087
5.01000023 2.21000004 -0.36000001 215 173 61 97.000000 1.000000 4.000000 1.000000 -60.708740 114.000000 18.000000 0.551057 -0.109048 0.827312
5.03000021 2.18000007 -0.37000000 215 173 61 97.000000 1.000000 4.000000 1.000000 -60.708740 114.000000 18.000000 0.576564 0.118834 0.808364
4.98999977 2.17000008 -0.40000001 215 173 61 97.000000 1.000000 4.000000 1.000000 -60.708740 114.000000 18.000000 0.674087 -0.473367 0.567036
4.98999977 2.19000006 -0.50000000 215 173 61 97.000000 1.000000 4.000000 1.000000 -60.708740 114.000000 18.000000 0.877193 -0.320776 0.357262
4.98000002 2.18000007 -0.49000001 215 173 61 97.000000 1.000000 4.000000 1.000000 -60.708740 114.000000 18.000000 0.833922 0.001356 0.551880
4.98999977 2.18000007 -0.56999999 215 173 61 97.000000 1.000000 4.000000 1.000000 -60.708740 114.000000 18.000000 0.872989 -0.197127 0.446129
5.00000000 2.15000010 -0.57999998 215 173 61 97.000000 1.000000 4.000000 1.000000 -60.708740 114.000000 18.000000 0.833576 0.227895 0.503205
5.00000000 2.17000008 -0.57999998 215 173 61 97.000000 1.000000 4.000000 1.000000 -60.708740 114.000000 18.000000 0.546835 -0.006785 0.837213
5.11000013 2.14000010 -0.38000000 215 173 61 97.000000 1.000000 4.000000 1.000000 -60.708740 114.000000 18.000000 0.874360 -0.100615 0.474733
4.96999979 2.10999990 -0.38999999 215 173 61 97.000000 1.000000 4.000000 1.000000 -60.708740 114.000000 18.000000 0.511241 0.132544 0.849155
4.96000004 2.10999990 -0.41000000 215 173 61 97.000000 1.000000 4.000000 1.000000 -60.708740 114.000000 18.000000 0.775574 -0.101162 0.623098
4.98000002 2.08999991 -0.38999999 215 173 61 97.000000 1.000000 4.000000 1.000000 -60.708740 114.000000 18.000000 0.430834 0.208755 0.877954
4.98999977 2.09999990 -0.41000000 215 173 61 97.000000 1.000000 4.000000 1.000000 -60.708740 114.000000 18.000000 0.624522 -0.347319 0.699530
4.96000004 2.07999992 -0.41000000 215 173 61 97.000000 1.000000 4.000000 1.000000 -60.708740 114.000000 18.000000 0.462396 -0.050468 0.885236
4.96999979 2.08999991 -0.41999999 215 173 61 97.000000 1.000000 4.000000 1.000000 -60.708740 114.000000 18.000000 0.522664 -0.071849 0.849506
4.96000004 2.07999992 -0.41000000 215 173 61 97.000000 1.000000 4.000000 1.000000 -60.708740 114.000000 18.000000 0.462396 -0.050468 0.885236
5.00000000 2.06999993 -0.44000000 215 173 61 97.000000 1.000000 4.000000 1.000000 -60.708740 114.000000 18.000000 0.485227 0.213137 0.848014
4.96000004 2.11999989 -0.44000000 215 173 61 97.000000 1.000000 4.000000 1.000000 -60.708740 114.000000 18.000000 0.441376 0.011858 0.897244
4.98000002 2.10999990 -0.44999999 215 173 61 97.000000 1.000000 4.000000 1.000000 -60.708740 114.000000 18.000000 0.574670 0.063852 0.815890
4.96000004 2.08999991 -0.44999999 215 173 61 97.000000 1.000000 4.000000 1.000000 -60.708740 114.000000 18.000000 0.674572 -0.041184 0.737059
4.96999979 2.09999990 -0.44000000 215 173 61 97.000000 1.000000 4.000000 1.000000 -60.708740 114.000000 18.000000 0.834350 0.273989 0.478320
4.96000004 2.01999998 -0.41999999 215 173 61 97.000000 1.000000 4.000000 1.000000 -60.708740 114.000000 18.000000 0.639492 0.192618 0.744277
4.98999977 2.03999996 -0.41000000 215 173 61 97.000000 1.000000 4.000000 1.000000 -60.708740 114.000000 18.000000 0.807902 0.020786 0.588951
4.96000004 2.00000000 -0.41000000 215 173 61 97.000000 1.000000 4.000000 1.000000 -60.708740 114.000000 18.000000 0.383784 0.278432 0.880446
4.96000004 2.00000000 -0.44999999 215 173 61 97.000000 1.000000 4.000000 1.000000 -60.708740 114.000000 18.000000 0.765798 0.172038 0.619642
5.01000023 2.08999991 -0.62000000 215 173 61 97.000000 1.000000 4.000000 1.000000 -60.708740 114.000000 18.000000 0.810194 0.186269 0.555778
5.00000000 2.03999996 -0.61000001 215 173 61 97.000000 1.000000 4.000000 1.000000 -60.708740 114.000000 18.000000 0.602149 0.239295 0.761679
5.25000000 1.89999998 -0.06000000 215 173 61 97.000000 1.000000 4.000000 1.000000 -60.708740 114.000000 18.000000 -0.007972 0.985072 -0.171960
5.25000000 1.92999995 -0.10000000 215 173 61 97.000000 1.000000 4.000000 1.000000 -60.708740 114.000000 18.000000 0.003802 0.931498 -0.363728
5.21999979 1.97000003 -0.08000000 215 173 61 97.000000 1.000000 4.000000 1.000000 -60.708740 114.000000 18.000000 -0.240718 0.944992 -0.221461
5.21999979 1.90999997 -0.08000000 215 173 61 97.000000 1.000000 4.000000 1.000000 -60.708740 114.000000 18.000000 0.110525 0.982581 0.149391
5.25000000 1.92999995 -0.12000000 215 173 61 97.000000 1.000000 4.000000 1.000000 -60.708740 114.000000 18.000000 0.001156 0.979315 0.202338
5.26000023 1.91999996 -0.15000001 215 173 61 97.000000 1.000000 4.000000 1.000000 -60.708740 114.000000 18.000000 0.297429 0.954510 -0.021156
