//X Y Z R G B PointSourceId ScanDirectionFlag NumberOfReturns ReturnNumber GpsTime Intensity Classification Nx Ny Nz
16.77000046 -14.05000019 0.28000000 131 171 104 0.000000 0.000000 0.000000 0.000000 -60.708740 0.000000 78.000000 -0.238422 0.466213 0.851939
16.78000069 -14.03999996 0.31000000 131 171 104 0.000000 0.000000 0.000000 0.000000 -60.708740 0.000000 78.000000 -0.504884 0.545140 0.669264
16.77000046 -14.03999996 0.30000001 131 171 104 0.000000 0.000000 0.000000 0.000000 -60.708740 0.000000 78.000000 -0.172462 0.476112 0.862308
16.78000069 -14.03999996 0.30000001 131 171 104 0.000000 0.000000 0.000000 0.000000 -60.708740 0.000000 78.000000 -0.163829 0.575657 0.801111
16.76000023 -14.02000046 0.30000001 131 171 104 0.000000 0.000000 0.000000 0.000000 -60.708740 0.000000 78.000000 -0.490532 0.500509 0.713350
16.75000000 -14.02000046 0.30000001 131 171 104 0.000000 0.000000 0.000000 0.000000 -60.708740 0.000000 78.000000 -0.340655 0.833585 0.434845
16.76000023 -14.02999973 0.30000001 131 171 104 0.000000 0.000000 0.000000 0.000000 -60.708740 0.000000 78.000000 -0.252350 0.304262 0.918555
16.77000046 -14.03999996 0.30000001 131 171 104 0.000000 0.000000 0.000000 0.000000 -60.708740 0.000000 78.000000 -0.172462 0.476112 0.862308
16.70999908 -14.00000000 0.25999999 131 171 104 0.000000 0.000000 0.000000 0.000000 -60.708740 0.000000 78.000000 -0.071576 0.509456 0.857515
16.71999931 -14.03999996 0.28999999 131 171 104 0.000000 0.000000 0.000000 0.000000 -60.708740 0.000000 78.000000 -0.515340 0.280383 0.809821
16.71999931 -14.02999973 0.28000000 131 171 104 0.000000 0.000000 0.000000 0.000000 -60.708740 0.000000 78.000000 -0.513701 0.259178 0.817886
16.72999954 -14.02999973 0.30000001 131 171 104 0.000000 0.000000 0.000000 0.000000 -60.708740 0.000000 78.000000 -0.597482 0.674039 0.434381
16.73999977 -14.03999996 0.31000000 131 171 104 0.000000 0.000000 0.000000 0.000000 -60.708740 0.000000 78.000000 -0.174334 0.404859 0.897606
16.73999977 -14.02999973 0.31000000 131 171 104 0.000000 0.000000 0.000000 0.000000 -60.708740 0.000000 78.000000 -0.206017 0.729579 0.652129
16.71999931 -14.02999973 0.25999999 131 171 104 0.000000 0.000000 0.000000 0.000000 -60.708740 0.000000 78.000000 0.395045 -0.465991 -0.791702
16.73999977 -13.98999977 0.23000000 131 171 104 0.000000 0.000000 0.000000 0.000000 -60.708740 0.000000 78.000000 -0.324500 0.088741 0.941714
16.51000023 -14.05000019 0.34999999 131 171 104 0.000000 0.000000 0.000000 0.000000 -60.708740 0.000000 78.000000 -0.499522 0.740216 0.450064
16.46999931 -14.09000015 0.33000001 131 171 104 0.000000 0.000000 0.000000 0.000000 -60.708740 0.000000 78.000000 -0.532007 0.629964 0.565786
16.39999962 -14.03999996 0.33000001 131 171 104 0.000000 0.000000 0.000000 0.000000 -60.708740 0.000000 78.000000 0.078766 0.814866 -0.574273
16.39999962 -14.05000019 0.33000001 131 171 104 0.000000 0.000000 0.000000 0.000000 -60.708740 0.000000 78.000000 -0.376076 -0.312128 0.872435
16.42000008 -14.10999966 0.34000000 131 171 104 0.000000 0.000000 0.000000 0.000000 -60.708740 0.000000 78.000000 0.752163 -0.478948 -0.452614
16.67000008 -13.88000011 0.25999999 131 171 104 0.000000 0.000000 0.000000 0.000000 -60.708740 0.000000 78.000000 -0.340947 -0.169772 0.924626
16.63999939 -13.85000038 0.25000000 131 171 104 0.000000 0.000000 0.000000 0.000000 -60.708740 0.000000 78.000000 -0.149494 -0.460094 0.875194
16.69000053 -13.85000038 0.19000000 131 171 104 0.000000 0.000000 0.000000 0.000000 -60.708740 0.000000 78.000000 -0.335493 -0.097574 0.936976
16.70000076 -13.86999989 0.20999999 131 171 104 0.000000 0.000000 0.000000 0.000000 -60.708740 0.000000 78.000000 -0.340323 0.100886 0.934881
16.63999939 -13.82999992 0.22000000 131 171 104 0.000000 0.000000 0.000000 0.000000 -60.708740 0.000000 78.000000 0.220783 -0.560450 0.798217
16.63999939 -13.84000015 0.22000000 131 171 104 0.000000 0.000000 0.000000 0.000000 -60.708740 0.000000 78.000000 0.199498 -0.268290 0.942455
16.63999939 -13.85999966 0.23000000 131 171 104 0.000000 0.000000 0.000000 0.000000 -60.708740 0.000000 78.000000 0.124266 -0.397932 0.908960
16.64999962 -13.85000038 0.20000000 131 171 104 0.000000 0.000000 0.000000 0.000000 -60.708740 0.000000 78.000000 -0.348188 -0.118794 0.929867
16.65999985 -13.85999966 0.17000000 131 171 104 0.000000 0.000000 0.000000 0.000000 -60.708740 0.000000 78.000000 0.364582 -0.269344 0.891366
16.69000053 -13.90999985 0.23999999 131 171 104 0.000000 0.000000 0.000000 0.000000 -60.708740 0.000000 78.000000 -0.205220 0.260313 0.943463
16.69000053 -13.94999981 0.23999999 131 171 104 0.000000 0.000000 0.000000 0.000000 -60.708740 0.000000 78.000000 -0.005984 0.250127 0.968195
16.69000053 -13.93000031 0.23999999 131 171 104 0.000000 0.000000 0.000000 0.000000 -60.708740 0.000000 78.000000 0.079893 -0.079893 0.993597
16.68000031 -13.93999958 0.25000000 131 171 104 0.000000 0.000000 0.000000 0.000000 -60.708740 0.000000 78.000000 0.014898 0.175335 0.984396
16.70000076 -13.96000004 0.25000000 131 171 104 0.000000 0.000000 0.000000 0.000000 -60.708740 0.000000 78.000000 -0.119932 0.501402 0.856862
16.65999985 -13.90999985 0.23999999 131 171 104 0.000000 0.000000 0.000000 0.000000 -60.708740 0.000000 78.000000 -0.092796 -0.059255 0.993920
16.63999939 -13.90999985 0.23999999 131 171 104 0.000000 0.000000 0.000000 0.000000 -60.708740 0.000000 78.000000 -0.044447 0.131063 0.990377
16.64999962 -13.90999985 0.23999999 131 171 104 0.000000 0.000000 0.000000 0.000000 -60.708740 0.000000 78.000000 0.017081 0.013062 0.999769
16.63999939 -13.90999985 0.23999999 131 171 104 0.000000 0.000000 0.000000 0.000000 -60.708740 0.000000 78.000000 -0.044447 0.131063 0.990377
16.69000053 -13.93999958 0.22000000 131 171 104 0.000000 0.000000 0.000000 0.000000 -60.708740 0.000000 78.000000 0.055990 -0.339848 0.938812
16.67000008 -13.93000031 0.22000000 131 171 104 0.000000 0.000000 0.000000 0.000000 -60.708740 0.000000 78.000000 -0.271427 -0.088761 0.958357
16.69000053 -13.96000004 0.23000000 131 171 104 0.000000 0.000000 0.000000 0.000000 -60.708740 0.000000 78.000000 -0.184218 0.003433 0.982879
16.62999916 -13.90999985 0.22000000 131 171 104 0.000000 0.000000 0.000000 0.000000 -60.708740 0.000000 78.000000 -0.312142 -0.240220 0.919164
16.64999962 -13.90999985 0.22000000 131 171 104 0.000000 0.000000 0.000000 0.000000 -60.708740 0.000000 78.000000 -0.185358 -0.092065 0.978349
16.63999939 -13.92000008 0.22000000 131 171 104 0.000000 0.000000 0.000000 0.000000 -60.708740 0.000000 78.000000 -0.332329 -0.222992 0.916423
16.62999916 -13.92000008 0.22000000 131 171 104 0.000000 0.000000 0.000000 0.000000 -60.708740 0.000000 78.000000 0.100887 -0.016272 0.994765
16.63999939 -13.92000008 0.20999999 131 171 104 0.000000 0.000000 0.000000 0.000000 -60.708740 0.000000 78.000000 -0.178660 -0.373042 0.910451
16.63999939 -13.96000004 0.23000000 131 171 104 0.000000 0.000000 0.000000 0.000000 -60.708740 0.000000 78.000000 -0.136146 0.007748 0.990658
16.63999939 -13.96000004 0.23000000 131 171 104 0.000000 0.000000 0.000000 0.000000 -60.708740 0.000000 78.000000 -0.136146 0.007748 0.990658
16.62000084 -13.84000015 0.25000000 131 171 104 0.000000 0.000000 0.000000 0.000000 -60.708740 0.000000 78.000000 0.123679 -0.382156 0.915784
16.60000038 -13.81000042 0.16000000 131 171 104 0.000000 0.000000 0.000000 0.000000 -60.708740 0.000000 78.000000 0.338746 -0.528187 0.778634
16.60000038 -13.81999969 0.16000000 131 171 104 0.000000 0.000000 0.000000 0.000000 -60.708740 0.000000 78.000000 -0.075445 -0.277483 0.957764
16.62000084 -13.86999989 0.23000000 131 171 104 0.000000 0.000000 0.000000 0.000000 -60.708740 0.000000 78.000000 0.012549 -0.720857 0.692971
16.60000038 -13.85999966 0.19000000 131 171 104 0.000000 0.000000 0.000000 0.000000 -60.708740 0.000000 78.000000 0.151646 -0.608087 0.779252
16.59000015 -13.88000011 0.19000000 131 171 104 0.000000 0.000000 0.000000 0.000000 -60.708740 0.000000 78.000000 0.101969 -0.025218 0.994468
16.59000015 -13.88000011 0.22000000 131 171 104 0.000000 0.000000 0.000000 0.000000 -60.708740 0.000000 78.000000 -0.397225 -0.326126 0.857820
16.56999969 -13.85999966 0.20000000 131 171 104 0.000000 0.000000 0.000000 0.000000 -60.708740 0.000000 78.000000 -0.218361 -0.514599 0.829160
16.60000038 -13.93000031 0.23999999 131 171 104 0.000000 0.000000 0.000000 0.000000 -60.708740 0.000000 78.000000 -0.102769 -0.379561 0.919441
16.62000084 -13.93000031 0.23999999 131 171 104 0.000000 0.000000 0.000000 0.000000 -60.708740 0.000000 78.000000 -0.357330 0.095738 0.929058
16.54000092 -13.96000004 0.25000000 131 171 104 0.000000 0.000000 0.000000 0.000000 -60.708740 0.000000 78.000000 0.311924 -0.426762 0.848868
16.59000015 -13.89999962 0.19000000 131 171 104 0.000000 0.000000 0.000000 0.000000 -60.708740 0.000000 78.000000 0.049938 -0.660607 0.749069
16.62000084 -13.89000034 0.22000000 131 171 104 0.000000 0.000000 0.000000 0.000000 -60.708740 0.000000 78.000000 0.346869 -0.281366 0.894715
16.62000084 -13.89999962 0.20999999 131 171 104 0.000000 0.000000 0.000000 0.000000 -60.708740 0.000000 78.000000 -0.309796 -0.269072 0.911936
16.62000084 -13.96000004 0.23000000 131 171 104 0.000000 0.000000 0.000000 0.000000 -60.708740 0.000000 78.000000 -0.337209 -0.289673 0.895757
16.59000015 -13.93000031 0.20999999 131 171 104 0.000000 0.000000 0.000000 0.000000 -60.708740 0.000000 78.000000 0.025421 0.015253 0.999560
16.61000061 -13.93999958 0.23000000 131 171 104 0.000000 0.000000 0.000000 0.000000 -60.708740 0.000000 78.000000 0.066378 -0.093379 0.993415
16.57999992 -13.93999958 0.23000000 131 171 104 0.000000 0.000000 0.000000 0.000000 -60.708740 0.000000 78.000000 0.011816 -0.091304 0.995753
16.60000038 -13.93999958 0.23000000 131 171 104 0.000000 0.000000 0.000000 0.000000 -60.708740 0.000000 78.000000 0.161640 0.010173 0.986797
16.55999947 -13.90999985 0.23000000 131 171 104 0.000000 0.000000 0.000000 0.000000 -60.708740 0.000000 78.000000 -0.197351 -0.197351 0.960263
16.55999947 -13.90999985 0.23000000 131 171 104 0.000000 0.000000 0.000000 0.000000 -60.708740 0.000000 78.000000 -0.197351 -0.197351 0.960263
16.54000092 -13.96000004 0.23000000 131 171 104 0.000000 0.000000 0.000000 0.000000 -60.708740 0.000000 78.000000 -0.439974 -0.099169 0.892518
16.70000076 -13.97000027 0.25000000 131 171 104 0.000000 0.000000 0.000000 0.000000 -60.708740 0.000000 78.000000 -0.272568 -0.119825 0.954646
16.68000031 -14.00000000 0.25999999 131 171 104 0.000000 0.000000 0.000000 0.000000 -60.708740 0.000000 78.000000 -0.034661 0.555966 0.830482
16.68000031 -13.98999977 0.25000000 131 171 104 0.000000 0.000000 0.000000 0.000000 -60.708740 0.000000 78.000000 0.241562 -0.571957 -0.783909
16.63999939 -14.02999973 0.25000000 131 171 104 0.000000 0.000000 0.000000 0.000000 -60.708740 0.000000 78.000000 -0.290736 0.103928 0.951142
16.62999916 -14.02999973 0.25999999 131 171 104 0.000000 0.000000 0.000000 0.000000 -60.708740 0.000000 78.000000 -0.695557 0.283020 0.660379
16.67000008 -14.02999973 0.23000000 131 171 104 0.000000 0.000000 0.000000 0.000000 -60.708740 0.000000 78.000000 0.592294 -0.391013 -0.704483
16.68000031 -13.97000027 0.23000000 131 171 104 0.000000 0.000000 0.000000 0.000000 -60.708740 0.000000 78.000000 -0.272381 0.038556 0.961417
16.65999985 -14.01000023 0.22000000 131 171 104 0.000000 0.000000 0.000000 0.000000 -60.708740 0.000000 78.000000 -0.380008 0.208204 0.901246
16.61000061 -14.01000023 0.25999999 131 171 104 0.000000 0.000000 0.000000 0.000000 -60.708740 0.000000 78.000000 -0.405757 0.035685 0.913284
16.62000084 -13.98999977 0.23999999 131 171 104 0.000000 0.000000 0.000000 0.000000 -60.708740 0.000000 78.000000 -0.168272 -0.017171 0.985591
16.60000038 -13.97000027 0.23999999 131 171 104 0.000000 0.000000 0.000000 0.000000 -60.708740 0.000000 78.000000 0.015556 0.048742 0.998690
16.62000084 -14.00000000 0.23999999 131 171 104 0.000000 0.000000 0.000000 0.000000 -60.708740 0.000000 78.000000 -0.339304 0.363869 0.867451
16.61000061 -14.05000019 0.30000001 131 171 104 0.000000 0.000000 0.000000 0.000000 -60.708740 0.000000 78.000000 -0.119825 0.272568 0.954646
16.62000084 -14.02000046 0.25999999 131 171 104 0.000000 0.000000 0.000000 0.000000 -60.708740 0.000000 78.000000 -0.511631 -0.068685 0.856456
16.59000015 -14.05000019 0.25000000 131 171 104 0.000000 0.000000 0.000000 0.000000 -60.708740 0.000000 78.000000 -0.402493 0.604567 0.687385
16.54000092 -13.98999977 0.23999999 131 171 104 0.000000 0.000000 0.000000 0.000000 -60.708740 0.000000 78.000000 0.172288 -0.164630 0.971192
16.56999969 -14.02999973 0.23999999 131 171 104 0.000000 0.000000 0.000000 0.000000 -60.708740 0.000000 78.000000 -0.109405 0.400228 0.909861
16.54000092 -14.05000019 0.27000001 131 171 104 0.000000 0.000000 0.000000 0.000000 -60.708740 0.000000 78.000000 -0.151302 0.582736 0.798453
16.56999969 -14.02999973 0.23999999 131 171 104 0.000000 0.000000 0.000000 0.000000 -60.708740 0.000000 78.000000 -0.109405 0.400228 0.909861
16.54999924 -13.97000027 0.20999999 131 171 104 0.000000 0.000000 0.000000 0.000000 -60.708740 0.000000 78.000000 0.232962 -0.089407 0.968367
16.55999947 -14.05000019 0.23000000 131 171 104 0.000000 0.000000 0.000000 0.000000 -60.708740 0.000000 78.000000 -0.279225 0.245208 0.928389
16.60000038 -14.07999992 0.27000001 131 171 104 0.000000 0.000000 0.000000 0.000000 -60.708740 0.000000 78.000000 -0.270955 0.234454 0.933603
16.60000038 -14.07999992 0.27000001 131 171 104 0.000000 0.000000 0.000000 0.000000 -60.708740 0.000000 78.000000 -0.270955 0.234454 0.933603
16.60000038 -14.06000042 0.27000001 131 171 104 0.000000 0.000000 0.000000 0.000000 -60.708740 0.000000 78.000000 -0.206097 0.548065 0.810647
16.61000061 -14.06000042 0.25999999 131 171 104 0.000000 0.000000 0.000000 0.000000 -60.708740 0.000000 78.000000 -0.361546 0.590580 0.721457
16.60000038 -14.06999969 0.27000001 131 171 104 0.000000 0.000000 0.000000 0.000000 -60.708740 0.000000 78.000000 -0.328343 0.094382 0.939831
16.54999924 -14.09000015 0.30000001 131 171 104 0.000000 0.000000 0.000000 0.000000 -60.708740 0.000000 78.000000 -0.341477 0.468538 0.814780
16.54000092 -14.06999969 0.28000000 131 171 104 0.000000 0.000000 0.000000 0.000000 -60.708740 0.000000 78.000000 -0.177082 0.177082 0.968134
16.54000092 -14.09000015 0.25000000 131 171 104 0.000000 0.000000 0.000000 0.000000 -60.708740 0.000000 78.000000 -0.067596 0.279311 0.957819
16.54000092 -14.10000038 0.30000001 131 171 104 0.000000 0.000000 0.000000 0.000000 -60.708740 0.000000 78.000000 -0.066385 0.546613 0.834750
16.53000069 -13.94999981 0.18000001 131 171 104 0.000000 0.000000 0.000000 0.000000 -60.708740 0.000000 78.000000 -0.303770 0.071095 0.950089
16.50000000 -13.93999958 0.18000001 131 171 104 0.000000 0.000000 0.000000 0.000000 -60.708740 0.000000 78.000000 -0.197583 -0.274958 0.940935
16.48999977 -13.96000004 0.15000001 131 171 104 0.000000 0.000000 0.000000 0.000000 -60.708740 0.000000 78.000000 -0.195376 -0.208667 0.958273
16.42000008 -13.86999989 0.16000000 131 171 104 0.000000 0.000000 0.000000 0.000000 -60.708740 0.000000 78.000000 0.231439 -0.381800 0.894799
16.39999962 -13.88000011 0.16000000 131 171 104 0.000000 0.000000 0.000000 0.000000 -60.708740 0.000000 78.000000 -0.169216 -0.543587 0.822119
16.44000053 -13.88000011 0.15000001 131 171 104 0.000000 0.000000 0.000000 0.000000 -60.708740 0.000000 78.000000 0.158616 -0.192145 0.968463
16.38999939 -13.92000008 0.17000000 131 171 104 0.000000 0.000000 0.000000 0.000000 -60.708740 0.000000 78.000000 0.509761 -0.499732 0.700294
16.38999939 -13.93000031 0.17000000 131 171 104 0.000000 0.000000 0.000000 0.000000 -60.708740 0.000000 78.000000 0.416243 -0.534699 0.735417
16.40999985 -13.93000031 0.15000001 131 171 104 0.000000 0.000000 0.000000 0.000000 -60.708740 0.000000 78.000000 0.098688 -0.071464 0.992549
16.38999939 -13.93999958 0.16000000 131 171 104 0.000000 0.000000 0.000000 0.000000 -60.708740 0.000000 78.000000 0.398909 -0.607467 0.686918
16.45999908 -13.92000008 0.14000000 131 171 104 0.000000 0.000000 0.000000 0.000000 -60.708740 0.000000 78.000000 -0.035637 -0.072353 0.996742
16.45000076 -13.94999981 0.14000000 131 171 104 0.000000 0.000000 0.000000 0.000000 -60.708740 0.000000 78.000000 0.124563 -0.468186 0.874806
16.40999985 -13.92000008 0.14000000 131 171 104 0.000000 0.000000 0.000000 0.000000 -60.708740 0.000000 78.000000 0.038765 -0.423738 0.904955
16.37999916 -13.90999985 0.10000000 131 171 104 0.000000 0.000000 0.000000 0.000000 -60.708740 0.000000 78.000000 -0.171640 -0.523876 0.834322
16.53000069 -13.98999977 0.23999999 131 171 104 0.000000 0.000000 0.000000 0.000000 -60.708740 0.000000 78.000000 -0.315416 -0.459786 0.830126
16.51000023 -14.02999973 0.28999999 131 171 104 0.000000 0.000000 0.000000 0.000000 -60.708740 0.000000 78.000000 -0.003104 0.056902 0.998375
16.53000069 -14.03999996 0.31000000 131 171 104 0.000000 0.000000 0.000000 0.000000 -60.708740 0.000000 78.000000 -0.253888 0.320624 0.912546
16.53000069 -14.02999973 0.25000000 131 171 104 0.000000 0.000000 0.000000 0.000000 -60.708740 0.000000 78.000000 0.018316 0.267410 0.963409
16.52000046 -14.02000046 0.25000000 131 171 104 0.000000 0.000000 0.000000 0.000000 -60.708740 0.000000 78.000000 0.095214 0.239940 0.966107
16.53000069 -14.02999973 0.25000000 131 171 104 0.000000 0.000000 0.000000 0.000000 -60.708740 0.000000 78.000000 0.018316 0.267410 0.963409
16.51000023 -14.02999973 0.25999999 131 171 104 0.000000 0.000000 0.000000 0.000000 -60.708740 0.000000 78.000000 0.054221 0.276148 0.959584
16.46999931 -14.01000023 0.28999999 131 171 104 0.000000 0.000000 0.000000 0.000000 -60.708740 0.000000 78.000000 0.270675 -0.406768 0.872511
16.48999977 -14.01000023 0.28999999 131 171 104 0.000000 0.000000 0.000000 0.000000 -60.708740 0.000000 78.000000 0.149450 0.159497 0.975820
16.47999954 -13.98999977 0.25999999 131 171 104 0.000000 0.000000 0.000000 0.000000 -60.708740 0.000000 78.000000 0.071238 -0.487490 0.870218
16.46999931 -14.05000019 0.28000000 131 171 104 0.000000 0.000000 0.000000 0.000000 -60.708740 0.000000 78.000000 -0.432594 0.064139 0.899305
16.45999908 -14.03999996 0.28000000 131 171 104 0.000000 0.000000 0.000000 0.000000 -60.708740 0.000000 78.000000 0.190903 -0.217603 0.957186
16.45999908 -14.02999973 0.27000001 131 171 104 0.000000 0.000000 0.000000 0.000000 -60.708740 0.000000 78.000000 -0.057719 -0.401347 0.914105
16.50000000 -13.97999954 0.20000000 131 171 104 0.000000 0.000000 0.000000 0.000000 -60.708740 0.000000 78.000000 0.021782 0.042527 0.998858
16.51000023 -14.01000023 0.20999999 131 171 104 0.000000 0.000000 0.000000 0.000000 -60.708740 0.000000 78.000000 -0.243455 0.218697 0.944935
16.53000069 -14.02000046 0.20999999 131 171 104 0.000000 0.000000 0.000000 0.000000 -60.708740 0.000000 78.000000 -0.199367 -0.354270 0.913644
16.46999931 -13.97000027 0.20000000 131 171 104 0.000000 0.000000 0.000000 0.000000 -60.708740 0.000000 78.000000 -0.441711 -0.193526 0.876036
16.45999908 -14.01000023 0.20000000 131 171 104 0.000000 0.000000 0.000000 0.000000 -60.708740 0.000000 78.000000 -0.357551 -0.146081 0.922398
16.46999931 -14.00000000 0.20999999 131 171 104 0.000000 0.000000 0.000000 0.000000 -60.708740 0.000000 78.000000 -0.491760 -0.134907 0.860216
16.48999977 -13.97000027 0.20000000 131 171 104 0.000000 0.000000 0.000000 0.000000 -60.708740 0.000000 78.000000 -0.158382 0.005616 0.987362
16.47999954 -13.97000027 0.15000001 131 171 104 0.000000 0.000000 0.000000 0.000000 -60.708740 0.000000 78.000000 0.112581 -0.404459 0.907600
16.45999908 -13.98999977 0.18000001 131 171 104 0.000000 0.000000 0.000000 0.000000 -60.708740 0.000000 78.000000 0.065776 -0.237043 0.969270
16.52000046 -14.06999969 0.28000000 131 171 104 0.000000 0.000000 0.000000 0.000000 -60.708740 0.000000 78.000000 -0.039560 0.322863 0.945619
16.51000023 -14.07999992 0.28999999 131 171 104 0.000000 0.000000 0.000000 0.000000 -60.708740 0.000000 78.000000 -0.348688 0.515801 0.782539
16.50000000 -14.09000015 0.28999999 131 171 104 0.000000 0.000000 0.000000 0.000000 -60.708740 0.000000 78.000000 -0.282534 0.111700 0.952732
16.52000046 -14.06000042 0.28999999 131 171 104 0.000000 0.000000 0.000000 0.000000 -60.708740 0.000000 78.000000 0.637882 -0.294036 -0.711793
16.50000000 -14.09000015 0.28000000 131 171 104 0.000000 0.000000 0.000000 0.000000 -60.708740 0.000000 78.000000 -0.502469 0.123083 0.855790
16.53000069 -14.10000038 0.28999999 131 171 104 0.000000 0.000000 0.000000 0.000000 -60.708740 0.000000 78.000000 -0.152241 0.637602 0.755174
16.52000046 -14.10000038 0.25000000 131 171 104 0.000000 0.000000 0.000000 0.000000 -60.708740 0.000000 78.000000 -0.379511 0.274508 0.883525
16.46999931 -14.06999969 0.28000000 131 171 104 0.000000 0.000000 0.000000 0.000000 -60.708740 0.000000 78.000000 -0.326428 0.561198 0.760593
16.46999931 -14.06000042 0.28000000 131 171 104 0.000000 0.000000 0.000000 0.000000 -60.708740 0.000000 78.000000 -0.460787 0.175187 0.870049
16.45999908 -14.07999992 0.28000000 131 171 104 0.000000 0.000000 0.000000 0.000000 -60.708740 0.000000 78.000000 -0.085843 0.267779 0.959649
16.46999931 -14.06000042 0.28000000 131 171 104 0.000000 0.000000 0.000000 0.000000 -60.708740 0.000000 78.000000 -0.460787 0.175187 0.870049
16.48999977 -14.06999969 0.28000000 131 171 104 0.000000 0.000000 0.000000 0.000000 -60.708740 0.000000 78.000000 -0.294963 -0.098321 0.950437
16.46999931 -14.07999992 0.31000000 131 171 104 0.000000 0.000000 0.000000 0.000000 -60.708740 0.000000 78.000000 -0.216950 0.666457 0.713280
16.46999931 -14.06000042 0.28000000 131 171 104 0.000000 0.000000 0.000000 0.000000 -60.708740 0.000000 78.000000 -0.460787 0.175187 0.870049
16.47999954 -14.06000042 0.28000000 131 171 104 0.000000 0.000000 0.000000 0.000000 -60.708740 0.000000 78.000000 -0.363680 0.360585 0.858904
16.47999954 -14.10000038 0.28000000 131 171 104 0.000000 0.000000 0.000000 0.000000 -60.708740 0.000000 78.000000 0.555975 -0.459138 -0.692881
16.44000053 -14.01000023 0.30000001 131 171 104 0.000000 0.000000 0.000000 0.000000 -60.708740 0.000000 78.000000 0.267771 -0.175342 0.947393
16.45000076 -13.98999977 0.30000001 131 171 104 0.000000 0.000000 0.000000 0.000000 -60.708740 0.000000 78.000000 0.120240 -0.657607 0.743704
16.43000031 -14.01000023 0.30000001 131 171 104 0.000000 0.000000 0.000000 0.000000 -60.708740 0.000000 78.000000 0.382697 -0.268638 0.883955
16.42000008 -13.98999977 0.28999999 131 171 104 0.000000 0.000000 0.000000 0.000000 -60.708740 0.000000 78.000000 0.012186 0.851642 -0.523983
16.44000053 -14.02999973 0.30000001 131 171 104 0.000000 0.000000 0.000000 0.000000 -60.708740 0.000000 78.000000 0.267569 -0.157314 0.950610
16.45000076 -14.05000019 0.23999999 131 171 104 0.000000 0.000000 0.000000 0.000000 -60.708740 0.000000 78.000000 -0.432384 0.239544 0.869289
16.45000076 -14.05000019 0.23999999 131 171 104 0.000000 0.000000 0.000000 0.000000 -60.708740 0.000000 78.000000 -0.432384 0.239544 0.869289
16.45000076 -14.02999973 0.23999999 131 171 104 0.000000 0.000000 0.000000 0.000000 -60.708740 0.000000 78.000000 -0.073886 -0.185320 0.979897
16.45000076 -14.05000019 0.27000001 131 171 104 0.000000 0.000000 0.000000 0.000000 -60.708740 0.000000 78.000000 -0.393036 0.035492 0.918838
16.42000008 -13.97000027 0.17000000 131 171 104 0.000000 0.000000 0.000000 0.000000 -60.708740 0.000000 78.000000 -0.101498 -0.045730 0.993784
16.43000031 -14.00000000 0.18000001 131 171 104 0.000000 0.000000 0.000000 0.000000 -60.708740 0.000000 78.000000 -0.074154 -0.308323 0.948387
16.43000031 -14.00000000 0.18000001 131 171 104 0.000000 0.000000 0.000000 0.000000 -60.708740 0.000000 78.000000 -0.074154 -0.308323 0.948387
16.40999985 -13.97999954 0.19000000 131 171 104 0.000000 0.000000 0.000000 0.000000 -60.708740 0.000000 78.000000 -0.225903 -0.188475 0.955743
16.40999985 -13.97999954 0.19000000 131 171 104 0.000000 0.000000 0.000000 0.000000 -60.708740 0.000000 78.000000 -0.225903 -0.188475 0.955743
16.44000053 -14.06000042 0.28999999 131 171 104 0.000000 0.000000 0.000000 0.000000 -60.708740 0.000000 78.000000 0.003431 0.186428 0.982463
16.44000053 -14.06999969 0.23999999 131 171 104 0.000000 0.000000 0.000000 0.000000 -60.708740 0.000000 78.000000 -0.237080 0.178145 0.955017
16.45000076 -14.06000042 0.27000001 131 171 104 0.000000 0.000000 0.000000 0.000000 -60.708740 0.000000 78.000000 0.454519 0.099910 -0.885116
16.44000053 -14.06000042 0.27000001 131 171 104 0.000000 0.000000 0.000000 0.000000 -60.708740 0.000000 78.000000 0.008674 -0.311007 0.950368
16.44000053 -14.10000038 0.25999999 131 171 104 0.000000 0.000000 0.000000 0.000000 -60.708740 0.000000 78.000000 -0.243274 0.485019 0.839985
16.54999924 -14.14000034 0.27000001 131 171 104 0.000000 0.000000 0.000000 0.000000 -60.708740 0.000000 78.000000 -0.230792 0.502852 0.832992
16.45999908 -14.14999962 0.27000001 131 171 104 0.000000 0.000000 0.000000 0.000000 -60.708740 0.000000 78.000000 -0.052563 0.623658 0.779928
16.35000038 -13.90999985 0.17000000 131 171 104 0.000000 0.000000 0.000000 0.000000 -60.708740 0.000000 78.000000 -0.121759 -0.567718 0.814169
16.35000038 -13.89000034 0.14000000 131 171 104 0.000000 0.000000 0.000000 0.000000 -60.708740 0.000000 78.000000 -0.012098 -0.493350 0.869747
16.31999969 -13.90999985 0.12000000 131 171 104 0.000000 0.000000 0.000000 0.000000 -60.708740 0.000000 78.000000 0.136733 -0.680660 0.719726
16.29999924 -14.02999973 0.28000000 131 171 104 0.000000 0.000000 0.000000 0.000000 -60.708740 0.000000 78.000000 0.334163 -0.506841 0.794637
16.32999992 -14.03999996 0.20000000 131 171 104 0.000000 0.000000 0.000000 0.000000 -60.708740 0.000000 78.000000 -0.054422 0.039483 0.997737
16.29999924 -14.02000046 0.22000000 131 171 104 0.000000 0.000000 0.000000 0.000000 -60.708740 0.000000 78.000000 0.076399 0.779851 -0.621286
16.31999969 -14.02999973 0.22000000 131 171 104 0.000000 0.000000 0.000000 0.000000 -60.708740 0.000000 78.000000 -0.169582 -0.679857 0.713468
16.31999969 -14.02000046 0.22000000 131 171 104 0.000000 0.000000 0.000000 0.000000 -60.708740 0.000000 78.000000 0.227824 -0.346815 0.909844
16.31999969 -14.03999996 0.20999999 131 171 104 0.000000 0.000000 0.000000 0.000000 -60.708740 0.000000 78.000000 0.250261 -0.087655 0.964202
16.29000092 -14.02999973 0.20999999 131 171 104 0.000000 0.000000 0.000000 0.000000 -60.708740 0.000000 78.000000 0.221945 -0.144069 0.964357
16.29000092 -14.02000046 0.18000001 131 171 104 0.000000 0.000000 0.000000 0.000000 -60.708740 0.000000 78.000000 -0.015345 0.746320 -0.665410
16.29000092 -14.07999992 0.19000000 131 171 104 0.000000 0.000000 0.000000 0.000000 -60.708740 0.000000 78.000000 0.250725 -0.344563 0.904662
16.21999931 -13.97000027 0.25000000 131 171 104 0.000000 0.000000 0.000000 0.000000 -60.708740 0.000000 78.000000 0.587448 -0.567133 0.577291
16.22999954 -13.97999954 0.23999999 131 171 104 0.000000 0.000000 0.000000 0.000000 -60.708740 0.000000 78.000000 0.558502 -0.747384 0.359851
16.23999977 -13.97999954 0.25000000 131 171 104 0.000000 0.000000 0.000000 0.000000 -60.708740 0.000000 78.000000 0.106226 -0.571877 0.813433
16.23999977 -14.02000046 0.23999999 131 171 104 0.000000 0.000000 0.000000 0.000000 -60.708740 0.000000 78.000000 0.526543 -0.546730 0.651029
16.23999977 -14.02000046 0.23999999 131 171 104 0.000000 0.000000 0.000000 0.000000 -60.708740 0.000000 78.000000 0.526543 -0.546730 0.651029
16.22999954 -14.00000000 0.22000000 131 171 104 0.000000 0.000000 0.000000 0.000000 -60.708740 0.000000 78.000000 -0.467830 0.816721 -0.337789
16.28000069 -14.07999992 0.19000000 131 171 104 0.000000 0.000000 0.000000 0.000000 -60.708740 0.000000 78.000000 0.124619 -0.404661 0.905936
16.28000069 -14.06000042 0.20000000 131 171 104 0.000000 0.000000 0.000000 0.000000 -60.708740 0.000000 78.000000 -0.100293 -0.280038 0.954736
16.23999977 -14.06000042 0.23000000 131 171 104 0.000000 0.000000 0.000000 0.000000 -60.708740 0.000000 78.000000 0.143280 0.701318 -0.698301
16.28000069 -14.07999992 0.20000000 131 171 104 0.000000 0.000000 0.000000 0.000000 -60.708740 0.000000 78.000000 0.355374 -0.408602 0.840687
16.27000046 -14.06999969 0.20000000 131 171 104 0.000000 0.000000 0.000000 0.000000 -60.708740 0.000000 78.000000 -0.153876 -0.376925 0.913373
16.25000000 -14.06000042 0.22000000 131 171 104 0.000000 0.000000 0.000000 0.000000 -60.708740 0.000000 78.000000 0.387309 -0.591676 0.707044
16.36000061 -13.97000027 0.14000000 131 171 104 0.000000 0.000000 0.000000 0.000000 -60.708740 0.000000 78.000000 -0.271288 -0.537872 0.798183
18.14999962 -13.36999989 0.67000002 131 171 104 0.000000 0.000000 0.000000 0.000000 -60.708740 0.000000 78.000000 -0.620820 0.772675 0.132501
18.14999962 -13.36999989 0.67000002 131 171 104 0.000000 0.000000 0.000000 0.000000 -60.708740 0.000000 78.000000 -0.620820 0.772675 0.132501
18.12999916 -13.40999985 0.69000000 131 171 104 0.000000 0.000000 0.000000 0.000000 -60.708740 0.000000 78.000000 -0.453827 0.864219 0.217178
18.12999916 -13.39999962 0.69999999 131 171 104 0.000000 0.000000 0.000000 0.000000 -60.708740 0.000000 78.000000 0.680349 -0.624340 -0.383829
18.03000069 -13.38000011 0.66000003 131 171 104 0.000000 0.000000 0.000000 0.000000 -60.708740 0.000000 78.000000 -0.262111 0.716437 0.646541
18.04000092 -13.38000011 0.67000002 131 171 104 0.000000 0.000000 0.000000 0.000000 -60.708740 0.000000 78.000000 -0.565441 0.729337 0.385155
17.98999977 -13.42000008 0.67000002 131 171 104 0.000000 0.000000 0.000000 0.000000 -60.708740 0.000000 78.000000 0.533864 -0.641648 -0.550706
17.96999931 -13.43000031 0.66000003 131 171 104 0.000000 0.000000 0.000000 0.000000 -60.708740 0.000000 78.000000 -0.477933 0.672460 0.565135
17.97999954 -13.42000008 0.66000003 131 171 104 0.000000 0.000000 0.000000 0.000000 -60.708740 0.000000 78.000000 -0.736210 0.583442 0.342914
18.03000069 -13.39000034 0.68000001 131 171 104 0.000000 0.000000 0.000000 0.000000 -60.708740 0.000000 78.000000 -0.529577 0.730849 0.430591
17.94000053 -13.35999966 0.68000001 131 171 104 0.000000 0.000000 0.000000 0.000000 -60.708740 0.000000 78.000000 -0.444491 0.895617 -0.017249
17.87999916 -13.40999985 0.69000000 131 171 104 0.000000 0.000000 0.000000 0.000000 -60.708740 0.000000 78.000000 -0.167305 0.954305 -0.247611
17.90999985 -13.39000034 0.66000003 131 171 104 0.000000 0.000000 0.000000 0.000000 -60.708740 0.000000 78.000000 0.738986 -0.657713 -0.145991
17.89999962 -13.43999958 0.69000000 131 171 104 0.000000 0.000000 0.000000 0.000000 -60.708740 0.000000 78.000000 -0.527460 0.844794 0.090054
17.77000046 -13.27999973 0.73000002 131 171 104 0.000000 0.000000 0.000000 0.000000 -60.708740 0.000000 78.000000 -0.374053 0.513311 0.772396
17.71999931 -13.27000046 0.70999998 131 171 104 0.000000 0.000000 0.000000 0.000000 -60.708740 0.000000 78.000000 -0.669582 0.736980 0.092306
17.71999931 -13.27000046 0.72000003 131 171 104 0.000000 0.000000 0.000000 0.000000 -60.708740 0.000000 78.000000 0.666477 -0.721888 -0.186244
17.85000038 -13.38000011 0.70999998 131 171 104 0.000000 0.000000 0.000000 0.000000 -60.708740 0.000000 78.000000 0.400455 -0.442269 0.802517
17.79999924 -13.31000042 0.68000001 131 171 104 0.000000 0.000000 0.000000 0.000000 -60.708740 0.000000 78.000000 -0.305064 0.946887 0.101688
17.80999947 -13.38000011 0.73000002 131 171 104 0.000000 0.000000 0.000000 0.000000 -60.708740 0.000000 78.000000 0.048359 -0.254196 0.965943
17.79999924 -13.35000038 0.67000002 131 171 104 0.000000 0.000000 0.000000 0.000000 -60.708740 0.000000 78.000000 -0.239437 0.970853 0.010721
17.79999924 -13.36999989 0.68000001 131 171 104 0.000000 0.000000 0.000000 0.000000 -60.708740 0.000000 78.000000 0.060355 -0.529159 0.846373
17.80999947 -13.35999966 0.67000002 131 171 104 0.000000 0.000000 0.000000 0.000000 -60.708740 0.000000 78.000000 -0.264821 0.962642 0.056478
17.81999969 -13.36999989 0.68000001 131 171 104 0.000000 0.000000 0.000000 0.000000 -60.708740 0.000000 78.000000 0.477187 -0.668063 0.570951
17.79999924 -13.36999989 0.68000001 131 171 104 0.000000 0.000000 0.000000 0.000000 -60.708740 0.000000 78.000000 0.060355 -0.529159 0.846373
17.80999947 -13.35999966 0.69000000 131 171 104 0.000000 0.000000 0.000000 0.000000 -60.708740 0.000000 78.000000 -0.296150 -0.284479 0.911793
17.85000038 -13.40999985 0.70999998 131 171 104 0.000000 0.000000 0.000000 0.000000 -60.708740 0.000000 78.000000 -0.041897 0.890649 -0.452758
17.86000061 -13.39999962 0.68000001 131 171 104 0.000000 0.000000 0.000000 0.000000 -60.708740 0.000000 78.000000 -0.416784 0.897580 0.143670
17.84000015 -13.42000008 0.69000000 131 171 104 0.000000 0.000000 0.000000 0.000000 -60.708740 0.000000 78.000000 -0.267745 0.939189 -0.215028
17.85000038 -13.42000008 0.68000001 131 171 104 0.000000 0.000000 0.000000 0.000000 -60.708740 0.000000 78.000000 -0.064023 0.988288 -0.138523
17.79999924 -13.40999985 0.72000003 131 171 104 0.000000 0.000000 0.000000 0.000000 -60.708740 0.000000 78.000000 -0.232537 -0.531293 0.814650
17.79000092 -13.30000019 0.74000001 131 171 104 0.000000 0.000000 0.000000 0.000000 -60.708740 0.000000 78.000000 -0.594725 0.651685 0.470754
17.77000046 -13.34000015 0.72000003 131 171 104 0.000000 0.000000 0.000000 0.000000 -60.708740 0.000000 78.000000 -0.090636 0.444815 0.891025
17.79000092 -13.32999992 0.73000002 131 171 104 0.000000 0.000000 0.000000 0.000000 -60.708740 0.000000 78.000000 0.012266 0.541061 0.840894
17.77000046 -13.31000042 0.72000003 131 171 104 0.000000 0.000000 0.000000 0.000000 -60.708740 0.000000 78.000000 -0.365373 0.842083 0.396735
17.77000046 -13.35000038 0.67000002 131 171 104 0.000000 0.000000 0.000000 0.000000 -60.708740 0.000000 78.000000 -0.321014 0.938660 -0.125967
17.79000092 -13.36999989 0.67000002 131 171 104 0.000000 0.000000 0.000000 0.000000 -60.708740 0.000000 78.000000 -0.336277 0.348450 0.874929
17.79000092 -13.36999989 0.68000001 131 171 104 0.000000 0.000000 0.000000 0.000000 -60.708740 0.000000 78.000000 -0.098319 -0.129118 0.986743
17.71999931 -13.30000019 0.69000000 131 171 104 0.000000 0.000000 0.000000 0.000000 -60.708740 0.000000 78.000000 -0.172578 0.937442 0.302356
17.96999931 -13.52999973 0.66000003 131 171 104 0.000000 0.000000 0.000000 0.000000 -60.708740 0.000000 78.000000 -0.305031 0.939715 0.154567
18.01000023 -13.52000046 0.66000003 131 171 104 0.000000 0.000000 0.000000 0.000000 -60.708740 0.000000 78.000000 -0.271288 0.961386 0.046257
17.95000076 -13.48999977 0.68000001 131 171 104 0.000000 0.000000 0.000000 0.000000 -60.708740 0.000000 78.000000 0.636126 -0.744469 -0.202756
18.09000015 -13.31000042 0.63000000 131 171 104 0.000000 0.000000 0.000000 0.000000 -60.708740 0.000000 78.000000 -0.164857 0.518334 0.839137
18.12999916 -13.30000019 0.63000000 131 171 104 0.000000 0.000000 0.000000 0.000000 -60.708740 0.000000 78.000000 -0.304864 0.368567 0.878190
18.12999916 -13.31000042 0.63000000 131 171 104 0.000000 0.000000 0.000000 0.000000 -60.708740 0.000000 78.000000 -0.177022 0.392903 0.902381
18.05999947 -13.32999992 0.64999998 131 171 104 0.000000 0.000000 0.000000 0.000000 -60.708740 0.000000 78.000000 -0.287081 0.393407 0.873393
18.04999924 -13.30000019 0.63999999 131 171 104 0.000000 0.000000 0.000000 0.000000 -60.708740 0.000000 78.000000 -0.466627 0.376830 0.800162
18.06999969 -13.31999969 0.64999998 131 171 104 0.000000 0.000000 0.000000 0.000000 -60.708740 0.000000 78.000000 -0.208075 0.584152 0.784520
18.04999924 -13.35000038 0.63999999 131 171 104 0.000000 0.000000 0.000000 0.000000 -60.708740 0.000000 78.000000 -0.443130 0.834588 0.327259
18.04999924 -13.43999958 0.64999998 131 171 104 0.000000 0.000000 0.000000 0.000000 -60.708740 0.000000 78.000000 -0.475554 0.831050 0.288451
18.04000092 -13.31999969 0.61000001 131 171 104 0.000000 0.000000 0.000000 0.000000 -60.708740 0.000000 78.000000 -0.543206 0.031791 0.838997
18.02000046 -13.31999969 0.61000001 131 171 104 0.000000 0.000000 0.000000 0.000000 -60.708740 0.000000 78.000000 -0.169407 0.211431 0.962600
18.04000092 -13.32999992 0.64999998 131 171 104 0.000000 0.000000 0.000000 0.000000 -60.708740 0.000000 78.000000 -0.454139 0.272483 0.848240
18.02000046 -13.35000038 0.63000000 131 171 104 0.000000 0.000000 0.000000 0.000000 -60.708740 0.000000 78.000000 -0.273419 0.400310 0.874639
18.02000046 -13.35999966 0.60000002 131 171 104 0.000000 0.000000 0.000000 0.000000 -60.708740 0.000000 78.000000 -0.089100 0.723027 0.685050
17.98999977 -13.31000042 0.62000000 131 171 104 0.000000 0.000000 0.000000 0.000000 -60.708740 0.000000 78.000000 0.391286 -0.599311 -0.698371
17.98999977 -13.35999966 0.64999998 131 171 104 0.000000 0.000000 0.000000 0.000000 -60.708740 0.000000 78.000000 -0.507737 0.592079 0.625816
17.95999908 -13.30000019 0.60000002 131 171 104 0.000000 0.000000 0.000000 0.000000 -60.708740 0.000000 78.000000 -0.149450 0.159497 0.975820
17.95999908 -13.31000042 0.60000002 131 171 104 0.000000 0.000000 0.000000 0.000000 -60.708740 0.000000 78.000000 -0.341366 0.081025 0.936432
17.95000076 -13.36999989 0.62000000 131 171 104 0.000000 0.000000 0.000000 0.000000 -60.708740 0.000000 78.000000 -0.416751 0.625957 0.659164
17.92000008 -13.31999969 0.58999997 131 171 104 0.000000 0.000000 0.000000 0.000000 -60.708740 0.000000 78.000000 -0.214564 0.008207 0.976676
17.88999939 -13.36999989 0.63000000 131 171 104 0.000000 0.000000 0.000000 0.000000 -60.708740 0.000000 78.000000 0.695215 -0.182628 -0.695215
17.87999916 -13.35999966 0.63000000 131 171 104 0.000000 0.000000 0.000000 0.000000 -60.708740 0.000000 78.000000 -0.291925 0.591825 0.751347
17.90999985 -13.38000011 0.64999998 131 171 104 0.000000 0.000000 0.000000 0.000000 -60.708740 0.000000 78.000000 0.501698 -0.491697 -0.711711
17.90999985 -13.39000034 0.63000000 131 171 104 0.000000 0.000000 0.000000 0.000000 -60.708740 0.000000 78.000000 -0.100736 0.608794 0.786907
17.89999962 -13.39000034 0.62000000 131 171 104 0.000000 0.000000 0.000000 0.000000 -60.708740 0.000000 78.000000 -0.087671 0.556207 0.826406
17.87999916 -13.39000034 0.62000000 131 171 104 0.000000 0.000000 0.000000 0.000000 -60.708740 0.000000 78.000000 -0.023624 0.604491 0.796261
17.89999962 -13.44999981 0.64999998 131 171 104 0.000000 0.000000 0.000000 0.000000 -60.708740 0.000000 78.000000 -0.614131 0.624226 0.482892
17.79999924 -13.27999973 0.63000000 131 171 104 0.000000 0.000000 0.000000 0.000000 -60.708740 0.000000 78.000000 -0.640902 0.680241 -0.355692
17.86000061 -13.27999973 0.58999997 131 171 104 0.000000 0.000000 0.000000 0.000000 -60.708740 0.000000 78.000000 0.125332 -0.311307 0.942008
17.79999924 -13.27999973 0.50000000 131 171 104 0.000000 0.000000 0.000000 0.000000 -60.708740 0.000000 78.000000 0.123182 -0.377850 0.917636
17.81999969 -13.27000046 0.56000000 131 171 104 0.000000 0.000000 0.000000 0.000000 -60.708740 0.000000 78.000000 0.336991 -0.434170 0.835424
17.71999931 -13.27999973 0.61000001 131 171 104 0.000000 0.000000 0.000000 0.000000 -60.708740 0.000000 78.000000 0.568606 -0.774507 0.277175
17.72999954 -13.27999973 0.62000000 131 171 104 0.000000 0.000000 0.000000 0.000000 -60.708740 0.000000 78.000000 -0.479512 0.852298 -0.208941
17.72999954 -13.27999973 0.58999997 131 171 104 0.000000 0.000000 0.000000 0.000000 -60.708740 0.000000 78.000000 -0.280159 0.896806 -0.342417
17.76000023 -13.28999996 0.52999997 131 171 104 0.000000 0.000000 0.000000 0.000000 -60.708740 0.000000 78.000000 0.052015 0.822393 -0.566537
17.78000069 -13.27000046 0.52999997 131 171 104 0.000000 0.000000 0.000000 0.000000 -60.708740 0.000000 78.000000 0.020556 -0.247886 0.968571
17.79000092 -13.26000023 0.50999999 131 171 104 0.000000 0.000000 0.000000 0.000000 -60.708740 0.000000 78.000000 0.304691 -0.425330 0.852207
17.87000084 -13.36999989 0.62000000 131 171 104 0.000000 0.000000 0.000000 0.000000 -60.708740 0.000000 78.000000 -0.119696 0.105474 0.987192
17.87000084 -13.35999966 0.62000000 131 171 104 0.000000 0.000000 0.000000 0.000000 -60.708740 0.000000 78.000000 -0.266128 0.133726 0.954617
17.80999947 -13.31000042 0.56999999 131 171 104 0.000000 0.000000 0.000000 0.000000 -60.708740 0.000000 78.000000 -0.278565 -0.325730 0.903494
17.80999947 -13.35999966 0.62000000 131 171 104 0.000000 0.000000 0.000000 0.000000 -60.708740 0.000000 78.000000 0.094686 -0.231035 0.968327
17.81999969 -13.36999989 0.62000000 131 171 104 0.000000 0.000000 0.000000 0.000000 -60.708740 0.000000 78.000000 -0.303237 0.388570 0.870092
17.81999969 -13.35999966 0.62000000 131 171 104 0.000000 0.000000 0.000000 0.000000 -60.708740 0.000000 78.000000 -0.215512 0.294392 0.931068
17.79999924 -13.30000019 0.50000000 131 171 104 0.000000 0.000000 0.000000 0.000000 -60.708740 0.000000 78.000000 0.266763 -0.224863 0.937163
17.78000069 -13.35000038 0.62000000 131 171 104 0.000000 0.000000 0.000000 0.000000 -60.708740 0.000000 78.000000 -0.086191 -0.682222 0.726047
17.78000069 -13.36999989 0.62000000 131 171 104 0.000000 0.000000 0.000000 0.000000 -60.708740 0.000000 78.000000 -0.374497 -0.144469 0.915904
17.78000069 -13.39000034 0.62000000 131 171 104 0.000000 0.000000 0.000000 0.000000 -60.708740 0.000000 78.000000 -0.269480 0.266629 0.925359
17.79000092 -13.39000034 0.63999999 131 171 104 0.000000 0.000000 0.000000 0.000000 -60.708740 0.000000 78.000000 0.709510 -0.240698 -0.662314
17.77000046 -13.40999985 0.63000000 131 171 104 0.000000 0.000000 0.000000 0.000000 -60.708740 0.000000 78.000000 0.457965 -0.537901 -0.707764
17.73999977 -13.42000008 0.61000001 131 171 104 0.000000 0.000000 0.000000 0.000000 -60.708740 0.000000 78.000000 -0.528410 0.123732 0.839925
17.75000000 -13.40999985 0.60000002 131 171 104 0.000000 0.000000 0.000000 0.000000 -60.708740 0.000000 78.000000 -0.394396 0.226002 0.890716
17.71999931 -13.42000008 0.57999998 131 171 104 0.000000 0.000000 0.000000 0.000000 -60.708740 0.000000 78.000000 -0.481089 0.112778 0.869387
17.71999931 -13.43000031 0.57999998 131 171 104 0.000000 0.000000 0.000000 0.000000 -60.708740 0.000000 78.000000 -0.376390 0.062510 0.924350
17.71999931 -13.43999958 0.58999997 131 171 104 0.000000 0.000000 0.000000 0.000000 -60.708740 0.000000 78.000000 -0.380480 0.129614 0.915661
17.73999977 -13.43000031 0.56999999 131 171 104 0.000000 0.000000 0.000000 0.000000 -60.708740 0.000000 78.000000 -0.300808 -0.184366 0.935694
17.72999954 -13.46000004 0.57999998 131 171 104 0.000000 0.000000 0.000000 0.000000 -60.708740 0.000000 78.000000 -0.064786 0.721280 0.689607
17.71999931 -13.32999992 0.47000000 131 171 104 0.000000 0.000000 0.000000 0.000000 -60.708740 0.000000 78.000000 0.109910 -0.587654 0.801613
17.97999954 -13.52999973 0.64999998 131 171 104 0.000000 0.000000 0.000000 0.000000 -60.708740 0.000000 78.000000 -0.595325 0.801780 -0.052321
17.98999977 -13.52000046 0.63999999 131 171 104 0.000000 0.000000 0.000000 0.000000 -60.708740 0.000000 78.000000 -0.489334 0.654127 0.576775
17.93000031 -13.52999973 0.63999999 131 171 104 0.000000 0.000000 0.000000 0.000000 -60.708740 0.000000 78.000000 0.498010 -0.714537 -0.491348
17.95999908 -13.50000000 0.63000000 131 171 104 0.000000 0.000000 0.000000 0.000000 -60.708740 0.000000 78.000000 -0.254559 0.901991 0.348730
17.92000008 -13.51000023 0.64999998 131 171 104 0.000000 0.000000 0.000000 0.000000 -60.708740 0.000000 78.000000 -0.766280 0.597729 0.235658
17.94000053 -13.52999973 0.64999998 131 171 104 0.000000 0.000000 0.000000 0.000000 -60.708740 0.000000 78.000000 -0.512298 0.817496 0.263156
17.92000008 -13.60999966 0.64999998 131 171 104 0.000000 0.000000 0.000000 0.000000 -60.708740 0.000000 78.000000 -0.680038 0.716388 0.156000
17.75000000 -13.47000027 0.57999998 131 171 104 0.000000 0.000000 0.000000 0.000000 -60.708740 0.000000 78.000000 0.472807 -0.728289 -0.496033
17.65999985 -13.10000038 0.58999997 131 171 104 0.000000 0.000000 0.000000 0.000000 -60.708740 0.000000 78.000000 -0.385435 0.915925 0.111900
17.59000015 -12.98999977 0.58999997 131 171 104 0.000000 0.000000 0.000000 0.000000 -60.708740 0.000000 78.000000 -0.478585 0.869502 0.122161
17.60000038 -13.03999996 0.63000000 131 171 104 0.000000 0.000000 0.000000 0.000000 -60.708740 0.000000 78.000000 -0.187626 0.894497 -0.405796
17.59000015 -13.03999996 0.63000000 131 171 104 0.000000 0.000000 0.000000 0.000000 -60.708740 0.000000 78.000000 -0.160351 0.958132 0.237214
17.59000015 -13.10999966 0.60000002 131 171 104 0.000000 0.000000 0.000000 0.000000 -60.708740 0.000000 78.000000 -0.272666 0.949628 0.154466
17.54999924 -13.07999992 0.62000000 131 171 104 0.000000 0.000000 0.000000 0.000000 -60.708740 0.000000 78.000000 -0.569421 0.784709 -0.244929
17.54000092 -13.01000023 0.60000002 131 171 104 0.000000 0.000000 0.000000 0.000000 -60.708740 0.000000 78.000000 -0.219979 0.974881 -0.034860
17.53000069 -13.06000042 0.63000000 131 171 104 0.000000 0.000000 0.000000 0.000000 -60.708740 0.000000 78.000000 -0.432511 0.825414 0.362802
17.54000092 -13.06999969 0.58999997 131 171 104 0.000000 0.000000 0.000000 0.000000 -60.708740 0.000000 78.000000 -0.067008 0.962127 -0.264237
17.46999931 -13.05000019 0.57999998 131 171 104 0.000000 0.000000 0.000000 0.000000 -60.708740 0.000000 78.000000 -0.207914 0.883267 -0.420252
17.47999954 -13.09000015 0.47000000 131 171 104 0.000000 0.000000 0.000000 0.000000 -60.708740 0.000000 78.000000 -0.383829 0.624340 -0.680349
17.50000000 -13.10000038 0.47999999 131 171 104 0.000000 0.000000 0.000000 0.000000 -60.708740 0.000000 78.000000 -0.362822 0.895948 -0.256197
17.68000031 -13.18999958 0.66000003 131 171 104 0.000000 0.000000 0.000000 0.000000 -60.708740 0.000000 78.000000 -0.187739 0.957334 0.219694
17.64999962 -13.14000034 0.68000001 131 171 104 0.000000 0.000000 0.000000 0.000000 -60.708740 0.000000 78.000000 -0.257001 0.892817 0.369903
17.70999908 -13.27999973 0.73000002 131 171 104 0.000000 0.000000 0.000000 0.000000 -60.708740 0.000000 78.000000 -0.582197 0.791970 0.183932
17.70999908 -13.27000046 0.69999999 131 171 104 0.000000 0.000000 0.000000 0.000000 -60.708740 0.000000 78.000000 -0.364410 0.842992 0.395690
17.70999908 -13.46000004 0.81999999 131 171 104 0.000000 0.000000 0.000000 0.000000 -60.708740 0.000000 78.000000 0.146109 -0.044868 0.988250
17.68000031 -13.14000034 0.60000002 131 171 104 0.000000 0.000000 0.000000 0.000000 -60.708740 0.000000 78.000000 -0.294576 0.953193 0.068177
17.62999916 -13.21000004 0.63000000 131 171 104 0.000000 0.000000 0.000000 0.000000 -60.708740 0.000000 78.000000 -0.181969 0.975101 -0.126751
17.69000053 -13.27000046 0.52999997 131 171 104 0.000000 0.000000 0.000000 0.000000 -60.708740 0.000000 78.000000 -0.331856 0.887452 -0.319843
17.69000053 -13.28999996 0.50999999 131 171 104 0.000000 0.000000 0.000000 0.000000 -60.708740 0.000000 78.000000 0.139846 -0.537302 0.831715
17.64999962 -13.28999996 0.50000000 131 171 104 0.000000 0.000000 0.000000 0.000000 -60.708740 0.000000 78.000000 -0.004119 -0.613745 0.789493
17.61000061 -13.14999962 0.63000000 131 171 104 0.000000 0.000000 0.000000 0.000000 -60.708740 0.000000 78.000000 -0.044548 0.996351 -0.072798
17.62000084 -13.22999954 0.64999998 131 171 104 0.000000 0.000000 0.000000 0.000000 -60.708740 0.000000 78.000000 -0.321360 0.924441 0.205274
17.61000061 -13.27000046 0.50999999 131 171 104 0.000000 0.000000 0.000000 0.000000 -60.708740 0.000000 78.000000 -0.479147 0.832692 -0.277564
17.57999992 -13.23999977 0.50000000 131 171 104 0.000000 0.000000 0.000000 0.000000 -60.708740 0.000000 78.000000 0.119722 -0.619300 0.775973
17.55999947 -13.23999977 0.50000000 131 171 104 0.000000 0.000000 0.000000 0.000000 -60.708740 0.000000 78.000000 0.127021 0.836587 -0.532905
17.56999969 -13.27000046 0.49000001 131 171 104 0.000000 0.000000 0.000000 0.000000 -60.708740 0.000000 78.000000 -0.204923 0.925685 -0.317983
17.56999969 -13.26000023 0.50000000 131 171 104 0.000000 0.000000 0.000000 0.000000 -60.708740 0.000000 78.000000 -0.523246 0.761234 -0.383062
17.56999969 -13.26000023 0.50000000 131 171 104 0.000000 0.000000 0.000000 0.000000 -60.708740 0.000000 78.000000 -0.523246 0.761234 -0.383062
17.69000053 -13.31000042 0.61000001 131 171 104 0.000000 0.000000 0.000000 0.000000 -60.708740 0.000000 78.000000 -0.188710 0.863312 -0.468061
