//X Y Z R G B PointSourceId ScanDirectionFlag NumberOfReturns ReturnNumber GpsTime Intensity Classification Nx Ny Nz
-0.16000000 3.16000009 -0.27000001 208 126 88 97.000000 1.000000 4.000000 1.000000 -60.708740 114.000000 231.000000 0.744296 -0.390960 0.541455
-0.11000000 3.20000005 -0.28000000 208 126 88 97.000000 1.000000 4.000000 1.000000 -60.708740 114.000000 231.000000 0.984802 0.084753 0.151600
-0.09000000 3.21000004 -0.31999999 208 126 88 97.000000 1.000000 4.000000 1.000000 -60.708740 114.000000 231.000000 0.968852 -0.239422 -0.063267
-0.09000000 3.17000008 -0.31000000 208 126 88 97.000000 1.000000 4.000000 1.000000 -60.708740 114.000000 231.000000 0.806541 -0.506653 0.304623
-0.10000000 3.17000008 -0.28999999 208 126 88 97.000000 1.000000 4.000000 1.000000 -60.708740 114.000000 231.000000 0.949574 0.123511 0.288192
-0.14000000 3.22000003 -0.34999999 208 126 88 97.000000 1.000000 4.000000 1.000000 -60.708740 114.000000 231.000000 0.927432 -0.324110 0.186609
-0.14000000 3.22000003 -0.31999999 208 126 88 97.000000 1.000000 4.000000 1.000000 -60.708740 114.000000 231.000000 0.998093 -0.059697 -0.015710
-0.15000001 3.19000006 -0.31000000 208 126 88 97.000000 1.000000 4.000000 1.000000 -60.708740 114.000000 231.000000 0.953008 0.109103 0.282616
-0.15000001 3.16000009 -0.31000000 208 126 88 97.000000 1.000000 4.000000 1.000000 -60.708740 114.000000 231.000000 0.720500 -0.108001 0.684993
-0.13000000 3.19000006 -0.30000001 208 126 88 97.000000 1.000000 4.000000 1.000000 -60.708740 114.000000 231.000000 0.970377 -0.107539 0.216342
-0.14000000 3.17000008 -0.33000001 208 126 88 97.000000 1.000000 4.000000 1.000000 -60.708740 114.000000 231.000000 0.970454 -0.229877 0.073312
-0.18000001 3.27999997 -0.20999999 208 126 88 97.000000 1.000000 4.000000 1.000000 -60.708740 114.000000 231.000000 0.822670 -0.055033 0.565850
-0.18000001 3.30999994 -0.23999999 208 126 88 97.000000 1.000000 4.000000 1.000000 -60.708740 114.000000 231.000000 0.745507 -0.422947 0.515107
-0.20000000 3.25000000 -0.25000000 208 126 88 97.000000 1.000000 4.000000 1.000000 -60.708740 114.000000 231.000000 0.777427 -0.064428 0.625664
-0.23000000 3.30999994 -0.20000000 208 126 88 97.000000 1.000000 4.000000 1.000000 -60.708740 114.000000 231.000000 0.473559 -0.100366 0.875025
-0.23999999 3.27999997 -0.25999999 208 126 88 97.000000 1.000000 4.000000 1.000000 -60.708740 114.000000 231.000000 0.728060 -0.346928 0.591244
-0.22000000 3.24000001 -0.23000000 208 126 88 97.000000 1.000000 4.000000 1.000000 -60.708740 114.000000 231.000000 0.377253 -0.065319 0.923804
-0.23000000 3.25999999 -0.25999999 208 126 88 97.000000 1.000000 4.000000 1.000000 -60.708740 114.000000 231.000000 0.644789 -0.347696 0.680701
-0.23999999 3.25999999 -0.30000001 208 126 88 97.000000 1.000000 4.000000 1.000000 -60.708740 114.000000 231.000000 0.578691 -0.441940 0.685424
-0.18000001 3.19000006 -0.20000000 208 126 88 97.000000 1.000000 4.000000 1.000000 -60.708740 114.000000 231.000000 0.653987 0.076854 0.752592
-0.18000001 3.16000009 -0.22000000 208 126 88 97.000000 1.000000 4.000000 1.000000 -60.708740 114.000000 231.000000 0.796635 -0.351032 0.492086
-0.18000001 3.19000006 -0.20000000 208 126 88 97.000000 1.000000 4.000000 1.000000 -60.708740 114.000000 231.000000 0.653987 0.076854 0.752592
-0.17000000 3.18000007 -0.20999999 208 126 88 97.000000 1.000000 4.000000 1.000000 -60.708740 114.000000 231.000000 0.699499 -0.286523 0.654680
-0.17000000 3.19000006 -0.20000000 208 126 88 97.000000 1.000000 4.000000 1.000000 -60.708740 114.000000 231.000000 0.634511 -0.293963 0.714829
-0.23999999 3.18000007 -0.22000000 208 126 88 97.000000 1.000000 4.000000 1.000000 -60.708740 114.000000 231.000000 -0.581442 0.503916 -0.638744
-0.23000000 3.17000008 -0.28000000 208 126 88 97.000000 1.000000 4.000000 1.000000 -60.708740 114.000000 231.000000 0.804741 -0.336238 0.489219
-0.23000000 3.17000008 -0.28000000 208 126 88 97.000000 1.000000 4.000000 1.000000 -60.708740 114.000000 231.000000 0.804741 -0.336238 0.489219
-0.23999999 3.19000006 -0.33000001 208 126 88 97.000000 1.000000 4.000000 1.000000 -60.708740 114.000000 231.000000 0.656543 -0.082978 0.749711
-0.09000000 3.14000010 -0.03000000 208 126 88 97.000000 1.000000 4.000000 1.000000 -60.708740 114.000000 231.000000 0.666763 -0.136349 0.732691
-0.15000001 3.06999993 -0.10000000 208 126 88 97.000000 1.000000 4.000000 1.000000 -60.708740 114.000000 231.000000 0.537986 0.034575 0.842245
-0.15000001 3.08999991 -0.10000000 208 126 88 97.000000 1.000000 4.000000 1.000000 -60.708740 114.000000 231.000000 0.650343 0.206433 0.731054
-0.16000000 3.07999992 -0.09000000 208 126 88 97.000000 1.000000 4.000000 1.000000 -60.708740 114.000000 231.000000 0.706855 -0.464030 0.533884
-0.10000000 3.08999991 -0.14000000 208 126 88 97.000000 1.000000 4.000000 1.000000 -60.708740 114.000000 231.000000 0.660307 0.029566 0.750413
-0.15000001 3.15000010 -0.16000000 208 126 88 97.000000 1.000000 4.000000 1.000000 -60.708740 114.000000 231.000000 0.525551 -0.155445 0.836441
-0.16000000 3.14000010 -0.16000000 208 126 88 97.000000 1.000000 4.000000 1.000000 -60.708740 114.000000 231.000000 0.782100 -0.356380 0.511187
-0.15000001 3.13000011 -0.17000000 208 126 88 97.000000 1.000000 4.000000 1.000000 -60.708740 114.000000 231.000000 0.799082 -0.339729 0.496037
-0.16000000 3.02999997 -0.06000000 208 126 88 97.000000 1.000000 4.000000 1.000000 -60.708740 114.000000 231.000000 0.757159 -0.232612 0.610411
-0.19000000 3.14000010 -0.06000000 208 126 88 97.000000 1.000000 4.000000 1.000000 -60.708740 114.000000 231.000000 0.289365 -0.100820 0.951894
-0.20000000 3.10999990 -0.09000000 208 126 88 97.000000 1.000000 4.000000 1.000000 -60.708740 114.000000 231.000000 0.433758 -0.025203 0.900677
-0.17000000 3.11999989 -0.10000000 208 126 88 97.000000 1.000000 4.000000 1.000000 -60.708740 114.000000 231.000000 0.676445 -0.391974 0.623520
-0.18000001 3.11999989 -0.07000000 208 126 88 97.000000 1.000000 4.000000 1.000000 -60.708740 114.000000 231.000000 0.277207 0.048919 0.959564
-0.19000000 3.10999990 -0.07000000 208 126 88 97.000000 1.000000 4.000000 1.000000 -60.708740 114.000000 231.000000 0.473265 -0.333977 0.815156
-0.19000000 3.11999989 -0.07000000 208 126 88 97.000000 1.000000 4.000000 1.000000 -60.708740 114.000000 231.000000 0.438084 -0.114099 0.891663
-0.20000000 3.09999990 -0.07000000 208 126 88 97.000000 1.000000 4.000000 1.000000 -60.708740 114.000000 231.000000 0.437266 -0.001305 0.899331
-0.19000000 3.06999993 -0.07000000 208 126 88 97.000000 1.000000 4.000000 1.000000 -60.708740 114.000000 231.000000 0.784741 0.001374 0.619822
-0.19000000 3.06999993 -0.07000000 208 126 88 97.000000 1.000000 4.000000 1.000000 -60.708740 114.000000 231.000000 0.784741 0.001374 0.619822
-0.23000000 3.10999990 -0.03000000 208 126 88 97.000000 1.000000 4.000000 1.000000 -60.708740 114.000000 231.000000 0.196790 -0.556810 0.806992
-0.22000000 3.11999989 -0.06000000 208 126 88 97.000000 1.000000 4.000000 1.000000 -60.708740 114.000000 231.000000 0.447244 -0.132887 0.884485
-0.22000000 3.11999989 -0.06000000 208 126 88 97.000000 1.000000 4.000000 1.000000 -60.708740 114.000000 231.000000 0.447244 -0.132887 0.884485
-0.23000000 3.10999990 -0.03000000 208 126 88 97.000000 1.000000 4.000000 1.000000 -60.708740 114.000000 231.000000 0.196790 -0.556810 0.806992
-0.23999999 3.06999993 -0.04000000 208 126 88 97.000000 1.000000 4.000000 1.000000 -60.708740 114.000000 231.000000 0.565886 -0.266392 0.780261
-0.22000000 3.09999990 -0.08000000 208 126 88 97.000000 1.000000 4.000000 1.000000 -60.708740 114.000000 231.000000 0.445431 -0.028090 0.894875
-0.20999999 3.09999990 -0.10000000 208 126 88 97.000000 1.000000 4.000000 1.000000 -60.708740 114.000000 231.000000 0.579609 0.197281 0.790654
-0.20999999 3.08999991 -0.08000000 208 126 88 97.000000 1.000000 4.000000 1.000000 -60.708740 114.000000 231.000000 0.058213 -0.177014 0.982485
-0.17000000 3.14000010 -0.14000000 208 126 88 97.000000 1.000000 4.000000 1.000000 -60.708740 114.000000 231.000000 0.492086 -0.351032 0.796635
-0.17000000 3.13000011 -0.16000000 208 126 88 97.000000 1.000000 4.000000 1.000000 -60.708740 114.000000 231.000000 0.414808 -0.447089 0.792493
-0.20999999 3.13000011 -0.11000000 208 126 88 97.000000 1.000000 4.000000 1.000000 -60.708740 114.000000 231.000000 0.675682 -0.199458 0.709698
-0.20999999 3.14000010 -0.11000000 208 126 88 97.000000 1.000000 4.000000 1.000000 -60.708740 114.000000 231.000000 0.607935 -0.141901 0.781204
-0.20999999 3.13000011 -0.11000000 208 126 88 97.000000 1.000000 4.000000 1.000000 -60.708740 114.000000 231.000000 0.675682 -0.199458 0.709698
-0.19000000 3.03999996 -0.09000000 208 126 88 97.000000 1.000000 4.000000 1.000000 -60.708740 114.000000 231.000000 0.759786 -0.242818 0.603129
-0.18000001 3.02999997 -0.09000000 208 126 88 97.000000 1.000000 4.000000 1.000000 -60.708740 114.000000 231.000000 0.542465 0.001353 0.840077
-0.18000001 3.04999995 -0.08000000 208 126 88 97.000000 1.000000 4.000000 1.000000 -60.708740 114.000000 231.000000 0.531610 -0.419692 0.735696
-0.17000000 3.02999997 -0.10000000 208 126 88 97.000000 1.000000 4.000000 1.000000 -60.708740 114.000000 231.000000 0.774681 0.026617 0.631792
-0.20000000 2.99000001 -0.08000000 208 126 88 97.000000 1.000000 4.000000 1.000000 -60.708740 114.000000 231.000000 0.468664 -0.273774 0.839882
-0.20000000 3.00000000 -0.08000000 208 126 88 97.000000 1.000000 4.000000 1.000000 -60.708740 114.000000 231.000000 0.554658 -0.254674 0.792146
-0.20999999 3.03999996 -0.06000000 208 126 88 97.000000 1.000000 4.000000 1.000000 -60.708740 114.000000 231.000000 0.358759 -0.016597 0.933283
-0.20999999 3.02999997 -0.05000000 208 126 88 97.000000 1.000000 4.000000 1.000000 -60.708740 114.000000 231.000000 0.072901 -0.277536 0.957945
-0.22000000 3.05999994 -0.06000000 208 126 88 97.000000 1.000000 4.000000 1.000000 -60.708740 114.000000 231.000000 0.486761 -0.147636 0.860969
-0.20999999 3.02999997 -0.06000000 208 126 88 97.000000 1.000000 4.000000 1.000000 -60.708740 114.000000 231.000000 0.307473 -0.362000 0.880009
-0.20999999 3.03999996 -0.09000000 208 126 88 97.000000 1.000000 4.000000 1.000000 -60.708740 114.000000 231.000000 0.727163 -0.332001 0.600841
-0.20999999 3.04999995 -0.08000000 208 126 88 97.000000 1.000000 4.000000 1.000000 -60.708740 114.000000 231.000000 0.465189 -0.329575 0.821571
-0.20999999 3.04999995 -0.08000000 208 126 88 97.000000 1.000000 4.000000 1.000000 -60.708740 114.000000 231.000000 0.465189 -0.329575 0.821571
-0.20999999 3.00999999 -0.05000000 208 126 88 97.000000 1.000000 4.000000 1.000000 -60.708740 114.000000 231.000000 0.552628 0.183200 0.813044
-0.20999999 3.01999998 -0.06000000 208 126 88 97.000000 1.000000 4.000000 1.000000 -60.708740 114.000000 231.000000 0.400691 -0.086155 0.912153
-0.23000000 2.99000001 -0.09000000 208 126 88 97.000000 1.000000 4.000000 1.000000 -60.708740 114.000000 231.000000 0.380905 -0.088110 0.920407
-0.23999999 3.00999999 -0.08000000 208 126 88 97.000000 1.000000 4.000000 1.000000 -60.708740 114.000000 231.000000 0.640407 -0.304879 0.704931
-0.23999999 3.00999999 -0.07000000 208 126 88 97.000000 1.000000 4.000000 1.000000 -60.708740 114.000000 231.000000 0.342374 -0.257148 0.903690
-0.23000000 3.00999999 -0.08000000 208 126 88 97.000000 1.000000 4.000000 1.000000 -60.708740 114.000000 231.000000 0.517619 -0.316942 0.794744
-0.23999999 3.00999999 -0.07000000 208 126 88 97.000000 1.000000 4.000000 1.000000 -60.708740 114.000000 231.000000 0.342374 -0.257148 0.903690
-0.20000000 3.01999998 -0.11000000 208 126 88 97.000000 1.000000 4.000000 1.000000 -60.708740 114.000000 231.000000 0.536984 -0.450535 0.713208
-0.22000000 2.99000001 -0.11000000 208 126 88 97.000000 1.000000 4.000000 1.000000 -60.708740 114.000000 231.000000 0.346120 0.078242 0.934922
-0.09000000 3.13000011 -0.20999999 208 126 88 97.000000 1.000000 4.000000 1.000000 -60.708740 114.000000 231.000000 0.945907 0.003729 0.324417
-0.10000000 3.14000010 -0.19000000 208 126 88 97.000000 1.000000 4.000000 1.000000 -60.708740 114.000000 231.000000 0.546585 -0.450226 0.706075
-0.09000000 3.13000011 -0.20999999 208 126 88 97.000000 1.000000 4.000000 1.000000 -60.708740 114.000000 231.000000 0.945907 0.003729 0.324417
-0.09000000 3.13000011 -0.25000000 208 126 88 97.000000 1.000000 4.000000 1.000000 -60.708740 114.000000 231.000000 0.904504 -0.379401 0.194750
-0.09000000 3.13000011 -0.25000000 208 126 88 97.000000 1.000000 4.000000 1.000000 -60.708740 114.000000 231.000000 0.904504 -0.379401 0.194750
-0.14000000 3.15000010 -0.23000000 208 126 88 97.000000 1.000000 4.000000 1.000000 -60.708740 114.000000 231.000000 0.819698 -0.134401 0.556804
-0.15000001 3.15000010 -0.25000000 208 126 88 97.000000 1.000000 4.000000 1.000000 -60.708740 114.000000 231.000000 0.563307 -0.127957 0.816280
-0.15000001 3.14000010 -0.25000000 208 126 88 97.000000 1.000000 4.000000 1.000000 -60.708740 114.000000 231.000000 0.557429 -0.102799 0.823836
-0.16000000 3.14000010 -0.23999999 208 126 88 97.000000 1.000000 4.000000 1.000000 -60.708740 114.000000 231.000000 0.818902 -0.252327 0.515490
-0.15000001 3.15000010 -0.33000001 208 126 88 97.000000 1.000000 4.000000 1.000000 -60.708740 114.000000 231.000000 0.988281 0.123095 0.090270
-0.14000000 3.10999990 -0.33000001 208 126 88 97.000000 1.000000 4.000000 1.000000 -60.708740 114.000000 231.000000 0.698537 -0.223469 0.679785
-0.15000001 3.15000010 -0.33000001 208 126 88 97.000000 1.000000 4.000000 1.000000 -60.708740 114.000000 231.000000 0.988281 0.123095 0.090270
-0.16000000 3.08999991 -0.33000001 208 126 88 97.000000 1.000000 4.000000 1.000000 -60.708740 114.000000 231.000000 0.691624 -0.422936 0.585476
-0.18000001 3.11999989 -0.22000000 208 126 88 97.000000 1.000000 4.000000 1.000000 -60.708740 114.000000 231.000000 0.890345 -0.235549 0.389618
-0.20000000 3.15000010 -0.25000000 208 126 88 97.000000 1.000000 4.000000 1.000000 -60.708740 114.000000 231.000000 0.614352 0.246684 0.749479
-0.19000000 3.13000011 -0.25999999 208 126 88 97.000000 1.000000 4.000000 1.000000 -60.708740 114.000000 231.000000 0.585982 -0.100329 0.804089
-0.17000000 3.11999989 -0.23000000 208 126 88 97.000000 1.000000 4.000000 1.000000 -60.708740 114.000000 231.000000 0.865466 -0.172504 0.470330
-0.19000000 3.13000011 -0.25999999 208 126 88 97.000000 1.000000 4.000000 1.000000 -60.708740 114.000000 231.000000 0.585982 -0.100329 0.804089
-0.18000001 3.14000010 -0.25999999 208 126 88 97.000000 1.000000 4.000000 1.000000 -60.708740 114.000000 231.000000 0.719032 -0.329489 0.611907
-0.17000000 3.10999990 -0.27000001 208 126 88 97.000000 1.000000 4.000000 1.000000 -60.708740 114.000000 231.000000 0.914231 0.150728 0.376116
-0.17000000 3.11999989 -0.23000000 208 126 88 97.000000 1.000000 4.000000 1.000000 -60.708740 114.000000 231.000000 0.865466 -0.172504 0.470330
-0.17000000 3.13000011 -0.23000000 208 126 88 97.000000 1.000000 4.000000 1.000000 -60.708740 114.000000 231.000000 0.662467 -0.272968 0.697586
-0.20000000 3.15000010 -0.25000000 208 126 88 97.000000 1.000000 4.000000 1.000000 -60.708740 114.000000 231.000000 0.614352 0.246684 0.749479
-0.18000001 3.15000010 -0.23000000 208 126 88 97.000000 1.000000 4.000000 1.000000 -60.708740 114.000000 231.000000 0.607935 0.141901 0.781204
-0.17000000 3.10999990 -0.23999999 208 126 88 97.000000 1.000000 4.000000 1.000000 -60.708740 114.000000 231.000000 0.652124 -0.461013 0.601832
-0.18000001 3.14000010 -0.27000001 208 126 88 97.000000 1.000000 4.000000 1.000000 -60.708740 114.000000 231.000000 0.658846 -0.363104 0.658846
-0.19000000 3.14000010 -0.25000000 208 126 88 97.000000 1.000000 4.000000 1.000000 -60.708740 114.000000 231.000000 0.444469 -0.250298 0.860115
-0.18000001 3.08999991 -0.27000001 208 126 88 97.000000 1.000000 4.000000 1.000000 -60.708740 114.000000 231.000000 0.715972 -0.509984 0.476761
-0.20999999 3.14000010 -0.19000000 208 126 88 97.000000 1.000000 4.000000 1.000000 -60.708740 114.000000 231.000000 0.763014 0.198846 0.615036
-0.20999999 3.10999990 -0.25000000 208 126 88 97.000000 1.000000 4.000000 1.000000 -60.708740 114.000000 231.000000 0.643118 -0.237435 0.728028
-0.23999999 3.14000010 -0.27000001 208 126 88 97.000000 1.000000 4.000000 1.000000 -60.708740 114.000000 231.000000 0.523205 -0.014949 0.852076
-0.22000000 3.08999991 -0.25000000 208 126 88 97.000000 1.000000 4.000000 1.000000 -60.708740 114.000000 231.000000 0.611468 -0.208983 0.763173
-0.20000000 3.13000011 -0.31000000 208 126 88 97.000000 1.000000 4.000000 1.000000 -60.708740 114.000000 231.000000 0.587928 -0.001364 0.808912
-0.20000000 3.13000011 -0.31000000 208 126 88 97.000000 1.000000 4.000000 1.000000 -60.708740 114.000000 231.000000 0.587928 -0.001364 0.808912
-0.20000000 3.13000011 -0.31000000 208 126 88 97.000000 1.000000 4.000000 1.000000 -60.708740 114.000000 231.000000 0.587928 -0.001364 0.808912
-0.18000001 3.15000010 -0.31999999 208 126 88 97.000000 1.000000 4.000000 1.000000 -60.708740 114.000000 231.000000 0.846185 0.054547 0.530090
-0.18000001 3.15000010 -0.31999999 208 126 88 97.000000 1.000000 4.000000 1.000000 -60.708740 114.000000 231.000000 0.846185 0.054547 0.530090
-0.18000001 3.14000010 -0.33000001 208 126 88 97.000000 1.000000 4.000000 1.000000 -60.708740 114.000000 231.000000 0.782736 -0.484551 0.390558
-0.19000000 3.09999990 -0.31000000 208 126 88 97.000000 1.000000 4.000000 1.000000 -60.708740 114.000000 231.000000 0.749746 -0.226015 0.621931
-0.19000000 3.08999991 -0.31999999 208 126 88 97.000000 1.000000 4.000000 1.000000 -60.708740 114.000000 231.000000 0.758199 0.278165 0.589710
-0.18000001 3.08999991 -0.31999999 208 126 88 97.000000 1.000000 4.000000 1.000000 -60.708740 114.000000 231.000000 0.898318 -0.379550 0.221282
-0.19000000 3.08999991 -0.31999999 208 126 88 97.000000 1.000000 4.000000 1.000000 -60.708740 114.000000 231.000000 0.758199 0.278165 0.589710
-0.18000001 3.06999993 -0.31999999 208 126 88 97.000000 1.000000 4.000000 1.000000 -60.708740 114.000000 231.000000 -0.826384 0.093743 -0.555249
-0.18000001 3.08999991 -0.34000000 208 126 88 97.000000 1.000000 4.000000 1.000000 -60.708740 114.000000 231.000000 0.853492 -0.173667 0.491315
-0.23999999 3.11999989 -0.30000001 208 126 88 97.000000 1.000000 4.000000 1.000000 -60.708740 114.000000 231.000000 0.425670 -0.188699 0.884984
-0.23999999 3.13000011 -0.30000001 208 126 88 97.000000 1.000000 4.000000 1.000000 -60.708740 114.000000 231.000000 0.611548 -0.171476 0.772402
-0.22000000 3.10999990 -0.31999999 208 126 88 97.000000 1.000000 4.000000 1.000000 -60.708740 114.000000 231.000000 0.873393 -0.287081 0.393407
-0.22000000 3.08999991 -0.30000001 208 126 88 97.000000 1.000000 4.000000 1.000000 -60.708740 114.000000 231.000000 0.594704 0.180997 0.783306
-0.22000000 3.07999992 -0.28999999 208 126 88 97.000000 1.000000 4.000000 1.000000 -60.708740 114.000000 231.000000 0.938108 0.066914 0.339818
-0.22000000 3.08999991 -0.30000001 208 126 88 97.000000 1.000000 4.000000 1.000000 -60.708740 114.000000 231.000000 0.594704 0.180997 0.783306
-0.23999999 3.06999993 -0.31000000 208 126 88 97.000000 1.000000 4.000000 1.000000 -60.708740 114.000000 231.000000 0.857232 -0.141655 0.495063
-0.22000000 3.09999990 -0.34999999 208 126 88 97.000000 1.000000 4.000000 1.000000 -60.708740 114.000000 231.000000 0.830658 -0.214904 0.513637
-0.22000000 3.06999993 -0.31999999 208 126 88 97.000000 1.000000 4.000000 1.000000 -60.708740 114.000000 231.000000 0.630104 0.226712 0.742678
-0.22000000 3.06999993 -0.33000001 208 126 88 97.000000 1.000000 4.000000 1.000000 -60.708740 114.000000 231.000000 0.717503 -0.086217 0.691199
-0.20999999 3.07999992 -0.33000001 208 126 88 97.000000 1.000000 4.000000 1.000000 -60.708740 114.000000 231.000000 0.845290 0.129932 0.518269
-0.20999999 3.08999991 -0.33000001 208 126 88 97.000000 1.000000 4.000000 1.000000 -60.708740 114.000000 231.000000 0.940003 -0.194626 0.280206
-0.22000000 3.07999992 -0.33000001 208 126 88 97.000000 1.000000 4.000000 1.000000 -60.708740 114.000000 231.000000 -0.702805 0.479109 -0.525852
-0.23999999 3.04999995 -0.31999999 208 126 88 97.000000 1.000000 4.000000 1.000000 -60.708740 114.000000 231.000000 0.695184 -0.358224 0.623212
-0.20999999 3.03999996 -0.30000001 208 126 88 97.000000 1.000000 4.000000 1.000000 -60.708740 114.000000 231.000000 0.551236 -0.268551 0.789949
-0.20000000 3.02999997 -0.31999999 208 126 88 97.000000 1.000000 4.000000 1.000000 -60.708740 114.000000 231.000000 0.699022 0.220497 0.680257
-0.28000000 3.28999996 -0.05000000 208 126 88 97.000000 1.000000 4.000000 1.000000 -60.708740 114.000000 231.000000 0.169772 -0.340947 0.924626
-0.28000000 3.30999994 -0.09000000 208 126 88 97.000000 1.000000 4.000000 1.000000 -60.708740 114.000000 231.000000 0.132422 -0.080859 0.987890
-0.25000000 3.26999998 -0.05000000 208 126 88 97.000000 1.000000 4.000000 1.000000 -60.708740 114.000000 231.000000 0.329101 -0.347300 0.878109
-0.25999999 3.24000001 -0.09000000 208 126 88 97.000000 1.000000 4.000000 1.000000 -60.708740 114.000000 231.000000 0.558398 -0.329890 0.761160
-0.27000001 3.26999998 -0.07000000 208 126 88 97.000000 1.000000 4.000000 1.000000 -60.708740 114.000000 231.000000 0.367651 -0.006361 0.929942
-0.28000000 3.25000000 -0.09000000 208 126 88 97.000000 1.000000 4.000000 1.000000 -60.708740 114.000000 231.000000 0.118030 -0.118030 0.985970
-0.31999999 3.30999994 -0.07000000 208 126 88 97.000000 1.000000 4.000000 1.000000 -60.708740 114.000000 231.000000 0.520975 -0.040075 0.852630
-0.31000000 3.25999999 -0.06000000 208 126 88 97.000000 1.000000 4.000000 1.000000 -60.708740 114.000000 231.000000 0.266260 -0.575059 0.773572
-0.31000000 3.25999999 -0.06000000 208 126 88 97.000000 1.000000 4.000000 1.000000 -60.708740 114.000000 231.000000 0.266260 -0.575059 0.773572
-0.31000000 3.25000000 -0.07000000 208 126 88 97.000000 1.000000 4.000000 1.000000 -60.708740 114.000000 231.000000 -0.159251 -0.198093 0.967160
-0.30000001 3.25000000 -0.07000000 208 126 88 97.000000 1.000000 4.000000 1.000000 -60.708740 114.000000 231.000000 0.432317 -0.095916 0.896606
-0.31000000 3.25000000 -0.07000000 208 126 88 97.000000 1.000000 4.000000 1.000000 -60.708740 114.000000 231.000000 -0.159251 -0.198093 0.967160
-0.31000000 3.25000000 -0.07000000 208 126 88 97.000000 1.000000 4.000000 1.000000 -60.708740 114.000000 231.000000 -0.159251 -0.198093 0.967160
-0.31000000 3.25999999 -0.07000000 208 126 88 97.000000 1.000000 4.000000 1.000000 -60.708740 114.000000 231.000000 0.110930 0.157253 0.981308
-0.31999999 3.24000001 -0.07000000 208 126 88 97.000000 1.000000 4.000000 1.000000 -60.708740 114.000000 231.000000 0.391820 0.103110 0.914246
-0.31000000 3.25999999 -0.07000000 208 126 88 97.000000 1.000000 4.000000 1.000000 -60.708740 114.000000 231.000000 0.110930 0.157253 0.981308
-0.31999999 3.25000000 -0.07000000 208 126 88 97.000000 1.000000 4.000000 1.000000 -60.708740 114.000000 231.000000 0.134046 -0.404959 0.904456
-0.27000001 3.28999996 -0.12000000 208 126 88 97.000000 1.000000 4.000000 1.000000 -60.708740 114.000000 231.000000 0.107744 -0.219290 0.969692
-0.28999999 3.30999994 -0.16000000 208 126 88 97.000000 1.000000 4.000000 1.000000 -60.708740 114.000000 231.000000 0.136532 -0.230155 0.963529
-0.28999999 3.30999994 -0.16000000 208 126 88 97.000000 1.000000 4.000000 1.000000 -60.708740 114.000000 231.000000 0.136532 -0.230155 0.963529
-0.25000000 3.27999997 -0.18000001 208 126 88 97.000000 1.000000 4.000000 1.000000 -60.708740 114.000000 231.000000 0.698116 -0.035401 0.715109
-0.25000000 3.29999995 -0.18000001 208 126 88 97.000000 1.000000 4.000000 1.000000 -60.708740 114.000000 231.000000 0.365731 0.162390 0.916445
-0.27000001 3.25000000 -0.14000000 208 126 88 97.000000 1.000000 4.000000 1.000000 -60.708740 114.000000 231.000000 0.704652 -0.351509 0.616366
-0.28999999 3.24000001 -0.12000000 208 126 88 97.000000 1.000000 4.000000 1.000000 -60.708740 114.000000 231.000000 0.273004 0.137168 0.952184
-0.27000001 3.25999999 -0.13000000 208 126 88 97.000000 1.000000 4.000000 1.000000 -60.708740 114.000000 231.000000 0.191342 0.152817 0.969554
-0.28999999 3.24000001 -0.13000000 208 126 88 97.000000 1.000000 4.000000 1.000000 -60.708740 114.000000 231.000000 0.471505 0.205067 0.857689
-0.25999999 3.25999999 -0.15000001 208 126 88 97.000000 1.000000 4.000000 1.000000 -60.708740 114.000000 231.000000 0.785043 -0.073463 0.615070
-0.25000000 3.24000001 -0.16000000 208 126 88 97.000000 1.000000 4.000000 1.000000 -60.708740 114.000000 231.000000 0.580942 -0.224631 0.782335
-0.25999999 3.24000001 -0.15000001 208 126 88 97.000000 1.000000 4.000000 1.000000 -60.708740 114.000000 231.000000 0.611415 -0.243623 0.752874
-0.31999999 3.28999996 -0.14000000 208 126 88 97.000000 1.000000 4.000000 1.000000 -60.708740 114.000000 231.000000 0.089064 0.042883 0.995102
-0.31000000 3.30999994 -0.12000000 208 126 88 97.000000 1.000000 4.000000 1.000000 -60.708740 114.000000 231.000000 0.243373 0.001187 0.969932
-0.31999999 3.28999996 -0.14000000 208 126 88 97.000000 1.000000 4.000000 1.000000 -60.708740 114.000000 231.000000 0.089064 0.042883 0.995102
-0.33000001 3.30999994 -0.14000000 208 126 88 97.000000 1.000000 4.000000 1.000000 -60.708740 114.000000 231.000000 0.281366 -0.346869 0.894715
-0.31999999 3.28999996 -0.14000000 208 126 88 97.000000 1.000000 4.000000 1.000000 -60.708740 114.000000 231.000000 0.089064 0.042883 0.995102
-0.31000000 3.27999997 -0.12000000 208 126 88 97.000000 1.000000 4.000000 1.000000 -60.708740 114.000000 231.000000 0.096568 -0.214456 0.971948
-0.31999999 3.27999997 -0.14000000 208 126 88 97.000000 1.000000 4.000000 1.000000 -60.708740 114.000000 231.000000 0.204205 -0.041796 0.978035
-0.33000001 3.30999994 -0.14000000 208 126 88 97.000000 1.000000 4.000000 1.000000 -60.708740 114.000000 231.000000 0.281366 -0.346869 0.894715
-0.31000000 3.27999997 -0.15000001 208 126 88 97.000000 1.000000 4.000000 1.000000 -60.708740 114.000000 231.000000 0.559573 -0.255491 0.788418
-0.33000001 3.30999994 -0.17000000 208 126 88 97.000000 1.000000 4.000000 1.000000 -60.708740 114.000000 231.000000 0.417871 0.113202 0.901426
-0.30000001 3.25000000 -0.14000000 208 126 88 97.000000 1.000000 4.000000 1.000000 -60.708740 114.000000 231.000000 0.188952 -0.429169 0.883239
-0.27000001 3.21000004 -0.06000000 208 126 88 97.000000 1.000000 4.000000 1.000000 -60.708740 114.000000 231.000000 0.228188 0.108357 0.967569
-0.27000001 3.23000002 -0.09000000 208 126 88 97.000000 1.000000 4.000000 1.000000 -60.708740 114.000000 231.000000 0.387972 -0.378548 0.840345
-0.28999999 3.16000009 -0.04000000 208 126 88 97.000000 1.000000 4.000000 1.000000 -60.708740 114.000000 231.000000 0.104464 -0.499423 0.860037
-0.25999999 3.16000009 -0.09000000 208 126 88 97.000000 1.000000 4.000000 1.000000 -60.708740 114.000000 231.000000 0.447412 0.130078 0.884818
-0.28999999 3.19000006 -0.09000000 208 126 88 97.000000 1.000000 4.000000 1.000000 -60.708740 114.000000 231.000000 0.255294 -0.112744 0.960268
-0.28000000 3.16000009 -0.09000000 208 126 88 97.000000 1.000000 4.000000 1.000000 -60.708740 114.000000 231.000000 0.188772 -0.384749 0.903512
-0.33000001 3.21000004 -0.06000000 208 126 88 97.000000 1.000000 4.000000 1.000000 -60.708740 114.000000 231.000000 0.207904 0.145920 0.967204
-0.30000001 3.22000003 -0.07000000 208 126 88 97.000000 1.000000 4.000000 1.000000 -60.708740 114.000000 231.000000 -0.015557 0.046672 0.998789
-0.31000000 3.20000005 -0.10000000 208 126 88 97.000000 1.000000 4.000000 1.000000 -60.708740 114.000000 231.000000 0.419466 0.137926 0.897231
-0.30000001 3.22000003 -0.07000000 208 126 88 97.000000 1.000000 4.000000 1.000000 -60.708740 114.000000 231.000000 -0.015557 0.046672 0.998789
-0.31000000 3.21000004 -0.07000000 208 126 88 97.000000 1.000000 4.000000 1.000000 -60.708740 114.000000 231.000000 0.025820 -0.269266 0.962720
-0.31999999 3.18000007 -0.08000000 208 126 88 97.000000 1.000000 4.000000 1.000000 -60.708740 114.000000 231.000000 0.425662 -0.175785 0.887644
-0.30000001 3.18000007 -0.09000000 208 126 88 97.000000 1.000000 4.000000 1.000000 -60.708740 114.000000 231.000000 0.269386 0.205838 0.940777
-0.33000001 3.16000009 -0.08000000 208 126 88 97.000000 1.000000 4.000000 1.000000 -60.708740 114.000000 231.000000 0.324056 -0.171068 0.930443
-0.31999999 3.18000007 -0.08000000 208 126 88 97.000000 1.000000 4.000000 1.000000 -60.708740 114.000000 231.000000 0.425662 -0.175785 0.887644
-0.28000000 3.23000002 -0.13000000 208 126 88 97.000000 1.000000 4.000000 1.000000 -60.708740 114.000000 231.000000 0.578911 -0.112851 0.807544
-0.28999999 3.20000005 -0.14000000 208 126 88 97.000000 1.000000 4.000000 1.000000 -60.708740 114.000000 231.000000 0.239894 -0.341667 0.908688
-0.28999999 3.20000005 -0.14000000 208 126 88 97.000000 1.000000 4.000000 1.000000 -60.708740 114.000000 231.000000 0.239894 -0.341667 0.908688
-0.28000000 3.23000002 -0.12000000 208 126 88 97.000000 1.000000 4.000000 1.000000 -60.708740 114.000000 231.000000 0.263475 -0.224442 0.938193
-0.25000000 3.23000002 -0.16000000 208 126 88 97.000000 1.000000 4.000000 1.000000 -60.708740 114.000000 231.000000 0.596076 -0.141923 0.790286
-0.28999999 3.20000005 -0.16000000 208 126 88 97.000000 1.000000 4.000000 1.000000 -60.708740 114.000000 231.000000 0.572021 -0.263161 0.776877
-0.25000000 3.23000002 -0.16000000 208 126 88 97.000000 1.000000 4.000000 1.000000 -60.708740 114.000000 231.000000 0.596076 -0.141923 0.790286
-0.28000000 3.18000007 -0.14000000 208 126 88 97.000000 1.000000 4.000000 1.000000 -60.708740 114.000000 231.000000 0.448456 -0.223478 0.865416
-0.27000001 3.19000006 -0.12000000 208 126 88 97.000000 1.000000 4.000000 1.000000 -60.708740 114.000000 231.000000 0.274638 -0.321635 0.906159
-0.31999999 3.22000003 -0.12000000 208 126 88 97.000000 1.000000 4.000000 1.000000 -60.708740 114.000000 231.000000 0.135260 -0.039782 0.990011
-0.33000001 3.18000007 -0.14000000 208 126 88 97.000000 1.000000 4.000000 1.000000 -60.708740 114.000000 231.000000 0.589395 -0.141753 0.795311
-0.31000000 3.17000008 -0.12000000 208 126 88 97.000000 1.000000 4.000000 1.000000 -60.708740 114.000000 231.000000 0.396403 -0.006456 0.918054
-0.31999999 3.18000007 -0.15000001 208 126 88 97.000000 1.000000 4.000000 1.000000 -60.708740 114.000000 231.000000 0.611490 -0.139043 0.778940
-0.33000001 3.18000007 -0.18000001 208 126 88 97.000000 1.000000 4.000000 1.000000 -60.708740 114.000000 231.000000 0.093160 -0.432431 0.896842
-0.34999999 3.28999996 -0.05000000 208 126 88 97.000000 1.000000 4.000000 1.000000 -60.708740 114.000000 231.000000 -0.064248 0.055536 0.996387
-0.36000001 3.30999994 -0.05000000 208 126 88 97.000000 1.000000 4.000000 1.000000 -60.708740 114.000000 231.000000 0.155203 -0.113653 0.981323
-0.36000001 3.29999995 -0.05000000 208 126 88 97.000000 1.000000 4.000000 1.000000 -60.708740 114.000000 231.000000 0.151127 -0.007836 0.988483
-0.34999999 3.28999996 -0.05000000 208 126 88 97.000000 1.000000 4.000000 1.000000 -60.708740 114.000000 231.000000 -0.064248 0.055536 0.996387
-0.34999999 3.25999999 -0.06000000 208 126 88 97.000000 1.000000 4.000000 1.000000 -60.708740 114.000000 231.000000 0.453193 -0.224338 0.862722
-0.34999999 3.25000000 -0.10000000 208 126 88 97.000000 1.000000 4.000000 1.000000 -60.708740 114.000000 231.000000 0.139600 -0.346928 0.927444
-0.34999999 3.30999994 -0.13000000 208 126 88 97.000000 1.000000 4.000000 1.000000 -60.708740 114.000000 231.000000 0.467323 -0.428244 0.773444
-0.34999999 3.27999997 -0.18000001 208 126 88 97.000000 1.000000 4.000000 1.000000 -60.708740 114.000000 231.000000 0.573991 -0.066942 0.816121
-0.36000001 3.25000000 -0.13000000 208 126 88 97.000000 1.000000 4.000000 1.000000 -60.708740 114.000000 231.000000 0.344789 -0.465545 0.815100
-0.37000000 3.26999998 -0.18000001 208 126 88 97.000000 1.000000 4.000000 1.000000 -60.708740 114.000000 231.000000 0.430392 -0.089953 0.898149
-0.34000000 3.25999999 -0.18000001 208 126 88 97.000000 1.000000 4.000000 1.000000 -60.708740 114.000000 231.000000 0.320759 0.186292 0.928660
-0.34000000 3.23000002 -0.06000000 208 126 88 97.000000 1.000000 4.000000 1.000000 -60.708740 114.000000 231.000000 0.116302 -0.262658 0.957854
-0.34000000 3.23000002 -0.10000000 208 126 88 97.000000 1.000000 4.000000 1.000000 -60.708740 114.000000 231.000000 0.476710 -0.298530 0.826818
-0.34999999 3.23000002 -0.14000000 208 126 88 97.000000 1.000000 4.000000 1.000000 -60.708740 114.000000 231.000000 0.206497 -0.054341 0.976937
-0.37000000 3.22000003 -0.13000000 208 126 88 97.000000 1.000000 4.000000 1.000000 -60.708740 114.000000 231.000000 0.410786 -0.285565 0.865857
-0.34999999 3.21000004 -0.13000000 208 126 88 97.000000 1.000000 4.000000 1.000000 -60.708740 114.000000 231.000000 0.340876 0.115436 0.932994
-0.27000001 3.27999997 -0.20000000 208 126 88 97.000000 1.000000 4.000000 1.000000 -60.708740 114.000000 231.000000 0.432024 -0.273259 0.859468
-0.25000000 3.30999994 -0.20999999 208 126 88 97.000000 1.000000 4.000000 1.000000 -60.708740 114.000000 231.000000 0.412461 -0.396536 0.820144
-0.27000001 3.27999997 -0.20000000 208 126 88 97.000000 1.000000 4.000000 1.000000 -60.708740 114.000000 231.000000 0.432024 -0.273259 0.859468
-0.27000001 3.27999997 -0.27000001 208 126 88 97.000000 1.000000 4.000000 1.000000 -60.708740 114.000000 231.000000 0.493832 -0.039671 0.868652
-0.28000000 3.29999995 -0.25000000 208 126 88 97.000000 1.000000 4.000000 1.000000 -60.708740 114.000000 231.000000 0.438686 -0.173434 0.881745
-0.27000001 3.28999996 -0.25999999 208 126 88 97.000000 1.000000 4.000000 1.000000 -60.708740 114.000000 231.000000 0.487649 -0.497635 0.717327
-0.25999999 3.28999996 -0.23000000 208 126 88 97.000000 1.000000 4.000000 1.000000 -60.708740 114.000000 231.000000 0.418871 -0.159775 0.893879
-0.27000001 3.25999999 -0.20999999 208 126 88 97.000000 1.000000 4.000000 1.000000 -60.708740 114.000000 231.000000 0.222571 -0.359314 0.906287
-0.28000000 3.24000001 -0.20999999 208 126 88 97.000000 1.000000 4.000000 1.000000 -60.708740 114.000000 231.000000 0.744491 -0.331064 0.579766
-0.27000001 3.24000001 -0.25999999 208 126 88 97.000000 1.000000 4.000000 1.000000 -60.708740 114.000000 231.000000 0.721662 0.052874 0.690223
-0.25999999 3.26999998 -0.23999999 208 126 88 97.000000 1.000000 4.000000 1.000000 -60.708740 114.000000 231.000000 0.422695 -0.279253 0.862175
-0.27000001 3.24000001 -0.25999999 208 126 88 97.000000 1.000000 4.000000 1.000000 -60.708740 114.000000 231.000000 0.721662 0.052874 0.690223
-0.27000001 3.25000000 -0.25999999 208 126 88 97.000000 1.000000 4.000000 1.000000 -60.708740 114.000000 231.000000 0.378419 -0.264744 0.886967
-0.33000001 3.28999996 -0.25999999 208 126 88 97.000000 1.000000 4.000000 1.000000 -60.708740 114.000000 231.000000 0.376045 0.220945 0.899874
-0.33000001 3.30999994 -0.25000000 208 126 88 97.000000 1.000000 4.000000 1.000000 -60.708740 114.000000 231.000000 0.209691 -0.365875 0.906733
-0.31999999 3.24000001 -0.25000000 208 126 88 97.000000 1.000000 4.000000 1.000000 -60.708740 114.000000 231.000000 0.121289 -0.072773 0.989946
-0.30000001 3.26999998 -0.27000001 208 126 88 97.000000 1.000000 4.000000 1.000000 -60.708740 114.000000 231.000000 0.439816 -0.173881 0.881094
-0.28999999 3.30999994 -0.28000000 208 126 88 97.000000 1.000000 4.000000 1.000000 -60.708740 114.000000 231.000000 -0.688412 0.366387 -0.625979
-0.28000000 3.30999994 -0.28000000 208 126 88 97.000000 1.000000 4.000000 1.000000 -60.708740 114.000000 231.000000 0.640382 -0.290499 0.711000
-0.28000000 3.25999999 -0.28999999 208 126 88 97.000000 1.000000 4.000000 1.000000 -60.708740 114.000000 231.000000 0.862743 -0.169599 0.476352
-0.27000001 3.23000002 -0.22000000 208 126 88 97.000000 1.000000 4.000000 1.000000 -60.708740 114.000000 231.000000 0.223835 -0.155768 0.962099
-0.25999999 3.23000002 -0.22000000 208 126 88 97.000000 1.000000 4.000000 1.000000 -60.708740 114.000000 231.000000 0.399194 -0.091911 0.912248
-0.28000000 3.23000002 -0.25999999 208 126 88 97.000000 1.000000 4.000000 1.000000 -60.708740 114.000000 231.000000 0.287667 -0.273212 0.917934
-0.28000000 3.23000002 -0.25999999 208 126 88 97.000000 1.000000 4.000000 1.000000 -60.708740 114.000000 231.000000 0.287667 -0.273212 0.917934
-0.25999999 3.21000004 -0.27000001 208 126 88 97.000000 1.000000 4.000000 1.000000 -60.708740 114.000000 231.000000 0.654166 -0.136222 0.743983
-0.25000000 3.16000009 -0.23999999 208 126 88 97.000000 1.000000 4.000000 1.000000 -60.708740 114.000000 231.000000 0.285228 -0.204529 0.936383
-0.31000000 3.23000002 -0.25999999 208 126 88 97.000000 1.000000 4.000000 1.000000 -60.708740 114.000000 231.000000 0.325234 -0.091596 0.941187
-0.30000001 3.18000007 -0.25999999 208 126 88 97.000000 1.000000 4.000000 1.000000 -60.708740 114.000000 231.000000 0.447131 -0.408390 0.795796
-0.25999999 3.23000002 -0.28999999 208 126 88 97.000000 1.000000 4.000000 1.000000 -60.708740 114.000000 231.000000 0.847706 0.012207 0.530325
-0.27000001 3.17000008 -0.30000001 208 126 88 97.000000 1.000000 4.000000 1.000000 -60.708740 114.000000 231.000000 0.661190 -0.506408 0.553515
-0.25999999 3.17000008 -0.31000000 208 126 88 97.000000 1.000000 4.000000 1.000000 -60.708740 114.000000 231.000000 0.526114 0.126792 0.840909
-0.25999999 3.18000007 -0.31000000 208 126 88 97.000000 1.000000 4.000000 1.000000 -60.708740 114.000000 231.000000 0.591338 0.141504 0.793912
-0.25999999 3.17000008 -0.31000000 208 126 88 97.000000 1.000000 4.000000 1.000000 -60.708740 114.000000 231.000000 0.526114 0.126792 0.840909
-0.34000000 3.27999997 -0.25999999 208 126 88 97.000000 1.000000 4.000000 1.000000 -60.708740 114.000000 231.000000 0.325885 -0.097100 0.940410
-0.36000001 3.28999996 -0.20000000 208 126 88 97.000000 1.000000 4.000000 1.000000 -60.708740 114.000000 231.000000 0.310700 0.099160 0.945322
-0.34999999 3.29999995 -0.25000000 208 126 88 97.000000 1.000000 4.000000 1.000000 -60.708740 114.000000 231.000000 0.340801 -0.310775 0.887284
-0.34999999 3.22000003 -0.27000001 208 126 88 97.000000 1.000000 4.000000 1.000000 -60.708740 114.000000 231.000000 0.596202 0.012392 0.802739
-0.28999999 3.15000010 -0.06000000 208 126 88 97.000000 1.000000 4.000000 1.000000 -60.708740 114.000000 231.000000 0.226538 -0.280007 0.932886
-0.28999999 3.11999989 -0.09000000 208 126 88 97.000000 1.000000 4.000000 1.000000 -60.708740 114.000000 231.000000 0.176705 -0.566363 0.804990
-0.28999999 3.11999989 -0.09000000 208 126 88 97.000000 1.000000 4.000000 1.000000 -60.708740 114.000000 231.000000 0.176705 -0.566363 0.804990
-0.25000000 3.15000010 -0.09000000 208 126 88 97.000000 1.000000 4.000000 1.000000 -60.708740 114.000000 231.000000 0.485410 0.122433 0.865672
-0.25999999 3.07999992 -0.09000000 208 126 88 97.000000 1.000000 4.000000 1.000000 -60.708740 114.000000 231.000000 0.156191 0.040494 0.986896
-0.33000001 3.10999990 -0.08000000 208 126 88 97.000000 1.000000 4.000000 1.000000 -60.708740 114.000000 231.000000 0.148419 -0.504035 0.850835
-0.33000001 3.10999990 -0.08000000 208 126 88 97.000000 1.000000 4.000000 1.000000 -60.708740 114.000000 231.000000 0.148419 -0.504035 0.850835
-0.31000000 3.15000010 -0.10000000 208 126 88 97.000000 1.000000 4.000000 1.000000 -60.708740 114.000000 231.000000 0.333591 0.055815 0.941064
-0.30000001 3.10999990 -0.09000000 208 126 88 97.000000 1.000000 4.000000 1.000000 -60.708740 114.000000 231.000000 0.499785 -0.167584 0.849783
-0.33000001 3.10999990 -0.08000000 208 126 88 97.000000 1.000000 4.000000 1.000000 -60.708740 114.000000 231.000000 0.148419 -0.504035 0.850835
-0.30000001 3.13000011 -0.09000000 208 126 88 97.000000 1.000000 4.000000 1.000000 -60.708740 114.000000 231.000000 0.224814 -0.020221 0.974192
-0.31000000 3.09999990 -0.08000000 208 126 88 97.000000 1.000000 4.000000 1.000000 -60.708740 114.000000 231.000000 0.500582 -0.148266 0.852898
-0.25999999 3.14000010 -0.12000000 208 126 88 97.000000 1.000000 4.000000 1.000000 -60.708740 114.000000 231.000000 0.730326 0.009738 0.683029
-0.25999999 3.15000010 -0.11000000 208 126 88 97.000000 1.000000 4.000000 1.000000 -60.708740 114.000000 231.000000 0.452344 0.207511 0.867366
-0.25999999 3.11999989 -0.12000000 208 126 88 97.000000 1.000000 4.000000 1.000000 -60.708740 114.000000 231.000000 0.311176 -0.320110 0.894818
-0.27000001 3.15000010 -0.16000000 208 126 88 97.000000 1.000000 4.000000 1.000000 -60.708740 114.000000 231.000000 0.338433 -0.236758 0.910719
-0.28999999 3.07999992 -0.11000000 208 126 88 97.000000 1.000000 4.000000 1.000000 -60.708740 114.000000 231.000000 0.518507 0.111212 0.847810
-0.25999999 3.08999991 -0.11000000 208 126 88 97.000000 1.000000 4.000000 1.000000 -60.708740 114.000000 231.000000 0.695389 -0.192735 0.692306
-0.25999999 3.08999991 -0.11000000 208 126 88 97.000000 1.000000 4.000000 1.000000 -60.708740 114.000000 231.000000 0.695389 -0.192735 0.692306
-0.33000001 3.14000010 -0.13000000 208 126 88 97.000000 1.000000 4.000000 1.000000 -60.708740 114.000000 231.000000 0.193536 -0.127759 0.972739
-0.33000001 3.07999992 -0.14000000 208 126 88 97.000000 1.000000 4.000000 1.000000 -60.708740 114.000000 231.000000 0.454211 -0.460770 0.762485
-0.25000000 3.05999994 -0.06000000 208 126 88 97.000000 1.000000 4.000000 1.000000 -60.708740 114.000000 231.000000 0.221974 -0.044880 0.974019
-0.25999999 3.02999997 -0.07000000 208 126 88 97.000000 1.000000 4.000000 1.000000 -60.708740 114.000000 231.000000 0.134677 0.035084 0.990268
-0.28999999 3.04999995 -0.08000000 208 126 88 97.000000 1.000000 4.000000 1.000000 -60.708740 114.000000 231.000000 0.215783 -0.248768 0.944220
-0.28000000 3.05999994 -0.08000000 208 126 88 97.000000 1.000000 4.000000 1.000000 -60.708740 114.000000 231.000000 0.170435 -0.279514 0.944894
-0.28999999 3.01999998 -0.08000000 208 126 88 97.000000 1.000000 4.000000 1.000000 -60.708740 114.000000 231.000000 0.207071 0.180692 0.961495
-0.25000000 3.04999995 -0.12000000 208 126 88 97.000000 1.000000 4.000000 1.000000 -60.708740 114.000000 231.000000 0.529877 0.001348 0.848073
-0.28999999 3.01999998 -0.12000000 208 126 88 97.000000 1.000000 4.000000 1.000000 -60.708740 114.000000 231.000000 0.485767 -0.398036 0.778202
-0.33000001 3.03999996 -0.14000000 208 126 88 97.000000 1.000000 4.000000 1.000000 -60.708740 114.000000 231.000000 0.420538 -0.153575 0.894182
-0.34000000 3.11999989 -0.06000000 208 126 88 97.000000 1.000000 4.000000 1.000000 -60.708740 114.000000 231.000000 0.286659 -0.340129 0.895622
-0.34999999 3.10999990 -0.06000000 208 126 88 97.000000 1.000000 4.000000 1.000000 -60.708740 114.000000 231.000000 0.377954 0.132493 0.916295
-0.34999999 3.10999990 -0.06000000 208 126 88 97.000000 1.000000 4.000000 1.000000 -60.708740 114.000000 231.000000 0.377954 0.132493 0.916295
-0.34000000 3.11999989 -0.06000000 208 126 88 97.000000 1.000000 4.000000 1.000000 -60.708740 114.000000 231.000000 0.286659 -0.340129 0.895622
-0.36000001 3.11999989 -0.06000000 208 126 88 97.000000 1.000000 4.000000 1.000000 -60.708740 114.000000 231.000000 0.416143 0.009132 0.909253
-0.36000001 3.13000011 -0.06000000 208 126 88 97.000000 1.000000 4.000000 1.000000 -60.708740 114.000000 231.000000 0.412600 -0.152762 0.898012
-0.36000001 3.11999989 -0.06000000 208 126 88 97.000000 1.000000 4.000000 1.000000 -60.708740 114.000000 231.000000 0.416143 0.009132 0.909253
-0.36000001 3.11999989 -0.07000000 208 126 88 97.000000 1.000000 4.000000 1.000000 -60.708740 114.000000 231.000000 0.098397 -0.292567 0.951169
-0.37000000 3.06999993 -0.04000000 208 126 88 97.000000 1.000000 4.000000 1.000000 -60.708740 114.000000 231.000000 0.215541 -0.477807 0.851612
-0.37000000 3.06999993 -0.04000000 208 126 88 97.000000 1.000000 4.000000 1.000000 -60.708740 114.000000 231.000000 0.215541 -0.477807 0.851612
-0.34000000 3.05999994 -0.03000000 208 126 88 97.000000 1.000000 4.000000 1.000000 -60.708740 114.000000 231.000000 0.435935 0.022526 0.899696
-0.34999999 3.04999995 -0.10000000 208 126 88 97.000000 1.000000 4.000000 1.000000 -60.708740 114.000000 231.000000 0.312032 -0.468832 0.826337
-0.37000000 3.04999995 -0.10000000 208 126 88 97.000000 1.000000 4.000000 1.000000 -60.708740 114.000000 231.000000 -0.256989 -0.401263 0.879173
-0.31000000 3.13000011 -0.25000000 208 126 88 97.000000 1.000000 4.000000 1.000000 -60.708740 114.000000 231.000000 0.402275 -0.427918 0.809358
-0.31000000 3.15000010 -0.25999999 208 126 88 97.000000 1.000000 4.000000 1.000000 -60.708740 114.000000 231.000000 0.520754 0.161716 0.838250
-0.33000001 3.10999990 -0.25999999 208 126 88 97.000000 1.000000 4.000000 1.000000 -60.708740 114.000000 231.000000 0.270490 -0.273352 0.923100
-0.31999999 3.09999990 -0.25999999 208 126 88 97.000000 1.000000 4.000000 1.000000 -60.708740 114.000000 231.000000 0.533188 -0.239548 0.811373
-0.30000001 3.09999990 -0.27000001 208 126 88 97.000000 1.000000 4.000000 1.000000 -60.708740 114.000000 231.000000 0.639909 -0.158843 0.751855
-0.33000001 3.07999992 -0.27000001 208 126 88 97.000000 1.000000 4.000000 1.000000 -60.708740 114.000000 231.000000 0.459742 -0.333352 0.823112
-0.31000000 3.09999990 -0.25999999 208 126 88 97.000000 1.000000 4.000000 1.000000 -60.708740 114.000000 231.000000 0.512468 -0.012169 0.858620
-0.33000001 3.07999992 -0.27000001 208 126 88 97.000000 1.000000 4.000000 1.000000 -60.708740 114.000000 231.000000 0.459742 -0.333352 0.823112
-0.30000001 3.09999990 -0.27000001 208 126 88 97.000000 1.000000 4.000000 1.000000 -60.708740 114.000000 231.000000 0.639909 -0.158843 0.751855
-0.27000001 3.11999989 -0.28000000 208 126 88 97.000000 1.000000 4.000000 1.000000 -60.708740 114.000000 231.000000 0.874354 -0.106628 0.473430
-0.28000000 3.14000010 -0.30000001 208 126 88 97.000000 1.000000 4.000000 1.000000 -60.708740 114.000000 231.000000 0.884237 -0.067594 0.462121
-0.28000000 3.13000011 -0.31000000 208 126 88 97.000000 1.000000 4.000000 1.000000 -60.708740 114.000000 231.000000 0.661374 -0.341302 0.667906
-0.25000000 3.10999990 -0.34999999 208 126 88 97.000000 1.000000 4.000000 1.000000 -60.708740 114.000000 231.000000 0.695965 -0.210191 0.686624
-0.27000001 3.10999990 -0.31999999 208 126 88 97.000000 1.000000 4.000000 1.000000 -60.708740 114.000000 231.000000 0.472595 -0.414130 0.777914
-0.25000000 3.07999992 -0.30000001 208 126 88 97.000000 1.000000 4.000000 1.000000 -60.708740 114.000000 231.000000 0.828381 -0.225087 0.512953
-0.25000000 3.08999991 -0.30000001 208 126 88 97.000000 1.000000 4.000000 1.000000 -60.708740 114.000000 231.000000 0.687701 -0.156365 0.708955
-0.27000001 3.09999990 -0.28000000 208 126 88 97.000000 1.000000 4.000000 1.000000 -60.708740 114.000000 231.000000 0.551513 -0.230183 0.801779
-0.27000001 3.09999990 -0.28999999 208 126 88 97.000000 1.000000 4.000000 1.000000 -60.708740 114.000000 231.000000 0.675746 -0.481238 0.558370
-0.25000000 3.08999991 -0.30000001 208 126 88 97.000000 1.000000 4.000000 1.000000 -60.708740 114.000000 231.000000 0.687701 -0.156365 0.708955
-0.28000000 3.07999992 -0.28000000 208 126 88 97.000000 1.000000 4.000000 1.000000 -60.708740 114.000000 231.000000 0.810430 -0.246383 0.531506
-0.27000001 3.09999990 -0.28000000 208 126 88 97.000000 1.000000 4.000000 1.000000 -60.708740 114.000000 231.000000 0.551513 -0.230183 0.801779
-0.25000000 3.06999993 -0.33000001 208 126 88 97.000000 1.000000 4.000000 1.000000 -60.708740 114.000000 231.000000 0.654082 -0.004149 0.756412
-0.30000001 3.13000011 -0.30000001 208 126 88 97.000000 1.000000 4.000000 1.000000 -60.708740 114.000000 231.000000 0.422898 -0.084028 0.902273
-0.31999999 3.15000010 -0.30000001 208 126 88 97.000000 1.000000 4.000000 1.000000 -60.708740 114.000000 231.000000 0.533990 -0.093055 0.840354
-0.31999999 3.13000011 -0.28000000 208 126 88 97.000000 1.000000 4.000000 1.000000 -60.708740 114.000000 231.000000 0.193705 -0.296828 0.935078
-0.30000001 3.11999989 -0.30000001 208 126 88 97.000000 1.000000 4.000000 1.000000 -60.708740 114.000000 231.000000 0.330552 -0.034459 0.943158
-0.25999999 3.05999994 -0.20999999 208 126 88 97.000000 1.000000 4.000000 1.000000 -60.708740 114.000000 231.000000 0.344535 -0.133147 0.929283
-0.28999999 3.03999996 -0.20999999 208 126 88 97.000000 1.000000 4.000000 1.000000 -60.708740 114.000000 231.000000 0.206512 0.039393 0.977651
