//X Y Z R G B PointSourceId ScanDirectionFlag NumberOfReturns ReturnNumber GpsTime Intensity Classification Nx Ny Nz
-10.56999969 -18.34000015 -0.88000000 70 75 183 0.000000 0.000000 1.000000 1.000000 1686050351.523865 257.000000 46.000000 0.349290 0.735945 -0.579984
-10.53999996 -18.37000084 -0.86000001 70 75 183 0.000000 0.000000 1.000000 1.000000 1686050055.818177 9766.000000 46.000000 -0.242461 0.777441 -0.580343
-10.56999969 -18.50000000 -0.88000000 70 75 183 0.000000 0.000000 1.000000 1.000000 1686050051.985047 19532.000000 46.000000 -0.026646 -0.750308 0.660551
-10.56999969 -18.45999908 -0.91000003 70 75 183 0.000000 0.000000 1.000000 1.000000 1686050360.289551 7196.000000 46.000000 -0.254117 0.856693 -0.448889
-10.52000046 -18.42000008 -0.86000001 70 75 183 0.000000 0.000000 1.000000 1.000000 1686050053.212830 8224.000000 46.000000 0.034204 0.994133 -0.102613
-10.59000015 -18.38999939 -0.91000003 70 75 183 0.000000 0.000000 1.000000 1.000000 1686050051.983674 3341.000000 46.000000 0.146631 0.948394 -0.281155
-10.59000015 -18.39999962 -0.92000002 70 75 183 0.000000 0.000000 1.000000 1.000000 1686050361.539979 4112.000000 46.000000 0.033829 0.983363 -0.178475
-10.64000034 -18.35000038 -0.86000001 70 75 183 0.000000 0.000000 1.000000 1.000000 1686050073.637116 2313.000000 46.000000 0.450680 0.879622 -0.152159
-10.64999962 -18.38999939 -0.86000001 70 75 183 0.000000 0.000000 1.000000 1.000000 1686050354.025452 7967.000000 46.000000 0.137047 0.875659 -0.463075
-10.61999989 -18.39999962 -0.89999998 70 75 183 0.000000 0.000000 1.000000 1.000000 1686050067.468690 3341.000000 46.000000 0.057484 0.839833 -0.539793
-10.59000015 -18.45000076 -0.88999999 70 75 183 0.000000 0.000000 1.000000 1.000000 1686050048.317139 9252.000000 46.000000 -0.172482 0.910879 -0.374900
-10.60000038 -18.44000053 -0.87000000 70 75 183 0.000000 0.000000 1.000000 1.000000 1686050046.793275 9766.000000 46.000000 0.058778 0.892607 -0.446987
-10.65999985 -18.25000000 -0.76999998 70 75 183 0.000000 0.000000 1.000000 1.000000 1686050046.892762 10280.000000 46.000000 0.773223 0.178436 -0.608512
-10.68000031 -18.30999947 -0.75000000 70 75 183 0.000000 0.000000 1.000000 1.000000 1686050360.289979 7196.000000 46.000000 0.482193 0.449279 -0.752089
-10.71000004 -18.29000092 -0.77999997 70 75 183 0.000000 0.000000 1.000000 1.000000 1686050356.430360 3855.000000 46.000000 0.403157 0.638747 -0.655337
-10.72000027 -18.30999947 -0.77999997 70 75 183 0.000000 0.000000 1.000000 1.000000 1686050049.492249 13107.000000 46.000000 0.839356 0.487713 -0.240035
-10.72000027 -18.31999969 -0.80000001 70 75 183 0.000000 0.000000 1.000000 1.000000 1686050057.172913 8481.000000 46.000000 0.438622 0.791462 -0.425674
-10.73999977 -18.19000053 -0.70999998 70 75 183 0.000000 0.000000 1.000000 1.000000 1686050050.715028 11565.000000 46.000000 0.713722 0.589026 -0.379011
-10.77999973 -18.20000076 -0.72000003 70 75 183 0.000000 0.000000 1.000000 1.000000 1686050046.892976 25700.000000 46.000000 0.809633 -0.144100 -0.568972
-10.73999977 -18.22999954 -0.73000002 70 75 183 0.000000 0.000000 1.000000 1.000000 1686050356.429688 6425.000000 46.000000 0.642136 0.574720 -0.507304
-10.77999973 -18.23999977 -0.75999999 70 75 183 0.000000 0.000000 1.000000 1.000000 1686050356.530335 8481.000000 46.000000 0.674427 0.577363 -0.460217
-10.78999996 -18.23999977 -0.75000000 70 75 183 0.000000 0.000000 1.000000 1.000000 1686050051.980897 15677.000000 46.000000 0.800162 0.466627 -0.376830
-10.78999996 -18.23999977 -0.74000001 70 75 183 0.000000 0.000000 1.000000 1.000000 1686050362.895447 4112.000000 46.000000 0.860179 0.227473 -0.456452
-10.81999969 -18.22999954 -0.79000002 70 75 183 0.000000 0.000000 1.000000 1.000000 1686050055.922517 2570.000000 46.000000 0.813900 0.078950 -0.575616
-10.75000000 -18.32999992 -0.86000001 70 75 183 0.000000 0.000000 1.000000 1.000000 1686050062.471223 4626.000000 46.000000 0.486351 0.634444 -0.600786
-10.76000023 -18.31999969 -0.86000001 70 75 183 0.000000 0.000000 1.000000 1.000000 1686050062.471070 2313.000000 46.000000 0.676706 0.583137 -0.449467
-10.77999973 -18.30999947 -0.87000000 70 75 183 0.000000 0.000000 1.000000 1.000000 1686050055.921662 5654.000000 46.000000 0.565798 0.562421 -0.602955
-10.65999985 -18.34000015 -0.74000001 70 75 183 0.000000 0.000000 1.000000 1.000000 1686050046.792756 9509.000000 46.000000 0.428111 0.866811 -0.255656
-10.65999985 -18.44000053 -0.75000000 70 75 183 0.000000 0.000000 1.000000 1.000000 1686050046.793488 8995.000000 46.000000 0.513298 0.830111 -0.217809
-10.65999985 -18.45000076 -0.75000000 70 75 183 0.000000 0.000000 1.000000 1.000000 1686050046.893342 8995.000000 46.000000 0.740329 0.496300 -0.453431
-10.67000008 -18.45000076 -0.74000001 70 75 183 0.000000 0.000000 1.000000 1.000000 1686050046.989594 13364.000000 46.000000 0.254451 0.948410 -0.189138
-10.68999958 -18.42000008 -0.77999997 70 75 183 0.000000 0.000000 1.000000 1.000000 1686050053.213044 2570.000000 46.000000 0.535611 0.804198 -0.257656
-10.72999954 -18.45000076 -0.81999999 70 75 183 0.000000 0.000000 1.000000 1.000000 1686050068.633973 3084.000000 46.000000 0.595662 0.468140 -0.652711
-10.71000004 -18.48999977 -0.83999997 70 75 183 0.000000 0.000000 1.000000 1.000000 1686050051.984742 6168.000000 46.000000 0.422230 0.554694 -0.716963
-10.76000023 -18.40999985 -0.80000001 70 75 183 0.000000 0.000000 1.000000 1.000000 1686050363.940491 9509.000000 46.000000 0.682135 0.348429 -0.642876
-10.77000046 -18.40999985 -0.81000000 70 75 183 0.000000 0.000000 1.000000 1.000000 1686050359.030091 1799.000000 46.000000 -0.324145 -0.572495 0.753113
-10.65999985 -18.35000038 -0.87000000 70 75 183 0.000000 0.000000 1.000000 1.000000 1686050356.430787 8224.000000 46.000000 0.781408 0.587212 -0.211150
-10.65999985 -18.39999962 -0.86000001 70 75 183 0.000000 0.000000 1.000000 1.000000 1686050359.131470 10537.000000 46.000000 0.229185 0.873300 -0.429909
-10.69999981 -18.38999939 -0.89999998 70 75 183 0.000000 0.000000 1.000000 1.000000 1686050353.923585 1028.000000 46.000000 0.670874 0.434487 -0.600957
-10.68000031 -18.45999908 -0.88000000 70 75 183 0.000000 0.000000 1.000000 1.000000 1686050061.126740 3598.000000 46.000000 0.387322 0.814493 -0.431952
-10.72999954 -18.43000031 -0.89999998 70 75 183 0.000000 0.000000 1.000000 1.000000 1686050054.576997 7967.000000 46.000000 0.606269 0.786232 -0.119484
-10.72000027 -18.44000053 -0.88999999 70 75 183 0.000000 0.000000 1.000000 1.000000 1686050362.798463 4626.000000 46.000000 0.574440 0.520533 -0.631715
-10.71000004 -18.45000076 -0.89999998 70 75 183 0.000000 0.000000 1.000000 1.000000 1686050351.421204 771.000000 46.000000 0.383500 0.899693 -0.208519
-10.69999981 -18.45000076 -0.88000000 70 75 183 0.000000 0.000000 1.000000 1.000000 1686050352.896180 1028.000000 46.000000 0.347763 0.651444 -0.674301
-10.69999981 -18.44000053 -0.88000000 70 75 183 0.000000 0.000000 1.000000 1.000000 1686050049.493714 2570.000000 46.000000 0.127103 0.840052 -0.527406
-10.72999954 -18.45999908 -0.87000000 70 75 183 0.000000 0.000000 1.000000 1.000000 1686050355.196839 11565.000000 46.000000 0.340377 0.714954 -0.610724
-10.71000004 -18.46999931 -0.87000000 70 75 183 0.000000 0.000000 1.000000 1.000000 1686050352.896119 1285.000000 46.000000 0.307402 0.719417 -0.622851
-10.72999954 -18.45999908 -0.87000000 70 75 183 0.000000 0.000000 1.000000 1.000000 1686050062.367188 5397.000000 46.000000 0.340377 0.714954 -0.610724
-10.76000023 -18.34000015 -0.88000000 70 75 183 0.000000 0.000000 1.000000 1.000000 1686050057.173432 11565.000000 46.000000 0.697369 0.581417 -0.419084
-10.80000019 -18.44000053 -0.86000001 70 75 183 0.000000 0.000000 1.000000 1.000000 1686050355.397767 1028.000000 46.000000 0.658682 0.655397 -0.369585
-10.90999985 -18.01000023 -0.72000003 70 75 183 0.000000 0.000000 1.000000 1.000000 1686050396.352235 2313.000000 46.000000 0.886120 -0.458908 0.064771
-10.94999981 -18.03000069 -0.69999999 70 75 183 0.000000 0.000000 1.000000 1.000000 1686050361.437684 23387.000000 46.000000 0.972780 0.231726 -0.001176
-10.93000031 -18.12999916 -0.73000002 70 75 183 0.000000 0.000000 1.000000 1.000000 1686050049.491029 14392.000000 46.000000 0.788260 0.279603 -0.548149
-11.01000023 -18.01000023 -0.70999998 70 75 183 0.000000 0.000000 1.000000 1.000000 1686050046.893281 17476.000000 46.000000 0.943095 -0.308087 0.125118
-11.02000046 -18.05999947 -0.69999999 70 75 183 0.000000 0.000000 1.000000 1.000000 1686050052.077302 24672.000000 46.000000 0.859796 -0.418403 -0.292729
-10.88000011 -18.20999908 -0.79000002 70 75 183 0.000000 0.000000 1.000000 1.000000 1686050995.200074 2056.000000 46.000000 0.862110 0.188447 -0.470377
-10.89000034 -18.23999977 -0.85000002 70 75 183 0.000000 0.000000 1.000000 1.000000 1686050352.897462 257.000000 46.000000 0.825615 0.268986 -0.495991
-10.85000038 -18.28000069 -0.75000000 70 75 183 0.000000 0.000000 1.000000 1.000000 1686050364.037843 6168.000000 46.000000 0.901708 -0.110442 -0.418001
-10.85999966 -18.28000069 -0.75000000 70 75 183 0.000000 0.000000 1.000000 1.000000 1686050355.398682 257.000000 46.000000 0.905582 0.113023 -0.408837
-10.85999966 -18.29999924 -0.81999999 70 75 183 0.000000 0.000000 1.000000 1.000000 1686050051.982667 11565.000000 46.000000 0.900955 0.036145 -0.432405
-10.82999992 -18.32999992 -0.82999998 70 75 183 0.000000 0.000000 1.000000 1.000000 1686050062.366425 5140.000000 46.000000 0.521541 0.572176 -0.632938
-10.86999989 -18.32999992 -0.82999998 70 75 183 0.000000 0.000000 1.000000 1.000000 1686050058.426697 5397.000000 46.000000 0.567695 0.507051 -0.648554
-10.86999989 -18.32999992 -0.82999998 70 75 183 0.000000 0.000000 1.000000 1.000000 1686050360.290528 4626.000000 46.000000 0.567695 0.507051 -0.648554
-10.92000008 -18.17000008 -0.76999998 70 75 183 0.000000 0.000000 1.000000 1.000000 1686050356.529664 14392.000000 46.000000 0.890586 -0.129256 -0.436061
-10.96000004 -18.18000031 -0.70999998 70 75 183 0.000000 0.000000 1.000000 1.000000 1686050058.427766 5140.000000 46.000000 0.793865 0.190467 -0.577495
-10.97000027 -18.18000031 -0.75999999 70 75 183 0.000000 0.000000 1.000000 1.000000 1686050058.427583 6682.000000 46.000000 0.817233 0.255870 -0.516392
-10.94999981 -18.23999977 -0.76999998 70 75 183 0.000000 0.000000 1.000000 1.000000 1686050057.171021 4883.000000 46.000000 0.841803 0.219931 -0.492948
-10.93000031 -18.23999977 -0.82999998 70 75 183 0.000000 0.000000 1.000000 1.000000 1686050049.492615 11822.000000 46.000000 0.925887 -0.175092 -0.334776
-10.93000031 -18.28000069 -0.70999998 70 75 183 0.000000 0.000000 1.000000 1.000000 1686050055.821015 5654.000000 46.000000 0.817745 0.235621 -0.525143
-10.89999962 -18.29999924 -0.88000000 70 75 183 0.000000 0.000000 1.000000 1.000000 1686050357.696229 10023.000000 46.000000 0.981157 0.043791 -0.188183
-10.84000015 -18.36000061 -0.77999997 70 75 183 0.000000 0.000000 1.000000 1.000000 1686050365.285889 2827.000000 46.000000 0.570656 0.651457 -0.499955
-10.56999969 -18.53000069 -0.61000001 70 75 183 0.000000 0.000000 1.000000 1.000000 1686050365.285340 3084.000000 46.000000 -0.449166 -0.576068 0.682932
-10.53999996 -18.64999962 -0.68000001 70 75 183 0.000000 0.000000 1.000000 1.000000 1686050051.878358 14906.000000 46.000000 -0.185953 -0.708467 0.680805
-10.64000034 -18.51000023 -0.64999998 70 75 183 0.000000 0.000000 1.000000 1.000000 1686050051.984071 20046.000000 46.000000 -0.347879 -0.554988 0.755625
-10.61999989 -18.57999992 -0.67000002 70 75 183 0.000000 0.000000 1.000000 1.000000 1686050359.032044 5140.000000 46.000000 0.236810 0.928807 -0.285023
-10.61999989 -18.57999992 -0.67000002 70 75 183 0.000000 0.000000 1.000000 1.000000 1686050352.697449 3084.000000 46.000000 0.236810 0.928807 -0.285023
-10.64999962 -18.65999985 -0.68000001 70 75 183 0.000000 0.000000 1.000000 1.000000 1686050053.211182 1285.000000 46.000000 -0.035333 -0.705251 0.708077
-10.50000000 -18.67000008 -0.64999998 70 75 183 0.000000 0.000000 1.000000 1.000000 1686050059.574311 9509.000000 46.000000 0.265320 0.729234 -0.630732
-10.53999996 -18.72999954 -0.68000001 70 75 183 0.000000 0.000000 1.000000 1.000000 1686050357.888489 3084.000000 46.000000 0.444275 0.816893 -0.367840
-10.57999992 -18.70000076 -0.63000000 70 75 183 0.000000 0.000000 1.000000 1.000000 1686050359.033326 11051.000000 46.000000 0.285929 0.931031 -0.226772
-10.67000008 -18.52000046 -0.66000003 70 75 183 0.000000 0.000000 1.000000 1.000000 1686050366.651368 3598.000000 46.000000 -0.325660 -0.630256 0.704786
-10.68000031 -18.55999947 -0.67000002 70 75 183 0.000000 0.000000 1.000000 1.000000 1686050049.391572 17733.000000 46.000000 0.356361 0.746893 -0.561390
-10.68000031 -18.55999947 -0.67000002 70 75 183 0.000000 0.000000 1.000000 1.000000 1686050050.814149 9252.000000 46.000000 0.356361 0.746893 -0.561390
-10.67000008 -18.56999969 -0.67000002 70 75 183 0.000000 0.000000 1.000000 1.000000 1686050053.415925 12079.000000 46.000000 0.667554 0.590593 -0.453401
-10.68999958 -18.57999992 -0.69000000 70 75 183 0.000000 0.000000 1.000000 1.000000 1686050053.212037 7967.000000 46.000000 -0.025417 0.892258 -0.450811
-10.69999981 -18.55999947 -0.69000000 70 75 183 0.000000 0.000000 1.000000 1.000000 1686050051.985444 10794.000000 46.000000 0.557691 0.792014 -0.248383
-10.72999954 -18.57999992 -0.67000002 70 75 183 0.000000 0.000000 1.000000 1.000000 1686050051.878480 11565.000000 46.000000 0.202643 0.960236 -0.192047
-10.68999958 -18.61000061 -0.69000000 70 75 183 0.000000 0.000000 1.000000 1.000000 1686050351.523072 257.000000 46.000000 0.464113 0.801358 -0.377393
-10.68000031 -18.62000084 -0.69000000 70 75 183 0.000000 0.000000 1.000000 1.000000 1686050354.122315 1285.000000 46.000000 0.438999 0.832367 -0.338297
-10.71000004 -18.60000038 -0.66000003 70 75 183 0.000000 0.000000 1.000000 1.000000 1686050048.117280 8224.000000 46.000000 0.080378 0.942132 -0.325464
-10.75000000 -18.57999992 -0.64999998 70 75 183 0.000000 0.000000 1.000000 1.000000 1686050374.054993 2056.000000 46.000000 0.382560 0.906967 -0.176235
-10.50000000 -18.56999969 -0.72000003 70 75 183 0.000000 0.000000 1.000000 1.000000 1686050365.485169 1542.000000 46.000000 -0.292769 -0.747122 0.596737
-10.50000000 -18.56999969 -0.75000000 70 75 183 0.000000 0.000000 1.000000 1.000000 1686050054.480866 9766.000000 46.000000 -0.265942 0.921454 -0.283192
-10.50000000 -18.57999992 -0.75999999 70 75 183 0.000000 0.000000 1.000000 1.000000 1686050057.075257 7967.000000 46.000000 0.362338 -0.703363 0.611549
-10.48999977 -18.57999992 -0.76999998 70 75 183 0.000000 0.000000 1.000000 1.000000 1686050057.075196 6939.000000 46.000000 -0.252332 0.775802 -0.578325
-10.55000019 -18.52000046 -0.69999999 70 75 183 0.000000 0.000000 1.000000 1.000000 1686050356.532349 12079.000000 46.000000 0.192789 0.735681 -0.649312
-10.56000042 -18.54000092 -0.75999999 70 75 183 0.000000 0.000000 1.000000 1.000000 1686050046.893159 4369.000000 46.000000 -0.082602 0.769501 -0.633281
-10.52999973 -18.53000069 -0.75000000 70 75 183 0.000000 0.000000 1.000000 1.000000 1686050049.390900 7453.000000 46.000000 0.038025 0.787262 -0.615445
-10.52999973 -18.53000069 -0.74000001 70 75 183 0.000000 0.000000 1.000000 1.000000 1686050355.292237 7710.000000 46.000000 -0.183753 0.803351 -0.566446
-10.56000042 -18.54000092 -0.75999999 70 75 183 0.000000 0.000000 1.000000 1.000000 1686050049.391175 6168.000000 46.000000 -0.082602 0.769501 -0.633281
-10.56999969 -18.54999924 -0.76999998 70 75 183 0.000000 0.000000 1.000000 1.000000 1686050057.074677 9766.000000 46.000000 -0.035001 0.805020 -0.592215
-10.56999969 -18.54999924 -0.76999998 70 75 183 0.000000 0.000000 1.000000 1.000000 1686050061.126649 4626.000000 46.000000 -0.035001 0.805020 -0.592215
-10.52000046 -18.51000023 -0.83999997 70 75 183 0.000000 0.000000 1.000000 1.000000 1686050057.074982 6939.000000 46.000000 -0.222446 0.820750 -0.526201
-10.56999969 -18.51000023 -0.81000000 70 75 183 0.000000 0.000000 1.000000 1.000000 1686050052.082185 6682.000000 46.000000 -0.124762 0.817561 -0.562165
-10.56999969 -18.51000023 -0.81000000 70 75 183 0.000000 0.000000 1.000000 1.000000 1686050048.216553 8995.000000 46.000000 -0.124762 0.817561 -0.562165
-10.56000042 -18.54000092 -0.80000001 70 75 183 0.000000 0.000000 1.000000 1.000000 1686050351.523988 4883.000000 46.000000 0.300227 0.789487 -0.535326
-10.56000042 -18.56999969 -0.81999999 70 75 183 0.000000 0.000000 1.000000 1.000000 1686050357.691895 5654.000000 46.000000 -0.117528 -0.697729 0.706655
-10.52000046 -18.60000038 -0.76999998 70 75 183 0.000000 0.000000 1.000000 1.000000 1686050352.696717 4369.000000 46.000000 0.283536 0.703234 -0.651973
-10.56999969 -18.59000015 -0.75000000 70 75 183 0.000000 0.000000 1.000000 1.000000 1686050362.894044 4112.000000 46.000000 -0.129514 0.775597 -0.617798
-10.52999973 -18.59000015 -0.76999998 70 75 183 0.000000 0.000000 1.000000 1.000000 1686050055.919831 6682.000000 46.000000 -0.189141 -0.659689 0.727349
-10.52999973 -18.60000038 -0.76999998 70 75 183 0.000000 0.000000 1.000000 1.000000 1686050352.797364 257.000000 46.000000 0.222999 0.734494 -0.640928
-10.56000042 -18.60000038 -0.83999997 70 75 183 0.000000 0.000000 1.000000 1.000000 1686050350.397523 257.000000 46.000000 -0.198793 0.750483 -0.630283
-10.56000042 -18.64999962 -0.83999997 70 75 183 0.000000 0.000000 1.000000 1.000000 1686050354.122803 6682.000000 46.000000 -0.073226 0.799744 -0.595859
-10.56000042 -18.64999962 -0.83999997 70 75 183 0.000000 0.000000 1.000000 1.000000 1686050076.245881 12336.000000 46.000000 -0.073226 0.799744 -0.595859
-10.59000015 -18.54000092 -0.75000000 70 75 183 0.000000 0.000000 1.000000 1.000000 1686050046.793214 5911.000000 46.000000 -0.055022 0.816863 -0.574202
-10.57999992 -18.54999924 -0.83999997 70 75 183 0.000000 0.000000 1.000000 1.000000 1686050049.494080 5140.000000 46.000000 0.392692 0.767460 -0.506752
-10.63000011 -18.51000023 -0.81000000 70 75 183 0.000000 0.000000 1.000000 1.000000 1686050046.989991 3084.000000 46.000000 0.026040 0.845625 -0.533141
-10.63000011 -18.52000046 -0.81999999 70 75 183 0.000000 0.000000 1.000000 1.000000 1686050356.531922 10023.000000 46.000000 0.573421 0.712231 -0.404865
-10.61999989 -18.57999992 -0.81000000 70 75 183 0.000000 0.000000 1.000000 1.000000 1686050158.770020 2313.000000 46.000000 0.529937 0.651066 -0.543396
-10.57999992 -18.65999985 -0.83999997 70 75 183 0.000000 0.000000 1.000000 1.000000 1686050049.494904 3341.000000 46.000000 -0.073532 0.780019 -0.621420
-10.61999989 -18.59000015 -0.81000000 70 75 183 0.000000 0.000000 1.000000 1.000000 1686050353.925294 7453.000000 46.000000 0.456788 0.740425 -0.493067
-10.63000011 -18.62000084 -0.80000001 70 75 183 0.000000 0.000000 1.000000 1.000000 1686050072.470643 3084.000000 46.000000 -0.049877 -0.671197 0.739599
-10.63000011 -18.59000015 -0.82999998 70 75 183 0.000000 0.000000 1.000000 1.000000 1686050352.895325 7196.000000 46.000000 0.545422 0.809682 -0.216632
-10.60999966 -18.51000023 -0.86000001 70 75 183 0.000000 0.000000 1.000000 1.000000 1686050058.323212 5654.000000 46.000000 0.439299 0.659784 -0.609674
-10.51000023 -18.67000008 -0.72000003 70 75 183 0.000000 0.000000 1.000000 1.000000 1686050062.266846 4369.000000 46.000000 -0.153223 0.865345 -0.477180
-10.53999996 -18.79000092 -0.80000001 70 75 183 0.000000 0.000000 1.000000 1.000000 1686050361.343323 10280.000000 46.000000 -0.119958 0.978215 -0.169425
-10.63000011 -18.68000031 -0.76999998 70 75 183 0.000000 0.000000 1.000000 1.000000 1686050351.421693 4883.000000 46.000000 0.139695 -0.716501 0.683455
-10.64000034 -18.79999924 -0.82999998 70 75 183 0.000000 0.000000 1.000000 1.000000 1686050051.987336 13878.000000 46.000000 -0.398289 -0.616440 0.679241
-10.64000034 -18.70999908 -0.87000000 70 75 183 0.000000 0.000000 1.000000 1.000000 1686050350.298157 2570.000000 46.000000 -0.041225 -0.706506 0.706506
-10.61999989 -18.70999908 -0.88000000 70 75 183 0.000000 0.000000 1.000000 1.000000 1686050053.312623 8224.000000 46.000000 -0.199463 0.876158 -0.438818
-10.65999985 -18.53000069 -0.74000001 70 75 183 0.000000 0.000000 1.000000 1.000000 1686050050.613709 8738.000000 46.000000 0.545037 0.729461 -0.413306
-10.65999985 -18.56999969 -0.69999999 70 75 183 0.000000 0.000000 1.000000 1.000000 1686050062.471162 2570.000000 46.000000 -0.057484 0.839833 -0.539793
-10.68000031 -18.55999947 -0.73000002 70 75 183 0.000000 0.000000 1.000000 1.000000 1686050048.216187 10794.000000 46.000000 0.294620 0.868595 -0.398424
-10.68999958 -18.57999992 -0.70999998 70 75 183 0.000000 0.000000 1.000000 1.000000 1686050059.572968 4883.000000 46.000000 -0.322233 -0.639608 0.697902
-10.65999985 -18.54999924 -0.75000000 70 75 183 0.000000 0.000000 1.000000 1.000000 1686050059.680421 4626.000000 46.000000 -0.275311 -0.545903 0.791324
-10.72000027 -18.53000069 -0.72000003 70 75 183 0.000000 0.000000 1.000000 1.000000 1686050357.790894 6425.000000 46.000000 0.698813 0.404750 -0.589778
-10.69999981 -18.52000046 -0.75000000 70 75 183 0.000000 0.000000 1.000000 1.000000 1686050370.293885 1542.000000 46.000000 0.565715 0.606243 -0.558960
-10.69999981 -18.56999969 -0.70999998 70 75 183 0.000000 0.000000 1.000000 1.000000 1686050052.082581 16191.000000 46.000000 -0.536634 -0.489825 0.687092
-10.69999981 -18.56999969 -0.70999998 70 75 183 0.000000 0.000000 1.000000 1.000000 1686050049.594910 8481.000000 46.000000 -0.536634 -0.489825 0.687092
-10.72999954 -18.52000046 -0.79000002 70 75 183 0.000000 0.000000 1.000000 1.000000 1686050053.416077 8738.000000 46.000000 -0.423757 -0.583289 0.692967
-10.72999954 -18.52000046 -0.79000002 70 75 183 0.000000 0.000000 1.000000 1.000000 1686050050.711640 11565.000000 46.000000 -0.423757 -0.583289 0.692967
-10.69999981 -18.57999992 -0.81000000 70 75 183 0.000000 0.000000 1.000000 1.000000 1686050046.794495 6168.000000 46.000000 -0.434704 -0.581270 0.687864
-10.69999981 -18.57999992 -0.81999999 70 75 183 0.000000 0.000000 1.000000 1.000000 1686050359.133363 9766.000000 46.000000 0.104245 0.863952 -0.492667
-10.67000008 -18.62000084 -0.69999999 70 75 183 0.000000 0.000000 1.000000 1.000000 1686050053.313294 20046.000000 46.000000 -0.136716 0.836465 -0.530692
-10.68999958 -18.62000084 -0.70999998 70 75 183 0.000000 0.000000 1.000000 1.000000 1686050046.693543 6939.000000 46.000000 0.299476 0.533986 -0.790679
-10.67000008 -18.62000084 -0.80000001 70 75 183 0.000000 0.000000 1.000000 1.000000 1686050046.990723 7967.000000 46.000000 0.602570 0.589068 -0.538431
-10.65999985 -18.59000015 -0.82999998 70 75 183 0.000000 0.000000 1.000000 1.000000 1686050049.392304 6168.000000 46.000000 0.532908 0.754545 -0.382977
-10.65999985 -18.59000015 -0.83999997 70 75 183 0.000000 0.000000 1.000000 1.000000 1686050053.415650 13364.000000 46.000000 0.557256 0.791397 -0.251311
-10.65999985 -18.59000015 -0.83999997 70 75 183 0.000000 0.000000 1.000000 1.000000 1686050058.425263 10280.000000 46.000000 0.557256 0.791397 -0.251311
-10.65999985 -18.65999985 -0.85000002 70 75 183 0.000000 0.000000 1.000000 1.000000 1686050355.292420 7710.000000 46.000000 0.400956 0.717760 -0.569258
-10.72000027 -18.59000015 -0.80000001 70 75 183 0.000000 0.000000 1.000000 1.000000 1686050356.531983 25700.000000 46.000000 0.161317 0.791508 -0.589485
-10.73999977 -18.54000092 -0.80000001 70 75 183 0.000000 0.000000 1.000000 1.000000 1686050053.211915 9509.000000 46.000000 0.482837 0.630885 -0.607332
-10.76000023 -18.54000092 -0.77999997 70 75 183 0.000000 0.000000 1.000000 1.000000 1686050048.116639 4626.000000 46.000000 0.453424 0.526503 -0.719167
-10.77999973 -18.51000023 -0.77999997 70 75 183 0.000000 0.000000 1.000000 1.000000 1686050357.692933 4626.000000 46.000000 0.424413 0.874320 -0.235452
-10.76000023 -18.54000092 -0.81000000 70 75 183 0.000000 0.000000 1.000000 1.000000 1686050051.985932 17990.000000 46.000000 0.502630 0.721597 -0.476088
-10.73999977 -18.54000092 -0.80000001 70 75 183 0.000000 0.000000 1.000000 1.000000 1686050059.573029 6682.000000 46.000000 0.482837 0.630885 -0.607332
-10.75000000 -18.55999947 -0.77999997 70 75 183 0.000000 0.000000 1.000000 1.000000 1686050048.315461 8481.000000 46.000000 -0.435944 -0.636378 0.636378
-10.81000042 -18.54999924 -0.83999997 70 75 183 0.000000 0.000000 1.000000 1.000000 1686050061.031403 5654.000000 46.000000 0.404741 0.845425 -0.348484
-10.75000000 -18.60000038 -0.70999998 70 75 183 0.000000 0.000000 1.000000 1.000000 1686050946.708863 2313.000000 46.000000 0.095413 0.902965 -0.418987
-10.78999996 -18.65999985 -0.83999997 70 75 183 0.000000 0.000000 1.000000 1.000000 1686050352.699097 5654.000000 46.000000 0.148569 0.848754 -0.507487
-10.72999954 -18.54000092 -0.87000000 70 75 183 0.000000 0.000000 1.000000 1.000000 1686050360.288636 8224.000000 46.000000 0.413230 0.645568 -0.642249
-10.72000027 -18.54000092 -0.93000001 70 75 183 0.000000 0.000000 1.000000 1.000000 1686050051.986390 10537.000000 46.000000 0.575187 0.811086 -0.106300
-10.69999981 -18.65999985 -0.86000001 70 75 183 0.000000 0.000000 1.000000 1.000000 1686050050.710206 17219.000000 46.000000 0.230024 0.727627 -0.646258
-10.68999958 -18.69000053 -0.75999999 70 75 183 0.000000 0.000000 1.000000 1.000000 1686050351.522706 1799.000000 46.000000 0.623026 0.737168 -0.261576
-10.69999981 -18.76000023 -0.79000002 70 75 183 0.000000 0.000000 1.000000 1.000000 1686050050.612519 8224.000000 46.000000 -0.144838 0.798850 -0.583833
-10.75000000 -18.69000053 -0.82999998 70 75 183 0.000000 0.000000 1.000000 1.000000 1686050064.965974 2056.000000 46.000000 0.541840 0.753370 -0.372617
-10.65999985 -18.67000008 -0.86000001 70 75 183 0.000000 0.000000 1.000000 1.000000 1686050353.924927 9509.000000 46.000000 -0.216574 0.846609 -0.486157
-10.78999996 -18.73999977 -0.86000001 70 75 183 0.000000 0.000000 1.000000 1.000000 1686050352.698853 6682.000000 46.000000 0.236010 0.758047 -0.608000
-10.89999962 -18.62999916 -0.81999999 70 75 183 0.000000 0.000000 1.000000 1.000000 1686050063.632172 5140.000000 46.000000 0.452441 0.834433 -0.314673
-10.86999989 -18.64999962 -0.82999998 70 75 183 0.000000 0.000000 1.000000 1.000000 1686050359.031983 7710.000000 46.000000 0.549725 0.822365 -0.146692
-10.84000015 -18.64999962 -0.88000000 70 75 183 0.000000 0.000000 1.000000 1.000000 1686050057.175202 14649.000000 46.000000 -0.398481 -0.433688 0.808163
-10.89000034 -18.70000076 -0.82999998 70 75 183 0.000000 0.000000 1.000000 1.000000 1686050023.884278 4112.000000 46.000000 0.446096 0.834277 -0.324006
-10.85000038 -18.68000031 -0.87000000 70 75 183 0.000000 0.000000 1.000000 1.000000 1686050055.816285 9509.000000 46.000000 -0.209161 -0.636779 0.742135
-9.78999996 -18.14999962 -0.41000000 70 75 183 0.000000 0.000000 0.000000 0.000000 -60.708740 0.000000 46.000000 0.949940 -0.095649 -0.297430
-10.14999962 -17.63999939 -0.68000001 70 75 183 0.000000 0.000000 0.000000 0.000000 -60.708740 0.000000 46.000000 0.467340 0.876084 -0.118621
-10.47999954 -17.59000015 -0.30000001 70 75 183 0.000000 0.000000 0.000000 0.000000 -60.708740 0.000000 46.000000 0.833730 -0.547799 0.069360
-10.17000008 -17.61000061 -0.56000000 70 75 183 0.000000 0.000000 0.000000 0.000000 -60.708740 0.000000 46.000000 -0.370542 -0.553364 0.745981
-10.22000027 -17.64999962 -0.54000002 70 75 183 0.000000 0.000000 0.000000 0.000000 -60.708740 0.000000 46.000000 0.479146 0.745886 -0.462680
-10.17000008 -17.62999916 -0.69000000 70 75 183 0.000000 0.000000 0.000000 0.000000 -60.708740 0.000000 46.000000 0.445127 0.691864 -0.568495
-10.26000023 -17.65999985 -0.69000000 70 75 183 0.000000 0.000000 0.000000 0.000000 -60.708740 0.000000 46.000000 0.613401 0.761729 -0.208587
-10.19999981 -17.69000053 -0.47999999 70 75 183 0.000000 0.000000 0.000000 0.000000 -60.708740 0.000000 46.000000 0.272416 0.692989 -0.667500
-10.19999981 -17.67000008 -0.50999999 70 75 183 0.000000 0.000000 0.000000 0.000000 -60.708740 0.000000 46.000000 0.411986 0.894805 -0.172022
-10.21000004 -17.71999931 -0.50000000 70 75 183 0.000000 0.000000 0.000000 0.000000 -60.708740 0.000000 46.000000 0.378429 0.735561 -0.561909
-10.23999977 -17.70000076 -0.46000001 70 75 183 0.000000 0.000000 0.000000 0.000000 -60.708740 0.000000 46.000000 -0.637492 -0.502929 0.583667
-10.17000008 -17.67000008 -0.55000001 70 75 183 0.000000 0.000000 0.000000 0.000000 -60.708740 0.000000 46.000000 0.161115 0.796539 -0.582724
-10.18000031 -17.70999908 -0.56000000 70 75 183 0.000000 0.000000 0.000000 0.000000 -60.708740 0.000000 46.000000 0.582095 0.732103 -0.353823
-10.19999981 -17.68000031 -0.55000001 70 75 183 0.000000 0.000000 0.000000 0.000000 -60.708740 0.000000 46.000000 0.599359 0.612865 -0.514942
-10.19999981 -17.69000053 -0.56000000 70 75 183 0.000000 0.000000 0.000000 0.000000 -60.708740 0.000000 46.000000 0.460487 0.744371 -0.483594
-10.21000004 -17.68000031 -0.58999997 70 75 183 0.000000 0.000000 0.000000 0.000000 -60.708740 0.000000 46.000000 -0.298912 -0.573846 0.762464
-10.17000008 -17.69000053 -0.64999998 70 75 183 0.000000 0.000000 0.000000 0.000000 -60.708740 0.000000 46.000000 0.711290 0.616885 -0.336927
-10.28999996 -17.70999908 -0.60000002 70 75 183 0.000000 0.000000 0.000000 0.000000 -60.708740 0.000000 46.000000 0.156873 0.811259 -0.563250
-10.23999977 -17.72999954 -0.54000002 70 75 183 0.000000 0.000000 0.000000 0.000000 -60.708740 0.000000 46.000000 0.518860 0.798124 -0.306239
-10.25000000 -17.67000008 -0.69000000 70 75 183 0.000000 0.000000 0.000000 0.000000 -60.708740 0.000000 46.000000 0.505928 0.754798 -0.417513
-10.23999977 -17.75000000 -0.60000002 70 75 183 0.000000 0.000000 0.000000 0.000000 -60.708740 0.000000 46.000000 0.787656 0.412428 -0.457714
-10.27000046 -17.76000023 -0.61000001 70 75 183 0.000000 0.000000 0.000000 0.000000 -60.708740 0.000000 46.000000 0.464544 0.700979 -0.541136
-10.23999977 -17.75000000 -0.61000001 70 75 183 0.000000 0.000000 0.000000 0.000000 -60.708740 0.000000 46.000000 0.645976 0.659193 -0.384942
-10.30000019 -17.78000069 -0.69000000 70 75 183 0.000000 0.000000 0.000000 0.000000 -60.708740 0.000000 46.000000 0.240524 0.949866 -0.199757
-10.40999985 -17.55999947 -0.41000000 70 75 183 0.000000 0.000000 0.000000 0.000000 -60.708740 0.000000 46.000000 -0.369489 0.874306 -0.314750
-10.43999958 -17.56999969 -0.41999999 70 75 183 0.000000 0.000000 0.000000 0.000000 -60.708740 0.000000 46.000000 -0.577771 0.671554 -0.463892
-10.47999954 -17.61000061 -0.38000000 70 75 183 0.000000 0.000000 1.000000 1.000000 1686050068.634888 1542.000000 46.000000 -0.702610 0.693505 -0.159339
-10.47000027 -17.61000061 -0.38999999 70 75 183 0.000000 0.000000 0.000000 0.000000 -60.708740 0.000000 46.000000 -0.326799 0.937004 -0.123397
-10.46000004 -17.57999992 -0.38999999 70 75 183 0.000000 0.000000 0.000000 0.000000 -60.708740 0.000000 46.000000 -0.682935 0.670080 -0.290850
-10.47000027 -17.62999916 -0.41999999 70 75 183 0.000000 0.000000 0.000000 0.000000 -60.708740 0.000000 46.000000 -0.566314 0.777696 -0.272904
-10.47999954 -17.62999916 -0.41000000 70 75 183 0.000000 0.000000 1.000000 1.000000 1686050044.185059 4626.000000 46.000000 0.836836 -0.515322 0.184795
-10.43999958 -17.59000015 -0.47999999 70 75 183 0.000000 0.000000 0.000000 0.000000 -60.708740 0.000000 46.000000 0.247639 -0.736609 0.629351
-10.47000027 -17.62000084 -0.47000000 70 75 183 0.000000 0.000000 0.000000 0.000000 -60.708740 0.000000 46.000000 -0.462994 0.871947 -0.159200
-10.47000027 -17.65999985 -0.50999999 70 75 183 0.000000 0.000000 0.000000 0.000000 -60.708740 0.000000 46.000000 -0.212059 0.825352 -0.523283
-10.39999962 -17.63999939 -0.66000003 70 75 183 0.000000 0.000000 0.000000 0.000000 -60.708740 0.000000 46.000000 -0.292620 0.928749 -0.227593
-10.47000027 -17.65999985 -0.56000000 70 75 183 0.000000 0.000000 0.000000 0.000000 -60.708740 0.000000 46.000000 -0.377281 0.896961 -0.230479
-10.46000004 -17.63999939 -0.52999997 70 75 183 0.000000 0.000000 0.000000 0.000000 -60.708740 0.000000 46.000000 -0.069661 0.985875 -0.152309
-10.44999981 -17.64999962 -0.52999997 70 75 183 0.000000 0.000000 0.000000 0.000000 -60.708740 0.000000 46.000000 -0.433076 0.813416 -0.388330
-10.46000004 -17.61000061 -0.64999998 70 75 183 0.000000 0.000000 0.000000 0.000000 -60.708740 0.000000 46.000000 0.405930 -0.637890 0.654459
-10.47000027 -17.63999939 -0.63999999 70 75 183 0.000000 0.000000 0.000000 0.000000 -60.708740 0.000000 46.000000 -0.162002 0.986738 -0.010196
-10.47000027 -17.63999939 -0.63999999 70 75 183 0.000000 0.000000 0.000000 0.000000 -60.708740 0.000000 46.000000 -0.162002 0.986738 -0.010196
-10.44999981 -17.63999939 -0.64999998 70 75 183 0.000000 0.000000 0.000000 0.000000 -60.708740 0.000000 46.000000 -0.191666 0.968623 -0.158221
-10.46000004 -17.65999985 -0.66000003 70 75 183 0.000000 0.000000 0.000000 0.000000 -60.708740 0.000000 46.000000 0.082609 0.781160 -0.618841
-10.39000034 -17.72999954 -0.62000000 70 75 183 0.000000 0.000000 0.000000 0.000000 -60.708740 0.000000 46.000000 0.254869 0.950702 -0.176655
-10.38000011 -17.73999977 -0.66000003 70 75 183 0.000000 0.000000 0.000000 0.000000 -60.708740 0.000000 46.000000 0.230958 0.861941 -0.451349
-10.34000015 -17.82999992 -0.58999997 70 75 183 0.000000 0.000000 0.000000 0.000000 -60.708740 0.000000 46.000000 0.291910 0.943615 -0.156138
-10.34000015 -17.82999992 -0.61000001 70 75 183 0.000000 0.000000 0.000000 0.000000 -60.708740 0.000000 46.000000 0.373537 0.916355 -0.144099
-10.35999966 -17.79999924 -0.64999998 70 75 183 0.000000 0.000000 0.000000 0.000000 -60.708740 0.000000 46.000000 0.307896 0.852517 -0.422391
-10.38000011 -17.80999947 -0.68000001 70 75 183 0.000000 0.000000 0.000000 0.000000 -60.708740 0.000000 46.000000 0.391199 0.837385 -0.381772
-10.44999981 -17.73999977 -0.58999997 70 75 183 0.000000 0.000000 0.000000 0.000000 -60.708740 0.000000 46.000000 -0.344245 0.938735 -0.016514
-10.43999958 -17.67000008 -0.62000000 70 75 183 0.000000 0.000000 0.000000 0.000000 -60.708740 0.000000 46.000000 -0.157200 0.889841 -0.428335
-10.43999958 -17.69000053 -0.67000002 70 75 183 0.000000 0.000000 0.000000 0.000000 -60.708740 0.000000 46.000000 -0.292522 0.954208 -0.062592
-10.47999954 -17.68000031 -0.66000003 70 75 183 0.000000 0.000000 1.000000 1.000000 1686050367.987672 6939.000000 46.000000 -0.263153 0.957040 -0.121757
-10.44999981 -17.69000053 -0.64999998 70 75 183 0.000000 0.000000 0.000000 0.000000 -60.708740 0.000000 46.000000 -0.103110 0.914246 -0.391820
-10.42000008 -17.79000092 -0.56000000 70 75 183 0.000000 0.000000 0.000000 0.000000 -60.708740 0.000000 46.000000 -0.232503 0.759926 -0.607005
-10.44999981 -17.80999947 -0.63999999 70 75 183 0.000000 0.000000 0.000000 0.000000 -60.708740 0.000000 46.000000 -0.244716 0.967682 -0.060868
-10.47999954 -17.80999947 -0.68000001 70 75 183 0.000000 0.000000 0.000000 0.000000 -60.708740 0.000000 46.000000 -0.117084 0.987528 -0.105258
-10.27999973 -17.65999985 -0.85000002 70 75 183 0.000000 0.000000 0.000000 0.000000 -60.708740 0.000000 46.000000 0.465445 0.839657 -0.279886
-10.30000019 -17.65999985 -0.87000000 70 75 183 0.000000 0.000000 0.000000 0.000000 -60.708740 0.000000 46.000000 0.363042 0.671874 -0.645590
-10.26000023 -17.67000008 -0.69999999 70 75 183 0.000000 0.000000 0.000000 0.000000 -60.708740 0.000000 46.000000 -0.272896 -0.655908 0.703784
-10.25000000 -17.68000031 -0.69999999 70 75 183 0.000000 0.000000 0.000000 0.000000 -60.708740 0.000000 46.000000 0.491840 0.701913 -0.515181
-10.25000000 -17.70999908 -0.70999998 70 75 183 0.000000 0.000000 0.000000 0.000000 -60.708740 0.000000 46.000000 0.419540 0.704761 -0.572100
-10.25000000 -17.70999908 -0.70999998 70 75 183 0.000000 0.000000 0.000000 0.000000 -60.708740 0.000000 46.000000 0.419540 0.704761 -0.572100
-10.27999973 -17.70999908 -0.70999998 70 75 183 0.000000 0.000000 0.000000 0.000000 -60.708740 0.000000 46.000000 -0.343955 -0.550651 0.760577
-10.27999973 -17.70999908 -0.70999998 70 75 183 0.000000 0.000000 0.000000 0.000000 -60.708740 0.000000 46.000000 -0.343955 -0.550651 0.760577
-10.27999973 -17.70999908 -0.74000001 70 75 183 0.000000 0.000000 0.000000 0.000000 -60.708740 0.000000 46.000000 0.216593 0.684060 -0.696526
-10.28999996 -17.70999908 -0.75000000 70 75 183 0.000000 0.000000 0.000000 0.000000 -60.708740 0.000000 46.000000 0.439691 0.769868 -0.462575
-10.30000019 -17.67000008 -0.80000001 70 75 183 0.000000 0.000000 0.000000 0.000000 -60.708740 0.000000 46.000000 0.471944 0.869829 -0.143761
-10.23999977 -17.75000000 -0.75999999 70 75 183 0.000000 0.000000 0.000000 0.000000 -60.708740 0.000000 46.000000 0.390163 0.858976 -0.331562
-10.27000046 -17.81999969 -0.73000002 70 75 183 0.000000 0.000000 0.000000 0.000000 -60.708740 0.000000 46.000000 0.283626 0.886893 -0.364661
-10.23999977 -17.77000046 -0.79000002 70 75 183 0.000000 0.000000 0.000000 0.000000 -60.708740 0.000000 46.000000 0.583935 0.556854 -0.590706
-10.27999973 -17.77000046 -0.81999999 70 75 183 0.000000 0.000000 0.000000 0.000000 -60.708740 0.000000 46.000000 0.240585 0.895921 -0.373423
-10.27999973 -17.80999947 -0.80000001 70 75 183 0.000000 0.000000 0.000000 0.000000 -60.708740 0.000000 46.000000 0.392945 0.906469 -0.154625
-10.30000019 -17.68000031 -0.87000000 70 75 183 0.000000 0.000000 0.000000 0.000000 -60.708740 0.000000 46.000000 0.345037 0.746769 -0.568582
-10.30000019 -17.67000008 -0.88000000 70 75 183 0.000000 0.000000 0.000000 0.000000 -60.708740 0.000000 46.000000 -0.248199 -0.554155 0.794550
-10.39000034 -17.55999947 -0.81000000 70 75 183 0.000000 0.000000 0.000000 0.000000 -60.708740 0.000000 46.000000 0.203341 -0.700052 0.684529
-10.38000011 -17.64999962 -0.69999999 70 75 183 0.000000 0.000000 0.000000 0.000000 -60.708740 0.000000 46.000000 0.311513 0.850850 -0.423100
-10.38000011 -17.60000038 -0.81999999 70 75 183 0.000000 0.000000 0.000000 0.000000 -60.708740 0.000000 46.000000 -0.202909 0.698565 -0.686174
-10.36999989 -17.62000084 -0.81999999 70 75 183 0.000000 0.000000 0.000000 0.000000 -60.708740 0.000000 46.000000 -0.222913 0.869212 -0.441338
-10.38000011 -17.62999916 -0.82999998 70 75 183 0.000000 0.000000 0.000000 0.000000 -60.708740 0.000000 46.000000 -0.109438 0.874085 -0.473285
-10.39000034 -17.62999916 -0.82999998 70 75 183 0.000000 0.000000 0.000000 0.000000 -60.708740 0.000000 46.000000 0.192494 -0.657559 0.728397
-10.43000031 -17.56999969 -0.80000001 70 75 183 0.000000 0.000000 0.000000 0.000000 -60.708740 0.000000 46.000000 -0.096331 0.985908 -0.136767
-10.43999958 -17.56999969 -0.80000001 70 75 183 0.000000 0.000000 0.000000 0.000000 -60.708740 0.000000 46.000000 -0.058995 0.989041 -0.135342
-10.43999958 -17.54000092 -0.80000001 70 75 183 0.000000 0.000000 0.000000 0.000000 -60.708740 0.000000 46.000000 0.148996 0.769060 -0.621569
-10.44999981 -17.52000046 -0.77999997 70 75 183 0.000000 0.000000 0.000000 0.000000 -60.708740 0.000000 46.000000 0.139206 -0.758898 0.636157
-10.46000004 -17.56999969 -0.81000000 70 75 183 0.000000 0.000000 0.000000 0.000000 -60.708740 0.000000 46.000000 0.218558 0.921373 -0.321409
-10.46000004 -17.62000084 -0.69999999 70 75 183 0.000000 0.000000 0.000000 0.000000 -60.708740 0.000000 46.000000 -0.232932 0.921727 -0.310100
-10.43000031 -17.65999985 -0.81999999 70 75 183 0.000000 0.000000 0.000000 0.000000 -60.708740 0.000000 46.000000 -0.170817 0.790594 -0.588033
-10.35999966 -17.60000038 -0.88999999 70 75 183 0.000000 0.000000 0.000000 0.000000 -60.708740 0.000000 46.000000 0.141526 0.964715 -0.222027
-10.32999992 -17.67000008 -0.80000001 70 75 183 0.000000 0.000000 0.000000 0.000000 -60.708740 0.000000 46.000000 0.059053 0.883046 -0.465556
-10.31999969 -17.69000053 -0.80000001 70 75 183 0.000000 0.000000 0.000000 0.000000 -60.708740 0.000000 46.000000 0.229388 0.958658 -0.168395
-10.35000038 -17.69000053 -0.82999998 70 75 183 0.000000 0.000000 0.000000 0.000000 -60.708740 0.000000 46.000000 0.389142 0.881955 -0.265939
-10.39999962 -17.71999931 -0.83999997 70 75 183 0.000000 0.000000 0.000000 0.000000 -60.708740 0.000000 46.000000 0.426925 0.760614 -0.489083
-10.32999992 -17.79000092 -0.75000000 70 75 183 0.000000 0.000000 0.000000 0.000000 -60.708740 0.000000 46.000000 -0.514693 -0.514693 0.685698
-10.31999969 -17.76000023 -0.77999997 70 75 183 0.000000 0.000000 0.000000 0.000000 -60.708740 0.000000 46.000000 0.486374 0.786923 -0.379727
-10.35999966 -17.76000023 -0.81000000 70 75 183 0.000000 0.000000 0.000000 0.000000 -60.708740 0.000000 46.000000 -0.148470 -0.598377 0.787338
-10.35999966 -17.76000023 -0.81000000 70 75 183 0.000000 0.000000 0.000000 0.000000 -60.708740 0.000000 46.000000 -0.148470 -0.598377 0.787338
-10.43999958 -17.68000031 -0.69999999 70 75 183 0.000000 0.000000 0.000000 0.000000 -60.708740 0.000000 46.000000 -0.512226 0.769152 -0.382137
-10.44999981 -17.70000076 -0.72000003 70 75 183 0.000000 0.000000 0.000000 0.000000 -60.708740 0.000000 46.000000 0.136741 0.830736 -0.539611
-10.44999981 -17.69000053 -0.70999998 70 75 183 0.000000 0.000000 0.000000 0.000000 -60.708740 0.000000 46.000000 0.245403 0.849004 -0.467943
-10.47999954 -17.73999977 -0.76999998 70 75 183 0.000000 0.000000 1.000000 1.000000 1686050354.222901 2570.000000 46.000000 0.363069 -0.648925 0.668639
-10.42000008 -17.69000053 -0.79000002 70 75 183 0.000000 0.000000 0.000000 0.000000 -60.708740 0.000000 46.000000 0.374859 0.842257 -0.387407
-10.46000004 -17.73999977 -0.79000002 70 75 183 0.000000 0.000000 0.000000 0.000000 -60.708740 0.000000 46.000000 -0.245549 0.945157 -0.215370
-10.47000027 -17.73999977 -0.81999999 70 75 183 0.000000 0.000000 0.000000 0.000000 -60.708740 0.000000 46.000000 0.196109 0.880279 -0.432030
-10.42000008 -17.77000046 -0.75999999 70 75 183 0.000000 0.000000 0.000000 0.000000 -60.708740 0.000000 46.000000 0.247300 0.729298 -0.637939
-10.43000031 -17.76000023 -0.75000000 70 75 183 0.000000 0.000000 0.000000 0.000000 -60.708740 0.000000 46.000000 0.275113 0.800185 -0.532933
-10.42000008 -17.80999947 -0.70999998 70 75 183 0.000000 0.000000 0.000000 0.000000 -60.708740 0.000000 46.000000 0.364342 0.845962 -0.389362
-10.43999958 -17.76000023 -0.85000002 70 75 183 0.000000 0.000000 0.000000 0.000000 -60.708740 0.000000 46.000000 -0.032222 0.794343 -0.606615
-10.43000031 -17.82999992 -0.83999997 70 75 183 0.000000 0.000000 0.000000 0.000000 -60.708740 0.000000 46.000000 -0.103809 0.934282 -0.341087
-10.43000031 -17.82999992 -0.81999999 70 75 183 0.000000 0.000000 0.000000 0.000000 -60.708740 0.000000 46.000000 0.104795 0.984110 -0.143340
-10.44999981 -17.82999992 -0.82999998 70 75 183 0.000000 0.000000 0.000000 0.000000 -60.708740 0.000000 46.000000 -0.152511 0.902238 -0.403370
-10.44999981 -17.82999992 -0.81999999 70 75 183 0.000000 0.000000 0.000000 0.000000 -60.708740 0.000000 46.000000 0.167127 0.882138 -0.440342
-10.46000004 -17.82999992 -0.81999999 70 75 183 0.000000 0.000000 0.000000 0.000000 -60.708740 0.000000 46.000000 -0.104681 0.897461 -0.428492
-9.93000031 -18.11000061 -0.46000001 70 75 183 0.000000 0.000000 0.000000 0.000000 -60.708740 0.000000 46.000000 0.986934 -0.158962 -0.026303
-9.93000031 -18.10000038 -0.46000001 70 75 183 0.000000 0.000000 0.000000 0.000000 -60.708740 0.000000 46.000000 0.994219 -0.007573 -0.107103
-9.93999958 -18.14999962 -0.44000000 70 75 183 0.000000 0.000000 0.000000 0.000000 -60.708740 0.000000 46.000000 0.991873 -0.124124 0.027956
-9.93999958 -18.13999939 -0.44000000 70 75 183 0.000000 0.000000 0.000000 0.000000 -60.708740 0.000000 46.000000 0.982065 -0.167905 -0.085765
-9.93000031 -18.13999939 -0.46000001 70 75 183 0.000000 0.000000 0.000000 0.000000 -60.708740 0.000000 46.000000 0.860973 -0.431249 0.269721
-10.06000042 -18.12999916 -0.47999999 70 75 183 0.000000 0.000000 0.000000 0.000000 -60.708740 0.000000 46.000000 -0.560939 0.826721 0.043364
-10.10999966 -18.10000038 -0.50000000 70 75 183 0.000000 0.000000 0.000000 0.000000 -60.708740 0.000000 46.000000 0.913804 -0.360675 -0.186752
-10.05000019 -18.13999939 -0.66000003 70 75 183 0.000000 0.000000 0.000000 0.000000 -60.708740 0.000000 46.000000 0.965657 -0.050955 -0.254774
-10.13000011 -18.07999992 -0.62000000 70 75 183 0.000000 0.000000 0.000000 0.000000 -60.708740 0.000000 46.000000 0.893366 -0.441835 0.081719
-10.10999966 -18.06999969 -0.62000000 70 75 183 0.000000 0.000000 0.000000 0.000000 -60.708740 0.000000 46.000000 0.894123 -0.093167 -0.438023
-10.10999966 -18.07999992 -0.62000000 70 75 183 0.000000 0.000000 0.000000 0.000000 -60.708740 0.000000 46.000000 -0.806184 0.477325 0.349612
-10.11999989 -18.06999969 -0.64999998 70 75 183 0.000000 0.000000 0.000000 0.000000 -60.708740 0.000000 46.000000 0.956874 -0.155276 -0.245522
-10.11999989 -18.05999947 -0.62000000 70 75 183 0.000000 0.000000 0.000000 0.000000 -60.708740 0.000000 46.000000 0.989186 0.028327 -0.143902
-10.07999992 -18.09000015 -0.54000002 70 75 183 0.000000 0.000000 0.000000 0.000000 -60.708740 0.000000 46.000000 0.978814 -0.144780 -0.144780
-10.10999966 -18.12999916 -0.60000002 70 75 183 0.000000 0.000000 0.000000 0.000000 -60.708740 0.000000 46.000000 0.773891 -0.560952 -0.293983
-10.09000015 -18.11000061 -0.62000000 70 75 183 0.000000 0.000000 0.000000 0.000000 -60.708740 0.000000 46.000000 0.932136 -0.361283 0.024428
-10.10999966 -18.12000084 -0.63000000 70 75 183 0.000000 0.000000 0.000000 0.000000 -60.708740 0.000000 46.000000 0.918787 -0.164622 -0.358791
-10.14999962 -18.23999977 -0.25999999 70 75 183 0.000000 0.000000 0.000000 0.000000 -60.708740 0.000000 46.000000 -0.437717 0.893614 -0.099290
-10.13000011 -18.22999954 -0.30000001 70 75 183 0.000000 0.000000 0.000000 0.000000 -60.708740 0.000000 46.000000 -0.668633 0.742452 0.041168
-10.14000034 -18.32999992 -0.25999999 70 75 183 0.000000 0.000000 0.000000 0.000000 -60.708740 0.000000 46.000000 -0.245416 0.968098 0.050563
-10.09000015 -18.26000023 -0.31000000 70 75 183 0.000000 0.000000 0.000000 0.000000 -60.708740 0.000000 46.000000 -0.574126 0.794590 0.197499
-9.89999962 -18.19000053 -0.50000000 70 75 183 0.000000 0.000000 0.000000 0.000000 -60.708740 0.000000 46.000000 0.969064 -0.246736 0.005960
-9.88000011 -18.17000008 -0.49000001 70 75 183 0.000000 0.000000 0.000000 0.000000 -60.708740 0.000000 46.000000 0.861936 -0.394862 0.318041
-9.93999958 -18.20000076 -0.43000001 70 75 183 0.000000 0.000000 0.000000 0.000000 -60.708740 0.000000 46.000000 0.933723 -0.304747 0.187858
-9.93999958 -18.20000076 -0.50000000 70 75 183 0.000000 0.000000 0.000000 0.000000 -60.708740 0.000000 46.000000 0.756448 -0.598526 0.263730
-9.90999985 -18.23999977 -0.44999999 70 75 183 0.000000 0.000000 0.000000 0.000000 -60.708740 0.000000 46.000000 0.906535 -0.286506 0.310014
-9.92000008 -18.21999931 -0.49000001 70 75 183 0.000000 0.000000 0.000000 0.000000 -60.708740 0.000000 46.000000 -0.825323 0.391276 -0.407117
-9.97000027 -18.17000008 -0.49000001 70 75 183 0.000000 0.000000 0.000000 0.000000 -60.708740 0.000000 46.000000 -0.687737 0.722485 -0.070945
-9.93999958 -18.28000069 -0.49000001 70 75 183 0.000000 0.000000 0.000000 0.000000 -60.708740 0.000000 46.000000 -0.519610 0.846718 -0.114343
-9.89000034 -18.25000000 -0.52999997 70 75 183 0.000000 0.000000 0.000000 0.000000 -60.708740 0.000000 46.000000 0.985378 -0.167503 -0.031190
-10.03999996 -18.29000092 -0.51999998 70 75 183 0.000000 0.000000 0.000000 0.000000 -60.708740 0.000000 46.000000 -0.419470 0.907768 0.001299
-10.07999992 -18.30999947 -0.51999998 70 75 183 0.000000 0.000000 0.000000 0.000000 -60.708740 0.000000 46.000000 0.787147 -0.517818 0.335059
-10.10000038 -18.32999992 -0.50999999 70 75 183 0.000000 0.000000 0.000000 0.000000 -60.708740 0.000000 46.000000 0.708772 -0.485300 0.511983
-10.06000042 -18.31999969 -0.58999997 70 75 183 0.000000 0.000000 0.000000 0.000000 -60.708740 0.000000 46.000000 0.869041 -0.439774 0.226641
-10.03999996 -18.29999924 -0.63999999 70 75 183 0.000000 0.000000 0.000000 0.000000 -60.708740 0.000000 46.000000 0.607761 -0.693407 0.387056
-10.10000038 -18.21999931 -0.60000002 70 75 183 0.000000 0.000000 0.000000 0.000000 -60.708740 0.000000 46.000000 0.923404 -0.383568 0.014206
-10.14000034 -18.21999931 -0.56999999 70 75 183 0.000000 0.000000 0.000000 0.000000 -60.708740 0.000000 46.000000 -0.486268 0.839080 -0.243901
