//X Y Z R G B PointSourceId ScanDirectionFlag NumberOfReturns ReturnNumber GpsTime Intensity Classification Nx Ny Nz
9.69999981 -9.30000019 -0.12000000 128 222 80 0.000000 0.000000 0.000000 0.000000 -60.708740 0.000000 240.000000 -0.406387 0.863380 -0.299039
9.68999958 -9.30000019 -0.11000000 128 222 80 0.000000 0.000000 0.000000 0.000000 -60.708740 0.000000 240.000000 -0.349381 0.889197 -0.295399
9.72999954 -9.35999966 -0.06000000 128 222 80 0.000000 0.000000 0.000000 0.000000 -60.708740 0.000000 240.000000 0.523171 -0.746216 -0.411649
9.69999981 -9.36999989 -0.16000000 128 222 80 0.000000 0.000000 0.000000 0.000000 -60.708740 0.000000 240.000000 -0.553013 0.771013 0.315779
9.71000004 -9.34000015 -0.19000000 128 222 80 0.000000 0.000000 0.000000 0.000000 -60.708740 0.000000 240.000000 -0.486761 0.860969 0.147636
9.67000008 -9.31000042 -0.27000001 128 222 80 0.000000 0.000000 0.000000 0.000000 -60.708740 0.000000 240.000000 -0.054127 0.960446 0.273154
9.67000008 -9.31000042 -0.27000001 128 222 80 0.000000 0.000000 0.000000 0.000000 -60.708740 0.000000 240.000000 -0.054127 0.960446 0.273154
9.68000031 -9.34000015 -0.34999999 128 222 80 0.000000 0.000000 0.000000 0.000000 -60.708740 0.000000 240.000000 -0.091062 0.995105 0.038400
9.68999958 -9.35999966 -0.20000000 128 222 80 0.000000 0.000000 0.000000 0.000000 -60.708740 0.000000 240.000000 -0.534294 0.800658 0.271064
9.67000008 -9.35999966 -0.20999999 128 222 80 0.000000 0.000000 0.000000 0.000000 -60.708740 0.000000 240.000000 0.001135 0.983996 0.178186
9.68000031 -9.35999966 -0.27000001 128 222 80 0.000000 0.000000 0.000000 0.000000 -60.708740 0.000000 240.000000 -0.333359 0.899328 -0.282985
9.69999981 -9.14000034 -0.36000001 128 222 80 0.000000 0.000000 0.000000 0.000000 -60.708740 0.000000 240.000000 0.989602 -0.080050 0.119495
9.71000004 -9.14000034 -0.38000000 128 222 80 0.000000 0.000000 0.000000 0.000000 -60.708740 0.000000 240.000000 0.942434 -0.331334 0.045123
9.65999985 -9.11999989 -0.37000000 128 222 80 0.000000 0.000000 0.000000 0.000000 -60.708740 0.000000 240.000000 0.867574 0.348565 -0.354707
9.68999958 -9.10999966 -0.38000000 128 222 80 0.000000 0.000000 0.000000 0.000000 -60.708740 0.000000 240.000000 0.865239 0.227219 -0.446915
9.65999985 -9.11999989 -0.38999999 128 222 80 0.000000 0.000000 0.000000 0.000000 -60.708740 0.000000 240.000000 0.982605 -0.125103 -0.137249
9.68000031 -9.13000011 -0.41999999 128 222 80 0.000000 0.000000 0.000000 0.000000 -60.708740 0.000000 240.000000 0.838627 -0.028918 -0.543937
9.65999985 -9.10999966 -0.41000000 128 222 80 0.000000 0.000000 0.000000 0.000000 -60.708740 0.000000 240.000000 0.973997 0.137342 0.180183
9.67000008 -9.17000008 -0.41999999 128 222 80 0.000000 0.000000 0.000000 0.000000 -60.708740 0.000000 240.000000 0.834622 -0.529236 -0.152693
9.68000031 -9.15999985 -0.41999999 128 222 80 0.000000 0.000000 0.000000 0.000000 -60.708740 0.000000 240.000000 0.997301 0.018056 0.071160
9.68000031 -9.17000008 -0.41000000 128 222 80 0.000000 0.000000 0.000000 0.000000 -60.708740 0.000000 240.000000 0.945060 0.011266 -0.326703
9.68000031 -9.15999985 -0.41999999 128 222 80 0.000000 0.000000 0.000000 0.000000 -60.708740 0.000000 240.000000 0.997301 0.018056 0.071160
9.68000031 -9.14000034 -0.44000000 128 222 80 0.000000 0.000000 0.000000 0.000000 -60.708740 0.000000 240.000000 0.875554 0.205925 -0.437036
9.65999985 -9.13000011 -0.47000000 128 222 80 0.000000 0.000000 0.000000 0.000000 -60.708740 0.000000 240.000000 0.946449 0.172452 -0.272936
9.65999985 -9.18000031 -0.44000000 128 222 80 0.000000 0.000000 0.000000 0.000000 -60.708740 0.000000 240.000000 0.890287 -0.449960 0.070177
9.67000008 -9.15999985 -0.44000000 128 222 80 0.000000 0.000000 0.000000 0.000000 -60.708740 0.000000 240.000000 0.954168 -0.240220 -0.178487
9.67000008 -9.17000008 -0.49000001 128 222 80 0.000000 0.000000 0.000000 0.000000 -60.708740 0.000000 240.000000 0.804652 -0.507452 -0.308265
9.65999985 -9.19999981 -0.40000001 128 222 80 0.000000 0.000000 0.000000 0.000000 -60.708740 0.000000 240.000000 0.586448 -0.705390 -0.398124
9.67000008 -9.21000004 -0.44999999 128 222 80 0.000000 0.000000 0.000000 0.000000 -60.708740 0.000000 240.000000 0.667952 -0.730995 -0.139594
9.67000008 -9.19999981 -0.51999998 128 222 80 0.000000 0.000000 0.000000 0.000000 -60.708740 0.000000 240.000000 -0.750554 0.494348 0.438508
9.65999985 -9.35000038 -0.38000000 128 222 80 0.000000 0.000000 0.000000 0.000000 -60.708740 0.000000 240.000000 -0.344143 0.931771 0.115621
9.63000011 -9.11999989 -0.04000000 128 222 80 0.000000 0.000000 0.000000 0.000000 -60.708740 0.000000 240.000000 0.888565 -0.458313 -0.020043
9.59000015 -9.13000011 -0.05000000 128 222 80 0.000000 0.000000 0.000000 0.000000 -60.708740 0.000000 240.000000 0.987247 0.155155 -0.035628
9.60000038 -9.11999989 -0.03000000 128 222 80 0.000000 0.000000 0.000000 0.000000 -60.708740 0.000000 240.000000 0.880301 -0.133553 -0.455229
9.57999992 -9.13000011 -0.08000000 128 222 80 0.000000 0.000000 0.000000 0.000000 -60.708740 0.000000 240.000000 0.994956 0.100033 -0.007529
9.59000015 -9.11999989 -0.13000000 128 222 80 0.000000 0.000000 0.000000 0.000000 -60.708740 0.000000 240.000000 0.987348 0.026253 -0.156378
9.60999966 -9.10999966 -0.14000000 128 222 80 0.000000 0.000000 0.000000 0.000000 -60.708740 0.000000 240.000000 0.206140 0.969243 -0.134439
9.60000038 -9.14000034 -0.13000000 128 222 80 0.000000 0.000000 0.000000 0.000000 -60.708740 0.000000 240.000000 0.711092 0.596135 -0.372789
9.55000019 -9.10999966 -0.05000000 128 222 80 0.000000 0.000000 0.000000 0.000000 -60.708740 0.000000 240.000000 0.982418 0.078161 -0.169548
9.53999996 -9.11999989 -0.06000000 128 222 80 0.000000 0.000000 0.000000 0.000000 -60.708740 0.000000 240.000000 0.881648 0.358406 -0.306989
9.56999969 -9.14000034 -0.11000000 128 222 80 0.000000 0.000000 0.000000 0.000000 -60.708740 0.000000 240.000000 0.857591 0.195382 -0.475777
9.55000019 -9.14000034 -0.16000000 128 222 80 0.000000 0.000000 0.000000 0.000000 -60.708740 0.000000 240.000000 0.904062 0.413723 0.107262
9.55000019 -9.14000034 -0.16000000 128 222 80 0.000000 0.000000 0.000000 0.000000 -60.708740 0.000000 240.000000 0.904062 0.413723 0.107262
9.55000019 -9.13000011 -0.17000000 128 222 80 0.000000 0.000000 0.000000 0.000000 -60.708740 0.000000 240.000000 0.886325 0.403951 -0.226390
9.56999969 -9.14000034 -0.15000001 128 222 80 0.000000 0.000000 0.000000 0.000000 -60.708740 0.000000 240.000000 0.832700 0.486643 -0.264178
9.52000046 -9.14000034 -0.13000000 128 222 80 0.000000 0.000000 0.000000 0.000000 -60.708740 0.000000 240.000000 0.956210 -0.006122 -0.292617
9.50000000 -9.14000034 -0.18000001 128 222 80 0.000000 0.000000 0.000000 0.000000 -60.708740 0.000000 240.000000 0.821216 0.337031 -0.460451
9.50000000 -9.10999966 -0.17000000 128 222 80 0.000000 0.000000 0.000000 0.000000 -60.708740 0.000000 240.000000 0.997324 -0.028800 0.067199
9.55000019 -9.25000000 -0.03000000 128 222 80 0.000000 0.000000 0.000000 0.000000 -60.708740 0.000000 240.000000 0.320459 0.945932 -0.050192
9.52999973 -9.22999954 -0.07000000 128 222 80 0.000000 0.000000 0.000000 0.000000 -60.708740 0.000000 240.000000 0.776391 0.630214 0.006895
9.55000019 -9.26000023 -0.08000000 128 222 80 0.000000 0.000000 0.000000 0.000000 -60.708740 0.000000 240.000000 0.434773 0.753059 -0.493836
9.50000000 -9.22000027 -0.07000000 128 222 80 0.000000 0.000000 0.000000 0.000000 -60.708740 0.000000 240.000000 0.911308 0.406376 -0.066154
9.52999973 -9.22999954 -0.12000000 128 222 80 0.000000 0.000000 0.000000 0.000000 -60.708740 0.000000 240.000000 0.756159 0.631400 -0.171923
9.55000019 -9.26000023 -0.15000001 128 222 80 0.000000 0.000000 0.000000 0.000000 -60.708740 0.000000 240.000000 0.310072 0.816891 -0.486357
9.52000046 -9.22000027 -0.13000000 128 222 80 0.000000 0.000000 0.000000 0.000000 -60.708740 0.000000 240.000000 0.663565 0.747738 -0.023849
9.51000023 -9.22000027 -0.12000000 128 222 80 0.000000 0.000000 0.000000 0.000000 -60.708740 0.000000 240.000000 0.706290 0.703377 0.080095
9.52000046 -9.22999954 -0.13000000 128 222 80 0.000000 0.000000 0.000000 0.000000 -60.708740 0.000000 240.000000 0.625710 0.775996 0.079478
9.51000023 -9.23999977 -0.18000001 128 222 80 0.000000 0.000000 0.000000 0.000000 -60.708740 0.000000 240.000000 0.628766 0.770128 -0.107494
9.64999962 -9.10999966 -0.27000001 128 222 80 0.000000 0.000000 0.000000 0.000000 -60.708740 0.000000 240.000000 0.937485 0.255678 -0.236118
9.64999962 -9.11999989 -0.27000001 128 222 80 0.000000 0.000000 0.000000 0.000000 -60.708740 0.000000 240.000000 0.911924 0.380322 -0.154108
9.64999962 -9.11999989 -0.25999999 128 222 80 0.000000 0.000000 0.000000 0.000000 -60.708740 0.000000 240.000000 0.901457 0.036058 -0.431364
9.64999962 -9.13000011 -0.27000001 128 222 80 0.000000 0.000000 0.000000 0.000000 -60.708740 0.000000 240.000000 0.996003 -0.088795 0.009628
9.60999966 -9.14000034 -0.20000000 128 222 80 0.000000 0.000000 0.000000 0.000000 -60.708740 0.000000 240.000000 -0.524717 0.849342 0.057369
9.57999992 -9.13000011 -0.23999999 128 222 80 0.000000 0.000000 0.000000 0.000000 -60.708740 0.000000 240.000000 0.926309 0.320049 -0.198797
9.57999992 -9.15999985 -0.19000000 128 222 80 0.000000 0.000000 0.000000 0.000000 -60.708740 0.000000 240.000000 0.411797 0.889541 0.197839
9.59000015 -9.14000034 -0.28000000 128 222 80 0.000000 0.000000 0.000000 0.000000 -60.708740 0.000000 240.000000 -0.545328 0.824678 -0.150077
9.60000038 -9.15999985 -0.28000000 128 222 80 0.000000 0.000000 0.000000 0.000000 -60.708740 0.000000 240.000000 -0.665205 0.703126 0.251229
9.59000015 -9.17000008 -0.28000000 128 222 80 0.000000 0.000000 0.000000 0.000000 -60.708740 0.000000 240.000000 0.094772 0.938376 0.332369
9.60999966 -9.15999985 -0.28999999 128 222 80 0.000000 0.000000 0.000000 0.000000 -60.708740 0.000000 240.000000 -0.384831 0.919543 -0.079667
9.60999966 -9.14999962 -0.31000000 128 222 80 0.000000 0.000000 0.000000 0.000000 -60.708740 0.000000 240.000000 -0.579901 0.776848 0.245403
9.59000015 -9.17000008 -0.34000000 128 222 80 0.000000 0.000000 0.000000 0.000000 -60.708740 0.000000 240.000000 -0.262509 0.964929 0.001199
9.60999966 -9.25000000 -0.31999999 128 222 80 0.000000 0.000000 0.000000 0.000000 -60.708740 0.000000 240.000000 -0.361794 0.931261 -0.043102
9.64000034 -9.18999958 -0.34000000 128 222 80 0.000000 0.000000 0.000000 0.000000 -60.708740 0.000000 240.000000 0.816228 -0.495399 -0.297239
9.55000019 -9.13000011 -0.23999999 128 222 80 0.000000 0.000000 0.000000 0.000000 -60.708740 0.000000 240.000000 0.994393 -0.103696 0.020739
9.55000019 -9.14000034 -0.25000000 128 222 80 0.000000 0.000000 0.000000 0.000000 -60.708740 0.000000 240.000000 0.909164 0.127479 -0.396446
9.56999969 -9.15999985 -0.22000000 128 222 80 0.000000 0.000000 0.000000 0.000000 -60.708740 0.000000 240.000000 0.442883 0.853585 0.274312
9.55000019 -9.14999962 -0.25999999 128 222 80 0.000000 0.000000 0.000000 0.000000 -60.708740 0.000000 240.000000 0.577659 0.812735 -0.075970
9.52999973 -9.17000008 -0.27000001 128 222 80 0.000000 0.000000 0.000000 0.000000 -60.708740 0.000000 240.000000 0.778622 0.622027 -0.082647
9.55000019 -9.17000008 -0.23000000 128 222 80 0.000000 0.000000 0.000000 0.000000 -60.708740 0.000000 240.000000 0.479511 0.822243 -0.306572
9.50000000 -9.14000034 -0.19000000 128 222 80 0.000000 0.000000 0.000000 0.000000 -60.708740 0.000000 240.000000 0.956722 0.252744 -0.144236
9.52000046 -9.14000034 -0.20999999 128 222 80 0.000000 0.000000 0.000000 0.000000 -60.708740 0.000000 240.000000 0.927161 0.368470 0.067841
9.50000000 -9.14999962 -0.25000000 128 222 80 0.000000 0.000000 0.000000 0.000000 -60.708740 0.000000 240.000000 0.837017 0.536327 -0.108422
9.50000000 -9.15999985 -0.25000000 128 222 80 0.000000 0.000000 0.000000 0.000000 -60.708740 0.000000 240.000000 0.853817 0.101543 -0.510574
9.50000000 -9.14999962 -0.25000000 128 222 80 0.000000 0.000000 0.000000 0.000000 -60.708740 0.000000 240.000000 0.837017 0.536327 -0.108422
9.53999996 -9.17000008 -0.28000000 128 222 80 0.000000 0.000000 0.000000 0.000000 -60.708740 0.000000 240.000000 0.638463 0.696948 -0.326542
9.52999973 -9.17000008 -0.28000000 128 222 80 0.000000 0.000000 0.000000 0.000000 -60.708740 0.000000 240.000000 0.687090 0.690220 -0.226943
9.52999973 -9.18000031 -0.31000000 128 222 80 0.000000 0.000000 0.000000 0.000000 -60.708740 0.000000 240.000000 0.719417 0.622851 -0.307402
9.56999969 -9.15999985 -0.34999999 128 222 80 0.000000 0.000000 0.000000 0.000000 -60.708740 0.000000 240.000000 -0.546133 0.832817 0.090305
9.55000019 -9.15999985 -0.34000000 128 222 80 0.000000 0.000000 0.000000 0.000000 -60.708740 0.000000 240.000000 0.497905 0.866925 -0.023064
9.50000000 -9.11999989 -0.28999999 128 222 80 0.000000 0.000000 0.000000 0.000000 -60.708740 0.000000 240.000000 0.932148 0.282597 -0.226359
9.52000046 -9.18000031 -0.33000001 128 222 80 0.000000 0.000000 0.000000 0.000000 -60.708740 0.000000 240.000000 0.684362 0.727224 0.052863
9.50000000 -9.15999985 -0.34999999 128 222 80 0.000000 0.000000 0.000000 0.000000 -60.708740 0.000000 240.000000 0.674905 0.725785 0.133185
9.51000023 -9.26000023 -0.23000000 128 222 80 0.000000 0.000000 0.000000 0.000000 -60.708740 0.000000 240.000000 0.745157 0.655917 0.120475
9.56999969 -9.25000000 -0.31999999 128 222 80 0.000000 0.000000 0.000000 0.000000 -60.708740 0.000000 240.000000 0.112288 0.934833 -0.336865
9.53999996 -9.26000023 -0.31999999 128 222 80 0.000000 0.000000 0.000000 0.000000 -60.708740 0.000000 240.000000 0.265007 0.939319 0.217833
9.60000038 -9.27999973 -0.08000000 128 222 80 0.000000 0.000000 0.000000 0.000000 -60.708740 0.000000 240.000000 -0.169041 0.972302 0.161415
9.51000023 -9.27000046 -0.04000000 128 222 80 0.000000 0.000000 0.000000 0.000000 -60.708740 0.000000 240.000000 0.582065 0.787860 0.201189
9.52999973 -9.27999973 -0.03000000 128 222 80 0.000000 0.000000 0.000000 0.000000 -60.708740 0.000000 240.000000 0.595792 0.734648 -0.324537
9.64000034 -9.31999969 -0.20999999 128 222 80 0.000000 0.000000 0.000000 0.000000 -60.708740 0.000000 240.000000 -0.217851 0.946761 0.237033
9.63000011 -9.31000042 -0.34999999 128 222 80 0.000000 0.000000 0.000000 0.000000 -60.708740 0.000000 240.000000 -0.165577 0.894116 0.416102
9.60999966 -9.39000034 -0.33000001 128 222 80 0.000000 0.000000 0.000000 0.000000 -60.708740 0.000000 240.000000 -0.400988 0.867536 0.294261
9.48999977 -9.27000046 -0.20999999 128 222 80 0.000000 0.000000 0.000000 0.000000 -60.708740 0.000000 240.000000 0.168403 0.964726 -0.202345
9.55000019 -9.27000046 -0.28999999 128 222 80 0.000000 0.000000 0.000000 0.000000 -60.708740 0.000000 240.000000 0.005543 0.990023 0.140798
9.47000027 -9.17000008 -0.03000000 128 222 80 0.000000 0.000000 0.000000 0.000000 -60.708740 0.000000 240.000000 0.866127 0.028554 -0.499009
9.43000031 -9.17000008 -0.14000000 128 222 80 0.000000 0.000000 0.000000 0.000000 -60.708740 0.000000 240.000000 0.937541 0.334741 0.094688
9.47999954 -9.11999989 -0.13000000 128 222 80 0.000000 0.000000 0.000000 0.000000 -60.708740 0.000000 240.000000 0.935084 -0.064443 -0.348519
9.47000027 -9.21000004 -0.03000000 128 222 80 0.000000 0.000000 0.000000 0.000000 -60.708740 0.000000 240.000000 0.990781 0.130217 0.037367
9.46000004 -9.21000004 -0.06000000 128 222 80 0.000000 0.000000 0.000000 0.000000 -60.708740 0.000000 240.000000 0.706067 0.433608 -0.559869
9.47000027 -9.19999981 -0.06000000 128 222 80 0.000000 0.000000 0.000000 0.000000 -60.708740 0.000000 240.000000 0.610340 0.723666 -0.322169
9.46000004 -9.22000027 -0.08000000 128 222 80 0.000000 0.000000 0.000000 0.000000 -60.708740 0.000000 240.000000 0.734254 0.677445 0.044027
9.47999954 -9.22999954 -0.04000000 128 222 80 0.000000 0.000000 0.000000 0.000000 -60.708740 0.000000 240.000000 0.862278 0.502880 -0.059900
9.46000004 -9.26000023 -0.06000000 128 222 80 0.000000 0.000000 0.000000 0.000000 -60.708740 0.000000 240.000000 0.844165 0.514160 -0.151743
9.47000027 -9.25000000 -0.10000000 128 222 80 0.000000 0.000000 0.000000 0.000000 -60.708740 0.000000 240.000000 0.394307 0.897741 -0.196426
9.44999981 -9.23999977 -0.15000001 128 222 80 0.000000 0.000000 0.000000 0.000000 -60.708740 0.000000 240.000000 0.710562 0.692686 0.123641
9.42000008 -9.22000027 -0.18000001 128 222 80 0.000000 0.000000 0.000000 0.000000 -60.708740 0.000000 240.000000 0.723555 0.690096 -0.015335
9.47000027 -9.13000011 -0.20999999 128 222 80 0.000000 0.000000 0.000000 0.000000 -60.708740 0.000000 240.000000 0.980443 0.083622 -0.178152
9.47000027 -9.11999989 -0.23000000 128 222 80 0.000000 0.000000 0.000000 0.000000 -60.708740 0.000000 240.000000 0.956285 0.264392 -0.124962
9.47000027 -9.13000011 -0.23999999 128 222 80 0.000000 0.000000 0.000000 0.000000 -60.708740 0.000000 240.000000 0.995002 0.098526 -0.016241
9.47000027 -9.10999966 -0.23999999 128 222 80 0.000000 0.000000 0.000000 0.000000 -60.708740 0.000000 240.000000 0.985089 -0.168243 0.035969
9.47000027 -9.13000011 -0.23999999 128 222 80 0.000000 0.000000 0.000000 0.000000 -60.708740 0.000000 240.000000 0.995002 0.098526 -0.016241
9.47000027 -9.18000031 -0.20999999 128 222 80 0.000000 0.000000 0.000000 0.000000 -60.708740 0.000000 240.000000 0.920536 0.377761 0.099554
9.47999954 -9.22000027 -0.20000000 128 222 80 0.000000 0.000000 0.000000 0.000000 -60.708740 0.000000 240.000000 0.841882 0.523805 0.129857
9.47999954 -9.22000027 -0.20000000 128 222 80 0.000000 0.000000 0.000000 0.000000 -60.708740 0.000000 240.000000 0.841882 0.523805 0.129857
9.44999981 -9.26000023 -0.22000000 128 222 80 0.000000 0.000000 0.000000 0.000000 -60.708740 0.000000 240.000000 0.826384 0.555249 -0.093743
9.46000004 -9.22999954 -0.19000000 128 222 80 0.000000 0.000000 0.000000 0.000000 -60.708740 0.000000 240.000000 0.686964 0.726299 0.023882
9.43000031 -9.19999981 -0.20999999 128 222 80 0.000000 0.000000 0.000000 0.000000 -60.708740 0.000000 240.000000 0.925754 0.375306 0.046090
9.43999958 -9.21000004 -0.31000000 128 222 80 0.000000 0.000000 0.000000 0.000000 -60.708740 0.000000 240.000000 0.765740 0.564313 -0.308534
9.61999989 -9.13000011 -0.43000001 128 222 80 0.000000 0.000000 0.000000 0.000000 -60.708740 0.000000 240.000000 0.894100 -0.011886 -0.447710
9.63000011 -9.14999962 -0.38999999 128 222 80 0.000000 0.000000 0.000000 0.000000 -60.708740 0.000000 240.000000 0.936985 -0.103216 -0.333776
9.59000015 -9.11999989 -0.41999999 128 222 80 0.000000 0.000000 0.000000 0.000000 -60.708740 0.000000 240.000000 0.863499 0.017567 -0.504045
9.59000015 -9.17000008 -0.36000001 128 222 80 0.000000 0.000000 0.000000 0.000000 -60.708740 0.000000 240.000000 -0.181682 0.982031 0.051061
9.64000034 -9.21000004 -0.40000001 128 222 80 0.000000 0.000000 0.000000 0.000000 -60.708740 0.000000 240.000000 -0.598078 0.759039 0.257221
9.61999989 -9.22000027 -0.40000001 128 222 80 0.000000 0.000000 0.000000 0.000000 -60.708740 0.000000 240.000000 -0.333078 0.898571 0.285707
9.57999992 -9.19999981 -0.38999999 128 222 80 0.000000 0.000000 0.000000 0.000000 -60.708740 0.000000 240.000000 -0.430763 0.818609 0.379898
9.60000038 -9.19999981 -0.38000000 128 222 80 0.000000 0.000000 0.000000 0.000000 -60.708740 0.000000 240.000000 -0.168993 0.985601 0.005671
9.59000015 -9.21000004 -0.36000001 128 222 80 0.000000 0.000000 0.000000 0.000000 -60.708740 0.000000 240.000000 -0.210401 0.977609 0.003487
9.60000038 -9.19999981 -0.40000001 128 222 80 0.000000 0.000000 0.000000 0.000000 -60.708740 0.000000 240.000000 -0.629565 0.757612 -0.172254
9.57999992 -9.18999958 -0.40000001 128 222 80 0.000000 0.000000 0.000000 0.000000 -60.708740 0.000000 240.000000 -0.344366 0.885728 -0.311283
9.57999992 -9.22000027 -0.41999999 128 222 80 0.000000 0.000000 0.000000 0.000000 -60.708740 0.000000 240.000000 -0.606939 0.780778 0.148363
9.63000011 -9.21000004 -0.47000000 128 222 80 0.000000 0.000000 0.000000 0.000000 -60.708740 0.000000 240.000000 -0.446167 0.893690 0.047465
9.64000034 -9.18999958 -0.50999999 128 222 80 0.000000 0.000000 0.000000 0.000000 -60.708740 0.000000 240.000000 0.718082 -0.456057 -0.525709
9.63000011 -9.18999958 -0.51999998 128 222 80 0.000000 0.000000 0.000000 0.000000 -60.708740 0.000000 240.000000 -0.605456 0.795782 0.012413
9.63000011 -9.18999958 -0.51999998 128 222 80 0.000000 0.000000 0.000000 0.000000 -60.708740 0.000000 240.000000 -0.605456 0.795782 0.012413
9.60999966 -9.21000004 -0.47000000 128 222 80 0.000000 0.000000 0.000000 0.000000 -60.708740 0.000000 240.000000 0.446815 -0.715900 -0.536510
9.60999966 -9.19999981 -0.51999998 128 222 80 0.000000 0.000000 0.000000 0.000000 -60.708740 0.000000 240.000000 -0.626156 0.752933 -0.202534
9.57999992 -9.21000004 -0.51999998 128 222 80 0.000000 0.000000 0.000000 0.000000 -60.708740 0.000000 240.000000 -0.391255 0.849538 0.353844
9.60999966 -9.22999954 -0.47000000 128 222 80 0.000000 0.000000 0.000000 0.000000 -60.708740 0.000000 240.000000 -0.260462 0.891524 0.370600
9.56000042 -9.18000031 -0.38999999 128 222 80 0.000000 0.000000 0.000000 0.000000 -60.708740 0.000000 240.000000 -0.224307 0.950245 0.216150
9.56000042 -9.15999985 -0.41000000 128 222 80 0.000000 0.000000 0.000000 0.000000 -60.708740 0.000000 240.000000 -0.260020 0.913701 -0.312314
9.56999969 -9.17000008 -0.49000001 128 222 80 0.000000 0.000000 0.000000 0.000000 -60.708740 0.000000 240.000000 0.835590 -0.535186 0.123953
9.52999973 -9.14000034 -0.50000000 128 222 80 0.000000 0.000000 0.000000 0.000000 -60.708740 0.000000 240.000000 -0.233932 0.908120 -0.347265
9.56000042 -9.17000008 -0.47000000 128 222 80 0.000000 0.000000 0.000000 0.000000 -60.708740 0.000000 240.000000 0.756781 -0.602592 -0.253309
9.52999973 -9.19999981 -0.37000000 128 222 80 0.000000 0.000000 0.000000 0.000000 -60.708740 0.000000 240.000000 0.351786 0.933229 -0.073012
9.56000042 -9.21000004 -0.40000001 128 222 80 0.000000 0.000000 0.000000 0.000000 -60.708740 0.000000 240.000000 -0.294514 0.943261 0.153365
9.53999996 -9.22999954 -0.40000001 128 222 80 0.000000 0.000000 0.000000 0.000000 -60.708740 0.000000 240.000000 -0.163127 0.979989 -0.114066
9.51000023 -9.19999981 -0.38999999 128 222 80 0.000000 0.000000 0.000000 0.000000 -60.708740 0.000000 240.000000 0.516650 0.808738 0.281095
9.51000023 -9.19999981 -0.36000001 128 222 80 0.000000 0.000000 0.000000 0.000000 -60.708740 0.000000 240.000000 0.545576 0.811487 -0.209367
9.51000023 -9.21000004 -0.41999999 128 222 80 0.000000 0.000000 0.000000 0.000000 -60.708740 0.000000 240.000000 0.285034 0.950555 -0.123294
9.48999977 -9.21000004 -0.40000001 128 222 80 0.000000 0.000000 0.000000 0.000000 -60.708740 0.000000 240.000000 0.284540 0.958645 0.006106
9.56999969 -9.21000004 -0.44999999 128 222 80 0.000000 0.000000 0.000000 0.000000 -60.708740 0.000000 240.000000 -0.419218 0.870219 -0.258795
9.56999969 -9.22000027 -0.50999999 128 222 80 0.000000 0.000000 0.000000 0.000000 -60.708740 0.000000 240.000000 -0.288352 0.957524 -0.001217
9.56000042 -9.22999954 -0.47000000 128 222 80 0.000000 0.000000 0.000000 0.000000 -60.708740 0.000000 240.000000 0.010962 0.960959 0.276474
9.56999969 -9.23999977 -0.47000000 128 222 80 0.000000 0.000000 0.000000 0.000000 -60.708740 0.000000 240.000000 -0.312929 0.906464 -0.283546
9.56999969 -9.25000000 -0.49000001 128 222 80 0.000000 0.000000 0.000000 0.000000 -60.708740 0.000000 240.000000 -0.366000 0.822312 0.435714
9.48999977 -9.21000004 -0.44000000 128 222 80 0.000000 0.000000 0.000000 0.000000 -60.708740 0.000000 240.000000 0.118489 0.990473 0.070173
9.50000000 -9.22999954 -0.44000000 128 222 80 0.000000 0.000000 0.000000 0.000000 -60.708740 0.000000 240.000000 0.255944 0.844462 -0.470508
9.51000023 -9.25000000 -0.47000000 128 222 80 0.000000 0.000000 0.000000 0.000000 -60.708740 0.000000 240.000000 0.272546 0.930610 -0.244303
9.52000046 -9.23999977 -0.50000000 128 222 80 0.000000 0.000000 0.000000 0.000000 -60.708740 0.000000 240.000000 -0.335951 0.940921 0.042477
9.52000046 -9.26000023 -0.49000001 128 222 80 0.000000 0.000000 0.000000 0.000000 -60.708740 0.000000 240.000000 0.060021 0.973818 -0.219262
9.64999962 -9.18000031 -0.54000002 128 222 80 0.000000 0.000000 0.000000 0.000000 -60.708740 0.000000 240.000000 0.867811 -0.297404 -0.398064
9.64000034 -9.17000008 -0.58999997 128 222 80 0.000000 0.000000 0.000000 0.000000 -60.708740 0.000000 240.000000 0.789443 -0.154881 -0.593962
9.59000015 -9.15999985 -0.56999999 128 222 80 0.000000 0.000000 0.000000 0.000000 -60.708740 0.000000 240.000000 0.743182 -0.486117 -0.459751
9.60999966 -9.13000011 -0.63000000 128 222 80 0.000000 0.000000 0.000000 0.000000 -60.708740 0.000000 240.000000 0.847852 -0.145472 -0.509887
9.61999989 -9.19999981 -0.54000002 128 222 80 0.000000 0.000000 0.000000 0.000000 -60.708740 0.000000 240.000000 0.922523 -0.285509 -0.259684
9.61999989 -9.18999958 -0.52999997 128 222 80 0.000000 0.000000 0.000000 0.000000 -60.708740 0.000000 240.000000 0.955298 -0.204994 -0.213033
9.61999989 -9.25000000 -0.60000002 128 222 80 0.000000 0.000000 0.000000 0.000000 -60.708740 0.000000 240.000000 0.743253 -0.645577 0.175512
9.59000015 -9.21000004 -0.54000002 128 222 80 0.000000 0.000000 0.000000 0.000000 -60.708740 0.000000 240.000000 -0.303184 0.952326 0.033967
9.60000038 -9.22000027 -0.57999998 128 222 80 0.000000 0.000000 0.000000 0.000000 -60.708740 0.000000 240.000000 -0.455053 0.879960 0.136372
9.59000015 -9.25000000 -0.55000001 128 222 80 0.000000 0.000000 0.000000 0.000000 -60.708740 0.000000 240.000000 0.720685 -0.613797 -0.322284
9.59000015 -9.23999977 -0.60000002 128 222 80 0.000000 0.000000 0.000000 0.000000 -60.708740 0.000000 240.000000 0.782268 -0.610731 -0.122738
9.59000015 -9.23999977 -0.60000002 128 222 80 0.000000 0.000000 0.000000 0.000000 -60.708740 0.000000 240.000000 0.782268 -0.610731 -0.122738
9.61999989 -9.21000004 -0.62000000 128 222 80 0.000000 0.000000 0.000000 0.000000 -60.708740 0.000000 240.000000 0.756903 -0.487636 -0.435096
9.63000011 -9.22000027 -0.61000001 128 222 80 0.000000 0.000000 0.000000 0.000000 -60.708740 0.000000 240.000000 0.862776 -0.315275 -0.395247
9.61999989 -9.23999977 -0.67000002 128 222 80 0.000000 0.000000 0.000000 0.000000 -60.708740 0.000000 240.000000 0.802232 -0.584378 -0.122175
9.60000038 -9.22000027 -0.67000002 128 222 80 0.000000 0.000000 0.000000 0.000000 -60.708740 0.000000 240.000000 0.703682 -0.675597 0.219998
9.59000015 -9.22999954 -0.63000000 128 222 80 0.000000 0.000000 0.000000 0.000000 -60.708740 0.000000 240.000000 -0.494360 0.845972 -0.199848
9.60999966 -9.26000023 -0.61000001 128 222 80 0.000000 0.000000 0.000000 0.000000 -60.708740 0.000000 240.000000 0.750768 -0.654553 -0.088926
9.59000015 -9.23999977 -0.63999999 128 222 80 0.000000 0.000000 0.000000 0.000000 -60.708740 0.000000 240.000000 -0.502778 0.862895 0.051247
9.60000038 -9.26000023 -0.61000001 128 222 80 0.000000 0.000000 0.000000 0.000000 -60.708740 0.000000 240.000000 -0.554544 0.822255 -0.127972
9.60999966 -9.25000000 -0.68000001 128 222 80 0.000000 0.000000 0.000000 0.000000 -60.708740 0.000000 240.000000 -0.693011 0.699131 0.175930
9.60000038 -9.26000023 -0.69000000 128 222 80 0.000000 0.000000 0.000000 0.000000 -60.708740 0.000000 240.000000 -0.655190 0.744737 -0.126859
9.60999966 -9.25000000 -0.66000003 128 222 80 0.000000 0.000000 0.000000 0.000000 -60.708740 0.000000 240.000000 0.600294 -0.705551 -0.376623
9.60999966 -9.25000000 -0.66000003 128 222 80 0.000000 0.000000 0.000000 0.000000 -60.708740 0.000000 240.000000 0.600294 -0.705551 -0.376623
9.52999973 -9.18000031 -0.56999999 128 222 80 0.000000 0.000000 0.000000 0.000000 -60.708740 0.000000 240.000000 -0.299477 0.915793 -0.267649
9.56999969 -9.26000023 -0.56000000 128 222 80 0.000000 0.000000 0.000000 0.000000 -60.708740 0.000000 240.000000 -0.434322 0.892695 -0.120252
9.53999996 -9.26000023 -0.52999997 128 222 80 0.000000 0.000000 0.000000 0.000000 -60.708740 0.000000 240.000000 -0.187580 0.951394 0.244259
9.56999969 -9.26000023 -0.56000000 128 222 80 0.000000 0.000000 0.000000 0.000000 -60.708740 0.000000 240.000000 -0.434322 0.892695 -0.120252
9.56000042 -9.22999954 -0.54000002 128 222 80 0.000000 0.000000 0.000000 0.000000 -60.708740 0.000000 240.000000 -0.465644 0.868124 -0.171862
9.52999973 -9.22999954 -0.57999998 128 222 80 0.000000 0.000000 0.000000 0.000000 -60.708740 0.000000 240.000000 -0.089251 0.994984 0.045176
9.51000023 -9.23999977 -0.56000000 128 222 80 0.000000 0.000000 0.000000 0.000000 -60.708740 0.000000 240.000000 -0.029482 0.979973 0.196938
9.51000023 -9.23999977 -0.56999999 128 222 80 0.000000 0.000000 0.000000 0.000000 -60.708740 0.000000 240.000000 0.358860 0.925335 -0.122370
9.52999973 -9.25000000 -0.63000000 128 222 80 0.000000 0.000000 0.000000 0.000000 -60.708740 0.000000 240.000000 0.069619 0.997154 0.028919
9.53999996 -9.25000000 -0.63999999 128 222 80 0.000000 0.000000 0.000000 0.000000 -60.708740 0.000000 240.000000 -0.055649 0.996229 0.066561
9.56999969 -9.26000023 -0.61000001 128 222 80 0.000000 0.000000 0.000000 0.000000 -60.708740 0.000000 240.000000 -0.170605 0.901769 0.397123
9.56000042 -9.25000000 -0.69000000 128 222 80 0.000000 0.000000 0.000000 0.000000 -60.708740 0.000000 240.000000 -0.679136 0.733013 0.038281
9.56000042 -9.25000000 -0.66000003 128 222 80 0.000000 0.000000 0.000000 0.000000 -60.708740 0.000000 240.000000 -0.332826 0.942797 -0.018982
9.63000011 -9.35000038 -0.38999999 128 222 80 0.000000 0.000000 0.000000 0.000000 -60.708740 0.000000 240.000000 -0.443546 0.896251 -0.001308
9.64000034 -9.35000038 -0.38999999 128 222 80 0.000000 0.000000 0.000000 0.000000 -60.708740 0.000000 240.000000 -0.199398 0.968687 0.147940
9.63000011 -9.31999969 -0.40000001 128 222 80 0.000000 0.000000 0.000000 0.000000 -60.708740 0.000000 240.000000 -0.558461 0.827088 -0.063622
9.64999962 -9.35000038 -0.41000000 128 222 80 0.000000 0.000000 0.000000 0.000000 -60.708740 0.000000 240.000000 -0.480445 0.738003 0.473841
9.60000038 -9.34000015 -0.50000000 128 222 80 0.000000 0.000000 0.000000 0.000000 -60.708740 0.000000 240.000000 -0.410913 0.835995 0.363681
9.63000011 -9.36999989 -0.37000000 128 222 80 0.000000 0.000000 0.000000 0.000000 -60.708740 0.000000 240.000000 -0.010671 0.973408 0.228828
9.60000038 -9.27000046 -0.68000001 128 222 80 0.000000 0.000000 0.000000 0.000000 -60.708740 0.000000 240.000000 -0.625990 0.771018 0.116911
9.59000015 -9.27999973 -0.62000000 128 222 80 0.000000 0.000000 0.000000 0.000000 -60.708740 0.000000 240.000000 -0.629553 0.776026 -0.038027
9.59000015 -9.36999989 -0.63999999 128 222 80 0.000000 0.000000 0.000000 0.000000 -60.708740 0.000000 240.000000 -0.318187 0.941135 -0.114118
9.57999992 -9.38000011 -0.63999999 128 222 80 0.000000 0.000000 0.000000 0.000000 -60.708740 0.000000 240.000000 -0.604505 0.790955 0.094681
9.59000015 -9.36999989 -0.63999999 128 222 80 0.000000 0.000000 0.000000 0.000000 -60.708740 0.000000 240.000000 -0.318187 0.941135 -0.114118
9.53999996 -9.27000046 -0.56000000 128 222 80 0.000000 0.000000 0.000000 0.000000 -60.708740 0.000000 240.000000 -0.132720 0.886229 0.443828
9.53999996 -9.27999973 -0.54000002 128 222 80 0.000000 0.000000 0.000000 0.000000 -60.708740 0.000000 240.000000 -0.037643 0.996992 -0.067757
9.53999996 -9.27000046 -0.56999999 128 222 80 0.000000 0.000000 0.000000 0.000000 -60.708740 0.000000 240.000000 -0.134968 0.985386 -0.103913
9.52000046 -9.27000046 -0.52999997 128 222 80 0.000000 0.000000 0.000000 0.000000 -60.708740 0.000000 240.000000 -0.010880 0.999936 -0.002967
9.51000023 -9.27999973 -0.58999997 128 222 80 0.000000 0.000000 0.000000 0.000000 -60.708740 0.000000 240.000000 -0.260143 0.958214 -0.118960
9.55000019 -9.27000046 -0.63000000 128 222 80 0.000000 0.000000 0.000000 0.000000 -60.708740 0.000000 240.000000 -0.644768 0.758808 -0.092110
9.56999969 -9.27999973 -0.68000001 128 222 80 0.000000 0.000000 0.000000 0.000000 -60.708740 0.000000 240.000000 -0.274807 0.940418 -0.200236
9.56999969 -9.27999973 -0.67000002 128 222 80 0.000000 0.000000 0.000000 0.000000 -60.708740 0.000000 240.000000 -0.454139 0.877809 0.152347
9.52999973 -9.30000019 -0.68000001 128 222 80 0.000000 0.000000 0.000000 0.000000 -60.708740 0.000000 240.000000 -0.219919 0.904434 -0.365560
9.53999996 -9.30000019 -0.68000001 128 222 80 0.000000 0.000000 0.000000 0.000000 -60.708740 0.000000 240.000000 -0.616608 0.777074 0.126293
9.48999977 -9.30000019 -0.64999998 128 222 80 0.000000 0.000000 0.000000 0.000000 -60.708740 0.000000 240.000000 0.205401 0.954512 0.216141
9.50000000 -9.35000038 -0.64999998 128 222 80 0.000000 0.000000 0.000000 0.000000 -60.708740 0.000000 240.000000 -0.173999 0.964188 0.200164
9.55000019 -9.39999962 -0.69000000 128 222 80 0.000000 0.000000 0.000000 0.000000 -60.708740 0.000000 240.000000 0.132157 0.990610 -0.035016
9.47000027 -9.10999966 -0.36000001 128 222 80 0.000000 0.000000 0.000000 0.000000 -60.708740 0.000000 240.000000 0.991934 -0.120473 -0.039407
9.46000004 -9.11999989 -0.40000001 128 222 80 0.000000 0.000000 0.000000 0.000000 -60.708740 0.000000 240.000000 0.871684 -0.025757 -0.489390
9.42000008 -9.13000011 -0.41000000 128 222 80 0.000000 0.000000 0.000000 0.000000 -60.708740 0.000000 240.000000 0.825786 0.165755 -0.539076
9.46000004 -9.11999989 -0.44999999 128 222 80 0.000000 0.000000 0.000000 0.000000 -60.708740 0.000000 240.000000 0.943327 0.311766 -0.113734
9.46000004 -9.10999966 -0.44000000 128 222 80 0.000000 0.000000 0.000000 0.000000 -60.708740 0.000000 240.000000 0.852716 -0.522373 -0.001343
9.44999981 -9.11999989 -0.47000000 128 222 80 0.000000 0.000000 0.000000 0.000000 -60.708740 0.000000 240.000000 0.877468 -0.398849 -0.266401
9.47999954 -9.19999981 -0.40000001 128 222 80 0.000000 0.000000 0.000000 0.000000 -60.708740 0.000000 240.000000 0.388885 0.862311 -0.324327
9.44999981 -9.26000023 -0.43000001 128 222 80 0.000000 0.000000 0.000000 0.000000 -60.708740 0.000000 240.000000 0.713802 0.699723 -0.029566
9.42000008 -9.23999977 -0.37000000 128 222 80 0.000000 0.000000 0.000000 0.000000 -60.708740 0.000000 240.000000 0.901388 0.384650 -0.198857
9.42000008 -9.26000023 -0.36000001 128 222 80 0.000000 0.000000 0.000000 0.000000 -60.708740 0.000000 240.000000 0.382285 0.921509 -0.068409
9.42000008 -9.25000000 -0.36000001 128 222 80 0.000000 0.000000 0.000000 0.000000 -60.708740 0.000000 240.000000 0.695560 0.657007 -0.290754
9.43000031 -9.26000023 -0.41000000 128 222 80 0.000000 0.000000 0.000000 0.000000 -60.708740 0.000000 240.000000 0.407467 0.897003 0.171338
9.42000008 -9.25000000 -0.40000001 128 222 80 0.000000 0.000000 0.000000 0.000000 -60.708740 0.000000 240.000000 0.337424 0.925466 -0.172212
9.42000008 -9.25000000 -0.41000000 128 222 80 0.000000 0.000000 0.000000 0.000000 -60.708740 0.000000 240.000000 0.350971 0.936344 -0.008869
9.47000027 -9.22999954 -0.44999999 128 222 80 0.000000 0.000000 0.000000 0.000000 -60.708740 0.000000 240.000000 0.132368 0.991095 -0.014460
9.44999981 -9.26000023 -0.47000000 128 222 80 0.000000 0.000000 0.000000 0.000000 -60.708740 0.000000 240.000000 0.270921 0.962320 0.023292
9.44999981 -9.26000023 -0.47999999 128 222 80 0.000000 0.000000 0.000000 0.000000 -60.708740 0.000000 240.000000 0.200660 0.970069 0.136755
9.47999954 -9.22999954 -0.50000000 128 222 80 0.000000 0.000000 0.000000 0.000000 -60.708740 0.000000 240.000000 0.435935 0.802700 -0.406980
9.42000008 -9.25000000 -0.47999999 128 222 80 0.000000 0.000000 0.000000 0.000000 -60.708740 0.000000 240.000000 0.696709 0.711377 0.092406
9.42000008 -9.23999977 -0.44999999 128 222 80 0.000000 0.000000 0.000000 0.000000 -60.708740 0.000000 240.000000 0.773818 0.601516 -0.198454
9.42000008 -9.25000000 -0.47999999 128 222 80 0.000000 0.000000 0.000000 0.000000 -60.708740 0.000000 240.000000 0.696709 0.711377 0.092406
9.43999958 -9.26000023 -0.49000001 128 222 80 0.000000 0.000000 0.000000 0.000000 -60.708740 0.000000 240.000000 0.316093 0.931568 0.179630
9.43999958 -9.25000000 -0.50999999 128 222 80 0.000000 0.000000 0.000000 0.000000 -60.708740 0.000000 240.000000 0.593947 0.758669 0.267672
9.43999958 -9.26000023 -0.51999998 128 222 80 0.000000 0.000000 0.000000 0.000000 -60.708740 0.000000 240.000000 0.363862 0.910375 0.197032
9.43000031 -9.25000000 -0.50000000 128 222 80 0.000000 0.000000 0.000000 0.000000 -60.708740 0.000000 240.000000 0.551699 0.790612 0.265633
9.39999962 -9.15999985 -0.47000000 128 222 80 0.000000 0.000000 0.000000 0.000000 -60.708740 0.000000 240.000000 0.784303 0.453045 -0.423816
9.38000011 -9.22000027 -0.36000001 128 222 80 0.000000 0.000000 0.000000 0.000000 -60.708740 0.000000 240.000000 0.905331 0.410250 0.109864
9.43000031 -9.11999989 -0.55000001 128 222 80 0.000000 0.000000 0.000000 0.000000 -60.708740 0.000000 240.000000 0.967410 -0.249535 -0.043023
9.43000031 -9.11999989 -0.54000002 128 222 80 0.000000 0.000000 0.000000 0.000000 -60.708740 0.000000 240.000000 0.992576 -0.117233 -0.032379
9.43000031 -9.14000034 -0.56999999 128 222 80 0.000000 0.000000 0.000000 0.000000 -60.708740 0.000000 240.000000 0.965242 -0.127582 -0.228101
9.43000031 -9.10999966 -0.63000000 128 222 80 0.000000 0.000000 0.000000 0.000000 -60.708740 0.000000 240.000000 0.883424 -0.400744 -0.242830
9.39000034 -9.11999989 -0.68000001 128 222 80 0.000000 0.000000 0.000000 0.000000 -60.708740 0.000000 240.000000 0.835651 -0.243795 -0.492191
9.38000011 -9.14999962 -0.64999998 128 222 80 0.000000 0.000000 0.000000 0.000000 -60.708740 0.000000 240.000000 0.978585 0.205093 0.017579
9.39000034 -9.11999989 -0.68000001 128 222 80 0.000000 0.000000 0.000000 0.000000 -60.708740 0.000000 240.000000 0.835651 -0.243795 -0.492191
9.47999954 -9.28999996 -0.50999999 128 222 80 0.000000 0.000000 0.000000 0.000000 -60.708740 0.000000 240.000000 0.485539 0.861722 0.147266
9.47999954 -9.30000019 -0.50999999 128 222 80 0.000000 0.000000 0.000000 0.000000 -60.708740 0.000000 240.000000 0.090985 0.922075 -0.376163
9.47999954 -9.35999966 -0.56999999 128 222 80 0.000000 0.000000 0.000000 0.000000 -60.708740 0.000000 240.000000 -0.062415 0.985684 -0.156626
9.00000000 -9.11999989 -0.67000002 128 222 80 0.000000 0.000000 0.000000 0.000000 -60.708740 0.000000 235.000000 0.939715 0.305031 -0.154567
9.01000023 -9.15999985 -0.69000000 128 222 80 0.000000 0.000000 0.000000 0.000000 -60.708740 0.000000 235.000000 0.871212 0.442308 -0.212963
9.01000023 -9.21000004 -0.63999999 128 222 80 0.000000 0.000000 0.000000 0.000000 -60.708740 0.000000 235.000000 0.973432 0.221624 -0.057549
9.01000023 -9.18999958 -0.64999998 128 222 80 0.000000 0.000000 0.000000 0.000000 -60.708740 0.000000 235.000000 0.984175 0.019568 0.176116
9.01000023 -9.18999958 -0.69000000 128 222 80 0.000000 0.000000 0.000000 0.000000 -60.708740 0.000000 235.000000 0.940218 -0.277509 -0.197432
9.01000023 -9.18999958 -0.69000000 128 222 80 0.000000 0.000000 0.000000 0.000000 -60.708740 0.000000 235.000000 0.940218 -0.277509 -0.197432
9.57999992 -9.21000004 -0.80000001 128 222 80 0.000000 0.000000 0.000000 0.000000 -60.708740 0.000000 240.000000 0.706380 -0.700481 0.101754
9.60000038 -9.26000023 -0.79000002 128 222 80 0.000000 0.000000 0.000000 0.000000 -60.708740 0.000000 240.000000 0.861274 -0.442029 -0.250635
9.57999992 -9.18999958 -0.77999997 128 222 80 0.000000 0.000000 0.000000 0.000000 -60.708740 0.000000 240.000000 0.756569 -0.653842 0.009717
9.52999973 -9.21000004 -0.73000002 128 222 80 0.000000 0.000000 0.000000 0.000000 -60.708740 0.000000 240.000000 0.769543 -0.627200 0.120102
9.53999996 -9.19999981 -0.70999998 128 222 80 0.000000 0.000000 0.000000 0.000000 -60.708740 0.000000 240.000000 0.842160 -0.511258 -0.171413
9.57999992 -9.27999973 -0.70999998 128 222 80 0.000000 0.000000 0.000000 0.000000 -60.708740 0.000000 240.000000 -0.637617 0.737391 0.222932
9.60000038 -9.27000046 -0.75999999 128 222 80 0.000000 0.000000 0.000000 0.000000 -60.708740 0.000000 240.000000 -0.568790 0.659393 0.491609
9.61999989 -9.30000019 -0.85000002 128 222 80 0.000000 0.000000 0.000000 0.000000 -60.708740 0.000000 240.000000 0.688549 -0.659524 -0.301543
9.60000038 -9.34000015 -0.82999998 128 222 80 0.000000 0.000000 0.000000 0.000000 -60.708740 0.000000 240.000000 0.704931 -0.640407 -0.304879
9.61999989 -9.38000011 -0.69999999 128 222 80 0.000000 0.000000 0.000000 0.000000 -60.708740 0.000000 240.000000 -0.565538 0.823990 0.034738
9.60999966 -9.39999962 -0.73000002 128 222 80 0.000000 0.000000 0.000000 0.000000 -60.708740 0.000000 240.000000 -0.190797 0.951277 -0.242217
9.56000042 -9.27000046 -0.69999999 128 222 80 0.000000 0.000000 0.000000 0.000000 -60.708740 0.000000 240.000000 0.368097 -0.864027 -0.343455
9.56000042 -9.28999996 -0.75999999 128 222 80 0.000000 0.000000 0.000000 0.000000 -60.708740 0.000000 240.000000 -0.255245 0.964400 -0.069155
9.56000042 -9.28999996 -0.76999998 128 222 80 0.000000 0.000000 0.000000 0.000000 -60.708740 0.000000 240.000000 -0.603537 0.793672 -0.076342
9.52999973 -9.31999969 -0.73000002 128 222 80 0.000000 0.000000 0.000000 0.000000 -60.708740 0.000000 240.000000 -0.356922 0.918405 0.170702
9.50000000 -9.34000015 -0.73000002 128 222 80 0.000000 0.000000 0.000000 0.000000 -60.708740 0.000000 240.000000 0.058461 0.981900 0.180154
9.48999977 -9.32999992 -0.73000002 128 222 80 0.000000 0.000000 0.000000 0.000000 -60.708740 0.000000 240.000000 -0.136852 0.975543 0.172007
9.50000000 -9.34000015 -0.75000000 128 222 80 0.000000 0.000000 0.000000 0.000000 -60.708740 0.000000 240.000000 -0.022542 0.976411 0.214739
9.56000042 -9.28999996 -0.79000002 128 222 80 0.000000 0.000000 0.000000 0.000000 -60.708740 0.000000 240.000000 -0.549424 0.809597 -0.206608
9.55000019 -9.27999973 -0.80000001 128 222 80 0.000000 0.000000 0.000000 0.000000 -60.708740 0.000000 240.000000 -0.378690 0.913643 -0.147816
9.56999969 -9.27999973 -0.77999997 128 222 80 0.000000 0.000000 0.000000 0.000000 -60.708740 0.000000 240.000000 0.776154 -0.628585 0.049662
9.55000019 -9.27999973 -0.80000001 128 222 80 0.000000 0.000000 0.000000 0.000000 -60.708740 0.000000 240.000000 -0.378690 0.913643 -0.147816
9.56999969 -9.27000046 -0.83999997 128 222 80 0.000000 0.000000 0.000000 0.000000 -60.708740 0.000000 240.000000 -0.415243 0.905861 -0.083597
9.56999969 -9.27000046 -0.83999997 128 222 80 0.000000 0.000000 0.000000 0.000000 -60.708740 0.000000 240.000000 -0.415243 0.905861 -0.083597
9.52999973 -9.32999992 -0.81000000 128 222 80 0.000000 0.000000 0.000000 0.000000 -60.708740 0.000000 240.000000 -0.517504 0.806928 -0.284706
9.53999996 -9.31999969 -0.83999997 128 222 80 0.000000 0.000000 0.000000 0.000000 -60.708740 0.000000 240.000000 -0.420737 0.824010 0.379457
9.52000046 -9.32999992 -0.80000001 128 222 80 0.000000 0.000000 0.000000 0.000000 -60.708740 0.000000 240.000000 -0.623281 0.777286 -0.085719
9.48999977 -9.32999992 -0.79000002 128 222 80 0.000000 0.000000 0.000000 0.000000 -60.708740 0.000000 240.000000 0.011141 0.999617 0.025320
9.51000023 -9.34000015 -0.81000000 128 222 80 0.000000 0.000000 0.000000 0.000000 -60.708740 0.000000 240.000000 -0.273006 0.961132 0.041138
9.53999996 -9.39999962 -0.76999998 128 222 80 0.000000 0.000000 0.000000 0.000000 -60.708740 0.000000 240.000000 -0.276505 0.900491 -0.335651
9.56999969 -9.39000034 -0.79000002 128 222 80 0.000000 0.000000 0.000000 0.000000 -60.708740 0.000000 240.000000 -0.515891 0.819539 0.249425
9.48999977 -9.35999966 -0.79000002 128 222 80 0.000000 0.000000 0.000000 0.000000 -60.708740 0.000000 240.000000 -0.441603 0.890260 0.111459
9.48999977 -9.35999966 -0.82999998 128 222 80 0.000000 0.000000 0.000000 0.000000 -60.708740 0.000000 240.000000 0.077801 0.993376 0.084567
9.60000038 -9.35000038 -0.86000001 128 222 80 0.000000 0.000000 0.000000 0.000000 -60.708740 0.000000 240.000000 -0.280835 0.945613 -0.164159
9.59000015 -9.35000038 -0.88999999 128 222 80 0.000000 0.000000 0.000000 0.000000 -60.708740 0.000000 240.000000 -0.512961 0.833752 0.204277
9.60999966 -9.35000038 -0.88999999 128 222 80 0.000000 0.000000 0.000000 0.000000 -60.708740 0.000000 240.000000 -0.459520 0.873818 0.159009
9.56000042 -9.38000011 -0.88999999 128 222 80 0.000000 0.000000 0.000000 0.000000 -60.708740 0.000000 240.000000 -0.335268 0.935789 -0.109063
9.52999973 -9.38000011 -0.89999998 128 222 80 0.000000 0.000000 0.000000 0.000000 -60.708740 0.000000 240.000000 -0.276908 0.958330 -0.070184
9.55000019 -9.38000011 -0.88999999 128 222 80 0.000000 0.000000 0.000000 0.000000 -60.708740 0.000000 240.000000 -0.535962 0.843413 0.037393
9.52999973 -9.39000034 -0.89999998 128 222 80 0.000000 0.000000 0.000000 0.000000 -60.708740 0.000000 240.000000 -0.349176 0.931586 -0.101113
9.38000011 -9.10999966 -0.77999997 128 222 80 0.000000 0.000000 0.000000 0.000000 -60.708740 0.000000 240.000000 0.986810 -0.100695 0.126757
9.38000011 -9.11999989 -0.80000001 128 222 80 0.000000 0.000000 0.000000 0.000000 -60.708740 0.000000 240.000000 0.953433 0.296595 -0.054736
9.01000023 -9.10999966 -0.74000001 128 222 80 0.000000 0.000000 0.000000 0.000000 -60.708740 0.000000 235.000000 0.992255 0.071770 -0.101390
9.00000000 -9.14000034 -0.75999999 128 222 80 0.000000 0.000000 0.000000 0.000000 -60.708740 0.000000 235.000000 0.935330 0.349277 0.056251
9.00000000 -9.18000031 -0.72000003 128 222 80 0.000000 0.000000 0.000000 0.000000 -60.708740 0.000000 235.000000 0.910216 -0.077552 -0.406808
9.00000000 -9.14999962 -0.75999999 128 222 80 0.000000 0.000000 0.000000 0.000000 -60.708740 0.000000 235.000000 0.990067 0.139840 0.014543
9.00000000 -9.14999962 -0.75999999 128 222 80 0.000000 0.000000 0.000000 0.000000 -60.708740 0.000000 235.000000 0.990067 0.139840 0.014543
8.98999977 -9.15999985 -0.75999999 128 222 80 0.000000 0.000000 0.000000 0.000000 -60.708740 0.000000 235.000000 0.963025 -0.190503 -0.190503
9.00000000 -9.19999981 -0.72000003 128 222 80 0.000000 0.000000 0.000000 0.000000 -60.708740 0.000000 235.000000 0.986763 0.081346 0.140292
9.00000000 -9.18999958 -0.72000003 128 222 80 0.000000 0.000000 0.000000 0.000000 -60.708740 0.000000 235.000000 0.965634 0.257092 -0.038133
9.01000023 -9.19999981 -0.73000002 128 222 80 0.000000 0.000000 0.000000 0.000000 -60.708740 0.000000 235.000000 0.991535 0.110933 0.067475
9.01000023 -9.18999958 -0.70999998 128 222 80 0.000000 0.000000 0.000000 0.000000 -60.708740 0.000000 235.000000 0.955621 0.248541 -0.158163
9.01000023 -9.18999958 -0.75000000 128 222 80 0.000000 0.000000 0.000000 0.000000 -60.708740 0.000000 235.000000 0.992893 0.098497 0.066797
9.01000023 -9.21000004 -0.75000000 128 222 80 0.000000 0.000000 0.000000 0.000000 -60.708740 0.000000 235.000000 0.991236 0.121771 0.051212
9.01000023 -9.21000004 -0.74000001 128 222 80 0.000000 0.000000 0.000000 0.000000 -60.708740 0.000000 235.000000 0.996817 0.070198 -0.037799
9.01000023 -9.21000004 -0.75999999 128 222 80 0.000000 0.000000 0.000000 0.000000 -60.708740 0.000000 235.000000 0.983703 0.075119 -0.163354
9.01000023 -9.18999958 -0.75000000 128 222 80 0.000000 0.000000 0.000000 0.000000 -60.708740 0.000000 235.000000 0.992893 0.098497 0.066797
9.01000023 -9.22000027 -0.77999997 128 222 80 0.000000 0.000000 0.000000 0.000000 -60.708740 0.000000 235.000000 0.977805 -0.029630 -0.207413
8.96000004 -9.11999989 -0.83999997 128 222 80 0.000000 0.000000 0.000000 0.000000 -60.708740 0.000000 235.000000 0.925582 0.196421 -0.323600
8.94999981 -9.10999966 -0.85000002 128 222 80 0.000000 0.000000 0.000000 0.000000 -60.708740 0.000000 235.000000 0.851727 0.083614 -0.517272
8.93999958 -9.10999966 -0.85000002 128 222 80 0.000000 0.000000 0.000000 0.000000 -60.708740 0.000000 235.000000 0.917790 -0.105635 -0.382756
8.93999958 -9.11999989 -0.86000001 128 222 80 0.000000 0.000000 0.000000 0.000000 -60.708740 0.000000 235.000000 0.845199 -0.210166 -0.491395
10.03999996 -8.82999992 0.66000003 128 222 80 0.000000 0.000000 0.000000 0.000000 -60.708740 0.000000 240.000000 0.489152 0.812088 -0.318187
10.01000023 -8.78999996 0.66000003 128 222 80 0.000000 0.000000 0.000000 0.000000 -60.708740 0.000000 240.000000 0.402174 0.914515 -0.043801
10.01000023 -8.81000042 0.68000001 128 222 80 0.000000 0.000000 0.000000 0.000000 -60.708740 0.000000 240.000000 0.686003 0.718599 0.114087
9.97999954 -8.76000023 0.66000003 128 222 80 0.000000 0.000000 0.000000 0.000000 -60.708740 0.000000 240.000000 0.599543 0.769956 0.218438
