//X Y Z R G B PointSourceId ScanDirectionFlag NumberOfReturns ReturnNumber GpsTime Intensity Classification Nx Ny Nz
-0.61000001 17.12999916 -1.34000003 17 204 145 0.000000 0.000000 0.000000 0.000000 -60.708740 0.000000 131.000000 0.120971 0.981212 -0.150298
-0.61000001 17.12999916 -1.34000003 17 204 145 0.000000 0.000000 0.000000 0.000000 -60.708740 0.000000 131.000000 0.120971 0.981212 -0.150298
-0.66000003 17.13999939 -1.28999996 17 204 145 0.000000 0.000000 0.000000 0.000000 -60.708740 0.000000 131.000000 0.203014 0.975699 0.082436
-0.63999999 17.15999985 -1.27999997 17 204 145 0.000000 0.000000 0.000000 0.000000 -60.708740 0.000000 131.000000 0.225938 0.916704 -0.329553
-0.66000003 17.12999916 -1.33000004 17 204 145 0.000000 0.000000 0.000000 0.000000 -60.708740 0.000000 131.000000 0.205838 0.940777 -0.269386
-0.64999998 17.12999916 -1.33000004 17 204 145 0.000000 0.000000 0.000000 0.000000 -60.708740 0.000000 131.000000 0.223582 0.959153 -0.173309
-0.63999999 17.12000084 -1.32000005 17 204 145 0.000000 0.000000 0.000000 0.000000 -60.708740 0.000000 131.000000 0.167630 0.980086 -0.106451
-0.68000001 17.19000053 -1.25999999 17 204 145 0.000000 0.000000 0.000000 0.000000 -60.708740 0.000000 131.000000 0.155165 0.963591 -0.217753
-0.75000000 17.18000031 -1.21000004 17 204 145 0.000000 0.000000 0.000000 0.000000 -60.708740 0.000000 131.000000 0.630209 0.656814 -0.414042
-0.75000000 17.17000008 -1.22000003 17 204 145 0.000000 0.000000 0.000000 0.000000 -60.708740 0.000000 131.000000 0.761489 0.530932 -0.371814
-0.74000001 17.17000008 -1.21000004 17 204 145 0.000000 0.000000 0.000000 0.000000 -60.708740 0.000000 131.000000 0.698813 0.589778 -0.404750
-0.67000002 17.15999985 -1.23000002 17 204 145 0.000000 0.000000 0.000000 0.000000 -60.708740 0.000000 131.000000 0.191119 0.866703 -0.460760
-0.67000002 17.15999985 -1.23000002 17 204 145 0.000000 0.000000 0.000000 0.000000 -60.708740 0.000000 131.000000 0.191119 0.866703 -0.460760
-0.68000001 17.13999939 -1.26999998 17 204 145 0.000000 0.000000 0.000000 0.000000 -60.708740 0.000000 131.000000 0.163121 0.986600 -0.003375
-0.67000002 17.14999962 -1.26999998 17 204 145 0.000000 0.000000 0.000000 0.000000 -60.708740 0.000000 131.000000 0.163698 0.853887 -0.494045
-0.67000002 17.14999962 -1.24000001 17 204 145 0.000000 0.000000 0.000000 0.000000 -60.708740 0.000000 131.000000 0.380527 0.775626 -0.503590
-0.74000001 17.15999985 -1.22000003 17 204 145 0.000000 0.000000 0.000000 0.000000 -60.708740 0.000000 131.000000 0.278874 0.930051 -0.239237
-0.75000000 17.15999985 -1.23000002 17 204 145 0.000000 0.000000 0.000000 0.000000 -60.708740 0.000000 131.000000 0.396761 0.896709 -0.196200
-0.74000001 17.15999985 -1.22000003 17 204 145 0.000000 0.000000 0.000000 0.000000 -60.708740 0.000000 131.000000 0.278874 0.930051 -0.239237
-0.74000001 17.15999985 -1.26999998 17 204 145 0.000000 0.000000 0.000000 0.000000 -60.708740 0.000000 131.000000 0.407466 0.903758 -0.131122
-0.72000003 17.15999985 -1.25000000 17 204 145 0.000000 0.000000 0.000000 0.000000 -60.708740 0.000000 131.000000 0.253005 0.941511 -0.222589
-0.73000002 17.15999985 -1.25999999 17 204 145 0.000000 0.000000 0.000000 0.000000 -60.708740 0.000000 131.000000 0.462000 0.733569 -0.498430
-0.72000003 17.15999985 -1.24000001 17 204 145 0.000000 0.000000 0.000000 0.000000 -60.708740 0.000000 131.000000 0.265453 0.922630 -0.279802
-0.73000002 17.15999985 -1.25999999 17 204 145 0.000000 0.000000 0.000000 0.000000 -60.708740 0.000000 131.000000 0.462000 0.733569 -0.498430
-0.69000000 17.15999985 -1.27999997 17 204 145 0.000000 0.000000 0.000000 0.000000 -60.708740 0.000000 131.000000 0.328124 0.935357 -0.132066
-0.68000001 17.14999962 -1.27999997 17 204 145 0.000000 0.000000 0.000000 0.000000 -60.708740 0.000000 131.000000 0.388659 0.729760 -0.562489
-0.73000002 17.13999939 -1.28999996 17 204 145 0.000000 0.000000 0.000000 0.000000 -60.708740 0.000000 131.000000 0.297239 0.816228 -0.495399
-0.73000002 17.13999939 -1.28999996 17 204 145 0.000000 0.000000 0.000000 0.000000 -60.708740 0.000000 131.000000 0.297239 0.816228 -0.495399
-0.73000002 17.15999985 -1.28999996 17 204 145 0.000000 0.000000 0.000000 0.000000 -60.708740 0.000000 131.000000 0.437753 0.755820 -0.486938
-0.74000001 17.14999962 -1.27999997 17 204 145 0.000000 0.000000 0.000000 0.000000 -60.708740 0.000000 131.000000 0.442029 0.861274 -0.250635
-0.73000002 17.15999985 -1.28999996 17 204 145 0.000000 0.000000 0.000000 0.000000 -60.708740 0.000000 131.000000 0.437753 0.755820 -0.486938
-0.77999997 17.59000015 -0.70999998 17 204 145 0.000000 0.000000 0.000000 0.000000 -60.708740 0.000000 131.000000 0.968120 0.126610 -0.216133
-0.76999998 17.54000092 -0.72000003 17 204 145 0.000000 0.000000 0.000000 0.000000 -60.708740 0.000000 131.000000 0.912546 0.320624 -0.253888
-0.76999998 17.54000092 -0.70999998 17 204 145 0.000000 0.000000 0.000000 0.000000 -60.708740 0.000000 131.000000 0.930027 0.043166 -0.364947
-0.76999998 17.54000092 -0.70999998 17 204 145 0.000000 0.000000 0.000000 0.000000 -60.708740 0.000000 131.000000 0.930027 0.043166 -0.364947
-0.77999997 17.54000092 -0.72000003 17 204 145 0.000000 0.000000 0.000000 0.000000 -60.708740 0.000000 131.000000 0.905044 0.394799 -0.158205
-0.75999999 17.46999931 -0.72000003 17 204 145 0.000000 0.000000 0.000000 0.000000 -60.708740 0.000000 131.000000 0.887434 0.169934 -0.428466
-0.77999997 17.43000031 -0.75000000 17 204 145 0.000000 0.000000 0.000000 0.000000 -60.708740 0.000000 131.000000 0.779394 0.508301 -0.366299
-0.81000000 17.44000053 -0.73000002 17 204 145 0.000000 0.000000 0.000000 0.000000 -60.708740 0.000000 131.000000 0.828852 0.421531 -0.367853
-0.77999997 17.56999969 -0.88000000 17 204 145 0.000000 0.000000 0.000000 0.000000 -60.708740 0.000000 131.000000 0.924226 -0.027298 -0.380869
-0.79000002 17.55999947 -0.88000000 17 204 145 0.000000 0.000000 0.000000 0.000000 -60.708740 0.000000 131.000000 0.844698 -0.177282 -0.505031
-0.77999997 17.54999924 -0.89999998 17 204 145 0.000000 0.000000 0.000000 0.000000 -60.708740 0.000000 131.000000 0.862718 -0.092080 -0.497231
-0.79000002 17.54999924 -0.88000000 17 204 145 0.000000 0.000000 0.000000 0.000000 -60.708740 0.000000 131.000000 0.934901 0.256502 -0.245289
-0.77999997 17.57999992 -0.88000000 17 204 145 0.000000 0.000000 0.000000 0.000000 -60.708740 0.000000 131.000000 0.874320 -0.235452 -0.424413
-0.77999997 17.57999992 -0.88000000 17 204 145 0.000000 0.000000 0.000000 0.000000 -60.708740 0.000000 131.000000 0.874320 -0.235452 -0.424413
-0.79000002 17.57999992 -0.94000000 17 204 145 0.000000 0.000000 0.000000 0.000000 -60.708740 0.000000 131.000000 0.862089 -0.144411 -0.485745
-0.77999997 17.54999924 -0.94999999 17 204 145 0.000000 0.000000 0.000000 0.000000 -60.708740 0.000000 131.000000 0.930690 0.048433 -0.362589
-0.77999997 17.53000069 -0.95999998 17 204 145 0.000000 0.000000 0.000000 0.000000 -60.708740 0.000000 131.000000 0.841481 -0.145896 -0.520215
-0.79000002 17.52000046 -1.00000000 17 204 145 0.000000 0.000000 0.000000 0.000000 -60.708740 0.000000 131.000000 0.925798 0.142537 -0.350115
-0.80000001 17.53000069 -1.00000000 17 204 145 0.000000 0.000000 0.000000 0.000000 -60.708740 0.000000 131.000000 0.935223 0.164389 -0.313583
-0.77999997 17.43000031 -0.87000000 17 204 145 0.000000 0.000000 0.000000 0.000000 -60.708740 0.000000 131.000000 0.878773 0.085495 -0.469520
-0.79000002 17.45999908 -0.91000003 17 204 145 0.000000 0.000000 0.000000 0.000000 -60.708740 0.000000 131.000000 0.859353 0.009443 -0.511295
-0.79000002 17.45999908 -0.91000003 17 204 145 0.000000 0.000000 0.000000 0.000000 -60.708740 0.000000 131.000000 0.859353 0.009443 -0.511295
-0.80000001 17.46999931 -0.94000000 17 204 145 0.000000 0.000000 0.000000 0.000000 -60.708740 0.000000 131.000000 0.864139 -0.042589 -0.501448
-0.80000001 17.45999908 -0.91000003 17 204 145 0.000000 0.000000 0.000000 0.000000 -60.708740 0.000000 131.000000 0.880767 -0.017428 -0.473228
-0.80000001 17.43000031 -0.92000002 17 204 145 0.000000 0.000000 0.000000 0.000000 -60.708740 0.000000 131.000000 0.874354 0.106628 -0.473430
-0.77999997 17.48999977 -0.94999999 17 204 145 0.000000 0.000000 0.000000 0.000000 -60.708740 0.000000 131.000000 0.899323 0.009190 -0.437189
-0.80000001 17.46999931 -0.94999999 17 204 145 0.000000 0.000000 0.000000 0.000000 -60.708740 0.000000 131.000000 0.882794 0.053378 -0.466718
-0.76999998 17.38999939 -0.75999999 17 204 145 0.000000 0.000000 0.000000 0.000000 -60.708740 0.000000 131.000000 0.824493 0.275870 -0.494072
-0.77999997 17.37999916 -0.76999998 17 204 145 0.000000 0.000000 0.000000 0.000000 -60.708740 0.000000 131.000000 0.830067 0.351243 -0.433147
-0.76999998 17.36000061 -0.74000001 17 204 145 0.000000 0.000000 0.000000 0.000000 -60.708740 0.000000 131.000000 0.699609 0.680911 -0.216583
-0.77999997 17.40999985 -0.79000002 17 204 145 0.000000 0.000000 0.000000 0.000000 -60.708740 0.000000 131.000000 0.848812 0.262472 -0.458942
-0.77999997 17.38999939 -0.80000001 17 204 145 0.000000 0.000000 0.000000 0.000000 -60.708740 0.000000 131.000000 0.792152 0.344066 -0.504097
-0.81999999 17.37999916 -0.81000000 17 204 145 0.000000 0.000000 0.000000 0.000000 -60.708740 0.000000 131.000000 0.757624 0.637604 -0.139523
-0.80000001 17.38999939 -0.77999997 17 204 145 0.000000 0.000000 0.000000 0.000000 -60.708740 0.000000 131.000000 0.856827 0.382706 -0.345520
-0.81000000 17.39999962 -0.85000002 17 204 145 0.000000 0.000000 0.000000 0.000000 -60.708740 0.000000 131.000000 0.824110 0.417612 -0.382679
-0.76999998 17.30999947 -0.75000000 17 204 145 0.000000 0.000000 0.000000 0.000000 -60.708740 0.000000 131.000000 0.748723 0.532461 -0.394841
-0.76999998 17.32999992 -0.82999998 17 204 145 0.000000 0.000000 0.000000 0.000000 -60.708740 0.000000 131.000000 0.739390 0.334910 -0.584070
-0.77999997 17.31999969 -0.83999997 17 204 145 0.000000 0.000000 0.000000 0.000000 -60.708740 0.000000 131.000000 0.809217 0.277043 -0.518087
-0.77999997 17.32999992 -0.83999997 17 204 145 0.000000 0.000000 0.000000 0.000000 -60.708740 0.000000 131.000000 0.763281 0.406974 -0.501771
-0.75999999 17.29000092 -0.77999997 17 204 145 0.000000 0.000000 0.000000 0.000000 -60.708740 0.000000 131.000000 0.819815 0.289992 -0.493770
-0.75999999 17.29000092 -0.77999997 17 204 145 0.000000 0.000000 0.000000 0.000000 -60.708740 0.000000 131.000000 0.819815 0.289992 -0.493770
-0.80000001 17.32999992 -0.82999998 17 204 145 0.000000 0.000000 0.000000 0.000000 -60.708740 0.000000 131.000000 0.726826 0.461924 -0.508282
-0.79000002 17.40999985 -0.92000002 17 204 145 0.000000 0.000000 0.000000 0.000000 -60.708740 0.000000 131.000000 0.899786 0.177078 -0.398785
-0.79000002 17.40999985 -0.92000002 17 204 145 0.000000 0.000000 0.000000 0.000000 -60.708740 0.000000 131.000000 0.899786 0.177078 -0.398785
-0.77999997 17.35000038 -0.86000001 17 204 145 0.000000 0.000000 0.000000 0.000000 -60.708740 0.000000 131.000000 0.669310 0.712792 -0.209645
-0.80000001 17.37999916 -0.87000000 17 204 145 0.000000 0.000000 0.000000 0.000000 -60.708740 0.000000 131.000000 0.877383 0.292461 -0.380351
-0.80000001 17.34000015 -0.86000001 17 204 145 0.000000 0.000000 0.000000 0.000000 -60.708740 0.000000 131.000000 0.712527 0.652224 -0.258668
-0.79000002 17.31999969 -0.89999998 17 204 145 0.000000 0.000000 0.000000 0.000000 -60.708740 0.000000 131.000000 0.589265 0.777953 -0.218074
-0.79000002 17.29999924 -0.92000002 17 204 145 0.000000 0.000000 0.000000 0.000000 -60.708740 0.000000 131.000000 0.818683 0.360857 -0.446699
-0.76999998 17.27000046 -0.88000000 17 204 145 0.000000 0.000000 0.000000 0.000000 -60.708740 0.000000 131.000000 0.542127 0.832811 -0.111914
-0.77999997 17.29000092 -0.86000001 17 204 145 0.000000 0.000000 0.000000 0.000000 -60.708740 0.000000 131.000000 0.717247 0.504237 -0.480938
-0.79000002 17.32999992 -1.00000000 17 204 145 0.000000 0.000000 0.000000 0.000000 -60.708740 0.000000 131.000000 0.599710 0.692227 -0.401459
-0.76999998 17.26000023 -0.98000002 17 204 145 0.000000 0.000000 0.000000 0.000000 -60.708740 0.000000 131.000000 0.463908 0.856794 -0.225154
-0.76999998 17.26000023 -0.97000003 17 204 145 0.000000 0.000000 0.000000 0.000000 -60.708740 0.000000 131.000000 0.580972 0.762427 -0.284915
-0.76999998 17.26000023 -0.99000001 17 204 145 0.000000 0.000000 0.000000 0.000000 -60.708740 0.000000 131.000000 0.460090 0.868401 -0.184924
-0.76999998 17.26000023 -0.99000001 17 204 145 0.000000 0.000000 0.000000 0.000000 -60.708740 0.000000 131.000000 0.460090 0.868401 -0.184924
-0.81999999 17.30999947 -0.99000001 17 204 145 0.000000 0.000000 0.000000 0.000000 -60.708740 0.000000 131.000000 0.606554 0.757017 -0.242935
-0.80000001 17.26000023 -1.01999998 17 204 145 0.000000 0.000000 0.000000 0.000000 -60.708740 0.000000 131.000000 0.548751 0.822382 -0.150200
-0.80000001 17.28000069 -1.00999999 17 204 145 0.000000 0.000000 0.000000 0.000000 -60.708740 0.000000 131.000000 0.811014 0.328532 -0.484069
-0.75999999 17.25000000 -0.74000001 17 204 145 0.000000 0.000000 0.000000 0.000000 -60.708740 0.000000 131.000000 0.710021 0.570996 -0.412110
-0.75999999 17.23999977 -0.97000003 17 204 145 0.000000 0.000000 0.000000 0.000000 -60.708740 0.000000 131.000000 0.502647 0.857794 -0.107403
-0.75999999 17.23999977 -1.00000000 17 204 145 0.000000 0.000000 0.000000 0.000000 -60.708740 0.000000 131.000000 0.461560 0.774702 -0.432202
-0.75999999 17.20999908 -0.99000001 17 204 145 0.000000 0.000000 0.000000 0.000000 -60.708740 0.000000 131.000000 0.446283 0.885436 -0.129750
-0.81000000 17.34000015 -1.04999995 17 204 145 0.000000 0.000000 0.000000 0.000000 -60.708740 0.000000 131.000000 0.725537 0.378327 -0.574861
-0.81999999 17.32999992 -1.07000005 17 204 145 0.000000 0.000000 0.000000 0.000000 -60.708740 0.000000 131.000000 0.804686 0.441694 -0.396721
-0.81999999 17.32999992 -1.07000005 17 204 145 0.000000 0.000000 0.000000 0.000000 -60.708740 0.000000 131.000000 0.804686 0.441694 -0.396721
-0.81999999 17.31999969 -1.08000004 17 204 145 0.000000 0.000000 0.000000 0.000000 -60.708740 0.000000 131.000000 0.747901 0.334375 -0.573444
-0.81999999 17.29999924 -1.10000002 17 204 145 0.000000 0.000000 0.000000 0.000000 -60.708740 0.000000 131.000000 0.729586 0.589843 -0.346106
-0.81999999 17.29999924 -1.10000002 17 204 145 0.000000 0.000000 0.000000 0.000000 -60.708740 0.000000 131.000000 0.729586 0.589843 -0.346106
-0.80000001 17.26000023 -1.04999995 17 204 145 0.000000 0.000000 0.000000 0.000000 -60.708740 0.000000 131.000000 0.663939 0.667202 -0.337679
-0.83999997 17.34000015 -1.27999997 17 204 145 0.000000 0.000000 0.000000 0.000000 -60.708740 0.000000 131.000000 0.857044 0.089542 -0.507404
-0.83999997 17.34000015 -1.27999997 17 204 145 0.000000 0.000000 0.000000 0.000000 -60.708740 0.000000 131.000000 0.857044 0.089542 -0.507404
-0.83999997 17.29000092 -1.25000000 17 204 145 0.000000 0.000000 0.000000 0.000000 -60.708740 0.000000 131.000000 0.681541 0.514086 -0.520785
-0.85000002 17.27000046 -1.35000002 17 204 145 0.000000 0.000000 0.000000 0.000000 -60.708740 0.000000 131.000000 0.841712 0.200264 -0.501413
-0.75999999 17.21999931 -1.05999994 17 204 145 0.000000 0.000000 0.000000 0.000000 -60.708740 0.000000 131.000000 0.499974 0.850989 -0.160759
-0.75999999 17.22999954 -1.05999994 17 204 145 0.000000 0.000000 0.000000 0.000000 -60.708740 0.000000 131.000000 0.732253 0.504147 -0.457865
-0.76999998 17.21999931 -1.07000005 17 204 145 0.000000 0.000000 0.000000 0.000000 -60.708740 0.000000 131.000000 0.728442 0.402863 -0.554142
-0.77999997 17.23999977 -1.08000004 17 204 145 0.000000 0.000000 0.000000 0.000000 -60.708740 0.000000 131.000000 0.592085 0.762605 -0.260517
-0.80000001 17.25000000 -1.04999995 17 204 145 0.000000 0.000000 0.000000 0.000000 -60.708740 0.000000 131.000000 0.592353 0.780060 -0.201554
-0.77999997 17.20999908 -1.14999998 17 204 145 0.000000 0.000000 0.000000 0.000000 -60.708740 0.000000 131.000000 0.434173 0.892388 -0.123039
-0.79000002 17.20999908 -1.19000006 17 204 145 0.000000 0.000000 0.000000 0.000000 -60.708740 0.000000 131.000000 0.636524 0.548727 -0.541974
-0.79000002 17.20999908 -1.19000006 17 204 145 0.000000 0.000000 0.000000 0.000000 -60.708740 0.000000 131.000000 0.636524 0.548727 -0.541974
-0.75999999 17.18000031 -1.15999997 17 204 145 0.000000 0.000000 0.000000 0.000000 -60.708740 0.000000 131.000000 0.673742 0.522528 -0.522528
-0.75999999 17.20000076 -1.15999997 17 204 145 0.000000 0.000000 0.000000 0.000000 -60.708740 0.000000 131.000000 0.545301 0.606077 -0.579066
-0.81999999 17.25000000 -1.15999997 17 204 145 0.000000 0.000000 0.000000 0.000000 -60.708740 0.000000 131.000000 0.705013 0.461675 -0.538343
-0.76999998 17.19000053 -1.23000002 17 204 145 0.000000 0.000000 0.000000 0.000000 -60.708740 0.000000 131.000000 0.437031 0.798268 -0.414454
-0.77999997 17.20000076 -1.22000003 17 204 145 0.000000 0.000000 0.000000 0.000000 -60.708740 0.000000 131.000000 0.486951 0.773584 -0.405521
-0.77999997 17.20000076 -1.20000005 17 204 145 0.000000 0.000000 0.000000 0.000000 -60.708740 0.000000 131.000000 0.563983 0.760011 -0.322965
-0.75999999 17.18000031 -1.23000002 17 204 145 0.000000 0.000000 0.000000 0.000000 -60.708740 0.000000 131.000000 0.336841 0.862866 -0.376831
-0.75999999 17.17000008 -1.23000002 17 204 145 0.000000 0.000000 0.000000 0.000000 -60.708740 0.000000 131.000000 0.630701 0.686399 -0.362039
-0.76999998 17.19000053 -1.22000003 17 204 145 0.000000 0.000000 0.000000 0.000000 -60.708740 0.000000 131.000000 0.433513 0.743400 -0.509336
-0.79000002 17.20000076 -1.22000003 17 204 145 0.000000 0.000000 0.000000 0.000000 -60.708740 0.000000 131.000000 0.598305 0.718944 -0.353766
-0.75999999 17.19000053 -1.21000004 17 204 145 0.000000 0.000000 0.000000 0.000000 -60.708740 0.000000 131.000000 0.688494 0.527678 -0.497525
-0.75999999 17.17000008 -1.23000002 17 204 145 0.000000 0.000000 0.000000 0.000000 -60.708740 0.000000 131.000000 0.630701 0.686399 -0.362039
-0.75999999 17.17000008 -1.26999998 17 204 145 0.000000 0.000000 0.000000 0.000000 -60.708740 0.000000 131.000000 0.318088 0.940843 -0.116767
-0.76999998 17.17000008 -1.25999999 17 204 145 0.000000 0.000000 0.000000 0.000000 -60.708740 0.000000 131.000000 0.367006 0.927525 -0.070732
-0.76999998 17.18000031 -1.24000001 17 204 145 0.000000 0.000000 0.000000 0.000000 -60.708740 0.000000 131.000000 0.465284 0.870767 -0.158984
-0.75999999 17.17000008 -1.26999998 17 204 145 0.000000 0.000000 0.000000 0.000000 -60.708740 0.000000 131.000000 0.318088 0.940843 -0.116767
-0.81999999 17.21999931 -1.21000004 17 204 145 0.000000 0.000000 0.000000 0.000000 -60.708740 0.000000 131.000000 0.680084 0.630683 -0.373799
-0.80000001 17.20999908 -1.21000004 17 204 145 0.000000 0.000000 0.000000 0.000000 -60.708740 0.000000 131.000000 0.499538 0.863348 -0.071363
-0.81000000 17.25000000 -1.22000003 17 204 145 0.000000 0.000000 0.000000 0.000000 -60.708740 0.000000 131.000000 0.567909 0.788848 -0.234943
-0.82999998 17.22999954 -1.21000004 17 204 145 0.000000 0.000000 0.000000 0.000000 -60.708740 0.000000 131.000000 0.506211 0.834563 -0.217382
-0.81999999 17.21999931 -1.25000000 17 204 145 0.000000 0.000000 0.000000 0.000000 -60.708740 0.000000 131.000000 0.568265 0.704118 -0.425784
-0.81000000 17.25000000 -1.26999998 17 204 145 0.000000 0.000000 0.000000 0.000000 -60.708740 0.000000 131.000000 0.697149 0.645389 -0.312180
-0.81000000 17.19000053 -1.26999998 17 204 145 0.000000 0.000000 0.000000 0.000000 -60.708740 0.000000 131.000000 0.635488 0.584919 -0.504008
-0.81999999 17.21999931 -1.28999996 17 204 145 0.000000 0.000000 0.000000 0.000000 -60.708740 0.000000 131.000000 0.524211 0.836064 -0.161867
-0.82999998 17.19000053 -1.32000005 17 204 145 0.000000 0.000000 0.000000 0.000000 -60.708740 0.000000 131.000000 0.447510 0.830642 -0.331315
-0.81000000 17.19000053 -1.29999995 17 204 145 0.000000 0.000000 0.000000 0.000000 -60.708740 0.000000 131.000000 0.477962 0.829817 -0.288023
-0.82999998 17.17000008 -1.32000005 17 204 145 0.000000 0.000000 0.000000 0.000000 -60.708740 0.000000 131.000000 0.523821 0.775255 -0.352975
-0.82999998 17.17000008 -1.30999994 17 204 145 0.000000 0.000000 0.000000 0.000000 -60.708740 0.000000 131.000000 0.446042 0.875892 -0.184011
-0.82999998 17.19000053 -1.32000005 17 204 145 0.000000 0.000000 0.000000 0.000000 -60.708740 0.000000 131.000000 0.447510 0.830642 -0.331315
-0.81999999 17.14999962 -1.36000001 17 204 145 0.000000 0.000000 0.000000 0.000000 -60.708740 0.000000 131.000000 0.427050 0.846336 -0.318346
-0.89999998 17.22999954 -1.26999998 17 204 145 0.000000 0.000000 0.000000 0.000000 -60.708740 0.000000 131.000000 0.615174 0.641993 -0.457609
-0.83999997 17.22999954 -1.20000005 17 204 145 0.000000 0.000000 0.000000 0.000000 -60.708740 0.000000 131.000000 0.567388 0.816980 -0.103029
-0.83999997 17.23999977 -1.25000000 17 204 145 0.000000 0.000000 0.000000 0.000000 -60.708740 0.000000 131.000000 0.598167 0.766840 -0.232707
-0.86000001 17.22999954 -1.30999994 17 204 145 0.000000 0.000000 0.000000 0.000000 -60.708740 0.000000 131.000000 0.713451 0.575045 -0.400389
-0.87000000 17.22999954 -1.30999994 17 204 145 0.000000 0.000000 0.000000 0.000000 -60.708740 0.000000 131.000000 0.623433 0.734478 -0.268092
-0.85000002 17.21999931 -1.33000004 17 204 145 0.000000 0.000000 0.000000 0.000000 -60.708740 0.000000 131.000000 0.728222 0.389590 -0.563838
-0.83999997 17.20000076 -1.30999994 17 204 145 0.000000 0.000000 0.000000 0.000000 -60.708740 0.000000 131.000000 0.501167 0.776890 -0.381147
-0.83999997 17.20000076 -1.30999994 17 204 145 0.000000 0.000000 0.000000 0.000000 -60.708740 0.000000 131.000000 0.501167 0.776890 -0.381147
-0.85000002 17.17000008 -1.36000001 17 204 145 0.000000 0.000000 0.000000 0.000000 -60.708740 0.000000 131.000000 0.470089 0.857575 -0.208762
-0.85000002 17.17000008 -1.36000001 17 204 145 0.000000 0.000000 0.000000 0.000000 -60.708740 0.000000 131.000000 0.470089 0.857575 -0.208762
-0.41999999 17.05999947 -1.21000004 17 204 145 0.000000 0.000000 0.000000 0.000000 -60.708740 0.000000 131.000000 -0.263013 0.865054 -0.427206
-0.82999998 17.14999962 -1.38999999 17 204 145 0.000000 0.000000 0.000000 0.000000 -60.708740 0.000000 131.000000 0.596374 0.646772 -0.475419
-0.85000002 17.13999939 -1.38999999 17 204 145 0.000000 0.000000 0.000000 0.000000 -60.708740 0.000000 131.000000 0.521642 0.629684 -0.575663
-0.87000000 17.13999939 -1.41999996 17 204 145 0.000000 0.000000 0.000000 0.000000 -60.708740 0.000000 131.000000 0.452022 0.869956 -0.197111
-0.43000001 17.87000084 0.56999999 17 204 145 0.000000 0.000000 0.000000 0.000000 -60.708740 0.000000 131.000000 0.813695 -0.580815 -0.023565
-0.44999999 17.87999916 0.50000000 17 204 145 0.000000 0.000000 0.000000 0.000000 -60.708740 0.000000 131.000000 0.991085 -0.113430 -0.069892
-0.50000000 17.88999939 0.55000001 17 204 145 0.000000 0.000000 0.000000 0.000000 -60.708740 0.000000 131.000000 0.746082 -0.662705 -0.064689
-0.47000000 17.87999916 0.50999999 17 204 145 0.000000 0.000000 0.000000 0.000000 -60.708740 0.000000 131.000000 -0.724475 0.683495 -0.089279
-0.56999999 17.84000015 0.57999998 17 204 145 0.000000 0.000000 0.000000 0.000000 -60.708740 0.000000 131.000000 0.905475 -0.414837 0.089583
-0.52999997 17.86000061 0.54000002 17 204 145 0.000000 0.000000 0.000000 0.000000 -60.708740 0.000000 131.000000 0.977679 -0.186166 -0.097398
-0.55000001 17.85000038 0.51999998 17 204 145 0.000000 0.000000 0.000000 0.000000 -60.708740 0.000000 131.000000 0.915272 -0.241470 0.322442
-0.56999999 17.82999992 0.58999997 17 204 145 0.000000 0.000000 0.000000 0.000000 -60.708740 0.000000 131.000000 0.862013 -0.497261 0.098312
-0.56999999 17.82999992 0.58999997 17 204 145 0.000000 0.000000 0.000000 0.000000 -60.708740 0.000000 131.000000 0.862013 -0.497261 0.098312
-0.56999999 17.82999992 0.56000000 17 204 145 0.000000 0.000000 0.000000 0.000000 -60.708740 0.000000 131.000000 0.975028 0.211643 0.067286
-0.56999999 17.80999947 0.56000000 17 204 145 0.000000 0.000000 0.000000 0.000000 -60.708740 0.000000 131.000000 0.991218 -0.086343 0.100158
-0.46000001 17.87000084 0.31999999 17 204 145 0.000000 0.000000 0.000000 0.000000 -60.708740 0.000000 131.000000 -0.687265 0.726298 -0.012546
-0.56000000 17.87000084 0.31999999 17 204 145 0.000000 0.000000 0.000000 0.000000 -60.708740 0.000000 131.000000 0.911817 -0.214630 -0.350034
-0.55000001 17.82999992 0.40000001 17 204 145 0.000000 0.000000 0.000000 0.000000 -60.708740 0.000000 131.000000 0.773153 -0.627550 0.091730
-0.56000000 17.82999992 0.44000000 17 204 145 0.000000 0.000000 0.000000 0.000000 -60.708740 0.000000 131.000000 0.845199 -0.491395 0.210166
-0.61000001 17.77000046 0.49000001 17 204 145 0.000000 0.000000 0.000000 0.000000 -60.708740 0.000000 131.000000 0.963176 0.117650 0.241764
-0.62000000 17.78000069 0.50999999 17 204 145 0.000000 0.000000 0.000000 0.000000 -60.708740 0.000000 131.000000 0.986979 -0.066735 0.146349
-0.61000001 17.82999992 0.44999999 17 204 145 0.000000 0.000000 0.000000 0.000000 -60.708740 0.000000 131.000000 0.995589 0.031623 0.088327
-0.60000002 17.78000069 0.43000001 17 204 145 0.000000 0.000000 0.000000 0.000000 -60.708740 0.000000 131.000000 0.880473 -0.472216 0.042186
-0.69000000 17.76000023 0.34999999 17 204 145 0.000000 0.000000 0.000000 0.000000 -60.708740 0.000000 131.000000 0.940089 -0.313363 0.134298
-0.47000000 17.82999992 0.31000000 17 204 145 0.000000 0.000000 0.000000 0.000000 -60.708740 0.000000 131.000000 -0.683141 0.730254 0.006928
-0.50999999 17.84000015 0.28999999 17 204 145 0.000000 0.000000 0.000000 0.000000 -60.708740 0.000000 131.000000 -0.696700 0.693624 -0.183018
-0.56999999 17.81999969 0.23999999 17 204 145 0.000000 0.000000 0.000000 0.000000 -60.708740 0.000000 131.000000 0.864051 -0.482295 0.144251
-0.56999999 17.79999924 0.23000000 17 204 145 0.000000 0.000000 0.000000 0.000000 -60.708740 0.000000 131.000000 0.775575 -0.473149 -0.417867
-0.55000001 17.82999992 0.18000001 17 204 145 0.000000 0.000000 0.000000 0.000000 -60.708740 0.000000 131.000000 0.929663 -0.327542 -0.168650
-0.55000001 17.82999992 0.18000001 17 204 145 0.000000 0.000000 0.000000 0.000000 -60.708740 0.000000 131.000000 0.929663 -0.327542 -0.168650
-0.50000000 17.84000015 0.12000000 17 204 145 0.000000 0.000000 0.000000 0.000000 -60.708740 0.000000 131.000000 0.736305 -0.600967 0.310956
-0.50000000 17.84000015 0.09000000 17 204 145 0.000000 0.000000 0.000000 0.000000 -60.708740 0.000000 131.000000 -0.649592 0.743473 0.158991
-0.51999998 17.85000038 0.11000000 17 204 145 0.000000 0.000000 0.000000 0.000000 -60.708740 0.000000 131.000000 -0.688130 0.700445 0.189351
-0.50999999 17.84000015 0.12000000 17 204 145 0.000000 0.000000 0.000000 0.000000 -60.708740 0.000000 131.000000 -0.657491 0.731056 0.182381
-0.54000002 17.84000015 0.04000000 17 204 145 0.000000 0.000000 0.000000 0.000000 -60.708740 0.000000 131.000000 -0.593562 0.752693 -0.284846
-0.56999999 17.80999947 0.07000000 17 204 145 0.000000 0.000000 0.000000 0.000000 -60.708740 0.000000 131.000000 0.835989 -0.548745 0.001355
-0.56999999 17.81999969 0.08000000 17 204 145 0.000000 0.000000 0.000000 0.000000 -60.708740 0.000000 131.000000 0.809831 -0.576366 -0.109437
-0.57999998 17.82999992 0.03000000 17 204 145 0.000000 0.000000 0.000000 0.000000 -60.708740 0.000000 131.000000 0.720685 -0.644657 -0.255012
-0.55000001 17.81999969 0.05000000 17 204 145 0.000000 0.000000 0.000000 0.000000 -60.708740 0.000000 131.000000 0.816730 -0.492556 -0.300569
-0.57999998 17.79000092 0.02000000 17 204 145 0.000000 0.000000 0.000000 0.000000 -60.708740 0.000000 131.000000 0.854753 -0.415784 -0.310679
-0.62000000 17.79999924 0.25999999 17 204 145 0.000000 0.000000 0.000000 0.000000 -60.708740 0.000000 131.000000 0.905552 -0.418052 -0.072172
-0.62000000 17.79999924 0.25999999 17 204 145 0.000000 0.000000 0.000000 0.000000 -60.708740 0.000000 131.000000 0.905552 -0.418052 -0.072172
-0.63000000 17.79999924 0.30000001 17 204 145 0.000000 0.000000 0.000000 0.000000 -60.708740 0.000000 131.000000 0.945305 -0.104739 -0.308915
-0.63000000 17.79999924 0.31000000 17 204 145 0.000000 0.000000 0.000000 0.000000 -60.708740 0.000000 131.000000 0.989876 0.108177 0.091892
-0.63000000 17.80999947 0.31000000 17 204 145 0.000000 0.000000 0.000000 0.000000 -60.708740 0.000000 131.000000 0.853712 -0.516165 0.068916
-0.64999998 17.78000069 0.31000000 17 204 145 0.000000 0.000000 0.000000 0.000000 -60.708740 0.000000 131.000000 0.877615 -0.085382 -0.471701
-0.64999998 17.76000023 0.31000000 17 204 145 0.000000 0.000000 0.000000 0.000000 -60.708740 0.000000 131.000000 0.943553 -0.305544 0.127871
-0.66000003 17.77000046 0.25999999 17 204 145 0.000000 0.000000 0.000000 0.000000 -60.708740 0.000000 131.000000 0.983017 -0.110302 0.146665
-0.62000000 17.79999924 0.19000000 17 204 145 0.000000 0.000000 0.000000 0.000000 -60.708740 0.000000 131.000000 0.854943 -0.497128 -0.148112
-0.61000001 17.78000069 0.22000000 17 204 145 0.000000 0.000000 0.000000 0.000000 -60.708740 0.000000 131.000000 0.862342 -0.504752 -0.039885
-0.63000000 17.77000046 0.16000000 17 204 145 0.000000 0.000000 0.000000 0.000000 -60.708740 0.000000 131.000000 0.861274 -0.250635 -0.442029
-0.67000002 17.76000023 0.28000000 17 204 145 0.000000 0.000000 0.000000 0.000000 -60.708740 0.000000 131.000000 0.977495 -0.210878 -0.005825
-0.67000002 17.77000046 0.23999999 17 204 145 0.000000 0.000000 0.000000 0.000000 -60.708740 0.000000 131.000000 0.881603 -0.042241 -0.470097
-0.61000001 17.79999924 0.12000000 17 204 145 0.000000 0.000000 0.000000 0.000000 -60.708740 0.000000 131.000000 0.847326 -0.493399 0.196460
-0.60000002 17.80999947 0.08000000 17 204 145 0.000000 0.000000 0.000000 0.000000 -60.708740 0.000000 131.000000 0.788925 -0.614225 0.018025
-0.58999997 17.81999969 0.03000000 17 204 145 0.000000 0.000000 0.000000 0.000000 -60.708740 0.000000 131.000000 0.728578 -0.598765 0.332647
-0.58999997 17.79999924 0.05000000 17 204 145 0.000000 0.000000 0.000000 0.000000 -60.708740 0.000000 131.000000 -0.797621 0.394782 0.456013
-0.58999997 17.81999969 0.02000000 17 204 145 0.000000 0.000000 0.000000 0.000000 -60.708740 0.000000 131.000000 0.830840 -0.514908 -0.211128
-0.62000000 17.79000092 0.05000000 17 204 145 0.000000 0.000000 0.000000 0.000000 -60.708740 0.000000 131.000000 0.926142 -0.361455 0.107754
-0.66000003 17.76000023 0.01000000 17 204 145 0.000000 0.000000 0.000000 0.000000 -60.708740 0.000000 131.000000 -0.818683 0.360857 0.446699
-0.08000000 17.43000031 0.30000001 17 204 145 0.000000 0.000000 0.000000 0.000000 -60.708740 0.000000 131.000000 -0.271184 0.938715 -0.212775
-0.08000000 17.35000038 0.14000000 17 204 145 0.000000 0.000000 0.000000 0.000000 -60.708740 0.000000 131.000000 -0.413518 0.894754 0.168577
-0.11000000 17.44000053 0.56999999 17 204 145 0.000000 0.000000 0.000000 0.000000 -60.708740 0.000000 131.000000 -0.563166 0.826252 -0.012332
-0.09000000 17.43000031 0.51999998 17 204 145 0.000000 0.000000 0.000000 0.000000 -60.708740 0.000000 131.000000 -0.160054 0.983191 -0.087849
-0.11000000 17.57999992 0.46000001 17 204 145 0.000000 0.000000 0.000000 0.000000 -60.708740 0.000000 131.000000 0.835708 -0.534209 0.127332
-0.09000000 17.57999992 0.43000001 17 204 145 0.000000 0.000000 0.000000 0.000000 -60.708740 0.000000 131.000000 0.744887 -0.655679 0.123404
-0.11000000 17.55999947 0.44000000 17 204 145 0.000000 0.000000 0.000000 0.000000 -60.708740 0.000000 131.000000 -0.511771 0.742151 -0.432784
-0.11000000 17.47999954 0.44999999 17 204 145 0.000000 0.000000 0.000000 0.000000 -60.708740 0.000000 131.000000 -0.537521 0.832054 0.136958
-0.10000000 17.45999908 0.44000000 17 204 145 0.000000 0.000000 0.000000 0.000000 -60.708740 0.000000 131.000000 -0.420773 0.899245 0.119618
-0.11000000 17.43000031 0.38000000 17 204 145 0.000000 0.000000 0.000000 0.000000 -60.708740 0.000000 131.000000 -0.480829 0.840299 -0.250400
-0.11000000 17.45999908 0.37000000 17 204 145 0.000000 0.000000 0.000000 0.000000 -60.708740 0.000000 131.000000 -0.507895 0.774013 -0.378082
-0.12000000 17.43000031 0.37000000 17 204 145 0.000000 0.000000 0.000000 0.000000 -60.708740 0.000000 131.000000 -0.514433 0.845664 -0.142165
-0.09000000 17.45999908 0.31999999 17 204 145 0.000000 0.000000 0.000000 0.000000 -60.708740 0.000000 131.000000 -0.359048 0.838823 -0.409220
-0.10000000 17.50000000 0.25999999 17 204 145 0.000000 0.000000 0.000000 0.000000 -60.708740 0.000000 131.000000 -0.582227 0.805145 0.112926
-0.12000000 17.43000031 0.28000000 17 204 145 0.000000 0.000000 0.000000 0.000000 -60.708740 0.000000 131.000000 0.707106 -0.679255 -0.196504
-0.10000000 17.44000053 0.23999999 17 204 145 0.000000 0.000000 0.000000 0.000000 -60.708740 0.000000 131.000000 -0.278494 0.919175 -0.278494
-0.10000000 17.44000053 0.23999999 17 204 145 0.000000 0.000000 0.000000 0.000000 -60.708740 0.000000 131.000000 -0.278494 0.919175 -0.278494
-0.10000000 17.44000053 0.23999999 17 204 145 0.000000 0.000000 0.000000 0.000000 -60.708740 0.000000 131.000000 -0.278494 0.919175 -0.278494
-0.09000000 17.47999954 0.17000000 17 204 145 0.000000 0.000000 0.000000 0.000000 -60.708740 0.000000 131.000000 -0.401574 0.889934 -0.216232
-0.12000000 17.42000008 0.19000000 17 204 145 0.000000 0.000000 0.000000 0.000000 -60.708740 0.000000 131.000000 -0.731085 0.643418 0.226997
-0.09000000 17.45000076 0.20999999 17 204 145 0.000000 0.000000 0.000000 0.000000 -60.708740 0.000000 131.000000 0.770149 -0.619435 -0.152221
-0.11000000 17.42000008 0.20999999 17 204 145 0.000000 0.000000 0.000000 0.000000 -60.708740 0.000000 131.000000 0.675026 -0.706205 0.213576
-0.10000000 17.43000031 0.12000000 17 204 145 0.000000 0.000000 0.000000 0.000000 -60.708740 0.000000 131.000000 -0.590757 0.798915 -0.112874
-0.10000000 17.42000008 0.11000000 17 204 145 0.000000 0.000000 0.000000 0.000000 -60.708740 0.000000 131.000000 -0.366529 0.866480 -0.338924
-0.10000000 17.43000031 0.10000000 17 204 145 0.000000 0.000000 0.000000 0.000000 -60.708740 0.000000 131.000000 -0.675591 0.726297 -0.126766
-0.11000000 17.34000015 0.41000000 17 204 145 0.000000 0.000000 0.000000 0.000000 -60.708740 0.000000 131.000000 -0.593356 0.726658 -0.346260
-0.15000001 17.35000038 0.38000000 17 204 145 0.000000 0.000000 0.000000 0.000000 -60.708740 0.000000 131.000000 -0.480927 0.874539 -0.062368
-0.13000000 17.37000084 0.38999999 17 204 145 0.000000 0.000000 0.000000 0.000000 -60.708740 0.000000 131.000000 -0.113091 0.969534 0.217287
-0.16000000 17.32999992 0.41999999 17 204 145 0.000000 0.000000 0.000000 0.000000 -60.708740 0.000000 131.000000 -0.434167 0.899442 -0.050044
-0.15000001 17.32999992 0.44000000 17 204 145 0.000000 0.000000 0.000000 0.000000 -60.708740 0.000000 131.000000 -0.476828 0.868146 0.137686
-0.15000001 17.32999992 0.38999999 17 204 145 0.000000 0.000000 0.000000 0.000000 -60.708740 0.000000 131.000000 0.104365 0.994218 0.025267
-0.13000000 17.27000046 0.38999999 17 204 145 0.000000 0.000000 0.000000 0.000000 -60.708740 0.000000 131.000000 -0.291580 0.955526 0.044179
-0.14000000 17.32999992 0.38999999 17 204 145 0.000000 0.000000 0.000000 0.000000 -60.708740 0.000000 131.000000 -0.187658 0.979454 0.073853
-0.14000000 17.32999992 0.34000000 17 204 145 0.000000 0.000000 0.000000 0.000000 -60.708740 0.000000 131.000000 -0.042311 0.989154 0.140654
-0.20000000 17.26000023 0.38000000 17 204 145 0.000000 0.000000 0.000000 0.000000 -60.708740 0.000000 131.000000 0.220878 0.963239 -0.152916
-0.19000000 17.26000023 0.33000001 17 204 145 0.000000 0.000000 0.000000 0.000000 -60.708740 0.000000 131.000000 -0.164702 0.971616 0.169809
-0.17000000 17.27000046 0.31999999 17 204 145 0.000000 0.000000 0.000000 0.000000 -60.708740 0.000000 131.000000 -0.233339 0.971228 -0.047645
-0.17000000 17.27000046 0.31999999 17 204 145 0.000000 0.000000 0.000000 0.000000 -60.708740 0.000000 131.000000 -0.233339 0.971228 -0.047645
-0.23999999 17.20999908 0.43000001 17 204 145 0.000000 0.000000 0.000000 0.000000 -60.708740 0.000000 131.000000 -0.121163 0.882355 -0.454719
-0.23999999 17.22999954 0.34999999 17 204 145 0.000000 0.000000 0.000000 0.000000 -60.708740 0.000000 131.000000 -0.120411 0.848683 -0.515013
-0.28000000 17.20999908 0.40000001 17 204 145 0.000000 0.000000 0.000000 0.000000 -60.708740 0.000000 131.000000 0.120048 0.964255 -0.236223
-0.28000000 17.18000031 0.43000001 17 204 145 0.000000 0.000000 0.000000 0.000000 -60.708740 0.000000 131.000000 0.112778 0.869387 -0.481089
-0.28000000 17.18000031 0.41000000 17 204 145 0.000000 0.000000 0.000000 0.000000 -60.708740 0.000000 131.000000 -0.088198 0.982255 -0.165521
-0.33000001 17.18000031 0.44999999 17 204 145 0.000000 0.000000 0.000000 0.000000 -60.708740 0.000000 131.000000 0.098902 0.849983 -0.517443
-0.30000001 17.19000053 0.41999999 17 204 145 0.000000 0.000000 0.000000 0.000000 -60.708740 0.000000 131.000000 -0.063743 0.997940 0.007315
-0.31000000 17.17000008 0.41000000 17 204 145 0.000000 0.000000 0.000000 0.000000 -60.708740 0.000000 131.000000 0.244889 0.968481 -0.045532
-0.25999999 17.20999908 0.34999999 17 204 145 0.000000 0.000000 0.000000 0.000000 -60.708740 0.000000 131.000000 -0.096123 0.839282 -0.535132
-0.28999999 17.18000031 0.38000000 17 204 145 0.000000 0.000000 0.000000 0.000000 -60.708740 0.000000 131.000000 -0.118318 0.828223 -0.547766
-0.27000001 17.18000031 0.38999999 17 204 145 0.000000 0.000000 0.000000 0.000000 -60.708740 0.000000 131.000000 0.105863 0.955378 -0.275766
-0.28000000 17.18000031 0.38000000 17 204 145 0.000000 0.000000 0.000000 0.000000 -60.708740 0.000000 131.000000 0.319163 0.947397 -0.023969
-0.28999999 17.18000031 0.38000000 17 204 145 0.000000 0.000000 0.000000 0.000000 -60.708740 0.000000 131.000000 -0.118318 0.828223 -0.547766
-0.25999999 17.19000053 0.34999999 17 204 145 0.000000 0.000000 0.000000 0.000000 -60.708740 0.000000 131.000000 -0.079140 0.996297 -0.033607
-0.30000001 17.19000053 0.38999999 17 204 145 0.000000 0.000000 0.000000 0.000000 -60.708740 0.000000 131.000000 0.150342 0.981499 -0.118562
-0.34999999 17.18000031 0.38000000 17 204 145 0.000000 0.000000 0.000000 0.000000 -60.708740 0.000000 131.000000 0.049602 0.995342 0.082670
-0.34999999 17.18000031 0.38999999 17 204 145 0.000000 0.000000 0.000000 0.000000 -60.708740 0.000000 131.000000 -0.104464 0.860037 -0.499423
-0.34999999 17.18000031 0.38999999 17 204 145 0.000000 0.000000 0.000000 0.000000 -60.708740 0.000000 131.000000 -0.104464 0.860037 -0.499423
-0.37000000 17.19000053 0.33000001 17 204 145 0.000000 0.000000 0.000000 0.000000 -60.708740 0.000000 131.000000 -0.032463 0.928434 -0.370075
-0.38000000 17.18000031 0.36000001 17 204 145 0.000000 0.000000 0.000000 0.000000 -60.708740 0.000000 131.000000 0.220538 0.975321 0.010614
-0.38000000 17.18000031 0.38000000 17 204 145 0.000000 0.000000 0.000000 0.000000 -60.708740 0.000000 131.000000 0.446677 0.894671 -0.006588
-0.38000000 17.18000031 0.37000000 17 204 145 0.000000 0.000000 0.000000 0.000000 -60.708740 0.000000 131.000000 0.255368 0.960545 -0.110184
-0.38000000 17.18000031 0.38999999 17 204 145 0.000000 0.000000 0.000000 0.000000 -60.708740 0.000000 131.000000 0.412519 0.908087 0.072157
-0.38000000 17.18000031 0.37000000 17 204 145 0.000000 0.000000 0.000000 0.000000 -60.708740 0.000000 131.000000 0.255368 0.960545 -0.110184
-0.38000000 17.18000031 0.31999999 17 204 145 0.000000 0.000000 0.000000 0.000000 -60.708740 0.000000 131.000000 0.166501 0.972314 -0.163959
-0.38000000 17.18000031 0.31999999 17 204 145 0.000000 0.000000 0.000000 0.000000 -60.708740 0.000000 131.000000 0.166501 0.972314 -0.163959
-0.37000000 17.15999985 0.34000000 17 204 145 0.000000 0.000000 0.000000 0.000000 -60.708740 0.000000 131.000000 0.467325 0.880246 -0.082305
-0.09000000 17.37999916 0.25000000 17 204 145 0.000000 0.000000 0.000000 0.000000 -60.708740 0.000000 131.000000 0.664624 -0.736314 -0.126951
-0.10000000 17.37999916 0.23999999 17 204 145 0.000000 0.000000 0.000000 0.000000 -60.708740 0.000000 131.000000 -0.448438 0.877887 0.167982
-0.13000000 17.35000038 0.30000001 17 204 145 0.000000 0.000000 0.000000 0.000000 -60.708740 0.000000 131.000000 -0.618395 0.760271 0.198935
-0.12000000 17.37000084 0.20999999 17 204 145 0.000000 0.000000 0.000000 0.000000 -60.708740 0.000000 131.000000 -0.307308 0.921923 -0.235841
-0.09000000 17.35000038 0.16000000 17 204 145 0.000000 0.000000 0.000000 0.000000 -60.708740 0.000000 131.000000 -0.492503 0.820839 0.289248
-0.12000000 17.36000061 0.16000000 17 204 145 0.000000 0.000000 0.000000 0.000000 -60.708740 0.000000 131.000000 -0.503485 0.756048 -0.418204
-0.14000000 17.32999992 0.23999999 17 204 145 0.000000 0.000000 0.000000 0.000000 -60.708740 0.000000 131.000000 -0.268094 0.954838 -0.128104
-0.11000000 17.26000023 0.25999999 17 204 145 0.000000 0.000000 0.000000 0.000000 -60.708740 0.000000 131.000000 -0.340657 0.937792 -0.067079
-0.14000000 17.32999992 0.23999999 17 204 145 0.000000 0.000000 0.000000 0.000000 -60.708740 0.000000 131.000000 -0.268094 0.954838 -0.128104
-0.15000001 17.32999992 0.28000000 17 204 145 0.000000 0.000000 0.000000 0.000000 -60.708740 0.000000 131.000000 -0.372944 0.926429 0.051395
-0.13000000 17.32999992 0.20999999 17 204 145 0.000000 0.000000 0.000000 0.000000 -60.708740 0.000000 131.000000 -0.390254 0.878448 0.275739
-0.16000000 17.27000046 0.20000000 17 204 145 0.000000 0.000000 0.000000 0.000000 -60.708740 0.000000 131.000000 -0.159645 0.978910 -0.127469
-0.11000000 17.32999992 0.16000000 17 204 145 0.000000 0.000000 0.000000 0.000000 -60.708740 0.000000 131.000000 -0.370397 0.922576 0.107976
-0.11000000 17.32999992 0.18000001 17 204 145 0.000000 0.000000 0.000000 0.000000 -60.708740 0.000000 131.000000 -0.436397 0.888534 -0.141650
-0.15000001 17.32999992 0.15000001 17 204 145 0.000000 0.000000 0.000000 0.000000 -60.708740 0.000000 131.000000 -0.223786 0.945940 0.234769
-0.13000000 17.32999992 0.17000000 17 204 145 0.000000 0.000000 0.000000 0.000000 -60.708740 0.000000 131.000000 -0.050504 0.993255 0.104376
-0.17000000 17.34000015 0.27000001 17 204 145 0.000000 0.000000 0.000000 0.000000 -60.708740 0.000000 131.000000 0.034095 0.999085 0.025829
-0.19000000 17.27000046 0.31000000 17 204 145 0.000000 0.000000 0.000000 0.000000 -60.708740 0.000000 131.000000 0.078646 0.996539 -0.026933
-0.17000000 17.27000046 0.31000000 17 204 145 0.000000 0.000000 0.000000 0.000000 -60.708740 0.000000 131.000000 -0.033779 0.984245 -0.173553
-0.19000000 17.26000023 0.16000000 17 204 145 0.000000 0.000000 0.000000 0.000000 -60.708740 0.000000 131.000000 -0.142289 0.989196 -0.035288
-0.18000001 17.27000046 0.20000000 17 204 145 0.000000 0.000000 0.000000 0.000000 -60.708740 0.000000 131.000000 -0.154574 0.986716 -0.049975
-0.17000000 17.27000046 0.16000000 17 204 145 0.000000 0.000000 0.000000 0.000000 -60.708740 0.000000 131.000000 -0.050502 0.998698 0.007215
-0.17000000 17.27000046 0.20999999 17 204 145 0.000000 0.000000 0.000000 0.000000 -60.708740 0.000000 131.000000 -0.008324 0.971560 -0.236647
-0.17000000 17.27000046 0.22000000 17 204 145 0.000000 0.000000 0.000000 0.000000 -60.708740 0.000000 131.000000 0.108365 0.993156 0.043569
-0.17000000 17.27000046 0.16000000 17 204 145 0.000000 0.000000 0.000000 0.000000 -60.708740 0.000000 131.000000 -0.050502 0.998698 0.007215
-0.19000000 17.26000023 0.15000001 17 204 145 0.000000 0.000000 0.000000 0.000000 -60.708740 0.000000 131.000000 -0.429749 0.783279 -0.449210
-0.12000000 17.39999962 0.12000000 17 204 145 0.000000 0.000000 0.000000 0.000000 -60.708740 0.000000 131.000000 -0.621179 0.778292 -0.091649
-0.11000000 17.36000061 0.09000000 17 204 145 0.000000 0.000000 0.000000 0.000000 -60.708740 0.000000 131.000000 -0.283340 0.931778 0.226954
-0.11000000 17.34000015 0.09000000 17 204 145 0.000000 0.000000 0.000000 0.000000 -60.708740 0.000000 131.000000 -0.350935 0.931793 0.092776
-0.14000000 17.35000038 0.07000000 17 204 145 0.000000 0.000000 0.000000 0.000000 -60.708740 0.000000 131.000000 -0.468043 0.852777 0.231749
-0.09000000 17.38999939 0.06000000 17 204 145 0.000000 0.000000 0.000000 0.000000 -60.708740 0.000000 131.000000 -0.372047 0.928213 -0.001270
-0.11000000 17.37999916 0.02000000 17 204 145 0.000000 0.000000 0.000000 0.000000 -60.708740 0.000000 131.000000 -0.202563 0.972553 -0.114492
-0.11000000 17.40999985 -0.01000000 17 204 145 0.000000 0.000000 0.000000 0.000000 -60.708740 0.000000 131.000000 -0.496740 0.853449 -0.157719
-0.11000000 17.34000015 0.05000000 17 204 145 0.000000 0.000000 0.000000 0.000000 -60.708740 0.000000 131.000000 -0.618649 0.750210 0.233364
-0.12000000 17.34000015 0.05000000 17 204 145 0.000000 0.000000 0.000000 0.000000 -60.708740 0.000000 131.000000 -0.442748 0.850014 0.285395
-0.10000000 17.36000061 0.03000000 17 204 145 0.000000 0.000000 0.000000 0.000000 -60.708740 0.000000 131.000000 0.712849 -0.655947 -0.248154
-0.11000000 17.32999992 0.09000000 17 204 145 0.000000 0.000000 0.000000 0.000000 -60.708740 0.000000 131.000000 -0.260410 0.919346 -0.294939
-0.13000000 17.32999992 0.10000000 17 204 145 0.000000 0.000000 0.000000 0.000000 -60.708740 0.000000 131.000000 -0.245145 0.963896 0.103962
-0.16000000 17.27000046 0.11000000 17 204 145 0.000000 0.000000 0.000000 0.000000 -60.708740 0.000000 131.000000 -0.080884 0.988194 -0.130118
-0.16000000 17.27000046 0.12000000 17 204 145 0.000000 0.000000 0.000000 0.000000 -60.708740 0.000000 131.000000 -0.175804 0.980864 0.083658
-0.13000000 17.26000023 0.14000000 17 204 145 0.000000 0.000000 0.000000 0.000000 -60.708740 0.000000 131.000000 -0.312490 0.827550 -0.466380
-0.16000000 17.27000046 0.11000000 17 204 145 0.000000 0.000000 0.000000 0.000000 -60.708740 0.000000 131.000000 -0.080884 0.988194 -0.130118
-0.13000000 17.27000046 0.11000000 17 204 145 0.000000 0.000000 0.000000 0.000000 -60.708740 0.000000 131.000000 -0.282580 0.954522 0.095062
-0.16000000 17.27000046 0.11000000 17 204 145 0.000000 0.000000 0.000000 0.000000 -60.708740 0.000000 131.000000 -0.080884 0.988194 -0.130118
-0.15000001 17.26000023 0.10000000 17 204 145 0.000000 0.000000 0.000000 0.000000 -60.708740 0.000000 131.000000 -0.264436 0.947901 -0.177647
-0.15000001 17.27000046 0.08000000 17 204 145 0.000000 0.000000 0.000000 0.000000 -60.708740 0.000000 131.000000 -0.202370 0.968025 0.148233
-0.15000001 17.26000023 0.08000000 17 204 145 0.000000 0.000000 0.000000 0.000000 -60.708740 0.000000 131.000000 -0.296234 0.955077 -0.008604
-0.15000001 17.27000046 0.03000000 17 204 145 0.000000 0.000000 0.000000 0.000000 -60.708740 0.000000 131.000000 -0.129936 0.990903 -0.035026
-0.13000000 17.27000046 0.05000000 17 204 145 0.000000 0.000000 0.000000 0.000000 -60.708740 0.000000 131.000000 -0.151955 0.987128 0.049878
-0.15000001 17.27000046 0.05000000 17 204 145 0.000000 0.000000 0.000000 0.000000 -60.708740 0.000000 131.000000 -0.157923 0.987304 -0.017042
-0.15000001 17.27000046 0.03000000 17 204 145 0.000000 0.000000 0.000000 0.000000 -60.708740 0.000000 131.000000 -0.129936 0.990903 -0.035026
-0.15000001 17.27000046 0.00000000 17 204 145 0.000000 0.000000 0.000000 0.000000 -60.708740 0.000000 131.000000 -0.304901 0.939315 0.157236
-0.13000000 17.27000046 -0.01000000 17 204 145 0.000000 0.000000 0.000000 0.000000 -60.708740 0.000000 131.000000 -0.217277 0.974713 0.052195
-0.20000000 17.27000046 0.13000000 17 204 145 0.000000 0.000000 0.000000 0.000000 -60.708740 0.000000 131.000000 -0.178168 0.966267 0.185971
-0.16000000 17.23999977 0.16000000 17 204 145 0.000000 0.000000 0.000000 0.000000 -60.708740 0.000000 131.000000 -0.125617 0.981764 0.142691
-0.15000001 17.25000000 0.17000000 17 204 145 0.000000 0.000000 0.000000 0.000000 -60.708740 0.000000 131.000000 -0.001116 0.987889 0.155160
-0.20000000 17.23999977 0.30000001 17 204 145 0.000000 0.000000 0.000000 0.000000 -60.708740 0.000000 131.000000 -0.171657 0.984403 0.038535
-0.23999999 17.20999908 0.31000000 17 204 145 0.000000 0.000000 0.000000 0.000000 -60.708740 0.000000 131.000000 -0.146180 0.972415 -0.181772
-0.20999999 17.23999977 0.30000001 17 204 145 0.000000 0.000000 0.000000 0.000000 -60.708740 0.000000 131.000000 0.007006 0.999795 0.019015
