//X Y Z R G B PointSourceId ScanDirectionFlag NumberOfReturns ReturnNumber GpsTime Intensity Classification Nx Ny Nz
16.38999939 1.70000005 -0.88999999 65 81 182 0.000000 0.000000 0.000000 0.000000 -60.708740 0.000000 221.000000 0.698875 -0.617039 0.361713
16.40999985 1.64999998 -0.89999998 65 81 182 0.000000 0.000000 0.000000 0.000000 -60.708740 0.000000 221.000000 0.951546 -0.264393 0.157025
16.38999939 1.66999996 -0.93000001 65 81 182 0.000000 0.000000 0.000000 0.000000 -60.708740 0.000000 221.000000 -0.536254 0.657290 -0.529530
16.37999916 1.64999998 -0.91000003 65 81 182 0.000000 0.000000 0.000000 0.000000 -60.708740 0.000000 221.000000 0.874255 -0.398491 0.277277
16.42000008 1.72000003 -0.98000002 65 81 182 0.000000 0.000000 0.000000 0.000000 -60.708740 0.000000 221.000000 0.406430 -0.130789 0.904272
16.43000031 1.64999998 -0.95999998 65 81 182 0.000000 0.000000 0.000000 0.000000 -60.708740 0.000000 221.000000 0.361372 -0.119541 0.924727
16.44000053 1.66999996 -0.94999999 65 81 182 0.000000 0.000000 0.000000 0.000000 -60.708740 0.000000 221.000000 0.443662 -0.257659 0.858356
16.43000031 1.64999998 -0.95999998 65 81 182 0.000000 0.000000 0.000000 0.000000 -60.708740 0.000000 221.000000 0.361372 -0.119541 0.924727
16.44000053 1.66999996 -0.97000003 65 81 182 0.000000 0.000000 0.000000 0.000000 -60.708740 0.000000 221.000000 0.124207 -0.339864 0.932237
16.39999962 1.65999997 -0.98000002 65 81 182 0.000000 0.000000 0.000000 0.000000 -60.708740 0.000000 221.000000 0.480198 -0.106869 0.870626
16.45999908 1.62000000 -1.01999998 65 81 182 0.000000 0.000000 0.000000 0.000000 -60.708740 0.000000 221.000000 0.491839 0.083148 0.866707
16.43000031 1.63999999 -0.88999999 65 81 182 0.000000 0.000000 0.000000 0.000000 -60.708740 0.000000 221.000000 0.802272 -0.465990 0.373112
16.42000008 1.61000001 -0.93000001 65 81 182 0.000000 0.000000 0.000000 0.000000 -60.708740 0.000000 221.000000 0.570621 -0.004086 0.821204
16.40999985 1.61000001 -0.89999998 65 81 182 0.000000 0.000000 0.000000 0.000000 -60.708740 0.000000 221.000000 0.846909 -0.531527 -0.014953
16.37000084 1.63999999 -0.92000002 65 81 182 0.000000 0.000000 0.000000 0.000000 -60.708740 0.000000 221.000000 0.977116 -0.189000 0.097588
16.38999939 1.60000002 -0.94999999 65 81 182 0.000000 0.000000 0.000000 0.000000 -60.708740 0.000000 221.000000 0.307571 -0.607090 0.732695
16.38999939 1.61000001 -0.94999999 65 81 182 0.000000 0.000000 0.000000 0.000000 -60.708740 0.000000 221.000000 0.771229 -0.155453 0.617285
16.38999939 1.62000000 -1.00000000 65 81 182 0.000000 0.000000 0.000000 0.000000 -60.708740 0.000000 221.000000 0.234631 -0.268351 0.934310
16.37999916 1.52999997 -0.98000002 65 81 182 0.000000 0.000000 0.000000 0.000000 -60.708740 0.000000 221.000000 0.433611 -0.030686 0.900577
16.37999916 1.51999998 -0.97000003 65 81 182 0.000000 0.000000 0.000000 0.000000 -60.708740 0.000000 221.000000 0.672939 -0.340543 0.656645
16.37999916 1.53999996 -0.98000002 65 81 182 0.000000 0.000000 0.000000 0.000000 -60.708740 0.000000 221.000000 0.534988 0.075210 0.841506
16.36000061 1.84000003 -0.88999999 65 81 182 0.000000 0.000000 0.000000 0.000000 -60.708740 0.000000 221.000000 0.869704 -0.464918 -0.165728
16.34000015 1.82000005 -0.93000001 65 81 182 0.000000 0.000000 0.000000 0.000000 -60.708740 0.000000 221.000000 0.727776 -0.667001 0.159533
16.32999992 1.83000004 -0.93000001 65 81 182 0.000000 0.000000 0.000000 0.000000 -60.708740 0.000000 221.000000 0.926284 -0.251847 0.280304
16.32999992 1.80999994 -0.92000002 65 81 182 0.000000 0.000000 0.000000 0.000000 -60.708740 0.000000 221.000000 0.946079 -0.214956 0.242339
16.34000015 1.82000005 -0.93000001 65 81 182 0.000000 0.000000 0.000000 0.000000 -60.708740 0.000000 221.000000 0.727776 -0.667001 0.159533
16.32999992 1.82000005 -0.94000000 65 81 182 0.000000 0.000000 0.000000 0.000000 -60.708740 0.000000 221.000000 0.864976 -0.385629 0.321101
16.31999969 1.82000005 -0.92000002 65 81 182 0.000000 0.000000 0.000000 0.000000 -60.708740 0.000000 221.000000 0.891524 -0.370600 0.260462
16.35000038 1.85000002 -0.97000003 65 81 182 0.000000 0.000000 0.000000 0.000000 -60.708740 0.000000 221.000000 0.843289 -0.411475 0.345764
16.34000015 1.82000005 -0.94999999 65 81 182 0.000000 0.000000 0.000000 0.000000 -60.708740 0.000000 221.000000 0.864644 -0.446607 0.230071
16.36000061 1.79999995 -0.92000002 65 81 182 0.000000 0.000000 0.000000 0.000000 -60.708740 0.000000 221.000000 0.743692 -0.668346 0.015348
16.35000038 1.74000001 -0.92000002 65 81 182 0.000000 0.000000 0.000000 0.000000 -60.708740 0.000000 221.000000 -0.582705 0.763709 -0.277857
16.31999969 1.77999997 -0.93000001 65 81 182 0.000000 0.000000 0.000000 0.000000 -60.708740 0.000000 221.000000 0.791245 -0.608100 -0.064387
16.30999947 1.78999996 -0.94000000 65 81 182 0.000000 0.000000 0.000000 0.000000 -60.708740 0.000000 221.000000 0.834722 -0.244421 0.493454
16.31999969 1.75000000 -0.94000000 65 81 182 0.000000 0.000000 0.000000 0.000000 -60.708740 0.000000 221.000000 0.842374 -0.348514 0.411028
16.29000092 1.74000001 -0.94000000 65 81 182 0.000000 0.000000 0.000000 0.000000 -60.708740 0.000000 221.000000 0.830768 -0.551471 -0.075524
16.32999992 1.79999995 -0.95999998 65 81 182 0.000000 0.000000 0.000000 0.000000 -60.708740 0.000000 221.000000 0.819634 -0.566109 0.087869
16.32999992 1.79999995 -0.97000003 65 81 182 0.000000 0.000000 0.000000 0.000000 -60.708740 0.000000 221.000000 0.870869 -0.376716 0.315709
16.32999992 1.78999996 -0.98000002 65 81 182 0.000000 0.000000 0.000000 0.000000 -60.708740 0.000000 221.000000 0.791951 -0.609733 0.032239
16.32999992 1.79999995 -0.95999998 65 81 182 0.000000 0.000000 0.000000 0.000000 -60.708740 0.000000 221.000000 0.819634 -0.566109 0.087869
16.32999992 1.79999995 -0.95999998 65 81 182 0.000000 0.000000 0.000000 0.000000 -60.708740 0.000000 221.000000 0.819634 -0.566109 0.087869
16.32999992 1.75999999 -0.94999999 65 81 182 0.000000 0.000000 0.000000 0.000000 -60.708740 0.000000 221.000000 0.947531 -0.290826 0.132681
16.29999924 1.76999998 -0.97000003 65 81 182 0.000000 0.000000 0.000000 0.000000 -60.708740 0.000000 221.000000 0.719880 -0.551081 0.421999
16.31999969 1.78999996 -0.95999998 65 81 182 0.000000 0.000000 0.000000 0.000000 -60.708740 0.000000 221.000000 -0.706506 0.706506 -0.041225
16.29000092 1.76999998 -0.97000003 65 81 182 0.000000 0.000000 0.000000 0.000000 -60.708740 0.000000 221.000000 0.812019 -0.572071 0.115585
16.31999969 1.78999996 -0.95999998 65 81 182 0.000000 0.000000 0.000000 0.000000 -60.708740 0.000000 221.000000 -0.706506 0.706506 -0.041225
16.31999969 1.78999996 -0.94999999 65 81 182 0.000000 0.000000 0.000000 0.000000 -60.708740 0.000000 221.000000 0.931815 -0.331710 0.147274
16.29999924 1.76999998 -0.97000003 65 81 182 0.000000 0.000000 0.000000 0.000000 -60.708740 0.000000 221.000000 0.719880 -0.551081 0.421999
16.31999969 1.79999995 -0.94999999 65 81 182 0.000000 0.000000 0.000000 0.000000 -60.708740 0.000000 221.000000 0.816058 -0.561318 0.137738
16.31999969 1.75000000 -0.94999999 65 81 182 0.000000 0.000000 0.000000 0.000000 -60.708740 0.000000 221.000000 0.785575 -0.603715 0.135650
16.31999969 1.75000000 -0.94999999 65 81 182 0.000000 0.000000 0.000000 0.000000 -60.708740 0.000000 221.000000 0.785575 -0.603715 0.135650
16.32999992 1.71000004 -0.88999999 65 81 182 0.000000 0.000000 0.000000 0.000000 -60.708740 0.000000 221.000000 0.837743 -0.472295 0.274086
16.29000092 1.72000003 -0.89999998 65 81 182 0.000000 0.000000 0.000000 0.000000 -60.708740 0.000000 221.000000 -0.611732 0.730546 -0.303458
16.29000092 1.72000003 -0.89999998 65 81 182 0.000000 0.000000 0.000000 0.000000 -60.708740 0.000000 221.000000 -0.611732 0.730546 -0.303458
16.31999969 1.65999997 -0.88999999 65 81 182 0.000000 0.000000 0.000000 0.000000 -60.708740 0.000000 221.000000 0.881789 -0.471093 -0.022816
16.27000046 1.74000001 -0.94000000 65 81 182 0.000000 0.000000 0.000000 0.000000 -60.708740 0.000000 221.000000 0.973492 -0.224279 0.044856
16.28000069 1.75999999 -0.97000003 65 81 182 0.000000 0.000000 0.000000 0.000000 -60.708740 0.000000 221.000000 0.832469 -0.446806 0.327657
16.23999977 1.73000002 -0.95999998 65 81 182 0.000000 0.000000 0.000000 0.000000 -60.708740 0.000000 221.000000 0.816823 -0.266051 0.511876
16.27000046 1.70000005 -0.89999998 65 81 182 0.000000 0.000000 0.000000 0.000000 -60.708740 0.000000 221.000000 0.789561 -0.599234 0.132337
16.25000000 1.71000004 -0.89999998 65 81 182 0.000000 0.000000 0.000000 0.000000 -60.708740 0.000000 221.000000 0.912036 -0.410093 0.003881
16.28000069 1.70000005 -0.91000003 65 81 182 0.000000 0.000000 0.000000 0.000000 -60.708740 0.000000 221.000000 0.903172 -0.299093 0.307933
16.28000069 1.71000004 -0.91000003 65 81 182 0.000000 0.000000 0.000000 0.000000 -60.708740 0.000000 221.000000 0.859166 -0.484846 0.163580
16.25000000 1.71000004 -0.91000003 65 81 182 0.000000 0.000000 0.000000 0.000000 -60.708740 0.000000 221.000000 0.783855 -0.373341 0.496172
16.25000000 1.69000006 -0.91000003 65 81 182 0.000000 0.000000 0.000000 0.000000 -60.708740 0.000000 221.000000 0.983285 -0.178885 0.033906
16.27000046 1.67999995 -0.89999998 65 81 182 0.000000 0.000000 0.000000 0.000000 -60.708740 0.000000 221.000000 0.939511 -0.341987 -0.019070
16.23999977 1.70000005 -0.89999998 65 81 182 0.000000 0.000000 0.000000 0.000000 -60.708740 0.000000 221.000000 0.872345 -0.458897 -0.168604
16.22999954 1.71000004 -0.93000001 65 81 182 0.000000 0.000000 0.000000 0.000000 -60.708740 0.000000 221.000000 0.859491 -0.396570 0.322502
16.23999977 1.67999995 -0.91000003 65 81 182 0.000000 0.000000 0.000000 0.000000 -60.708740 0.000000 221.000000 0.955736 -0.292827 0.028660
16.25000000 1.71000004 -0.97000003 65 81 182 0.000000 0.000000 0.000000 0.000000 -60.708740 0.000000 221.000000 0.860242 -0.244266 0.447569
16.25000000 1.72000003 -0.95999998 65 81 182 0.000000 0.000000 0.000000 0.000000 -60.708740 0.000000 221.000000 -0.578466 0.635807 -0.511006
16.23999977 1.71000004 -0.95999998 65 81 182 0.000000 0.000000 0.000000 0.000000 -60.708740 0.000000 221.000000 0.786159 -0.465211 0.406857
16.18000031 1.69000006 -0.91000003 65 81 182 0.000000 0.000000 0.000000 0.000000 -60.708740 0.000000 221.000000 0.868171 -0.479438 0.128138
16.17000008 1.65999997 -0.88999999 65 81 182 0.000000 0.000000 0.000000 0.000000 -60.708740 0.000000 221.000000 0.910937 -0.346127 0.224476
16.18000031 1.64999998 -0.93000001 65 81 182 0.000000 0.000000 0.000000 0.000000 -60.708740 0.000000 221.000000 0.661858 -0.723570 0.195935
16.19000053 1.67999995 -0.93000001 65 81 182 0.000000 0.000000 0.000000 0.000000 -60.708740 0.000000 221.000000 -0.569655 0.711656 -0.411143
16.17000008 1.64999998 -0.93000001 65 81 182 0.000000 0.000000 0.000000 0.000000 -60.708740 0.000000 221.000000 0.867410 -0.435968 -0.239858
16.17000008 1.64999998 -0.94000000 65 81 182 0.000000 0.000000 0.000000 0.000000 -60.708740 0.000000 221.000000 0.792868 -0.608933 -0.023688
16.18000031 1.66999996 -0.93000001 65 81 182 0.000000 0.000000 0.000000 0.000000 -60.708740 0.000000 221.000000 0.774485 -0.632147 -0.023723
16.18000031 1.65999997 -0.93000001 65 81 182 0.000000 0.000000 0.000000 0.000000 -60.708740 0.000000 221.000000 0.912386 -0.407999 0.033010
16.18000031 1.64999998 -0.94999999 65 81 182 0.000000 0.000000 0.000000 0.000000 -60.708740 0.000000 221.000000 0.851493 -0.523040 -0.037261
16.18000031 1.64999998 -0.94999999 65 81 182 0.000000 0.000000 0.000000 0.000000 -60.708740 0.000000 221.000000 0.851493 -0.523040 -0.037261
16.32999992 1.62000000 -0.91000003 65 81 182 0.000000 0.000000 0.000000 0.000000 -60.708740 0.000000 221.000000 0.838082 -0.256807 0.481320
16.36000061 1.62000000 -0.91000003 65 81 182 0.000000 0.000000 0.000000 0.000000 -60.708740 0.000000 221.000000 -0.542305 0.718098 -0.436166
16.36000061 1.62000000 -0.92000002 65 81 182 0.000000 0.000000 0.000000 0.000000 -60.708740 0.000000 221.000000 -0.635986 0.733346 -0.240261
16.36000061 1.58000004 -0.88000000 65 81 182 0.000000 0.000000 0.000000 0.000000 -60.708740 0.000000 221.000000 0.724826 -0.688930 -0.001381
16.36000061 1.55999994 -0.93000001 65 81 182 0.000000 0.000000 0.000000 0.000000 -60.708740 0.000000 221.000000 0.662101 -0.290170 0.690958
16.32999992 1.57000005 -0.93000001 65 81 182 0.000000 0.000000 0.000000 0.000000 -60.708740 0.000000 221.000000 0.862245 -0.257001 0.436445
16.36000061 1.55999994 -0.93000001 65 81 182 0.000000 0.000000 0.000000 0.000000 -60.708740 0.000000 221.000000 0.662101 -0.290170 0.690958
16.35000038 1.58000004 -0.94000000 65 81 182 0.000000 0.000000 0.000000 0.000000 -60.708740 0.000000 221.000000 0.805635 -0.501741 0.314973
16.31999969 1.59000003 -0.88999999 65 81 182 0.000000 0.000000 0.000000 0.000000 -60.708740 0.000000 221.000000 0.847156 -0.441389 -0.295808
16.31999969 1.55999994 -0.91000003 65 81 182 0.000000 0.000000 0.000000 0.000000 -60.708740 0.000000 221.000000 0.806190 -0.524415 0.273948
16.31999969 1.59000003 -0.91000003 65 81 182 0.000000 0.000000 0.000000 0.000000 -60.708740 0.000000 221.000000 0.923895 -0.314608 0.217806
16.31999969 1.57000005 -0.92000002 65 81 182 0.000000 0.000000 0.000000 0.000000 -60.708740 0.000000 221.000000 -0.527732 0.789207 -0.314088
16.36000061 1.58000004 -0.95999998 65 81 182 0.000000 0.000000 0.000000 0.000000 -60.708740 0.000000 221.000000 0.572829 -0.582967 0.576208
16.31999969 1.53999996 -0.89999998 65 81 182 0.000000 0.000000 0.000000 0.000000 -60.708740 0.000000 221.000000 0.863863 -0.337230 0.374187
16.29000092 1.51999998 -0.94000000 65 81 182 0.000000 0.000000 0.000000 0.000000 -60.708740 0.000000 221.000000 0.837835 -0.327304 0.436927
16.29999924 1.52999997 -0.92000002 65 81 182 0.000000 0.000000 0.000000 0.000000 -60.708740 0.000000 221.000000 0.891946 -0.450681 0.036324
16.29999924 1.53999996 -0.92000002 65 81 182 0.000000 0.000000 0.000000 0.000000 -60.708740 0.000000 221.000000 0.726070 -0.524292 0.444904
16.31999969 1.50000000 -0.92000002 65 81 182 0.000000 0.000000 0.000000 0.000000 -60.708740 0.000000 221.000000 0.769192 -0.609519 0.191914
16.36000061 1.51999998 -0.94999999 65 81 182 0.000000 0.000000 0.000000 0.000000 -60.708740 0.000000 221.000000 0.701729 -0.319263 0.636904
16.32999992 1.54999995 -0.95999998 65 81 182 0.000000 0.000000 0.000000 0.000000 -60.708740 0.000000 221.000000 -0.554033 0.473690 -0.684591
16.28000069 1.57000005 -0.92000002 65 81 182 0.000000 0.000000 0.000000 0.000000 -60.708740 0.000000 221.000000 -0.531092 0.704238 -0.471157
16.22999954 1.63000000 -0.88000000 65 81 182 0.000000 0.000000 0.000000 0.000000 -60.708740 0.000000 221.000000 0.750799 -0.525069 -0.400753
16.27000046 1.54999995 -0.91000003 65 81 182 0.000000 0.000000 0.000000 0.000000 -60.708740 0.000000 221.000000 0.876773 -0.399905 0.267106
16.28000069 1.52999997 -0.94000000 65 81 182 0.000000 0.000000 0.000000 0.000000 -60.708740 0.000000 221.000000 0.664472 -0.513073 0.543353
16.28000069 1.49000001 -0.93000001 65 81 182 0.000000 0.000000 0.000000 0.000000 -60.708740 0.000000 221.000000 0.714629 -0.694169 0.086223
16.20999908 1.53999996 -0.89999998 65 81 182 0.000000 0.000000 0.000000 0.000000 -60.708740 0.000000 221.000000 0.828604 -0.514253 0.221266
16.20999908 1.53999996 -0.89999998 65 81 182 0.000000 0.000000 0.000000 0.000000 -60.708740 0.000000 221.000000 0.828604 -0.514253 0.221266
16.22999954 1.51999998 -0.93000001 65 81 182 0.000000 0.000000 0.000000 0.000000 -60.708740 0.000000 221.000000 0.886712 -0.188444 0.422174
16.22999954 1.50999999 -0.93000001 65 81 182 0.000000 0.000000 0.000000 0.000000 -60.708740 0.000000 221.000000 0.947399 -0.146894 0.284354
16.27000046 1.50000000 -0.95999998 65 81 182 0.000000 0.000000 0.000000 0.000000 -60.708740 0.000000 221.000000 0.608179 -0.161477 0.777202
16.27000046 1.48000002 -0.95999998 65 81 182 0.000000 0.000000 0.000000 0.000000 -60.708740 0.000000 221.000000 0.713191 -0.254598 0.653099
16.28000069 1.49000001 -0.94999999 65 81 182 0.000000 0.000000 0.000000 0.000000 -60.708740 0.000000 221.000000 -0.723067 0.668034 -0.175798
16.28000069 1.51999998 -0.94999999 65 81 182 0.000000 0.000000 0.000000 0.000000 -60.708740 0.000000 221.000000 0.710635 -0.619569 0.333364
16.27000046 1.50999999 -0.94999999 65 81 182 0.000000 0.000000 0.000000 0.000000 -60.708740 0.000000 221.000000 0.701101 -0.130055 0.701101
16.19000053 1.61000001 -0.89999998 65 81 182 0.000000 0.000000 0.000000 0.000000 -60.708740 0.000000 221.000000 0.796744 -0.452293 0.400786
16.19000053 1.61000001 -0.89999998 65 81 182 0.000000 0.000000 0.000000 0.000000 -60.708740 0.000000 221.000000 0.796744 -0.452293 0.400786
16.17000008 1.62000000 -0.92000002 65 81 182 0.000000 0.000000 0.000000 0.000000 -60.708740 0.000000 221.000000 -0.702227 0.702227 0.117285
16.19000053 1.60000002 -0.92000002 65 81 182 0.000000 0.000000 0.000000 0.000000 -60.708740 0.000000 221.000000 0.798367 -0.598418 -0.067126
16.15999985 1.62000000 -0.92000002 65 81 182 0.000000 0.000000 0.000000 0.000000 -60.708740 0.000000 221.000000 0.797144 -0.601752 -0.049556
16.14999962 1.62000000 -0.89999998 65 81 182 0.000000 0.000000 0.000000 0.000000 -60.708740 0.000000 221.000000 -0.580972 0.762427 -0.284915
16.12000084 1.63999999 -0.92000002 65 81 182 0.000000 0.000000 0.000000 0.000000 -60.708740 0.000000 221.000000 0.782597 -0.372742 0.498603
16.20000076 1.53999996 -0.89999998 65 81 182 0.000000 0.000000 0.000000 0.000000 -60.708740 0.000000 221.000000 0.840554 -0.293650 0.455235
17.43000031 3.19000006 -0.83999997 65 81 182 0.000000 0.000000 0.000000 0.000000 -60.708740 0.000000 221.000000 0.045888 0.365794 0.929564
17.45999908 3.24000001 -0.88000000 65 81 182 0.000000 0.000000 0.000000 0.000000 -60.708740 0.000000 221.000000 0.276558 -0.155142 0.948392
17.45999908 3.26999998 -0.88000000 65 81 182 0.000000 0.000000 0.000000 0.000000 -60.708740 0.000000 221.000000 -0.042457 0.077293 0.996104
17.45000076 3.29999995 -0.88000000 65 81 182 0.000000 0.000000 0.000000 0.000000 -60.708740 0.000000 221.000000 0.620330 -0.296540 -0.726123
17.38999939 3.24000001 -0.88999999 65 81 182 0.000000 0.000000 0.000000 0.000000 -60.708740 0.000000 221.000000 0.783147 -0.455620 -0.423191
17.40999985 3.25999999 -0.88999999 65 81 182 0.000000 0.000000 0.000000 0.000000 -60.708740 0.000000 221.000000 0.880157 -0.410939 -0.237598
17.44000053 3.18000007 -0.88999999 65 81 182 0.000000 0.000000 0.000000 0.000000 -60.708740 0.000000 221.000000 -0.681400 0.618705 -0.391021
17.37999916 3.14000010 -0.87000000 65 81 182 0.000000 0.000000 0.000000 0.000000 -60.708740 0.000000 221.000000 0.040751 0.379905 0.924128
17.39999962 3.11999989 -0.86000001 65 81 182 0.000000 0.000000 0.000000 0.000000 -60.708740 0.000000 221.000000 0.138622 0.007763 0.990315
17.42000008 3.15000010 -0.86000001 65 81 182 0.000000 0.000000 0.000000 0.000000 -60.708740 0.000000 221.000000 0.059462 -0.145740 0.987534
17.38999939 3.15000010 -0.88000000 65 81 182 0.000000 0.000000 0.000000 0.000000 -60.708740 0.000000 221.000000 -0.205930 0.544570 0.813041
17.36000061 3.18000007 -0.88999999 65 81 182 0.000000 0.000000 0.000000 0.000000 -60.708740 0.000000 221.000000 -0.688390 0.712386 0.136478
17.36000061 3.18000007 -0.88000000 65 81 182 0.000000 0.000000 0.000000 0.000000 -60.708740 0.000000 221.000000 0.892696 -0.441474 -0.090523
17.36000061 3.18000007 -0.88000000 65 81 182 0.000000 0.000000 0.000000 0.000000 -60.708740 0.000000 221.000000 0.892696 -0.441474 -0.090523
17.36000061 3.18000007 -0.87000000 65 81 182 0.000000 0.000000 0.000000 0.000000 -60.708740 0.000000 221.000000 0.819815 -0.493770 -0.289992
17.36000061 3.19000006 -0.87000000 65 81 182 0.000000 0.000000 0.000000 0.000000 -60.708740 0.000000 221.000000 0.789044 -0.589132 -0.174165
17.29999924 3.00000000 -0.85000002 65 81 182 0.000000 0.000000 0.000000 0.000000 -60.708740 0.000000 221.000000 0.060952 0.418537 0.906152
17.23999977 3.00000000 -0.85000002 65 81 182 0.000000 0.000000 0.000000 0.000000 -60.708740 0.000000 221.000000 0.834141 -0.023361 -0.551056
17.29999924 2.99000001 -0.85000002 65 81 182 0.000000 0.000000 0.000000 0.000000 -60.708740 0.000000 221.000000 -0.096328 0.103292 0.989976
17.32999992 3.11999989 -0.85000002 65 81 182 0.000000 0.000000 0.000000 0.000000 -60.708740 0.000000 221.000000 -0.716557 -0.032507 0.696771
17.37000084 3.15000010 -0.86000001 65 81 182 0.000000 0.000000 0.000000 0.000000 -60.708740 0.000000 221.000000 -0.204703 0.234528 0.950312
17.34000015 3.15000010 -0.88999999 65 81 182 0.000000 0.000000 0.000000 0.000000 -60.708740 0.000000 221.000000 0.941788 -0.205456 -0.266127
17.34000015 3.14000010 -0.88000000 65 81 182 0.000000 0.000000 0.000000 0.000000 -60.708740 0.000000 221.000000 0.775821 -0.424506 -0.466794
17.34000015 3.13000011 -0.88000000 65 81 182 0.000000 0.000000 0.000000 0.000000 -60.708740 0.000000 221.000000 0.599193 -0.481704 -0.639475
17.34000015 3.15000010 -0.88999999 65 81 182 0.000000 0.000000 0.000000 0.000000 -60.708740 0.000000 221.000000 0.941788 -0.205456 -0.266127
17.37000084 3.15000010 -0.86000001 65 81 182 0.000000 0.000000 0.000000 0.000000 -60.708740 0.000000 221.000000 -0.204703 0.234528 0.950312
17.30999947 3.07999992 -0.87000000 65 81 182 0.000000 0.000000 0.000000 0.000000 -60.708740 0.000000 221.000000 0.885288 -0.157417 -0.437589
17.30999947 3.06999993 -0.88999999 65 81 182 0.000000 0.000000 0.000000 0.000000 -60.708740 0.000000 221.000000 0.874386 -0.416876 -0.248320
17.32999992 3.00999999 -0.86000001 65 81 182 0.000000 0.000000 0.000000 0.000000 -60.708740 0.000000 221.000000 0.500904 0.138734 0.854311
17.32999992 2.99000001 -0.87000000 65 81 182 0.000000 0.000000 0.000000 0.000000 -60.708740 0.000000 221.000000 0.584677 -0.187768 0.789237
17.27000046 3.03999996 -0.88999999 65 81 182 0.000000 0.000000 0.000000 0.000000 -60.708740 0.000000 221.000000 0.724545 -0.666336 -0.176158
17.26000023 3.02999997 -0.88000000 65 81 182 0.000000 0.000000 0.000000 0.000000 -60.708740 0.000000 221.000000 0.821711 -0.559927 -0.106168
17.28000069 3.04999995 -0.87000000 65 81 182 0.000000 0.000000 0.000000 0.000000 -60.708740 0.000000 221.000000 -0.547228 0.476941 0.687800
17.28000069 3.00000000 -0.86000001 65 81 182 0.000000 0.000000 0.000000 0.000000 -60.708740 0.000000 221.000000 -0.597127 0.253661 0.760983
17.26000023 2.99000001 -0.87000000 65 81 182 0.000000 0.000000 0.000000 0.000000 -60.708740 0.000000 221.000000 -0.527907 0.588625 0.612237
17.26000023 2.99000001 -0.87000000 65 81 182 0.000000 0.000000 0.000000 0.000000 -60.708740 0.000000 221.000000 -0.527907 0.588625 0.612237
17.28000069 3.00999999 -0.86000001 65 81 182 0.000000 0.000000 0.000000 0.000000 -60.708740 0.000000 221.000000 -0.584076 0.580690 0.567146
17.21999931 3.00000000 -0.92000002 65 81 182 0.000000 0.000000 0.000000 0.000000 -60.708740 0.000000 221.000000 0.889069 -0.132718 0.438113
17.54999924 2.88000011 -0.68000001 65 81 182 0.000000 0.000000 0.000000 0.000000 -60.708740 0.000000 221.000000 0.421606 -0.473696 0.773215
17.52000046 2.89000010 -0.63000000 65 81 182 0.000000 0.000000 0.000000 0.000000 -60.708740 0.000000 221.000000 0.679774 -0.023827 0.733035
17.47999954 2.84999990 -0.62000000 65 81 182 0.000000 0.000000 0.000000 0.000000 -60.708740 0.000000 221.000000 0.744998 -0.296397 0.597601
17.48999977 2.84999990 -0.62000000 65 81 182 0.000000 0.000000 0.000000 0.000000 -60.708740 0.000000 221.000000 0.735147 -0.247148 0.631250
17.46999931 2.80999994 -0.62000000 65 81 182 0.000000 0.000000 0.000000 0.000000 -60.708740 0.000000 221.000000 0.315480 -0.303631 0.899044
17.45999908 2.67000008 -0.69000000 65 81 182 0.000000 0.000000 0.000000 0.000000 -60.708740 0.000000 221.000000 0.416372 -0.484950 0.769063
17.38999939 2.72000003 -0.69000000 65 81 182 0.000000 0.000000 0.000000 0.000000 -60.708740 0.000000 221.000000 0.318778 -0.243771 0.915946
17.40999985 2.73000002 -0.64999998 65 81 182 0.000000 0.000000 0.000000 0.000000 -60.708740 0.000000 221.000000 0.416780 -0.455701 0.786531
17.37999916 2.66000009 -0.69000000 65 81 182 0.000000 0.000000 0.000000 0.000000 -60.708740 0.000000 221.000000 0.510097 -0.503407 0.697411
17.35000038 2.72000003 -0.67000002 65 81 182 0.000000 0.000000 0.000000 0.000000 -60.708740 0.000000 221.000000 0.716098 -0.483491 0.503429
17.35000038 2.72000003 -0.67000002 65 81 182 0.000000 0.000000 0.000000 0.000000 -60.708740 0.000000 221.000000 0.716098 -0.483491 0.503429
17.57999992 2.81999993 -0.75000000 65 81 182 0.000000 0.000000 0.000000 0.000000 -60.708740 0.000000 221.000000 0.717247 -0.504237 0.480938
17.60000038 2.82999992 -0.77999997 65 81 182 0.000000 0.000000 0.000000 0.000000 -60.708740 0.000000 221.000000 0.907769 -0.121689 0.401432
17.60000038 2.81999993 -0.77999997 65 81 182 0.000000 0.000000 0.000000 0.000000 -60.708740 0.000000 221.000000 -0.599655 0.743572 -0.295830
17.46999931 2.81999993 -0.73000002 65 81 182 0.000000 0.000000 0.000000 0.000000 -60.708740 0.000000 221.000000 -0.559669 0.653787 -0.509248
17.51000023 2.82999992 -0.74000001 65 81 182 0.000000 0.000000 0.000000 0.000000 -60.708740 0.000000 221.000000 0.537868 -0.490951 0.685321
17.46999931 2.82999992 -0.70999998 65 81 182 0.000000 0.000000 0.000000 0.000000 -60.708740 0.000000 221.000000 0.551986 -0.666075 0.501653
17.52000046 2.76999998 -0.76999998 65 81 182 0.000000 0.000000 0.000000 0.000000 -60.708740 0.000000 221.000000 -0.583355 0.779362 -0.228675
17.47999954 2.80999994 -0.74000001 65 81 182 0.000000 0.000000 0.000000 0.000000 -60.708740 0.000000 221.000000 0.785701 -0.184602 0.590420
17.50000000 2.80999994 -0.80000001 65 81 182 0.000000 0.000000 0.000000 0.000000 -60.708740 0.000000 221.000000 0.783547 -0.537791 0.311184
17.48999977 2.65000010 -0.79000002 65 81 182 0.000000 0.000000 0.000000 0.000000 -60.708740 0.000000 221.000000 0.906517 -0.182453 0.380708
17.45000076 2.78999996 -0.72000003 65 81 182 0.000000 0.000000 0.000000 0.000000 -60.708740 0.000000 221.000000 0.696337 -0.566709 0.440404
17.37999916 2.76999998 -0.75999999 65 81 182 0.000000 0.000000 0.000000 0.000000 -60.708740 0.000000 221.000000 0.830715 -0.311323 0.461509
17.38999939 2.75999999 -0.76999998 65 81 182 0.000000 0.000000 0.000000 0.000000 -60.708740 0.000000 221.000000 0.775797 -0.552776 0.304265
17.40999985 2.76999998 -0.77999997 65 81 182 0.000000 0.000000 0.000000 0.000000 -60.708740 0.000000 221.000000 -0.528028 0.675541 -0.514618
17.39999962 2.65000010 -0.69999999 65 81 182 0.000000 0.000000 0.000000 0.000000 -60.708740 0.000000 221.000000 0.816376 -0.334476 0.470803
17.37999916 2.66000009 -0.69999999 65 81 182 0.000000 0.000000 0.000000 0.000000 -60.708740 0.000000 221.000000 0.687086 -0.661340 0.300902
17.39999962 2.68000007 -0.69999999 65 81 182 0.000000 0.000000 0.000000 0.000000 -60.708740 0.000000 221.000000 0.712573 -0.297576 0.635364
17.38999939 2.63000011 -0.72000003 65 81 182 0.000000 0.000000 0.000000 0.000000 -60.708740 0.000000 221.000000 -0.733032 0.555924 -0.391934
17.39999962 2.64000010 -0.69999999 65 81 182 0.000000 0.000000 0.000000 0.000000 -60.708740 0.000000 221.000000 -0.570760 0.739875 -0.356115
17.38999939 2.61999989 -0.83999997 65 81 182 0.000000 0.000000 0.000000 0.000000 -60.708740 0.000000 221.000000 0.773499 -0.628377 0.082719
17.44000053 2.64000010 -0.79000002 65 81 182 0.000000 0.000000 0.000000 0.000000 -60.708740 0.000000 221.000000 -0.616242 0.763771 -0.192095
17.26000023 2.94000006 -0.85000002 65 81 182 0.000000 0.000000 0.000000 0.000000 -60.708740 0.000000 221.000000 0.084231 0.070754 0.993931
17.22999954 2.96000004 -0.85000002 65 81 182 0.000000 0.000000 0.000000 0.000000 -60.708740 0.000000 221.000000 -0.592186 0.655934 0.468045
17.29999924 2.95000005 -0.86000001 65 81 182 0.000000 0.000000 0.000000 0.000000 -60.708740 0.000000 221.000000 0.362455 -0.152539 0.919433
17.31999969 2.96000004 -0.87000000 65 81 182 0.000000 0.000000 0.000000 0.000000 -60.708740 0.000000 221.000000 0.359790 -0.228692 0.904572
17.25000000 2.97000003 -0.86000001 65 81 182 0.000000 0.000000 0.000000 0.000000 -60.708740 0.000000 221.000000 0.756194 -0.400146 -0.517740
17.29000092 2.94000006 -0.86000001 65 81 182 0.000000 0.000000 0.000000 0.000000 -60.708740 0.000000 221.000000 0.349541 -0.208574 0.913410
17.25000000 2.93000007 -0.86000001 65 81 182 0.000000 0.000000 0.000000 0.000000 -60.708740 0.000000 221.000000 -0.470298 0.520152 0.712925
17.28000069 2.94000006 -0.86000001 65 81 182 0.000000 0.000000 0.000000 0.000000 -60.708740 0.000000 221.000000 0.295500 -0.084615 0.951588
17.22999954 2.97000003 -0.86000001 65 81 182 0.000000 0.000000 0.000000 0.000000 -60.708740 0.000000 221.000000 -0.458464 0.701867 0.545155
17.23999977 2.96000004 -0.87000000 65 81 182 0.000000 0.000000 0.000000 0.000000 -60.708740 0.000000 221.000000 -0.428667 0.471045 0.770948
17.23999977 2.97000003 -0.88000000 65 81 182 0.000000 0.000000 0.000000 0.000000 -60.708740 0.000000 221.000000 -0.638453 0.758069 0.133073
17.22999954 2.98000002 -0.93000001 65 81 182 0.000000 0.000000 0.000000 0.000000 -60.708740 0.000000 221.000000 0.807248 -0.425290 0.409241
17.20999908 2.93000007 -0.87000000 65 81 182 0.000000 0.000000 0.000000 0.000000 -60.708740 0.000000 221.000000 -0.634858 0.756072 0.159093
17.21999931 2.82999992 -0.86000001 65 81 182 0.000000 0.000000 0.000000 0.000000 -60.708740 0.000000 221.000000 0.031344 -0.500145 0.865374
17.36000061 2.75000000 -0.79000002 65 81 182 0.000000 0.000000 0.000000 0.000000 -60.708740 0.000000 221.000000 0.808221 -0.539329 0.236439
17.36000061 2.75000000 -0.79000002 65 81 182 0.000000 0.000000 0.000000 0.000000 -60.708740 0.000000 221.000000 0.808221 -0.539329 0.236439
17.35000038 2.71000004 -0.70999998 65 81 182 0.000000 0.000000 0.000000 0.000000 -60.708740 0.000000 221.000000 0.353111 -0.182937 0.917522
17.34000015 2.69000006 -0.69999999 65 81 182 0.000000 0.000000 0.000000 0.000000 -60.708740 0.000000 221.000000 0.530630 0.042949 0.846515
17.32999992 2.65000010 -0.73000002 65 81 182 0.000000 0.000000 0.000000 0.000000 -60.708740 0.000000 221.000000 -0.609510 0.602756 -0.514960
17.29999924 2.69000006 -0.79000002 65 81 182 0.000000 0.000000 0.000000 0.000000 -60.708740 0.000000 221.000000 0.912715 -0.317782 0.256837
17.26000023 2.69000006 -0.73000002 65 81 182 0.000000 0.000000 0.000000 0.000000 -60.708740 0.000000 221.000000 0.654979 -0.064778 0.752866
17.28000069 2.68000007 -0.72000003 65 81 182 0.000000 0.000000 0.000000 0.000000 -60.708740 0.000000 221.000000 0.324513 -0.364125 0.872986
17.25000000 2.70000005 -0.77999997 65 81 182 0.000000 0.000000 0.000000 0.000000 -60.708740 0.000000 221.000000 0.824422 -0.198894 0.529877
17.29000092 2.71000004 -0.83999997 65 81 182 0.000000 0.000000 0.000000 0.000000 -60.708740 0.000000 221.000000 0.924620 -0.336353 0.178732
17.25000000 2.67000008 -0.83999997 65 81 182 0.000000 0.000000 0.000000 0.000000 -60.708740 0.000000 221.000000 -0.492126 0.745595 -0.449332
17.22999954 2.67000008 -0.80000001 65 81 182 0.000000 0.000000 0.000000 0.000000 -60.708740 0.000000 221.000000 -0.475419 0.646772 -0.596374
17.22999954 2.67000008 -0.80000001 65 81 182 0.000000 0.000000 0.000000 0.000000 -60.708740 0.000000 221.000000 -0.475419 0.646772 -0.596374
17.22999954 2.66000009 -0.83999997 65 81 182 0.000000 0.000000 0.000000 0.000000 -60.708740 0.000000 221.000000 -0.495288 0.673256 -0.549014
17.18000031 2.81999993 -0.85000002 65 81 182 0.000000 0.000000 0.000000 0.000000 -60.708740 0.000000 221.000000 -0.169550 0.482113 0.859546
17.20000076 2.82999992 -0.83999997 65 81 182 0.000000 0.000000 0.000000 0.000000 -60.708740 0.000000 221.000000 -0.312469 0.224007 0.923138
17.19000053 2.85999990 -0.85000002 65 81 182 0.000000 0.000000 0.000000 0.000000 -60.708740 0.000000 221.000000 -0.523987 -0.111149 0.844442
17.19000053 2.90000010 -0.87000000 65 81 182 0.000000 0.000000 0.000000 0.000000 -60.708740 0.000000 221.000000 0.702446 -0.634310 -0.322833
17.19000053 2.90000010 -0.87000000 65 81 182 0.000000 0.000000 0.000000 0.000000 -60.708740 0.000000 221.000000 0.702446 -0.634310 -0.322833
17.19000053 2.91000009 -0.87000000 65 81 182 0.000000 0.000000 0.000000 0.000000 -60.708740 0.000000 221.000000 0.699747 -0.532743 -0.475961
17.20000076 2.92000008 -0.87000000 65 81 182 0.000000 0.000000 0.000000 0.000000 -60.708740 0.000000 221.000000 -0.688055 0.568104 0.451484
17.19000053 2.91000009 -0.93000001 65 81 182 0.000000 0.000000 0.000000 0.000000 -60.708740 0.000000 221.000000 -0.674684 0.463741 -0.574235
17.20000076 2.92000008 -0.86000001 65 81 182 0.000000 0.000000 0.000000 0.000000 -60.708740 0.000000 221.000000 -0.541562 0.406583 0.735800
17.18000031 2.90000010 -0.87000000 65 81 182 0.000000 0.000000 0.000000 0.000000 -60.708740 0.000000 221.000000 0.934707 -0.345348 -0.084004
17.18000031 2.91000009 -0.88000000 65 81 182 0.000000 0.000000 0.000000 0.000000 -60.708740 0.000000 221.000000 0.859123 -0.387145 -0.334703
17.19000053 2.91000009 -0.87000000 65 81 182 0.000000 0.000000 0.000000 0.000000 -60.708740 0.000000 221.000000 0.699747 -0.532743 -0.475961
17.19000053 2.85999990 -0.86000001 65 81 182 0.000000 0.000000 0.000000 0.000000 -60.708740 0.000000 221.000000 -0.565251 0.545003 0.619245
17.20000076 2.88000011 -0.86000001 65 81 182 0.000000 0.000000 0.000000 0.000000 -60.708740 0.000000 221.000000 -0.519858 0.690358 0.503143
17.17000008 2.89000010 -0.88999999 65 81 182 0.000000 0.000000 0.000000 0.000000 -60.708740 0.000000 221.000000 0.877096 -0.452366 0.161455
17.17000008 2.88000011 -0.88999999 65 81 182 0.000000 0.000000 0.000000 0.000000 -60.708740 0.000000 221.000000 0.796510 -0.593333 0.116311
17.17000008 2.83999991 -0.87000000 65 81 182 0.000000 0.000000 0.000000 0.000000 -60.708740 0.000000 221.000000 0.768883 -0.488102 -0.413009
17.18000031 2.83999991 -0.86000001 65 81 182 0.000000 0.000000 0.000000 0.000000 -60.708740 0.000000 221.000000 -0.290855 0.276385 0.915977
17.17000008 2.82999992 -0.94000000 65 81 182 0.000000 0.000000 0.000000 0.000000 -60.708740 0.000000 221.000000 0.555716 -0.596254 0.579363
17.17000008 2.82999992 -0.92000002 65 81 182 0.000000 0.000000 0.000000 0.000000 -60.708740 0.000000 221.000000 0.787390 -0.554788 0.268750
17.14999962 2.85999990 -0.88000000 65 81 182 0.000000 0.000000 0.000000 0.000000 -60.708740 0.000000 221.000000 0.729391 -0.680088 0.073954
17.15999985 2.86999989 -0.88999999 65 81 182 0.000000 0.000000 0.000000 0.000000 -60.708740 0.000000 221.000000 0.791265 -0.599711 -0.119353
17.15999985 2.85999990 -0.92000002 65 81 182 0.000000 0.000000 0.000000 0.000000 -60.708740 0.000000 221.000000 0.867795 -0.468404 0.165924
17.13999939 2.81999993 -0.88999999 65 81 182 0.000000 0.000000 0.000000 0.000000 -60.708740 0.000000 221.000000 0.920782 -0.377862 -0.096853
17.15999985 2.84999990 -0.88000000 65 81 182 0.000000 0.000000 0.000000 0.000000 -60.708740 0.000000 221.000000 0.779986 -0.519454 -0.348983
17.15999985 2.83999991 -0.89999998 65 81 182 0.000000 0.000000 0.000000 0.000000 -60.708740 0.000000 221.000000 0.759816 -0.642696 0.098088
17.14999962 2.82999992 -0.88999999 65 81 182 0.000000 0.000000 0.000000 0.000000 -60.708740 0.000000 221.000000 0.792524 -0.587223 -0.164543
17.13999939 2.81999993 -0.89999998 65 81 182 0.000000 0.000000 0.000000 0.000000 -60.708740 0.000000 221.000000 0.896961 -0.377281 -0.230479
17.14999962 2.81999993 -0.88000000 65 81 182 0.000000 0.000000 0.000000 0.000000 -60.708740 0.000000 221.000000 0.869773 -0.226051 -0.438629
17.15999985 2.81999993 -0.86000001 65 81 182 0.000000 0.000000 0.000000 0.000000 -60.708740 0.000000 221.000000 -0.472252 0.195158 0.859588
17.14999962 2.82999992 -0.93000001 65 81 182 0.000000 0.000000 0.000000 0.000000 -60.708740 0.000000 221.000000 0.790252 -0.522045 0.320890
17.14999962 2.82999992 -0.94000000 65 81 182 0.000000 0.000000 0.000000 0.000000 -60.708740 0.000000 221.000000 0.627078 -0.311121 0.714127
17.13999939 2.81999993 -0.94000000 65 81 182 0.000000 0.000000 0.000000 0.000000 -60.708740 0.000000 221.000000 -0.497603 0.675199 -0.544515
17.12999916 2.81999993 -0.92000002 65 81 182 0.000000 0.000000 0.000000 0.000000 -60.708740 0.000000 221.000000 0.723027 -0.685050 0.089100
17.19000053 2.86999989 -0.95999998 65 81 182 0.000000 0.000000 0.000000 0.000000 -60.708740 0.000000 221.000000 0.685223 0.032495 0.727608
17.18000031 2.84999990 -0.95999998 65 81 182 0.000000 0.000000 0.000000 0.000000 -60.708740 0.000000 221.000000 0.423572 -0.522460 0.740015
17.14999962 2.84999990 -0.95999998 65 81 182 0.000000 0.000000 0.000000 0.000000 -60.708740 0.000000 221.000000 0.327467 -0.202717 0.922860
17.15999985 2.79999995 -0.83999997 65 81 182 0.000000 0.000000 0.000000 0.000000 -60.708740 0.000000 221.000000 -0.273860 -0.099939 0.956563
17.20000076 2.79999995 -0.85000002 65 81 182 0.000000 0.000000 0.000000 0.000000 -60.708740 0.000000 221.000000 -0.102029 0.079101 0.991632
17.14999962 2.79999995 -0.85000002 65 81 182 0.000000 0.000000 0.000000 0.000000 -60.708740 0.000000 221.000000 -0.422636 0.368817 0.827860
17.19000053 2.80999994 -0.83999997 65 81 182 0.000000 0.000000 0.000000 0.000000 -60.708740 0.000000 221.000000 0.171576 -0.007954 0.985139
17.10000038 2.74000001 -0.85000002 65 81 182 0.000000 0.000000 0.000000 0.000000 -60.708740 0.000000 221.000000 -0.403981 0.413561 0.815945
17.11000061 2.67000008 -0.83999997 65 81 182 0.000000 0.000000 0.000000 0.000000 -60.708740 0.000000 221.000000 0.319948 -0.008715 0.947395
17.10000038 2.71000004 -0.85000002 65 81 182 0.000000 0.000000 0.000000 0.000000 -60.708740 0.000000 221.000000 -0.278944 0.537401 0.795858
17.07999992 2.73000002 -0.85000002 65 81 182 0.000000 0.000000 0.000000 0.000000 -60.708740 0.000000 221.000000 -0.460327 0.533447 0.709601
17.12999916 2.80999994 -0.88000000 65 81 182 0.000000 0.000000 0.000000 0.000000 -60.708740 0.000000 221.000000 0.775516 -0.600449 0.195031
17.14999962 2.79999995 -0.88000000 65 81 182 0.000000 0.000000 0.000000 0.000000 -60.708740 0.000000 221.000000 0.922831 -0.372131 -0.099508
17.14999962 2.79999995 -0.88000000 65 81 182 0.000000 0.000000 0.000000 0.000000 -60.708740 0.000000 221.000000 0.922831 -0.372131 -0.099508
17.13999939 2.78999996 -0.91000003 65 81 182 0.000000 0.000000 0.000000 0.000000 -60.708740 0.000000 221.000000 -0.651633 0.744939 -0.142968
17.14999962 2.80999994 -0.91000003 65 81 182 0.000000 0.000000 0.000000 0.000000 -60.708740 0.000000 221.000000 0.721480 -0.283153 0.631895
17.15999985 2.76999998 -0.88000000 65 81 182 0.000000 0.000000 0.000000 0.000000 -60.708740 0.000000 221.000000 -0.294823 0.280300 0.913516
17.12999916 2.74000001 -0.88000000 65 81 182 0.000000 0.000000 0.000000 0.000000 -60.708740 0.000000 221.000000 0.781723 -0.279525 -0.557471
17.17000008 2.67000008 -0.86000001 65 81 182 0.000000 0.000000 0.000000 0.000000 -60.708740 0.000000 221.000000 -0.583561 0.542965 -0.603859
17.13999939 2.73000002 -0.87000000 65 81 182 0.000000 0.000000 0.000000 0.000000 -60.708740 0.000000 221.000000 -0.572234 0.397431 0.717354
17.13999939 2.67000008 -0.87000000 65 81 182 0.000000 0.000000 0.000000 0.000000 -60.708740 0.000000 221.000000 0.297960 -0.463319 0.834599
17.13999939 2.67000008 -0.87000000 65 81 182 0.000000 0.000000 0.000000 0.000000 -60.708740 0.000000 221.000000 0.297960 -0.463319 0.834599
17.12000084 2.77999997 -0.88999999 65 81 182 0.000000 0.000000 0.000000 0.000000 -60.708740 0.000000 221.000000 0.969119 -0.237615 -0.065935
17.12000084 2.77999997 -0.88999999 65 81 182 0.000000 0.000000 0.000000 0.000000 -60.708740 0.000000 221.000000 0.969119 -0.237615 -0.065935
17.11000061 2.79999995 -0.88000000 65 81 182 0.000000 0.000000 0.000000 0.000000 -60.708740 0.000000 221.000000 -0.580085 0.764441 0.281302
17.11000061 2.80999994 -0.94000000 65 81 182 0.000000 0.000000 0.000000 0.000000 -60.708740 0.000000 221.000000 0.675566 -0.394769 0.622710
17.09000015 2.75999999 -0.89999998 65 81 182 0.000000 0.000000 0.000000 0.000000 -60.708740 0.000000 221.000000 0.953464 -0.194996 0.229961
17.07999992 2.75000000 -0.88999999 65 81 182 0.000000 0.000000 0.000000 0.000000 -60.708740 0.000000 221.000000 0.886593 -0.399487 0.233158
17.07999992 2.75000000 -0.89999998 65 81 182 0.000000 0.000000 0.000000 0.000000 -60.708740 0.000000 221.000000 -0.709190 0.700453 0.080093
17.12000084 2.69000006 -0.91000003 65 81 182 0.000000 0.000000 0.000000 0.000000 -60.708740 0.000000 221.000000 0.045119 -0.474432 0.879135
17.09000015 2.66000009 -0.86000001 65 81 182 0.000000 0.000000 0.000000 0.000000 -60.708740 0.000000 221.000000 -0.367722 -0.184576 0.911434
17.09000015 2.65000010 -0.86000001 65 81 182 0.000000 0.000000 0.000000 0.000000 -60.708740 0.000000 221.000000 -0.315255 0.207814 0.925974
17.09000015 2.65000010 -0.86000001 65 81 182 0.000000 0.000000 0.000000 0.000000 -60.708740 0.000000 221.000000 -0.315255 0.207814 0.925974
17.10000038 2.68000007 -0.88000000 65 81 182 0.000000 0.000000 0.000000 0.000000 -60.708740 0.000000 221.000000 0.654186 -0.539830 -0.529740
17.12000084 2.68000007 -0.87000000 65 81 182 0.000000 0.000000 0.000000 0.000000 -60.708740 0.000000 221.000000 -0.324263 0.126178 0.937514
17.10000038 2.65000010 -0.86000001 65 81 182 0.000000 0.000000 0.000000 0.000000 -60.708740 0.000000 221.000000 -0.153324 0.327367 0.932375
17.09000015 2.65000010 -0.88999999 65 81 182 0.000000 0.000000 0.000000 0.000000 -60.708740 0.000000 221.000000 0.701517 -0.686099 -0.192724
17.10000038 2.67000008 -0.91000003 65 81 182 0.000000 0.000000 0.000000 0.000000 -60.708740 0.000000 221.000000 0.281515 0.051758 0.958160
17.07999992 2.70000005 -0.87000000 65 81 182 0.000000 0.000000 0.000000 0.000000 -60.708740 0.000000 221.000000 0.781025 -0.191053 -0.594557
17.07999992 2.73000002 -0.86000001 65 81 182 0.000000 0.000000 0.000000 0.000000 -60.708740 0.000000 221.000000 0.787475 -0.590227 -0.177523
17.07999992 2.73000002 -0.88000000 65 81 182 0.000000 0.000000 0.000000 0.000000 -60.708740 0.000000 221.000000 0.961670 -0.234203 -0.142615
17.07999992 2.70000005 -0.87000000 65 81 182 0.000000 0.000000 0.000000 0.000000 -60.708740 0.000000 221.000000 0.781025 -0.191053 -0.594557
17.06999969 2.68000007 -0.87000000 65 81 182 0.000000 0.000000 0.000000 0.000000 -60.708740 0.000000 221.000000 0.914209 -0.388643 -0.114795
17.05999947 2.67000008 -0.98000002 65 81 182 0.000000 0.000000 0.000000 0.000000 -60.708740 0.000000 221.000000 0.331716 -0.593852 0.733011
17.05999947 2.71000004 -0.95999998 65 81 182 0.000000 0.000000 0.000000 0.000000 -60.708740 0.000000 221.000000 0.330699 -0.572674 0.750122
17.07999992 2.68000007 -0.95999998 65 81 182 0.000000 0.000000 0.000000 0.000000 -60.708740 0.000000 221.000000 0.419891 -0.579217 0.698712
17.07999992 2.69000006 -0.97000003 65 81 182 0.000000 0.000000 0.000000 0.000000 -60.708740 0.000000 221.000000 0.484299 -0.500942 0.717295
17.36000061 2.59999990 -0.75999999 65 81 182 0.000000 0.000000 0.000000 0.000000 -60.708740 0.000000 221.000000 -0.450408 0.621195 -0.641287
17.35000038 2.59999990 -0.75000000 65 81 182 0.000000 0.000000 0.000000 0.000000 -60.708740 0.000000 221.000000 0.735176 -0.363513 0.572166
17.31999969 2.57999992 -0.75999999 65 81 182 0.000000 0.000000 0.000000 0.000000 -60.708740 0.000000 221.000000 0.649558 -0.348503 0.675737
17.30999947 2.56999993 -0.82999998 65 81 182 0.000000 0.000000 0.000000 0.000000 -60.708740 0.000000 221.000000 -0.582595 0.548821 -0.599482
17.29999924 2.55999994 -0.76999998 65 81 182 0.000000 0.000000 0.000000 0.000000 -60.708740 0.000000 221.000000 0.601999 -0.222444 0.766887
17.31999969 2.54999995 -0.75000000 65 81 182 0.000000 0.000000 0.000000 0.000000 -60.708740 0.000000 221.000000 0.427605 -0.587333 0.687163
17.31999969 2.55999994 -0.82999998 65 81 182 0.000000 0.000000 0.000000 0.000000 -60.708740 0.000000 221.000000 0.795871 -0.602933 0.055328
17.30999947 2.53999996 -0.80000001 65 81 182 0.000000 0.000000 0.000000 0.000000 -60.708740 0.000000 221.000000 -0.630318 0.734581 -0.251179
17.27000046 2.63000011 -0.73000002 65 81 182 0.000000 0.000000 0.000000 0.000000 -60.708740 0.000000 221.000000 0.346921 -0.610776 0.711758
17.26000023 2.61999989 -0.74000001 65 81 182 0.000000 0.000000 0.000000 0.000000 -60.708740 0.000000 221.000000 0.293920 -0.464984 0.835105
17.29000092 2.60999990 -0.75999999 65 81 182 0.000000 0.000000 0.000000 0.000000 -60.708740 0.000000 221.000000 0.570146 -0.084732 0.817162
17.28000069 2.59999990 -0.75000000 65 81 182 0.000000 0.000000 0.000000 0.000000 -60.708740 0.000000 221.000000 0.683008 -0.012519 0.730304
17.20999908 2.64000010 -0.75000000 65 81 182 0.000000 0.000000 0.000000 0.000000 -60.708740 0.000000 221.000000 0.122987 -0.320307 0.939296
17.23999977 2.59999990 -0.75000000 65 81 182 0.000000 0.000000 0.000000 0.000000 -60.708740 0.000000 221.000000 0.852746 -0.323455 0.410123
17.22999954 2.59999990 -0.75999999 65 81 182 0.000000 0.000000 0.000000 0.000000 -60.708740 0.000000 221.000000 0.288366 -0.348131 0.891992
17.21999931 2.57999992 -0.76999998 65 81 182 0.000000 0.000000 0.000000 0.000000 -60.708740 0.000000 221.000000 0.847964 -0.222989 0.480867
17.23999977 2.63000011 -0.77999997 65 81 182 0.000000 0.000000 0.000000 0.000000 -60.708740 0.000000 221.000000 0.734646 -0.567756 0.371414
17.23999977 2.55999994 -0.76999998 65 81 182 0.000000 0.000000 0.000000 0.000000 -60.708740 0.000000 221.000000 0.811680 -0.270560 0.517661
17.27000046 2.53999996 -0.82999998 65 81 182 0.000000 0.000000 0.000000 0.000000 -60.708740 0.000000 221.000000 0.690304 -0.638083 0.341072
17.26000023 2.51999998 -0.81000000 65 81 182 0.000000 0.000000 0.000000 0.000000 -60.708740 0.000000 221.000000 0.673476 -0.698711 0.241316
17.27000046 2.51999998 -0.77999997 65 81 182 0.000000 0.000000 0.000000 0.000000 -60.708740 0.000000 221.000000 0.528666 -0.572580 0.626629
17.20999908 2.52999997 -0.79000002 65 81 182 0.000000 0.000000 0.000000 0.000000 -60.708740 0.000000 221.000000 0.438526 -0.432053 0.788052
17.23999977 2.50999999 -0.80000001 65 81 182 0.000000 0.000000 0.000000 0.000000 -60.708740 0.000000 221.000000 0.774633 -0.384881 0.501807
17.23999977 2.50999999 -0.80000001 65 81 182 0.000000 0.000000 0.000000 0.000000 -60.708740 0.000000 221.000000 0.774633 -0.384881 0.501807
17.22999954 2.50999999 -0.79000002 65 81 182 0.000000 0.000000 0.000000 0.000000 -60.708740 0.000000 221.000000 0.498281 -0.679474 0.538546
17.23999977 2.50000000 -0.80000001 65 81 182 0.000000 0.000000 0.000000 0.000000 -60.708740 0.000000 221.000000 0.669761 -0.616579 0.413823
17.23999977 2.50999999 -0.81999999 65 81 182 0.000000 0.000000 0.000000 0.000000 -60.708740 0.000000 221.000000 0.925490 -0.370999 0.076343
17.22999954 2.49000001 -0.81999999 65 81 182 0.000000 0.000000 0.000000 0.000000 -60.708740 0.000000 221.000000 0.718221 -0.203212 0.665479
17.21999931 2.48000002 -0.85000002 65 81 182 0.000000 0.000000 0.000000 0.000000 -60.708740 0.000000 221.000000 -0.681224 0.727704 0.079888
17.23999977 2.50999999 -0.85000002 65 81 182 0.000000 0.000000 0.000000 0.000000 -60.708740 0.000000 221.000000 0.843018 -0.305846 0.442468
17.25000000 2.50999999 -0.86000001 65 81 182 0.000000 0.000000 0.000000 0.000000 -60.708740 0.000000 221.000000 0.707055 -0.695097 0.130050
17.22999954 2.48000002 -0.88000000 65 81 182 0.000000 0.000000 0.000000 0.000000 -60.708740 0.000000 221.000000 -0.724286 0.642232 -0.250896
17.26000023 2.51999998 -0.88000000 65 81 182 0.000000 0.000000 0.000000 0.000000 -60.708740 0.000000 221.000000 -0.679880 0.731408 -0.052959
17.25000000 2.50999999 -0.86000001 65 81 182 0.000000 0.000000 0.000000 0.000000 -60.708740 0.000000 221.000000 0.707055 -0.695097 0.130050
17.21999931 2.53999996 -0.88000000 65 81 182 0.000000 0.000000 0.000000 0.000000 -60.708740 0.000000 221.000000 0.926615 -0.369313 0.070663
17.25000000 2.51999998 -0.87000000 65 81 182 0.000000 0.000000 0.000000 0.000000 -60.708740 0.000000 221.000000 0.758619 -0.615893 0.212538
17.20000076 2.64000010 -0.75000000 65 81 182 0.000000 0.000000 0.000000 0.000000 -60.708740 0.000000 221.000000 0.293208 -0.629676 0.719401
17.19000053 2.58999991 -0.77999997 65 81 182 0.000000 0.000000 0.000000 0.000000 -60.708740 0.000000 221.000000 0.324740 -0.174217 0.929620
17.13999939 2.59999990 -0.77999997 65 81 182 0.000000 0.000000 0.000000 0.000000 -60.708740 0.000000 221.000000 0.397225 -0.326126 0.857820
