//X Y Z R G B PointSourceId ScanDirectionFlag NumberOfReturns ReturnNumber GpsTime Intensity Classification Nx Ny Nz
4.76999998 -20.15999985 0.02000000 210 170 65 0.000000 0.000000 0.000000 0.000000 -60.708740 0.000000 6.000000 0.943523 0.309154 0.119111
4.76999998 -20.15999985 0.02000000 210 170 65 0.000000 0.000000 0.000000 0.000000 -60.708740 0.000000 6.000000 0.943523 0.309154 0.119111
4.76999998 -20.13999939 0.00000000 210 170 65 0.000000 0.000000 0.000000 0.000000 -60.708740 0.000000 6.000000 0.950930 0.294304 0.095485
4.67000008 -20.02000046 -0.02000000 210 170 65 0.000000 0.000000 0.000000 0.000000 -60.708740 0.000000 6.000000 -0.003953 0.892036 -0.451947
4.69000006 -20.02000046 -0.01000000 210 170 65 0.000000 0.000000 0.000000 0.000000 -60.708740 0.000000 6.000000 0.318041 0.861936 -0.394862
4.67000008 -20.02000046 -0.02000000 210 170 65 0.000000 0.000000 0.000000 0.000000 -60.708740 0.000000 6.000000 -0.003953 0.892036 -0.451947
4.71000004 -20.19000053 0.40000001 210 170 65 0.000000 0.000000 0.000000 0.000000 -60.708740 0.000000 6.000000 0.826925 -0.448902 0.338646
4.67000008 -20.20999908 0.46000001 210 170 65 0.000000 0.000000 0.000000 0.000000 -60.708740 0.000000 6.000000 0.749492 -0.655988 0.089121
4.69000006 -20.19000053 0.41000000 210 170 65 0.000000 0.000000 0.000000 0.000000 -60.708740 0.000000 6.000000 0.843070 -0.494944 0.210389
4.69000006 -20.19000053 0.41000000 210 170 65 0.000000 0.000000 0.000000 0.000000 -60.708740 0.000000 6.000000 0.843070 -0.494944 0.210389
4.69000006 -20.19000053 0.38999999 210 170 65 0.000000 0.000000 0.000000 0.000000 -60.708740 0.000000 6.000000 0.770817 -0.493779 0.402520
4.69000006 -20.20999908 0.37000000 210 170 65 0.000000 0.000000 0.000000 0.000000 -60.708740 0.000000 6.000000 0.776308 -0.545817 0.315325
4.69999981 -20.19000053 0.31999999 210 170 65 0.000000 0.000000 0.000000 0.000000 -60.708740 0.000000 6.000000 0.610964 -0.450272 0.651137
4.69999981 -20.20000076 0.33000001 210 170 65 0.000000 0.000000 0.000000 0.000000 -60.708740 0.000000 6.000000 0.864637 -0.486448 0.125582
4.73000002 -20.19000053 0.23999999 210 170 65 0.000000 0.000000 0.000000 0.000000 -60.708740 0.000000 6.000000 0.977712 -0.208752 0.022408
4.73000002 -20.19000053 0.25999999 210 170 65 0.000000 0.000000 0.000000 0.000000 -60.708740 0.000000 6.000000 0.850742 -0.192875 0.488915
4.71999979 -20.22999954 0.28999999 210 170 65 0.000000 0.000000 0.000000 0.000000 -60.708740 0.000000 6.000000 0.796744 -0.452293 0.400786
4.75000000 -20.19000053 0.19000000 210 170 65 0.000000 0.000000 0.000000 0.000000 -60.708740 0.000000 6.000000 0.952963 -0.214315 0.214315
4.75000000 -20.21999931 0.18000001 210 170 65 0.000000 0.000000 0.000000 0.000000 -60.708740 0.000000 6.000000 0.954168 -0.240220 0.178487
4.75000000 -20.21999931 0.17000000 210 170 65 0.000000 0.000000 0.000000 0.000000 -60.708740 0.000000 6.000000 0.951502 -0.307217 0.016169
4.73000002 -20.20999908 0.20000000 210 170 65 0.000000 0.000000 0.000000 0.000000 -60.708740 0.000000 6.000000 0.759415 -0.319500 0.566752
4.78000021 -20.20000076 0.13000000 210 170 65 0.000000 0.000000 0.000000 0.000000 -60.708740 0.000000 6.000000 0.925803 0.040594 0.375821
4.76999998 -20.20000076 0.09000000 210 170 65 0.000000 0.000000 0.000000 0.000000 -60.708740 0.000000 6.000000 0.858963 0.221134 0.461824
4.73000002 -20.21999931 0.08000000 210 170 65 0.000000 0.000000 0.000000 0.000000 -60.708740 0.000000 6.000000 0.984795 -0.172022 -0.024245
4.73999977 -20.22999954 0.11000000 210 170 65 0.000000 0.000000 0.000000 0.000000 -60.708740 0.000000 6.000000 0.955525 -0.231197 0.183087
4.73999977 -20.22999954 0.11000000 210 170 65 0.000000 0.000000 0.000000 0.000000 -60.708740 0.000000 6.000000 0.955525 -0.231197 0.183087
4.76000023 -20.21999931 0.05000000 210 170 65 0.000000 0.000000 0.000000 0.000000 -60.708740 0.000000 6.000000 0.961308 -0.234115 0.145177
4.76999998 -20.20000076 0.05000000 210 170 65 0.000000 0.000000 0.000000 0.000000 -60.708740 0.000000 6.000000 0.945814 -0.090767 0.311764
4.76999998 -20.21999931 0.00000000 210 170 65 0.000000 0.000000 0.000000 0.000000 -60.708740 0.000000 6.000000 0.954536 0.065344 0.290845
4.73999977 -20.25000000 0.06000000 210 170 65 0.000000 0.000000 0.000000 0.000000 -60.708740 0.000000 6.000000 0.954108 -0.252205 0.161464
4.73999977 -20.26000023 0.04000000 210 170 65 0.000000 0.000000 0.000000 0.000000 -60.708740 0.000000 6.000000 0.886330 -0.350619 0.302466
4.61000013 -19.87000084 0.49000001 210 170 65 0.000000 0.000000 0.000000 0.000000 -60.708740 0.000000 6.000000 0.183297 0.977994 -0.099645
4.57999992 -19.85000038 0.49000001 210 170 65 0.000000 0.000000 0.000000 0.000000 -60.708740 0.000000 6.000000 -0.111891 0.988176 -0.104824
4.55999994 -19.86000061 0.49000001 210 170 65 0.000000 0.000000 0.000000 0.000000 -60.708740 0.000000 6.000000 -0.170123 0.985343 -0.012559
4.55999994 -19.85000038 0.56000000 210 170 65 0.000000 0.000000 0.000000 0.000000 -60.708740 0.000000 6.000000 0.030755 0.997945 -0.056207
4.55999994 -19.86000061 0.49000001 210 170 65 0.000000 0.000000 0.000000 0.000000 -60.708740 0.000000 6.000000 -0.170123 0.985343 -0.012559
4.50000000 -19.87999916 0.61000001 210 170 65 0.000000 0.000000 0.000000 0.000000 -60.708740 0.000000 6.000000 -0.350437 0.897533 -0.267633
4.51999998 -19.85000038 0.56999999 210 170 65 0.000000 0.000000 0.000000 0.000000 -60.708740 0.000000 6.000000 -0.049792 -0.772490 0.633072
4.53000021 -19.85000038 0.56999999 210 170 65 0.000000 0.000000 0.000000 0.000000 -60.708740 0.000000 6.000000 0.195268 0.916476 -0.349202
4.46000004 -19.85000038 0.63999999 210 170 65 0.000000 0.000000 0.000000 0.000000 -60.708740 0.000000 6.000000 -0.217991 0.960482 -0.173072
4.46999979 -19.87000084 0.61000001 210 170 65 0.000000 0.000000 0.000000 0.000000 -60.708740 0.000000 6.000000 -0.604505 0.790955 -0.094681
4.46000004 -19.87999916 0.63999999 210 170 65 0.000000 0.000000 0.000000 0.000000 -60.708740 0.000000 6.000000 -0.317515 0.927142 -0.198976
4.48999977 -19.86000061 0.63999999 210 170 65 0.000000 0.000000 0.000000 0.000000 -60.708740 0.000000 6.000000 -0.504025 0.845989 -0.173956
4.46000004 -19.87000084 0.63999999 210 170 65 0.000000 0.000000 0.000000 0.000000 -60.708740 0.000000 6.000000 -0.642594 0.753437 -0.139304
4.48000002 -19.90999985 0.57999998 210 170 65 0.000000 0.000000 0.000000 0.000000 -60.708740 0.000000 6.000000 -0.510967 0.858918 -0.034247
4.48000002 -19.90999985 0.57999998 210 170 65 0.000000 0.000000 0.000000 0.000000 -60.708740 0.000000 6.000000 -0.510967 0.858918 -0.034247
4.48000002 -19.88999939 0.56999999 210 170 65 0.000000 0.000000 0.000000 0.000000 -60.708740 0.000000 6.000000 -0.273969 0.914678 -0.297162
4.51999998 -19.87999916 0.54000002 210 170 65 0.000000 0.000000 0.000000 0.000000 -60.708740 0.000000 6.000000 0.001045 0.997548 -0.069985
4.53000021 -19.85000038 0.52999997 210 170 65 0.000000 0.000000 0.000000 0.000000 -60.708740 0.000000 6.000000 -0.118329 0.909048 -0.399536
4.50000000 -19.86000061 0.50999999 210 170 65 0.000000 0.000000 0.000000 0.000000 -60.708740 0.000000 6.000000 0.076808 0.757934 -0.647794
4.50000000 -19.87000084 0.50000000 210 170 65 0.000000 0.000000 0.000000 0.000000 -60.708740 0.000000 6.000000 0.216791 0.935699 -0.278332
4.51999998 -19.85000038 0.51999998 210 170 65 0.000000 0.000000 0.000000 0.000000 -60.708740 0.000000 6.000000 -0.068685 0.856456 -0.511631
4.51000023 -19.86000061 0.50999999 210 170 65 0.000000 0.000000 0.000000 0.000000 -60.708740 0.000000 6.000000 -0.136349 0.732691 -0.666763
4.51999998 -19.85000038 0.51999998 210 170 65 0.000000 0.000000 0.000000 0.000000 -60.708740 0.000000 6.000000 -0.068685 0.856456 -0.511631
4.46999979 -19.87999916 0.49000001 210 170 65 0.000000 0.000000 0.000000 0.000000 -60.708740 0.000000 6.000000 -0.344796 0.832862 -0.432962
4.48000002 -19.87999916 0.49000001 210 170 65 0.000000 0.000000 0.000000 0.000000 -60.708740 0.000000 6.000000 -0.479146 0.745886 -0.462680
4.46999979 -19.92000008 0.52999997 210 170 65 0.000000 0.000000 0.000000 0.000000 -60.708740 0.000000 6.000000 -0.414191 0.910182 -0.003895
4.48000002 -19.89999962 0.52999997 210 170 65 0.000000 0.000000 0.000000 0.000000 -60.708740 0.000000 6.000000 0.683534 -0.721918 0.107771
4.48000002 -19.92000008 0.52999997 210 170 65 0.000000 0.000000 0.000000 0.000000 -60.708740 0.000000 6.000000 -0.145298 0.974129 -0.173094
4.48000002 -19.88999939 0.54000002 210 170 65 0.000000 0.000000 0.000000 0.000000 -60.708740 0.000000 6.000000 -0.514618 0.675541 -0.528028
4.48000002 -19.92000008 0.51999998 210 170 65 0.000000 0.000000 0.000000 0.000000 -60.708740 0.000000 6.000000 -0.239814 0.957930 -0.157668
4.48000002 -19.92000008 0.51999998 210 170 65 0.000000 0.000000 0.000000 0.000000 -60.708740 0.000000 6.000000 -0.239814 0.957930 -0.157668
4.48000002 -19.89999962 0.51999998 210 170 65 0.000000 0.000000 0.000000 0.000000 -60.708740 0.000000 6.000000 -0.524507 0.831096 -0.184855
4.46000004 -19.95000076 0.58999997 210 170 65 0.000000 0.000000 0.000000 0.000000 -60.708740 0.000000 6.000000 0.793175 -0.556313 0.247770
4.46999979 -19.98999977 0.61000001 210 170 65 0.000000 0.000000 0.000000 0.000000 -60.708740 0.000000 6.000000 0.783506 -0.570818 0.245530
4.46999979 -20.00000000 0.64999998 210 170 65 0.000000 0.000000 0.000000 0.000000 -60.708740 0.000000 6.000000 0.896019 0.406755 0.178046
4.46000004 -19.97999954 0.57999998 210 170 65 0.000000 0.000000 0.000000 0.000000 -60.708740 0.000000 6.000000 0.757143 -0.636723 0.146010
4.46000004 -19.96999931 0.55000001 210 170 65 0.000000 0.000000 0.000000 0.000000 -60.708740 0.000000 6.000000 0.870936 -0.344395 0.350517
4.46999979 -19.93000031 0.52999997 210 170 65 0.000000 0.000000 0.000000 0.000000 -60.708740 0.000000 6.000000 0.810737 -0.544067 0.216094
4.46999979 -19.93000031 0.51999998 210 170 65 0.000000 0.000000 0.000000 0.000000 -60.708740 0.000000 6.000000 0.783136 -0.530098 0.325106
4.46000004 -19.95999908 0.51999998 210 170 65 0.000000 0.000000 0.000000 0.000000 -60.708740 0.000000 6.000000 0.793944 -0.530881 0.296342
4.46000004 -19.95999908 0.50999999 210 170 65 0.000000 0.000000 0.000000 0.000000 -60.708740 0.000000 6.000000 0.798729 -0.589081 0.122541
4.46000004 -19.97999954 0.56000000 210 170 65 0.000000 0.000000 0.000000 0.000000 -60.708740 0.000000 6.000000 0.922209 -0.383924 0.046176
4.46000004 -19.98999977 0.55000001 210 170 65 0.000000 0.000000 0.000000 0.000000 -60.708740 0.000000 6.000000 0.794190 -0.330779 0.509752
4.46000004 -19.98999977 0.50999999 210 170 65 0.000000 0.000000 0.000000 0.000000 -60.708740 0.000000 6.000000 0.969303 -0.168630 0.178928
4.57999992 -19.85000038 0.47999999 210 170 65 0.000000 0.000000 0.000000 0.000000 -60.708740 0.000000 6.000000 -0.119413 0.943228 -0.309937
4.59999990 -19.87000084 0.41999999 210 170 65 0.000000 0.000000 0.000000 0.000000 -60.708740 0.000000 6.000000 -0.017461 0.874404 -0.484885
4.61000013 -19.87000084 0.43000001 210 170 65 0.000000 0.000000 0.000000 0.000000 -60.708740 0.000000 6.000000 0.054118 0.989089 -0.137022
4.61000013 -19.85000038 0.41000000 210 170 65 0.000000 0.000000 0.000000 0.000000 -60.708740 0.000000 6.000000 0.261977 0.823135 -0.503802
4.61000013 -19.87000084 0.44000000 210 170 65 0.000000 0.000000 0.000000 0.000000 -60.708740 0.000000 6.000000 -0.089076 0.969794 -0.227080
4.57000017 -19.87000084 0.44000000 210 170 65 0.000000 0.000000 0.000000 0.000000 -60.708740 0.000000 6.000000 -0.053861 0.871451 -0.487516
4.57999992 -19.87999916 0.37000000 210 170 65 0.000000 0.000000 0.000000 0.000000 -60.708740 0.000000 6.000000 -0.055666 -0.775042 0.629454
4.57999992 -19.87000084 0.38000000 210 170 65 0.000000 0.000000 0.000000 0.000000 -60.708740 0.000000 6.000000 -0.164644 0.789988 -0.590603
4.59999990 -19.88999939 0.36000001 210 170 65 0.000000 0.000000 0.000000 0.000000 -60.708740 0.000000 6.000000 -0.007329 0.997795 0.065961
4.57999992 -19.88999939 0.34999999 210 170 65 0.000000 0.000000 0.000000 0.000000 -60.708740 0.000000 6.000000 0.009025 0.999778 -0.019053
4.59000015 -19.89999962 0.31999999 210 170 65 0.000000 0.000000 0.000000 0.000000 -60.708740 0.000000 6.000000 0.007144 0.999182 0.039804
4.61000013 -19.89999962 0.33000001 210 170 65 0.000000 0.000000 0.000000 0.000000 -60.708740 0.000000 6.000000 0.033937 0.875568 -0.481902
4.59999990 -19.89999962 0.33000001 210 170 65 0.000000 0.000000 0.000000 0.000000 -60.708740 0.000000 6.000000 0.088980 0.958147 -0.272098
4.57000017 -19.90999985 0.34000000 210 170 65 0.000000 0.000000 0.000000 0.000000 -60.708740 0.000000 6.000000 -0.091306 0.990496 0.102864
4.51999998 -19.86000061 0.47999999 210 170 65 0.000000 0.000000 0.000000 0.000000 -60.708740 0.000000 6.000000 0.018179 -0.739754 0.672631
4.53000021 -19.87999916 0.40000001 210 170 65 0.000000 0.000000 0.000000 0.000000 -60.708740 0.000000 6.000000 -0.068227 0.994323 0.081649
4.53000021 -19.87999916 0.44000000 210 170 65 0.000000 0.000000 0.000000 0.000000 -60.708740 0.000000 6.000000 -0.196901 0.922179 -0.332891
4.48999977 -19.88999939 0.47000000 210 170 65 0.000000 0.000000 0.000000 0.000000 -60.708740 0.000000 6.000000 -0.469790 0.690474 -0.550039
4.48000002 -19.92000008 0.46000001 210 170 65 0.000000 0.000000 0.000000 0.000000 -60.708740 0.000000 6.000000 0.710472 -0.578598 0.400568
4.48999977 -19.92000008 0.43000001 210 170 65 0.000000 0.000000 0.000000 0.000000 -60.708740 0.000000 6.000000 -0.631715 0.574440 -0.520533
4.48000002 -19.90999985 0.34999999 210 170 65 0.000000 0.000000 0.000000 0.000000 -60.708740 0.000000 6.000000 -0.405246 0.769804 -0.493130
4.48000002 -19.94000053 0.44999999 210 170 65 0.000000 0.000000 0.000000 0.000000 -60.708740 0.000000 6.000000 0.743279 -0.479588 0.466403
4.48000002 -19.96999931 0.44999999 210 170 65 0.000000 0.000000 0.000000 0.000000 -60.708740 0.000000 6.000000 -0.438536 0.801573 -0.406409
4.48000002 -19.95000076 0.44999999 210 170 65 0.000000 0.000000 0.000000 0.000000 -60.708740 0.000000 6.000000 -0.392491 0.917598 -0.062959
4.46999979 -19.95000076 0.44000000 210 170 65 0.000000 0.000000 0.000000 0.000000 -60.708740 0.000000 6.000000 -0.596586 0.800644 -0.055266
4.48000002 -19.93000031 0.40000001 210 170 65 0.000000 0.000000 0.000000 0.000000 -60.708740 0.000000 6.000000 0.784323 -0.600662 0.155058
4.48000002 -19.96999931 0.41000000 210 170 65 0.000000 0.000000 0.000000 0.000000 -60.708740 0.000000 6.000000 0.778120 -0.620453 0.097813
4.48000002 -19.96999931 0.41000000 210 170 65 0.000000 0.000000 0.000000 0.000000 -60.708740 0.000000 6.000000 0.778120 -0.620453 0.097813
4.46999979 -19.97999954 0.44999999 210 170 65 0.000000 0.000000 0.000000 0.000000 -60.708740 0.000000 6.000000 0.764809 -0.642326 0.049848
4.46999979 -19.97999954 0.47000000 210 170 65 0.000000 0.000000 0.000000 0.000000 -60.708740 0.000000 6.000000 0.769432 -0.519974 0.370947
4.50000000 -19.93000031 0.38999999 210 170 65 0.000000 0.000000 0.000000 0.000000 -60.708740 0.000000 6.000000 0.482412 -0.650499 0.586626
4.51000023 -19.93000031 0.34000000 210 170 65 0.000000 0.000000 0.000000 0.000000 -60.708740 0.000000 6.000000 -0.342855 0.925009 -0.163731
4.51999998 -19.93000031 0.34999999 210 170 65 0.000000 0.000000 0.000000 0.000000 -60.708740 0.000000 6.000000 0.032225 0.934512 -0.354470
4.46999979 -19.96999931 0.36000001 210 170 65 0.000000 0.000000 0.000000 0.000000 -60.708740 0.000000 6.000000 -0.463938 0.624726 -0.628076
4.48000002 -19.95999908 0.31999999 210 170 65 0.000000 0.000000 0.000000 0.000000 -60.708740 0.000000 6.000000 -0.699667 0.708468 -0.092409
4.48999977 -19.95999908 0.34999999 210 170 65 0.000000 0.000000 0.000000 0.000000 -60.708740 0.000000 6.000000 0.623212 -0.695184 0.358224
4.46999979 -20.00000000 0.36000001 210 170 65 0.000000 0.000000 0.000000 0.000000 -60.708740 0.000000 6.000000 0.809200 -0.573368 0.128234
4.46999979 -20.00000000 0.34999999 210 170 65 0.000000 0.000000 0.000000 0.000000 -60.708740 0.000000 6.000000 -0.668431 0.733934 -0.120586
4.48000002 -20.00000000 0.34999999 210 170 65 0.000000 0.000000 0.000000 0.000000 -60.708740 0.000000 6.000000 0.738455 -0.596877 0.313723
4.48999977 -19.97999954 0.34000000 210 170 65 0.000000 0.000000 0.000000 0.000000 -60.708740 0.000000 6.000000 0.719565 -0.554148 0.418506
4.46000004 -20.02000046 0.60000002 210 170 65 0.000000 0.000000 0.000000 0.000000 -60.708740 0.000000 6.000000 0.971239 0.235855 0.032657
4.48000002 -20.04999924 0.57999998 210 170 65 0.000000 0.000000 0.000000 0.000000 -60.708740 0.000000 6.000000 0.724417 0.662896 -0.189179
4.46000004 -20.02000046 0.60000002 210 170 65 0.000000 0.000000 0.000000 0.000000 -60.708740 0.000000 6.000000 0.971239 0.235855 0.032657
4.48000002 -20.04999924 0.49000001 210 170 65 0.000000 0.000000 0.000000 0.000000 -60.708740 0.000000 6.000000 0.908011 -0.133325 0.397167
4.46999979 -20.06999969 0.52999997 210 170 65 0.000000 0.000000 0.000000 0.000000 -60.708740 0.000000 6.000000 0.787370 0.581702 -0.204133
4.46999979 -20.07999992 0.49000001 210 170 65 0.000000 0.000000 0.000000 0.000000 -60.708740 0.000000 6.000000 0.919514 0.246067 -0.306505
4.46999979 -20.06999969 0.51999998 210 170 65 0.000000 0.000000 0.000000 0.000000 -60.708740 0.000000 6.000000 0.931056 0.235943 0.278328
4.48000002 -20.07999992 0.51999998 210 170 65 0.000000 0.000000 0.000000 0.000000 -60.708740 0.000000 6.000000 0.738834 0.618078 -0.268522
4.50000000 -20.02000046 0.47999999 210 170 65 0.000000 0.000000 0.000000 0.000000 -60.708740 0.000000 6.000000 -0.560575 0.740351 -0.370993
4.46000004 -20.04000092 0.43000001 210 170 65 0.000000 0.000000 0.000000 0.000000 -60.708740 0.000000 6.000000 0.997658 0.022264 -0.064673
4.46000004 -20.04000092 0.43000001 210 170 65 0.000000 0.000000 0.000000 0.000000 -60.708740 0.000000 6.000000 0.997658 0.022264 -0.064673
4.46999979 -20.09000015 0.47000000 210 170 65 0.000000 0.000000 0.000000 0.000000 -60.708740 0.000000 6.000000 0.875929 0.472522 0.097325
4.46999979 -20.06999969 0.47999999 210 170 65 0.000000 0.000000 0.000000 0.000000 -60.708740 0.000000 6.000000 0.993127 0.110347 -0.039012
4.46000004 -20.06999969 0.41000000 210 170 65 0.000000 0.000000 0.000000 0.000000 -60.708740 0.000000 6.000000 0.892592 0.432815 0.126297
4.46999979 -20.07999992 0.40000001 210 170 65 0.000000 0.000000 0.000000 0.000000 -60.708740 0.000000 6.000000 0.928935 0.369242 0.027207
4.46000004 -20.05999947 0.41999999 210 170 65 0.000000 0.000000 0.000000 0.000000 -60.708740 0.000000 6.000000 0.984683 0.007969 0.174169
4.46999979 -20.09000015 0.41999999 210 170 65 0.000000 0.000000 0.000000 0.000000 -60.708740 0.000000 6.000000 0.886973 0.349686 0.301661
4.46999979 -20.02000046 0.31999999 210 170 65 0.000000 0.000000 0.000000 0.000000 -60.708740 0.000000 6.000000 0.777163 -0.457825 0.431757
4.46000004 -20.09000015 0.36000001 210 170 65 0.000000 0.000000 0.000000 0.000000 -60.708740 0.000000 6.000000 0.989432 0.140046 0.037573
4.46000004 -20.07999992 0.38000000 210 170 65 0.000000 0.000000 0.000000 0.000000 -60.708740 0.000000 6.000000 0.987196 0.148021 -0.059442
4.46000004 -20.05999947 0.38000000 210 170 65 0.000000 0.000000 0.000000 0.000000 -60.708740 0.000000 6.000000 0.955312 0.207676 0.210356
4.46000004 -20.07999992 0.37000000 210 170 65 0.000000 0.000000 0.000000 0.000000 -60.708740 0.000000 6.000000 0.949175 0.001234 0.314746
4.46000004 -20.07999992 0.33000001 210 170 65 0.000000 0.000000 0.000000 0.000000 -60.708740 0.000000 6.000000 0.897377 -0.033434 0.439996
4.46999979 -20.10000038 0.46000001 210 170 65 0.000000 0.000000 0.000000 0.000000 -60.708740 0.000000 6.000000 0.839581 0.443934 -0.313091
4.48000002 -20.11000061 0.43000001 210 170 65 0.000000 0.000000 0.000000 0.000000 -60.708740 0.000000 6.000000 0.811508 0.537412 0.229440
4.48000002 -20.12999916 0.41000000 210 170 65 0.000000 0.000000 0.000000 0.000000 -60.708740 0.000000 6.000000 0.616005 0.725374 0.307198
4.48999977 -20.11000061 0.43000001 210 170 65 0.000000 0.000000 0.000000 0.000000 -60.708740 0.000000 6.000000 0.851136 0.420142 0.314719
4.48000002 -20.11000061 0.44000000 210 170 65 0.000000 0.000000 0.000000 0.000000 -60.708740 0.000000 6.000000 0.763652 0.565134 0.312185
4.51999998 -20.12999916 0.33000001 210 170 65 0.000000 0.000000 0.000000 0.000000 -60.708740 0.000000 6.000000 0.976790 0.163422 0.138472
4.46000004 -20.11000061 0.38999999 210 170 65 0.000000 0.000000 0.000000 0.000000 -60.708740 0.000000 6.000000 0.930725 0.356533 0.081455
4.46999979 -20.12999916 0.37000000 210 170 65 0.000000 0.000000 0.000000 0.000000 -60.708740 0.000000 6.000000 0.982879 0.184218 -0.003433
4.46000004 -20.12000084 0.38999999 210 170 65 0.000000 0.000000 0.000000 0.000000 -60.708740 0.000000 6.000000 0.997945 -0.030755 0.056207
4.46000004 -20.11000061 0.33000001 210 170 65 0.000000 0.000000 0.000000 0.000000 -60.708740 0.000000 6.000000 0.985948 0.122796 0.113259
4.46000004 -20.12000084 0.33000001 210 170 65 0.000000 0.000000 0.000000 0.000000 -60.708740 0.000000 6.000000 0.906006 0.421738 0.035921
4.46999979 -20.13999939 0.38000000 210 170 65 0.000000 0.000000 0.000000 0.000000 -60.708740 0.000000 6.000000 0.981915 0.105857 0.156960
4.48000002 -20.13999939 0.37000000 210 170 65 0.000000 0.000000 0.000000 0.000000 -60.708740 0.000000 6.000000 0.899005 0.300656 0.318428
4.48000002 -20.13999939 0.36000001 210 170 65 0.000000 0.000000 0.000000 0.000000 -60.708740 0.000000 6.000000 0.680675 0.661273 0.315277
4.48000002 -20.13999939 0.34000000 210 170 65 0.000000 0.000000 0.000000 0.000000 -60.708740 0.000000 6.000000 0.722112 0.691144 -0.029560
4.44000006 -19.92000008 0.61000001 210 170 65 0.000000 0.000000 0.000000 0.000000 -60.708740 0.000000 6.000000 -0.339231 0.856597 -0.388799
4.42999983 -19.92000008 0.62000000 210 170 65 0.000000 0.000000 0.000000 0.000000 -60.708740 0.000000 6.000000 0.726434 -0.575571 0.375515
4.44000006 -19.90999985 0.63000000 210 170 65 0.000000 0.000000 0.000000 0.000000 -60.708740 0.000000 6.000000 -0.510692 0.789251 -0.340995
4.44999981 -19.87999916 0.63999999 210 170 65 0.000000 0.000000 0.000000 0.000000 -60.708740 0.000000 6.000000 0.552306 -0.586086 0.592842
4.44999981 -19.95000076 0.61000001 210 170 65 0.000000 0.000000 0.000000 0.000000 -60.708740 0.000000 6.000000 0.890497 -0.213425 0.401827
4.44999981 -19.95000076 0.61000001 210 170 65 0.000000 0.000000 0.000000 0.000000 -60.708740 0.000000 6.000000 0.890497 -0.213425 0.401827
4.44999981 -19.94000053 0.63999999 210 170 65 0.000000 0.000000 0.000000 0.000000 -60.708740 0.000000 6.000000 0.880452 -0.474089 -0.006640
4.42999983 -20.01000023 0.63999999 210 170 65 0.000000 0.000000 0.000000 0.000000 -60.708740 0.000000 6.000000 0.958658 0.229388 -0.168395
4.44000006 -20.01000023 0.62000000 210 170 65 0.000000 0.000000 0.000000 0.000000 -60.708740 0.000000 6.000000 0.980864 -0.175804 -0.083658
4.44000006 -20.00000000 0.60000002 210 170 65 0.000000 0.000000 0.000000 0.000000 -60.708740 0.000000 6.000000 0.989089 -0.054118 -0.137022
4.44999981 -19.98999977 0.57999998 210 170 65 0.000000 0.000000 0.000000 0.000000 -60.708740 0.000000 6.000000 0.932909 -0.358413 0.034936
4.44000006 -20.01000023 0.58999997 210 170 65 0.000000 0.000000 0.000000 0.000000 -60.708740 0.000000 6.000000 0.979730 0.167989 -0.109131
4.44999981 -20.01000023 0.51999998 210 170 65 0.000000 0.000000 0.000000 0.000000 -60.708740 0.000000 6.000000 0.823761 -0.426959 0.372994
4.44000006 -19.96999931 0.52999997 210 170 65 0.000000 0.000000 0.000000 0.000000 -60.708740 0.000000 6.000000 0.793984 -0.360902 0.489223
4.44999981 -20.00000000 0.44999999 210 170 65 0.000000 0.000000 0.000000 0.000000 -60.708740 0.000000 6.000000 0.931915 -0.298493 0.206002
4.44999981 -19.94000053 0.40000001 210 170 65 0.000000 0.000000 0.000000 0.000000 -60.708740 0.000000 6.000000 0.798175 -0.541003 0.265013
4.44999981 -19.97999954 0.41000000 210 170 65 0.000000 0.000000 0.000000 0.000000 -60.708740 0.000000 6.000000 -0.535058 0.793906 -0.288837
4.44999981 -20.01000023 0.37000000 210 170 65 0.000000 0.000000 0.000000 0.000000 -60.708740 0.000000 6.000000 0.794688 -0.601425 0.082209
4.44999981 -20.01000023 0.34999999 210 170 65 0.000000 0.000000 0.000000 0.000000 -60.708740 0.000000 6.000000 0.953077 -0.150626 0.262596
4.44999981 -20.01000023 0.38000000 210 170 65 0.000000 0.000000 0.000000 0.000000 -60.708740 0.000000 6.000000 0.876347 -0.480840 0.028444
4.44999981 -20.02000046 0.63000000 210 170 65 0.000000 0.000000 0.000000 0.000000 -60.708740 0.000000 6.000000 0.861070 0.337342 0.380473
4.44999981 -20.04000092 0.61000001 210 170 65 0.000000 0.000000 0.000000 0.000000 -60.708740 0.000000 6.000000 0.813932 0.538023 -0.219194
4.44000006 -20.02000046 0.51999998 210 170 65 0.000000 0.000000 0.000000 0.000000 -60.708740 0.000000 6.000000 0.997384 -0.003140 -0.072214
4.44999981 -20.02000046 0.49000001 210 170 65 0.000000 0.000000 0.000000 0.000000 -60.708740 0.000000 6.000000 0.840368 -0.510812 0.181256
4.44000006 -20.05999947 0.50999999 210 170 65 0.000000 0.000000 0.000000 0.000000 -60.708740 0.000000 6.000000 0.968377 -0.084152 0.234872
4.44999981 -20.02000046 0.49000001 210 170 65 0.000000 0.000000 0.000000 0.000000 -60.708740 0.000000 6.000000 0.840368 -0.510812 0.181256
4.44999981 -20.04000092 0.41999999 210 170 65 0.000000 0.000000 0.000000 0.000000 -60.708740 0.000000 6.000000 0.890390 0.033676 0.453951
4.44999981 -20.02000046 0.46000001 210 170 65 0.000000 0.000000 0.000000 0.000000 -60.708740 0.000000 6.000000 0.984828 -0.119045 0.126260
4.44999981 -20.04000092 0.33000001 210 170 65 0.000000 0.000000 0.000000 0.000000 -60.708740 0.000000 6.000000 0.959130 -0.272030 0.077905
4.44000006 -20.05999947 0.31999999 210 170 65 0.000000 0.000000 0.000000 0.000000 -60.708740 0.000000 6.000000 0.864797 -0.388621 0.317963
4.44000006 -20.10000038 0.33000001 210 170 65 0.000000 0.000000 0.000000 0.000000 -60.708740 0.000000 6.000000 0.972434 -0.191444 -0.133123
4.59000015 -19.89999962 0.31000000 210 170 65 0.000000 0.000000 0.000000 0.000000 -60.708740 0.000000 6.000000 -0.070539 0.971461 -0.226468
4.57999992 -19.92000008 0.28000000 210 170 65 0.000000 0.000000 0.000000 0.000000 -60.708740 0.000000 6.000000 -0.344001 0.926156 -0.154591
4.59999990 -19.89999962 0.28999999 210 170 65 0.000000 0.000000 0.000000 0.000000 -60.708740 0.000000 6.000000 0.021794 0.934570 -0.355111
4.59000015 -19.90999985 0.28999999 210 170 65 0.000000 0.000000 0.000000 0.000000 -60.708740 0.000000 6.000000 -0.035001 0.805020 -0.592215
4.59000015 -19.89999962 0.30000001 210 170 65 0.000000 0.000000 0.000000 0.000000 -60.708740 0.000000 6.000000 0.051140 0.932327 -0.357982
4.59000015 -19.89999962 0.31000000 210 170 65 0.000000 0.000000 0.000000 0.000000 -60.708740 0.000000 6.000000 -0.070539 0.971461 -0.226468
4.59999990 -19.90999985 0.28999999 210 170 65 0.000000 0.000000 0.000000 0.000000 -60.708740 0.000000 6.000000 0.011345 0.941596 -0.336554
4.61000013 -19.90999985 0.28999999 210 170 65 0.000000 0.000000 0.000000 0.000000 -60.708740 0.000000 6.000000 0.092808 0.898989 -0.428024
4.59999990 -19.92000008 0.27000001 210 170 65 0.000000 0.000000 0.000000 0.000000 -60.708740 0.000000 6.000000 0.106876 0.994267 0.003239
4.53999996 -19.89999962 0.27000001 210 170 65 0.000000 0.000000 0.000000 0.000000 -60.708740 0.000000 6.000000 0.001377 -0.756234 0.654300
4.59999990 -19.92000008 0.23000000 210 170 65 0.000000 0.000000 0.000000 0.000000 -60.708740 0.000000 6.000000 -0.011813 0.995555 -0.093434
4.59999990 -19.94000053 0.25000000 210 170 65 0.000000 0.000000 0.000000 0.000000 -60.708740 0.000000 6.000000 -0.098290 0.993072 -0.064397
4.57999992 -19.93000031 0.23999999 210 170 65 0.000000 0.000000 0.000000 0.000000 -60.708740 0.000000 6.000000 0.050669 0.997201 0.054981
4.55000019 -19.93000031 0.28999999 210 170 65 0.000000 0.000000 0.000000 0.000000 -60.708740 0.000000 6.000000 -0.134744 0.989272 0.056431
4.61000013 -19.95999908 0.20000000 210 170 65 0.000000 0.000000 0.000000 0.000000 -60.708740 0.000000 6.000000 0.096640 0.994173 -0.047765
4.61000013 -19.93000031 0.22000000 210 170 65 0.000000 0.000000 0.000000 0.000000 -60.708740 0.000000 6.000000 0.288195 0.765866 -0.574798
4.59999990 -19.94000053 0.16000000 210 170 65 0.000000 0.000000 0.000000 0.000000 -60.708740 0.000000 6.000000 -0.412908 0.836807 -0.359529
4.57999992 -19.95999908 0.16000000 210 170 65 0.000000 0.000000 0.000000 0.000000 -60.708740 0.000000 6.000000 -0.203294 0.709201 -0.675060
4.55000019 -19.94000053 0.23000000 210 170 65 0.000000 0.000000 0.000000 0.000000 -60.708740 0.000000 6.000000 -0.085761 0.996311 -0.003176
4.55000019 -19.94000053 0.23000000 210 170 65 0.000000 0.000000 0.000000 0.000000 -60.708740 0.000000 6.000000 -0.085761 0.996311 -0.003176
4.53000021 -19.90999985 0.25999999 210 170 65 0.000000 0.000000 0.000000 0.000000 -60.708740 0.000000 6.000000 -0.067236 0.791096 -0.607985
4.51000023 -19.90999985 0.28999999 210 170 65 0.000000 0.000000 0.000000 0.000000 -60.708740 0.000000 6.000000 -0.303184 0.952326 0.033967
4.51000023 -19.90999985 0.27000001 210 170 65 0.000000 0.000000 0.000000 0.000000 -60.708740 0.000000 6.000000 -0.171166 0.982708 -0.070621
4.50000000 -19.90999985 0.31000000 210 170 65 0.000000 0.000000 0.000000 0.000000 -60.708740 0.000000 6.000000 -0.268710 0.949263 -0.163387
4.50000000 -19.94000053 0.30000001 210 170 65 0.000000 0.000000 0.000000 0.000000 -60.708740 0.000000 6.000000 -0.520394 0.694416 -0.496968
4.50000000 -19.94000053 0.30000001 210 170 65 0.000000 0.000000 0.000000 0.000000 -60.708740 0.000000 6.000000 -0.520394 0.694416 -0.496968
4.50000000 -19.94000053 0.28000000 210 170 65 0.000000 0.000000 0.000000 0.000000 -60.708740 0.000000 6.000000 -0.309489 0.922763 -0.229621
4.51999998 -19.93000031 0.31000000 210 170 65 0.000000 0.000000 0.000000 0.000000 -60.708740 0.000000 6.000000 -0.304527 0.678338 -0.668671
4.51999998 -19.94000053 0.30000001 210 170 65 0.000000 0.000000 0.000000 0.000000 -60.708740 0.000000 6.000000 0.603977 -0.765451 0.222027
4.51000023 -19.94000053 0.28000000 210 170 65 0.000000 0.000000 0.000000 0.000000 -60.708740 0.000000 6.000000 -0.380788 0.921696 -0.074005
4.51000023 -19.94000053 0.27000001 210 170 65 0.000000 0.000000 0.000000 0.000000 -60.708740 0.000000 6.000000 -0.371269 0.927516 -0.043293
4.53000021 -19.94000053 0.25999999 210 170 65 0.000000 0.000000 0.000000 0.000000 -60.708740 0.000000 6.000000 -0.358693 0.923739 -0.134337
4.51000023 -19.96999931 0.27000001 210 170 65 0.000000 0.000000 0.000000 0.000000 -60.708740 0.000000 6.000000 0.685235 -0.688385 0.237863
4.48999977 -19.95999908 0.25000000 210 170 65 0.000000 0.000000 0.000000 0.000000 -60.708740 0.000000 6.000000 -0.533140 0.838207 -0.114763
4.48000002 -19.96999931 0.25000000 210 170 65 0.000000 0.000000 0.000000 0.000000 -60.708740 0.000000 6.000000 0.758097 -0.651599 0.026624
4.46000004 -19.98999977 0.31000000 210 170 65 0.000000 0.000000 0.000000 0.000000 -60.708740 0.000000 6.000000 0.929728 -0.224320 0.292039
4.48999977 -20.00000000 0.30000001 210 170 65 0.000000 0.000000 0.000000 0.000000 -60.708740 0.000000 6.000000 -0.344957 0.898666 -0.270932
4.46999979 -20.01000023 0.23999999 210 170 65 0.000000 0.000000 0.000000 0.000000 -60.708740 0.000000 6.000000 -0.606538 0.743447 -0.281778
4.46000004 -19.97999954 0.25000000 210 170 65 0.000000 0.000000 0.000000 0.000000 -60.708740 0.000000 6.000000 0.777426 -0.626773 -0.052586
4.46999979 -20.00000000 0.23999999 210 170 65 0.000000 0.000000 0.000000 0.000000 -60.708740 0.000000 6.000000 0.682635 -0.579155 0.445632
4.51000023 -19.97999954 0.19000000 210 170 65 0.000000 0.000000 0.000000 0.000000 -60.708740 0.000000 6.000000 0.702421 -0.708215 0.070966
4.51000023 -19.97999954 0.20000000 210 170 65 0.000000 0.000000 0.000000 0.000000 -60.708740 0.000000 6.000000 0.694712 -0.662771 0.279482
4.50000000 -19.97999954 0.16000000 210 170 65 0.000000 0.000000 0.000000 0.000000 -60.708740 0.000000 6.000000 -0.441457 0.875532 -0.196367
4.50000000 -19.97999954 0.16000000 210 170 65 0.000000 0.000000 0.000000 0.000000 -60.708740 0.000000 6.000000 -0.441457 0.875532 -0.196367
4.51000023 -20.00000000 0.18000001 210 170 65 0.000000 0.000000 0.000000 0.000000 -60.708740 0.000000 6.000000 -0.626232 0.777440 -0.058486
4.46999979 -19.96999931 0.22000000 210 170 65 0.000000 0.000000 0.000000 0.000000 -60.708740 0.000000 6.000000 -0.539707 0.763369 -0.354942
4.48999977 -19.96999931 0.20999999 210 170 65 0.000000 0.000000 0.000000 0.000000 -60.708740 0.000000 6.000000 -0.595791 0.781690 -0.184375
4.46000004 -20.01000023 0.20999999 210 170 65 0.000000 0.000000 0.000000 0.000000 -60.708740 0.000000 6.000000 0.791216 -0.608737 -0.058450
4.48999977 -20.01000023 0.20000000 210 170 65 0.000000 0.000000 0.000000 0.000000 -60.708740 0.000000 6.000000 0.867378 -0.366909 0.336205
4.46000004 -20.00000000 0.19000000 210 170 65 0.000000 0.000000 0.000000 0.000000 -60.708740 0.000000 6.000000 0.864226 -0.498431 0.068412
4.48999977 -19.97999954 0.23000000 210 170 65 0.000000 0.000000 0.000000 0.000000 -60.708740 0.000000 6.000000 -0.605974 0.713775 -0.351171
4.46999979 -20.00000000 0.19000000 210 170 65 0.000000 0.000000 0.000000 0.000000 -60.708740 0.000000 6.000000 0.805925 -0.567913 0.167211
4.48999977 -19.97999954 0.15000001 210 170 65 0.000000 0.000000 0.000000 0.000000 -60.708740 0.000000 6.000000 -0.606557 0.794268 -0.035021
4.46999979 -20.00000000 0.18000001 210 170 65 0.000000 0.000000 0.000000 0.000000 -60.708740 0.000000 6.000000 0.614805 -0.752472 0.236223
4.59999990 -19.95000076 0.12000000 210 170 65 0.000000 0.000000 0.000000 0.000000 -60.708740 0.000000 6.000000 -0.434702 0.855581 -0.281097
4.59999990 -19.95000076 0.14000000 210 170 65 0.000000 0.000000 0.000000 0.000000 -60.708740 0.000000 6.000000 -0.283467 0.838009 -0.466249
4.59999990 -19.95000076 0.14000000 210 170 65 0.000000 0.000000 0.000000 0.000000 -60.708740 0.000000 6.000000 -0.283467 0.838009 -0.466249
4.61000013 -19.95000076 0.12000000 210 170 65 0.000000 0.000000 0.000000 0.000000 -60.708740 0.000000 6.000000 0.012286 0.836786 -0.547392
4.61000013 -19.98999977 -0.01000000 210 170 65 0.000000 0.000000 0.000000 0.000000 -60.708740 0.000000 6.000000 -0.183908 0.972809 -0.140785
4.57000017 -19.96999931 0.03000000 210 170 65 0.000000 0.000000 0.000000 0.000000 -60.708740 0.000000 6.000000 -0.567881 0.795649 -0.210839
4.50000000 -20.00000000 0.07000000 210 170 65 0.000000 0.000000 0.000000 0.000000 -60.708740 0.000000 6.000000 -0.345874 0.931826 -0.109866
4.51000023 -20.01000023 0.08000000 210 170 65 0.000000 0.000000 0.000000 0.000000 -60.708740 0.000000 6.000000 -0.641054 0.750170 -0.162158
4.48000002 -20.00000000 0.14000000 210 170 65 0.000000 0.000000 0.000000 0.000000 -60.708740 0.000000 6.000000 -0.567107 0.573879 -0.590807
4.48999977 -19.97999954 0.14000000 210 170 65 0.000000 0.000000 0.000000 0.000000 -60.708740 0.000000 6.000000 0.610513 -0.576689 0.542866
4.46000004 -20.01000023 0.08000000 210 170 65 0.000000 0.000000 0.000000 0.000000 -60.708740 0.000000 6.000000 0.729550 -0.665847 0.156224
4.48999977 -19.97999954 0.07000000 210 170 65 0.000000 0.000000 0.000000 0.000000 -60.708740 0.000000 6.000000 -0.463477 0.803468 -0.373669
4.50000000 -19.97999954 0.06000000 210 170 65 0.000000 0.000000 0.000000 0.000000 -60.708740 0.000000 6.000000 -0.400259 0.827412 -0.393931
4.50000000 -19.98999977 0.05000000 210 170 65 0.000000 0.000000 0.000000 0.000000 -60.708740 0.000000 6.000000 -0.436175 0.879693 -0.189450
4.48999977 -19.98999977 0.04000000 210 170 65 0.000000 0.000000 0.000000 0.000000 -60.708740 0.000000 6.000000 -0.577625 0.815878 0.026319
4.46999979 -20.04000092 0.28999999 210 170 65 0.000000 0.000000 0.000000 0.000000 -60.708740 0.000000 6.000000 0.775928 -0.383914 0.500546
4.46999979 -20.04999924 0.28000000 210 170 65 0.000000 0.000000 0.000000 0.000000 -60.708740 0.000000 6.000000 0.627887 -0.711821 0.314751
4.46000004 -20.03000069 0.25000000 210 170 65 0.000000 0.000000 0.000000 0.000000 -60.708740 0.000000 6.000000 0.625631 -0.595277 0.504214
4.46999979 -20.04000092 0.27000001 210 170 65 0.000000 0.000000 0.000000 0.000000 -60.708740 0.000000 6.000000 0.826038 -0.490023 0.278457
4.48000002 -20.02000046 0.23000000 210 170 65 0.000000 0.000000 0.000000 0.000000 -60.708740 0.000000 6.000000 -0.569624 0.798695 -0.193947
4.46999979 -20.06999969 0.16000000 210 170 65 0.000000 0.000000 0.000000 0.000000 -60.708740 0.000000 6.000000 0.870564 -0.399578 0.287149
4.48000002 -20.03000069 0.17000000 210 170 65 0.000000 0.000000 0.000000 0.000000 -60.708740 0.000000 6.000000 -0.387561 0.779986 -0.491343
4.46000004 -20.04000092 0.22000000 210 170 65 0.000000 0.000000 0.000000 0.000000 -60.708740 0.000000 6.000000 0.728948 -0.672069 0.130223
4.46999979 -20.14999962 0.31000000 210 170 65 0.000000 0.000000 0.000000 0.000000 -60.708740 0.000000 6.000000 0.978309 0.206883 -0.010519
4.46999979 -20.13999939 0.30000001 210 170 65 0.000000 0.000000 0.000000 0.000000 -60.708740 0.000000 6.000000 0.992181 0.121651 -0.027902
4.46999979 -20.18000031 0.31000000 210 170 65 0.000000 0.000000 0.000000 0.000000 -60.708740 0.000000 6.000000 0.944470 0.235086 -0.229587
4.48000002 -20.17000008 0.25000000 210 170 65 0.000000 0.000000 0.000000 0.000000 -60.708740 0.000000 6.000000 0.706461 0.642091 0.297711
4.48999977 -20.17000008 0.25999999 210 170 65 0.000000 0.000000 0.000000 0.000000 -60.708740 0.000000 6.000000 0.901400 0.422315 0.095540
4.48000002 -20.17000008 0.25000000 210 170 65 0.000000 0.000000 0.000000 0.000000 -60.708740 0.000000 6.000000 0.706461 0.642091 0.297711
4.46000004 -20.12999916 0.20000000 210 170 65 0.000000 0.000000 0.000000 0.000000 -60.708740 0.000000 6.000000 0.994189 0.072691 0.079401
4.46000004 -20.04000092 0.12000000 210 170 65 0.000000 0.000000 0.000000 0.000000 -60.708740 0.000000 6.000000 0.862764 -0.505198 -0.020316
4.46000004 -20.06999969 0.07000000 210 170 65 0.000000 0.000000 0.000000 0.000000 -60.708740 0.000000 6.000000 0.618604 -0.588264 0.520841
4.46999979 -20.02000046 0.07000000 210 170 65 0.000000 0.000000 0.000000 0.000000 -60.708740 0.000000 6.000000 0.645426 -0.403184 0.648744
4.46000004 -20.04000092 0.10000000 210 170 65 0.000000 0.000000 0.000000 0.000000 -60.708740 0.000000 6.000000 -0.639644 0.756487 -0.136318
4.46999979 -20.05999947 0.08000000 210 170 65 0.000000 0.000000 0.000000 0.000000 -60.708740 0.000000 6.000000 0.672332 -0.504668 0.541554
4.48000002 -20.03000069 0.11000000 210 170 65 0.000000 0.000000 0.000000 0.000000 -60.708740 0.000000 6.000000 0.795152 -0.594520 0.119494
4.46999979 -20.02000046 0.04000000 210 170 65 0.000000 0.000000 0.000000 0.000000 -60.708740 0.000000 6.000000 -0.558262 0.735072 -0.384726
4.46999979 -20.02000046 0.05000000 210 170 65 0.000000 0.000000 0.000000 0.000000 -60.708740 0.000000 6.000000 -0.523538 0.807967 -0.270364
4.46999979 -20.02000046 0.04000000 210 170 65 0.000000 0.000000 0.000000 0.000000 -60.708740 0.000000 6.000000 -0.558262 0.735072 -0.384726
4.48000002 -20.02000046 0.01000000 210 170 65 0.000000 0.000000 0.000000 0.000000 -60.708740 0.000000 6.000000 -0.541544 0.840421 -0.020565
4.48000002 -20.02000046 -0.01000000 210 170 65 0.000000 0.000000 0.000000 0.000000 -60.708740 0.000000 6.000000 -0.501807 0.774633 -0.384881
4.46000004 -20.04999924 0.01000000 210 170 65 0.000000 0.000000 0.000000 0.000000 -60.708740 0.000000 6.000000 0.824916 -0.555260 0.105833
4.46000004 -20.04999924 0.00000000 210 170 65 0.000000 0.000000 0.000000 0.000000 -60.708740 0.000000 6.000000 0.781723 -0.557471 0.279525
4.46000004 -20.04000092 0.00000000 210 170 65 0.000000 0.000000 0.000000 0.000000 -60.708740 0.000000 6.000000 0.656933 -0.509081 0.556125
4.46000004 -20.05999947 0.00000000 210 170 65 0.000000 0.000000 0.000000 0.000000 -60.708740 0.000000 6.000000 0.808600 -0.520819 0.273704
4.46000004 -20.06999969 -0.02000000 210 170 65 0.000000 0.000000 0.000000 0.000000 -60.708740 0.000000 6.000000 0.706033 -0.505740 0.495726
4.46000004 -20.05999947 -0.01000000 210 170 65 0.000000 0.000000 0.000000 0.000000 -60.708740 0.000000 6.000000 -0.566266 0.718151 -0.404476
4.46000004 -20.05999947 -0.02000000 210 170 65 0.000000 0.000000 0.000000 0.000000 -60.708740 0.000000 6.000000 0.762424 -0.545514 0.348028
4.46000004 -20.18000031 0.14000000 210 170 65 0.000000 0.000000 0.000000 0.000000 -60.708740 0.000000 6.000000 0.889764 0.456187 -0.014630
4.44999981 -19.97999954 0.22000000 210 170 65 0.000000 0.000000 0.000000 0.000000 -60.708740 0.000000 6.000000 0.740506 -0.460136 0.489822
4.42999983 -20.01000023 0.19000000 210 170 65 0.000000 0.000000 0.000000 0.000000 -60.708740 0.000000 6.000000 -0.582359 0.801670 -0.134846
4.44999981 -20.04000092 0.31000000 210 170 65 0.000000 0.000000 0.000000 0.000000 -60.708740 0.000000 6.000000 0.792734 -0.578895 0.190928
4.44999981 -20.04999924 0.25000000 210 170 65 0.000000 0.000000 0.000000 0.000000 -60.708740 0.000000 6.000000 0.874498 -0.484025 -0.031184
4.44999981 -20.02000046 0.25999999 210 170 65 0.000000 0.000000 0.000000 0.000000 -60.708740 0.000000 6.000000 0.856895 -0.205595 0.472718
4.44999981 -20.04999924 0.25999999 210 170 65 0.000000 0.000000 0.000000 0.000000 -60.708740 0.000000 6.000000 0.916712 -0.399192 -0.016904
4.42999983 -20.09000015 0.31000000 210 170 65 0.000000 0.000000 0.000000 0.000000 -60.708740 0.000000 6.000000 0.919284 0.054545 0.389798
4.44000006 -20.09000015 0.30000001 210 170 65 0.000000 0.000000 0.000000 0.000000 -60.708740 0.000000 6.000000 0.984782 0.033638 0.170510
4.44999981 -20.09000015 0.27000001 210 170 65 0.000000 0.000000 0.000000 0.000000 -60.708740 0.000000 6.000000 0.962196 -0.242821 -0.123358
4.44000006 -20.04000092 0.20999999 210 170 65 0.000000 0.000000 0.000000 0.000000 -60.708740 0.000000 6.000000 0.674240 -0.732742 0.092141
4.40999985 -20.09000015 0.23000000 210 170 65 0.000000 0.000000 0.000000 0.000000 -60.708740 0.000000 6.000000 0.980644 -0.036582 0.192353
4.42999983 -20.09000015 0.22000000 210 170 65 0.000000 0.000000 0.000000 0.000000 -60.708740 0.000000 6.000000 -0.764543 0.389607 -0.513499
4.42999983 -20.07999992 0.22000000 210 170 65 0.000000 0.000000 0.000000 0.000000 -60.708740 0.000000 6.000000 0.928458 -0.104367 0.356474
4.42999983 -20.07999992 0.17000000 210 170 65 0.000000 0.000000 0.000000 0.000000 -60.708740 0.000000 6.000000 0.866180 -0.288727 0.407884
4.42000008 -20.10000038 0.25000000 210 170 65 0.000000 0.000000 0.000000 0.000000 -60.708740 0.000000 6.000000 0.935497 0.239835 0.259471
4.40999985 -20.10000038 0.25999999 210 170 65 0.000000 0.000000 0.000000 0.000000 -60.708740 0.000000 6.000000 0.998254 -0.013589 0.057491
4.44999981 -20.12000084 0.16000000 210 170 65 0.000000 0.000000 0.000000 0.000000 -60.708740 0.000000 6.000000 0.818396 0.137633 0.557930
4.44000006 -20.12000084 0.17000000 210 170 65 0.000000 0.000000 0.000000 0.000000 -60.708740 0.000000 6.000000 0.999413 0.031582 -0.013244
4.42999983 -20.11000061 0.15000001 210 170 65 0.000000 0.000000 0.000000 0.000000 -60.708740 0.000000 6.000000 0.796996 -0.154596 0.583864
4.42999983 -20.12000084 0.18000001 210 170 65 0.000000 0.000000 0.000000 0.000000 -60.708740 0.000000 6.000000 0.795044 -0.164440 0.583837
4.44999981 -20.13999939 0.22000000 210 170 65 0.000000 0.000000 0.000000 0.000000 -60.708740 0.000000 6.000000 0.921535 0.341152 0.185440
4.44999981 -20.14999962 0.16000000 210 170 65 0.000000 0.000000 0.000000 0.000000 -60.708740 0.000000 6.000000 0.900144 0.270487 0.341434
4.42999983 -20.04999924 0.11000000 210 170 65 0.000000 0.000000 0.000000 0.000000 -60.708740 0.000000 6.000000 0.767021 -0.641280 0.020957
4.44000006 -20.03000069 0.12000000 210 170 65 0.000000 0.000000 0.000000 0.000000 -60.708740 0.000000 6.000000 0.658618 -0.381305 0.648714
4.44999981 -20.02000046 0.13000000 210 170 65 0.000000 0.000000 0.000000 0.000000 -60.708740 0.000000 6.000000 -0.540122 0.822972 -0.176029
4.44000006 -20.04000092 0.11000000 210 170 65 0.000000 0.000000 0.000000 0.000000 -60.708740 0.000000 6.000000 0.773939 -0.633223 -0.006898
4.44000006 -20.06999969 0.09000000 210 170 65 0.000000 0.000000 0.000000 0.000000 -60.708740 0.000000 6.000000 0.898456 -0.429093 -0.093039
4.40000010 -20.09000015 0.10000000 210 170 65 0.000000 0.000000 0.000000 0.000000 -60.708740 0.000000 6.000000 0.923544 -0.140268 0.356919
4.44999981 -20.03000069 0.05000000 210 170 65 0.000000 0.000000 0.000000 0.000000 -60.708740 0.000000 6.000000 0.628933 -0.391226 0.671852
4.42000008 -20.07999992 0.06000000 210 170 65 0.000000 0.000000 0.000000 0.000000 -60.708740 0.000000 6.000000 0.654389 -0.450206 0.607527
4.44000006 -20.06999969 0.05000000 210 170 65 0.000000 0.000000 0.000000 0.000000 -60.708740 0.000000 6.000000 0.760803 -0.645748 0.064719
4.44000006 -20.06999969 0.05000000 210 170 65 0.000000 0.000000 0.000000 0.000000 -60.708740 0.000000 6.000000 0.760803 -0.645748 0.064719
4.42999983 -20.09000015 0.05000000 210 170 65 0.000000 0.000000 0.000000 0.000000 -60.708740 0.000000 6.000000 0.732125 -0.431343 0.527196
4.44000006 -20.05999947 0.03000000 210 170 65 0.000000 0.000000 0.000000 0.000000 -60.708740 0.000000 6.000000 0.691833 -0.376318 0.616241
4.44999981 -20.09000015 -0.01000000 210 170 65 0.000000 0.000000 0.000000 0.000000 -60.708740 0.000000 6.000000 0.849430 -0.394323 0.350682
4.44999981 -20.06999969 0.01000000 210 170 65 0.000000 0.000000 0.000000 0.000000 -60.708740 0.000000 6.000000 0.621585 -0.638340 0.454042
4.44000006 -20.06999969 0.01000000 210 170 65 0.000000 0.000000 0.000000 0.000000 -60.708740 0.000000 6.000000 -0.581962 0.719665 -0.378685
4.44000006 -20.09000015 -0.01000000 210 170 65 0.000000 0.000000 0.000000 0.000000 -60.708740 0.000000 6.000000 0.668658 -0.431876 0.605293
4.44999981 -20.05999947 0.01000000 210 170 65 0.000000 0.000000 0.000000 0.000000 -60.708740 0.000000 6.000000 0.715583 -0.566848 0.408196
4.44999981 -20.12999916 0.13000000 210 170 65 0.000000 0.000000 0.000000 0.000000 -60.708740 0.000000 6.000000 0.994066 0.106311 -0.023016
4.44000006 -20.11000061 0.14000000 210 170 65 0.000000 0.000000 0.000000 0.000000 -60.708740 0.000000 6.000000 0.983092 0.010348 0.182821
4.42000008 -20.12999916 0.09000000 210 170 65 0.000000 0.000000 0.000000 0.000000 -60.708740 0.000000 6.000000 0.863312 -0.468061 0.188710
4.42999983 -20.15999985 0.11000000 210 170 65 0.000000 0.000000 0.000000 0.000000 -60.708740 0.000000 6.000000 0.936375 -0.348389 0.042739
4.42999983 -20.15999985 0.07000000 210 170 65 0.000000 0.000000 0.000000 0.000000 -60.708740 0.000000 6.000000 0.985174 -0.052840 0.163217
4.42999983 -20.15999985 0.07000000 210 170 65 0.000000 0.000000 0.000000 0.000000 -60.708740 0.000000 6.000000 0.985174 -0.052840 0.163217
4.40000010 -20.11000061 0.09000000 210 170 65 0.000000 0.000000 0.000000 0.000000 -60.708740 0.000000 6.000000 0.939773 -0.282898 0.191819
4.42999983 -20.10000038 0.04000000 210 170 65 0.000000 0.000000 0.000000 0.000000 -60.708740 0.000000 6.000000 0.880643 -0.176713 0.439591
4.40999985 -20.12000084 0.04000000 210 170 65 0.000000 0.000000 0.000000 0.000000 -60.708740 0.000000 6.000000 0.987751 -0.130369 0.085738
4.44000006 -20.12999916 -0.01000000 210 170 65 0.000000 0.000000 0.000000 0.000000 -60.708740 0.000000 6.000000 0.902354 -0.143073 0.406555
4.42999983 -20.11000061 -0.01000000 210 170 65 0.000000 0.000000 0.000000 0.000000 -60.708740 0.000000 6.000000 0.947937 -0.309025 -0.076930
4.44000006 -20.10000038 0.01000000 210 170 65 0.000000 0.000000 0.000000 0.000000 -60.708740 0.000000 6.000000 0.866627 -0.348184 0.357388
4.44999981 -20.10000038 -0.02000000 210 170 65 0.000000 0.000000 0.000000 0.000000 -60.708740 0.000000 6.000000 -0.585336 0.675388 -0.448591
4.42999983 -20.12000084 0.00000000 210 170 65 0.000000 0.000000 0.000000 0.000000 -60.708740 0.000000 6.000000 0.738915 -0.162349 0.653947
4.44000006 -20.12000084 0.01000000 210 170 65 0.000000 0.000000 0.000000 0.000000 -60.708740 0.000000 6.000000 0.967146 -0.250103 0.045585
4.42999983 -20.17000008 0.05000000 210 170 65 0.000000 0.000000 0.000000 0.000000 -60.708740 0.000000 6.000000 0.971594 0.104324 0.212418
4.44000006 -20.13999939 -0.02000000 210 170 65 0.000000 0.000000 0.000000 0.000000 -60.708740 0.000000 6.000000 0.986797 -0.161640 0.010173
