//X Y Z R G B PointSourceId ScanDirectionFlag NumberOfReturns ReturnNumber GpsTime Intensity Classification Nx Ny Nz
-6.80999994 -10.76000023 -0.61000001 255 109 73 0.000000 0.000000 0.000000 0.000000 -60.708740 0.000000 3.000000 -0.152215 0.974934 0.162279
-6.82999992 -10.77000046 -0.68000001 255 109 73 0.000000 0.000000 0.000000 0.000000 -60.708740 0.000000 3.000000 -0.627208 0.778841 -0.004135
-6.88000011 -10.64000034 -0.57999998 255 109 73 0.000000 0.000000 0.000000 0.000000 -60.708740 0.000000 3.000000 -0.303913 0.952091 -0.034048
-6.90000010 -10.76000023 -0.56000000 255 109 73 0.000000 0.000000 0.000000 0.000000 -60.708740 0.000000 3.000000 -0.414227 0.888465 -0.197599
-6.90999985 -10.72000027 -0.68000001 255 109 73 0.000000 0.000000 0.000000 0.000000 -60.708740 0.000000 3.000000 -0.100550 0.966044 -0.238011
-7.01999998 -10.67000008 -0.38999999 255 109 73 0.000000 0.000000 0.000000 0.000000 -60.708740 0.000000 3.000000 0.142014 0.885075 0.443255
-6.98999977 -10.68999958 -0.40000001 255 109 73 0.000000 0.000000 0.000000 0.000000 -60.708740 0.000000 3.000000 0.478601 0.877659 0.025615
-6.96999979 -10.67000008 -0.47999999 255 109 73 0.000000 0.000000 0.000000 0.000000 -60.708740 0.000000 3.000000 -0.207857 0.942926 0.260165
-7.01999998 -10.72999954 -0.41000000 255 109 73 0.000000 0.000000 0.000000 0.000000 -60.708740 0.000000 3.000000 0.545571 0.837097 0.040258
-7.01000023 -10.75000000 -0.38000000 255 109 73 0.000000 0.000000 0.000000 0.000000 -60.708740 0.000000 3.000000 0.229188 0.966689 -0.113954
-6.98999977 -10.73999977 -0.46000001 255 109 73 0.000000 0.000000 0.000000 0.000000 -60.708740 0.000000 3.000000 -0.090560 0.963002 0.253824
-6.98999977 -10.75000000 -0.44000000 255 109 73 0.000000 0.000000 0.000000 0.000000 -60.708740 0.000000 3.000000 0.032832 0.917969 0.395291
-6.98000002 -10.76000023 -0.47999999 255 109 73 0.000000 0.000000 0.000000 0.000000 -60.708740 0.000000 3.000000 0.341363 0.930865 -0.130239
-6.96999979 -10.77999973 -0.51999998 255 109 73 0.000000 0.000000 0.000000 0.000000 -60.708740 0.000000 3.000000 0.027905 0.969407 -0.243868
-7.00000000 -10.75000000 -0.50000000 255 109 73 0.000000 0.000000 0.000000 0.000000 -60.708740 0.000000 3.000000 -0.130653 0.991423 0.003294
-7.01999998 -10.72000027 -0.50000000 255 109 73 0.000000 0.000000 0.000000 0.000000 -60.708740 0.000000 3.000000 0.350593 0.820165 0.452122
-7.03000021 -10.75000000 -0.50999999 255 109 73 0.000000 0.000000 0.000000 0.000000 -60.708740 0.000000 3.000000 0.026401 0.997963 0.058082
-7.03999996 -10.77999973 -0.50000000 255 109 73 0.000000 0.000000 0.000000 0.000000 -60.708740 0.000000 3.000000 0.467325 0.880246 0.082305
-7.05000019 -10.72999954 -0.37000000 255 109 73 0.000000 0.000000 0.000000 0.000000 -60.708740 0.000000 3.000000 0.569915 0.792321 -0.217772
-6.96999979 -10.64999962 -0.68000001 255 109 73 0.000000 0.000000 0.000000 0.000000 -60.708740 0.000000 3.000000 0.460790 0.825648 0.325541
-6.98999977 -10.71000004 -0.58999997 255 109 73 0.000000 0.000000 0.000000 0.000000 -60.708740 0.000000 3.000000 0.265939 0.881955 0.389142
-6.98000002 -10.77999973 -0.55000001 255 109 73 0.000000 0.000000 0.000000 0.000000 -60.708740 0.000000 3.000000 0.495259 0.848374 0.187031
-7.00000000 -10.76000023 -0.56999999 255 109 73 0.000000 0.000000 0.000000 0.000000 -60.708740 0.000000 3.000000 0.278877 0.864061 0.419077
-7.01000023 -10.71000004 -0.58999997 255 109 73 0.000000 0.000000 0.000000 0.000000 -60.708740 0.000000 3.000000 0.454481 0.872192 0.180910
-7.03999996 -10.76000023 -0.55000001 255 109 73 0.000000 0.000000 0.000000 0.000000 -60.708740 0.000000 3.000000 0.437002 0.881312 0.179770
-7.03000021 -10.77000046 -0.55000001 255 109 73 0.000000 0.000000 0.000000 0.000000 -60.708740 0.000000 3.000000 0.449158 0.888520 -0.093749
-6.98000002 -10.72999954 -0.61000001 255 109 73 0.000000 0.000000 0.000000 0.000000 -60.708740 0.000000 3.000000 -0.096461 0.944787 0.313167
-6.98999977 -10.72999954 -0.62000000 255 109 73 0.000000 0.000000 0.000000 0.000000 -60.708740 0.000000 3.000000 0.224228 0.969119 -0.102613
-6.98000002 -10.69999981 -0.63000000 255 109 73 0.000000 0.000000 0.000000 0.000000 -60.708740 0.000000 3.000000 0.342731 0.929090 -0.139019
-6.86000013 -10.85000038 -0.09000000 255 109 73 0.000000 0.000000 0.000000 0.000000 -60.708740 0.000000 3.000000 -0.637262 0.770546 0.012495
-6.86999989 -10.78999996 -0.06000000 255 109 73 0.000000 0.000000 0.000000 0.000000 -60.708740 0.000000 3.000000 -0.461796 0.862318 0.207733
-6.86999989 -10.78999996 -0.06000000 255 109 73 0.000000 0.000000 0.000000 0.000000 -60.708740 0.000000 3.000000 -0.461796 0.862318 0.207733
-6.82999992 -10.80000019 -0.10000000 255 109 73 0.000000 0.000000 0.000000 0.000000 -60.708740 0.000000 3.000000 -0.436614 0.891596 0.120104
-6.86999989 -10.78999996 -0.14000000 255 109 73 0.000000 0.000000 0.000000 0.000000 -60.708740 0.000000 3.000000 -0.193558 0.943081 0.270432
-6.84999990 -10.80000019 -0.17000000 255 109 73 0.000000 0.000000 0.000000 0.000000 -60.708740 0.000000 3.000000 0.641986 -0.712429 -0.283371
-6.88000011 -10.80000019 -0.06000000 255 109 73 0.000000 0.000000 0.000000 0.000000 -60.708740 0.000000 3.000000 0.611196 -0.760496 0.219284
-6.88000011 -10.78999996 -0.08000000 255 109 73 0.000000 0.000000 0.000000 0.000000 -60.708740 0.000000 3.000000 -0.484727 0.863193 -0.141197
-6.80999994 -10.81999969 -0.33000001 255 109 73 0.000000 0.000000 0.000000 0.000000 -60.708740 0.000000 3.000000 -0.139450 0.989756 -0.030611
-6.86000013 -10.80000019 -0.34000000 255 109 73 0.000000 0.000000 0.000000 0.000000 -60.708740 0.000000 3.000000 -0.589472 0.807590 -0.017946
-6.94000006 -10.85999966 -0.27000001 255 109 73 0.000000 0.000000 0.000000 0.000000 -60.708740 0.000000 3.000000 0.067779 0.955306 0.287743
-6.88000011 -10.78999996 -0.34999999 255 109 73 0.000000 0.000000 0.000000 0.000000 -60.708740 0.000000 3.000000 -0.231613 0.966119 0.113887
-7.01999998 -10.81999969 -0.03000000 255 109 73 0.000000 0.000000 0.000000 0.000000 -60.708740 0.000000 3.000000 -0.228654 0.972087 -0.052578
-7.03000021 -10.81999969 -0.03000000 255 109 73 0.000000 0.000000 0.000000 0.000000 -60.708740 0.000000 3.000000 0.014113 0.927586 0.373344
-7.03000021 -10.81000042 -0.05000000 255 109 73 0.000000 0.000000 0.000000 0.000000 -60.708740 0.000000 3.000000 0.525947 0.850029 0.028838
-7.03999996 -10.81000042 -0.18000001 255 109 73 0.000000 0.000000 0.000000 0.000000 -60.708740 0.000000 3.000000 0.368580 0.883088 0.290351
-7.03999996 -10.88000011 -0.06000000 255 109 73 0.000000 0.000000 0.000000 0.000000 -60.708740 0.000000 3.000000 0.328611 0.869674 0.368350
-7.03000021 -10.93999958 -0.07000000 255 109 73 0.000000 0.000000 0.000000 0.000000 -60.708740 0.000000 3.000000 0.043701 0.960180 -0.275943
-7.00000000 -10.93000031 -0.13000000 255 109 73 0.000000 0.000000 0.000000 0.000000 -60.708740 0.000000 3.000000 -0.119753 0.991098 0.058166
-7.03999996 -10.93999958 -0.12000000 255 109 73 0.000000 0.000000 0.000000 0.000000 -60.708740 0.000000 3.000000 0.364484 0.873846 0.321783
-7.03999996 -10.93999958 -0.14000000 255 109 73 0.000000 0.000000 0.000000 0.000000 -60.708740 0.000000 3.000000 -0.084209 0.990903 0.104973
-7.03999996 -10.90999985 -0.15000001 255 109 73 0.000000 0.000000 0.000000 0.000000 -60.708740 0.000000 3.000000 -0.023434 0.999496 0.021396
-7.09999990 -10.93999958 -0.07000000 255 109 73 0.000000 0.000000 0.000000 0.000000 -60.708740 0.000000 3.000000 0.175763 0.890436 0.419798
-7.09000015 -10.93999958 -0.12000000 255 109 73 0.000000 0.000000 0.000000 0.000000 -60.708740 0.000000 3.000000 -0.161684 0.960902 0.224780
-7.05999994 -10.93999958 -0.16000000 255 109 73 0.000000 0.000000 0.000000 0.000000 -60.708740 0.000000 3.000000 0.162447 0.827137 0.538011
-7.05000019 -10.88000011 -0.13000000 255 109 73 0.000000 0.000000 0.000000 0.000000 -60.708740 0.000000 3.000000 0.003934 0.895728 0.444585
-6.96999979 -10.84000015 -0.27000001 255 109 73 0.000000 0.000000 0.000000 0.000000 -60.708740 0.000000 3.000000 0.275780 0.956815 -0.091927
-7.01000023 -10.81000042 -0.22000000 255 109 73 0.000000 0.000000 0.000000 0.000000 -60.708740 0.000000 3.000000 0.286043 0.955616 -0.070549
-7.01999998 -10.81000042 -0.20999999 255 109 73 0.000000 0.000000 0.000000 0.000000 -60.708740 0.000000 3.000000 -0.071581 0.979078 0.190477
-7.01999998 -10.84000015 -0.20999999 255 109 73 0.000000 0.000000 0.000000 0.000000 -60.708740 0.000000 3.000000 0.035726 0.999299 0.011228
-6.98000002 -10.82999992 -0.33000001 255 109 73 0.000000 0.000000 0.000000 0.000000 -60.708740 0.000000 3.000000 0.429568 0.902755 -0.022470
-7.03000021 -10.82999992 -0.28000000 255 109 73 0.000000 0.000000 0.000000 0.000000 -60.708740 0.000000 3.000000 -0.015366 0.975145 -0.221033
-7.00000000 -10.86999989 -0.22000000 255 109 73 0.000000 0.000000 0.000000 0.000000 -60.708740 0.000000 3.000000 -0.151820 0.923457 0.352390
-7.00000000 -10.90999985 -0.20999999 255 109 73 0.000000 0.000000 0.000000 0.000000 -60.708740 0.000000 3.000000 -0.118518 0.981136 -0.152730
-7.03000021 -10.93000031 -0.22000000 255 109 73 0.000000 0.000000 0.000000 0.000000 -60.708740 0.000000 3.000000 -0.036455 0.998879 0.030206
-7.03000021 -10.93000031 -0.19000000 255 109 73 0.000000 0.000000 0.000000 0.000000 -60.708740 0.000000 3.000000 0.142546 0.879754 0.453556
-7.01000023 -10.92000008 -0.23999999 255 109 73 0.000000 0.000000 0.000000 0.000000 -60.708740 0.000000 3.000000 0.029613 0.994784 -0.097614
-7.03000021 -10.92000008 -0.23999999 255 109 73 0.000000 0.000000 0.000000 0.000000 -60.708740 0.000000 3.000000 0.262887 0.903214 0.339256
-7.00000000 -10.92000008 -0.30000001 255 109 73 0.000000 0.000000 0.000000 0.000000 -60.708740 0.000000 3.000000 -0.287638 0.948537 0.132447
-7.03000021 -10.88000011 -0.34999999 255 109 73 0.000000 0.000000 0.000000 0.000000 -60.708740 0.000000 3.000000 0.088084 0.945258 0.314210
-7.01999998 -10.92000008 -0.28000000 255 109 73 0.000000 0.000000 0.000000 0.000000 -60.708740 0.000000 3.000000 0.235855 0.971239 -0.032657
-7.01000023 -10.93000031 -0.34999999 255 109 73 0.000000 0.000000 0.000000 0.000000 -60.708740 0.000000 3.000000 -0.007186 0.998906 -0.046198
-7.05999994 -10.82999992 -0.22000000 255 109 73 0.000000 0.000000 0.000000 0.000000 -60.708740 0.000000 3.000000 0.053255 0.886226 0.460182
-7.09999990 -10.88000011 -0.20000000 255 109 73 0.000000 0.000000 0.000000 0.000000 -60.708740 0.000000 3.000000 0.628642 0.744076 0.226186
-7.05000019 -10.92000008 -0.20999999 255 109 73 0.000000 0.000000 0.000000 0.000000 -60.708740 0.000000 3.000000 0.477257 0.878738 0.006647
-7.03000021 -10.96000004 -0.05000000 255 109 73 0.000000 0.000000 0.000000 0.000000 -60.708740 0.000000 3.000000 -0.100119 0.993320 -0.057372
-7.03999996 -10.97000027 -0.16000000 255 109 73 0.000000 0.000000 0.000000 0.000000 -60.708740 0.000000 3.000000 -0.017331 0.983257 0.181400
-7.05000019 -10.96000004 -0.09000000 255 109 73 0.000000 0.000000 0.000000 0.000000 -60.708740 0.000000 3.000000 -0.198452 0.977651 0.069397
-7.05999994 -10.97000027 -0.13000000 255 109 73 0.000000 0.000000 0.000000 0.000000 -60.708740 0.000000 3.000000 0.045605 0.998013 -0.043484
-6.82000017 -10.81000042 -0.37000000 255 109 73 0.000000 0.000000 0.000000 0.000000 -60.708740 0.000000 3.000000 -0.140503 0.973394 -0.181008
-6.82000017 -10.81000042 -0.37000000 255 109 73 0.000000 0.000000 0.000000 0.000000 -60.708740 0.000000 3.000000 -0.140503 0.973394 -0.181008
-6.86000013 -10.78999996 -0.40000001 255 109 73 0.000000 0.000000 0.000000 0.000000 -60.708740 0.000000 3.000000 0.590074 -0.755486 -0.284699
-6.80000019 -10.80000019 -0.38999999 255 109 73 0.000000 0.000000 0.000000 0.000000 -60.708740 0.000000 3.000000 -0.568429 0.763777 -0.305831
-6.80999994 -10.81000042 -0.38999999 255 109 73 0.000000 0.000000 0.000000 0.000000 -60.708740 0.000000 3.000000 -0.379606 0.914696 -0.138675
-6.84000015 -10.81000042 -0.51999998 255 109 73 0.000000 0.000000 0.000000 0.000000 -60.708740 0.000000 3.000000 -0.472171 0.794472 0.381927
-6.82000017 -10.80000019 -0.50999999 255 109 73 0.000000 0.000000 0.000000 0.000000 -60.708740 0.000000 3.000000 -0.389637 0.834486 0.389637
-6.80000019 -10.78999996 -0.50000000 255 109 73 0.000000 0.000000 0.000000 0.000000 -60.708740 0.000000 3.000000 -0.184914 0.980164 0.071307
-6.86000013 -10.81999969 -0.50999999 255 109 73 0.000000 0.000000 0.000000 0.000000 -60.708740 0.000000 3.000000 -0.388893 0.911162 -0.136183
-6.88000011 -10.81000042 -0.36000001 255 109 73 0.000000 0.000000 0.000000 0.000000 -60.708740 0.000000 3.000000 -0.055403 0.998306 -0.017771
-6.90000010 -10.81000042 -0.38000000 255 109 73 0.000000 0.000000 0.000000 0.000000 -60.708740 0.000000 3.000000 -0.357424 0.920892 -0.155584
-6.94000006 -10.81000042 -0.36000001 255 109 73 0.000000 0.000000 0.000000 0.000000 -60.708740 0.000000 3.000000 0.079382 0.978231 -0.191738
-6.94999981 -10.81000042 -0.36000001 255 109 73 0.000000 0.000000 0.000000 0.000000 -60.708740 0.000000 3.000000 0.203653 0.966380 -0.156956
-6.94000006 -10.85000038 -0.41000000 255 109 73 0.000000 0.000000 0.000000 0.000000 -60.708740 0.000000 3.000000 -0.165518 0.951394 -0.259716
-6.92000008 -10.80000019 -0.47999999 255 109 73 0.000000 0.000000 0.000000 0.000000 -60.708740 0.000000 3.000000 -0.035552 0.967252 -0.251314
-6.88000011 -10.81000042 -0.44000000 255 109 73 0.000000 0.000000 0.000000 0.000000 -60.708740 0.000000 3.000000 0.002944 0.999991 -0.002944
-6.90999985 -10.80000019 -0.47999999 255 109 73 0.000000 0.000000 0.000000 0.000000 -60.708740 0.000000 3.000000 0.022449 0.977122 -0.211493
-6.88999987 -10.84000015 -0.51999998 255 109 73 0.000000 0.000000 0.000000 0.000000 -60.708740 0.000000 3.000000 -0.496318 0.864690 -0.077330
-6.96000004 -10.84000015 -0.51999998 255 109 73 0.000000 0.000000 0.000000 0.000000 -60.708740 0.000000 3.000000 0.369854 0.929082 -0.003813
-6.86999989 -10.78999996 -0.56000000 255 109 73 0.000000 0.000000 0.000000 0.000000 -60.708740 0.000000 3.000000 0.003676 0.954626 0.297785
-6.86999989 -10.84000015 -0.52999997 255 109 73 0.000000 0.000000 0.000000 0.000000 -60.708740 0.000000 3.000000 -0.573540 0.817117 0.058062
-6.86999989 -10.78999996 -0.56000000 255 109 73 0.000000 0.000000 0.000000 0.000000 -60.708740 0.000000 3.000000 0.003676 0.954626 0.297785
-6.92000008 -10.81999969 -0.55000001 255 109 73 0.000000 0.000000 0.000000 0.000000 -60.708740 0.000000 3.000000 -0.096702 0.944502 0.313951
-6.92000008 -10.82999992 -0.60000002 255 109 73 0.000000 0.000000 0.000000 0.000000 -60.708740 0.000000 3.000000 -0.196241 0.924733 0.326127
-6.92000008 -10.85000038 -0.57999998 255 109 73 0.000000 0.000000 0.000000 0.000000 -60.708740 0.000000 3.000000 -0.008449 0.964394 0.264333
-6.94000006 -10.85000038 -0.55000001 255 109 73 0.000000 0.000000 0.000000 0.000000 -60.708740 0.000000 3.000000 -0.289200 0.905769 0.309752
-6.94999981 -10.84000015 -0.60000002 255 109 73 0.000000 0.000000 0.000000 0.000000 -60.708740 0.000000 3.000000 -0.287525 0.951851 -0.106345
-6.88999987 -10.81000042 -0.68000001 255 109 73 0.000000 0.000000 0.000000 0.000000 -60.708740 0.000000 3.000000 -0.192317 0.939450 0.283634
-6.92000008 -10.81999969 -0.64999998 255 109 73 0.000000 0.000000 0.000000 0.000000 -60.708740 0.000000 3.000000 -0.114054 0.955694 0.271370
-6.90999985 -10.82999992 -0.63999999 255 109 73 0.000000 0.000000 0.000000 0.000000 -60.708740 0.000000 3.000000 -0.022297 0.979883 0.198324
-6.90000010 -10.82999992 -0.66000003 255 109 73 0.000000 0.000000 0.000000 0.000000 -60.708740 0.000000 3.000000 0.035708 0.996569 -0.074662
-6.94999981 -10.84000015 -0.64999998 255 109 73 0.000000 0.000000 0.000000 0.000000 -60.708740 0.000000 3.000000 -0.261476 0.965173 0.008435
-6.92000008 -10.86999989 -0.52999997 255 109 73 0.000000 0.000000 0.000000 0.000000 -60.708740 0.000000 3.000000 0.090184 0.894906 0.437047
-7.00000000 -10.80000019 -0.38999999 255 109 73 0.000000 0.000000 0.000000 0.000000 -60.708740 0.000000 3.000000 0.406810 0.898431 0.165311
-6.96999979 -10.81000042 -0.36000001 255 109 73 0.000000 0.000000 0.000000 0.000000 -60.708740 0.000000 3.000000 -0.138866 0.986302 0.089016
-6.98999977 -10.81000042 -0.36000001 255 109 73 0.000000 0.000000 0.000000 0.000000 -60.708740 0.000000 3.000000 -0.021600 0.987917 0.153474
-7.03999996 -10.84000015 -0.38000000 255 109 73 0.000000 0.000000 0.000000 0.000000 -60.708740 0.000000 3.000000 0.524411 0.849908 0.051467
-6.98999977 -10.85999966 -0.49000001 255 109 73 0.000000 0.000000 0.000000 0.000000 -60.708740 0.000000 3.000000 0.061884 0.976790 0.205065
-7.01999998 -10.81999969 -0.46000001 255 109 73 0.000000 0.000000 0.000000 0.000000 -60.708740 0.000000 3.000000 0.315974 0.936980 -0.149096
-6.96999979 -10.88000011 -0.46000001 255 109 73 0.000000 0.000000 0.000000 0.000000 -60.708740 0.000000 3.000000 -0.072044 0.991467 -0.108638
-6.96999979 -10.84000015 -0.58999997 255 109 73 0.000000 0.000000 0.000000 0.000000 -60.708740 0.000000 3.000000 0.379168 0.910288 0.166152
-6.69999981 -10.47999954 -0.70999998 255 109 73 0.000000 0.000000 0.000000 0.000000 -60.708740 0.000000 3.000000 0.888829 0.429240 0.160423
-6.63999987 -10.47999954 -0.73000002 255 109 73 0.000000 0.000000 0.000000 0.000000 -60.708740 0.000000 3.000000 0.980463 0.051352 -0.189883
-6.69999981 -10.56000042 -0.75000000 255 109 73 0.000000 0.000000 0.000000 0.000000 -60.708740 0.000000 3.000000 0.881180 -0.470054 -0.050706
-6.75000000 -10.48999977 -0.69999999 255 109 73 0.000000 0.000000 0.000000 0.000000 -60.708740 0.000000 3.000000 0.968699 -0.063419 0.239999
-6.71999979 -10.50000000 -0.81000000 255 109 73 0.000000 0.000000 0.000000 0.000000 -60.708740 0.000000 3.000000 0.913839 -0.375955 0.153480
-6.76999998 -10.56000042 -0.76999998 255 109 73 0.000000 0.000000 0.000000 0.000000 -60.708740 0.000000 3.000000 0.720288 -0.691648 -0.052983
-6.73999977 -10.56000042 -0.70999998 255 109 73 0.000000 0.000000 0.000000 0.000000 -60.708740 0.000000 3.000000 0.791716 -0.553417 -0.258679
-6.69999981 -10.52000046 -0.89999998 255 109 73 0.000000 0.000000 0.000000 0.000000 -60.708740 0.000000 3.000000 0.828792 -0.557653 0.046122
-6.71000004 -10.52000046 -0.94999999 255 109 73 0.000000 0.000000 0.000000 0.000000 -60.708740 0.000000 3.000000 0.763155 -0.645961 0.018137
-6.69000006 -10.52999973 -0.92000002 255 109 73 0.000000 0.000000 0.000000 0.000000 -60.708740 0.000000 3.000000 0.951914 -0.142854 0.271022
-6.75000000 -10.48999977 -0.88000000 255 109 73 0.000000 0.000000 0.000000 0.000000 -60.708740 0.000000 3.000000 0.855332 -0.189576 0.482150
-6.71999979 -10.56999969 -0.99000001 255 109 73 0.000000 0.000000 0.000000 0.000000 -60.708740 0.000000 3.000000 -0.577706 0.796051 0.180438
-6.69999981 -10.68000031 -0.75000000 255 109 73 0.000000 0.000000 0.000000 0.000000 -60.708740 0.000000 3.000000 -0.687088 0.726271 -0.020990
-6.69999981 -10.77000046 -0.75999999 255 109 73 0.000000 0.000000 0.000000 0.000000 -60.708740 0.000000 3.000000 -0.433668 0.844020 0.315536
-6.71000004 -10.75000000 -0.81999999 255 109 73 0.000000 0.000000 0.000000 0.000000 -60.708740 0.000000 3.000000 -0.453556 0.879754 0.142546
-6.73000002 -10.68000031 -0.75999999 255 109 73 0.000000 0.000000 0.000000 0.000000 -60.708740 0.000000 3.000000 -0.630575 0.699010 -0.337284
-6.73000002 -10.72000027 -0.72000003 255 109 73 0.000000 0.000000 0.000000 0.000000 -60.708740 0.000000 3.000000 0.856072 -0.479580 -0.192728
-6.71999979 -10.72000027 -0.80000001 255 109 73 0.000000 0.000000 0.000000 0.000000 -60.708740 0.000000 3.000000 -0.515930 0.846243 -0.133002
-6.71000004 -10.64000034 -0.86000001 255 109 73 0.000000 0.000000 0.000000 0.000000 -60.708740 0.000000 3.000000 0.819240 -0.570214 0.060842
-6.69999981 -10.64999962 -0.91000003 255 109 73 0.000000 0.000000 0.000000 0.000000 -60.708740 0.000000 3.000000 -0.660343 0.713672 0.233708
-6.69999981 -10.65999985 -0.98000002 255 109 73 0.000000 0.000000 0.000000 0.000000 -60.708740 0.000000 3.000000 0.800496 -0.578220 0.157696
-6.67000008 -10.72999954 -0.94999999 255 109 73 0.000000 0.000000 0.000000 0.000000 -60.708740 0.000000 3.000000 0.738223 -0.667777 -0.095397
-6.73999977 -10.68000031 -0.99000001 255 109 73 0.000000 0.000000 0.000000 0.000000 -60.708740 0.000000 3.000000 -0.263999 0.937265 0.227681
-6.71999979 -10.69999981 -0.86000001 255 109 73 0.000000 0.000000 0.000000 0.000000 -60.708740 0.000000 3.000000 0.779252 -0.608087 -0.151646
-6.71999979 -10.69999981 -0.93000001 255 109 73 0.000000 0.000000 0.000000 0.000000 -60.708740 0.000000 3.000000 -0.415362 0.909655 0.001294
-6.75000000 -10.77999973 -0.94000000 255 109 73 0.000000 0.000000 0.000000 0.000000 -60.708740 0.000000 3.000000 -0.359102 0.901420 0.241844
-6.78999996 -10.72000027 -0.91000003 255 109 73 0.000000 0.000000 0.000000 0.000000 -60.708740 0.000000 3.000000 -0.579578 0.809085 0.097323
-6.76000023 -10.73999977 -0.92000002 255 109 73 0.000000 0.000000 0.000000 0.000000 -60.708740 0.000000 3.000000 -0.302812 0.908436 -0.288183
-6.73000002 -10.77000046 -0.99000001 255 109 73 0.000000 0.000000 0.000000 0.000000 -60.708740 0.000000 3.000000 0.756894 -0.650613 0.061758
-6.69999981 -10.78999996 -0.92000002 255 109 73 0.000000 0.000000 0.000000 0.000000 -60.708740 0.000000 3.000000 -0.545602 0.838034 -0.004062
-6.80000019 -10.47000027 -0.69999999 255 109 73 0.000000 0.000000 0.000000 0.000000 -60.708740 0.000000 3.000000 0.876155 0.468707 -0.112547
-6.86999989 -10.47999954 -0.70999998 255 109 73 0.000000 0.000000 0.000000 0.000000 -60.708740 0.000000 3.000000 0.926855 0.283324 0.246307
-6.86999989 -10.47000027 -0.72000003 255 109 73 0.000000 0.000000 0.000000 0.000000 -60.708740 0.000000 3.000000 0.814443 0.338160 0.471519
-6.86999989 -10.44999981 -0.75000000 255 109 73 0.000000 0.000000 0.000000 0.000000 -60.708740 0.000000 3.000000 0.948305 0.306536 0.082178
-6.80999994 -10.56999969 -0.70999998 255 109 73 0.000000 0.000000 0.000000 0.000000 -60.708740 0.000000 3.000000 0.941684 -0.244755 0.230927
-6.84999990 -10.59000015 -0.85000002 255 109 73 0.000000 0.000000 0.000000 0.000000 -60.708740 0.000000 3.000000 -0.409604 0.830278 0.377974
-6.90000010 -10.60000038 -0.73000002 255 109 73 0.000000 0.000000 0.000000 0.000000 -60.708740 0.000000 3.000000 0.142509 0.988294 0.054455
-6.94000006 -10.56999969 -0.77999997 255 109 73 0.000000 0.000000 0.000000 0.000000 -60.708740 0.000000 3.000000 0.331052 0.940398 -0.077817
-6.86999989 -10.47999954 -0.91000003 255 109 73 0.000000 0.000000 0.000000 0.000000 -60.708740 0.000000 3.000000 -0.651318 0.758230 -0.029541
-6.86999989 -10.47999954 -0.86000001 255 109 73 0.000000 0.000000 0.000000 0.000000 -60.708740 0.000000 3.000000 0.978231 -0.079382 0.191738
-6.84999990 -10.51000023 -0.89999998 255 109 73 0.000000 0.000000 0.000000 0.000000 -60.708740 0.000000 3.000000 -0.729807 0.569086 -0.378844
-6.84999990 -10.48999977 -0.95999998 255 109 73 0.000000 0.000000 0.000000 0.000000 -60.708740 0.000000 3.000000 -0.469690 0.863816 0.182246
-6.86000013 -10.48999977 -1.00999999 255 109 73 0.000000 0.000000 0.000000 0.000000 -60.708740 0.000000 3.000000 -0.571302 0.820647 0.012330
-6.84999990 -10.53999996 -0.92000002 255 109 73 0.000000 0.000000 0.000000 0.000000 -60.708740 0.000000 3.000000 -0.218004 0.951904 -0.215296
-6.84000015 -10.57999992 -0.88000000 255 109 73 0.000000 0.000000 0.000000 0.000000 -60.708740 0.000000 3.000000 -0.100177 0.967530 0.232055
-6.84999990 -10.52999973 -0.91000003 255 109 73 0.000000 0.000000 0.000000 0.000000 -60.708740 0.000000 3.000000 -0.564402 0.798160 -0.210690
-6.86000013 -10.55000019 -0.88000000 255 109 73 0.000000 0.000000 0.000000 0.000000 -60.708740 0.000000 3.000000 -0.554727 0.810054 0.189975
-6.84000015 -10.59000015 -0.98000002 255 109 73 0.000000 0.000000 0.000000 0.000000 -60.708740 0.000000 3.000000 -0.263309 0.937603 0.227087
-6.88000011 -10.47999954 -0.97000003 255 109 73 0.000000 0.000000 0.000000 0.000000 -60.708740 0.000000 3.000000 -0.203715 0.978996 -0.008149
-6.90000010 -10.52999973 -0.89999998 255 109 73 0.000000 0.000000 0.000000 0.000000 -60.708740 0.000000 3.000000 -0.352063 0.912489 0.208364
-6.88000011 -10.59000015 -0.86000001 255 109 73 0.000000 0.000000 0.000000 0.000000 -60.708740 0.000000 3.000000 -0.280111 0.954982 -0.097713
-6.84999990 -10.77999973 -0.76999998 255 109 73 0.000000 0.000000 0.000000 0.000000 -60.708740 0.000000 3.000000 -0.059267 0.994124 -0.090578
-6.80999994 -10.76000023 -0.73000002 255 109 73 0.000000 0.000000 0.000000 0.000000 -60.708740 0.000000 3.000000 -0.042183 0.999020 0.013375
-6.84000015 -10.77000046 -0.74000001 255 109 73 0.000000 0.000000 0.000000 0.000000 -60.708740 0.000000 3.000000 -0.183266 0.981011 -0.063484
-6.82000017 -10.76000023 -0.70999998 255 109 73 0.000000 0.000000 0.000000 0.000000 -60.708740 0.000000 3.000000 -0.491902 0.868795 0.056811
-6.84999990 -10.77999973 -0.76999998 255 109 73 0.000000 0.000000 0.000000 0.000000 -60.708740 0.000000 3.000000 -0.059267 0.994124 -0.090578
-6.80000019 -10.72999954 -0.85000002 255 109 73 0.000000 0.000000 0.000000 0.000000 -60.708740 0.000000 3.000000 -0.091787 0.969423 -0.227582
-6.82000017 -10.72000027 -0.81999999 255 109 73 0.000000 0.000000 0.000000 0.000000 -60.708740 0.000000 3.000000 -0.480437 0.850932 0.212356
-6.92999983 -10.61999989 -0.70999998 255 109 73 0.000000 0.000000 0.000000 0.000000 -60.708740 0.000000 3.000000 -0.152465 0.988200 -0.014682
-6.96000004 -10.64000034 -0.81999999 255 109 73 0.000000 0.000000 0.000000 0.000000 -60.708740 0.000000 3.000000 0.205922 0.819113 0.535398
-6.88999987 -10.68000031 -0.82999998 255 109 73 0.000000 0.000000 0.000000 0.000000 -60.708740 0.000000 3.000000 -0.031655 0.849193 0.527133
-6.90000010 -10.69999981 -0.72000003 255 109 73 0.000000 0.000000 0.000000 0.000000 -60.708740 0.000000 3.000000 0.078097 0.958925 -0.272698
-6.90999985 -10.71000004 -0.73000002 255 109 73 0.000000 0.000000 0.000000 0.000000 -60.708740 0.000000 3.000000 0.202226 0.935820 0.288696
-6.92999983 -10.69999981 -0.74000001 255 109 73 0.000000 0.000000 0.000000 0.000000 -60.708740 0.000000 3.000000 0.171243 0.844301 0.507772
-6.92000008 -10.77000046 -0.85000002 255 109 73 0.000000 0.000000 0.000000 0.000000 -60.708740 0.000000 3.000000 -0.204317 0.938192 0.279373
-6.92999983 -10.76000023 -0.81000000 255 109 73 0.000000 0.000000 0.000000 0.000000 -60.708740 0.000000 3.000000 0.337334 0.937920 0.080696
-6.96000004 -10.73999977 -0.85000002 255 109 73 0.000000 0.000000 0.000000 0.000000 -60.708740 0.000000 3.000000 0.401776 0.909864 0.103551
-6.80000019 -10.73999977 -0.87000000 255 109 73 0.000000 0.000000 0.000000 0.000000 -60.708740 0.000000 3.000000 -0.355083 0.873229 -0.333747
-6.80999994 -10.72999954 -0.94000000 255 109 73 0.000000 0.000000 0.000000 0.000000 -60.708740 0.000000 3.000000 -0.542866 0.805792 0.236634
-6.96000004 -10.67000008 -0.94000000 255 109 73 0.000000 0.000000 0.000000 0.000000 -60.708740 0.000000 3.000000 0.119827 0.992692 -0.014291
-6.96000004 -10.68000031 -0.95999998 255 109 73 0.000000 0.000000 0.000000 0.000000 -60.708740 0.000000 3.000000 0.400777 0.891104 0.212867
-6.92000008 -10.77999973 -0.93000001 255 109 73 0.000000 0.000000 0.000000 0.000000 -60.708740 0.000000 3.000000 -0.195664 0.980637 -0.008104
-6.90000010 -10.77999973 -0.93000001 255 109 73 0.000000 0.000000 0.000000 0.000000 -60.708740 0.000000 3.000000 0.081847 0.978493 0.189346
-6.92999983 -10.72000027 -0.88999999 255 109 73 0.000000 0.000000 0.000000 0.000000 -60.708740 0.000000 3.000000 0.350115 0.925798 0.142537
-6.94000006 -10.71000004 -1.00999999 255 109 73 0.000000 0.000000 0.000000 0.000000 -60.708740 0.000000 3.000000 0.315742 0.947226 -0.055416
-6.94999981 -10.71000004 -0.99000001 255 109 73 0.000000 0.000000 0.000000 0.000000 -60.708740 0.000000 3.000000 -0.065841 0.994314 0.083696
-6.94999981 -10.76000023 -0.94999999 255 109 73 0.000000 0.000000 0.000000 0.000000 -60.708740 0.000000 3.000000 0.391199 0.837385 0.381772
-6.96999979 -10.60999966 -0.75999999 255 109 73 0.000000 0.000000 0.000000 0.000000 -60.708740 0.000000 3.000000 0.415406 0.793635 0.444501
-6.98999977 -10.60999966 -0.75999999 255 109 73 0.000000 0.000000 0.000000 0.000000 -60.708740 0.000000 3.000000 0.500875 0.865392 0.014851
-7.00000000 -10.55000019 -0.73000002 255 109 73 0.000000 0.000000 0.000000 0.000000 -60.708740 0.000000 3.000000 0.842217 0.426578 0.329699
-7.11999989 -10.55000019 -0.73000002 255 109 73 0.000000 0.000000 0.000000 0.000000 -60.708740 0.000000 3.000000 0.910660 0.011725 0.412989
-7.09000015 -10.55000019 -0.75999999 255 109 73 0.000000 0.000000 0.000000 0.000000 -60.708740 0.000000 3.000000 0.792279 0.607366 0.058319
-7.11999989 -10.53999996 -0.77999997 255 109 73 0.000000 0.000000 0.000000 0.000000 -60.708740 0.000000 3.000000 0.948558 0.316186 0.016247
-6.96999979 -10.61999989 -0.76999998 255 109 73 0.000000 0.000000 0.000000 0.000000 -60.708740 0.000000 3.000000 0.613807 0.789180 0.020878
-7.01999998 -10.67000008 -0.76999998 255 109 73 0.000000 0.000000 0.000000 0.000000 -60.708740 0.000000 3.000000 0.575730 0.817121 -0.029133
-7.01000023 -10.67000008 -0.79000002 255 109 73 0.000000 0.000000 0.000000 0.000000 -60.708740 0.000000 3.000000 0.427147 0.730602 0.532697
-7.03000021 -10.77999973 -0.76999998 255 109 73 0.000000 0.000000 0.000000 0.000000 -60.708740 0.000000 3.000000 0.286323 0.953102 -0.098056
-6.98999977 -10.71000004 -0.72000003 255 109 73 0.000000 0.000000 0.000000 0.000000 -60.708740 0.000000 3.000000 0.390068 0.841231 0.374403
-6.96999979 -10.75000000 -0.70999998 255 109 73 0.000000 0.000000 0.000000 0.000000 -60.708740 0.000000 3.000000 0.443035 0.887494 -0.126785
-6.98999977 -10.71000004 -0.75999999 255 109 73 0.000000 0.000000 0.000000 0.000000 -60.708740 0.000000 3.000000 0.169687 0.980276 0.101324
-7.05999994 -10.64000034 -0.77999997 255 109 73 0.000000 0.000000 0.000000 0.000000 -60.708740 0.000000 3.000000 0.442581 0.751894 0.488649
-7.05000019 -10.65999985 -0.79000002 255 109 73 0.000000 0.000000 0.000000 0.000000 -60.708740 0.000000 3.000000 0.551618 0.780531 0.294090
-7.07000017 -10.61999989 -0.82999998 255 109 73 0.000000 0.000000 0.000000 0.000000 -60.708740 0.000000 3.000000 0.901665 0.416477 0.116389
-6.98999977 -10.76000023 -0.87000000 255 109 73 0.000000 0.000000 0.000000 0.000000 -60.708740 0.000000 3.000000 0.475295 0.791085 0.385070
-6.96999979 -10.77000046 -0.92000002 255 109 73 0.000000 0.000000 0.000000 0.000000 -60.708740 0.000000 3.000000 0.278141 0.930432 -0.238608
-7.00000000 -10.73999977 -0.95999998 255 109 73 0.000000 0.000000 0.000000 0.000000 -60.708740 0.000000 3.000000 0.531595 0.720385 0.445480
-7.00000000 -10.72999954 -0.97000003 255 109 73 0.000000 0.000000 0.000000 0.000000 -60.708740 0.000000 3.000000 0.635587 0.727517 0.258356
-6.90999985 -10.78999996 -0.75999999 255 109 73 0.000000 0.000000 0.000000 0.000000 -60.708740 0.000000 3.000000 -0.309479 0.950808 -0.013672
-6.90999985 -10.78999996 -0.74000001 255 109 73 0.000000 0.000000 0.000000 0.000000 -60.708740 0.000000 3.000000 0.007675 0.992266 0.123896
-6.90000010 -10.78999996 -0.75000000 255 109 73 0.000000 0.000000 0.000000 0.000000 -60.708740 0.000000 3.000000 0.055460 0.945402 0.321153
-6.94000006 -10.81000042 -0.72000003 255 109 73 0.000000 0.000000 0.000000 0.000000 -60.708740 0.000000 3.000000 -0.264131 0.959890 -0.094056
-6.94999981 -10.82999992 -0.69999999 255 109 73 0.000000 0.000000 0.000000 0.000000 -60.708740 0.000000 3.000000 0.360740 0.904041 0.229296
-6.88000011 -10.81999969 -0.74000001 255 109 73 0.000000 0.000000 0.000000 0.000000 -60.708740 0.000000 3.000000 -0.192919 0.980963 0.022215
-6.94999981 -10.81000042 -0.70999998 255 109 73 0.000000 0.000000 0.000000 0.000000 -60.708740 0.000000 3.000000 -0.268591 0.948841 0.166013
-6.88999987 -10.82999992 -0.70999998 255 109 73 0.000000 0.000000 0.000000 0.000000 -60.708740 0.000000 3.000000 -0.182975 0.962266 -0.201405
-6.88999987 -10.78999996 -0.75000000 255 109 73 0.000000 0.000000 0.000000 0.000000 -60.708740 0.000000 3.000000 -0.128125 0.985486 0.111361
-6.96999979 -10.81000042 -0.82999998 255 109 73 0.000000 0.000000 0.000000 0.000000 -60.708740 0.000000 3.000000 -0.093833 0.995489 -0.014021
-6.98000002 -10.81999969 -1.01999998 255 109 73 0.000000 0.000000 0.000000 0.000000 -60.708740 0.000000 3.000000 0.420363 0.797240 0.433248
-7.07000017 -10.25000000 0.52999997 255 109 73 0.000000 0.000000 0.000000 0.000000 -60.708740 0.000000 3.000000 0.279150 0.958710 -0.054314
-7.07000017 -10.25000000 0.52999997 255 109 73 0.000000 0.000000 0.000000 0.000000 -60.708740 0.000000 3.000000 0.279150 0.958710 -0.054314
-7.09999990 -10.31000042 0.56000000 255 109 73 0.000000 0.000000 0.000000 0.000000 -60.708740 0.000000 3.000000 -0.067522 0.995120 0.071950
-7.05999994 -10.31000042 0.56000000 255 109 73 0.000000 0.000000 0.000000 0.000000 -60.708740 0.000000 3.000000 0.183185 0.982106 -0.043728
-7.03999996 -10.34000015 0.40000001 255 109 73 0.000000 0.000000 0.000000 0.000000 -60.708740 0.000000 3.000000 0.044220 0.953883 0.296904
-7.01999998 -10.35000038 0.34000000 255 109 73 0.000000 0.000000 0.000000 0.000000 -60.708740 0.000000 3.000000 -0.339720 0.915955 0.213580
-7.11000013 -10.31999969 0.43000001 255 109 73 0.000000 0.000000 0.000000 0.000000 -60.708740 0.000000 3.000000 -0.183414 0.917072 0.354032
-7.05999994 -10.30000019 0.36000001 255 109 73 0.000000 0.000000 0.000000 0.000000 -60.708740 0.000000 3.000000 -0.179251 0.964294 0.194952
-6.92999983 -10.39999962 0.22000000 255 109 73 0.000000 0.000000 0.000000 0.000000 -60.708740 0.000000 3.000000 0.416179 0.905156 -0.086532
-6.92000008 -10.43999958 0.28000000 255 109 73 0.000000 0.000000 0.000000 0.000000 -60.708740 0.000000 3.000000 0.274869 0.952082 0.134115
-6.94000006 -10.35999966 0.00000000 255 109 73 0.000000 0.000000 0.000000 0.000000 -60.708740 0.000000 3.000000 0.346815 0.909844 0.227824
-6.92000008 -10.40999985 0.10000000 255 109 73 0.000000 0.000000 0.000000 0.000000 -60.708740 0.000000 3.000000 0.347617 0.936887 0.037475
-6.92999983 -10.40999985 0.11000000 255 109 73 0.000000 0.000000 0.000000 0.000000 -60.708740 0.000000 3.000000 0.464714 0.885233 -0.020088
-6.90999985 -10.43000031 0.09000000 255 109 73 0.000000 0.000000 0.000000 0.000000 -60.708740 0.000000 3.000000 0.655631 0.645722 0.391397
-6.92999983 -10.39000034 0.12000000 255 109 73 0.000000 0.000000 0.000000 0.000000 -60.708740 0.000000 3.000000 0.034483 0.993320 -0.110122
-6.94000006 -10.40999985 0.14000000 255 109 73 0.000000 0.000000 0.000000 0.000000 -60.708740 0.000000 3.000000 0.620679 0.714672 0.322494
-6.92000008 -10.40999985 0.09000000 255 109 73 0.000000 0.000000 0.000000 0.000000 -60.708740 0.000000 3.000000 0.100010 0.957241 0.271456
-6.88000011 -10.42000008 0.03000000 255 109 73 0.000000 0.000000 0.000000 0.000000 -60.708740 0.000000 3.000000 0.382151 0.923203 -0.040710
-6.94000006 -10.43999958 0.00000000 255 109 73 0.000000 0.000000 0.000000 0.000000 -60.708740 0.000000 3.000000 0.242309 0.957319 -0.157567
-6.90999985 -10.43000031 0.06000000 255 109 73 0.000000 0.000000 0.000000 0.000000 -60.708740 0.000000 3.000000 0.518586 0.839545 -0.161965
-7.15000010 -10.27000046 0.56999999 255 109 73 0.000000 0.000000 0.000000 0.000000 -60.708740 0.000000 3.000000 -0.147150 0.984589 -0.094511
-7.21000004 -10.27000046 0.55000001 255 109 73 0.000000 0.000000 0.000000 0.000000 -60.708740 0.000000 3.000000 -0.302689 0.874605 0.378742
-7.19999981 -10.22000027 0.63999999 255 109 73 0.000000 0.000000 0.000000 0.000000 -60.708740 0.000000 3.000000 -0.113058 0.986578 -0.117818
-7.19999981 -10.34000015 0.38999999 255 109 73 0.000000 0.000000 0.000000 0.000000 -60.708740 0.000000 3.000000 -0.376905 0.914940 0.144317
-6.78000021 -10.68999958 0.67000002 255 109 73 0.000000 0.000000 0.000000 0.000000 -60.708740 0.000000 3.000000 0.937353 0.230497 0.261230
-6.78000021 -10.73999977 0.69000000 255 109 73 0.000000 0.000000 0.000000 0.000000 -60.708740 0.000000 3.000000 0.970883 -0.035239 0.236949
-6.78999996 -10.71000004 0.72000003 255 109 73 0.000000 0.000000 0.000000 0.000000 -60.708740 0.000000 3.000000 0.983095 -0.180759 0.029155
-6.75000000 -10.75000000 0.66000003 255 109 73 0.000000 0.000000 0.000000 0.000000 -60.708740 0.000000 3.000000 0.969270 0.065776 0.237043
-7.09000015 -10.57999992 0.67000002 255 109 73 0.000000 0.000000 0.000000 0.000000 -60.708740 0.000000 3.000000 -0.327486 0.944229 0.034405
-7.03000021 -10.60999966 0.68000001 255 109 73 0.000000 0.000000 0.000000 0.000000 -60.708740 0.000000 3.000000 0.717851 0.671736 0.182921
-6.96999979 -10.72000027 0.83999997 255 109 73 0.000000 0.000000 0.000000 0.000000 -60.708740 0.000000 3.000000 0.987389 0.126225 0.095554
-6.96999979 -10.72000027 0.85000002 255 109 73 0.000000 0.000000 0.000000 0.000000 -60.708740 0.000000 3.000000 0.995815 0.031493 0.085790
-6.96999979 -10.68000031 0.85000002 255 109 73 0.000000 0.000000 0.000000 0.000000 -60.708740 0.000000 3.000000 0.997548 -0.062812 -0.030874
-7.01000023 -10.64000034 0.75000000 255 109 73 0.000000 0.000000 0.000000 0.000000 -60.708740 0.000000 3.000000 0.963285 0.163379 0.213047
-7.01000023 -10.65999985 0.75000000 255 109 73 0.000000 0.000000 0.000000 0.000000 -60.708740 0.000000 3.000000 0.967914 0.248403 0.037933
-7.01999998 -10.67000008 0.75000000 255 109 73 0.000000 0.000000 0.000000 0.000000 -60.708740 0.000000 3.000000 0.992612 -0.121210 0.005460
-6.98999977 -10.67000008 0.69999999 255 109 73 0.000000 0.000000 0.000000 0.000000 -60.708740 0.000000 3.000000 0.983890 -0.167344 -0.062902
-6.98999977 -10.67000008 0.69000000 255 109 73 0.000000 0.000000 0.000000 0.000000 -60.708740 0.000000 3.000000 0.997680 -0.026562 -0.062687
-6.80999994 -10.84000015 0.66000003 255 109 73 0.000000 0.000000 0.000000 0.000000 -60.708740 0.000000 3.000000 0.727459 -0.684918 0.041123
-6.90000010 -10.85999966 0.75000000 255 109 73 0.000000 0.000000 0.000000 0.000000 -60.708740 0.000000 3.000000 0.723559 -0.690228 0.006944
-6.90999985 -10.81000042 0.79000002 255 109 73 0.000000 0.000000 0.000000 0.000000 -60.708740 0.000000 3.000000 -0.615043 0.739005 0.274942
-6.92999983 -10.85999966 0.75000000 255 109 73 0.000000 0.000000 0.000000 0.000000 -60.708740 0.000000 3.000000 0.743236 -0.660818 -0.104495
-6.92000008 -10.81000042 0.73000002 255 109 73 0.000000 0.000000 0.000000 0.000000 -60.708740 0.000000 3.000000 0.819497 -0.448583 0.356648
-6.94999981 -10.88000011 0.73000002 255 109 73 0.000000 0.000000 0.000000 0.000000 -60.708740 0.000000 3.000000 -0.356030 0.872502 0.334638
-6.98999977 -10.86999989 0.74000001 255 109 73 0.000000 0.000000 0.000000 0.000000 -60.708740 0.000000 3.000000 -0.160554 0.956692 0.242822
-6.96999979 -10.78999996 0.68000001 255 109 73 0.000000 0.000000 0.000000 0.000000 -60.708740 0.000000 3.000000 -0.640053 0.758856 -0.120288
-6.71000004 -10.59000015 0.31999999 255 109 73 0.000000 0.000000 0.000000 0.000000 -60.708740 0.000000 3.000000 0.962702 -0.235154 -0.133817
-6.78999996 -10.52000046 0.40000001 255 109 73 0.000000 0.000000 0.000000 0.000000 -60.708740 0.000000 3.000000 0.757934 0.647794 -0.076808
-6.71999979 -10.77999973 0.55000001 255 109 73 0.000000 0.000000 0.000000 0.000000 -60.708740 0.000000 3.000000 0.936194 -0.293517 -0.193360
-6.76000023 -10.68999958 0.56999999 255 109 73 0.000000 0.000000 0.000000 0.000000 -60.708740 0.000000 3.000000 0.986997 -0.148342 0.061906
-6.73999977 -10.65999985 0.41000000 255 109 73 0.000000 0.000000 0.000000 0.000000 -60.708740 0.000000 3.000000 0.947871 -0.011240 0.318455
-6.76000023 -10.64000034 0.47999999 255 109 73 0.000000 0.000000 0.000000 0.000000 -60.708740 0.000000 3.000000 0.993007 0.041329 0.110582
-6.73999977 -10.77999973 0.40000001 255 109 73 0.000000 0.000000 0.000000 0.000000 -60.708740 0.000000 3.000000 0.833916 -0.551876 -0.004068
-6.76999998 -10.52000046 0.31000000 255 109 73 0.000000 0.000000 0.000000 0.000000 -60.708740 0.000000 3.000000 0.771279 0.342969 0.536192
-6.75000000 -10.50000000 0.25000000 255 109 73 0.000000 0.000000 0.000000 0.000000 -60.708740 0.000000 3.000000 0.845769 0.527362 0.081023
-6.76999998 -10.60000038 0.25999999 255 109 73 0.000000 0.000000 0.000000 0.000000 -60.708740 0.000000 3.000000 0.926548 0.082031 0.367123
-6.71000004 -10.53999996 0.13000000 255 109 73 0.000000 0.000000 0.000000 0.000000 -60.708740 0.000000 3.000000 0.954712 0.125100 -0.269953
-6.78000021 -10.59000015 -0.02000000 255 109 73 0.000000 0.000000 0.000000 0.000000 -60.708740 0.000000 3.000000 0.960155 -0.186734 0.207923
-6.76000023 -10.67000008 0.20000000 255 109 73 0.000000 0.000000 0.000000 0.000000 -60.708740 0.000000 3.000000 0.992266 0.123896 0.007675
-6.78999996 -10.72000027 0.23999999 255 109 73 0.000000 0.000000 0.000000 0.000000 -60.708740 0.000000 3.000000 0.866983 -0.494027 -0.065406
-6.76999998 -10.64999962 0.11000000 255 109 73 0.000000 0.000000 0.000000 0.000000 -60.708740 0.000000 3.000000 0.811923 -0.468722 0.347967
-6.73999977 -10.68999958 0.08000000 255 109 73 0.000000 0.000000 0.000000 0.000000 -60.708740 0.000000 3.000000 0.888310 -0.446267 0.108399
-6.73000002 -10.68000031 0.08000000 255 109 73 0.000000 0.000000 0.000000 0.000000 -60.708740 0.000000 3.000000 0.943667 -0.272554 -0.187638
-6.75000000 -10.68999958 0.01000000 255 109 73 0.000000 0.000000 0.000000 0.000000 -60.708740 0.000000 3.000000 0.838947 -0.406144 0.362237
-6.73000002 -10.65999985 0.06000000 255 109 73 0.000000 0.000000 0.000000 0.000000 -60.708740 0.000000 3.000000 0.886561 -0.391875 0.245853
-6.73000002 -10.67000008 0.06000000 255 109 73 0.000000 0.000000 0.000000 0.000000 -60.708740 0.000000 3.000000 0.946697 -0.192618 0.258190
-6.76000023 -10.69999981 0.13000000 255 109 73 0.000000 0.000000 0.000000 0.000000 -60.708740 0.000000 3.000000 0.844128 -0.519351 -0.133129
-6.71999979 -10.77000046 0.11000000 255 109 73 0.000000 0.000000 0.000000 0.000000 -60.708740 0.000000 3.000000 -0.610625 0.788784 -0.070402
-6.76999998 -10.77000046 0.03000000 255 109 73 0.000000 0.000000 0.000000 0.000000 -60.708740 0.000000 3.000000 0.801463 -0.598004 -0.006874
-6.76999998 -10.85999966 0.55000001 255 109 73 0.000000 0.000000 0.000000 0.000000 -60.708740 0.000000 3.000000 0.755888 -0.597421 0.267809
-6.73999977 -10.82999992 0.41000000 255 109 73 0.000000 0.000000 0.000000 0.000000 -60.708740 0.000000 3.000000 0.826751 -0.490445 0.275584
-6.78999996 -10.85000038 0.03000000 255 109 73 0.000000 0.000000 0.000000 0.000000 -60.708740 0.000000 3.000000 -0.320705 0.925382 0.202030
-6.90000010 -10.55000019 0.50000000 255 109 73 0.000000 0.000000 0.000000 0.000000 -60.708740 0.000000 3.000000 0.763282 0.547045 0.343719
-6.96000004 -10.56000042 0.64999998 255 109 73 0.000000 0.000000 0.000000 0.000000 -60.708740 0.000000 3.000000 0.907052 0.403911 0.118797
-6.86000013 -10.52000046 0.34000000 255 109 73 0.000000 0.000000 0.000000 0.000000 -60.708740 0.000000 3.000000 0.967224 0.242120 -0.076525
-6.82999992 -10.56999969 0.46000001 255 109 73 0.000000 0.000000 0.000000 0.000000 -60.708740 0.000000 3.000000 0.820314 0.571899 0.004095
-6.82999992 -10.55000019 0.34000000 255 109 73 0.000000 0.000000 0.000000 0.000000 -60.708740 0.000000 3.000000 0.848851 0.445223 0.285005
-6.82999992 -10.56000042 0.34999999 255 109 73 0.000000 0.000000 0.000000 0.000000 -60.708740 0.000000 3.000000 0.771143 0.604908 0.198558
-6.88000011 -10.56000042 0.38999999 255 109 73 0.000000 0.000000 0.000000 0.000000 -60.708740 0.000000 3.000000 0.837890 0.410299 0.359994
-6.94999981 -10.60000038 0.36000001 255 109 73 0.000000 0.000000 0.000000 0.000000 -60.708740 0.000000 3.000000 0.970530 0.047731 0.236207
-6.94999981 -10.56999969 0.34999999 255 109 73 0.000000 0.000000 0.000000 0.000000 -60.708740 0.000000 3.000000 0.938086 0.178223 0.297038
-6.80999994 -10.73999977 0.55000001 255 109 73 0.000000 0.000000 0.000000 0.000000 -60.708740 0.000000 3.000000 0.809726 -0.522655 -0.266788
-6.96000004 -10.64999962 0.55000001 255 109 73 0.000000 0.000000 0.000000 0.000000 -60.708740 0.000000 3.000000 0.981040 0.073428 -0.179356
-6.92000008 -10.64999962 0.41999999 255 109 73 0.000000 0.000000 0.000000 0.000000 -60.708740 0.000000 3.000000 0.964910 0.219475 -0.144152
-6.94999981 -10.64000034 0.47999999 255 109 73 0.000000 0.000000 0.000000 0.000000 -60.708740 0.000000 3.000000 0.894185 -0.234226 0.381538
-6.88999987 -10.64000034 0.31999999 255 109 73 0.000000 0.000000 0.000000 0.000000 -60.708740 0.000000 3.000000 0.854730 -0.339720 0.392462
-6.92999983 -10.71000004 0.47999999 255 109 73 0.000000 0.000000 0.000000 0.000000 -60.708740 0.000000 3.000000 -0.655217 0.749029 -0.098209
-6.90999985 -10.77999973 0.47999999 255 109 73 0.000000 0.000000 0.000000 0.000000 -60.708740 0.000000 3.000000 -0.576847 0.803412 -0.147566
-6.88000011 -10.77999973 0.38999999 255 109 73 0.000000 0.000000 0.000000 0.000000 -60.708740 0.000000 3.000000 -0.629524 0.776830 -0.015286
-7.01000023 -10.52000046 0.62000000 255 109 73 0.000000 0.000000 0.000000 0.000000 -60.708740 0.000000 3.000000 0.304862 0.936657 0.172433
-7.03999996 -10.56999969 0.62000000 255 109 73 0.000000 0.000000 0.000000 0.000000 -60.708740 0.000000 3.000000 -0.050996 0.991585 0.118990
-7.11000013 -10.52000046 0.50999999 255 109 73 0.000000 0.000000 0.000000 0.000000 -60.708740 0.000000 3.000000 -0.050187 0.986233 0.157564
-7.11999989 -10.60999966 0.52999997 255 109 73 0.000000 0.000000 0.000000 0.000000 -60.708740 0.000000 3.000000 0.786661 -0.576473 0.221007
-7.09999990 -10.56000042 0.50000000 255 109 73 0.000000 0.000000 0.000000 0.000000 -60.708740 0.000000 3.000000 -0.389324 0.894711 0.218903
-7.00000000 -10.64999962 0.56999999 255 109 73 0.000000 0.000000 0.000000 0.000000 -60.708740 0.000000 3.000000 0.962978 0.266461 -0.040899
-7.00000000 -10.64000034 0.57999998 255 109 73 0.000000 0.000000 0.000000 0.000000 -60.708740 0.000000 3.000000 0.993261 0.115898 -0.001083
-7.01999998 -10.61999989 0.57999998 255 109 73 0.000000 0.000000 0.000000 0.000000 -60.708740 0.000000 3.000000 0.567476 0.822771 0.031912
-6.96999979 -10.64999962 0.49000001 255 109 73 0.000000 0.000000 0.000000 0.000000 -60.708740 0.000000 3.000000 0.900770 -0.364702 0.235811
-7.01000023 -10.72000027 0.49000001 255 109 73 0.000000 0.000000 0.000000 0.000000 -60.708740 0.000000 3.000000 0.433076 -0.813416 -0.388330
-7.13000011 -10.77999973 0.57999998 255 109 73 0.000000 0.000000 0.000000 0.000000 -60.708740 0.000000 3.000000 0.470922 0.882150 0.006633
-7.11999989 -10.72999954 0.50000000 255 109 73 0.000000 0.000000 0.000000 0.000000 -60.708740 0.000000 3.000000 0.541905 0.796364 0.268596
-6.96999979 -10.64000034 0.43000001 255 109 73 0.000000 0.000000 0.000000 0.000000 -60.708740 0.000000 3.000000 0.971712 -0.210475 0.107128
-7.01000023 -10.67000008 0.47999999 255 109 73 0.000000 0.000000 0.000000 0.000000 -60.708740 0.000000 3.000000 0.913554 -0.343841 -0.217239
-7.05999994 -10.64999962 0.47999999 255 109 73 0.000000 0.000000 0.000000 0.000000 -60.708740 0.000000 3.000000 0.936317 0.305652 0.172880
-7.05000019 -10.67000008 0.44000000 255 109 73 0.000000 0.000000 0.000000 0.000000 -60.708740 0.000000 3.000000 0.087219 0.996021 0.018305
-7.05999994 -10.73999977 0.41999999 255 109 73 0.000000 0.000000 0.000000 0.000000 -60.708740 0.000000 3.000000 0.107283 0.960379 0.257221
-7.05999994 -10.73999977 0.44000000 255 109 73 0.000000 0.000000 0.000000 0.000000 -60.708740 0.000000 3.000000 -0.085297 0.882329 0.462838
-7.05000019 -10.77000046 0.34000000 255 109 73 0.000000 0.000000 0.000000 0.000000 -60.708740 0.000000 3.000000 -0.197636 0.947289 0.252156
-6.90000010 -10.47999954 0.20000000 255 109 73 0.000000 0.000000 0.000000 0.000000 -60.708740 0.000000 3.000000 0.880491 0.415663 0.227944
-6.94999981 -10.56000042 0.25000000 255 109 73 0.000000 0.000000 0.000000 0.000000 -60.708740 0.000000 3.000000 0.869113 0.421709 0.258467
-6.92999983 -10.57999992 0.20999999 255 109 73 0.000000 0.000000 0.000000 0.000000 -60.708740 0.000000 3.000000 0.828843 0.479199 0.288768
-6.82000017 -10.46000004 0.01000000 255 109 73 0.000000 0.000000 0.000000 0.000000 -60.708740 0.000000 3.000000 0.529663 0.774370 0.346132
-6.90000010 -10.46000004 0.02000000 255 109 73 0.000000 0.000000 0.000000 0.000000 -60.708740 0.000000 3.000000 0.675974 0.579168 0.455657
