//X Y Z R G B PointSourceId ScanDirectionFlag NumberOfReturns ReturnNumber GpsTime Intensity Classification Nx Ny Nz
5.21000004 10.61999989 -0.69000000 17 88 203 97.000000 1.000000 4.000000 1.000000 -60.708740 114.000000 130.000000 0.984874 0.084554 0.151244
5.19999981 10.65999985 -0.63999999 17 88 203 97.000000 1.000000 4.000000 1.000000 -60.708740 114.000000 130.000000 0.894051 -0.430783 -0.122879
5.19000006 10.64000034 -0.64999998 17 88 203 97.000000 1.000000 4.000000 1.000000 -60.708740 114.000000 130.000000 0.926750 -0.243432 -0.286139
5.13999987 10.60999966 -0.60000002 17 88 203 97.000000 1.000000 4.000000 1.000000 -60.708740 114.000000 130.000000 0.947710 0.313325 -0.060602
5.19999981 10.57999992 -0.63999999 17 88 203 97.000000 1.000000 4.000000 1.000000 -60.708740 114.000000 130.000000 0.921992 0.245195 0.299683
5.19999981 10.61999989 -0.61000001 17 88 203 97.000000 1.000000 4.000000 1.000000 -60.708740 114.000000 130.000000 0.873229 -0.333747 -0.355083
5.19000006 10.57999992 -0.67000002 17 88 203 97.000000 1.000000 4.000000 1.000000 -60.708740 114.000000 130.000000 0.980288 0.196990 -0.015153
5.19999981 10.57999992 -0.64999998 17 88 203 97.000000 1.000000 4.000000 1.000000 -60.708740 114.000000 130.000000 0.977984 0.049199 0.202797
5.19999981 10.59000015 -0.66000003 17 88 203 97.000000 1.000000 4.000000 1.000000 -60.708740 114.000000 130.000000 0.999445 0.001009 0.033281
5.19999981 10.60999966 -0.64999998 17 88 203 97.000000 1.000000 4.000000 1.000000 -60.708740 114.000000 130.000000 0.990561 -0.130486 0.041983
5.19999981 10.60000038 -0.66000003 17 88 203 97.000000 1.000000 4.000000 1.000000 -60.708740 114.000000 130.000000 0.899455 0.285988 0.330442
5.19999981 10.60000038 -0.64999998 17 88 203 97.000000 1.000000 4.000000 1.000000 -60.708740 114.000000 130.000000 0.939604 0.069649 0.335103
5.19000006 10.57999992 -0.66000003 17 88 203 97.000000 1.000000 4.000000 1.000000 -60.708740 114.000000 130.000000 0.956974 0.265753 0.116513
5.19000006 10.59000015 -0.69000000 17 88 203 97.000000 1.000000 4.000000 1.000000 -60.708740 114.000000 130.000000 0.830689 0.552372 0.069579
5.17999983 10.60999966 -0.68000001 17 88 203 97.000000 1.000000 4.000000 1.000000 -60.708740 114.000000 130.000000 0.858918 0.509246 0.054116
5.17999983 10.60999966 -0.69000000 17 88 203 97.000000 1.000000 4.000000 1.000000 -60.708740 114.000000 130.000000 0.861883 0.493532 -0.116548
5.19999981 10.56999969 -0.63999999 17 88 203 97.000000 1.000000 4.000000 1.000000 -60.708740 114.000000 130.000000 0.971846 -0.212473 0.101836
5.19999981 10.56999969 -0.67000002 17 88 203 97.000000 1.000000 4.000000 1.000000 -60.708740 114.000000 130.000000 0.996210 -0.081125 -0.031368
5.28999996 10.51000023 -0.43000001 17 88 203 97.000000 1.000000 4.000000 1.000000 -60.708740 114.000000 130.000000 0.561354 -0.418946 -0.713698
5.26000023 10.47999954 -0.41000000 17 88 203 97.000000 1.000000 4.000000 1.000000 -60.708740 114.000000 130.000000 0.795366 -0.508460 -0.329941
5.25000000 10.47000027 -0.43000001 17 88 203 97.000000 1.000000 4.000000 1.000000 -60.708740 114.000000 130.000000 0.791825 -0.306257 -0.528412
5.26000023 10.46000004 -0.41999999 17 88 203 97.000000 1.000000 4.000000 1.000000 -60.708740 114.000000 130.000000 -0.540796 0.130436 0.830979
5.26000023 10.47999954 -0.43000001 17 88 203 97.000000 1.000000 4.000000 1.000000 -60.708740 114.000000 130.000000 0.700766 -0.574860 -0.422448
5.28000021 10.51000023 -0.44999999 17 88 203 97.000000 1.000000 4.000000 1.000000 -60.708740 114.000000 130.000000 -0.456779 0.424268 0.781889
5.25000000 10.52000046 -0.47000000 17 88 203 97.000000 1.000000 4.000000 1.000000 -60.708740 114.000000 130.000000 0.550650 -0.454161 -0.700373
5.25000000 10.51000023 -0.46000001 17 88 203 97.000000 1.000000 4.000000 1.000000 -60.708740 114.000000 130.000000 -0.564262 0.352867 0.746387
5.25000000 10.52999973 -0.47000000 17 88 203 97.000000 1.000000 4.000000 1.000000 -60.708740 114.000000 130.000000 -0.366387 0.688412 0.625979
5.28000021 10.52000046 -0.46000001 17 88 203 97.000000 1.000000 4.000000 1.000000 -60.708740 114.000000 130.000000 -0.269041 0.386277 0.882274
5.28000021 10.50000000 -0.44999999 17 88 203 97.000000 1.000000 4.000000 1.000000 -60.708740 114.000000 130.000000 -0.189786 0.485673 0.853290
5.26999998 10.52999973 -0.46000001 17 88 203 97.000000 1.000000 4.000000 1.000000 -60.708740 114.000000 130.000000 -0.482803 0.526239 0.699981
5.28999996 10.52999973 -0.44000000 17 88 203 97.000000 1.000000 4.000000 1.000000 -60.708740 114.000000 130.000000 -0.576224 0.330885 0.747316
5.25000000 10.50000000 -0.46000001 17 88 203 97.000000 1.000000 4.000000 1.000000 -60.708740 114.000000 130.000000 0.639575 -0.301261 -0.707238
5.25000000 10.52999973 -0.47000000 17 88 203 97.000000 1.000000 4.000000 1.000000 -60.708740 114.000000 130.000000 -0.366387 0.688412 0.625979
5.26000023 10.50000000 -0.44999999 17 88 203 97.000000 1.000000 4.000000 1.000000 -60.708740 114.000000 130.000000 -0.413306 0.545037 0.729461
5.25000000 10.52999973 -0.47000000 17 88 203 97.000000 1.000000 4.000000 1.000000 -60.708740 114.000000 130.000000 -0.366387 0.688412 0.625979
5.25000000 10.48999977 -0.46000001 17 88 203 97.000000 1.000000 4.000000 1.000000 -60.708740 114.000000 130.000000 0.679900 -0.202886 -0.704680
5.25000000 10.47999954 -0.44000000 17 88 203 97.000000 1.000000 4.000000 1.000000 -60.708740 114.000000 130.000000 0.764655 -0.476477 -0.433905
5.25000000 10.47000027 -0.44000000 17 88 203 97.000000 1.000000 4.000000 1.000000 -60.708740 114.000000 130.000000 0.810186 -0.436254 -0.391510
5.23999977 10.51000023 -0.47000000 17 88 203 97.000000 1.000000 4.000000 1.000000 -60.708740 114.000000 130.000000 0.686794 -0.329596 -0.647827
5.23999977 10.50000000 -0.47000000 17 88 203 97.000000 1.000000 4.000000 1.000000 -60.708740 114.000000 130.000000 0.696932 -0.223958 -0.681270
5.28000021 10.43000031 -0.36000001 17 88 203 97.000000 1.000000 4.000000 1.000000 -60.708740 114.000000 130.000000 -0.327196 0.234947 0.915283
5.26000023 10.42000008 -0.38999999 17 88 203 97.000000 1.000000 4.000000 1.000000 -60.708740 114.000000 130.000000 0.686002 -0.416916 -0.596307
5.28000021 10.42000008 -0.36000001 17 88 203 97.000000 1.000000 4.000000 1.000000 -60.708740 114.000000 130.000000 0.684258 -0.234378 -0.690550
5.25000000 10.43999958 -0.41000000 17 88 203 97.000000 1.000000 4.000000 1.000000 -60.708740 114.000000 130.000000 0.850169 -0.454955 -0.265008
5.26999998 10.43000031 -0.41000000 17 88 203 97.000000 1.000000 4.000000 1.000000 -60.708740 114.000000 130.000000 0.555026 -0.642750 -0.528033
5.28000021 10.40999985 -0.36000001 17 88 203 97.000000 1.000000 4.000000 1.000000 -60.708740 114.000000 130.000000 0.683103 -0.258343 -0.683103
5.26000023 10.40999985 -0.38999999 17 88 203 97.000000 1.000000 4.000000 1.000000 -60.708740 114.000000 130.000000 0.633865 -0.633865 -0.443204
5.26000023 10.40999985 -0.37000000 17 88 203 97.000000 1.000000 4.000000 1.000000 -60.708740 114.000000 130.000000 -0.667845 0.574113 0.473685
5.48000002 10.71000004 -0.89999998 17 88 203 97.000000 1.000000 4.000000 1.000000 -60.708740 114.000000 130.000000 0.573760 -0.597455 -0.560220
5.46000004 10.76000023 -1.00000000 17 88 203 97.000000 1.000000 4.000000 1.000000 -60.708740 114.000000 130.000000 0.707623 -0.487844 -0.511154
5.46000004 10.76000023 -1.00000000 17 88 203 97.000000 1.000000 4.000000 1.000000 -60.708740 114.000000 130.000000 0.707623 -0.487844 -0.511154
5.48999977 10.73999977 -1.01999998 17 88 203 97.000000 1.000000 4.000000 1.000000 -60.708740 114.000000 130.000000 -0.377080 0.693235 0.614196
5.50000000 10.72000027 -0.99000001 17 88 203 97.000000 1.000000 4.000000 1.000000 -60.708740 114.000000 130.000000 0.648873 -0.413221 -0.638915
5.38000011 10.76000023 -0.81999999 17 88 203 97.000000 1.000000 4.000000 1.000000 -60.708740 114.000000 130.000000 0.934399 -0.289119 -0.208110
5.40999985 10.73999977 -0.81000000 17 88 203 97.000000 1.000000 4.000000 1.000000 -60.708740 114.000000 130.000000 0.861743 -0.495895 -0.107182
5.40999985 10.72000027 -0.81000000 17 88 203 97.000000 1.000000 4.000000 1.000000 -60.708740 114.000000 130.000000 0.895828 -0.153366 -0.417098
5.36999989 10.77000046 -0.76999998 17 88 203 97.000000 1.000000 4.000000 1.000000 -60.708740 114.000000 130.000000 0.975077 -0.072364 -0.209734
5.34000015 10.72000027 -0.72000003 17 88 203 97.000000 1.000000 4.000000 1.000000 -60.708740 114.000000 130.000000 0.665505 0.564925 0.487814
5.34999990 10.72999954 -0.72000003 17 88 203 97.000000 1.000000 4.000000 1.000000 -60.708740 114.000000 130.000000 0.666457 0.216950 0.713280
5.32000017 10.75000000 -0.74000001 17 88 203 97.000000 1.000000 4.000000 1.000000 -60.708740 114.000000 130.000000 0.337027 0.708245 0.620325
5.32999992 10.72000027 -0.70999998 17 88 203 97.000000 1.000000 4.000000 1.000000 -60.708740 114.000000 130.000000 0.552596 0.495489 0.670170
5.32000017 10.72999954 -0.74000001 17 88 203 97.000000 1.000000 4.000000 1.000000 -60.708740 114.000000 130.000000 0.026283 0.571313 0.820311
5.36999989 10.73999977 -0.77999997 17 88 203 97.000000 1.000000 4.000000 1.000000 -60.708740 114.000000 130.000000 0.978225 -0.187320 -0.089375
5.32000017 10.72999954 -0.79000002 17 88 203 97.000000 1.000000 4.000000 1.000000 -60.708740 114.000000 130.000000 0.160791 0.803957 0.572538
5.40999985 10.78999996 -0.92000002 17 88 203 97.000000 1.000000 4.000000 1.000000 -60.708740 114.000000 130.000000 -0.580775 0.100435 0.807845
5.42999983 10.76000023 -0.91000003 17 88 203 97.000000 1.000000 4.000000 1.000000 -60.708740 114.000000 130.000000 -0.681532 0.665421 0.304514
5.42999983 10.71000004 -0.88000000 17 88 203 97.000000 1.000000 4.000000 1.000000 -60.708740 114.000000 130.000000 0.843089 -0.500443 -0.196871
5.44999981 10.73999977 -0.93000001 17 88 203 97.000000 1.000000 4.000000 1.000000 -60.708740 114.000000 130.000000 0.614786 -0.510356 -0.601311
5.40999985 10.75000000 -0.86000001 17 88 203 97.000000 1.000000 4.000000 1.000000 -60.708740 114.000000 130.000000 0.818452 -0.357576 -0.449751
5.36000013 10.81000042 -0.94000000 17 88 203 97.000000 1.000000 4.000000 1.000000 -60.708740 114.000000 130.000000 -0.467289 0.447614 0.762419
5.32999992 10.78999996 -0.88000000 17 88 203 97.000000 1.000000 4.000000 1.000000 -60.708740 114.000000 130.000000 -0.427375 0.459875 0.778374
5.36000013 10.80000019 -0.98000002 17 88 203 97.000000 1.000000 4.000000 1.000000 -60.708740 114.000000 130.000000 -0.369091 0.595467 0.713576
5.34999990 10.81000042 -0.95999998 17 88 203 97.000000 1.000000 4.000000 1.000000 -60.708740 114.000000 130.000000 -0.242818 0.603129 0.759786
5.34000015 10.80000019 -0.95999998 17 88 203 97.000000 1.000000 4.000000 1.000000 -60.708740 114.000000 130.000000 -0.366616 0.776839 0.511971
5.34999990 10.80000019 -0.94999999 17 88 203 97.000000 1.000000 4.000000 1.000000 -60.708740 114.000000 130.000000 -0.061006 0.810103 0.583104
5.34999990 10.80000019 -0.94999999 17 88 203 97.000000 1.000000 4.000000 1.000000 -60.708740 114.000000 130.000000 -0.061006 0.810103 0.583104
5.34000015 10.80000019 -0.95999998 17 88 203 97.000000 1.000000 4.000000 1.000000 -60.708740 114.000000 130.000000 -0.366616 0.776839 0.511971
5.36000013 10.81000042 -0.95999998 17 88 203 97.000000 1.000000 4.000000 1.000000 -60.708740 114.000000 130.000000 0.001381 0.664449 0.747332
5.36000013 10.81999969 -1.01999998 17 88 203 97.000000 1.000000 4.000000 1.000000 -60.708740 114.000000 130.000000 -0.477514 0.774126 0.415583
5.36000013 10.81000042 -1.01999998 17 88 203 97.000000 1.000000 4.000000 1.000000 -60.708740 114.000000 130.000000 -0.289291 0.843121 0.453274
5.32000017 10.81000042 -0.95999998 17 88 203 97.000000 1.000000 4.000000 1.000000 -60.708740 114.000000 130.000000 0.122023 0.475173 0.871390
5.32000017 10.80000019 -0.94999999 17 88 203 97.000000 1.000000 4.000000 1.000000 -60.708740 114.000000 130.000000 -0.061353 0.614955 0.786172
5.32000017 10.78999996 -1.00000000 17 88 203 97.000000 1.000000 4.000000 1.000000 -60.708740 114.000000 130.000000 -0.006641 0.468854 0.883251
5.30999994 10.80000019 -1.01999998 17 88 203 97.000000 1.000000 4.000000 1.000000 -60.708740 114.000000 130.000000 -0.272469 0.724990 0.632574
5.32999992 10.75000000 -0.88000000 17 88 203 97.000000 1.000000 4.000000 1.000000 -60.708740 114.000000 130.000000 -0.130231 0.456522 0.880129
5.32000017 10.76000023 -0.98000002 17 88 203 97.000000 1.000000 4.000000 1.000000 -60.708740 114.000000 130.000000 -0.261376 0.742942 0.616214
5.32000017 10.73999977 -0.94999999 17 88 203 97.000000 1.000000 4.000000 1.000000 -60.708740 114.000000 130.000000 0.134606 0.815029 0.563568
5.51999998 10.75000000 -1.10000002 17 88 203 97.000000 1.000000 4.000000 1.000000 -60.708740 114.000000 130.000000 0.645970 -0.548146 -0.531280
5.51000023 10.72999954 -1.02999997 17 88 203 97.000000 1.000000 4.000000 1.000000 -60.708740 114.000000 130.000000 0.789635 -0.500156 -0.355416
5.46000004 10.65999985 -0.83999997 17 88 203 97.000000 1.000000 4.000000 1.000000 -60.708740 114.000000 130.000000 -0.625710 0.079478 0.775996
5.46000004 10.68000031 -0.85000002 17 88 203 97.000000 1.000000 4.000000 1.000000 -60.708740 114.000000 130.000000 0.938347 -0.037328 -0.343674
5.48999977 10.57999992 -0.76999998 17 88 203 97.000000 1.000000 4.000000 1.000000 -60.708740 114.000000 130.000000 0.763893 -0.519578 -0.382761
5.46000004 10.65999985 -0.93000001 17 88 203 97.000000 1.000000 4.000000 1.000000 -60.708740 114.000000 130.000000 -0.576548 0.106552 0.810086
5.46999979 10.67000008 -0.98000002 17 88 203 97.000000 1.000000 4.000000 1.000000 -60.708740 114.000000 130.000000 0.590284 -0.147945 -0.793522
5.46999979 10.64000034 -0.98000002 17 88 203 97.000000 1.000000 4.000000 1.000000 -60.708740 114.000000 130.000000 0.822554 -0.456273 -0.339442
5.46999979 10.64999962 -0.98000002 17 88 203 97.000000 1.000000 4.000000 1.000000 -60.708740 114.000000 130.000000 0.762334 -0.129791 -0.634035
5.46999979 10.64000034 -0.98000002 17 88 203 97.000000 1.000000 4.000000 1.000000 -60.708740 114.000000 130.000000 0.822554 -0.456273 -0.339442
5.46000004 10.64999962 -0.99000001 17 88 203 97.000000 1.000000 4.000000 1.000000 -60.708740 114.000000 130.000000 -0.278014 0.586212 0.760963
5.40999985 10.68000031 -0.69999999 17 88 203 97.000000 1.000000 4.000000 1.000000 -60.708740 114.000000 130.000000 0.992951 -0.117659 -0.014295
5.40000010 10.68999958 -0.75999999 17 88 203 97.000000 1.000000 4.000000 1.000000 -60.708740 114.000000 130.000000 0.865145 -0.141040 -0.481282
5.38999987 10.64999962 -0.70999998 17 88 203 97.000000 1.000000 4.000000 1.000000 -60.708740 114.000000 130.000000 0.788256 -0.029402 -0.614644
5.40999985 10.64000034 -0.69999999 17 88 203 97.000000 1.000000 4.000000 1.000000 -60.708740 114.000000 130.000000 0.990509 -0.120794 -0.065574
5.40999985 10.64999962 -0.69999999 17 88 203 97.000000 1.000000 4.000000 1.000000 -60.708740 114.000000 130.000000 0.992565 0.109532 -0.053072
5.44000006 10.68999958 -0.79000002 17 88 203 97.000000 1.000000 4.000000 1.000000 -60.708740 114.000000 130.000000 0.859852 -0.390561 -0.328812
5.42999983 10.63000011 -0.77999997 17 88 203 97.000000 1.000000 4.000000 1.000000 -60.708740 114.000000 130.000000 0.874643 -0.244540 -0.418568
5.42000008 10.60999966 -0.70999998 17 88 203 97.000000 1.000000 4.000000 1.000000 -60.708740 114.000000 130.000000 0.910028 -0.324698 -0.257720
5.42000008 10.60000038 -0.70999998 17 88 203 97.000000 1.000000 4.000000 1.000000 -60.708740 114.000000 130.000000 0.962540 -0.193033 -0.190407
5.42000008 10.60999966 -0.72000003 17 88 203 97.000000 1.000000 4.000000 1.000000 -60.708740 114.000000 130.000000 0.920496 -0.382526 -0.079749
5.44999981 10.61999989 -0.75000000 17 88 203 97.000000 1.000000 4.000000 1.000000 -60.708740 114.000000 130.000000 0.786661 -0.576473 -0.221007
5.44000006 10.60000038 -0.74000001 17 88 203 97.000000 1.000000 4.000000 1.000000 -60.708740 114.000000 130.000000 0.960764 -0.210126 -0.181052
5.42999983 10.59000015 -0.75000000 17 88 203 97.000000 1.000000 4.000000 1.000000 -60.708740 114.000000 130.000000 0.854770 -0.429695 -0.291084
5.42999983 10.56999969 -0.69999999 17 88 203 97.000000 1.000000 4.000000 1.000000 -60.708740 114.000000 130.000000 0.651137 -0.450272 -0.610964
5.38999987 10.53999996 -0.73000002 17 88 203 97.000000 1.000000 4.000000 1.000000 -60.708740 114.000000 130.000000 0.636797 -0.633454 -0.439574
5.42999983 10.61999989 -0.85000002 17 88 203 97.000000 1.000000 4.000000 1.000000 -60.708740 114.000000 130.000000 0.693779 -0.638537 -0.333079
5.44999981 10.61999989 -0.81999999 17 88 203 97.000000 1.000000 4.000000 1.000000 -60.708740 114.000000 130.000000 -0.442819 0.532378 0.721447
5.42000008 10.60000038 -0.83999997 17 88 203 97.000000 1.000000 4.000000 1.000000 -60.708740 114.000000 130.000000 0.664225 -0.627784 -0.405823
5.42000008 10.59000015 -0.82999998 17 88 203 97.000000 1.000000 4.000000 1.000000 -60.708740 114.000000 130.000000 -0.676841 0.143207 0.722065
5.44000006 10.60999966 -0.82999998 17 88 203 97.000000 1.000000 4.000000 1.000000 -60.708740 114.000000 130.000000 0.763656 -0.439879 -0.472584
5.40999985 10.61999989 -0.85000002 17 88 203 97.000000 1.000000 4.000000 1.000000 -60.708740 114.000000 130.000000 0.639612 -0.659445 -0.395006
5.38999987 10.56000042 -0.80000001 17 88 203 97.000000 1.000000 4.000000 1.000000 -60.708740 114.000000 130.000000 0.286593 -0.693267 -0.661245
5.38999987 10.56000042 -0.80000001 17 88 203 97.000000 1.000000 4.000000 1.000000 -60.708740 114.000000 130.000000 0.286593 -0.693267 -0.661245
5.40999985 10.56000042 -0.80000001 17 88 203 97.000000 1.000000 4.000000 1.000000 -60.708740 114.000000 130.000000 0.474435 -0.672256 -0.568316
5.36999989 10.68999958 -0.70999998 17 88 203 97.000000 1.000000 4.000000 1.000000 -60.708740 114.000000 130.000000 0.984199 -0.026663 -0.175046
5.34000015 10.68999958 -0.69999999 17 88 203 97.000000 1.000000 4.000000 1.000000 -60.708740 114.000000 130.000000 0.691357 0.561415 0.454796
5.38999987 10.63000011 -0.87000000 17 88 203 97.000000 1.000000 4.000000 1.000000 -60.708740 114.000000 130.000000 -0.520278 0.239297 0.819785
5.42000008 10.61999989 -0.86000001 17 88 203 97.000000 1.000000 4.000000 1.000000 -60.708740 114.000000 130.000000 0.826386 -0.404469 -0.391780
5.42999983 10.59000015 -0.93000001 17 88 203 97.000000 1.000000 4.000000 1.000000 -60.708740 114.000000 130.000000 -0.545703 0.739075 0.394938
5.44999981 10.60999966 -0.92000002 17 88 203 97.000000 1.000000 4.000000 1.000000 -60.708740 114.000000 130.000000 -0.519153 0.312762 0.795399
5.40999985 10.60000038 -0.89999998 17 88 203 97.000000 1.000000 4.000000 1.000000 -60.708740 114.000000 130.000000 -0.221613 0.829904 0.512003
5.38000011 10.59000015 -0.86000001 17 88 203 97.000000 1.000000 4.000000 1.000000 -60.708740 114.000000 130.000000 0.610117 -0.633647 -0.475656
5.40000010 10.56999969 -0.88000000 17 88 203 97.000000 1.000000 4.000000 1.000000 -60.708740 114.000000 130.000000 0.432146 -0.713620 -0.551358
5.42999983 10.60000038 -0.99000001 17 88 203 97.000000 1.000000 4.000000 1.000000 -60.708740 114.000000 130.000000 -0.100564 0.803058 0.587354
5.53999996 10.65999985 -1.03999996 17 88 203 97.000000 1.000000 4.000000 1.000000 -60.708740 114.000000 130.000000 0.478539 -0.531895 -0.698633
5.46000004 10.68999958 -1.02999997 17 88 203 97.000000 1.000000 4.000000 1.000000 -60.708740 114.000000 130.000000 -0.297487 0.430046 0.852386
5.48000002 10.67000008 -1.07000005 17 88 203 97.000000 1.000000 4.000000 1.000000 -60.708740 114.000000 130.000000 0.754851 -0.302902 -0.581764
5.46999979 10.64000034 -1.02999997 17 88 203 97.000000 1.000000 4.000000 1.000000 -60.708740 114.000000 130.000000 0.703778 -0.571302 -0.422267
5.48999977 10.65999985 -1.05999994 17 88 203 97.000000 1.000000 4.000000 1.000000 -60.708740 114.000000 130.000000 -0.604022 0.620847 0.499706
5.48999977 10.65999985 -1.07000005 17 88 203 97.000000 1.000000 4.000000 1.000000 -60.708740 114.000000 130.000000 0.803840 -0.434812 -0.405931
5.48000002 10.61999989 -1.05999994 17 88 203 97.000000 1.000000 4.000000 1.000000 -60.708740 114.000000 130.000000 -0.082904 0.647233 0.757771
5.21999979 10.88000011 -1.01999998 17 88 203 97.000000 1.000000 4.000000 1.000000 -60.708740 114.000000 130.000000 0.399188 0.470298 0.787063
5.19000006 10.89999962 -1.00000000 17 88 203 97.000000 1.000000 4.000000 1.000000 -60.708740 114.000000 130.000000 0.484911 0.471671 0.736469
5.19000006 10.89000034 -1.00999999 17 88 203 97.000000 1.000000 4.000000 1.000000 -60.708740 114.000000 130.000000 0.937477 0.155102 0.311577
5.19000006 10.89000034 -1.00999999 17 88 203 97.000000 1.000000 4.000000 1.000000 -60.708740 114.000000 130.000000 0.937477 0.155102 0.311577
5.19999981 10.88000011 -1.01999998 17 88 203 97.000000 1.000000 4.000000 1.000000 -60.708740 114.000000 130.000000 0.571830 0.425972 0.701113
5.19000006 10.89999962 -1.01999998 17 88 203 97.000000 1.000000 4.000000 1.000000 -60.708740 114.000000 130.000000 0.781199 0.359190 0.510598
5.19999981 10.89000034 -0.99000001 17 88 203 97.000000 1.000000 4.000000 1.000000 -60.708740 114.000000 130.000000 0.682834 0.707386 0.182601
5.25000000 10.77999973 -0.75999999 17 88 203 97.000000 1.000000 4.000000 1.000000 -60.708740 114.000000 130.000000 0.843690 -0.105281 -0.526405
5.21000004 10.77000046 -0.74000001 17 88 203 97.000000 1.000000 4.000000 1.000000 -60.708740 114.000000 130.000000 0.826601 -0.494720 -0.268296
5.21000004 10.75000000 -0.75000000 17 88 203 97.000000 1.000000 4.000000 1.000000 -60.708740 114.000000 130.000000 0.940844 0.332753 0.063941
5.23000002 10.72000027 -0.74000001 17 88 203 97.000000 1.000000 4.000000 1.000000 -60.708740 114.000000 130.000000 0.960951 0.150763 0.232044
5.23999977 10.72999954 -0.76999998 17 88 203 97.000000 1.000000 4.000000 1.000000 -60.708740 114.000000 130.000000 0.826751 0.425231 0.368323
5.21000004 10.73999977 -0.74000001 17 88 203 97.000000 1.000000 4.000000 1.000000 -60.708740 114.000000 130.000000 0.931992 0.362371 0.008900
5.28000021 10.75000000 -0.82999998 17 88 203 97.000000 1.000000 4.000000 1.000000 -60.708740 114.000000 130.000000 0.403597 0.551857 0.729769
5.21999979 10.76000023 -0.85000002 17 88 203 97.000000 1.000000 4.000000 1.000000 -60.708740 114.000000 130.000000 0.942772 0.325590 0.071917
5.21000004 10.76000023 -0.81999999 17 88 203 97.000000 1.000000 4.000000 1.000000 -60.708740 114.000000 130.000000 0.895470 0.441620 0.055712
5.23999977 10.72999954 -0.77999997 17 88 203 97.000000 1.000000 4.000000 1.000000 -60.708740 114.000000 130.000000 0.828276 0.278164 0.486399
5.19999981 10.72000027 -0.69999999 17 88 203 97.000000 1.000000 4.000000 1.000000 -60.708740 114.000000 130.000000 0.841199 -0.249755 -0.479591
5.19999981 10.77999973 -0.83999997 17 88 203 97.000000 1.000000 4.000000 1.000000 -60.708740 114.000000 130.000000 0.834707 0.536493 0.124256
5.23999977 10.80000019 -0.91000003 17 88 203 97.000000 1.000000 4.000000 1.000000 -60.708740 114.000000 130.000000 0.424452 0.821879 0.379940
5.26999998 10.78999996 -0.92000002 17 88 203 97.000000 1.000000 4.000000 1.000000 -60.708740 114.000000 130.000000 0.067163 0.795959 0.601613
5.25000000 10.85999966 -1.00999999 17 88 203 97.000000 1.000000 4.000000 1.000000 -60.708740 114.000000 130.000000 0.393713 0.719885 0.571625
5.26000023 10.85000038 -1.01999998 17 88 203 97.000000 1.000000 4.000000 1.000000 -60.708740 114.000000 130.000000 0.414613 0.364165 0.833954
5.26999998 10.82999992 -1.01999998 17 88 203 97.000000 1.000000 4.000000 1.000000 -60.708740 114.000000 130.000000 0.048015 0.478780 0.876621
5.26999998 10.82999992 -1.01999998 17 88 203 97.000000 1.000000 4.000000 1.000000 -60.708740 114.000000 130.000000 0.048015 0.478780 0.876621
5.21999979 10.85000038 -0.99000001 17 88 203 97.000000 1.000000 4.000000 1.000000 -60.708740 114.000000 130.000000 0.713005 0.618804 0.329704
5.21000004 10.86999989 -0.99000001 17 88 203 97.000000 1.000000 4.000000 1.000000 -60.708740 114.000000 130.000000 0.864150 0.352746 0.358907
5.23999977 10.86999989 -1.01999998 17 88 203 97.000000 1.000000 4.000000 1.000000 -60.708740 114.000000 130.000000 0.288323 0.518351 0.805098
5.23999977 10.85000038 -1.00000000 17 88 203 97.000000 1.000000 4.000000 1.000000 -60.708740 114.000000 130.000000 0.472230 0.429746 0.769621
5.21999979 10.86999989 -1.00000000 17 88 203 97.000000 1.000000 4.000000 1.000000 -60.708740 114.000000 130.000000 0.831331 0.380172 0.405412
5.23000002 10.78999996 -1.00999999 17 88 203 97.000000 1.000000 4.000000 1.000000 -60.708740 114.000000 130.000000 0.310375 0.272489 0.910724
5.23000002 10.78999996 -1.00999999 17 88 203 97.000000 1.000000 4.000000 1.000000 -60.708740 114.000000 130.000000 0.310375 0.272489 0.910724
5.26000023 10.77999973 -0.91000003 17 88 203 97.000000 1.000000 4.000000 1.000000 -60.708740 114.000000 130.000000 0.579321 0.752636 0.312930
5.28000021 10.77999973 -0.92000002 17 88 203 97.000000 1.000000 4.000000 1.000000 -60.708740 114.000000 130.000000 0.276559 0.666618 0.692196
5.21999979 10.77999973 -0.86000001 17 88 203 97.000000 1.000000 4.000000 1.000000 -60.708740 114.000000 130.000000 0.979264 0.142012 0.144482
5.21999979 10.75000000 -0.88000000 17 88 203 97.000000 1.000000 4.000000 1.000000 -60.708740 114.000000 130.000000 0.884348 0.189189 0.426775
5.28000021 10.77999973 -0.98000002 17 88 203 97.000000 1.000000 4.000000 1.000000 -60.708740 114.000000 130.000000 0.073886 0.743204 0.664972
5.28999996 10.77000046 -0.97000003 17 88 203 97.000000 1.000000 4.000000 1.000000 -60.708740 114.000000 130.000000 0.147028 0.895018 0.421101
5.28999996 10.77000046 -0.97000003 17 88 203 97.000000 1.000000 4.000000 1.000000 -60.708740 114.000000 130.000000 0.147028 0.895018 0.421101
5.28000021 10.77000046 -0.97000003 17 88 203 97.000000 1.000000 4.000000 1.000000 -60.708740 114.000000 130.000000 0.032007 0.819661 0.571954
5.23000002 10.77999973 -1.00999999 17 88 203 97.000000 1.000000 4.000000 1.000000 -60.708740 114.000000 130.000000 0.142872 0.403153 0.903911
5.19999981 10.86999989 -0.94999999 17 88 203 97.000000 1.000000 4.000000 1.000000 -60.708740 114.000000 130.000000 0.883280 0.393067 0.255568
5.21000004 10.97999954 -1.02999997 17 88 203 97.000000 1.000000 4.000000 1.000000 -60.708740 114.000000 130.000000 0.976217 0.126246 0.176244
5.23000002 10.90999985 -1.03999996 17 88 203 97.000000 1.000000 4.000000 1.000000 -60.708740 114.000000 130.000000 0.768244 0.497483 0.402880
5.21000004 10.88000011 -1.02999997 17 88 203 97.000000 1.000000 4.000000 1.000000 -60.708740 114.000000 130.000000 0.240618 0.655801 0.715562
5.23000002 10.90999985 -1.03999996 17 88 203 97.000000 1.000000 4.000000 1.000000 -60.708740 114.000000 130.000000 0.768244 0.497483 0.402880
5.23000002 10.90999985 -1.09000003 17 88 203 97.000000 1.000000 4.000000 1.000000 -60.708740 114.000000 130.000000 0.604488 0.614590 0.506827
5.19999981 10.88000011 -1.02999997 17 88 203 97.000000 1.000000 4.000000 1.000000 -60.708740 114.000000 130.000000 0.398673 0.643501 0.653427
5.25000000 10.78999996 -1.02999997 17 88 203 97.000000 1.000000 4.000000 1.000000 -60.708740 114.000000 130.000000 0.473192 0.563483 0.677183
5.26999998 10.84000015 -1.02999997 17 88 203 97.000000 1.000000 4.000000 1.000000 -60.708740 114.000000 130.000000 0.381692 0.344604 0.857647
5.28000021 10.84000015 -1.02999997 17 88 203 97.000000 1.000000 4.000000 1.000000 -60.708740 114.000000 130.000000 0.196163 0.542870 0.816586
5.28000021 10.84000015 -1.02999997 17 88 203 97.000000 1.000000 4.000000 1.000000 -60.708740 114.000000 130.000000 0.196163 0.542870 0.816586
5.25000000 10.68000031 -0.76999998 17 88 203 97.000000 1.000000 4.000000 1.000000 -60.708740 114.000000 130.000000 0.760803 0.064719 0.645748
5.25000000 10.69999981 -0.76999998 17 88 203 97.000000 1.000000 4.000000 1.000000 -60.708740 114.000000 130.000000 0.988952 0.115865 0.092458
5.21000004 10.68999958 -0.70999998 17 88 203 97.000000 1.000000 4.000000 1.000000 -60.708740 114.000000 130.000000 0.986489 0.160377 -0.033460
5.23999977 10.68999958 -0.69999999 17 88 203 97.000000 1.000000 4.000000 1.000000 -60.708740 114.000000 130.000000 0.986347 -0.160730 -0.035846
5.21999979 10.68000031 -0.74000001 17 88 203 97.000000 1.000000 4.000000 1.000000 -60.708740 114.000000 130.000000 0.917072 -0.183414 0.354032
5.23999977 10.68000031 -0.76999998 17 88 203 97.000000 1.000000 4.000000 1.000000 -60.708740 114.000000 130.000000 0.958421 -0.028517 0.283931
5.23000002 10.63000011 -0.72000003 17 88 203 97.000000 1.000000 4.000000 1.000000 -60.708740 114.000000 130.000000 0.985610 -0.047822 0.162130
5.21999979 10.64000034 -0.69999999 17 88 203 97.000000 1.000000 4.000000 1.000000 -60.708740 114.000000 130.000000 0.965982 -0.146126 0.213369
5.21999979 10.64000034 -0.73000002 17 88 203 97.000000 1.000000 4.000000 1.000000 -60.708740 114.000000 130.000000 0.953354 0.131268 0.271819
5.21999979 10.68999958 -0.81999999 17 88 203 97.000000 1.000000 4.000000 1.000000 -60.708740 114.000000 130.000000 0.618804 0.713005 0.329704
5.25000000 10.69999981 -0.79000002 17 88 203 97.000000 1.000000 4.000000 1.000000 -60.708740 114.000000 130.000000 0.593662 0.539539 0.597045
5.21999979 10.60999966 -0.74000001 17 88 203 97.000000 1.000000 4.000000 1.000000 -60.708740 114.000000 130.000000 0.813932 0.219194 0.538023
5.21999979 10.61999989 -0.72000003 17 88 203 97.000000 1.000000 4.000000 1.000000 -60.708740 114.000000 130.000000 0.891089 -0.096523 0.443446
5.19999981 10.69999981 -0.70999998 17 88 203 97.000000 1.000000 4.000000 1.000000 -60.708740 114.000000 130.000000 0.888481 0.166681 -0.427573
5.15999985 10.64999962 -0.69999999 17 88 203 97.000000 1.000000 4.000000 1.000000 -60.708740 114.000000 130.000000 0.931200 -0.095680 0.351727
5.19999981 10.68999958 -0.70999998 17 88 203 97.000000 1.000000 4.000000 1.000000 -60.708740 114.000000 130.000000 0.951635 -0.052372 -0.302735
5.19999981 10.61999989 -0.74000001 17 88 203 97.000000 1.000000 4.000000 1.000000 -60.708740 114.000000 130.000000 0.681274 0.537319 0.497146
5.17000008 10.60000038 -0.70999998 17 88 203 97.000000 1.000000 4.000000 1.000000 -60.708740 114.000000 130.000000 0.828365 0.443373 0.342391
5.46000004 10.21000004 -0.04000000 17 88 203 97.000000 1.000000 4.000000 1.000000 -60.708740 114.000000 130.000000 0.397513 0.426248 0.812586
5.46000004 10.14999962 -0.05000000 17 88 203 97.000000 1.000000 4.000000 1.000000 -60.708740 114.000000 130.000000 0.521208 0.242818 0.818157
5.38000011 10.28999996 -0.07000000 17 88 203 97.000000 1.000000 4.000000 1.000000 -60.708740 114.000000 130.000000 0.035247 0.754288 0.655596
5.38999987 10.32999992 -0.17000000 17 88 203 97.000000 1.000000 4.000000 1.000000 -60.708740 114.000000 130.000000 -0.001351 0.536176 0.844105
5.42000008 10.25000000 -0.04000000 17 88 203 97.000000 1.000000 4.000000 1.000000 -60.708740 114.000000 130.000000 -0.058178 0.583203 0.810241
5.42000008 10.22999954 -0.03000000 17 88 203 97.000000 1.000000 4.000000 1.000000 -60.708740 114.000000 130.000000 0.061796 0.885746 0.460039
5.44000006 10.21000004 -0.08000000 17 88 203 97.000000 1.000000 4.000000 1.000000 -60.708740 114.000000 130.000000 0.592260 0.691799 0.413089
5.44000006 10.21000004 -0.08000000 17 88 203 97.000000 1.000000 4.000000 1.000000 -60.708740 114.000000 130.000000 0.592260 0.691799 0.413089
5.38000011 10.25000000 -0.04000000 17 88 203 97.000000 1.000000 4.000000 1.000000 -60.708740 114.000000 130.000000 0.006757 0.847295 0.531080
5.40999985 10.25000000 -0.04000000 17 88 203 97.000000 1.000000 4.000000 1.000000 -60.708740 114.000000 130.000000 0.369265 0.788518 0.491816
5.38000011 10.26000023 -0.07000000 17 88 203 97.000000 1.000000 4.000000 1.000000 -60.708740 114.000000 130.000000 0.446819 0.637595 0.627555
5.40999985 10.23999977 -0.04000000 17 88 203 97.000000 1.000000 4.000000 1.000000 -60.708740 114.000000 130.000000 0.385429 0.736415 0.556001
5.42999983 10.25000000 -0.15000001 17 88 203 97.000000 1.000000 4.000000 1.000000 -60.708740 114.000000 130.000000 0.636067 0.571954 0.517964
5.42000008 10.22000027 -0.13000000 17 88 203 97.000000 1.000000 4.000000 1.000000 -60.708740 114.000000 130.000000 0.231894 0.773499 0.589851
5.44000006 10.23999977 -0.15000001 17 88 203 97.000000 1.000000 4.000000 1.000000 -60.708740 114.000000 130.000000 0.609977 0.379797 0.695473
5.40999985 10.27999973 -0.13000000 17 88 203 97.000000 1.000000 4.000000 1.000000 -60.708740 114.000000 130.000000 0.110885 0.428099 0.896903
5.40999985 10.26000023 -0.17000000 17 88 203 97.000000 1.000000 4.000000 1.000000 -60.708740 114.000000 130.000000 0.290652 0.834653 0.467841
5.36000013 10.28999996 -0.10000000 17 88 203 97.000000 1.000000 4.000000 1.000000 -60.708740 114.000000 130.000000 0.356776 0.741248 0.568562
5.30999994 10.30000019 -0.08000000 17 88 203 97.000000 1.000000 4.000000 1.000000 -60.708740 114.000000 130.000000 -0.209971 0.657910 0.723234
5.34000015 10.28999996 -0.11000000 17 88 203 97.000000 1.000000 4.000000 1.000000 -60.708740 114.000000 130.000000 -0.252088 0.511909 0.821219
5.34000015 10.28999996 -0.11000000 17 88 203 97.000000 1.000000 4.000000 1.000000 -60.708740 114.000000 130.000000 -0.252088 0.511909 0.821219
5.34000015 10.31000042 -0.15000001 17 88 203 97.000000 1.000000 4.000000 1.000000 -60.708740 114.000000 130.000000 0.023741 0.638216 0.769491
5.30999994 10.32999992 -0.16000000 17 88 203 97.000000 1.000000 4.000000 1.000000 -60.708740 114.000000 130.000000 -0.434812 0.399513 0.807049
5.36000013 10.26000023 -0.06000000 17 88 203 97.000000 1.000000 4.000000 1.000000 -60.708740 114.000000 130.000000 0.088444 0.795994 0.598808
5.36000013 10.27000046 -0.06000000 17 88 203 97.000000 1.000000 4.000000 1.000000 -60.708740 114.000000 130.000000 0.168962 0.653015 0.738257
5.34999990 10.23999977 -0.03000000 17 88 203 97.000000 1.000000 4.000000 1.000000 -60.708740 114.000000 130.000000 0.092141 0.674240 0.732742
5.30000019 10.27999973 -0.08000000 17 88 203 97.000000 1.000000 4.000000 1.000000 -60.708740 114.000000 130.000000 -0.213822 0.257966 0.942196
5.32999992 10.26000023 -0.10000000 17 88 203 97.000000 1.000000 4.000000 1.000000 -60.708740 114.000000 130.000000 -0.345520 0.382706 0.856827
5.32999992 10.25000000 -0.09000000 17 88 203 97.000000 1.000000 4.000000 1.000000 -60.708740 114.000000 130.000000 -0.361581 0.460339 0.810770
5.34000015 10.27999973 -0.11000000 17 88 203 97.000000 1.000000 4.000000 1.000000 -60.708740 114.000000 130.000000 -0.212718 0.753052 0.622627
5.36999989 10.27999973 -0.12000000 17 88 203 97.000000 1.000000 4.000000 1.000000 -60.708740 114.000000 130.000000 0.402599 0.684252 0.608040
5.36999989 10.26000023 -0.11000000 17 88 203 97.000000 1.000000 4.000000 1.000000 -60.708740 114.000000 130.000000 0.103695 0.793051 0.600265
5.36000013 10.27999973 -0.17000000 17 88 203 97.000000 1.000000 4.000000 1.000000 -60.708740 114.000000 130.000000 0.350223 0.718364 0.601080
5.32999992 10.27999973 -0.11000000 17 88 203 97.000000 1.000000 4.000000 1.000000 -60.708740 114.000000 130.000000 -0.159035 0.740648 0.652800
5.30999994 10.27999973 -0.14000000 17 88 203 97.000000 1.000000 4.000000 1.000000 -60.708740 114.000000 130.000000 -0.368103 0.322281 0.872144
5.30000019 10.25000000 -0.15000001 17 88 203 97.000000 1.000000 4.000000 1.000000 -60.708740 114.000000 130.000000 0.670495 -0.430914 -0.603945
5.38000011 10.32999992 -0.27000001 17 88 203 97.000000 1.000000 4.000000 1.000000 -60.708740 114.000000 130.000000 0.481264 0.732646 0.481264
5.38000011 10.34000015 -0.27000001 17 88 203 97.000000 1.000000 4.000000 1.000000 -60.708740 114.000000 130.000000 0.562646 0.702062 0.436507
5.40000010 10.30000019 -0.23999999 17 88 203 97.000000 1.000000 4.000000 1.000000 -60.708740 114.000000 130.000000 0.671588 0.615208 0.412902
5.40999985 10.30000019 -0.25999999 17 88 203 97.000000 1.000000 4.000000 1.000000 -60.708740 114.000000 130.000000 0.580135 0.316583 0.750479
5.42000008 10.28999996 -0.34999999 17 88 203 97.000000 1.000000 4.000000 1.000000 -60.708740 114.000000 130.000000 0.823761 0.426959 0.372994
5.38999987 10.35000038 -0.34999999 17 88 203 97.000000 1.000000 4.000000 1.000000 -60.708740 114.000000 130.000000 0.697930 0.397638 0.595633
5.38999987 10.35000038 -0.34999999 17 88 203 97.000000 1.000000 4.000000 1.000000 -60.708740 114.000000 130.000000 0.697930 0.397638 0.595633
5.40000010 10.34000015 -0.34999999 17 88 203 97.000000 1.000000 4.000000 1.000000 -60.708740 114.000000 130.000000 0.701868 0.663844 0.258249
5.40999985 10.32999992 -0.34000000 17 88 203 97.000000 1.000000 4.000000 1.000000 -60.708740 114.000000 130.000000 0.783493 0.085446 0.615498
5.40999985 10.28999996 -0.28999999 17 88 203 97.000000 1.000000 4.000000 1.000000 -60.708740 114.000000 130.000000 0.881725 0.281851 0.378313
5.40000010 10.31000042 -0.33000001 17 88 203 97.000000 1.000000 4.000000 1.000000 -60.708740 114.000000 130.000000 0.596050 0.545394 0.589296
5.40000010 10.31000042 -0.34000000 17 88 203 97.000000 1.000000 4.000000 1.000000 -60.708740 114.000000 130.000000 0.588315 0.464282 0.662063
5.42000008 10.21000004 -0.22000000 17 88 203 97.000000 1.000000 4.000000 1.000000 -60.708740 114.000000 130.000000 0.884792 0.277906 0.374046
5.40999985 10.27000046 -0.19000000 17 88 203 97.000000 1.000000 4.000000 1.000000 -60.708740 114.000000 130.000000 0.694689 0.581947 0.422782
5.40000010 10.23999977 -0.27000001 17 88 203 97.000000 1.000000 4.000000 1.000000 -60.708740 114.000000 130.000000 0.763787 0.446496 0.466123
5.42999983 10.27999973 -0.30000001 17 88 203 97.000000 1.000000 4.000000 1.000000 -60.708740 114.000000 130.000000 0.811545 0.297829 0.502685
5.42000008 10.27999973 -0.30000001 17 88 203 97.000000 1.000000 4.000000 1.000000 -60.708740 114.000000 130.000000 0.863160 0.349264 0.364650
5.42000008 10.25000000 -0.31999999 17 88 203 97.000000 1.000000 4.000000 1.000000 -60.708740 114.000000 130.000000 0.815855 0.189206 0.546426
5.42000008 10.27000046 -0.31999999 17 88 203 97.000000 1.000000 4.000000 1.000000 -60.708740 114.000000 130.000000 0.914313 -0.030258 0.403876
5.42000008 10.27000046 -0.34999999 17 88 203 97.000000 1.000000 4.000000 1.000000 -60.708740 114.000000 130.000000 0.973011 0.225291 -0.049929
5.42000008 10.23999977 -0.34000000 17 88 203 97.000000 1.000000 4.000000 1.000000 -60.708740 114.000000 130.000000 0.975916 0.118406 -0.183218
5.42000008 10.23999977 -0.34999999 17 88 203 97.000000 1.000000 4.000000 1.000000 -60.708740 114.000000 130.000000 0.997524 -0.070130 0.005234
5.40000010 10.27999973 -0.33000001 17 88 203 97.000000 1.000000 4.000000 1.000000 -60.708740 114.000000 130.000000 0.798544 0.254721 0.545385
5.40000010 10.22000027 -0.34000000 17 88 203 97.000000 1.000000 4.000000 1.000000 -60.708740 114.000000 130.000000 0.904019 -0.425970 -0.036054
5.34000015 10.34000015 -0.27000001 17 88 203 97.000000 1.000000 4.000000 1.000000 -60.708740 114.000000 130.000000 -0.009664 0.791096 0.611615
5.34999990 10.35000038 -0.27000001 17 88 203 97.000000 1.000000 4.000000 1.000000 -60.708740 114.000000 130.000000 -0.329202 0.461512 0.823792
5.36000013 10.35000038 -0.27000001 17 88 203 97.000000 1.000000 4.000000 1.000000 -60.708740 114.000000 130.000000 0.351259 0.354327 0.866643
5.36999989 10.34000015 -0.25999999 17 88 203 97.000000 1.000000 4.000000 1.000000 -60.708740 114.000000 130.000000 0.193024 0.434673 0.879660
5.36000013 10.35000038 -0.25999999 17 88 203 97.000000 1.000000 4.000000 1.000000 -60.708740 114.000000 130.000000 0.131555 0.366969 0.920884
5.34999990 10.31000042 -0.20000000 17 88 203 97.000000 1.000000 4.000000 1.000000 -60.708740 114.000000 130.000000 0.236508 0.743982 0.624944
5.32000017 10.34000015 -0.23999999 17 88 203 97.000000 1.000000 4.000000 1.000000 -60.708740 114.000000 130.000000 0.085555 0.610484 0.787394
5.30000019 10.34000015 -0.25000000 17 88 203 97.000000 1.000000 4.000000 1.000000 -60.708740 114.000000 130.000000 -0.175397 0.464287 0.868143
5.32000017 10.32999992 -0.23000000 17 88 203 97.000000 1.000000 4.000000 1.000000 -60.708740 114.000000 130.000000 0.001359 0.827633 0.561268
5.30999994 10.35999966 -0.23000000 17 88 203 97.000000 1.000000 4.000000 1.000000 -60.708740 114.000000 130.000000 0.100915 0.788306 0.606952
5.32000017 10.32999992 -0.23000000 17 88 203 97.000000 1.000000 4.000000 1.000000 -60.708740 114.000000 130.000000 0.001359 0.827633 0.561268
5.30000019 10.31999969 -0.22000000 17 88 203 97.000000 1.000000 4.000000 1.000000 -60.708740 114.000000 130.000000 -0.527547 0.628674 0.571369
5.36999989 10.32999992 -0.30000001 17 88 203 97.000000 1.000000 4.000000 1.000000 -60.708740 114.000000 130.000000 0.303871 0.625429 0.718680
5.36999989 10.35999966 -0.31999999 17 88 203 97.000000 1.000000 4.000000 1.000000 -60.708740 114.000000 130.000000 0.603945 0.430914 0.670495
5.36999989 10.35999966 -0.31999999 17 88 203 97.000000 1.000000 4.000000 1.000000 -60.708740 114.000000 130.000000 0.603945 0.430914 0.670495
5.32999992 10.35999966 -0.31000000 17 88 203 97.000000 1.000000 4.000000 1.000000 -60.708740 114.000000 130.000000 0.020629 0.562491 0.826546
5.30000019 10.27999973 -0.20000000 17 88 203 97.000000 1.000000 4.000000 1.000000 -60.708740 114.000000 130.000000 -0.566746 0.298540 0.767901
5.42000008 10.15999985 -0.03000000 17 88 203 97.000000 1.000000 4.000000 1.000000 -60.708740 114.000000 130.000000 0.133140 0.731522 0.668692
5.42000008 10.19999981 -0.03000000 17 88 203 97.000000 1.000000 4.000000 1.000000 -60.708740 114.000000 130.000000 0.360546 0.796406 0.485535
5.44999981 10.15999985 -0.04000000 17 88 203 97.000000 1.000000 4.000000 1.000000 -60.708740 114.000000 130.000000 0.326047 0.715356 0.618029
5.42000008 10.15999985 -0.03000000 17 88 203 97.000000 1.000000 4.000000 1.000000 -60.708740 114.000000 130.000000 0.133140 0.731522 0.668692
5.44999981 10.18000031 -0.08000000 17 88 203 97.000000 1.000000 4.000000 1.000000 -60.708740 114.000000 130.000000 0.627328 0.657280 0.417664
5.38000011 10.14000034 -0.06000000 17 88 203 97.000000 1.000000 4.000000 1.000000 -60.708740 114.000000 130.000000 0.241720 -0.575449 -0.781300
5.38999987 10.13000011 -0.06000000 17 88 203 97.000000 1.000000 4.000000 1.000000 -60.708740 114.000000 130.000000 -0.029605 0.351393 0.935760
5.44999981 10.18000031 -0.16000000 17 88 203 97.000000 1.000000 4.000000 1.000000 -60.708740 114.000000 130.000000 0.707779 0.683214 0.179632
5.44000006 10.19999981 -0.17000000 17 88 203 97.000000 1.000000 4.000000 1.000000 -60.708740 114.000000 130.000000 0.579277 0.552255 0.599543
5.44000006 10.19999981 -0.17000000 17 88 203 97.000000 1.000000 4.000000 1.000000 -60.708740 114.000000 130.000000 0.579277 0.552255 0.599543
5.42000008 10.13000011 -0.18000001 17 88 203 97.000000 1.000000 4.000000 1.000000 -60.708740 114.000000 130.000000 0.801573 0.461025 0.380707
5.40000010 10.15999985 -0.14000000 17 88 203 97.000000 1.000000 4.000000 1.000000 -60.708740 114.000000 130.000000 0.088110 0.380905 0.920407
5.40999985 10.11999989 -0.12000000 17 88 203 97.000000 1.000000 4.000000 1.000000 -60.708740 114.000000 130.000000 0.098398 0.750469 0.653540
5.40999985 10.13000011 -0.17000000 17 88 203 97.000000 1.000000 4.000000 1.000000 -60.708740 114.000000 130.000000 0.321013 0.582341 0.746880
5.38999987 10.10000038 -0.05000000 17 88 203 97.000000 1.000000 4.000000 1.000000 -60.708740 114.000000 130.000000 -0.181988 0.616312 0.766185
5.34999990 10.13000011 -0.05000000 17 88 203 97.000000 1.000000 4.000000 1.000000 -60.708740 114.000000 130.000000 0.294281 0.432948 0.852030
5.30999994 10.13000011 -0.06000000 17 88 203 97.000000 1.000000 4.000000 1.000000 -60.708740 114.000000 130.000000 -0.029624 0.715210 0.698282
5.36999989 10.15999985 -0.17000000 17 88 203 97.000000 1.000000 4.000000 1.000000 -60.708740 114.000000 130.000000 0.268889 0.669836 0.692111
5.36999989 10.14000034 -0.16000000 17 88 203 97.000000 1.000000 4.000000 1.000000 -60.708740 114.000000 130.000000 -0.254751 0.700961 0.666150
5.34000015 10.10000038 -0.05000000 17 88 203 97.000000 1.000000 4.000000 1.000000 -60.708740 114.000000 130.000000 -0.377338 0.624503 0.683822
5.36999989 10.09000015 -0.03000000 17 88 203 97.000000 1.000000 4.000000 1.000000 -60.708740 114.000000 130.000000 0.276875 0.394888 0.876016
5.34999990 10.10999966 -0.08000000 17 88 203 97.000000 1.000000 4.000000 1.000000 -60.708740 114.000000 130.000000 -0.031355 0.868403 0.494867
5.34999990 10.10000038 -0.08000000 17 88 203 97.000000 1.000000 4.000000 1.000000 -60.708740 114.000000 130.000000 -0.106749 0.872498 0.476814
5.32999992 10.07999992 -0.05000000 17 88 203 97.000000 1.000000 4.000000 1.000000 -60.708740 114.000000 130.000000 -0.035370 0.737104 0.674853
5.42999983 10.14999962 -0.20000000 17 88 203 97.000000 1.000000 4.000000 1.000000 -60.708740 114.000000 130.000000 0.924902 0.261603 0.275898
5.42999983 10.19999981 -0.33000001 17 88 203 97.000000 1.000000 4.000000 1.000000 -60.708740 114.000000 130.000000 0.943579 -0.270575 -0.190913
5.40999985 10.18000031 -0.30000001 17 88 203 97.000000 1.000000 4.000000 1.000000 -60.708740 114.000000 130.000000 0.870416 -0.165306 -0.463734
5.40000010 10.19999981 -0.34000000 17 88 203 97.000000 1.000000 4.000000 1.000000 -60.708740 114.000000 130.000000 0.954728 -0.291899 -0.057360
5.38000011 10.17000008 -0.31999999 17 88 203 97.000000 1.000000 4.000000 1.000000 -60.708740 114.000000 130.000000 0.644373 -0.513143 -0.566981
5.38000011 10.18999958 -0.31999999 17 88 203 97.000000 1.000000 4.000000 1.000000 -60.708740 114.000000 130.000000 0.816721 -0.337789 -0.467830
5.40000010 10.18999958 -0.31999999 17 88 203 97.000000 1.000000 4.000000 1.000000 -60.708740 114.000000 130.000000 0.955822 -0.282490 -0.081264
5.40999985 10.18999958 -0.34000000 17 88 203 97.000000 1.000000 4.000000 1.000000 -60.708740 114.000000 130.000000 0.803017 -0.511587 -0.305685
5.40000010 10.19999981 -0.33000001 17 88 203 97.000000 1.000000 4.000000 1.000000 -60.708740 114.000000 130.000000 0.971946 -0.198951 0.125453
5.36999989 10.18000031 -0.23999999 17 88 203 97.000000 1.000000 4.000000 1.000000 -60.708740 114.000000 130.000000 0.006840 0.573173 0.819406
5.36000013 10.13000011 -0.20999999 17 88 203 97.000000 1.000000 4.000000 1.000000 -60.708740 114.000000 130.000000 0.323728 0.748922 0.578200
5.36999989 10.19999981 -0.31000000 17 88 203 97.000000 1.000000 4.000000 1.000000 -60.708740 114.000000 130.000000 0.937529 -0.238923 -0.252895
5.36999989 10.15999985 -0.28999999 17 88 203 97.000000 1.000000 4.000000 1.000000 -60.708740 114.000000 130.000000 -0.530256 0.661557 0.530256
5.36999989 10.17000008 -0.31999999 17 88 203 97.000000 1.000000 4.000000 1.000000 -60.708740 114.000000 130.000000 -0.450437 0.744128 0.493336
5.34000015 10.19999981 -0.34999999 17 88 203 97.000000 1.000000 4.000000 1.000000 -60.708740 114.000000 130.000000 0.032169 0.597225 0.801428
5.36000013 10.18000031 -0.33000001 17 88 203 97.000000 1.000000 4.000000 1.000000 -60.708740 114.000000 130.000000 -0.333930 0.646684 0.685778
5.42000008 10.35999966 -0.38000000 17 88 203 97.000000 1.000000 4.000000 1.000000 -60.708740 114.000000 130.000000 0.838776 0.507482 0.197271
5.42000008 10.35000038 -0.40000001 17 88 203 97.000000 1.000000 4.000000 1.000000 -60.708740 114.000000 130.000000 0.870092 0.388570 0.303237
5.42000008 10.31999969 -0.37000000 17 88 203 97.000000 1.000000 4.000000 1.000000 -60.708740 114.000000 130.000000 0.862965 0.459151 0.210881
5.42000008 10.28999996 -0.36000001 17 88 203 97.000000 1.000000 4.000000 1.000000 -60.708740 114.000000 130.000000 0.985045 0.096949 0.142431
5.42000008 10.28999996 -0.38999999 17 88 203 97.000000 1.000000 4.000000 1.000000 -60.708740 114.000000 130.000000 0.941072 -0.282459 -0.186010
5.42000008 10.28999996 -0.37000000 17 88 203 97.000000 1.000000 4.000000 1.000000 -60.708740 114.000000 130.000000 0.995022 -0.022887 0.096996
5.42000008 10.30000019 -0.38999999 17 88 203 97.000000 1.000000 4.000000 1.000000 -60.708740 114.000000 130.000000 0.969068 -0.142472 -0.201515
5.42000008 10.28999996 -0.37000000 17 88 203 97.000000 1.000000 4.000000 1.000000 -60.708740 114.000000 130.000000 0.995022 -0.022887 0.096996
5.40000010 10.34000015 -0.37000000 17 88 203 97.000000 1.000000 4.000000 1.000000 -60.708740 114.000000 130.000000 0.877822 0.471812 0.082602
