//X Y Z R G B PointSourceId ScanDirectionFlag NumberOfReturns ReturnNumber GpsTime Intensity Classification Nx Ny Nz
1.26999998 1.07000005 -0.33000001 136 174 100 97.000000 1.000000 4.000000 1.000000 -60.708740 114.000000 133.000000 0.933270 0.141155 0.330276
1.26999998 1.08000004 -0.33000001 136 174 100 97.000000 1.000000 4.000000 1.000000 -60.708740 114.000000 133.000000 0.860866 0.144206 0.487970
1.45000005 1.24000001 -0.50999999 136 174 100 97.000000 1.000000 4.000000 1.000000 -60.708740 114.000000 133.000000 0.987304 -0.157923 -0.017042
1.57000005 1.20000005 -0.63000000 136 174 100 97.000000 1.000000 4.000000 1.000000 -60.708740 114.000000 133.000000 0.341768 0.916625 0.207349
1.46000004 1.16999996 -0.56999999 136 174 100 97.000000 1.000000 4.000000 1.000000 -60.708740 114.000000 133.000000 0.915402 0.271284 0.297397
1.45000005 1.15999997 -0.58999997 136 174 100 97.000000 1.000000 4.000000 1.000000 -60.708740 114.000000 133.000000 0.851185 0.523912 -0.031627
1.46000004 1.21000004 -0.58999997 136 174 100 97.000000 1.000000 4.000000 1.000000 -60.708740 114.000000 133.000000 0.866799 -0.039711 0.497074
1.59000003 0.99000001 -0.38000000 136 174 100 97.000000 1.000000 4.000000 1.000000 -60.708740 114.000000 133.000000 -0.431335 0.894985 -0.113805
1.59000003 0.99000001 -0.36000001 136 174 100 97.000000 1.000000 4.000000 1.000000 -60.708740 114.000000 133.000000 -0.511411 0.819190 0.259591
1.59000003 0.98000002 -0.40000001 136 174 100 97.000000 1.000000 4.000000 1.000000 -60.708740 114.000000 133.000000 -0.061698 0.996906 -0.048709
1.52999997 1.01999998 -0.41000000 136 174 100 97.000000 1.000000 4.000000 1.000000 -60.708740 114.000000 133.000000 -0.308483 0.895644 0.320405
1.59000003 1.01999998 -0.49000001 136 174 100 97.000000 1.000000 4.000000 1.000000 -60.708740 114.000000 133.000000 -0.099353 0.985147 -0.140051
1.59000003 0.97000003 -0.46000001 136 174 100 97.000000 1.000000 4.000000 1.000000 -60.708740 114.000000 133.000000 -0.066109 0.993878 0.088519
1.59000003 0.99000001 -0.47999999 136 174 100 97.000000 1.000000 4.000000 1.000000 -60.708740 114.000000 133.000000 -0.083930 0.901220 0.425156
1.45000005 0.99000001 -0.41000000 136 174 100 97.000000 1.000000 4.000000 1.000000 -60.708740 114.000000 133.000000 0.597877 0.742137 0.302946
1.52999997 0.97000003 -0.54000002 136 174 100 97.000000 1.000000 4.000000 1.000000 -60.708740 114.000000 133.000000 0.222695 0.934197 0.278718
1.52999997 0.97000003 -0.54000002 136 174 100 97.000000 1.000000 4.000000 1.000000 -60.708740 114.000000 133.000000 0.222695 0.934197 0.278718
1.44000006 0.97000003 -0.56000000 136 174 100 97.000000 1.000000 4.000000 1.000000 -60.708740 114.000000 133.000000 0.556256 0.830983 0.006800
1.48000002 0.97000003 -0.67000002 136 174 100 97.000000 1.000000 4.000000 1.000000 -60.708740 114.000000 133.000000 0.588055 0.802949 -0.097283
1.50999999 0.97000003 -0.69000000 136 174 100 97.000000 1.000000 4.000000 1.000000 -60.708740 114.000000 133.000000 0.432119 0.900585 -0.047116
1.50000000 0.97000003 -0.68000001 136 174 100 97.000000 1.000000 4.000000 1.000000 -60.708740 114.000000 133.000000 -0.043842 0.997664 -0.052396
1.46000004 0.98000002 -0.62000000 136 174 100 97.000000 1.000000 4.000000 1.000000 -60.708740 114.000000 133.000000 0.104379 0.972110 0.210016
1.45000005 0.97000003 -0.68000001 136 174 100 97.000000 1.000000 4.000000 1.000000 -60.708740 114.000000 133.000000 0.221591 0.950259 0.218872
1.45000005 0.97000003 -0.68000001 136 174 100 97.000000 1.000000 4.000000 1.000000 -60.708740 114.000000 133.000000 0.221591 0.950259 0.218872
1.47000003 1.00999999 -0.66000003 136 174 100 97.000000 1.000000 4.000000 1.000000 -60.708740 114.000000 133.000000 0.063331 0.997202 0.039716
1.45000005 0.99000001 -0.68000001 136 174 100 97.000000 1.000000 4.000000 1.000000 -60.708740 114.000000 133.000000 0.558805 0.819875 -0.124668
1.39999998 1.24000001 -0.44999999 136 174 100 97.000000 1.000000 4.000000 1.000000 -60.708740 114.000000 133.000000 0.788572 -0.609810 0.079290
1.37000000 1.26999998 -0.50999999 136 174 100 97.000000 1.000000 4.000000 1.000000 -60.708740 114.000000 133.000000 0.767531 -0.517637 0.378086
1.36000001 1.24000001 -0.47000000 136 174 100 97.000000 1.000000 4.000000 1.000000 -60.708740 114.000000 133.000000 0.973244 0.022745 0.228646
1.36000001 1.23000002 -0.46000001 136 174 100 97.000000 1.000000 4.000000 1.000000 -60.708740 114.000000 133.000000 0.966673 0.195930 0.164789
1.35000002 1.23000002 -0.49000001 136 174 100 97.000000 1.000000 4.000000 1.000000 -60.708740 114.000000 133.000000 0.984214 0.147812 -0.097340
1.38999999 1.13999999 -0.37000000 136 174 100 97.000000 1.000000 4.000000 1.000000 -60.708740 114.000000 133.000000 0.975267 -0.164852 0.147234
1.37000000 1.17999995 -0.43000001 136 174 100 97.000000 1.000000 4.000000 1.000000 -60.708740 114.000000 133.000000 0.945905 0.237506 -0.221031
1.35000002 1.17999995 -0.40000001 136 174 100 97.000000 1.000000 4.000000 1.000000 -60.708740 114.000000 133.000000 0.961894 0.231640 -0.145266
1.36000001 1.14999998 -0.38000000 136 174 100 97.000000 1.000000 4.000000 1.000000 -60.708740 114.000000 133.000000 0.954203 0.191914 0.229492
1.36000001 1.13999999 -0.38999999 136 174 100 97.000000 1.000000 4.000000 1.000000 -60.708740 114.000000 133.000000 0.864610 0.501282 -0.034147
1.38000000 1.13999999 -0.43000001 136 174 100 97.000000 1.000000 4.000000 1.000000 -60.708740 114.000000 133.000000 0.906514 0.191679 0.376153
1.38000000 1.15999997 -0.41999999 136 174 100 97.000000 1.000000 4.000000 1.000000 -60.708740 114.000000 133.000000 0.931457 0.261487 -0.253006
1.38999999 1.14999998 -0.46000001 136 174 100 97.000000 1.000000 4.000000 1.000000 -60.708740 114.000000 133.000000 0.916653 0.293966 0.270796
1.38999999 1.16999996 -0.50000000 136 174 100 97.000000 1.000000 4.000000 1.000000 -60.708740 114.000000 133.000000 0.942043 0.335089 -0.016438
1.37000000 1.22000003 -0.47000000 136 174 100 97.000000 1.000000 4.000000 1.000000 -60.708740 114.000000 133.000000 0.813345 -0.506186 0.286786
1.36000001 1.17999995 -0.44000000 136 174 100 97.000000 1.000000 4.000000 1.000000 -60.708740 114.000000 133.000000 0.914054 0.396408 0.085820
1.35000002 1.21000004 -0.51999998 136 174 100 97.000000 1.000000 4.000000 1.000000 -60.708740 114.000000 133.000000 0.852027 -0.092767 0.515212
1.38000000 1.15999997 -0.47999999 136 174 100 97.000000 1.000000 4.000000 1.000000 -60.708740 114.000000 133.000000 0.941834 -0.122264 0.313049
1.35000002 1.13999999 -0.44000000 136 174 100 97.000000 1.000000 4.000000 1.000000 -60.708740 114.000000 133.000000 0.861536 0.042732 0.505894
1.38000000 1.15999997 -0.47000000 136 174 100 97.000000 1.000000 4.000000 1.000000 -60.708740 114.000000 133.000000 0.909907 0.215542 0.354415
1.38000000 1.16999996 -0.47999999 136 174 100 97.000000 1.000000 4.000000 1.000000 -60.708740 114.000000 133.000000 0.864565 0.488917 0.116136
1.33000004 1.25000000 -0.38000000 136 174 100 97.000000 1.000000 4.000000 1.000000 -60.708740 114.000000 133.000000 -0.739881 0.655151 -0.152818
1.34000003 1.23000002 -0.43000001 136 174 100 97.000000 1.000000 4.000000 1.000000 -60.708740 114.000000 133.000000 0.986956 0.040402 -0.155835
1.26999998 1.27999997 -0.38000000 136 174 100 97.000000 1.000000 4.000000 1.000000 -60.708740 114.000000 133.000000 0.811267 -0.474695 0.341336
1.28999996 1.29999995 -0.41000000 136 174 100 97.000000 1.000000 4.000000 1.000000 -60.708740 114.000000 133.000000 -0.763173 0.611468 0.208983
1.28999996 1.27999997 -0.40000001 136 174 100 97.000000 1.000000 4.000000 1.000000 -60.708740 114.000000 133.000000 0.967854 0.010821 0.251281
1.27999997 1.23000002 -0.37000000 136 174 100 97.000000 1.000000 4.000000 1.000000 -60.708740 114.000000 133.000000 0.991483 0.097655 0.086166
1.27999997 1.23000002 -0.37000000 136 174 100 97.000000 1.000000 4.000000 1.000000 -60.708740 114.000000 133.000000 0.991483 0.097655 0.086166
1.27999997 1.23000002 -0.37000000 136 174 100 97.000000 1.000000 4.000000 1.000000 -60.708740 114.000000 133.000000 0.991483 0.097655 0.086166
1.33000004 1.29999995 -0.44999999 136 174 100 97.000000 1.000000 4.000000 1.000000 -60.708740 114.000000 133.000000 0.988927 -0.142908 -0.040014
1.34000003 1.27999997 -0.50999999 136 174 100 97.000000 1.000000 4.000000 1.000000 -60.708740 114.000000 133.000000 0.944327 -0.147678 0.294002
1.33000004 1.25000000 -0.47000000 136 174 100 97.000000 1.000000 4.000000 1.000000 -60.708740 114.000000 133.000000 0.825355 -0.296000 0.480805
1.33000004 1.25000000 -0.47000000 136 174 100 97.000000 1.000000 4.000000 1.000000 -60.708740 114.000000 133.000000 0.825355 -0.296000 0.480805
1.33000004 1.25999999 -0.44999999 136 174 100 97.000000 1.000000 4.000000 1.000000 -60.708740 114.000000 133.000000 0.994744 -0.072406 0.072406
1.34000003 1.23000002 -0.47000000 136 174 100 97.000000 1.000000 4.000000 1.000000 -60.708740 114.000000 133.000000 0.935642 0.120510 0.331740
1.33000004 1.25000000 -0.50999999 136 174 100 97.000000 1.000000 4.000000 1.000000 -60.708740 114.000000 133.000000 0.876016 -0.394888 0.276875
1.33000004 1.25999999 -0.50999999 136 174 100 97.000000 1.000000 4.000000 1.000000 -60.708740 114.000000 133.000000 0.911684 -0.069087 0.405042
1.28999996 1.28999996 -0.44000000 136 174 100 97.000000 1.000000 4.000000 1.000000 -60.708740 114.000000 133.000000 0.762317 -0.610164 -0.215809
1.26999998 1.24000001 -0.44000000 136 174 100 97.000000 1.000000 4.000000 1.000000 -60.708740 114.000000 133.000000 0.948822 -0.295101 -0.112482
1.34000003 1.16999996 -0.40000001 136 174 100 97.000000 1.000000 4.000000 1.000000 -60.708740 114.000000 133.000000 0.973756 -0.183132 0.135139
1.29999995 1.21000004 -0.38000000 136 174 100 97.000000 1.000000 4.000000 1.000000 -60.708740 114.000000 133.000000 0.968254 0.040497 -0.246666
1.33000004 1.16999996 -0.49000001 136 174 100 97.000000 1.000000 4.000000 1.000000 -60.708740 114.000000 133.000000 0.907272 0.044094 0.418227
1.36000001 1.26999998 -0.56000000 136 174 100 97.000000 1.000000 4.000000 1.000000 -60.708740 114.000000 133.000000 0.968879 -0.178850 0.171130
1.36000001 1.29999995 -0.54000002 136 174 100 97.000000 1.000000 4.000000 1.000000 -60.708740 114.000000 133.000000 0.981334 -0.166596 -0.096066
1.36000001 1.25999999 -0.55000001 136 174 100 97.000000 1.000000 4.000000 1.000000 -60.708740 114.000000 133.000000 0.845199 -0.491395 -0.210166
1.39999998 1.28999996 -0.69000000 136 174 100 97.000000 1.000000 4.000000 1.000000 -60.708740 114.000000 133.000000 0.960561 -0.072519 0.268448
1.36000001 1.27999997 -0.69000000 136 174 100 97.000000 1.000000 4.000000 1.000000 -60.708740 114.000000 133.000000 0.999186 -0.034028 -0.021654
1.35000002 1.25000000 -0.62000000 136 174 100 97.000000 1.000000 4.000000 1.000000 -60.708740 114.000000 133.000000 0.999586 0.027289 0.009096
1.35000002 1.25999999 -0.62000000 136 174 100 97.000000 1.000000 4.000000 1.000000 -60.708740 114.000000 133.000000 0.937205 0.021677 0.348105
1.36000001 1.25000000 -0.68000001 136 174 100 97.000000 1.000000 4.000000 1.000000 -60.708740 114.000000 133.000000 0.964493 -0.127824 -0.231117
1.39999998 1.14999998 -0.58999997 136 174 100 97.000000 1.000000 4.000000 1.000000 -60.708740 114.000000 133.000000 0.793179 0.608975 0.004124
1.36000001 1.21000004 -0.52999997 136 174 100 97.000000 1.000000 4.000000 1.000000 -60.708740 114.000000 133.000000 0.913516 -0.294823 0.280300
1.35000002 1.20000005 -0.57999998 136 174 100 97.000000 1.000000 4.000000 1.000000 -60.708740 114.000000 133.000000 0.946587 0.313793 -0.074217
1.38000000 1.13999999 -0.58999997 136 174 100 97.000000 1.000000 4.000000 1.000000 -60.708740 114.000000 133.000000 0.879310 0.136718 0.456205
1.40999997 1.21000004 -0.67000002 136 174 100 97.000000 1.000000 4.000000 1.000000 -60.708740 114.000000 133.000000 0.991547 0.119258 -0.051111
1.37000000 1.16999996 -0.63000000 136 174 100 97.000000 1.000000 4.000000 1.000000 -60.708740 114.000000 133.000000 0.895124 0.445579 0.014544
1.36000001 1.15999997 -0.61000001 136 174 100 97.000000 1.000000 4.000000 1.000000 -60.708740 114.000000 133.000000 0.965244 0.138632 -0.221553
1.34000003 1.28999996 -0.67000002 136 174 100 97.000000 1.000000 4.000000 1.000000 -60.708740 114.000000 133.000000 0.946027 -0.192482 0.260738
1.32000005 1.15999997 -0.63000000 136 174 100 97.000000 1.000000 4.000000 1.000000 -60.708740 114.000000 133.000000 0.905251 0.369342 -0.210018
1.32000005 1.14999998 -0.62000000 136 174 100 97.000000 1.000000 4.000000 1.000000 -60.708740 114.000000 133.000000 0.961390 0.273446 0.030933
1.39999998 1.11000001 -0.41999999 136 174 100 97.000000 1.000000 4.000000 1.000000 -60.708740 114.000000 133.000000 0.950137 0.299287 0.087564
1.41999996 1.09000003 -0.38999999 136 174 100 97.000000 1.000000 4.000000 1.000000 -60.708740 114.000000 133.000000 0.692206 0.718218 0.070810
1.38000000 1.12000000 -0.40000001 136 174 100 97.000000 1.000000 4.000000 1.000000 -60.708740 114.000000 133.000000 0.836958 0.521798 -0.165013
1.36000001 1.09000003 -0.37000000 136 174 100 97.000000 1.000000 4.000000 1.000000 -60.708740 114.000000 133.000000 0.988966 0.068565 0.131320
1.37000000 1.08000004 -0.37000000 136 174 100 97.000000 1.000000 4.000000 1.000000 -60.708740 114.000000 133.000000 0.613215 0.685941 0.391730
1.38999999 1.12000000 -0.44000000 136 174 100 97.000000 1.000000 4.000000 1.000000 -60.708740 114.000000 133.000000 0.783643 0.328521 0.527236
1.38000000 1.11000001 -0.50999999 136 174 100 97.000000 1.000000 4.000000 1.000000 -60.708740 114.000000 133.000000 0.920717 0.390178 0.006439
1.35000002 1.12000000 -0.50999999 136 174 100 97.000000 1.000000 4.000000 1.000000 -60.708740 114.000000 133.000000 0.994003 -0.077324 0.077324
1.40999997 1.02999997 -0.40000001 136 174 100 97.000000 1.000000 4.000000 1.000000 -60.708740 114.000000 133.000000 0.897606 0.404859 0.174334
1.41999996 1.04999995 -0.44000000 136 174 100 97.000000 1.000000 4.000000 1.000000 -60.708740 114.000000 133.000000 0.796832 0.604161 0.006881
1.34000003 1.10000002 -0.38999999 136 174 100 97.000000 1.000000 4.000000 1.000000 -60.708740 114.000000 133.000000 0.822642 0.372487 0.429549
1.34000003 0.97000003 -0.37000000 136 174 100 97.000000 1.000000 4.000000 1.000000 -60.708740 114.000000 133.000000 0.733695 0.632713 0.247721
1.32000005 0.98000002 -0.47999999 136 174 100 97.000000 1.000000 4.000000 1.000000 -60.708740 114.000000 133.000000 0.915643 0.354580 0.189394
1.27999997 0.98000002 -0.44999999 136 174 100 97.000000 1.000000 4.000000 1.000000 -60.708740 114.000000 133.000000 0.546300 0.765465 0.340028
1.28999996 0.98000002 -0.51999998 136 174 100 97.000000 1.000000 4.000000 1.000000 -60.708740 114.000000 133.000000 0.599624 0.760153 0.250237
1.41999996 1.12000000 -0.57999998 136 174 100 97.000000 1.000000 4.000000 1.000000 -60.708740 114.000000 133.000000 0.763393 0.643533 -0.055649
1.39999998 1.05999994 -0.56000000 136 174 100 97.000000 1.000000 4.000000 1.000000 -60.708740 114.000000 133.000000 0.553680 0.811558 0.186582
1.40999997 1.05999994 -0.54000002 136 174 100 97.000000 1.000000 4.000000 1.000000 -60.708740 114.000000 133.000000 0.626681 0.764941 0.148780
1.38999999 1.07000005 -0.54000002 136 174 100 97.000000 1.000000 4.000000 1.000000 -60.708740 114.000000 133.000000 0.902039 0.430367 0.033310
1.40999997 1.05999994 -0.57999998 136 174 100 97.000000 1.000000 4.000000 1.000000 -60.708740 114.000000 133.000000 0.649562 0.752667 -0.107524
1.38000000 1.12000000 -0.56000000 136 174 100 97.000000 1.000000 4.000000 1.000000 -60.708740 114.000000 133.000000 0.871237 0.490324 0.022963
1.37000000 1.09000003 -0.55000001 136 174 100 97.000000 1.000000 4.000000 1.000000 -60.708740 114.000000 133.000000 0.941724 0.317480 0.111185
1.38000000 1.09000003 -0.56999999 136 174 100 97.000000 1.000000 4.000000 1.000000 -60.708740 114.000000 133.000000 0.952632 0.296974 0.065566
1.39999998 1.10000002 -0.62000000 136 174 100 97.000000 1.000000 4.000000 1.000000 -60.708740 114.000000 133.000000 0.677534 0.735490 -0.001380
1.39999998 1.11000001 -0.62000000 136 174 100 97.000000 1.000000 4.000000 1.000000 -60.708740 114.000000 133.000000 0.661672 0.728909 0.175733
1.39999998 1.09000003 -0.62000000 136 174 100 97.000000 1.000000 4.000000 1.000000 -60.708740 114.000000 133.000000 0.837741 0.523403 0.155686
1.38999999 1.05999994 -0.68000001 136 174 100 97.000000 1.000000 4.000000 1.000000 -60.708740 114.000000 133.000000 0.794157 0.557931 -0.240889
1.39999998 1.05999994 -0.67000002 136 174 100 97.000000 1.000000 4.000000 1.000000 -60.708740 114.000000 133.000000 0.655660 0.755045 0.004141
1.38999999 1.05999994 -0.66000003 136 174 100 97.000000 1.000000 4.000000 1.000000 -60.708740 114.000000 133.000000 0.445159 0.891705 0.081821
1.37000000 1.12000000 -0.67000002 136 174 100 97.000000 1.000000 4.000000 1.000000 -60.708740 114.000000 133.000000 0.880700 0.460914 -0.109201
1.41999996 1.04999995 -0.60000002 136 174 100 97.000000 1.000000 4.000000 1.000000 -60.708740 114.000000 133.000000 0.670157 0.730127 0.133432
1.38999999 1.02999997 -0.63999999 136 174 100 97.000000 1.000000 4.000000 1.000000 -60.708740 114.000000 133.000000 0.434845 0.833585 0.340655
1.41999996 0.97000003 -0.62000000 136 174 100 97.000000 1.000000 4.000000 1.000000 -60.708740 114.000000 133.000000 0.223119 0.972599 0.065333
1.40999997 0.98000002 -0.63000000 136 174 100 97.000000 1.000000 4.000000 1.000000 -60.708740 114.000000 133.000000 0.596202 0.798304 -0.085172
1.40999997 0.98000002 -0.69000000 136 174 100 97.000000 1.000000 4.000000 1.000000 -60.708740 114.000000 133.000000 0.295364 0.912283 0.283724
1.38000000 0.97000003 -0.62000000 136 174 100 97.000000 1.000000 4.000000 1.000000 -60.708740 114.000000 133.000000 0.330852 0.883784 0.330852
1.34000003 1.10000002 -0.69000000 136 174 100 97.000000 1.000000 4.000000 1.000000 -60.708740 114.000000 133.000000 0.778123 0.509581 0.367222
1.26999998 1.10000002 -0.62000000 136 174 100 97.000000 1.000000 4.000000 1.000000 -60.708740 114.000000 133.000000 0.997461 0.050355 0.050355
1.28999996 1.05999994 -0.69000000 136 174 100 97.000000 1.000000 4.000000 1.000000 -60.708740 114.000000 133.000000 0.983565 0.161731 -0.080267
1.26999998 1.01999998 -0.58999997 136 174 100 97.000000 1.000000 4.000000 1.000000 -60.708740 114.000000 133.000000 0.536071 0.766047 0.354682
1.29999995 0.97000003 -0.52999997 136 174 100 97.000000 1.000000 4.000000 1.000000 -60.708740 114.000000 133.000000 0.469705 0.789298 0.395456
1.28999996 0.98000002 -0.55000001 136 174 100 97.000000 1.000000 4.000000 1.000000 -60.708740 114.000000 133.000000 0.587107 0.758943 0.281621
1.26999998 0.98000002 -0.56999999 136 174 100 97.000000 1.000000 4.000000 1.000000 -60.708740 114.000000 133.000000 0.594110 0.747842 0.296254
1.27999997 0.98000002 -0.56999999 136 174 100 97.000000 1.000000 4.000000 1.000000 -60.708740 114.000000 133.000000 0.757356 0.646023 -0.095219
1.30999994 0.98000002 -0.63999999 136 174 100 97.000000 1.000000 4.000000 1.000000 -60.708740 114.000000 133.000000 0.623947 0.777400 -0.079622
1.30999994 0.98000002 -0.63999999 136 174 100 97.000000 1.000000 4.000000 1.000000 -60.708740 114.000000 133.000000 0.623947 0.777400 -0.079622
1.30999994 1.00999999 -0.64999998 136 174 100 97.000000 1.000000 4.000000 1.000000 -60.708740 114.000000 133.000000 0.787052 0.603258 -0.128952
1.32000005 0.98000002 -0.66000003 136 174 100 97.000000 1.000000 4.000000 1.000000 -60.708740 114.000000 133.000000 0.808793 0.560864 0.176876
1.30999994 1.00999999 -0.64999998 136 174 100 97.000000 1.000000 4.000000 1.000000 -60.708740 114.000000 133.000000 0.787052 0.603258 -0.128952
1.27999997 1.03999996 -0.64999998 136 174 100 97.000000 1.000000 4.000000 1.000000 -60.708740 114.000000 133.000000 0.985386 0.165972 0.038301
1.26999998 1.02999997 -0.68000001 136 174 100 97.000000 1.000000 4.000000 1.000000 -60.708740 114.000000 133.000000 0.730911 0.653648 -0.196249
1.28999996 1.00000000 -0.62000000 136 174 100 97.000000 1.000000 4.000000 1.000000 -60.708740 114.000000 133.000000 0.569255 0.817133 0.090793
1.27999997 1.00999999 -0.62000000 136 174 100 97.000000 1.000000 4.000000 1.000000 -60.708740 114.000000 133.000000 0.918050 0.395688 -0.024812
1.29999995 0.99000001 -0.61000001 136 174 100 97.000000 1.000000 4.000000 1.000000 -60.708740 114.000000 133.000000 0.486938 0.755820 0.437753
1.28999996 1.00000000 -0.64999998 136 174 100 97.000000 1.000000 4.000000 1.000000 -60.708740 114.000000 133.000000 0.675735 0.737038 -0.012539
1.28999996 1.00000000 -0.67000002 136 174 100 97.000000 1.000000 4.000000 1.000000 -60.708740 114.000000 133.000000 0.843710 0.536659 0.012228
1.19000006 1.30999994 -0.11000000 136 174 100 97.000000 1.000000 4.000000 1.000000 -60.708740 114.000000 133.000000 0.853397 -0.517083 0.065862
1.13999999 1.46000004 -0.16000000 136 174 100 97.000000 1.000000 4.000000 1.000000 -60.708740 114.000000 133.000000 -0.575510 0.723076 -0.382033
1.20000005 1.37000000 -0.23000000 136 174 100 97.000000 1.000000 4.000000 1.000000 -60.708740 114.000000 133.000000 0.977602 -0.200378 -0.064364
1.17999995 1.34000003 -0.25999999 136 174 100 97.000000 1.000000 4.000000 1.000000 -60.708740 114.000000 133.000000 -0.651081 0.686801 -0.323105
1.19000006 1.33000004 -0.23000000 136 174 100 97.000000 1.000000 4.000000 1.000000 -60.708740 114.000000 133.000000 0.942289 -0.306886 0.133840
1.25000000 1.35000002 -0.30000001 136 174 100 97.000000 1.000000 4.000000 1.000000 -60.708740 114.000000 133.000000 0.934389 -0.346907 -0.081078
1.17999995 1.35000002 -0.28000000 136 174 100 97.000000 1.000000 4.000000 1.000000 -60.708740 114.000000 133.000000 0.984521 -0.140646 -0.104583
1.22000003 1.30999994 -0.28999999 136 174 100 97.000000 1.000000 4.000000 1.000000 -60.708740 114.000000 133.000000 0.918471 -0.373780 0.129225
1.20000005 1.30999994 -0.28000000 136 174 100 97.000000 1.000000 4.000000 1.000000 -60.708740 114.000000 133.000000 0.796084 -0.387589 0.464785
1.17999995 1.33000004 -0.28000000 136 174 100 97.000000 1.000000 4.000000 1.000000 -60.708740 114.000000 133.000000 0.942112 -0.279195 -0.185672
1.21000004 1.30999994 -0.34000000 136 174 100 97.000000 1.000000 4.000000 1.000000 -60.708740 114.000000 133.000000 0.782399 -0.547520 -0.296772
1.15999997 1.35000002 -0.23999999 136 174 100 97.000000 1.000000 4.000000 1.000000 -60.708740 114.000000 133.000000 0.952774 -0.303658 0.003688
1.14999998 1.38000000 -0.23000000 136 174 100 97.000000 1.000000 4.000000 1.000000 -60.708740 114.000000 133.000000 0.891992 -0.348131 -0.288366
1.15999997 1.35000002 -0.23999999 136 174 100 97.000000 1.000000 4.000000 1.000000 -60.708740 114.000000 133.000000 0.952774 -0.303658 0.003688
1.16999996 1.32000005 -0.25999999 136 174 100 97.000000 1.000000 4.000000 1.000000 -60.708740 114.000000 133.000000 0.987913 -0.114216 -0.104797
1.14999998 1.30999994 -0.25000000 136 174 100 97.000000 1.000000 4.000000 1.000000 -60.708740 114.000000 133.000000 0.994837 -0.047584 0.089635
1.16999996 1.33000004 -0.25999999 136 174 100 97.000000 1.000000 4.000000 1.000000 -60.708740 114.000000 133.000000 0.920352 -0.390728 0.016875
1.23000002 1.30999994 -0.37000000 136 174 100 97.000000 1.000000 4.000000 1.000000 -60.708740 114.000000 133.000000 0.702627 -0.597315 0.386692
1.22000003 1.32000005 -0.50000000 136 174 100 97.000000 1.000000 4.000000 1.000000 -60.708740 114.000000 133.000000 0.947893 -0.305476 -0.090463
1.16999996 1.34000003 -0.50999999 136 174 100 97.000000 1.000000 4.000000 1.000000 -60.708740 114.000000 133.000000 0.876131 -0.235132 0.420842
1.17999995 1.35000002 -0.54000002 136 174 100 97.000000 1.000000 4.000000 1.000000 -60.708740 114.000000 133.000000 0.991551 0.009949 0.129333
1.22000003 1.35000002 -0.57999998 136 174 100 97.000000 1.000000 4.000000 1.000000 -60.708740 114.000000 133.000000 0.896232 -0.307662 -0.319552
1.13999999 1.27999997 -0.08000000 136 174 100 97.000000 1.000000 4.000000 1.000000 -60.708740 114.000000 133.000000 0.895982 -0.390256 0.211937
1.13999999 1.25000000 -0.06000000 136 174 100 97.000000 1.000000 4.000000 1.000000 -60.708740 114.000000 133.000000 0.867764 -0.484633 0.110079
1.11000001 1.28999996 -0.04000000 136 174 100 97.000000 1.000000 4.000000 1.000000 -60.708740 114.000000 133.000000 0.983029 -0.050867 -0.176259
1.11000001 1.27999997 -0.07000000 136 174 100 97.000000 1.000000 4.000000 1.000000 -60.708740 114.000000 133.000000 0.948270 -0.295754 0.115384
1.12000000 1.24000001 -0.05000000 136 174 100 97.000000 1.000000 4.000000 1.000000 -60.708740 114.000000 133.000000 0.940253 0.072327 0.332705
1.13999999 1.27999997 -0.17000000 136 174 100 97.000000 1.000000 4.000000 1.000000 -60.708740 114.000000 133.000000 0.789878 -0.600188 -0.125965
1.13999999 1.27999997 -0.18000001 136 174 100 97.000000 1.000000 4.000000 1.000000 -60.708740 114.000000 133.000000 0.865761 -0.182032 0.466179
1.16999996 1.25000000 -0.14000000 136 174 100 97.000000 1.000000 4.000000 1.000000 -60.708740 114.000000 133.000000 0.746410 -0.639123 0.185453
1.13999999 1.23000002 -0.12000000 136 174 100 97.000000 1.000000 4.000000 1.000000 -60.708740 114.000000 133.000000 0.952326 -0.303184 0.033967
1.14999998 1.25999999 -0.15000001 136 174 100 97.000000 1.000000 4.000000 1.000000 -60.708740 114.000000 133.000000 0.879315 -0.313285 0.358688
1.13000000 1.26999998 -0.11000000 136 174 100 97.000000 1.000000 4.000000 1.000000 -60.708740 114.000000 133.000000 0.992567 -0.043839 0.113533
1.13999999 1.20000005 -0.15000001 136 174 100 97.000000 1.000000 4.000000 1.000000 -60.708740 114.000000 133.000000 0.941040 -0.171223 0.291764
1.13999999 1.19000006 -0.18000001 136 174 100 97.000000 1.000000 4.000000 1.000000 -60.708740 114.000000 133.000000 0.948140 -0.269158 -0.169069
1.14999998 1.20000005 -0.18000001 136 174 100 97.000000 1.000000 4.000000 1.000000 -60.708740 114.000000 133.000000 0.943586 -0.329039 0.037129
1.25000000 1.29999995 -0.25999999 136 174 100 97.000000 1.000000 4.000000 1.000000 -60.708740 114.000000 133.000000 0.778585 -0.627537 0.001373
1.25000000 1.29999995 -0.25999999 136 174 100 97.000000 1.000000 4.000000 1.000000 -60.708740 114.000000 133.000000 0.778585 -0.627537 0.001373
1.23000002 1.29999995 -0.25000000 136 174 100 97.000000 1.000000 4.000000 1.000000 -60.708740 114.000000 133.000000 0.870912 -0.353569 0.341324
1.22000003 1.29999995 -0.19000000 136 174 100 97.000000 1.000000 4.000000 1.000000 -60.708740 114.000000 133.000000 0.827302 -0.555821 -0.081444
1.25999999 1.29999995 -0.28999999 136 174 100 97.000000 1.000000 4.000000 1.000000 -60.708740 114.000000 133.000000 0.846748 -0.462561 -0.262784
1.23000002 1.28999996 -0.30000001 136 174 100 97.000000 1.000000 4.000000 1.000000 -60.708740 114.000000 133.000000 0.950868 -0.266887 -0.156913
1.24000001 1.27999997 -0.34999999 136 174 100 97.000000 1.000000 4.000000 1.000000 -60.708740 114.000000 133.000000 0.852050 -0.487952 0.189510
1.24000001 1.25999999 -0.34000000 136 174 100 97.000000 1.000000 4.000000 1.000000 -60.708740 114.000000 133.000000 0.992579 0.111538 0.048446
1.17999995 1.29999995 -0.28000000 136 174 100 97.000000 1.000000 4.000000 1.000000 -60.708740 114.000000 133.000000 0.927921 -0.352253 -0.121987
1.19000006 1.29999995 -0.31000000 136 174 100 97.000000 1.000000 4.000000 1.000000 -60.708740 114.000000 133.000000 0.930941 -0.358869 -0.067536
1.19000006 1.28999996 -0.30000001 136 174 100 97.000000 1.000000 4.000000 1.000000 -60.708740 114.000000 133.000000 0.968119 -0.244199 0.055782
1.19000006 1.28999996 -0.28999999 136 174 100 97.000000 1.000000 4.000000 1.000000 -60.708740 114.000000 133.000000 0.946800 -0.310362 0.085120
1.17999995 1.17999995 -0.31000000 136 174 100 97.000000 1.000000 4.000000 1.000000 -60.708740 114.000000 133.000000 0.895112 0.162356 0.415229
1.15999997 1.26999998 -0.20999999 136 174 100 97.000000 1.000000 4.000000 1.000000 -60.708740 114.000000 133.000000 0.755341 -0.512845 0.407982
1.16999996 1.25000000 -0.22000000 136 174 100 97.000000 1.000000 4.000000 1.000000 -60.708740 114.000000 133.000000 0.970158 -0.057938 0.235451
1.13999999 1.25999999 -0.25000000 136 174 100 97.000000 1.000000 4.000000 1.000000 -60.708740 114.000000 133.000000 0.866127 -0.495129 -0.068342
1.13000000 1.26999998 -0.19000000 136 174 100 97.000000 1.000000 4.000000 1.000000 -60.708740 114.000000 133.000000 0.941408 0.037245 0.335208
1.13000000 1.28999996 -0.25999999 136 174 100 97.000000 1.000000 4.000000 1.000000 -60.708740 114.000000 133.000000 0.858353 -0.494027 -0.138444
1.13000000 1.24000001 -0.27000001 136 174 100 97.000000 1.000000 4.000000 1.000000 -60.708740 114.000000 133.000000 0.949433 0.185553 0.253272
1.15999997 1.24000001 -0.34000000 136 174 100 97.000000 1.000000 4.000000 1.000000 -60.708740 114.000000 133.000000 0.999368 -0.029725 0.019475
1.13000000 1.19000006 -0.22000000 136 174 100 97.000000 1.000000 4.000000 1.000000 -60.708740 114.000000 133.000000 0.966221 -0.253618 0.045775
1.13000000 1.21000004 -0.23000000 136 174 100 97.000000 1.000000 4.000000 1.000000 -60.708740 114.000000 133.000000 0.959701 -0.271469 -0.072647
1.22000003 0.98000002 -0.09000000 136 174 100 97.000000 1.000000 4.000000 1.000000 -60.708740 114.000000 133.000000 0.747437 0.656035 -0.104671
1.17999995 0.97000003 -0.04000000 136 174 100 97.000000 1.000000 4.000000 1.000000 -60.708740 114.000000 133.000000 0.615946 0.736907 0.278529
1.17999995 0.97000003 -0.03000000 136 174 100 97.000000 1.000000 4.000000 1.000000 -60.708740 114.000000 133.000000 0.617411 0.764486 0.185376
1.16999996 0.99000001 -0.07000000 136 174 100 97.000000 1.000000 4.000000 1.000000 -60.708740 114.000000 133.000000 0.839277 0.374929 0.393754
1.25000000 1.13000000 -0.30000001 136 174 100 97.000000 1.000000 4.000000 1.000000 -60.708740 114.000000 133.000000 0.942399 -0.061093 0.328865
1.23000002 0.97000003 -0.34999999 136 174 100 97.000000 1.000000 4.000000 1.000000 -60.708740 114.000000 133.000000 0.964364 0.147062 0.219943
1.21000004 0.97000003 -0.30000001 136 174 100 97.000000 1.000000 4.000000 1.000000 -60.708740 114.000000 133.000000 0.801461 0.571173 0.177261
1.20000005 0.98000002 -0.28999999 136 174 100 97.000000 1.000000 4.000000 1.000000 -60.708740 114.000000 133.000000 0.913953 0.405769 -0.006482
1.25999999 1.29999995 -0.36000001 136 174 100 97.000000 1.000000 4.000000 1.000000 -60.708740 114.000000 133.000000 0.902909 -0.241459 0.355603
1.24000001 1.27999997 -0.36000001 136 174 100 97.000000 1.000000 4.000000 1.000000 -60.708740 114.000000 133.000000 0.977237 -0.135693 -0.163080
1.24000001 1.29999995 -0.41000000 136 174 100 97.000000 1.000000 4.000000 1.000000 -60.708740 114.000000 133.000000 0.997014 -0.015961 0.075548
1.25999999 1.25000000 -0.38999999 136 174 100 97.000000 1.000000 4.000000 1.000000 -60.708740 114.000000 133.000000 0.906316 -0.368598 0.206704
1.25999999 1.25999999 -0.38999999 136 174 100 97.000000 1.000000 4.000000 1.000000 -60.708740 114.000000 133.000000 0.999995 0.002944 0.000981
1.17999995 1.29999995 -0.41000000 136 174 100 97.000000 1.000000 4.000000 1.000000 -60.708740 114.000000 133.000000 0.969151 -0.221701 0.107683
1.21000004 1.26999998 -0.43000001 136 174 100 97.000000 1.000000 4.000000 1.000000 -60.708740 114.000000 133.000000 0.988375 0.028500 0.149339
1.24000001 1.28999996 -0.46000001 136 174 100 97.000000 1.000000 4.000000 1.000000 -60.708740 114.000000 133.000000 0.946568 -0.013791 0.322209
1.23000002 1.27999997 -0.44999999 136 174 100 97.000000 1.000000 4.000000 1.000000 -60.708740 114.000000 133.000000 0.994231 -0.102396 0.031930
1.22000003 1.26999998 -0.50000000 136 174 100 97.000000 1.000000 4.000000 1.000000 -60.708740 114.000000 133.000000 0.985616 -0.052738 -0.160558
1.23000002 1.20000005 -0.37000000 136 174 100 97.000000 1.000000 4.000000 1.000000 -60.708740 114.000000 133.000000 0.873302 0.014756 0.486956
1.25999999 1.20000005 -0.38000000 136 174 100 97.000000 1.000000 4.000000 1.000000 -60.708740 114.000000 133.000000 0.859531 -0.218270 0.462130
1.25999999 1.21000004 -0.37000000 136 174 100 97.000000 1.000000 4.000000 1.000000 -60.708740 114.000000 133.000000 0.938369 0.230061 0.257947
1.25000000 1.16999996 -0.36000001 136 174 100 97.000000 1.000000 4.000000 1.000000 -60.708740 114.000000 133.000000 0.895281 0.243363 0.373157
1.25999999 1.20000005 -0.44999999 136 174 100 97.000000 1.000000 4.000000 1.000000 -60.708740 114.000000 133.000000 0.972121 -0.128011 -0.196452
1.25999999 1.13999999 -0.44000000 136 174 100 97.000000 1.000000 4.000000 1.000000 -60.708740 114.000000 133.000000 0.996146 -0.051393 0.071075
1.20000005 1.22000003 -0.50999999 136 174 100 97.000000 1.000000 4.000000 1.000000 -60.708740 114.000000 133.000000 0.977122 0.211493 -0.022449
1.21000004 1.14999998 -0.51999998 136 174 100 97.000000 1.000000 4.000000 1.000000 -60.708740 114.000000 133.000000 0.961382 0.136968 0.238715
1.23000002 1.28999996 -0.56000000 136 174 100 97.000000 1.000000 4.000000 1.000000 -60.708740 114.000000 133.000000 0.883082 -0.179536 0.433513
1.24000001 1.28999996 -0.52999997 136 174 100 97.000000 1.000000 4.000000 1.000000 -60.708740 114.000000 133.000000 0.930835 -0.319582 0.177236
1.20000005 1.29999995 -0.55000001 136 174 100 97.000000 1.000000 4.000000 1.000000 -60.708740 114.000000 133.000000 0.985492 0.055075 -0.160538
1.21000004 1.26999998 -0.57999998 136 174 100 97.000000 1.000000 4.000000 1.000000 -60.708740 114.000000 133.000000 0.942321 0.047696 0.331295
1.23000002 1.27999997 -0.64999998 136 174 100 97.000000 1.000000 4.000000 1.000000 -60.708740 114.000000 133.000000 0.990954 -0.122016 -0.055877
1.25000000 1.16999996 -0.58999997 136 174 100 97.000000 1.000000 4.000000 1.000000 -60.708740 114.000000 133.000000 0.983188 -0.173921 0.055608
1.25000000 1.14999998 -0.60000002 136 174 100 97.000000 1.000000 4.000000 1.000000 -60.708740 114.000000 133.000000 0.871673 0.451376 0.190910
1.22000003 1.13000000 -0.60000002 136 174 100 97.000000 1.000000 4.000000 1.000000 -60.708740 114.000000 133.000000 0.919552 0.286371 0.269102
1.25999999 0.99000001 -0.55000001 136 174 100 97.000000 1.000000 4.000000 1.000000 -60.708740 114.000000 133.000000 0.935986 0.340480 -0.089459
1.25999999 0.99000001 -0.55000001 136 174 100 97.000000 1.000000 4.000000 1.000000 -60.708740 114.000000 133.000000 0.935986 0.340480 -0.089459
1.25999999 1.00000000 -0.60000002 136 174 100 97.000000 1.000000 4.000000 1.000000 -60.708740 114.000000 133.000000 0.867797 0.487159 -0.098000
1.25000000 1.00999999 -0.60000002 136 174 100 97.000000 1.000000 4.000000 1.000000 -60.708740 114.000000 133.000000 0.922769 0.357695 -0.143356
1.25000000 1.00999999 -0.58999997 136 174 100 97.000000 1.000000 4.000000 1.000000 -60.708740 114.000000 133.000000 0.901084 0.426540 -0.078176
1.25000000 1.03999996 -0.69000000 136 174 100 97.000000 1.000000 4.000000 1.000000 -60.708740 114.000000 133.000000 0.819409 0.555657 -0.140766
1.59000003 1.55999994 -0.69999999 136 174 100 97.000000 1.000000 4.000000 1.000000 -60.708740 114.000000 133.000000 -0.015339 0.975766 -0.218279
1.54999995 1.51999998 -0.73000002 136 174 100 97.000000 1.000000 4.000000 1.000000 -60.708740 114.000000 133.000000 0.173628 0.978967 -0.107132
1.51999998 1.51999998 -0.76999998 136 174 100 97.000000 1.000000 4.000000 1.000000 -60.708740 114.000000 133.000000 0.083458 0.996081 -0.029265
1.55999994 1.48000002 -0.89999998 136 174 100 97.000000 1.000000 4.000000 1.000000 -60.708740 114.000000 133.000000 0.017707 0.976228 -0.216021
1.55999994 1.48000002 -0.92000002 136 174 100 97.000000 1.000000 4.000000 1.000000 -60.708740 114.000000 133.000000 -0.235219 0.851343 0.468921
1.52999997 1.40999997 -0.75000000 136 174 100 97.000000 1.000000 4.000000 1.000000 -60.708740 114.000000 133.000000 -0.098397 0.951169 0.292567
1.57000005 1.44000006 -0.81000000 136 174 100 97.000000 1.000000 4.000000 1.000000 -60.708740 114.000000 133.000000 0.079981 0.963581 -0.255177
1.51999998 1.44000006 -0.81000000 136 174 100 97.000000 1.000000 4.000000 1.000000 -60.708740 114.000000 133.000000 -0.349678 0.853214 0.386977
1.57000005 1.36000001 -0.72000003 136 174 100 97.000000 1.000000 4.000000 1.000000 -60.708740 114.000000 133.000000 0.067314 0.958911 -0.275607
1.55999994 1.38000000 -0.75999999 136 174 100 97.000000 1.000000 4.000000 1.000000 -60.708740 114.000000 133.000000 -0.404497 0.813790 0.417287
1.59000003 1.37000000 -0.80000001 136 174 100 97.000000 1.000000 4.000000 1.000000 -60.708740 114.000000 133.000000 -0.232545 0.846584 0.478768
1.49000001 1.44000006 -0.73000002 136 174 100 97.000000 1.000000 4.000000 1.000000 -60.708740 114.000000 133.000000 0.516405 -0.749197 -0.414764
1.42999995 1.40999997 -0.75999999 136 174 100 97.000000 1.000000 4.000000 1.000000 -60.708740 114.000000 133.000000 -0.538373 0.764717 0.354065
1.48000002 1.44000006 -0.83999997 136 174 100 97.000000 1.000000 4.000000 1.000000 -60.708740 114.000000 133.000000 -0.163098 0.982214 0.093026
1.46000004 1.45000005 -0.77999997 136 174 100 97.000000 1.000000 4.000000 1.000000 -60.708740 114.000000 133.000000 -0.421015 0.811614 0.405006
1.47000003 1.46000004 -0.79000002 136 174 100 97.000000 1.000000 4.000000 1.000000 -60.708740 114.000000 133.000000 -0.376562 0.806004 0.456682
1.45000005 1.44000006 -0.77999997 136 174 100 97.000000 1.000000 4.000000 1.000000 -60.708740 114.000000 133.000000 -0.724152 0.635026 0.268971
1.47000003 1.47000003 -0.81999999 136 174 100 97.000000 1.000000 4.000000 1.000000 -60.708740 114.000000 133.000000 -0.152730 0.981136 0.118518
1.45000005 1.44000006 -0.85000002 136 174 100 97.000000 1.000000 4.000000 1.000000 -60.708740 114.000000 133.000000 0.832825 -0.514258 -0.204793
1.57000005 1.38999999 -0.88999999 136 174 100 97.000000 1.000000 4.000000 1.000000 -60.708740 114.000000 133.000000 -0.022264 0.997658 0.064673
1.54999995 1.42999995 -0.86000001 136 174 100 97.000000 1.000000 4.000000 1.000000 -60.708740 114.000000 133.000000 -0.083446 0.958990 0.270879
1.54999995 1.38999999 -0.92000002 136 174 100 97.000000 1.000000 4.000000 1.000000 -60.708740 114.000000 133.000000 -0.132168 0.959198 -0.249941
1.51999998 1.44000006 -0.99000001 136 174 100 97.000000 1.000000 4.000000 1.000000 -60.708740 114.000000 133.000000 -0.242791 0.927150 -0.285386
1.54999995 1.35000002 -0.88000000 136 174 100 97.000000 1.000000 4.000000 1.000000 -60.708740 114.000000 133.000000 -0.595029 0.783734 0.178052
1.54999995 1.34000003 -0.93000001 136 174 100 97.000000 1.000000 4.000000 1.000000 -60.708740 114.000000 133.000000 -0.437217 0.872941 -0.216370
1.55999994 1.33000004 -0.99000001 136 174 100 97.000000 1.000000 4.000000 1.000000 -60.708740 114.000000 133.000000 -0.361442 0.898442 0.249321
1.52999997 1.33000004 -0.99000001 136 174 100 97.000000 1.000000 4.000000 1.000000 -60.708740 114.000000 133.000000 -0.615850 0.772448 -0.155092
1.50000000 1.46000004 -0.86000001 136 174 100 97.000000 1.000000 4.000000 1.000000 -60.708740 114.000000 133.000000 0.622458 -0.688152 -0.372818
1.48000002 1.45000005 -0.99000001 136 174 100 97.000000 1.000000 4.000000 1.000000 -60.708740 114.000000 133.000000 0.678049 -0.678049 -0.283723
1.49000001 1.45000005 -0.99000001 136 174 100 97.000000 1.000000 4.000000 1.000000 -60.708740 114.000000 133.000000 -0.291910 0.943615 0.156138
1.47000003 1.39999998 -1.01999998 136 174 100 97.000000 1.000000 4.000000 1.000000 -60.708740 114.000000 133.000000 0.610597 -0.767475 -0.195329
1.49000001 1.32000005 -0.98000002 136 174 100 97.000000 1.000000 4.000000 1.000000 -60.708740 114.000000 133.000000 -0.677359 0.732241 0.070769
1.38000000 1.38999999 -0.72000003 136 174 100 97.000000 1.000000 4.000000 1.000000 -60.708740 114.000000 133.000000 0.851688 -0.464696 -0.242251
1.38000000 1.45000005 -0.83999997 136 174 100 97.000000 1.000000 4.000000 1.000000 -60.708740 114.000000 133.000000 -0.671874 0.645590 0.363042
1.35000002 1.38999999 -0.80000001 136 174 100 97.000000 1.000000 4.000000 1.000000 -60.708740 114.000000 133.000000 -0.670428 0.722351 0.169516
1.37000000 1.41999996 -0.81999999 136 174 100 97.000000 1.000000 4.000000 1.000000 -60.708740 114.000000 133.000000 0.834884 -0.514820 -0.194756
1.38000000 1.33000004 -0.76999998 136 174 100 97.000000 1.000000 4.000000 1.000000 -60.708740 114.000000 133.000000 0.979973 -0.196938 -0.029482
1.36000001 1.35000002 -0.77999997 136 174 100 97.000000 1.000000 4.000000 1.000000 -60.708740 114.000000 133.000000 0.985486 -0.111361 -0.128125
1.40999997 1.44000006 -0.88999999 136 174 100 97.000000 1.000000 4.000000 1.000000 -60.708740 114.000000 133.000000 -0.365450 0.926436 -0.090351
1.36000001 1.39999998 -0.87000000 136 174 100 97.000000 1.000000 4.000000 1.000000 -60.708740 114.000000 133.000000 0.903824 -0.422691 -0.066598
1.36000001 1.37000000 -0.86000001 136 174 100 97.000000 1.000000 4.000000 1.000000 -60.708740 114.000000 133.000000 0.805792 -0.542866 -0.236634
1.37000000 1.37000000 -1.00999999 136 174 100 97.000000 1.000000 4.000000 1.000000 -60.708740 114.000000 133.000000 0.990755 -0.044261 0.128242
1.35000002 1.32000005 -0.98000002 136 174 100 97.000000 1.000000 4.000000 1.000000 -60.708740 114.000000 133.000000 0.961973 -0.211871 -0.172392
1.34000003 1.41999996 -1.00999999 136 174 100 97.000000 1.000000 4.000000 1.000000 -60.708740 114.000000 133.000000 0.778496 -0.585814 -0.225313
1.34000003 1.40999997 -1.00000000 136 174 100 97.000000 1.000000 4.000000 1.000000 -60.708740 114.000000 133.000000 0.887676 -0.445961 -0.114676
1.34000003 1.37000000 -0.88999999 136 174 100 97.000000 1.000000 4.000000 1.000000 -60.708740 114.000000 133.000000 0.923630 -0.284965 -0.256325
1.33000004 1.37000000 -0.89999998 136 174 100 97.000000 1.000000 4.000000 1.000000 -60.708740 114.000000 133.000000 0.814839 -0.547778 -0.189674
1.34000003 1.38000000 -0.89999998 136 174 100 97.000000 1.000000 4.000000 1.000000 -60.708740 114.000000 133.000000 0.816005 -0.573061 -0.075741
1.32000005 1.36000001 -0.98000002 136 174 100 97.000000 1.000000 4.000000 1.000000 -60.708740 114.000000 133.000000 0.988671 -0.054348 0.139917
1.51999998 1.54999995 -1.13000000 136 174 100 97.000000 1.000000 4.000000 1.000000 -60.708740 114.000000 133.000000 -0.139840 0.990067 -0.014543
1.47000003 1.55999994 -1.08000004 136 174 100 97.000000 1.000000 4.000000 1.000000 -60.708740 114.000000 133.000000 -0.277478 0.886430 0.370471
1.50000000 1.49000001 -1.11000001 136 174 100 97.000000 1.000000 4.000000 1.000000 -60.708740 114.000000 133.000000 -0.547877 0.836233 0.023343
1.45000005 1.53999996 -1.03999996 136 174 100 97.000000 1.000000 4.000000 1.000000 -60.708740 114.000000 133.000000 0.695302 -0.679606 -0.233860
1.59000003 1.50999999 -1.20000005 136 174 100 97.000000 1.000000 4.000000 1.000000 -60.708740 114.000000 133.000000 -0.573398 0.767178 0.287493
1.59000003 1.45000005 -1.10000002 136 174 100 97.000000 1.000000 4.000000 1.000000 -60.708740 114.000000 133.000000 -0.026602 0.984272 0.174647
1.57000005 1.46000004 -1.19000006 136 174 100 97.000000 1.000000 4.000000 1.000000 -60.708740 114.000000 133.000000 0.462256 -0.828927 -0.314961
1.58000004 1.38000000 -1.10000002 136 174 100 97.000000 1.000000 4.000000 1.000000 -60.708740 114.000000 133.000000 -0.221701 0.969151 0.107683
1.59000003 1.37000000 -1.08000004 136 174 100 97.000000 1.000000 4.000000 1.000000 -60.708740 114.000000 133.000000 0.575571 -0.726434 -0.375515
1.59000003 1.38000000 -1.11000001 136 174 100 97.000000 1.000000 4.000000 1.000000 -60.708740 114.000000 133.000000 -0.471915 0.854875 -0.215603
1.49000001 1.39999998 -1.07000005 136 174 100 97.000000 1.000000 4.000000 1.000000 -60.708740 114.000000 133.000000 -0.593629 0.791006 -0.148033
1.45000005 1.42999995 -1.07000005 136 174 100 97.000000 1.000000 4.000000 1.000000 -60.708740 114.000000 133.000000 0.652245 -0.665389 -0.363089
1.44000006 1.40999997 -1.10000002 136 174 100 97.000000 1.000000 4.000000 1.000000 -60.708740 114.000000 133.000000 0.825304 -0.547742 -0.137305
1.45000005 1.41999996 -1.11000001 136 174 100 97.000000 1.000000 4.000000 1.000000 -60.708740 114.000000 133.000000 0.816965 -0.554102 -0.159809
1.50000000 1.44000006 -1.14999998 136 174 100 97.000000 1.000000 4.000000 1.000000 -60.708740 114.000000 133.000000 0.749546 -0.640079 -0.168762
1.50000000 1.42999995 -1.15999997 136 174 100 97.000000 1.000000 4.000000 1.000000 -60.708740 114.000000 133.000000 0.734997 -0.578545 -0.353646
1.44000006 1.41999996 -1.13999999 136 174 100 97.000000 1.000000 4.000000 1.000000 -60.708740 114.000000 133.000000 -0.561622 0.826406 -0.040414
1.41999996 1.32000005 -1.04999995 136 174 100 97.000000 1.000000 4.000000 1.000000 -60.708740 114.000000 133.000000 0.969606 -0.149860 -0.193409
1.36000001 1.37000000 -1.10000002 136 174 100 97.000000 1.000000 4.000000 1.000000 -60.708740 114.000000 133.000000 0.873086 -0.487147 -0.020242
1.35000002 1.34000003 -1.07000005 136 174 100 97.000000 1.000000 4.000000 1.000000 -60.708740 114.000000 133.000000 0.987220 0.117329 -0.107848
1.35000002 1.33000004 -1.13999999 136 174 100 97.000000 1.000000 4.000000 1.000000 -60.708740 114.000000 133.000000 0.980049 0.139303 0.141768
1.33000004 1.39999998 -1.12000000 136 174 100 97.000000 1.000000 4.000000 1.000000 -60.708740 114.000000 133.000000 0.987711 -0.156191 -0.005618
1.33000004 1.38999999 -1.14999998 136 174 100 97.000000 1.000000 4.000000 1.000000 -60.708740 114.000000 133.000000 0.911682 -0.403531 -0.077445
1.27999997 1.39999998 -1.14999998 136 174 100 97.000000 1.000000 4.000000 1.000000 -60.708740 114.000000 133.000000 0.811300 -0.581124 0.063938
1.32000005 1.38000000 -1.04999995 136 174 100 97.000000 1.000000 4.000000 1.000000 -60.708740 114.000000 133.000000 0.875670 -0.456048 -0.158815
1.32000005 1.37000000 -1.05999994 136 174 100 97.000000 1.000000 4.000000 1.000000 -60.708740 114.000000 133.000000 0.908156 -0.276395 -0.314418
1.34000003 1.36000001 -1.10000002 136 174 100 97.000000 1.000000 4.000000 1.000000 -60.708740 114.000000 133.000000 0.996288 0.048998 -0.070775
1.30999994 1.37000000 -1.14999998 136 174 100 97.000000 1.000000 4.000000 1.000000 -60.708740 114.000000 133.000000 0.964568 -0.095565 -0.245920
1.30999994 1.35000002 -1.19000006 136 174 100 97.000000 1.000000 4.000000 1.000000 -60.708740 114.000000 133.000000 0.979369 -0.195394 0.051546
1.33000004 1.32000005 -1.13000000 136 174 100 97.000000 1.000000 4.000000 1.000000 -60.708740 114.000000 133.000000 0.998399 0.041030 -0.038926
1.30999994 1.37000000 -1.20000005 136 174 100 97.000000 1.000000 4.000000 1.000000 -60.708740 114.000000 133.000000 0.999432 0.019397 -0.027563
1.36000001 1.30999994 -1.21000004 136 174 100 97.000000 1.000000 4.000000 1.000000 -60.708740 114.000000 133.000000 0.969014 -0.191744 -0.155711
1.27999997 1.34000003 -1.21000004 136 174 100 97.000000 1.000000 4.000000 1.000000 -60.708740 114.000000 133.000000 0.986489 0.160377 0.033460
1.48000002 1.13999999 -0.75999999 136 174 100 97.000000 1.000000 4.000000 1.000000 -60.708740 114.000000 133.000000 0.602838 0.797834 0.006866
1.42999995 1.25999999 -0.87000000 136 174 100 97.000000 1.000000 4.000000 1.000000 -60.708740 114.000000 133.000000 0.958745 -0.283294 -0.023505
1.50999999 1.13999999 -0.86000001 136 174 100 97.000000 1.000000 4.000000 1.000000 -60.708740 114.000000 133.000000 0.697859 0.656148 0.287165
1.49000001 1.13999999 -0.94999999 136 174 100 97.000000 1.000000 4.000000 1.000000 -60.708740 114.000000 133.000000 0.849739 0.519522 -0.089671
1.50999999 1.14999998 -1.00999999 136 174 100 97.000000 1.000000 4.000000 1.000000 -60.708740 114.000000 133.000000 0.766759 0.613713 0.188246
1.44000006 1.14999998 -0.94999999 136 174 100 97.000000 1.000000 4.000000 1.000000 -60.708740 114.000000 133.000000 0.584958 0.728346 0.356841
1.42999995 1.15999997 -0.95999998 136 174 100 97.000000 1.000000 4.000000 1.000000 -60.708740 114.000000 133.000000 0.621620 0.744371 0.243927
1.58000004 1.05999994 -0.82999998 136 174 100 97.000000 1.000000 4.000000 1.000000 -60.708740 114.000000 133.000000 0.129738 0.983341 -0.127313
1.57000005 1.05999994 -0.81999999 136 174 100 97.000000 1.000000 4.000000 1.000000 -60.708740 114.000000 133.000000 -0.235469 0.971758 -0.015539
1.57000005 1.05999994 -0.81999999 136 174 100 97.000000 1.000000 4.000000 1.000000 -60.708740 114.000000 133.000000 -0.235469 0.971758 -0.015539
