//X Y Z R G B PointSourceId ScanDirectionFlag NumberOfReturns ReturnNumber GpsTime Intensity Classification Nx Ny Nz
5.75000000 -20.87000084 -0.16000000 95 195 110 0.000000 0.000000 0.000000 0.000000 -60.708740 0.000000 9.000000 0.748771 0.659666 0.064673
5.75000000 -20.87000084 -0.17000000 95 195 110 0.000000 0.000000 0.000000 0.000000 -60.708740 0.000000 9.000000 0.857179 0.511520 -0.059933
5.75000000 -20.87999916 -0.16000000 95 195 110 0.000000 0.000000 0.000000 0.000000 -60.708740 0.000000 9.000000 0.880976 0.412911 -0.231051
5.73000002 -20.87000084 -0.15000001 95 195 110 0.000000 0.000000 0.000000 0.000000 -60.708740 0.000000 9.000000 0.510907 0.826964 -0.234741
5.75000000 -20.89999962 -0.17000000 95 195 110 0.000000 0.000000 0.000000 0.000000 -60.708740 0.000000 9.000000 0.859782 0.509855 -0.028705
5.67999983 -20.86000061 -0.06000000 95 195 110 0.000000 0.000000 0.000000 0.000000 -60.708740 0.000000 9.000000 0.044366 0.977241 0.207439
5.71000004 -20.87999916 -0.03000000 95 195 110 0.000000 0.000000 0.000000 0.000000 -60.708740 0.000000 9.000000 0.085976 0.995797 0.031561
5.69999981 -20.87000084 -0.05000000 95 195 110 0.000000 0.000000 0.000000 0.000000 -60.708740 0.000000 9.000000 0.231117 0.964493 0.127824
5.67000008 -20.86000061 -0.07000000 95 195 110 0.000000 0.000000 0.000000 0.000000 -60.708740 0.000000 9.000000 -0.458152 0.877282 0.143082
5.71000004 -20.87000084 -0.09000000 95 195 110 0.000000 0.000000 0.000000 0.000000 -60.708740 0.000000 9.000000 0.130486 0.990561 -0.041983
5.69999981 -20.87000084 -0.08000000 95 195 110 0.000000 0.000000 0.000000 0.000000 -60.708740 0.000000 9.000000 -0.115273 0.950007 0.290170
5.69999981 -20.86000061 -0.10000000 95 195 110 0.000000 0.000000 0.000000 0.000000 -60.708740 0.000000 9.000000 0.063649 0.967214 0.245859
5.69000006 -20.87000084 -0.09000000 95 195 110 0.000000 0.000000 0.000000 0.000000 -60.708740 0.000000 9.000000 0.063585 0.945982 0.317923
5.63000011 -20.87999916 -0.06000000 95 195 110 0.000000 0.000000 0.000000 0.000000 -60.708740 0.000000 9.000000 0.749242 -0.655403 -0.095305
5.63999987 -20.87000084 -0.05000000 95 195 110 0.000000 0.000000 0.000000 0.000000 -60.708740 0.000000 9.000000 -0.548395 0.835716 0.029008
5.63999987 -20.87000084 -0.09000000 95 195 110 0.000000 0.000000 0.000000 0.000000 -60.708740 0.000000 9.000000 -0.134836 0.949190 0.284356
5.71000004 -20.86000061 -0.11000000 95 195 110 0.000000 0.000000 0.000000 0.000000 -60.708740 0.000000 9.000000 0.126367 0.968810 0.213164
5.63000011 -20.97999954 -0.03000000 95 195 110 0.000000 0.000000 0.000000 0.000000 -60.708740 0.000000 9.000000 0.675380 0.595335 -0.435245
5.78999996 -20.87000084 -0.19000000 95 195 110 0.000000 0.000000 0.000000 0.000000 -60.708740 0.000000 9.000000 0.868795 0.056811 -0.491902
5.78000021 -20.87999916 -0.20000000 95 195 110 0.000000 0.000000 0.000000 0.000000 -60.708740 0.000000 9.000000 0.824034 0.211720 -0.525493
5.76000023 -20.88999939 -0.22000000 95 195 110 0.000000 0.000000 0.000000 0.000000 -60.708740 0.000000 9.000000 0.943112 0.329768 -0.042344
5.76999998 -20.88999939 -0.20999999 95 195 110 0.000000 0.000000 0.000000 0.000000 -60.708740 0.000000 9.000000 0.896659 0.128904 -0.423540
5.76999998 -20.86000061 -0.23999999 95 195 110 0.000000 0.000000 0.000000 0.000000 -60.708740 0.000000 9.000000 0.911212 0.409578 -0.044026
5.78000021 -20.89999962 -0.19000000 95 195 110 0.000000 0.000000 0.000000 0.000000 -60.708740 0.000000 9.000000 0.939967 0.171527 -0.295026
5.76999998 -20.90999985 -0.22000000 95 195 110 0.000000 0.000000 0.000000 0.000000 -60.708740 0.000000 9.000000 0.888905 0.418909 -0.185371
5.78000021 -20.93000031 -0.20999999 95 195 110 0.000000 0.000000 0.000000 0.000000 -60.708740 0.000000 9.000000 0.924241 -0.054367 -0.377918
5.78999996 -20.93000031 -0.20000000 95 195 110 0.000000 0.000000 0.000000 0.000000 -60.708740 0.000000 9.000000 0.873377 0.299227 -0.384286
5.78000021 -20.90999985 -0.20000000 95 195 110 0.000000 0.000000 0.000000 0.000000 -60.708740 0.000000 9.000000 0.932198 0.360726 -0.029737
5.78999996 -20.92000008 -0.20000000 95 195 110 0.000000 0.000000 0.000000 0.000000 -60.708740 0.000000 9.000000 0.858307 0.411432 -0.306648
5.78000021 -20.93000031 -0.25999999 95 195 110 0.000000 0.000000 0.000000 0.000000 -60.708740 0.000000 9.000000 0.841408 -0.142437 -0.521291
5.78999996 -20.90999985 -0.23999999 95 195 110 0.000000 0.000000 0.000000 0.000000 -60.708740 0.000000 9.000000 0.879477 0.421137 -0.221729
5.78999996 -20.93000031 -0.23000000 95 195 110 0.000000 0.000000 0.000000 0.000000 -60.708740 0.000000 9.000000 0.999034 0.038226 0.021696
5.75000000 -20.86000061 -0.19000000 95 195 110 0.000000 0.000000 0.000000 0.000000 -60.708740 0.000000 9.000000 0.941421 0.326130 -0.085824
5.73999977 -20.87000084 -0.20999999 95 195 110 0.000000 0.000000 0.000000 0.000000 -60.708740 0.000000 9.000000 0.833336 0.530305 -0.155972
5.73999977 -20.87000084 -0.20999999 95 195 110 0.000000 0.000000 0.000000 0.000000 -60.708740 0.000000 9.000000 0.833336 0.530305 -0.155972
5.75000000 -20.86000061 -0.19000000 95 195 110 0.000000 0.000000 0.000000 0.000000 -60.708740 0.000000 9.000000 0.941421 0.326130 -0.085824
5.73999977 -20.86000061 -0.25000000 95 195 110 0.000000 0.000000 0.000000 0.000000 -60.708740 0.000000 9.000000 0.889513 0.452318 0.064617
5.73999977 -20.87000084 -0.25000000 95 195 110 0.000000 0.000000 0.000000 0.000000 -60.708740 0.000000 9.000000 0.937563 0.347293 -0.019082
5.78000021 -20.93000031 -0.30000001 95 195 110 0.000000 0.000000 0.000000 0.000000 -60.708740 0.000000 9.000000 0.980784 0.181716 -0.071002
5.76999998 -20.92000008 -0.31999999 95 195 110 0.000000 0.000000 0.000000 0.000000 -60.708740 0.000000 9.000000 0.938674 -0.291694 -0.183864
5.73999977 -20.88999939 -0.28999999 95 195 110 0.000000 0.000000 0.000000 0.000000 -60.708740 0.000000 9.000000 0.850126 0.251833 -0.462456
5.73000002 -20.86000061 -0.28000000 95 195 110 0.000000 0.000000 0.000000 0.000000 -60.708740 0.000000 9.000000 0.852345 0.129231 -0.506761
5.73999977 -20.86000061 -0.28000000 95 195 110 0.000000 0.000000 0.000000 0.000000 -60.708740 0.000000 9.000000 0.569395 0.679600 -0.462529
5.73000002 -20.86000061 -0.34000000 95 195 110 0.000000 0.000000 0.000000 0.000000 -60.708740 0.000000 9.000000 0.984889 -0.012583 -0.172727
5.73999977 -20.88999939 -0.33000001 95 195 110 0.000000 0.000000 0.000000 0.000000 -60.708740 0.000000 9.000000 0.937808 -0.154704 -0.310777
5.73000002 -20.87999916 -0.34999999 95 195 110 0.000000 0.000000 0.000000 0.000000 -60.708740 0.000000 9.000000 0.805792 0.236634 -0.542866
5.73000002 -20.88999939 -0.34999999 95 195 110 0.000000 0.000000 0.000000 0.000000 -60.708740 0.000000 9.000000 0.825078 0.081507 -0.559109
5.73000002 -20.86000061 -0.34000000 95 195 110 0.000000 0.000000 0.000000 0.000000 -60.708740 0.000000 9.000000 0.984889 -0.012583 -0.172727
5.73000002 -20.87000084 -0.34999999 95 195 110 0.000000 0.000000 0.000000 0.000000 -60.708740 0.000000 9.000000 0.883520 0.136036 -0.448204
5.73999977 -20.89999962 -0.30000001 95 195 110 0.000000 0.000000 0.000000 0.000000 -60.708740 0.000000 9.000000 0.837017 0.108422 -0.536327
5.75000000 -20.92000008 -0.31000000 95 195 110 0.000000 0.000000 0.000000 0.000000 -60.708740 0.000000 9.000000 0.957873 0.062167 -0.280384
5.73999977 -20.93000031 -0.31000000 95 195 110 0.000000 0.000000 0.000000 0.000000 -60.708740 0.000000 9.000000 0.826350 -0.295236 -0.479564
5.75000000 -20.89999962 -0.31000000 95 195 110 0.000000 0.000000 0.000000 0.000000 -60.708740 0.000000 9.000000 0.847760 0.409102 -0.337548
5.73000002 -20.90999985 -0.34999999 95 195 110 0.000000 0.000000 0.000000 0.000000 -60.708740 0.000000 9.000000 0.966733 0.084668 -0.241367
5.73999977 -20.90999985 -0.31999999 95 195 110 0.000000 0.000000 0.000000 0.000000 -60.708740 0.000000 9.000000 0.923180 0.324744 -0.205624
5.73000002 -20.90999985 -0.34000000 95 195 110 0.000000 0.000000 0.000000 0.000000 -60.708740 0.000000 9.000000 0.974241 0.034923 -0.222787
5.73000002 -20.89999962 -0.34000000 95 195 110 0.000000 0.000000 0.000000 0.000000 -60.708740 0.000000 9.000000 0.963427 -0.152532 -0.220324
5.75000000 -20.92000008 -0.31999999 95 195 110 0.000000 0.000000 0.000000 0.000000 -60.708740 0.000000 9.000000 0.991668 0.114992 -0.058066
5.78999996 -20.94000053 -0.20000000 95 195 110 0.000000 0.000000 0.000000 0.000000 -60.708740 0.000000 9.000000 0.928107 0.024594 -0.371502
5.76999998 -20.94000053 -0.20999999 95 195 110 0.000000 0.000000 0.000000 0.000000 -60.708740 0.000000 9.000000 0.844710 -0.108296 -0.524153
5.76000023 -20.95000076 -0.20999999 95 195 110 0.000000 0.000000 0.000000 0.000000 -60.708740 0.000000 9.000000 0.813279 -0.364464 -0.453590
5.78000021 -20.94000053 -0.19000000 95 195 110 0.000000 0.000000 0.000000 0.000000 -60.708740 0.000000 9.000000 0.837078 0.078165 -0.541471
5.78000021 -20.94000053 -0.22000000 95 195 110 0.000000 0.000000 0.000000 0.000000 -60.708740 0.000000 9.000000 0.956466 0.243440 -0.160963
5.78000021 -20.95000076 -0.19000000 95 195 110 0.000000 0.000000 0.000000 0.000000 -60.708740 0.000000 9.000000 0.916175 -0.074431 -0.393806
5.76999998 -20.94000053 -0.23000000 95 195 110 0.000000 0.000000 0.000000 0.000000 -60.708740 0.000000 9.000000 0.957097 -0.157967 -0.242925
5.78000021 -20.96999931 -0.25999999 95 195 110 0.000000 0.000000 0.000000 0.000000 -60.708740 0.000000 9.000000 0.842472 -0.092972 -0.530657
5.76999998 -20.96999931 -0.27000001 95 195 110 0.000000 0.000000 0.000000 0.000000 -60.708740 0.000000 9.000000 -0.708587 0.376488 0.596792
5.78000021 -20.96999931 -0.23000000 95 195 110 0.000000 0.000000 0.000000 0.000000 -60.708740 0.000000 9.000000 0.724317 -0.472381 -0.502216
5.78999996 -21.01000023 -0.20999999 95 195 110 0.000000 0.000000 0.000000 0.000000 -60.708740 0.000000 9.000000 0.941715 -0.335874 -0.019012
5.78999996 -21.01000023 -0.20000000 95 195 110 0.000000 0.000000 0.000000 0.000000 -60.708740 0.000000 9.000000 0.863596 -0.443141 -0.240476
5.78999996 -21.01000023 -0.23000000 95 195 110 0.000000 0.000000 0.000000 0.000000 -60.708740 0.000000 9.000000 0.903094 -0.293174 -0.313799
5.78000021 -20.97999954 -0.23999999 95 195 110 0.000000 0.000000 0.000000 0.000000 -60.708740 0.000000 9.000000 0.836587 -0.127021 -0.532905
5.78000021 -20.98999977 -0.25999999 95 195 110 0.000000 0.000000 0.000000 0.000000 -60.708740 0.000000 9.000000 0.957057 -0.016013 -0.289457
5.76000023 -20.98999977 -0.25999999 95 195 110 0.000000 0.000000 0.000000 0.000000 -60.708740 0.000000 9.000000 -0.584919 0.504008 0.635488
5.73000002 -21.00000000 -0.27000001 95 195 110 0.000000 0.000000 0.000000 0.000000 -60.708740 0.000000 9.000000 -0.502929 0.637492 0.583667
5.75000000 -20.98999977 -0.27000001 95 195 110 0.000000 0.000000 0.000000 0.000000 -60.708740 0.000000 9.000000 -0.495982 0.593497 0.633848
5.73999977 -21.00000000 -0.25999999 95 195 110 0.000000 0.000000 0.000000 0.000000 -60.708740 0.000000 9.000000 -0.495506 0.576131 0.650037
5.76000023 -20.94000053 -0.28999999 95 195 110 0.000000 0.000000 0.000000 0.000000 -60.708740 0.000000 9.000000 -0.703082 0.332868 0.628390
5.75000000 -20.95000076 -0.30000001 95 195 110 0.000000 0.000000 0.000000 0.000000 -60.708740 0.000000 9.000000 -0.651264 0.169298 0.739726
5.75000000 -20.95999908 -0.28000000 95 195 110 0.000000 0.000000 0.000000 0.000000 -60.708740 0.000000 9.000000 0.879525 -0.180003 -0.440494
5.75000000 -20.95000076 -0.30000001 95 195 110 0.000000 0.000000 0.000000 0.000000 -60.708740 0.000000 9.000000 -0.651264 0.169298 0.739726
5.75000000 -20.94000053 -0.31000000 95 195 110 0.000000 0.000000 0.000000 0.000000 -60.708740 0.000000 9.000000 0.923739 -0.358693 -0.134337
5.73999977 -20.96999931 -0.30000001 95 195 110 0.000000 0.000000 0.000000 0.000000 -60.708740 0.000000 9.000000 0.859796 -0.292729 -0.418403
5.73999977 -20.94000053 -0.31000000 95 195 110 0.000000 0.000000 0.000000 0.000000 -60.708740 0.000000 9.000000 0.855428 -0.154065 -0.494476
5.71999979 -20.96999931 -0.31000000 95 195 110 0.000000 0.000000 0.000000 0.000000 -60.708740 0.000000 9.000000 0.753495 -0.619886 -0.219057
5.73000002 -20.94000053 -0.34000000 95 195 110 0.000000 0.000000 0.000000 0.000000 -60.708740 0.000000 9.000000 0.842909 -0.417545 -0.339353
5.73000002 -20.95999908 -0.31999999 95 195 110 0.000000 0.000000 0.000000 0.000000 -60.708740 0.000000 9.000000 0.865747 -0.320250 -0.384606
5.71999979 -20.95000076 -0.34000000 95 195 110 0.000000 0.000000 0.000000 0.000000 -60.708740 0.000000 9.000000 0.852193 -0.264685 -0.451341
5.73000002 -20.95999908 -0.34999999 95 195 110 0.000000 0.000000 0.000000 0.000000 -60.708740 0.000000 9.000000 0.762939 -0.518928 -0.385536
5.71999979 -21.00000000 -0.28000000 95 195 110 0.000000 0.000000 0.000000 0.000000 -60.708740 0.000000 9.000000 0.555944 -0.626916 -0.545805
5.73000002 -20.98999977 -0.28000000 95 195 110 0.000000 0.000000 0.000000 0.000000 -60.708740 0.000000 9.000000 0.414780 -0.722146 -0.553590
5.71000004 -20.86000061 -0.33000001 95 195 110 0.000000 0.000000 0.000000 0.000000 -60.708740 0.000000 9.000000 0.962598 -0.018347 -0.270310
5.71000004 -20.95999908 -0.34999999 95 195 110 0.000000 0.000000 0.000000 0.000000 -60.708740 0.000000 9.000000 0.713129 -0.513653 -0.477082
5.71000004 -20.96999931 -0.34999999 95 195 110 0.000000 0.000000 0.000000 0.000000 -60.708740 0.000000 9.000000 0.675381 -0.537959 -0.504441
5.71000004 -20.97999954 -0.34000000 95 195 110 0.000000 0.000000 0.000000 0.000000 -60.708740 0.000000 9.000000 0.495389 -0.708890 -0.502061
5.69999981 -20.98999977 -0.31999999 95 195 110 0.000000 0.000000 0.000000 0.000000 -60.708740 0.000000 9.000000 -0.498102 0.729777 0.468315
5.76999998 -21.04000092 -0.17000000 95 195 110 0.000000 0.000000 0.000000 0.000000 -60.708740 0.000000 9.000000 0.408299 -0.699233 -0.586827
5.67000008 -21.06999969 -0.03000000 95 195 110 0.000000 0.000000 0.000000 0.000000 -60.708740 0.000000 9.000000 0.276772 0.960708 0.020912
5.63000011 -21.03000069 -0.03000000 95 195 110 0.000000 0.000000 0.000000 0.000000 -60.708740 0.000000 9.000000 0.596691 0.777692 0.197874
5.63999987 -21.04999924 -0.03000000 95 195 110 0.000000 0.000000 0.000000 0.000000 -60.708740 0.000000 9.000000 0.598973 0.710563 -0.369230
5.63000011 -21.04999924 -0.05000000 95 195 110 0.000000 0.000000 0.000000 0.000000 -60.708740 0.000000 9.000000 0.754851 0.632855 -0.172320
5.65000010 -21.05999947 -0.07000000 95 195 110 0.000000 0.000000 0.000000 0.000000 -60.708740 0.000000 9.000000 0.091495 0.971350 0.219337
5.63999987 -21.04000092 -0.10000000 95 195 110 0.000000 0.000000 0.000000 0.000000 -60.708740 0.000000 9.000000 0.368883 0.929276 0.019280
5.63000011 -21.04000092 -0.10000000 95 195 110 0.000000 0.000000 0.000000 0.000000 -60.708740 0.000000 9.000000 0.220109 0.974073 -0.052291
5.63999987 -21.04000092 -0.10000000 95 195 110 0.000000 0.000000 0.000000 0.000000 -60.708740 0.000000 9.000000 0.368883 0.929276 0.019280
5.65000010 -21.04999924 -0.08000000 95 195 110 0.000000 0.000000 0.000000 0.000000 -60.708740 0.000000 9.000000 0.603114 0.792042 0.094464
5.65999985 -21.06999969 -0.03000000 95 195 110 0.000000 0.000000 0.000000 0.000000 -60.708740 0.000000 9.000000 0.426213 0.900702 0.084139
5.63999987 -21.07999992 -0.05000000 95 195 110 0.000000 0.000000 0.000000 0.000000 -60.708740 0.000000 9.000000 0.155168 0.987326 0.033332
5.63000011 -21.04000092 -0.14000000 95 195 110 0.000000 0.000000 0.000000 0.000000 -60.708740 0.000000 9.000000 0.528459 0.809056 0.257214
5.75000000 -21.04000092 -0.20000000 95 195 110 0.000000 0.000000 0.000000 0.000000 -60.708740 0.000000 9.000000 -0.365476 0.693257 0.621145
5.76999998 -21.04000092 -0.19000000 95 195 110 0.000000 0.000000 0.000000 0.000000 -60.708740 0.000000 9.000000 -0.361135 0.857115 0.367335
5.73000002 -20.88999939 -0.37000000 95 195 110 0.000000 0.000000 0.000000 0.000000 -60.708740 0.000000 9.000000 0.925206 0.302717 -0.228814
5.71999979 -20.88999939 -0.36000001 95 195 110 0.000000 0.000000 0.000000 0.000000 -60.708740 0.000000 9.000000 0.928362 0.198633 -0.314150
5.71999979 -20.87000084 -0.36000001 95 195 110 0.000000 0.000000 0.000000 0.000000 -60.708740 0.000000 9.000000 0.957096 0.110987 -0.267674
5.71999979 -20.87000084 -0.37000000 95 195 110 0.000000 0.000000 0.000000 0.000000 -60.708740 0.000000 9.000000 0.973772 0.203755 -0.101252
5.71999979 -20.87999916 -0.36000001 95 195 110 0.000000 0.000000 0.000000 0.000000 -60.708740 0.000000 9.000000 0.866890 0.036976 -0.497126
5.71999979 -20.88999939 -0.38000000 95 195 110 0.000000 0.000000 0.000000 0.000000 -60.708740 0.000000 9.000000 0.741502 0.244019 -0.625003
5.71999979 -20.87000084 -0.36000001 95 195 110 0.000000 0.000000 0.000000 0.000000 -60.708740 0.000000 9.000000 0.957096 0.110987 -0.267674
5.71999979 -20.87999916 -0.36000001 95 195 110 0.000000 0.000000 0.000000 0.000000 -60.708740 0.000000 9.000000 0.866890 0.036976 -0.497126
5.71999979 -20.86000061 -0.36000001 95 195 110 0.000000 0.000000 0.000000 0.000000 -60.708740 0.000000 9.000000 0.900203 0.066935 -0.430295
5.71999979 -20.88999939 -0.38999999 95 195 110 0.000000 0.000000 0.000000 0.000000 -60.708740 0.000000 9.000000 0.867295 -0.077062 -0.491794
5.71999979 -20.89999962 -0.38999999 95 195 110 0.000000 0.000000 0.000000 0.000000 -60.708740 0.000000 9.000000 0.777425 -0.201669 -0.595769
5.71999979 -20.89999962 -0.38000000 95 195 110 0.000000 0.000000 0.000000 0.000000 -60.708740 0.000000 9.000000 0.884009 -0.127103 -0.449859
5.71999979 -20.89999962 -0.36000001 95 195 110 0.000000 0.000000 0.000000 0.000000 -60.708740 0.000000 9.000000 0.938693 0.094535 -0.331539
5.73000002 -20.89999962 -0.37000000 95 195 110 0.000000 0.000000 0.000000 0.000000 -60.708740 0.000000 9.000000 0.993441 -0.068785 -0.091338
5.73000002 -20.90999985 -0.36000001 95 195 110 0.000000 0.000000 0.000000 0.000000 -60.708740 0.000000 9.000000 0.968370 0.047988 -0.244861
5.71999979 -20.90999985 -0.36000001 95 195 110 0.000000 0.000000 0.000000 0.000000 -60.708740 0.000000 9.000000 0.922941 -0.019417 -0.384451
5.71999979 -20.89999962 -0.40000001 95 195 110 0.000000 0.000000 0.000000 0.000000 -60.708740 0.000000 9.000000 0.874643 -0.244540 -0.418568
5.71999979 -20.95000076 -0.41000000 95 195 110 0.000000 0.000000 0.000000 0.000000 -60.708740 0.000000 9.000000 0.707482 -0.481088 -0.517710
5.71000004 -20.86000061 -0.38000000 95 195 110 0.000000 0.000000 0.000000 0.000000 -60.708740 0.000000 9.000000 0.974693 0.010633 -0.223293
5.71000004 -20.87999916 -0.38999999 95 195 110 0.000000 0.000000 0.000000 0.000000 -60.708740 0.000000 9.000000 0.988281 0.123095 -0.090270
5.69999981 -20.87000084 -0.38000000 95 195 110 0.000000 0.000000 0.000000 0.000000 -60.708740 0.000000 9.000000 0.964608 -0.114314 -0.237620
5.71000004 -20.87000084 -0.38000000 95 195 110 0.000000 0.000000 0.000000 0.000000 -60.708740 0.000000 9.000000 0.824340 0.268570 -0.498330
5.69999981 -20.87999916 -0.41999999 95 195 110 0.000000 0.000000 0.000000 0.000000 -60.708740 0.000000 9.000000 0.834622 -0.152693 -0.529236
5.71000004 -20.87999916 -0.40000001 95 195 110 0.000000 0.000000 0.000000 0.000000 -60.708740 0.000000 9.000000 0.986010 0.101343 -0.132342
5.69000006 -20.86000061 -0.41000000 95 195 110 0.000000 0.000000 0.000000 0.000000 -60.708740 0.000000 9.000000 0.916671 0.030249 -0.398496
5.71000004 -20.88999939 -0.40000001 95 195 110 0.000000 0.000000 0.000000 0.000000 -60.708740 0.000000 9.000000 0.880835 -0.033826 -0.472214
5.69000006 -20.87000084 -0.41000000 95 195 110 0.000000 0.000000 0.000000 0.000000 -60.708740 0.000000 9.000000 0.663567 0.326105 -0.673301
5.69000006 -20.88999939 -0.43000001 95 195 110 0.000000 0.000000 0.000000 0.000000 -60.708740 0.000000 9.000000 0.929671 0.287250 -0.230649
5.71000004 -20.86000061 -0.40000001 95 195 110 0.000000 0.000000 0.000000 0.000000 -60.708740 0.000000 9.000000 0.798189 0.323418 -0.508228
5.69000006 -20.87000084 -0.41999999 95 195 110 0.000000 0.000000 0.000000 0.000000 -60.708740 0.000000 9.000000 0.693523 0.412142 -0.590902
5.69999981 -20.88999939 -0.41999999 95 195 110 0.000000 0.000000 0.000000 0.000000 -60.708740 0.000000 9.000000 0.887929 0.142011 -0.437510
5.71000004 -20.88999939 -0.40000001 95 195 110 0.000000 0.000000 0.000000 0.000000 -60.708740 0.000000 9.000000 0.880835 -0.033826 -0.472214
5.71000004 -20.93000031 -0.36000001 95 195 110 0.000000 0.000000 0.000000 0.000000 -60.708740 0.000000 9.000000 0.732505 -0.321785 -0.599910
5.71000004 -20.93000031 -0.37000000 95 195 110 0.000000 0.000000 0.000000 0.000000 -60.708740 0.000000 9.000000 0.737925 -0.412515 -0.534133
5.71000004 -20.89999962 -0.38999999 95 195 110 0.000000 0.000000 0.000000 0.000000 -60.708740 0.000000 9.000000 0.824556 -0.228787 -0.517459
5.69999981 -20.93000031 -0.38000000 95 195 110 0.000000 0.000000 0.000000 0.000000 -60.708740 0.000000 9.000000 0.909387 -0.103811 -0.402788
5.71000004 -20.89999962 -0.38999999 95 195 110 0.000000 0.000000 0.000000 0.000000 -60.708740 0.000000 9.000000 0.824556 -0.228787 -0.517459
5.69999981 -20.93000031 -0.38000000 95 195 110 0.000000 0.000000 0.000000 0.000000 -60.708740 0.000000 9.000000 0.909387 -0.103811 -0.402788
5.71000004 -20.89999962 -0.38999999 95 195 110 0.000000 0.000000 0.000000 0.000000 -60.708740 0.000000 9.000000 0.824556 -0.228787 -0.517459
5.69999981 -20.90999985 -0.41000000 95 195 110 0.000000 0.000000 0.000000 0.000000 -60.708740 0.000000 9.000000 0.927719 -0.342521 -0.148380
5.69999981 -20.89999962 -0.41000000 95 195 110 0.000000 0.000000 0.000000 0.000000 -60.708740 0.000000 9.000000 0.894799 -0.381800 -0.231439
5.69999981 -20.93000031 -0.40000001 95 195 110 0.000000 0.000000 0.000000 0.000000 -60.708740 0.000000 9.000000 0.942363 -0.013877 -0.334305
5.69000006 -20.86000061 -0.44999999 95 195 110 0.000000 0.000000 0.000000 0.000000 -60.708740 0.000000 9.000000 0.966758 0.161773 -0.198011
5.67999983 -20.88999939 -0.46000001 95 195 110 0.000000 0.000000 0.000000 0.000000 -60.708740 0.000000 9.000000 0.903691 0.078164 -0.420991
5.67999983 -20.87000084 -0.47999999 95 195 110 0.000000 0.000000 0.000000 0.000000 -60.708740 0.000000 9.000000 0.899557 -0.131332 -0.416592
5.69999981 -20.87000084 -0.44999999 95 195 110 0.000000 0.000000 0.000000 0.000000 -60.708740 0.000000 9.000000 0.837260 0.075339 -0.541589
5.67999983 -20.88999939 -0.46000001 95 195 110 0.000000 0.000000 0.000000 0.000000 -60.708740 0.000000 9.000000 0.903691 0.078164 -0.420991
5.69000006 -20.86000061 -0.47000000 95 195 110 0.000000 0.000000 0.000000 0.000000 -60.708740 0.000000 9.000000 0.947029 0.063481 -0.314813
5.67999983 -20.86000061 -0.47999999 95 195 110 0.000000 0.000000 0.000000 0.000000 -60.708740 0.000000 9.000000 0.874843 0.082585 -0.477314
5.69000006 -20.87000084 -0.44999999 95 195 110 0.000000 0.000000 0.000000 0.000000 -60.708740 0.000000 9.000000 0.877761 -0.103183 -0.467856
5.69000006 -20.87000084 -0.44000000 95 195 110 0.000000 0.000000 0.000000 0.000000 -60.708740 0.000000 9.000000 0.981518 0.184406 0.051158
5.69000006 -20.86000061 -0.46000001 95 195 110 0.000000 0.000000 0.000000 0.000000 -60.708740 0.000000 9.000000 0.878039 -0.031117 -0.477577
5.67999983 -20.88999939 -0.46000001 95 195 110 0.000000 0.000000 0.000000 0.000000 -60.708740 0.000000 9.000000 0.903691 0.078164 -0.420991
5.67999983 -20.88999939 -0.44999999 95 195 110 0.000000 0.000000 0.000000 0.000000 -60.708740 0.000000 9.000000 0.840180 -0.034604 -0.541203
5.69000006 -20.88999939 -0.44000000 95 195 110 0.000000 0.000000 0.000000 0.000000 -60.708740 0.000000 9.000000 0.961833 -0.198682 -0.188156
5.69000006 -20.87999916 -0.44999999 95 195 110 0.000000 0.000000 0.000000 0.000000 -60.708740 0.000000 9.000000 0.752960 -0.058803 -0.655434
5.67999983 -20.87000084 -0.44999999 95 195 110 0.000000 0.000000 0.000000 0.000000 -60.708740 0.000000 9.000000 0.868606 -0.213788 -0.447011
5.69999981 -20.87999916 -0.44000000 95 195 110 0.000000 0.000000 0.000000 0.000000 -60.708740 0.000000 9.000000 0.984838 -0.101963 -0.140348
5.67999983 -20.88999939 -0.49000001 95 195 110 0.000000 0.000000 0.000000 0.000000 -60.708740 0.000000 9.000000 0.916265 -0.204409 -0.344493
5.67000008 -20.90999985 -0.46000001 95 195 110 0.000000 0.000000 0.000000 0.000000 -60.708740 0.000000 9.000000 0.863867 -0.295091 -0.408234
5.67999983 -20.90999985 -0.44000000 95 195 110 0.000000 0.000000 0.000000 0.000000 -60.708740 0.000000 9.000000 0.876883 -0.286237 -0.386192
5.67000008 -20.90999985 -0.47999999 95 195 110 0.000000 0.000000 0.000000 0.000000 -60.708740 0.000000 9.000000 0.791825 -0.306257 -0.528412
5.67999983 -20.90999985 -0.44999999 95 195 110 0.000000 0.000000 0.000000 0.000000 -60.708740 0.000000 9.000000 0.826891 -0.371548 -0.422141
5.67999983 -20.92000008 -0.44999999 95 195 110 0.000000 0.000000 0.000000 0.000000 -60.708740 0.000000 9.000000 0.854340 -0.208705 -0.475968
5.67999983 -20.92000008 -0.44000000 95 195 110 0.000000 0.000000 0.000000 0.000000 -60.708740 0.000000 9.000000 0.957663 -0.062318 -0.281067
5.67999983 -20.89999962 -0.46000001 95 195 110 0.000000 0.000000 0.000000 0.000000 -60.708740 0.000000 9.000000 0.872654 -0.300022 -0.385308
5.67000008 -20.90999985 -0.47999999 95 195 110 0.000000 0.000000 0.000000 0.000000 -60.708740 0.000000 9.000000 0.791825 -0.306257 -0.528412
5.69000006 -20.89999962 -0.47000000 95 195 110 0.000000 0.000000 0.000000 0.000000 -60.708740 0.000000 9.000000 0.760803 0.064719 -0.645748
5.65999985 -20.86000061 -0.47999999 95 195 110 0.000000 0.000000 0.000000 0.000000 -60.708740 0.000000 9.000000 0.673552 0.505584 -0.539178
5.65999985 -20.88999939 -0.47999999 95 195 110 0.000000 0.000000 0.000000 0.000000 -60.708740 0.000000 9.000000 0.738360 -0.254552 -0.624523
5.65999985 -20.88999939 -0.49000001 95 195 110 0.000000 0.000000 0.000000 0.000000 -60.708740 0.000000 9.000000 0.903750 -0.210343 -0.372815
5.65999985 -20.88999939 -0.50000000 95 195 110 0.000000 0.000000 0.000000 0.000000 -60.708740 0.000000 9.000000 0.941542 -0.159885 -0.296538
5.65000010 -20.87000084 -0.51999998 95 195 110 0.000000 0.000000 0.000000 0.000000 -60.708740 0.000000 9.000000 0.837889 -0.127219 -0.530809
5.65000010 -20.87999916 -0.51999998 95 195 110 0.000000 0.000000 0.000000 0.000000 -60.708740 0.000000 9.000000 0.743609 0.230128 -0.627763
5.65999985 -20.87000084 -0.50000000 95 195 110 0.000000 0.000000 0.000000 0.000000 -60.708740 0.000000 9.000000 0.913412 -0.049338 -0.404035
5.65000010 -20.87000084 -0.50999999 95 195 110 0.000000 0.000000 0.000000 0.000000 -60.708740 0.000000 9.000000 0.862324 0.138146 -0.487148
5.65999985 -20.87000084 -0.50000000 95 195 110 0.000000 0.000000 0.000000 0.000000 -60.708740 0.000000 9.000000 0.913412 -0.049338 -0.404035
5.69000006 -20.94000053 -0.40000001 95 195 110 0.000000 0.000000 0.000000 0.000000 -60.708740 0.000000 9.000000 -0.678086 0.369417 0.635398
5.69999981 -20.94000053 -0.37000000 95 195 110 0.000000 0.000000 0.000000 0.000000 -60.708740 0.000000 9.000000 0.872374 -0.219212 -0.436933
5.69000006 -20.96999931 -0.36000001 95 195 110 0.000000 0.000000 0.000000 0.000000 -60.708740 0.000000 9.000000 -0.498603 0.782597 0.372742
5.69999981 -20.95000076 -0.36000001 95 195 110 0.000000 0.000000 0.000000 0.000000 -60.708740 0.000000 9.000000 0.707475 -0.400738 -0.582141
5.63999987 -20.87000084 -0.55000001 95 195 110 0.000000 0.000000 0.000000 0.000000 -60.708740 0.000000 9.000000 0.915565 -0.165566 -0.366509
5.63999987 -20.87000084 -0.52999997 95 195 110 0.000000 0.000000 0.000000 0.000000 -60.708740 0.000000 9.000000 0.929239 0.056677 -0.365105
5.65000010 -20.86000061 -0.57999998 95 195 110 0.000000 0.000000 0.000000 0.000000 -60.708740 0.000000 9.000000 0.857094 -0.270420 -0.438478
5.63000011 -20.88999939 -0.55000001 95 195 110 0.000000 0.000000 0.000000 0.000000 -60.708740 0.000000 9.000000 0.775928 -0.383914 -0.500546
5.65999985 -20.89999962 -0.52999997 95 195 110 0.000000 0.000000 0.000000 0.000000 -60.708740 0.000000 9.000000 0.894786 -0.308188 -0.323076
5.63999987 -20.87000084 -0.52999997 95 195 110 0.000000 0.000000 0.000000 0.000000 -60.708740 0.000000 9.000000 0.929239 0.056677 -0.365105
5.65000010 -20.86000061 -0.56000000 95 195 110 0.000000 0.000000 0.000000 0.000000 -60.708740 0.000000 9.000000 0.951082 -0.221150 -0.215723
5.59000015 -20.76000023 -0.16000000 95 195 110 0.000000 0.000000 0.000000 0.000000 -60.708740 0.000000 9.000000 -0.450209 0.839663 0.303774
5.59999990 -20.85000038 -0.05000000 95 195 110 0.000000 0.000000 0.000000 0.000000 -60.708740 0.000000 9.000000 -0.750403 0.565639 0.341976
5.59999990 -20.84000015 -0.07000000 95 195 110 0.000000 0.000000 0.000000 0.000000 -60.708740 0.000000 9.000000 -0.398296 0.912932 0.088966
5.61999989 -20.81999969 -0.09000000 95 195 110 0.000000 0.000000 0.000000 0.000000 -60.708740 0.000000 9.000000 0.250237 -0.760153 -0.599624
5.61000013 -20.81999969 -0.10000000 95 195 110 0.000000 0.000000 0.000000 0.000000 -60.708740 0.000000 9.000000 -0.401136 0.754790 0.519020
5.61999989 -20.81999969 -0.09000000 95 195 110 0.000000 0.000000 0.000000 0.000000 -60.708740 0.000000 9.000000 0.250237 -0.760153 -0.599624
5.59999990 -20.84000015 -0.07000000 95 195 110 0.000000 0.000000 0.000000 0.000000 -60.708740 0.000000 9.000000 -0.398296 0.912932 0.088966
5.61000013 -20.85000038 -0.09000000 95 195 110 0.000000 0.000000 0.000000 0.000000 -60.708740 0.000000 9.000000 -0.607361 0.793374 0.040867
5.61000013 -20.84000015 -0.09000000 95 195 110 0.000000 0.000000 0.000000 0.000000 -60.708740 0.000000 9.000000 -0.299181 0.954177 -0.006156
5.57999992 -20.85000038 -0.08000000 95 195 110 0.000000 0.000000 0.000000 0.000000 -60.708740 0.000000 9.000000 -0.358070 0.842794 0.401852
5.55999994 -20.85000038 -0.08000000 95 195 110 0.000000 0.000000 0.000000 0.000000 -60.708740 0.000000 9.000000 0.766337 -0.449345 -0.459148
5.55999994 -20.85000038 -0.09000000 95 195 110 0.000000 0.000000 0.000000 0.000000 -60.708740 0.000000 9.000000 0.933502 -0.348561 -0.084135
5.59999990 -20.79999924 -0.16000000 95 195 110 0.000000 0.000000 0.000000 0.000000 -60.708740 0.000000 9.000000 -0.062950 0.857515 0.510592
5.59000015 -20.77000046 -0.15000001 95 195 110 0.000000 0.000000 0.000000 0.000000 -60.708740 0.000000 9.000000 -0.337173 0.766301 0.546897
5.61999989 -20.79000092 -0.15000001 95 195 110 0.000000 0.000000 0.000000 0.000000 -60.708740 0.000000 9.000000 -0.371322 0.792474 0.483843
5.61000013 -20.79999924 -0.16000000 95 195 110 0.000000 0.000000 0.000000 0.000000 -60.708740 0.000000 9.000000 -0.235324 0.931430 0.277597
5.61999989 -20.80999947 -0.13000000 95 195 110 0.000000 0.000000 0.000000 0.000000 -60.708740 0.000000 9.000000 -0.352913 0.899265 0.258409
5.59000015 -20.80999947 -0.11000000 95 195 110 0.000000 0.000000 0.000000 0.000000 -60.708740 0.000000 9.000000 0.649443 -0.585674 -0.484985
5.61000013 -20.82999992 -0.12000000 95 195 110 0.000000 0.000000 0.000000 0.000000 -60.708740 0.000000 9.000000 -0.118321 0.981945 0.147597
5.61000013 -20.80999947 -0.13000000 95 195 110 0.000000 0.000000 0.000000 0.000000 -60.708740 0.000000 9.000000 -0.420762 0.906564 0.033183
5.61000013 -20.84000015 -0.11000000 95 195 110 0.000000 0.000000 0.000000 0.000000 -60.708740 0.000000 9.000000 0.812590 -0.552319 -0.186124
5.61000013 -20.82999992 -0.16000000 95 195 110 0.000000 0.000000 0.000000 0.000000 -60.708740 0.000000 9.000000 -0.353821 0.934450 -0.040177
5.59999990 -20.81999969 -0.16000000 95 195 110 0.000000 0.000000 0.000000 0.000000 -60.708740 0.000000 9.000000 -0.062041 0.997913 0.017876
5.57999992 -20.79999924 -0.15000001 95 195 110 0.000000 0.000000 0.000000 0.000000 -60.708740 0.000000 9.000000 -0.269588 0.903047 0.334407
5.55000019 -20.79999924 -0.16000000 95 195 110 0.000000 0.000000 0.000000 0.000000 -60.708740 0.000000 9.000000 -0.241047 0.878850 0.411727
5.57000017 -20.77000046 -0.18000001 95 195 110 0.000000 0.000000 0.000000 0.000000 -60.708740 0.000000 9.000000 -0.035696 0.986833 0.157755
5.57999992 -20.77000046 -0.17000000 95 195 110 0.000000 0.000000 0.000000 0.000000 -60.708740 0.000000 9.000000 -0.662255 0.724004 0.192965
5.57000017 -20.78000069 -0.16000000 95 195 110 0.000000 0.000000 0.000000 0.000000 -60.708740 0.000000 9.000000 -0.515940 0.755073 0.404562
5.55000019 -20.81999969 -0.11000000 95 195 110 0.000000 0.000000 0.000000 0.000000 -60.708740 0.000000 9.000000 0.841289 -0.346229 -0.415161
5.57999992 -20.81999969 -0.11000000 95 195 110 0.000000 0.000000 0.000000 0.000000 -60.708740 0.000000 9.000000 -0.293654 0.892886 0.341354
5.57000017 -20.81999969 -0.17000000 95 195 110 0.000000 0.000000 0.000000 0.000000 -60.708740 0.000000 9.000000 -0.587182 0.744836 0.316917
5.55000019 -20.84000015 -0.17000000 95 195 110 0.000000 0.000000 0.000000 0.000000 -60.708740 0.000000 9.000000 -0.524182 0.625311 0.578117
5.57999992 -20.80999947 -0.17000000 95 195 110 0.000000 0.000000 0.000000 0.000000 -60.708740 0.000000 9.000000 -0.688576 0.688576 0.227434
5.53999996 -20.82999992 -0.17000000 95 195 110 0.000000 0.000000 0.000000 0.000000 -60.708740 0.000000 9.000000 -0.598869 0.478089 0.642485
5.53000021 -20.82999992 -0.18000001 95 195 110 0.000000 0.000000 0.000000 0.000000 -60.708740 0.000000 9.000000 0.499814 -0.654638 -0.567129
5.53000021 -20.82999992 -0.18000001 95 195 110 0.000000 0.000000 0.000000 0.000000 -60.708740 0.000000 9.000000 0.499814 -0.654638 -0.567129
5.55999994 -20.73999977 -0.27000001 95 195 110 0.000000 0.000000 0.000000 0.000000 -60.708740 0.000000 9.000000 0.105943 0.914966 0.389376
5.57999992 -20.73999977 -0.27000001 95 195 110 0.000000 0.000000 0.000000 0.000000 -60.708740 0.000000 9.000000 -0.110730 0.968570 0.222733
5.59999990 -20.76000023 -0.23999999 95 195 110 0.000000 0.000000 0.000000 0.000000 -60.708740 0.000000 9.000000 0.209693 0.961421 0.178041
5.57999992 -20.76000023 -0.23000000 95 195 110 0.000000 0.000000 0.000000 0.000000 -60.708740 0.000000 9.000000 -0.082593 0.975089 0.205866
5.61999989 -20.76000023 -0.31000000 95 195 110 0.000000 0.000000 0.000000 0.000000 -60.708740 0.000000 9.000000 0.268680 0.954276 -0.131031
5.61000013 -20.76000023 -0.31999999 95 195 110 0.000000 0.000000 0.000000 0.000000 -60.708740 0.000000 9.000000 0.199771 0.976796 -0.077212
5.61000013 -20.75000000 -0.34999999 95 195 110 0.000000 0.000000 0.000000 0.000000 -60.708740 0.000000 9.000000 0.414740 0.831058 0.370585
5.59000015 -20.75000000 -0.33000001 95 195 110 0.000000 0.000000 0.000000 0.000000 -60.708740 0.000000 9.000000 -0.255785 0.966697 -0.008406
5.57000017 -20.76000023 -0.28000000 95 195 110 0.000000 0.000000 0.000000 0.000000 -60.708740 0.000000 9.000000 0.136532 0.963529 0.230155
5.57000017 -20.76000023 -0.30000001 95 195 110 0.000000 0.000000 0.000000 0.000000 -60.708740 0.000000 9.000000 0.149021 0.987699 0.047363
5.55999994 -20.76000023 -0.28999999 95 195 110 0.000000 0.000000 0.000000 0.000000 -60.708740 0.000000 9.000000 -0.022785 0.972579 0.231452
5.57000017 -20.76000023 -0.28000000 95 195 110 0.000000 0.000000 0.000000 0.000000 -60.708740 0.000000 9.000000 0.136532 0.963529 0.230155
5.55000019 -20.72999954 -0.28999999 95 195 110 0.000000 0.000000 0.000000 0.000000 -60.708740 0.000000 9.000000 -0.472026 0.881559 -0.006648
5.57000017 -20.76000023 -0.28000000 95 195 110 0.000000 0.000000 0.000000 0.000000 -60.708740 0.000000 9.000000 0.136532 0.963529 0.230155
5.57999992 -20.76000023 -0.34999999 95 195 110 0.000000 0.000000 0.000000 0.000000 -60.708740 0.000000 9.000000 -0.117468 0.890207 0.440150
5.57999992 -20.76000023 -0.33000001 95 195 110 0.000000 0.000000 0.000000 0.000000 -60.708740 0.000000 9.000000 0.019503 0.985484 -0.168645
5.57999992 -20.76000023 -0.33000001 95 195 110 0.000000 0.000000 0.000000 0.000000 -60.708740 0.000000 9.000000 0.019503 0.985484 -0.168645
5.57999992 -20.76000023 -0.33000001 95 195 110 0.000000 0.000000 0.000000 0.000000 -60.708740 0.000000 9.000000 0.019503 0.985484 -0.168645
5.59000015 -20.77000046 -0.22000000 95 195 110 0.000000 0.000000 0.000000 0.000000 -60.708740 0.000000 9.000000 0.198143 -0.885041 -0.421238
5.61999989 -20.79000092 -0.19000000 95 195 110 0.000000 0.000000 0.000000 0.000000 -60.708740 0.000000 9.000000 -0.090850 0.923416 0.372892
5.61999989 -20.79999924 -0.23000000 95 195 110 0.000000 0.000000 0.000000 0.000000 -60.708740 0.000000 9.000000 -0.131745 0.974910 -0.179424
5.59000015 -20.77000046 -0.25999999 95 195 110 0.000000 0.000000 0.000000 0.000000 -60.708740 0.000000 9.000000 0.256042 0.905657 0.337976
5.59000015 -20.77000046 -0.25999999 95 195 110 0.000000 0.000000 0.000000 0.000000 -60.708740 0.000000 9.000000 0.256042 0.905657 0.337976
5.55999994 -20.79000092 -0.20999999 95 195 110 0.000000 0.000000 0.000000 0.000000 -60.708740 0.000000 9.000000 -0.288218 0.900129 0.326648
5.55999994 -20.79000092 -0.22000000 95 195 110 0.000000 0.000000 0.000000 0.000000 -60.708740 0.000000 9.000000 -0.345251 0.753716 0.559209
5.57999992 -20.78000069 -0.22000000 95 195 110 0.000000 0.000000 0.000000 0.000000 -60.708740 0.000000 9.000000 -0.587694 0.799794 0.122252
5.57999992 -20.78000069 -0.22000000 95 195 110 0.000000 0.000000 0.000000 0.000000 -60.708740 0.000000 9.000000 -0.587694 0.799794 0.122252
5.57000017 -20.78000069 -0.25999999 95 195 110 0.000000 0.000000 0.000000 0.000000 -60.708740 0.000000 9.000000 -0.055655 0.991572 -0.116990
5.57000017 -20.77000046 -0.23999999 95 195 110 0.000000 0.000000 0.000000 0.000000 -60.708740 0.000000 9.000000 -0.288571 0.956442 -0.044105
5.55000019 -20.79000092 -0.23999999 95 195 110 0.000000 0.000000 0.000000 0.000000 -60.708740 0.000000 9.000000 -0.600668 0.760638 0.246227
5.57999992 -20.77000046 -0.27000001 95 195 110 0.000000 0.000000 0.000000 0.000000 -60.708740 0.000000 9.000000 -0.168444 0.983188 0.070484
5.55000019 -20.79000092 -0.23000000 95 195 110 0.000000 0.000000 0.000000 0.000000 -60.708740 0.000000 9.000000 -0.322725 0.826491 0.461261
5.55000019 -20.79000092 -0.23000000 95 195 110 0.000000 0.000000 0.000000 0.000000 -60.708740 0.000000 9.000000 -0.322725 0.826491 0.461261
5.55000019 -20.77000046 -0.25000000 95 195 110 0.000000 0.000000 0.000000 0.000000 -60.708740 0.000000 9.000000 -0.340258 0.717960 0.607254
5.55999994 -20.77000046 -0.23000000 95 195 110 0.000000 0.000000 0.000000 0.000000 -60.708740 0.000000 9.000000 -0.101730 0.994811 0.001071
5.55000019 -20.79000092 -0.23000000 95 195 110 0.000000 0.000000 0.000000 0.000000 -60.708740 0.000000 9.000000 -0.322725 0.826491 0.461261
5.59000015 -20.77000046 -0.28999999 95 195 110 0.000000 0.000000 0.000000 0.000000 -60.708740 0.000000 9.000000 -0.236084 0.948432 0.211521
5.59000015 -20.77000046 -0.28000000 95 195 110 0.000000 0.000000 0.000000 0.000000 -60.708740 0.000000 9.000000 -0.253021 0.967290 -0.018159
5.59000015 -20.77000046 -0.30000001 95 195 110 0.000000 0.000000 0.000000 0.000000 -60.708740 0.000000 9.000000 -0.001326 0.879361 0.476155
5.61000013 -20.77000046 -0.34000000 95 195 110 0.000000 0.000000 0.000000 0.000000 -60.708740 0.000000 9.000000 0.509396 0.853776 0.107619
5.61999989 -20.77000046 -0.33000001 95 195 110 0.000000 0.000000 0.000000 0.000000 -60.708740 0.000000 9.000000 0.433228 0.893267 -0.119949
5.61999989 -20.77000046 -0.34000000 95 195 110 0.000000 0.000000 0.000000 0.000000 -60.708740 0.000000 9.000000 0.424671 0.904268 -0.044209
5.55000019 -20.77000046 -0.28999999 95 195 110 0.000000 0.000000 0.000000 0.000000 -60.708740 0.000000 9.000000 -0.270490 0.923100 0.273352
5.57999992 -20.78000069 -0.30000001 95 195 110 0.000000 0.000000 0.000000 0.000000 -60.708740 0.000000 9.000000 -0.250945 0.835971 0.488035
5.53999996 -20.73999977 -0.27000001 95 195 110 0.000000 0.000000 0.000000 0.000000 -60.708740 0.000000 9.000000 -0.169772 0.818814 0.548380
5.51999998 -20.76000023 -0.31000000 95 195 110 0.000000 0.000000 0.000000 0.000000 -60.708740 0.000000 9.000000 -0.187096 0.927038 0.324956
5.51999998 -20.76000023 -0.28000000 95 195 110 0.000000 0.000000 0.000000 0.000000 -60.708740 0.000000 9.000000 -0.602337 0.595588 0.531474
5.51999998 -20.75000000 -0.28999999 95 195 110 0.000000 0.000000 0.000000 0.000000 -60.708740 0.000000 9.000000 -0.186711 0.982261 -0.017395
5.53999996 -20.75000000 -0.30000001 95 195 110 0.000000 0.000000 0.000000 0.000000 -60.708740 0.000000 9.000000 -0.134318 0.979656 0.149105
5.53999996 -20.75000000 -0.30000001 95 195 110 0.000000 0.000000 0.000000 0.000000 -60.708740 0.000000 9.000000 -0.134318 0.979656 0.149105
5.51999998 -20.75000000 -0.30000001 95 195 110 0.000000 0.000000 0.000000 0.000000 -60.708740 0.000000 9.000000 -0.010291 0.984524 0.174950
5.53000021 -20.75000000 -0.28000000 95 195 110 0.000000 0.000000 0.000000 0.000000 -60.708740 0.000000 9.000000 -0.275311 0.960476 0.041110
5.53000021 -20.75000000 -0.31000000 95 195 110 0.000000 0.000000 0.000000 0.000000 -60.708740 0.000000 9.000000 -0.162477 0.971021 0.175270
5.53000021 -20.75000000 -0.31999999 95 195 110 0.000000 0.000000 0.000000 0.000000 -60.708740 0.000000 9.000000 -0.084727 0.990024 0.112582
5.53999996 -20.75000000 -0.33000001 95 195 110 0.000000 0.000000 0.000000 0.000000 -60.708740 0.000000 9.000000 -0.000989 0.999940 0.010880
5.53000021 -20.73999977 -0.34999999 95 195 110 0.000000 0.000000 0.000000 0.000000 -60.708740 0.000000 9.000000 -0.080103 0.974786 0.208267
5.51999998 -20.73999977 -0.34999999 95 195 110 0.000000 0.000000 0.000000 0.000000 -60.708740 0.000000 9.000000 -0.118225 0.976910 0.177959
5.51999998 -20.73999977 -0.34999999 95 195 110 0.000000 0.000000 0.000000 0.000000 -60.708740 0.000000 9.000000 -0.118225 0.976910 0.177959
5.46999979 -20.75000000 -0.31000000 95 195 110 0.000000 0.000000 0.000000 0.000000 -60.708740 0.000000 9.000000 -0.289522 0.946670 0.141395
5.46999979 -20.75000000 -0.31000000 95 195 110 0.000000 0.000000 0.000000 0.000000 -60.708740 0.000000 9.000000 -0.289522 0.946670 0.141395
5.48999977 -20.76000023 -0.30000001 95 195 110 0.000000 0.000000 0.000000 0.000000 -60.708740 0.000000 9.000000 -0.347938 0.923643 0.160694
5.50000000 -20.72999954 -0.34000000 95 195 110 0.000000 0.000000 0.000000 0.000000 -60.708740 0.000000 9.000000 -0.011908 0.994848 0.100676
5.50000000 -20.75000000 -0.34000000 95 195 110 0.000000 0.000000 0.000000 0.000000 -60.708740 0.000000 9.000000 -0.649818 0.633199 0.420471
5.48999977 -20.76000023 -0.34999999 95 195 110 0.000000 0.000000 0.000000 0.000000 -60.708740 0.000000 9.000000 -0.490011 0.814583 0.310393
5.48999977 -20.76000023 -0.34000000 95 195 110 0.000000 0.000000 0.000000 0.000000 -60.708740 0.000000 9.000000 -0.354823 0.933538 0.051063
5.50000000 -20.72999954 -0.34999999 95 195 110 0.000000 0.000000 0.000000 0.000000 -60.708740 0.000000 9.000000 -0.655679 0.744887 0.123404
5.53999996 -20.78000069 -0.20999999 95 195 110 0.000000 0.000000 0.000000 0.000000 -60.708740 0.000000 9.000000 -0.516740 0.854768 0.048488
5.53999996 -20.77000046 -0.27000001 95 195 110 0.000000 0.000000 0.000000 0.000000 -60.708740 0.000000 9.000000 0.008463 0.963605 0.267198
5.51999998 -20.79999924 -0.25000000 95 195 110 0.000000 0.000000 0.000000 0.000000 -60.708740 0.000000 9.000000 -0.472033 0.780233 0.410393
5.53000021 -20.79000092 -0.23000000 95 195 110 0.000000 0.000000 0.000000 0.000000 -60.708740 0.000000 9.000000 -0.207767 0.865446 0.455891
5.51000023 -20.79999924 -0.25999999 95 195 110 0.000000 0.000000 0.000000 0.000000 -60.708740 0.000000 9.000000 -0.611549 0.703363 0.362338
5.51000023 -20.79999924 -0.23999999 95 195 110 0.000000 0.000000 0.000000 0.000000 -60.708740 0.000000 9.000000 -0.588315 0.662063 0.464282
5.51999998 -20.79000092 -0.27000001 95 195 110 0.000000 0.000000 0.000000 0.000000 -60.708740 0.000000 9.000000 -0.143761 0.869829 0.471944
5.53000021 -20.79000092 -0.23000000 95 195 110 0.000000 0.000000 0.000000 0.000000 -60.708740 0.000000 9.000000 -0.207767 0.865446 0.455891
5.51999998 -20.79999924 -0.25999999 95 195 110 0.000000 0.000000 0.000000 0.000000 -60.708740 0.000000 9.000000 -0.545668 0.630137 0.552426
5.51999998 -20.82999992 -0.20000000 95 195 110 0.000000 0.000000 0.000000 0.000000 -60.708740 0.000000 9.000000 0.714347 -0.477896 -0.511199
5.53999996 -20.84000015 -0.22000000 95 195 110 0.000000 0.000000 0.000000 0.000000 -60.708740 0.000000 9.000000 -0.481813 0.606043 0.632904
5.51999998 -20.84000015 -0.20000000 95 195 110 0.000000 0.000000 0.000000 0.000000 -60.708740 0.000000 9.000000 -0.472028 0.727089 0.498528
5.53999996 -20.82999992 -0.20999999 95 195 110 0.000000 0.000000 0.000000 0.000000 -60.708740 0.000000 9.000000 0.730096 -0.597351 -0.331862
5.51000023 -20.84000015 -0.22000000 95 195 110 0.000000 0.000000 0.000000 0.000000 -60.708740 0.000000 9.000000 0.779701 -0.625166 -0.035122
5.51000023 -20.84000015 -0.22000000 95 195 110 0.000000 0.000000 0.000000 0.000000 -60.708740 0.000000 9.000000 0.779701 -0.625166 -0.035122
5.51000023 -20.84000015 -0.22000000 95 195 110 0.000000 0.000000 0.000000 0.000000 -60.708740 0.000000 9.000000 0.779701 -0.625166 -0.035122
5.53999996 -20.81999969 -0.20999999 95 195 110 0.000000 0.000000 0.000000 0.000000 -60.708740 0.000000 9.000000 0.722682 -0.660783 -0.202723
5.53000021 -20.81999969 -0.23000000 95 195 110 0.000000 0.000000 0.000000 0.000000 -60.708740 0.000000 9.000000 -0.607780 0.680647 0.409051
5.51000023 -20.80999947 -0.25000000 95 195 110 0.000000 0.000000 0.000000 0.000000 -60.708740 0.000000 9.000000 0.686910 -0.600839 -0.408836
5.50000000 -20.79999924 -0.27000001 95 195 110 0.000000 0.000000 0.000000 0.000000 -60.708740 0.000000 9.000000 -0.372841 0.808089 0.456050
5.50000000 -20.79999924 -0.25000000 95 195 110 0.000000 0.000000 0.000000 0.000000 -60.708740 0.000000 9.000000 -0.291459 0.769261 0.568585
5.48999977 -20.79999924 -0.25000000 95 195 110 0.000000 0.000000 0.000000 0.000000 -60.708740 0.000000 9.000000 0.785210 -0.480840 -0.390177
5.48999977 -20.82999992 -0.27000001 95 195 110 0.000000 0.000000 0.000000 0.000000 -60.708740 0.000000 9.000000 0.923575 -0.229823 -0.306907
5.48000002 -20.81999969 -0.25999999 95 195 110 0.000000 0.000000 0.000000 0.000000 -60.708740 0.000000 9.000000 0.757874 -0.246348 -0.604102
5.48999977 -20.80999947 -0.27000001 95 195 110 0.000000 0.000000 0.000000 0.000000 -60.708740 0.000000 9.000000 0.762873 -0.419825 -0.491702
5.51000023 -20.79000092 -0.28000000 95 195 110 0.000000 0.000000 0.000000 0.000000 -60.708740 0.000000 9.000000 0.803925 -0.495091 -0.329530
5.53999996 -20.77000046 -0.28999999 95 195 110 0.000000 0.000000 0.000000 0.000000 -60.708740 0.000000 9.000000 -0.110485 0.976981 0.182486
5.46000004 -20.78000069 -0.28000000 95 195 110 0.000000 0.000000 0.000000 0.000000 -60.708740 0.000000 9.000000 -0.367739 0.871283 0.325014
5.48000002 -20.78000069 -0.31000000 95 195 110 0.000000 0.000000 0.000000 0.000000 -60.708740 0.000000 9.000000 0.705177 -0.596689 -0.382998
5.48000002 -20.78000069 -0.31000000 95 195 110 0.000000 0.000000 0.000000 0.000000 -60.708740 0.000000 9.000000 0.705177 -0.596689 -0.382998
5.46000004 -20.78000069 -0.34999999 95 195 110 0.000000 0.000000 0.000000 0.000000 -60.708740 0.000000 9.000000 0.735238 -0.490709 -0.467578
5.48000002 -20.78000069 -0.31999999 95 195 110 0.000000 0.000000 0.000000 0.000000 -60.708740 0.000000 9.000000 0.411533 -0.792403 -0.450265
5.48999977 -20.80999947 -0.28000000 95 195 110 0.000000 0.000000 0.000000 0.000000 -60.708740 0.000000 9.000000 0.787204 -0.317756 -0.528528
5.46000004 -20.81999969 -0.31000000 95 195 110 0.000000 0.000000 0.000000 0.000000 -60.708740 0.000000 9.000000 0.926547 -0.189808 -0.324783
5.48000002 -20.80999947 -0.28000000 95 195 110 0.000000 0.000000 0.000000 0.000000 -60.708740 0.000000 9.000000 0.854703 -0.254430 -0.452490
5.48000002 -20.84000015 -0.31999999 95 195 110 0.000000 0.000000 0.000000 0.000000 -60.708740 0.000000 9.000000 0.889934 -0.401574 -0.216232
5.44999981 -20.80999947 -0.34999999 95 195 110 0.000000 0.000000 0.000000 0.000000 -60.708740 0.000000 9.000000 0.871299 -0.481545 -0.094614
5.44999981 -20.79999924 -0.33000001 95 195 110 0.000000 0.000000 0.000000 0.000000 -60.708740 0.000000 9.000000 0.791990 -0.278692 -0.543214
5.57999992 -20.65999985 -0.51999998 95 195 110 0.000000 0.000000 0.000000 0.000000 -60.708740 0.000000 9.000000 0.564566 0.776476 -0.279911
5.51000023 -20.67000008 -0.43000001 95 195 110 0.000000 0.000000 0.000000 0.000000 -60.708740 0.000000 9.000000 0.151274 0.985069 -0.082188
