//X Y Z R G B PointSourceId ScanDirectionFlag NumberOfReturns ReturnNumber GpsTime Intensity Classification Nx Ny Nz
-7.76999998 -19.89999962 0.70999998 253 233 12 0.000000 0.000000 0.000000 0.000000 -60.708740 0.000000 46.000000 -0.243251 0.952844 0.181430
-7.76000023 -19.88999939 0.72000003 253 233 12 0.000000 0.000000 0.000000 0.000000 -60.708740 0.000000 46.000000 -0.573832 0.818777 -0.017889
-7.78000021 -19.88999939 0.67000002 253 233 12 0.000000 0.000000 0.000000 0.000000 -60.708740 0.000000 46.000000 0.139596 0.974656 -0.174809
-7.75000000 -19.95000076 0.79000002 253 233 12 0.000000 0.000000 0.000000 0.000000 -60.708740 0.000000 46.000000 0.201023 0.979553 -0.008134
-7.75000000 -19.94000053 0.77999997 253 233 12 0.000000 0.000000 0.000000 0.000000 -60.708740 0.000000 46.000000 -0.048149 0.998835 0.003073
-7.73999977 -19.95000076 0.81000000 253 233 12 0.000000 0.000000 0.000000 0.000000 -60.708740 0.000000 46.000000 -0.230526 0.968711 -0.091958
-7.73999977 -19.95000076 0.77999997 253 233 12 0.000000 0.000000 0.000000 0.000000 -60.708740 0.000000 46.000000 -0.490131 0.863838 0.116424
-7.71999979 -19.95000076 0.77999997 253 233 12 0.000000 0.000000 0.000000 0.000000 -60.708740 0.000000 46.000000 -0.213955 0.935531 0.281079
-7.75000000 -19.94000053 0.75999999 253 233 12 0.000000 0.000000 0.000000 0.000000 -60.708740 0.000000 46.000000 -0.052861 0.993109 -0.104597
-7.73999977 -19.95000076 0.74000001 253 233 12 0.000000 0.000000 0.000000 0.000000 -60.708740 0.000000 46.000000 -0.208359 0.925569 -0.316083
-7.75000000 -19.95000076 0.74000001 253 233 12 0.000000 0.000000 0.000000 0.000000 -60.708740 0.000000 46.000000 -0.222699 0.970062 -0.096880
-7.71999979 -19.95000076 0.74000001 253 233 12 0.000000 0.000000 0.000000 0.000000 -60.708740 0.000000 46.000000 -0.337951 0.931759 -0.132718
-7.73999977 -19.94000053 0.76999998 253 233 12 0.000000 0.000000 0.000000 0.000000 -60.708740 0.000000 46.000000 -0.096955 0.957915 0.270181
-7.71999979 -19.95000076 0.76999998 253 233 12 0.000000 0.000000 0.000000 0.000000 -60.708740 0.000000 46.000000 -0.243918 0.907024 0.343238
-7.73999977 -19.94000053 0.75999999 253 233 12 0.000000 0.000000 0.000000 0.000000 -60.708740 0.000000 46.000000 -0.028173 0.990567 0.134104
-7.76000023 -19.95000076 0.75000000 253 233 12 0.000000 0.000000 0.000000 0.000000 -60.708740 0.000000 46.000000 -0.220136 0.974194 -0.049865
-7.76999998 -19.95000076 0.75999999 253 233 12 0.000000 0.000000 0.000000 0.000000 -60.708740 0.000000 46.000000 0.192581 0.977624 0.084637
-7.73999977 -19.95000076 0.72000003 253 233 12 0.000000 0.000000 0.000000 0.000000 -60.708740 0.000000 46.000000 -0.530230 0.845273 -0.066103
-7.71999979 -19.94000053 0.73000002 253 233 12 0.000000 0.000000 0.000000 0.000000 -60.708740 0.000000 46.000000 -0.539996 0.841068 0.031764
-7.71999979 -19.93000031 0.73000002 253 233 12 0.000000 0.000000 0.000000 0.000000 -60.708740 0.000000 46.000000 -0.348137 0.858739 -0.375988
-7.71999979 -19.93000031 0.69000000 253 233 12 0.000000 0.000000 0.000000 0.000000 -60.708740 0.000000 46.000000 -0.330334 0.919500 -0.213072
-7.75000000 -19.95000076 0.66000003 253 233 12 0.000000 0.000000 0.000000 0.000000 -60.708740 0.000000 46.000000 -0.192432 0.959508 0.205704
-7.73000002 -19.94000053 0.68000001 253 233 12 0.000000 0.000000 0.000000 0.000000 -60.708740 0.000000 46.000000 -0.300050 0.951660 0.065676
-7.75000000 -19.94000053 0.66000003 253 233 12 0.000000 0.000000 0.000000 0.000000 -60.708740 0.000000 46.000000 -0.599205 0.798466 0.058355
-7.76999998 -19.95000076 0.73000002 253 233 12 0.000000 0.000000 0.000000 0.000000 -60.708740 0.000000 46.000000 -0.274083 0.950600 0.145732
-7.76999998 -19.94000053 0.69999999 253 233 12 0.000000 0.000000 0.000000 0.000000 -60.708740 0.000000 46.000000 0.139626 0.953448 -0.267285
-7.76000023 -19.94000053 0.67000002 253 233 12 0.000000 0.000000 0.000000 0.000000 -60.708740 0.000000 46.000000 -0.227785 0.973694 -0.005901
-7.76999998 -19.94000053 0.69000000 253 233 12 0.000000 0.000000 0.000000 0.000000 -60.708740 0.000000 46.000000 -0.003208 0.995457 -0.095162
-7.78999996 -19.94000053 0.66000003 253 233 12 0.000000 0.000000 0.000000 0.000000 -60.708740 0.000000 46.000000 0.472938 0.868751 0.146975
-7.76000023 -19.95000076 0.68000001 253 233 12 0.000000 0.000000 0.000000 0.000000 -60.708740 0.000000 46.000000 -0.084189 0.990661 -0.107254
-7.78999996 -19.95000076 0.68000001 253 233 12 0.000000 0.000000 0.000000 0.000000 -60.708740 0.000000 46.000000 0.232187 0.965948 0.114169
-7.48000002 -19.86000061 0.34000000 253 233 12 0.000000 0.000000 0.000000 0.000000 -60.708740 0.000000 46.000000 0.957487 -0.152297 0.245000
-7.46999979 -19.85000038 0.34000000 253 233 12 0.000000 0.000000 0.000000 0.000000 -60.708740 0.000000 46.000000 0.946229 0.018849 -0.322949
-7.71000004 -19.89999962 0.62000000 253 233 12 0.000000 0.000000 0.000000 0.000000 -60.708740 0.000000 46.000000 0.790677 -0.597829 0.132027
-7.71000004 -19.85000038 0.60000002 253 233 12 0.000000 0.000000 0.000000 0.000000 -60.708740 0.000000 46.000000 0.937217 -0.335580 0.094925
-7.69999981 -19.87999916 0.63000000 253 233 12 0.000000 0.000000 0.000000 0.000000 -60.708740 0.000000 46.000000 0.827288 -0.384381 -0.409690
-7.71000004 -19.93000031 0.60000002 253 233 12 0.000000 0.000000 0.000000 0.000000 -60.708740 0.000000 46.000000 -0.478191 0.873156 -0.094510
-7.73999977 -19.87999916 0.61000001 253 233 12 0.000000 0.000000 0.000000 0.000000 -60.708740 0.000000 46.000000 0.660634 -0.667159 -0.344182
-7.73000002 -19.87999916 0.58999997 253 233 12 0.000000 0.000000 0.000000 0.000000 -60.708740 0.000000 46.000000 0.785788 -0.575005 0.227832
-7.73000002 -19.92000008 0.62000000 253 233 12 0.000000 0.000000 0.000000 0.000000 -60.708740 0.000000 46.000000 0.663782 -0.686283 0.297336
-7.73000002 -19.92000008 0.64999998 253 233 12 0.000000 0.000000 0.000000 0.000000 -60.708740 0.000000 46.000000 -0.227368 0.930654 0.286681
-7.73999977 -19.88999939 0.56999999 253 233 12 0.000000 0.000000 0.000000 0.000000 -60.708740 0.000000 46.000000 0.862323 -0.480374 -0.160125
-7.73000002 -19.88999939 0.58999997 253 233 12 0.000000 0.000000 0.000000 0.000000 -60.708740 0.000000 46.000000 0.700023 -0.678098 0.223945
-7.76999998 -19.87000084 0.63000000 253 233 12 0.000000 0.000000 0.000000 0.000000 -60.708740 0.000000 46.000000 0.035778 0.986772 -0.158114
-7.76000023 -19.90999985 0.62000000 253 233 12 0.000000 0.000000 0.000000 0.000000 -60.708740 0.000000 46.000000 0.116397 0.985178 -0.125997
-7.78000021 -19.88999939 0.61000001 253 233 12 0.000000 0.000000 0.000000 0.000000 -60.708740 0.000000 46.000000 -0.171145 0.917961 0.357849
-7.76999998 -19.92000008 0.61000001 253 233 12 0.000000 0.000000 0.000000 0.000000 -60.708740 0.000000 46.000000 -0.180072 0.941600 0.284542
-7.76999998 -19.92000008 0.62000000 253 233 12 0.000000 0.000000 0.000000 0.000000 -60.708740 0.000000 46.000000 -0.234131 0.896765 0.375493
-7.76999998 -19.88999939 0.62000000 253 233 12 0.000000 0.000000 0.000000 0.000000 -60.708740 0.000000 46.000000 -0.415161 0.841289 -0.346229
-7.76000023 -19.90999985 0.63000000 253 233 12 0.000000 0.000000 0.000000 0.000000 -60.708740 0.000000 46.000000 -0.388857 0.912909 0.124044
-7.76999998 -19.92000008 0.58999997 253 233 12 0.000000 0.000000 0.000000 0.000000 -60.708740 0.000000 46.000000 -0.022887 0.995022 0.096996
-7.78999996 -19.88999939 0.57999998 253 233 12 0.000000 0.000000 0.000000 0.000000 -60.708740 0.000000 46.000000 0.361156 0.910805 -0.200003
-7.78000021 -19.89999962 0.56999999 253 233 12 0.000000 0.000000 0.000000 0.000000 -60.708740 0.000000 46.000000 0.367109 0.914230 -0.171507
-7.76999998 -19.92000008 0.60000002 253 233 12 0.000000 0.000000 0.000000 0.000000 -60.708740 0.000000 46.000000 0.033137 0.997321 0.065205
-7.80000019 -19.90999985 0.60000002 253 233 12 0.000000 0.000000 0.000000 0.000000 -60.708740 0.000000 46.000000 0.486974 0.873333 -0.012074
-7.78999996 -19.89999962 0.56999999 253 233 12 0.000000 0.000000 0.000000 0.000000 -60.708740 0.000000 46.000000 0.327756 0.903901 -0.274845
-7.76000023 -19.89999962 0.57999998 253 233 12 0.000000 0.000000 0.000000 0.000000 -60.708740 0.000000 46.000000 0.028629 0.997761 0.060438
-7.80000019 -19.88999939 0.57999998 253 233 12 0.000000 0.000000 0.000000 0.000000 -60.708740 0.000000 46.000000 0.594902 0.781478 0.188105
-7.76999998 -19.92000008 0.58999997 253 233 12 0.000000 0.000000 0.000000 0.000000 -60.708740 0.000000 46.000000 -0.022887 0.995022 0.096996
-7.76999998 -19.92000008 0.57999998 253 233 12 0.000000 0.000000 0.000000 0.000000 -60.708740 0.000000 46.000000 -0.053270 0.991733 -0.116741
-7.78999996 -19.89999962 0.56999999 253 233 12 0.000000 0.000000 0.000000 0.000000 -60.708740 0.000000 46.000000 0.327756 0.903901 -0.274845
-7.78999996 -19.89999962 0.56999999 253 233 12 0.000000 0.000000 0.000000 0.000000 -60.708740 0.000000 46.000000 0.327756 0.903901 -0.274845
-7.76999998 -19.92000008 0.60000002 253 233 12 0.000000 0.000000 0.000000 0.000000 -60.708740 0.000000 46.000000 0.033137 0.997321 0.065205
-7.73999977 -19.87999916 0.52999997 253 233 12 0.000000 0.000000 0.000000 0.000000 -60.708740 0.000000 46.000000 0.719283 -0.632776 0.286752
-7.71999979 -19.86000061 0.55000001 253 233 12 0.000000 0.000000 0.000000 0.000000 -60.708740 0.000000 46.000000 0.977512 0.046892 0.205602
-7.71999979 -19.87000084 0.54000002 253 233 12 0.000000 0.000000 0.000000 0.000000 -60.708740 0.000000 46.000000 0.878855 -0.393450 -0.269837
-7.75000000 -19.86000061 0.49000001 253 233 12 0.000000 0.000000 0.000000 0.000000 -60.708740 0.000000 46.000000 0.885638 -0.461298 -0.053385
-7.73999977 -19.88999939 0.52999997 253 233 12 0.000000 0.000000 0.000000 0.000000 -60.708740 0.000000 46.000000 -0.500362 0.852523 0.151136
-7.75000000 -19.89999962 0.50000000 253 233 12 0.000000 0.000000 0.000000 0.000000 -60.708740 0.000000 46.000000 0.743550 -0.661422 0.098260
-7.75000000 -19.89999962 0.51999998 253 233 12 0.000000 0.000000 0.000000 0.000000 -60.708740 0.000000 46.000000 -0.722224 0.653291 -0.227164
-7.75000000 -19.89999962 0.49000001 253 233 12 0.000000 0.000000 0.000000 0.000000 -60.708740 0.000000 46.000000 -0.639579 0.760701 0.110782
-7.73999977 -19.88999939 0.50000000 253 233 12 0.000000 0.000000 0.000000 0.000000 -60.708740 0.000000 46.000000 -0.500394 0.802219 -0.325653
-7.75000000 -19.89999962 0.50000000 253 233 12 0.000000 0.000000 0.000000 0.000000 -60.708740 0.000000 46.000000 0.743550 -0.661422 0.098260
-7.78000021 -19.87999916 0.54000002 253 233 12 0.000000 0.000000 0.000000 0.000000 -60.708740 0.000000 46.000000 -0.251931 0.959426 -0.126618
-7.78000021 -19.87999916 0.50999999 253 233 12 0.000000 0.000000 0.000000 0.000000 -60.708740 0.000000 46.000000 -0.356609 0.930924 0.078801
-7.76999998 -19.87000084 0.50999999 253 233 12 0.000000 0.000000 0.000000 0.000000 -60.708740 0.000000 46.000000 -0.420448 0.888905 0.181855
-7.76999998 -19.87000084 0.49000001 253 233 12 0.000000 0.000000 0.000000 0.000000 -60.708740 0.000000 46.000000 -0.435225 0.874906 -0.212413
-7.78000021 -19.87999916 0.50000000 253 233 12 0.000000 0.000000 0.000000 0.000000 -60.708740 0.000000 46.000000 -0.090918 0.944754 -0.314918
-7.76000023 -19.92000008 0.56000000 253 233 12 0.000000 0.000000 0.000000 0.000000 -60.708740 0.000000 46.000000 -0.077996 0.937277 0.339747
-7.76999998 -19.92000008 0.54000002 253 233 12 0.000000 0.000000 0.000000 0.000000 -60.708740 0.000000 46.000000 -0.092226 0.994482 -0.050002
-7.76000023 -19.89999962 0.55000001 253 233 12 0.000000 0.000000 0.000000 0.000000 -60.708740 0.000000 46.000000 -0.310908 0.938202 0.152030
-7.76000023 -19.92000008 0.55000001 253 233 12 0.000000 0.000000 0.000000 0.000000 -60.708740 0.000000 46.000000 -0.227080 0.969794 0.089076
-7.80000019 -19.90999985 0.56000000 253 233 12 0.000000 0.000000 0.000000 0.000000 -60.708740 0.000000 46.000000 0.195498 0.953219 0.230552
-7.80000019 -19.90999985 0.56000000 253 233 12 0.000000 0.000000 0.000000 0.000000 -60.708740 0.000000 46.000000 0.195498 0.953219 0.230552
-7.76000023 -19.92000008 0.54000002 253 233 12 0.000000 0.000000 0.000000 0.000000 -60.708740 0.000000 46.000000 -0.084868 0.995264 0.047394
-7.78999996 -19.92000008 0.55000001 253 233 12 0.000000 0.000000 0.000000 0.000000 -60.708740 0.000000 46.000000 0.409241 0.909576 -0.072059
-7.78000021 -19.92000008 0.54000002 253 233 12 0.000000 0.000000 0.000000 0.000000 -60.708740 0.000000 46.000000 0.168998 0.981160 -0.093618
-7.76000023 -19.89999962 0.55000001 253 233 12 0.000000 0.000000 0.000000 0.000000 -60.708740 0.000000 46.000000 -0.310908 0.938202 0.152030
-7.76000023 -19.89999962 0.56000000 253 233 12 0.000000 0.000000 0.000000 0.000000 -60.708740 0.000000 46.000000 -0.420134 0.835547 0.354045
-7.76000023 -19.92000008 0.56000000 253 233 12 0.000000 0.000000 0.000000 0.000000 -60.708740 0.000000 46.000000 -0.077996 0.937277 0.339747
-7.78000021 -19.92000008 0.54000002 253 233 12 0.000000 0.000000 0.000000 0.000000 -60.708740 0.000000 46.000000 0.168998 0.981160 -0.093618
-7.76000023 -19.92000008 0.54000002 253 233 12 0.000000 0.000000 0.000000 0.000000 -60.708740 0.000000 46.000000 -0.084868 0.995264 0.047394
-7.78000021 -19.90999985 0.51999998 253 233 12 0.000000 0.000000 0.000000 0.000000 -60.708740 0.000000 46.000000 0.061915 0.997988 0.013642
-7.80000019 -19.89999962 0.50999999 253 233 12 0.000000 0.000000 0.000000 0.000000 -60.708740 0.000000 46.000000 0.468138 0.821212 -0.326278
-7.76000023 -19.90999985 0.50000000 253 233 12 0.000000 0.000000 0.000000 0.000000 -60.708740 0.000000 46.000000 -0.328278 0.944274 -0.024082
-7.76999998 -19.89999962 0.51999998 253 233 12 0.000000 0.000000 0.000000 0.000000 -60.708740 0.000000 46.000000 -0.450062 0.875202 -0.177386
-7.78000021 -19.90999985 0.50999999 253 233 12 0.000000 0.000000 0.000000 0.000000 -60.708740 0.000000 46.000000 0.143544 0.988731 -0.042489
-7.76999998 -19.89999962 0.50999999 253 233 12 0.000000 0.000000 0.000000 0.000000 -60.708740 0.000000 46.000000 -0.480661 0.836133 -0.264286
-7.78000021 -19.90999985 0.51999998 253 233 12 0.000000 0.000000 0.000000 0.000000 -60.708740 0.000000 46.000000 0.061915 0.997988 0.013642
-7.76999998 -19.90999985 0.50999999 253 233 12 0.000000 0.000000 0.000000 0.000000 -60.708740 0.000000 46.000000 -0.492401 0.870133 0.020236
-7.80000019 -19.89999962 0.51999998 253 233 12 0.000000 0.000000 0.000000 0.000000 -60.708740 0.000000 46.000000 0.368341 0.829954 -0.418929
-7.76999998 -19.90999985 0.50999999 253 233 12 0.000000 0.000000 0.000000 0.000000 -60.708740 0.000000 46.000000 -0.492401 0.870133 0.020236
-7.76000023 -19.90999985 0.50000000 253 233 12 0.000000 0.000000 0.000000 0.000000 -60.708740 0.000000 46.000000 -0.328278 0.944274 -0.024082
-7.75000000 -19.94000053 0.63999999 253 233 12 0.000000 0.000000 0.000000 0.000000 -60.708740 0.000000 46.000000 -0.449520 0.892290 0.041847
-7.73000002 -19.93000031 0.61000001 253 233 12 0.000000 0.000000 0.000000 0.000000 -60.708740 0.000000 46.000000 -0.245979 0.964799 -0.093039
-7.75000000 -19.94000053 0.62000000 253 233 12 0.000000 0.000000 0.000000 0.000000 -60.708740 0.000000 46.000000 -0.005692 0.984699 0.174172
-7.75000000 -19.94000053 0.64999998 253 233 12 0.000000 0.000000 0.000000 0.000000 -60.708740 0.000000 46.000000 -0.484294 0.808214 0.335036
-7.73999977 -19.93000031 0.62000000 253 233 12 0.000000 0.000000 0.000000 0.000000 -60.708740 0.000000 46.000000 -0.248083 0.965885 -0.074299
-7.73000002 -19.93000031 0.61000001 253 233 12 0.000000 0.000000 0.000000 0.000000 -60.708740 0.000000 46.000000 -0.245979 0.964799 -0.093039
-7.75000000 -19.94000053 0.57999998 253 233 12 0.000000 0.000000 0.000000 0.000000 -60.708740 0.000000 46.000000 -0.192618 0.899366 0.392477
-7.75000000 -19.94000053 0.60000002 253 233 12 0.000000 0.000000 0.000000 0.000000 -60.708740 0.000000 46.000000 -0.543205 0.832914 -0.105744
-7.73999977 -19.94000053 0.58999997 253 233 12 0.000000 0.000000 0.000000 0.000000 -60.708740 0.000000 46.000000 -0.598455 0.742855 0.300030
-7.76000023 -19.95000076 0.60000002 253 233 12 0.000000 0.000000 0.000000 0.000000 -60.708740 0.000000 46.000000 0.036109 0.959999 -0.277665
-7.76000023 -19.93000031 0.51999998 253 233 12 0.000000 0.000000 0.000000 0.000000 -60.708740 0.000000 46.000000 0.031683 0.946675 -0.320628
-7.69999981 -19.86000061 0.33000001 253 233 12 0.000000 0.000000 0.000000 0.000000 -60.708740 0.000000 46.000000 0.948717 -0.118092 0.293240
-7.71999979 -19.85000038 0.47999999 253 233 12 0.000000 0.000000 0.000000 0.000000 -60.708740 0.000000 46.000000 0.932748 -0.179321 -0.312770
-7.73999977 -19.85000038 0.44999999 253 233 12 0.000000 0.000000 0.000000 0.000000 -60.708740 0.000000 46.000000 0.987886 0.102439 -0.116568
-7.75000000 -19.86000061 0.41999999 253 233 12 0.000000 0.000000 0.000000 0.000000 -60.708740 0.000000 46.000000 0.908513 -0.374600 -0.185147
-7.75000000 -19.85000038 0.41000000 253 233 12 0.000000 0.000000 0.000000 0.000000 -60.708740 0.000000 46.000000 0.939932 -0.308777 0.145547
-7.73999977 -19.89999962 0.47000000 253 233 12 0.000000 0.000000 0.000000 0.000000 -60.708740 0.000000 46.000000 -0.340129 0.895622 0.286659
-7.73000002 -19.88999939 0.44000000 253 233 12 0.000000 0.000000 0.000000 0.000000 -60.708740 0.000000 46.000000 0.825986 -0.553077 0.108873
-7.71999979 -19.88999939 0.40000001 253 233 12 0.000000 0.000000 0.000000 0.000000 -60.708740 0.000000 46.000000 0.983281 -0.177390 0.041117
-7.76000023 -19.87000084 0.41000000 253 233 12 0.000000 0.000000 0.000000 0.000000 -60.708740 0.000000 46.000000 0.876335 -0.449140 -0.174097
-7.76000023 -19.87999916 0.41999999 253 233 12 0.000000 0.000000 0.000000 0.000000 -60.708740 0.000000 46.000000 0.856681 -0.502490 -0.116624
-7.76000023 -19.87999916 0.40000001 253 233 12 0.000000 0.000000 0.000000 0.000000 -60.708740 0.000000 46.000000 0.806878 -0.524862 -0.271048
-7.76000023 -19.87000084 0.43000001 253 233 12 0.000000 0.000000 0.000000 0.000000 -60.708740 0.000000 46.000000 0.750166 -0.658367 -0.061677
-7.76000023 -19.87000084 0.41000000 253 233 12 0.000000 0.000000 0.000000 0.000000 -60.708740 0.000000 46.000000 0.876335 -0.449140 -0.174097
-7.76000023 -19.87000084 0.40000001 253 233 12 0.000000 0.000000 0.000000 0.000000 -60.708740 0.000000 46.000000 0.812778 -0.508965 -0.283454
-7.78000021 -19.89999962 0.46000001 253 233 12 0.000000 0.000000 0.000000 0.000000 -60.708740 0.000000 46.000000 0.168033 0.979989 0.106707
-7.76000023 -19.88999939 0.47000000 253 233 12 0.000000 0.000000 0.000000 0.000000 -60.708740 0.000000 46.000000 -0.130692 0.977080 -0.168033
-7.78000021 -19.92000008 0.47000000 253 233 12 0.000000 0.000000 0.000000 0.000000 -60.708740 0.000000 46.000000 0.161464 0.954108 -0.252205
-7.76999998 -19.92000008 0.46000001 253 233 12 0.000000 0.000000 0.000000 0.000000 -60.708740 0.000000 46.000000 -0.533028 0.846097 -0.001349
-7.80000019 -19.90999985 0.47000000 253 233 12 0.000000 0.000000 0.000000 0.000000 -60.708740 0.000000 46.000000 -0.015036 0.981953 0.188526
-7.76000023 -19.90999985 0.46000001 253 233 12 0.000000 0.000000 0.000000 0.000000 -60.708740 0.000000 46.000000 -0.548605 0.830827 -0.093594
-7.76999998 -19.88999939 0.43000001 253 233 12 0.000000 0.000000 0.000000 0.000000 -60.708740 0.000000 46.000000 -0.516030 0.854457 -0.060134
-7.78999996 -19.90999985 0.41000000 253 233 12 0.000000 0.000000 0.000000 0.000000 -60.708740 0.000000 46.000000 0.178118 0.973967 -0.140221
-7.76999998 -19.88999939 0.44000000 253 233 12 0.000000 0.000000 0.000000 0.000000 -60.708740 0.000000 46.000000 -0.464199 0.836800 0.290318
-7.76999998 -19.88999939 0.41999999 253 233 12 0.000000 0.000000 0.000000 0.000000 -60.708740 0.000000 46.000000 -0.546420 0.823352 0.153355
-7.80000019 -19.90999985 0.41999999 253 233 12 0.000000 0.000000 0.000000 0.000000 -60.708740 0.000000 46.000000 0.505462 0.852148 -0.135470
-7.78000021 -19.90999985 0.40000001 253 233 12 0.000000 0.000000 0.000000 0.000000 -60.708740 0.000000 46.000000 -0.003061 0.999032 -0.043880
-7.73000002 -19.88999939 0.38000000 253 233 12 0.000000 0.000000 0.000000 0.000000 -60.708740 0.000000 46.000000 0.804546 -0.569949 -0.166924
-7.73999977 -19.89999962 0.38000000 253 233 12 0.000000 0.000000 0.000000 0.000000 -60.708740 0.000000 46.000000 -0.373802 0.921497 0.105431
-7.76999998 -19.87999916 0.38000000 253 233 12 0.000000 0.000000 0.000000 0.000000 -60.708740 0.000000 46.000000 -0.687475 0.726206 0.001383
-7.76999998 -19.86000061 0.31999999 253 233 12 0.000000 0.000000 0.000000 0.000000 -60.708740 0.000000 46.000000 0.976187 -0.207880 0.061999
-7.76999998 -19.86000061 0.33000001 253 233 12 0.000000 0.000000 0.000000 0.000000 -60.708740 0.000000 46.000000 0.906377 -0.418846 0.055218
-7.76000023 -19.85000038 0.34999999 253 233 12 0.000000 0.000000 0.000000 0.000000 -60.708740 0.000000 46.000000 0.850347 -0.525093 0.034455
-7.76999998 -19.87999916 0.33000001 253 233 12 0.000000 0.000000 0.000000 0.000000 -60.708740 0.000000 46.000000 0.711101 -0.702686 0.023844
-7.76999998 -19.87999916 0.34000000 253 233 12 0.000000 0.000000 0.000000 0.000000 -60.708740 0.000000 46.000000 -0.473265 0.815156 0.333977
-7.76000023 -19.90999985 0.38999999 253 233 12 0.000000 0.000000 0.000000 0.000000 -60.708740 0.000000 46.000000 -0.242118 0.969690 0.032850
-7.80000019 -19.88999939 0.38999999 253 233 12 0.000000 0.000000 0.000000 0.000000 -60.708740 0.000000 46.000000 0.087791 0.947352 -0.307922
-7.80000019 -19.90999985 0.38999999 253 233 12 0.000000 0.000000 0.000000 0.000000 -60.708740 0.000000 46.000000 0.456138 0.882434 -0.115100
-7.80000019 -19.90999985 0.38000000 253 233 12 0.000000 0.000000 0.000000 0.000000 -60.708740 0.000000 46.000000 0.385856 0.876120 0.289014
-7.80000019 -19.90999985 0.36000001 253 233 12 0.000000 0.000000 0.000000 0.000000 -60.708740 0.000000 46.000000 0.379116 0.925146 -0.019409
-7.78999996 -19.90999985 0.38999999 253 233 12 0.000000 0.000000 0.000000 0.000000 -60.708740 0.000000 46.000000 0.081636 0.994169 0.070453
-7.78999996 -19.90999985 0.34000000 253 233 12 0.000000 0.000000 0.000000 0.000000 -60.708740 0.000000 46.000000 0.227945 0.960533 0.159430
-7.80000019 -19.89999962 0.33000001 253 233 12 0.000000 0.000000 0.000000 0.000000 -60.708740 0.000000 46.000000 0.184536 0.977172 0.105272
-7.78999996 -19.89999962 0.31999999 253 233 12 0.000000 0.000000 0.000000 0.000000 -60.708740 0.000000 46.000000 -0.088122 0.988144 0.125721
-7.69999981 -19.87000084 0.30000001 253 233 12 0.000000 0.000000 0.000000 0.000000 -60.708740 0.000000 46.000000 0.856340 -0.405797 -0.319392
-7.76999998 -19.86000061 0.28000000 253 233 12 0.000000 0.000000 0.000000 0.000000 -60.708740 0.000000 46.000000 0.966084 -0.167732 0.196337
-7.78000021 -19.87000084 0.23999999 253 233 12 0.000000 0.000000 0.000000 0.000000 -60.708740 0.000000 46.000000 0.543011 -0.776874 -0.318758
-7.78000021 -19.87000084 0.27000001 253 233 12 0.000000 0.000000 0.000000 0.000000 -60.708740 0.000000 46.000000 0.724865 -0.670158 -0.159561
-7.78000021 -19.85000038 0.25000000 253 233 12 0.000000 0.000000 0.000000 0.000000 -60.708740 0.000000 46.000000 0.909317 -0.414052 -0.041272
-7.78000021 -19.89999962 0.30000001 253 233 12 0.000000 0.000000 0.000000 0.000000 -60.708740 0.000000 46.000000 0.080109 0.984020 0.159021
-7.80000019 -19.89999962 0.25999999 253 233 12 0.000000 0.000000 0.000000 0.000000 -60.708740 0.000000 46.000000 0.012886 0.978182 0.207351
-7.78000021 -19.87000084 0.23000000 253 233 12 0.000000 0.000000 0.000000 0.000000 -60.708740 0.000000 46.000000 0.832034 -0.531371 -0.159262
-7.80000019 -19.87000084 0.20999999 253 233 12 0.000000 0.000000 0.000000 0.000000 -60.708740 0.000000 46.000000 -0.093450 0.994963 -0.036280
-7.80000019 -19.87000084 0.20999999 253 233 12 0.000000 0.000000 0.000000 0.000000 -60.708740 0.000000 46.000000 -0.093450 0.994963 -0.036280
-7.71000004 -19.88999939 0.06000000 253 233 12 0.000000 0.000000 0.000000 0.000000 -60.708740 0.000000 46.000000 0.974564 -0.137068 -0.177308
-7.78999996 -19.85000038 0.14000000 253 233 12 0.000000 0.000000 0.000000 0.000000 -60.708740 0.000000 46.000000 0.961777 0.018378 -0.273218
-7.76999998 -19.86000061 0.09000000 253 233 12 0.000000 0.000000 0.000000 0.000000 -60.708740 0.000000 46.000000 0.979419 -0.199664 -0.029536
-7.76999998 -19.87000084 0.09000000 253 233 12 0.000000 0.000000 0.000000 0.000000 -60.708740 0.000000 46.000000 0.832052 -0.504135 -0.231381
-7.80000019 -19.87999916 0.08000000 253 233 12 0.000000 0.000000 0.000000 0.000000 -60.708740 0.000000 46.000000 0.147938 0.943274 -0.297233
-7.73999977 -19.89999962 0.06000000 253 233 12 0.000000 0.000000 0.000000 0.000000 -60.708740 0.000000 46.000000 -0.689297 0.707476 0.156039
-7.80000019 -19.85000038 0.06000000 253 233 12 0.000000 0.000000 0.000000 0.000000 -60.708740 0.000000 46.000000 0.796364 0.541905 -0.268596
-7.80000019 -19.85000038 0.06000000 253 233 12 0.000000 0.000000 0.000000 0.000000 -60.708740 0.000000 46.000000 0.796364 0.541905 -0.268596
-7.78999996 -19.87000084 0.03000000 253 233 12 0.000000 0.000000 0.000000 0.000000 -60.708740 0.000000 46.000000 -0.346478 0.904937 0.247067
-7.73999977 -20.00000000 0.09000000 253 233 12 0.000000 0.000000 0.000000 0.000000 -60.708740 0.000000 46.000000 -0.556347 0.812659 0.173387
-7.76999998 -19.93000031 0.03000000 253 233 12 0.000000 0.000000 0.000000 0.000000 -60.708740 0.000000 46.000000 -0.485378 0.840607 0.240392
-7.94999981 -19.55999947 0.51999998 253 233 12 0.000000 0.000000 0.000000 0.000000 -60.708740 0.000000 46.000000 -0.247556 0.963287 -0.103896
-7.96000004 -19.55999947 0.50999999 253 233 12 0.000000 0.000000 0.000000 0.000000 -60.708740 0.000000 46.000000 -0.398775 0.842901 0.361243
-7.96000004 -19.55999947 0.50999999 253 233 12 0.000000 0.000000 0.000000 0.000000 -60.708740 0.000000 46.000000 -0.398775 0.842901 0.361243
-7.94000006 -19.55999947 0.51999998 253 233 12 0.000000 0.000000 0.000000 0.000000 -60.708740 0.000000 46.000000 -0.169759 0.985063 -0.028871
-7.92999983 -19.54999924 0.50000000 253 233 12 0.000000 0.000000 0.000000 0.000000 -60.708740 0.000000 46.000000 -0.350896 0.876480 0.329629
-7.94999981 -19.59000015 0.47999999 253 233 12 0.000000 0.000000 0.000000 0.000000 -60.708740 0.000000 46.000000 -0.445421 0.802401 -0.397181
-7.94000006 -19.57999992 0.43000001 253 233 12 0.000000 0.000000 0.000000 0.000000 -60.708740 0.000000 46.000000 -0.196773 0.968431 0.153045
-7.94999981 -19.57999992 0.41999999 253 233 12 0.000000 0.000000 0.000000 0.000000 -60.708740 0.000000 46.000000 -0.488605 0.837828 0.243537
-7.94000006 -19.59000015 0.40000001 253 233 12 0.000000 0.000000 0.000000 0.000000 -60.708740 0.000000 46.000000 -0.324744 0.923180 0.205624
-7.90999985 -19.54999924 0.36000001 253 233 12 0.000000 0.000000 0.000000 0.000000 -60.708740 0.000000 46.000000 -0.561875 0.782218 -0.269133
-7.92000008 -19.56999969 0.38000000 253 233 12 0.000000 0.000000 0.000000 0.000000 -60.708740 0.000000 46.000000 -0.612284 0.745183 -0.264216
-7.90000010 -19.56999969 0.34000000 253 233 12 0.000000 0.000000 0.000000 0.000000 -60.708740 0.000000 46.000000 0.707090 -0.707090 -0.006946
-7.90999985 -19.57999992 0.34999999 253 233 12 0.000000 0.000000 0.000000 0.000000 -60.708740 0.000000 46.000000 -0.609443 0.756712 -0.236570
-7.90999985 -19.57999992 0.33000001 253 233 12 0.000000 0.000000 0.000000 0.000000 -60.708740 0.000000 46.000000 -0.562652 0.785206 -0.258601
-7.92000008 -19.55999947 0.31999999 253 233 12 0.000000 0.000000 0.000000 0.000000 -60.708740 0.000000 46.000000 -0.073002 0.993956 -0.081987
-7.90000010 -19.56999969 0.34000000 253 233 12 0.000000 0.000000 0.000000 0.000000 -60.708740 0.000000 46.000000 0.707090 -0.707090 -0.006946
-7.94000006 -19.54999924 0.37000000 253 233 12 0.000000 0.000000 0.000000 0.000000 -60.708740 0.000000 46.000000 -0.600967 0.736305 0.310956
-7.94999981 -19.59000015 0.37000000 253 233 12 0.000000 0.000000 0.000000 0.000000 -60.708740 0.000000 46.000000 -0.313248 0.939743 0.136961
-7.94999981 -19.59000015 0.37000000 253 233 12 0.000000 0.000000 0.000000 0.000000 -60.708740 0.000000 46.000000 -0.313248 0.939743 0.136961
-7.92999983 -19.59000015 0.34000000 253 233 12 0.000000 0.000000 0.000000 0.000000 -60.708740 0.000000 46.000000 -0.657709 0.745992 0.104468
-7.92999983 -19.59000015 0.34000000 253 233 12 0.000000 0.000000 0.000000 0.000000 -60.708740 0.000000 46.000000 -0.657709 0.745992 0.104468
-7.94999981 -19.61000061 0.40000001 253 233 12 0.000000 0.000000 0.000000 0.000000 -60.708740 0.000000 46.000000 0.801413 -0.586722 -0.116168
-7.90999985 -19.60000038 0.31999999 253 233 12 0.000000 0.000000 0.000000 0.000000 -60.708740 0.000000 46.000000 -0.204156 0.977291 -0.056777
-7.94000006 -19.61000061 0.34999999 253 233 12 0.000000 0.000000 0.000000 0.000000 -60.708740 0.000000 46.000000 -0.536550 0.731359 0.420985
-7.80999994 -19.80999947 0.47999999 253 233 12 0.000000 0.000000 0.000000 0.000000 -60.708740 0.000000 46.000000 0.801752 -0.559540 0.210019
-7.82000017 -19.82999992 0.34999999 253 233 12 0.000000 0.000000 0.000000 0.000000 -60.708740 0.000000 46.000000 0.857943 -0.363273 0.363273
-7.98000002 -19.57999992 0.58999997 253 233 12 0.000000 0.000000 0.000000 0.000000 -60.708740 0.000000 46.000000 -0.318159 0.917046 -0.240419
-7.98000002 -19.59000015 0.52999997 253 233 12 0.000000 0.000000 0.000000 0.000000 -60.708740 0.000000 46.000000 -0.266837 0.955617 -0.124874
-7.98999977 -19.57999992 0.46000001 253 233 12 0.000000 0.000000 0.000000 0.000000 -60.708740 0.000000 46.000000 -0.600891 0.770808 -0.211625
-7.98000002 -19.57999992 0.47000000 253 233 12 0.000000 0.000000 0.000000 0.000000 -60.708740 0.000000 46.000000 -0.208177 0.978085 0.003489
-7.88000011 -19.56999969 0.25000000 253 233 12 0.000000 0.000000 0.000000 0.000000 -60.708740 0.000000 46.000000 0.083633 0.995999 -0.031498
-7.86999989 -19.56999969 0.25999999 253 233 12 0.000000 0.000000 0.000000 0.000000 -60.708740 0.000000 46.000000 -0.436898 0.860095 -0.263357
-7.88000011 -19.57999992 0.28999999 253 233 12 0.000000 0.000000 0.000000 0.000000 -60.708740 0.000000 46.000000 -0.616984 0.783814 -0.070471
-7.84999990 -19.55999947 0.28999999 253 233 12 0.000000 0.000000 0.000000 0.000000 -60.708740 0.000000 46.000000 -0.223915 0.930869 0.288696
-7.82999992 -19.53000069 0.23000000 253 233 12 0.000000 0.000000 0.000000 0.000000 -60.708740 0.000000 46.000000 -0.388785 0.907165 0.160926
-7.84000015 -19.59000015 0.22000000 253 233 12 0.000000 0.000000 0.000000 0.000000 -60.708740 0.000000 46.000000 -0.359355 0.902055 -0.239081
-7.82000017 -19.55999947 0.15000001 253 233 12 0.000000 0.000000 0.000000 0.000000 -60.708740 0.000000 46.000000 -0.064502 0.935939 0.346205
-7.86000013 -19.54999924 0.19000000 253 233 12 0.000000 0.000000 0.000000 0.000000 -60.708740 0.000000 46.000000 -0.256209 0.957829 -0.130076
-7.86999989 -19.54999924 0.20000000 253 233 12 0.000000 0.000000 0.000000 0.000000 -60.708740 0.000000 46.000000 -0.262878 0.942783 -0.205073
-7.86999989 -19.54999924 0.20999999 253 233 12 0.000000 0.000000 0.000000 0.000000 -60.708740 0.000000 46.000000 -0.303387 0.951125 0.057605
-7.88000011 -19.54999924 0.20999999 253 233 12 0.000000 0.000000 0.000000 0.000000 -60.708740 0.000000 46.000000 0.003723 0.946925 -0.321433
-7.88000011 -19.59000015 0.22000000 253 233 12 0.000000 0.000000 0.000000 0.000000 -60.708740 0.000000 46.000000 -0.086730 0.935353 -0.342918
-7.86999989 -19.59000015 0.19000000 253 233 12 0.000000 0.000000 0.000000 0.000000 -60.708740 0.000000 46.000000 -0.274921 0.881852 0.383087
-7.88000011 -19.59000015 0.22000000 253 233 12 0.000000 0.000000 0.000000 0.000000 -60.708740 0.000000 46.000000 -0.086730 0.935353 -0.342918
-7.88000011 -19.55999947 0.23000000 253 233 12 0.000000 0.000000 0.000000 0.000000 -60.708740 0.000000 46.000000 -0.020862 0.960897 -0.276120
-7.88000011 -19.56999969 0.16000000 253 233 12 0.000000 0.000000 0.000000 0.000000 -60.708740 0.000000 46.000000 -0.154339 0.910459 -0.383724
-7.88000011 -19.56999969 0.16000000 253 233 12 0.000000 0.000000 0.000000 0.000000 -60.708740 0.000000 46.000000 -0.154339 0.910459 -0.383724
-7.86999989 -19.55999947 0.17000000 253 233 12 0.000000 0.000000 0.000000 0.000000 -60.708740 0.000000 46.000000 -0.310014 0.906535 -0.286506
-7.86999989 -19.56999969 0.15000001 253 233 12 0.000000 0.000000 0.000000 0.000000 -60.708740 0.000000 46.000000 -0.049850 0.998067 0.037123
-7.86000013 -19.56999969 0.17000000 253 233 12 0.000000 0.000000 0.000000 0.000000 -60.708740 0.000000 46.000000 0.201980 0.975203 -0.090457
-7.88000011 -19.60000038 0.19000000 253 233 12 0.000000 0.000000 0.000000 0.000000 -60.708740 0.000000 46.000000 -0.227593 0.928749 0.292620
-7.86000013 -19.60000038 0.22000000 253 233 12 0.000000 0.000000 0.000000 0.000000 -60.708740 0.000000 46.000000 -0.039899 0.973288 -0.226093
-7.88000011 -19.60000038 0.20000000 253 233 12 0.000000 0.000000 0.000000 0.000000 -60.708740 0.000000 46.000000 -0.431802 0.874063 0.222624
-7.86000013 -19.60000038 0.22000000 253 233 12 0.000000 0.000000 0.000000 0.000000 -60.708740 0.000000 46.000000 -0.039899 0.973288 -0.226093
-7.88999987 -19.54999924 0.23999999 253 233 12 0.000000 0.000000 0.000000 0.000000 -60.708740 0.000000 46.000000 -0.149982 0.988051 0.035492
-7.90000010 -19.59000015 0.28000000 253 233 12 0.000000 0.000000 0.000000 0.000000 -60.708740 0.000000 46.000000 -0.295164 0.940406 -0.168861
-7.92000008 -19.56999969 0.28999999 253 233 12 0.000000 0.000000 0.000000 0.000000 -60.708740 0.000000 46.000000 -0.257231 0.956372 -0.138509
-7.90000010 -19.59000015 0.28999999 253 233 12 0.000000 0.000000 0.000000 0.000000 -60.708740 0.000000 46.000000 -0.513619 0.813361 -0.273202
-7.90999985 -19.59000015 0.28000000 253 233 12 0.000000 0.000000 0.000000 0.000000 -60.708740 0.000000 46.000000 -0.629885 0.776628 0.009691
-7.88999987 -19.59000015 0.28999999 253 233 12 0.000000 0.000000 0.000000 0.000000 -60.708740 0.000000 46.000000 -0.295141 0.955161 0.023661
-7.90000010 -19.56999969 0.28999999 253 233 12 0.000000 0.000000 0.000000 0.000000 -60.708740 0.000000 46.000000 -0.556740 0.793784 0.244841
-7.90999985 -19.55999947 0.27000001 253 233 12 0.000000 0.000000 0.000000 0.000000 -60.708740 0.000000 46.000000 -0.239579 0.898053 -0.368922
-7.90000010 -19.59000015 0.23999999 253 233 12 0.000000 0.000000 0.000000 0.000000 -60.708740 0.000000 46.000000 -0.365325 0.903852 -0.222688
-7.90000010 -19.59000015 0.27000001 253 233 12 0.000000 0.000000 0.000000 0.000000 -60.708740 0.000000 46.000000 -0.579051 0.798639 -0.163939
-7.94000006 -19.56999969 0.28000000 253 233 12 0.000000 0.000000 0.000000 0.000000 -60.708740 0.000000 46.000000 -0.352042 0.926355 0.133914
-7.94000006 -19.57999992 0.25000000 253 233 12 0.000000 0.000000 0.000000 0.000000 -60.708740 0.000000 46.000000 -0.323514 0.922088 -0.212351
-7.92999983 -19.57999992 0.25000000 253 233 12 0.000000 0.000000 0.000000 0.000000 -60.708740 0.000000 46.000000 -0.364831 0.905536 -0.216573
-7.88999987 -19.55999947 0.20999999 253 233 12 0.000000 0.000000 0.000000 0.000000 -60.708740 0.000000 46.000000 -0.225568 0.906640 -0.356544
-7.90000010 -19.55999947 0.16000000 253 233 12 0.000000 0.000000 0.000000 0.000000 -60.708740 0.000000 46.000000 -0.096974 0.978337 -0.182901
-7.90999985 -19.60000038 0.28999999 253 233 12 0.000000 0.000000 0.000000 0.000000 -60.708740 0.000000 46.000000 -0.458576 0.844583 -0.276381
-7.90999985 -19.60000038 0.31000000 253 233 12 0.000000 0.000000 0.000000 0.000000 -60.708740 0.000000 46.000000 -0.170865 0.951195 0.256971
-7.90999985 -19.60000038 0.25000000 253 233 12 0.000000 0.000000 0.000000 0.000000 -60.708740 0.000000 46.000000 -0.396280 0.841115 0.368086
-7.94999981 -19.61000061 0.22000000 253 233 12 0.000000 0.000000 0.000000 0.000000 -60.708740 0.000000 46.000000 -0.257063 0.966118 0.023148
-7.88999987 -19.61000061 0.19000000 253 233 12 0.000000 0.000000 0.000000 0.000000 -60.708740 0.000000 46.000000 -0.030611 0.989756 0.139450
-7.88999987 -19.60000038 0.20999999 253 233 12 0.000000 0.000000 0.000000 0.000000 -60.708740 0.000000 46.000000 -0.072135 0.963064 -0.259432
-7.84000015 -19.55999947 0.13000000 253 233 12 0.000000 0.000000 0.000000 0.000000 -60.708740 0.000000 46.000000 -0.437898 0.880189 -0.183068
-7.84000015 -19.56999969 0.11000000 253 233 12 0.000000 0.000000 0.000000 0.000000 -60.708740 0.000000 46.000000 0.264803 0.960711 -0.083151
-7.84999990 -19.55999947 0.12000000 253 233 12 0.000000 0.000000 0.000000 0.000000 -60.708740 0.000000 46.000000 0.079970 0.995785 -0.044914
-7.86000013 -19.55999947 0.13000000 253 233 12 0.000000 0.000000 0.000000 0.000000 -60.708740 0.000000 46.000000 0.156464 0.961134 0.227464
-7.88000011 -19.57999992 0.11000000 253 233 12 0.000000 0.000000 0.000000 0.000000 -60.708740 0.000000 46.000000 -0.013279 0.966927 -0.254709
-7.86000013 -19.55999947 0.07000000 253 233 12 0.000000 0.000000 0.000000 0.000000 -60.708740 0.000000 46.000000 -0.247586 0.957245 -0.149611
-7.82999992 -19.56999969 0.04000000 253 233 12 0.000000 0.000000 0.000000 0.000000 -60.708740 0.000000 46.000000 -0.302098 0.946219 0.115782
-7.84000015 -19.59000015 0.01000000 253 233 12 0.000000 0.000000 0.000000 0.000000 -60.708740 0.000000 46.000000 -0.062392 0.985318 0.158922
-7.82000017 -19.57999992 0.00000000 253 233 12 0.000000 0.000000 0.000000 0.000000 -60.708740 0.000000 46.000000 -0.026663 0.984199 0.175046
-7.84999990 -19.59000015 0.00000000 253 233 12 0.000000 0.000000 0.000000 0.000000 -60.708740 0.000000 46.000000 0.020149 0.975456 0.219270
-7.86999989 -19.59000015 -0.01000000 253 233 12 0.000000 0.000000 0.000000 0.000000 -60.708740 0.000000 46.000000 0.161792 0.985885 -0.043067
-7.80999994 -19.62000084 0.09000000 253 233 12 0.000000 0.000000 0.000000 0.000000 -60.708740 0.000000 46.000000 -0.319250 0.935828 -0.149349
-7.80999994 -19.60000038 0.07000000 253 233 12 0.000000 0.000000 0.000000 0.000000 -60.708740 0.000000 46.000000 -0.190887 0.908505 0.371726
-7.80999994 -19.62000084 0.08000000 253 233 12 0.000000 0.000000 0.000000 0.000000 -60.708740 0.000000 46.000000 -0.411285 0.904828 -0.110141
-7.80999994 -19.67000008 0.09000000 253 233 12 0.000000 0.000000 0.000000 0.000000 -60.708740 0.000000 46.000000 0.116273 0.944887 -0.306053
-7.82999992 -19.65999985 0.08000000 253 233 12 0.000000 0.000000 0.000000 0.000000 -60.708740 0.000000 46.000000 0.272495 0.960641 0.053997
-7.82000017 -19.65999985 0.10000000 253 233 12 0.000000 0.000000 0.000000 0.000000 -60.708740 0.000000 46.000000 0.080741 0.982145 -0.169917
-7.86999989 -19.61000061 0.14000000 253 233 12 0.000000 0.000000 0.000000 0.000000 -60.708740 0.000000 46.000000 -0.088070 0.922704 -0.375314
-7.86999989 -19.61000061 0.14000000 253 233 12 0.000000 0.000000 0.000000 0.000000 -60.708740 0.000000 46.000000 -0.088070 0.922704 -0.375314
-7.86000013 -19.60000038 0.10000000 253 233 12 0.000000 0.000000 0.000000 0.000000 -60.708740 0.000000 46.000000 -0.011024 0.959073 0.282945
-7.84999990 -19.62000084 0.07000000 253 233 12 0.000000 0.000000 0.000000 0.000000 -60.708740 0.000000 46.000000 0.094354 0.985341 -0.142128
-7.84999990 -19.62000084 0.07000000 253 233 12 0.000000 0.000000 0.000000 0.000000 -60.708740 0.000000 46.000000 0.094354 0.985341 -0.142128
-7.88000011 -19.61000061 0.09000000 253 233 12 0.000000 0.000000 0.000000 0.000000 -60.708740 0.000000 46.000000 -0.124478 0.979799 0.156521
-7.84999990 -19.60000038 0.07000000 253 233 12 0.000000 0.000000 0.000000 0.000000 -60.708740 0.000000 46.000000 -0.347544 0.926324 0.145387
-7.84000015 -19.60000038 -0.02000000 253 233 12 0.000000 0.000000 0.000000 0.000000 -60.708740 0.000000 46.000000 0.114018 0.992292 0.048542
-7.80999994 -19.62999916 0.02000000 253 233 12 0.000000 0.000000 0.000000 0.000000 -60.708740 0.000000 46.000000 -0.072542 0.994388 0.077006
-7.82999992 -19.64999962 0.04000000 253 233 12 0.000000 0.000000 0.000000 0.000000 -60.708740 0.000000 46.000000 -0.067478 0.997168 -0.033203
-7.80999994 -19.64999962 0.06000000 253 233 12 0.000000 0.000000 0.000000 0.000000 -60.708740 0.000000 46.000000 -0.146045 0.937689 0.315293
-7.80999994 -19.67000008 0.05000000 253 233 12 0.000000 0.000000 0.000000 0.000000 -60.708740 0.000000 46.000000 -0.166723 0.923282 0.346055
-7.82999992 -19.64999962 0.04000000 253 233 12 0.000000 0.000000 0.000000 0.000000 -60.708740 0.000000 46.000000 -0.067478 0.997168 -0.033203
-7.80999994 -19.65999985 -0.02000000 253 233 12 0.000000 0.000000 0.000000 0.000000 -60.708740 0.000000 46.000000 0.204093 0.976470 -0.069661
-7.82999992 -19.65999985 0.00000000 253 233 12 0.000000 0.000000 0.000000 0.000000 -60.708740 0.000000 46.000000 0.169374 0.984704 0.040883
-7.84000015 -19.65999985 0.02000000 253 233 12 0.000000 0.000000 0.000000 0.000000 -60.708740 0.000000 46.000000 -0.554263 0.826330 0.099854
-7.84000015 -19.65999985 0.01000000 253 233 12 0.000000 0.000000 0.000000 0.000000 -60.708740 0.000000 46.000000 -0.211424 0.958720 0.190148
-7.82999992 -19.65999985 0.00000000 253 233 12 0.000000 0.000000 0.000000 0.000000 -60.708740 0.000000 46.000000 0.169374 0.984704 0.040883
-7.82000017 -19.64999962 0.02000000 253 233 12 0.000000 0.000000 0.000000 0.000000 -60.708740 0.000000 46.000000 0.246680 0.944000 -0.219118
-7.86000013 -19.60000038 0.06000000 253 233 12 0.000000 0.000000 0.000000 0.000000 -60.708740 0.000000 46.000000 0.120759 0.988351 0.092621
-7.90000010 -19.55999947 0.14000000 253 233 12 0.000000 0.000000 0.000000 0.000000 -60.708740 0.000000 46.000000 -0.079477 0.985747 0.148277
-7.82000017 -19.82999992 0.23999999 253 233 12 0.000000 0.000000 0.000000 0.000000 -60.708740 0.000000 46.000000 0.720605 -0.692291 0.038225
-7.80999994 -19.79999924 0.25999999 253 233 12 0.000000 0.000000 0.000000 0.000000 -60.708740 0.000000 46.000000 -0.618159 0.785606 0.026512
-7.82999992 -19.78000069 0.16000000 253 233 12 0.000000 0.000000 0.000000 0.000000 -60.708740 0.000000 46.000000 -0.267511 0.907783 0.323060
-7.82000017 -19.80999947 0.22000000 253 233 12 0.000000 0.000000 0.000000 0.000000 -60.708740 0.000000 46.000000 -0.508696 0.860556 -0.025912
-7.80999994 -19.81999969 0.15000001 253 233 12 0.000000 0.000000 0.000000 0.000000 -60.708740 0.000000 46.000000 -0.416102 0.894116 0.165577
-7.80999994 -19.68000031 0.07000000 253 233 12 0.000000 0.000000 0.000000 0.000000 -60.708740 0.000000 46.000000 0.036922 0.977845 -0.206050
-7.80999994 -19.68000031 0.07000000 253 233 12 0.000000 0.000000 0.000000 0.000000 -60.708740 0.000000 46.000000 0.036922 0.977845 -0.206050
-7.88000011 -19.69000053 0.05000000 253 233 12 0.000000 0.000000 0.000000 0.000000 -60.708740 0.000000 46.000000 -0.239742 0.960277 0.142797
-7.82999992 -19.82999992 0.11000000 253 233 12 0.000000 0.000000 0.000000 0.000000 -60.708740 0.000000 46.000000 0.908012 -0.377262 0.182176
-7.82000017 -19.82999992 0.14000000 253 233 12 0.000000 0.000000 0.000000 0.000000 -60.708740 0.000000 46.000000 -0.436166 0.885374 0.160845
-7.82000017 -19.82999992 0.13000000 253 233 12 0.000000 0.000000 0.000000 0.000000 -60.708740 0.000000 46.000000 -0.568932 0.755890 0.323953
-7.82000017 -19.82999992 0.14000000 253 233 12 0.000000 0.000000 0.000000 0.000000 -60.708740 0.000000 46.000000 -0.436166 0.885374 0.160845
-7.84999990 -19.84000015 0.12000000 253 233 12 0.000000 0.000000 0.000000 0.000000 -60.708740 0.000000 46.000000 0.869823 -0.456325 -0.187551
-7.86000013 -19.84000015 0.14000000 253 233 12 0.000000 0.000000 0.000000 0.000000 -60.708740 0.000000 46.000000 0.988970 0.147389 -0.014626
-7.84999990 -19.82999992 0.11000000 253 233 12 0.000000 0.000000 0.000000 0.000000 -60.708740 0.000000 46.000000 0.826897 -0.549806 0.118128
-7.84999990 -19.84000015 0.12000000 253 233 12 0.000000 0.000000 0.000000 0.000000 -60.708740 0.000000 46.000000 0.869823 -0.456325 -0.187551
-7.86000013 -19.84000015 0.14000000 253 233 12 0.000000 0.000000 0.000000 0.000000 -60.708740 0.000000 46.000000 0.988970 0.147389 -0.014626
-7.84000015 -19.84000015 0.03000000 253 233 12 0.000000 0.000000 0.000000 0.000000 -60.708740 0.000000 46.000000 0.981350 0.024563 -0.190656
-7.80999994 -19.80999947 0.05000000 253 233 12 0.000000 0.000000 0.000000 0.000000 -60.708740 0.000000 46.000000 -0.105485 0.992462 0.062383
-7.84000015 -19.82999992 -0.02000000 253 233 12 0.000000 0.000000 0.000000 0.000000 -60.708740 0.000000 46.000000 0.790933 -0.523575 -0.316692
-7.82000017 -19.81999969 -0.01000000 253 233 12 0.000000 0.000000 0.000000 0.000000 -60.708740 0.000000 46.000000 -0.448637 0.875209 0.180926
-7.82999992 -19.81999969 -0.02000000 253 233 12 0.000000 0.000000 0.000000 0.000000 -60.708740 0.000000 46.000000 -0.650506 0.704848 0.282898
-7.84000015 -19.82999992 -0.02000000 253 233 12 0.000000 0.000000 0.000000 0.000000 -60.708740 0.000000 46.000000 0.790933 -0.523575 -0.316692
-7.80999994 -19.87999916 0.63000000 253 233 12 0.000000 0.000000 0.000000 0.000000 -60.708740 0.000000 46.000000 0.682199 0.666071 -0.301587
-7.80999994 -19.87999916 0.51999998 253 233 12 0.000000 0.000000 0.000000 0.000000 -60.708740 0.000000 46.000000 0.676080 0.721454 -0.149736
-7.80999994 -19.89999962 0.50999999 253 233 12 0.000000 0.000000 0.000000 0.000000 -60.708740 0.000000 46.000000 0.641421 0.763045 -0.079635
-7.80999994 -19.87000084 0.61000001 253 233 12 0.000000 0.000000 0.000000 0.000000 -60.708740 0.000000 46.000000 0.699723 0.713802 0.029566
-7.82000017 -19.88999939 0.49000001 253 233 12 0.000000 0.000000 0.000000 0.000000 -60.708740 0.000000 46.000000 0.827081 0.502432 -0.251989
-7.80999994 -19.89999962 0.50000000 253 233 12 0.000000 0.000000 0.000000 0.000000 -60.708740 0.000000 46.000000 0.451315 0.884121 0.121015
-7.82999992 -19.87000084 0.44999999 253 233 12 0.000000 0.000000 0.000000 0.000000 -60.708740 0.000000 46.000000 0.713858 0.686807 0.136760
-7.82999992 -19.87999916 0.47000000 253 233 12 0.000000 0.000000 0.000000 0.000000 -60.708740 0.000000 46.000000 0.760549 0.645096 0.073601
-7.82000017 -19.87999916 0.40000001 253 233 12 0.000000 0.000000 0.000000 0.000000 -60.708740 0.000000 46.000000 0.643640 0.734031 -0.216625
-7.82999992 -19.87000084 0.40000001 253 233 12 0.000000 0.000000 0.000000 0.000000 -60.708740 0.000000 46.000000 0.954189 0.287935 -0.081345
-7.82999992 -19.87000084 0.40000001 253 233 12 0.000000 0.000000 0.000000 0.000000 -60.708740 0.000000 46.000000 0.954189 0.287935 -0.081345
-7.82000017 -19.87999916 0.41999999 253 233 12 0.000000 0.000000 0.000000 0.000000 -60.708740 0.000000 46.000000 0.442052 0.891120 -0.102444
-7.82000017 -19.87999916 0.41999999 253 233 12 0.000000 0.000000 0.000000 0.000000 -60.708740 0.000000 46.000000 0.442052 0.891120 -0.102444
-7.80999994 -19.88999939 0.41999999 253 233 12 0.000000 0.000000 0.000000 0.000000 -60.708740 0.000000 46.000000 0.722525 0.663984 -0.192571
-7.82000017 -19.89999962 0.44000000 253 233 12 0.000000 0.000000 0.000000 0.000000 -60.708740 0.000000 46.000000 0.365976 0.884065 0.290672
-7.82000017 -19.88999939 0.40000001 253 233 12 0.000000 0.000000 0.000000 0.000000 -60.708740 0.000000 46.000000 0.628500 0.756952 0.178916
-7.80999994 -19.89999962 0.41000000 253 233 12 0.000000 0.000000 0.000000 0.000000 -60.708740 0.000000 46.000000 0.544523 0.835878 -0.069303
-7.82000017 -19.87999916 0.38999999 253 233 12 0.000000 0.000000 0.000000 0.000000 -60.708740 0.000000 46.000000 0.653291 0.722224 0.227164
-7.82999992 -19.87999916 0.37000000 253 233 12 0.000000 0.000000 0.000000 0.000000 -60.708740 0.000000 46.000000 0.639269 0.758480 -0.126662
-7.82999992 -19.87999916 0.38999999 253 233 12 0.000000 0.000000 0.000000 0.000000 -60.708740 0.000000 46.000000 0.626435 0.766972 -0.139042
-7.82999992 -19.87999916 0.38999999 253 233 12 0.000000 0.000000 0.000000 0.000000 -60.708740 0.000000 46.000000 0.626435 0.766972 -0.139042
-7.82999992 -19.87999916 0.31999999 253 233 12 0.000000 0.000000 0.000000 0.000000 -60.708740 0.000000 46.000000 0.722351 0.670428 0.169516
-7.82000017 -19.87999916 0.34000000 253 233 12 0.000000 0.000000 0.000000 0.000000 -60.708740 0.000000 46.000000 0.333314 0.938856 -0.086316
-7.80999994 -19.89999962 0.37000000 253 233 12 0.000000 0.000000 0.000000 0.000000 -60.708740 0.000000 46.000000 0.484279 0.833951 0.264574
-7.80999994 -19.88999939 0.36000001 253 233 12 0.000000 0.000000 0.000000 0.000000 -60.708740 0.000000 46.000000 0.134574 0.960310 0.244324
