//X Y Z R G B PointSourceId ScanDirectionFlag NumberOfReturns ReturnNumber GpsTime Intensity Classification Nx Ny Nz
2.38000011 -2.89000010 -0.69999999 248 140 61 0.000000 0.000000 0.000000 0.000000 -60.708740 0.000000 229.000000 0.940679 -0.026804 -0.338236
2.35999990 -2.88000011 -0.69999999 248 140 61 0.000000 0.000000 0.000000 0.000000 -60.708740 0.000000 229.000000 0.999753 -0.007033 0.021100
2.35999990 -2.85999990 -0.72000003 248 140 61 0.000000 0.000000 0.000000 0.000000 -60.708740 0.000000 229.000000 0.998322 0.053538 -0.022045
2.35999990 -2.89000010 -0.75999999 248 140 61 0.000000 0.000000 0.000000 0.000000 -60.708740 0.000000 229.000000 0.936399 -0.100472 -0.336246
2.36999989 -2.82999992 -0.83999997 248 140 61 0.000000 0.000000 0.000000 0.000000 -60.708740 0.000000 229.000000 0.582688 0.445781 -0.679524
2.29999995 -2.75999999 -0.76999998 248 140 61 0.000000 0.000000 0.000000 0.000000 -60.708740 0.000000 229.000000 -0.625446 -0.413093 0.661945
2.26999998 -2.75999999 -0.76999998 248 140 61 0.000000 0.000000 0.000000 0.000000 -60.708740 0.000000 229.000000 0.464392 0.591806 -0.658867
2.29999995 -2.75999999 -0.76999998 248 140 61 0.000000 0.000000 0.000000 0.000000 -60.708740 0.000000 229.000000 -0.625446 -0.413093 0.661945
2.26999998 -2.79999995 -0.70999998 248 140 61 0.000000 0.000000 0.000000 0.000000 -60.708740 0.000000 229.000000 0.776405 0.307692 -0.550020
2.30999994 -2.77999997 -0.73000002 248 140 61 0.000000 0.000000 0.000000 0.000000 -60.708740 0.000000 229.000000 0.832700 0.264178 -0.486643
2.28999996 -2.79999995 -0.73000002 248 140 61 0.000000 0.000000 0.000000 0.000000 -60.708740 0.000000 229.000000 0.904662 0.344563 -0.250725
2.26999998 -2.77999997 -0.75999999 248 140 61 0.000000 0.000000 0.000000 0.000000 -60.708740 0.000000 229.000000 -0.229199 -0.597165 0.768675
2.27999997 -2.79999995 -0.75999999 248 140 61 0.000000 0.000000 0.000000 0.000000 -60.708740 0.000000 229.000000 0.691357 0.454796 -0.561415
2.34999990 -2.79999995 -0.80000001 248 140 61 0.000000 0.000000 0.000000 0.000000 -60.708740 0.000000 229.000000 0.726771 0.285917 -0.624544
2.26999998 -2.75999999 -0.79000002 248 140 61 0.000000 0.000000 0.000000 0.000000 -60.708740 0.000000 229.000000 -0.184331 -0.514029 0.837733
2.27999997 -2.73000002 -0.81000000 248 140 61 0.000000 0.000000 0.000000 0.000000 -60.708740 0.000000 229.000000 0.195909 0.925985 -0.322756
2.29999995 -2.78999996 -0.77999997 248 140 61 0.000000 0.000000 0.000000 0.000000 -60.708740 0.000000 229.000000 0.657351 0.344171 -0.670400
2.30999994 -2.77999997 -0.81000000 248 140 61 0.000000 0.000000 0.000000 0.000000 -60.708740 0.000000 229.000000 0.502548 0.512565 -0.696220
2.32999992 -2.80999994 -0.69999999 248 140 61 0.000000 0.000000 0.000000 0.000000 -60.708740 0.000000 229.000000 0.803493 0.254309 -0.538262
2.32999992 -2.81999993 -0.70999998 248 140 61 0.000000 0.000000 0.000000 0.000000 -60.708740 0.000000 229.000000 0.852299 0.271814 -0.446881
2.32999992 -2.80999994 -0.69999999 248 140 61 0.000000 0.000000 0.000000 0.000000 -60.708740 0.000000 229.000000 0.803493 0.254309 -0.538262
2.32999992 -2.81999993 -0.75999999 248 140 61 0.000000 0.000000 0.000000 0.000000 -60.708740 0.000000 229.000000 0.772387 0.038125 -0.634007
2.31999993 -2.84999990 -0.69999999 248 140 61 0.000000 0.000000 0.000000 0.000000 -60.708740 0.000000 229.000000 0.909427 -0.248819 -0.333214
2.30999994 -2.81999993 -0.73000002 248 140 61 0.000000 0.000000 0.000000 0.000000 -60.708740 0.000000 229.000000 0.615361 0.329600 -0.716027
2.30999994 -2.81999993 -0.73000002 248 140 61 0.000000 0.000000 0.000000 0.000000 -60.708740 0.000000 229.000000 0.615361 0.329600 -0.716027
2.36999989 -2.78999996 -0.97000003 248 140 61 0.000000 0.000000 0.000000 0.000000 -60.708740 0.000000 229.000000 0.764441 0.281302 -0.580085
2.35999990 -2.79999995 -1.01999998 248 140 61 0.000000 0.000000 0.000000 0.000000 -60.708740 0.000000 229.000000 0.464696 0.806430 -0.365688
2.38000011 -2.81999993 -0.88000000 248 140 61 0.000000 0.000000 0.000000 0.000000 -60.708740 0.000000 229.000000 0.808907 0.049410 -0.585857
2.35999990 -2.80999994 -0.91000003 248 140 61 0.000000 0.000000 0.000000 0.000000 -60.708740 0.000000 229.000000 0.747815 0.209017 -0.630146
2.40000010 -2.86999989 -0.99000001 248 140 61 0.000000 0.000000 0.000000 0.000000 -60.708740 0.000000 229.000000 -0.592374 -0.289002 0.752044
2.38000011 -2.81999993 -0.95999998 248 140 61 0.000000 0.000000 0.000000 0.000000 -60.708740 0.000000 229.000000 0.573826 0.563670 -0.594138
2.36999989 -2.81999993 -0.97000003 248 140 61 0.000000 0.000000 0.000000 0.000000 -60.708740 0.000000 229.000000 0.631715 0.520533 -0.574440
2.38000011 -2.82999992 -0.97000003 248 140 61 0.000000 0.000000 0.000000 0.000000 -60.708740 0.000000 229.000000 0.632938 0.521541 -0.572176
2.39000010 -2.88000011 -0.98000002 248 140 61 0.000000 0.000000 0.000000 0.000000 -60.708740 0.000000 229.000000 0.710044 0.237731 -0.662813
2.38000011 -2.89000010 -1.00000000 248 140 61 0.000000 0.000000 0.000000 0.000000 -60.708740 0.000000 229.000000 0.515651 0.705892 -0.485613
2.39000010 -2.85999990 -0.99000001 248 140 61 0.000000 0.000000 0.000000 0.000000 -60.708740 0.000000 229.000000 0.655340 0.428555 -0.621989
2.32999992 -2.77999997 -0.93000001 248 140 61 0.000000 0.000000 0.000000 0.000000 -60.708740 0.000000 229.000000 0.277175 0.774507 -0.568606
2.27999997 -2.75000000 -0.86000001 248 140 61 0.000000 0.000000 0.000000 0.000000 -60.708740 0.000000 229.000000 0.273018 0.691327 -0.668975
2.28999996 -2.74000001 -0.88000000 248 140 61 0.000000 0.000000 0.000000 0.000000 -60.708740 0.000000 229.000000 0.736502 0.478312 -0.478312
2.29999995 -2.75000000 -0.88000000 248 140 61 0.000000 0.000000 0.000000 0.000000 -60.708740 0.000000 229.000000 -0.526910 -0.383355 0.758554
2.29999995 -2.75999999 -0.95999998 248 140 61 0.000000 0.000000 0.000000 0.000000 -60.708740 0.000000 229.000000 -0.229440 -0.537412 0.811508
2.30999994 -2.75000000 -1.00000000 248 140 61 0.000000 0.000000 0.000000 0.000000 -60.708740 0.000000 229.000000 0.463580 0.677797 -0.570688
2.30999994 -2.75000000 -1.00000000 248 140 61 0.000000 0.000000 0.000000 0.000000 -60.708740 0.000000 229.000000 0.463580 0.677797 -0.570688
2.34999990 -2.80999994 -0.88000000 248 140 61 0.000000 0.000000 0.000000 0.000000 -60.708740 0.000000 229.000000 0.757273 0.188934 -0.625173
2.34999990 -2.81999993 -0.88999999 248 140 61 0.000000 0.000000 0.000000 0.000000 -60.708740 0.000000 229.000000 0.526798 0.500040 -0.687346
2.33999991 -2.82999992 -0.88999999 248 140 61 0.000000 0.000000 0.000000 0.000000 -60.708740 0.000000 229.000000 -0.387941 -0.609151 0.691691
2.33999991 -2.82999992 -0.88999999 248 140 61 0.000000 0.000000 0.000000 0.000000 -60.708740 0.000000 229.000000 -0.387941 -0.609151 0.691691
2.28999996 -2.83999991 -0.94000000 248 140 61 0.000000 0.000000 0.000000 0.000000 -60.708740 0.000000 229.000000 -0.269793 -0.506837 0.818736
2.40000010 -2.96000004 -0.69999999 248 140 61 0.000000 0.000000 0.000000 0.000000 -60.708740 0.000000 229.000000 0.943103 -0.074766 0.323987
2.40000010 -2.96000004 -0.72000003 248 140 61 0.000000 0.000000 0.000000 0.000000 -60.708740 0.000000 229.000000 0.959911 -0.275518 0.051581
2.35999990 -2.90000010 -0.76999998 248 140 61 0.000000 0.000000 0.000000 0.000000 -60.708740 0.000000 229.000000 0.993424 -0.048051 0.103924
2.39000010 -2.91000009 -0.76999998 248 140 61 0.000000 0.000000 0.000000 0.000000 -60.708740 0.000000 229.000000 0.846657 -0.092804 -0.523985
2.35999990 -2.90000010 -0.75000000 248 140 61 0.000000 0.000000 0.000000 0.000000 -60.708740 0.000000 229.000000 0.982579 0.100560 0.156292
2.39000010 -2.94000006 -0.72000003 248 140 61 0.000000 0.000000 0.000000 0.000000 -60.708740 0.000000 229.000000 0.944304 -0.164878 -0.284790
2.38000011 -2.94000006 -0.74000001 248 140 61 0.000000 0.000000 0.000000 0.000000 -60.708740 0.000000 229.000000 0.948432 -0.236084 0.211521
2.40000010 -2.93000007 -0.81000000 248 140 61 0.000000 0.000000 0.000000 0.000000 -60.708740 0.000000 229.000000 0.982682 -0.075591 0.169180
2.41000009 -2.96000004 -0.79000002 248 140 61 0.000000 0.000000 0.000000 0.000000 -60.708740 0.000000 229.000000 0.979897 -0.156144 0.124178
2.42000008 -2.94000006 -0.81000000 248 140 61 0.000000 0.000000 0.000000 0.000000 -60.708740 0.000000 229.000000 0.921492 -0.308119 -0.236464
2.41000009 -2.99000001 -0.73000002 248 140 61 0.000000 0.000000 0.000000 0.000000 -60.708740 0.000000 229.000000 0.936270 -0.295445 -0.190028
2.40000010 -2.99000001 -0.69999999 248 140 61 0.000000 0.000000 0.000000 0.000000 -60.708740 0.000000 229.000000 0.910684 -0.205731 0.358231
2.41000009 -2.99000001 -0.72000003 248 140 61 0.000000 0.000000 0.000000 0.000000 -60.708740 0.000000 229.000000 0.966330 -0.256964 0.013270
2.40000010 -3.00000000 -0.69999999 248 140 61 0.000000 0.000000 0.000000 0.000000 -60.708740 0.000000 229.000000 0.919760 -0.119969 0.373696
2.42000008 -3.04999995 -0.70999998 248 140 61 0.000000 0.000000 0.000000 0.000000 -60.708740 0.000000 229.000000 0.834065 -0.455371 0.311405
2.43000007 -3.03999996 -0.75999999 248 140 61 0.000000 0.000000 0.000000 0.000000 -60.708740 0.000000 229.000000 0.964493 -0.127824 0.231117
2.41000009 -3.01999998 -0.75999999 248 140 61 0.000000 0.000000 0.000000 0.000000 -60.708740 0.000000 229.000000 0.880922 -0.391688 -0.265627
2.42000008 -2.99000001 -0.77999997 248 140 61 0.000000 0.000000 0.000000 0.000000 -60.708740 0.000000 229.000000 0.975189 -0.108354 0.193045
2.42000008 -3.00000000 -0.80000001 248 140 61 0.000000 0.000000 0.000000 0.000000 -60.708740 0.000000 229.000000 0.942797 -0.332826 0.018982
2.42000008 -2.93000007 -0.86000001 248 140 61 0.000000 0.000000 0.000000 0.000000 -60.708740 0.000000 229.000000 0.921965 -0.166992 -0.349420
2.35999990 -2.80999994 -1.02999997 248 140 61 0.000000 0.000000 0.000000 0.000000 -60.708740 0.000000 229.000000 0.484970 0.481659 -0.729937
2.40000010 -3.07999992 -0.09000000 248 140 61 0.000000 0.000000 0.000000 0.000000 -60.708740 0.000000 229.000000 -0.054221 0.959584 -0.276148
2.41000009 -3.10999990 -0.05000000 248 140 61 0.000000 0.000000 0.000000 0.000000 -60.708740 0.000000 229.000000 -0.265699 0.849316 -0.456143
2.36999989 -3.08999991 -0.09000000 248 140 61 0.000000 0.000000 0.000000 0.000000 -60.708740 0.000000 229.000000 -0.623062 0.659615 -0.420359
2.41000009 -3.06999993 -0.17000000 248 140 61 0.000000 0.000000 0.000000 0.000000 -60.708740 0.000000 229.000000 0.258680 -0.822511 0.506518
2.40000010 -3.14000010 -0.17000000 248 140 61 0.000000 0.000000 0.000000 0.000000 -60.708740 0.000000 229.000000 0.263949 -0.589539 0.763397
2.39000010 -3.10999990 -0.16000000 248 140 61 0.000000 0.000000 0.000000 0.000000 -60.708740 0.000000 229.000000 0.382387 -0.717181 0.582607
2.38000011 -3.16000009 -0.06000000 248 140 61 0.000000 0.000000 0.000000 0.000000 -60.708740 0.000000 229.000000 0.491609 -0.568790 0.659393
2.36999989 -3.16000009 -0.11000000 248 140 61 0.000000 0.000000 0.000000 0.000000 -60.708740 0.000000 229.000000 -0.328720 0.720594 -0.610481
2.36999989 -3.16000009 -0.16000000 248 140 61 0.000000 0.000000 0.000000 0.000000 -60.708740 0.000000 229.000000 -0.542074 0.813875 -0.209195
2.31999993 -3.15000010 -0.06000000 248 140 61 0.000000 0.000000 0.000000 0.000000 -60.708740 0.000000 229.000000 -0.386407 0.708687 -0.590298
2.33999991 -3.17000008 -0.09000000 248 140 61 0.000000 0.000000 0.000000 0.000000 -60.708740 0.000000 229.000000 -0.497252 0.691464 -0.524040
2.34999990 -3.22000003 -0.06000000 248 140 61 0.000000 0.000000 0.000000 0.000000 -60.708740 0.000000 229.000000 -0.522956 0.769053 -0.367526
2.34999990 -3.15000010 -0.15000001 248 140 61 0.000000 0.000000 0.000000 0.000000 -60.708740 0.000000 229.000000 0.529746 -0.690173 0.492981
2.31999993 -3.22000003 -0.14000000 248 140 61 0.000000 0.000000 0.000000 0.000000 -60.708740 0.000000 229.000000 -0.392433 0.805690 -0.443690
2.31999993 -3.21000004 -0.13000000 248 140 61 0.000000 0.000000 0.000000 0.000000 -60.708740 0.000000 229.000000 -0.315137 0.849163 -0.423805
2.41000009 -3.07999992 -0.20999999 248 140 61 0.000000 0.000000 0.000000 0.000000 -60.708740 0.000000 229.000000 -0.534694 0.805939 -0.254097
2.40000010 -3.11999989 -0.20000000 248 140 61 0.000000 0.000000 0.000000 0.000000 -60.708740 0.000000 229.000000 -0.422405 0.887197 -0.185624
2.40000010 -3.11999989 -0.20000000 248 140 61 0.000000 0.000000 0.000000 0.000000 -60.708740 0.000000 229.000000 -0.422405 0.887197 -0.185624
2.41000009 -3.10999990 -0.19000000 248 140 61 0.000000 0.000000 0.000000 0.000000 -60.708740 0.000000 229.000000 -0.464710 0.753717 -0.464710
2.41000009 -3.13000011 -0.25999999 248 140 61 0.000000 0.000000 0.000000 0.000000 -60.708740 0.000000 229.000000 -0.265699 0.849316 -0.456143
2.41000009 -3.13000011 -0.25999999 248 140 61 0.000000 0.000000 0.000000 0.000000 -60.708740 0.000000 229.000000 -0.265699 0.849316 -0.456143
2.38000011 -3.11999989 -0.20999999 248 140 61 0.000000 0.000000 0.000000 0.000000 -60.708740 0.000000 229.000000 -0.272608 0.789460 -0.549943
2.38000011 -3.13000011 -0.22000000 248 140 61 0.000000 0.000000 0.000000 0.000000 -60.708740 0.000000 229.000000 -0.337356 0.695899 -0.633968
2.36999989 -3.13000011 -0.22000000 248 140 61 0.000000 0.000000 0.000000 0.000000 -60.708740 0.000000 229.000000 -0.068126 0.871733 -0.485223
2.36999989 -3.10999990 -0.20999999 248 140 61 0.000000 0.000000 0.000000 0.000000 -60.708740 0.000000 229.000000 0.577244 -0.563702 0.590787
2.39000010 -3.10999990 -0.19000000 248 140 61 0.000000 0.000000 0.000000 0.000000 -60.708740 0.000000 229.000000 0.237435 -0.643118 0.728028
2.35999990 -3.13000011 -0.23000000 248 140 61 0.000000 0.000000 0.000000 0.000000 -60.708740 0.000000 229.000000 -0.112124 0.962722 -0.246158
2.40000010 -3.06999993 -0.30000001 248 140 61 0.000000 0.000000 0.000000 0.000000 -60.708740 0.000000 229.000000 0.188495 -0.623721 0.758579
2.41000009 -3.09999990 -0.34999999 248 140 61 0.000000 0.000000 0.000000 0.000000 -60.708740 0.000000 229.000000 -0.396098 0.761226 -0.513461
2.41000009 -3.09999990 -0.34000000 248 140 61 0.000000 0.000000 0.000000 0.000000 -60.708740 0.000000 229.000000 -0.361388 0.724411 -0.587051
2.41000009 -3.14000010 -0.33000001 248 140 61 0.000000 0.000000 0.000000 0.000000 -60.708740 0.000000 229.000000 -0.092564 0.902151 -0.421372
2.42000008 -3.10999990 -0.34000000 248 140 61 0.000000 0.000000 0.000000 0.000000 -60.708740 0.000000 229.000000 0.726005 -0.678689 0.110897
2.39000010 -3.08999991 -0.33000001 248 140 61 0.000000 0.000000 0.000000 0.000000 -60.708740 0.000000 229.000000 -0.162222 0.915496 -0.368173
2.39000010 -3.08999991 -0.33000001 248 140 61 0.000000 0.000000 0.000000 0.000000 -60.708740 0.000000 229.000000 -0.162222 0.915496 -0.368173
2.39000010 -3.06999993 -0.34999999 248 140 61 0.000000 0.000000 0.000000 0.000000 -60.708740 0.000000 229.000000 0.452342 -0.720765 0.525247
2.38000011 -3.05999994 -0.33000001 248 140 61 0.000000 0.000000 0.000000 0.000000 -60.708740 0.000000 229.000000 -0.473640 0.855560 -0.209003
2.39000010 -3.05999994 -0.34000000 248 140 61 0.000000 0.000000 0.000000 0.000000 -60.708740 0.000000 229.000000 -0.593497 0.699302 -0.398420
2.39000010 -3.13000011 -0.30000001 248 140 61 0.000000 0.000000 0.000000 0.000000 -60.708740 0.000000 229.000000 -0.644106 0.725997 -0.240949
2.39000010 -3.14000010 -0.31999999 248 140 61 0.000000 0.000000 0.000000 0.000000 -60.708740 0.000000 229.000000 -0.455142 0.883345 -0.112013
2.39000010 -3.14000010 -0.31999999 248 140 61 0.000000 0.000000 0.000000 0.000000 -60.708740 0.000000 229.000000 -0.455142 0.883345 -0.112013
2.35999990 -3.16000009 -0.23000000 248 140 61 0.000000 0.000000 0.000000 0.000000 -60.708740 0.000000 229.000000 -0.097121 0.816108 -0.569681
2.35999990 -3.18000007 -0.30000001 248 140 61 0.000000 0.000000 0.000000 0.000000 -60.708740 0.000000 229.000000 0.664472 -0.543353 0.513073
2.39000010 -3.16000009 -0.33000001 248 140 61 0.000000 0.000000 0.000000 0.000000 -60.708740 0.000000 229.000000 0.384921 -0.642636 0.662461
2.34999990 -3.19000006 -0.23000000 248 140 61 0.000000 0.000000 0.000000 0.000000 -60.708740 0.000000 229.000000 -0.219742 0.812893 -0.539368
2.34999990 -3.19000006 -0.23999999 248 140 61 0.000000 0.000000 0.000000 0.000000 -60.708740 0.000000 229.000000 -0.175970 0.908461 -0.379122
2.34999990 -3.18000007 -0.28999999 248 140 61 0.000000 0.000000 0.000000 0.000000 -60.708740 0.000000 229.000000 -0.556567 0.800161 -0.223552
2.31999993 -3.20000005 -0.28000000 248 140 61 0.000000 0.000000 0.000000 0.000000 -60.708740 0.000000 229.000000 -0.372745 0.892510 -0.253942
2.32999992 -3.22000003 -0.31000000 248 140 61 0.000000 0.000000 0.000000 0.000000 -60.708740 0.000000 229.000000 -0.284542 0.941600 -0.180072
2.33999991 -3.20000005 -0.28000000 248 140 61 0.000000 0.000000 0.000000 0.000000 -60.708740 0.000000 229.000000 0.419886 -0.678789 0.602446
2.34999990 -3.19000006 -0.30000001 248 140 61 0.000000 0.000000 0.000000 0.000000 -60.708740 0.000000 229.000000 0.644442 -0.711605 0.279845
2.33999991 -3.20000005 -0.28000000 248 140 61 0.000000 0.000000 0.000000 0.000000 -60.708740 0.000000 229.000000 0.419886 -0.678789 0.602446
2.32999992 -3.21000004 -0.28000000 248 140 61 0.000000 0.000000 0.000000 0.000000 -60.708740 0.000000 229.000000 -0.515637 0.774263 -0.366926
2.34999990 -3.19000006 -0.31000000 248 140 61 0.000000 0.000000 0.000000 0.000000 -60.708740 0.000000 229.000000 -0.564262 0.746387 -0.352867
2.30999994 -3.24000001 -0.17000000 248 140 61 0.000000 0.000000 0.000000 0.000000 -60.708740 0.000000 229.000000 -0.366000 0.822312 -0.435714
2.26999998 -3.26999998 -0.17000000 248 140 61 0.000000 0.000000 0.000000 0.000000 -60.708740 0.000000 229.000000 -0.255071 0.717683 -0.647974
2.35999990 -3.23000002 -0.31999999 248 140 61 0.000000 0.000000 0.000000 0.000000 -60.708740 0.000000 229.000000 -0.275242 0.730267 -0.625261
2.33999991 -3.24000001 -0.23999999 248 140 61 0.000000 0.000000 0.000000 0.000000 -60.708740 0.000000 229.000000 -0.104346 0.756873 -0.645179
2.34999990 -3.24000001 -0.23999999 248 140 61 0.000000 0.000000 0.000000 0.000000 -60.708740 0.000000 229.000000 0.240815 -0.731890 0.637452
2.30999994 -3.24000001 -0.20999999 248 140 61 0.000000 0.000000 0.000000 0.000000 -60.708740 0.000000 229.000000 0.434853 -0.584803 0.684769
2.26999998 -3.25000000 -0.20000000 248 140 61 0.000000 0.000000 0.000000 0.000000 -60.708740 0.000000 229.000000 0.192352 0.737091 -0.647840
2.28999996 -3.25999999 -0.27000001 248 140 61 0.000000 0.000000 0.000000 0.000000 -60.708740 0.000000 229.000000 0.313033 -0.792912 0.522782
2.28999996 -3.25000000 -0.25999999 248 140 61 0.000000 0.000000 0.000000 0.000000 -60.708740 0.000000 229.000000 -0.170325 0.922010 -0.347689
2.30999994 -3.25999999 -0.27000001 248 140 61 0.000000 0.000000 0.000000 0.000000 -60.708740 0.000000 229.000000 -0.271288 0.798183 -0.537872
2.28999996 -3.25000000 -0.25999999 248 140 61 0.000000 0.000000 0.000000 0.000000 -60.708740 0.000000 229.000000 -0.170325 0.922010 -0.347689
2.29999995 -3.25000000 -0.25999999 248 140 61 0.000000 0.000000 0.000000 0.000000 -60.708740 0.000000 229.000000 -0.209693 0.706744 -0.675678
2.26999998 -3.26999998 -0.19000000 248 140 61 0.000000 0.000000 0.000000 0.000000 -60.708740 0.000000 229.000000 -0.060243 0.972497 -0.224990
2.31999993 -3.23000002 -0.28999999 248 140 61 0.000000 0.000000 0.000000 0.000000 -60.708740 0.000000 229.000000 -0.156513 -0.818340 0.553013
2.31999993 -3.24000001 -0.30000001 248 140 61 0.000000 0.000000 0.000000 0.000000 -60.708740 0.000000 229.000000 -0.343121 0.910647 -0.230195
2.29999995 -3.25000000 -0.30000001 248 140 61 0.000000 0.000000 0.000000 0.000000 -60.708740 0.000000 229.000000 -0.468434 0.751138 -0.465147
2.30999994 -3.23000002 -0.28999999 248 140 61 0.000000 0.000000 0.000000 0.000000 -60.708740 0.000000 229.000000 -0.089850 0.951885 -0.292988
2.29999995 -3.23000002 -0.31999999 248 140 61 0.000000 0.000000 0.000000 0.000000 -60.708740 0.000000 229.000000 0.516122 -0.553108 0.653979
2.28999996 -3.27999997 -0.28000000 248 140 61 0.000000 0.000000 0.000000 0.000000 -60.708740 0.000000 229.000000 -0.162967 0.911197 -0.378367
2.45000005 -3.07999992 -0.52999997 248 140 61 0.000000 0.000000 0.000000 0.000000 -60.708740 0.000000 229.000000 0.756813 -0.573636 0.313330
2.46000004 -3.09999990 -0.68000001 248 140 61 0.000000 0.000000 0.000000 0.000000 -60.708740 0.000000 229.000000 -0.656924 0.752991 -0.038144
2.40000010 -3.08999991 -0.38000000 248 140 61 0.000000 0.000000 0.000000 0.000000 -60.708740 0.000000 229.000000 0.696143 -0.519186 0.495814
2.41000009 -3.13000011 -0.38000000 248 140 61 0.000000 0.000000 0.000000 0.000000 -60.708740 0.000000 229.000000 0.737806 -0.602782 0.303802
2.41000009 -3.10999990 -0.43000001 248 140 61 0.000000 0.000000 0.000000 0.000000 -60.708740 0.000000 229.000000 0.502775 -0.553221 0.664201
2.36999989 -3.11999989 -0.41000000 248 140 61 0.000000 0.000000 0.000000 0.000000 -60.708740 0.000000 229.000000 0.716740 -0.667203 0.202792
2.39000010 -3.10999990 -0.41000000 248 140 61 0.000000 0.000000 0.000000 0.000000 -60.708740 0.000000 229.000000 0.814789 -0.476216 0.330662
2.36999989 -3.14000010 -0.40000001 248 140 61 0.000000 0.000000 0.000000 0.000000 -60.708740 0.000000 229.000000 0.676971 -0.469701 0.566650
2.39000010 -3.11999989 -0.41000000 248 140 61 0.000000 0.000000 0.000000 0.000000 -60.708740 0.000000 229.000000 0.492837 -0.654312 0.573574
2.41000009 -3.08999991 -0.44999999 248 140 61 0.000000 0.000000 0.000000 0.000000 -60.708740 0.000000 229.000000 -0.551551 0.625766 -0.551551
2.41000009 -3.08999991 -0.44999999 248 140 61 0.000000 0.000000 0.000000 0.000000 -60.708740 0.000000 229.000000 -0.551551 0.625766 -0.551551
2.41000009 -3.07999992 -0.44000000 248 140 61 0.000000 0.000000 0.000000 0.000000 -60.708740 0.000000 229.000000 0.862513 -0.425913 0.273256
2.41000009 -3.10999990 -0.47000000 248 140 61 0.000000 0.000000 0.000000 0.000000 -60.708740 0.000000 229.000000 -0.292381 0.827109 -0.480005
2.40000010 -3.10999990 -0.51999998 248 140 61 0.000000 0.000000 0.000000 0.000000 -60.708740 0.000000 229.000000 -0.553709 0.831264 -0.049063
2.42000008 -3.14000010 -0.49000001 248 140 61 0.000000 0.000000 0.000000 0.000000 -60.708740 0.000000 229.000000 -0.669667 0.742366 0.020971
2.38000011 -3.13000011 -0.46000001 248 140 61 0.000000 0.000000 0.000000 0.000000 -60.708740 0.000000 229.000000 0.233869 -0.692190 0.682772
2.39000010 -3.11999989 -0.50999999 248 140 61 0.000000 0.000000 0.000000 0.000000 -60.708740 0.000000 229.000000 -0.711490 0.478214 -0.514872
2.39000010 -3.11999989 -0.50999999 248 140 61 0.000000 0.000000 0.000000 0.000000 -60.708740 0.000000 229.000000 -0.711490 0.478214 -0.514872
2.39000010 -3.11999989 -0.51999998 248 140 61 0.000000 0.000000 0.000000 0.000000 -60.708740 0.000000 229.000000 0.843051 -0.448696 0.296543
2.38000011 -3.17000008 -0.38999999 248 140 61 0.000000 0.000000 0.000000 0.000000 -60.708740 0.000000 229.000000 -0.530328 0.731886 -0.427897
2.36999989 -3.20000005 -0.36000001 248 140 61 0.000000 0.000000 0.000000 0.000000 -60.708740 0.000000 229.000000 -0.490855 0.824325 -0.282047
2.35999990 -3.15000010 -0.47999999 248 140 61 0.000000 0.000000 0.000000 0.000000 -60.708740 0.000000 229.000000 0.800739 -0.527009 0.284742
2.38000011 -3.15000010 -0.44000000 248 140 61 0.000000 0.000000 0.000000 0.000000 -60.708740 0.000000 229.000000 0.776563 -0.521476 0.353570
2.35999990 -3.18000007 -0.44000000 248 140 61 0.000000 0.000000 0.000000 0.000000 -60.708740 0.000000 229.000000 0.635466 -0.735885 0.233789
2.36999989 -3.17000008 -0.44000000 248 140 61 0.000000 0.000000 0.000000 0.000000 -60.708740 0.000000 229.000000 0.668389 -0.618633 0.412975
2.36999989 -3.17000008 -0.50999999 248 140 61 0.000000 0.000000 0.000000 0.000000 -60.708740 0.000000 229.000000 -0.620167 0.772593 -0.135988
2.38000011 -3.21000004 -0.50999999 248 140 61 0.000000 0.000000 0.000000 0.000000 -60.708740 0.000000 229.000000 0.187546 -0.785255 0.590085
2.31999993 -3.22000003 -0.41000000 248 140 61 0.000000 0.000000 0.000000 0.000000 -60.708740 0.000000 229.000000 0.578409 -0.697737 0.422619
2.34999990 -3.19000006 -0.47999999 248 140 61 0.000000 0.000000 0.000000 0.000000 -60.708740 0.000000 229.000000 0.535129 -0.698501 0.475114
2.33999991 -3.20000005 -0.49000001 248 140 61 0.000000 0.000000 0.000000 0.000000 -60.708740 0.000000 229.000000 -0.439262 0.855566 -0.273965
2.34999990 -3.20000005 -0.50000000 248 140 61 0.000000 0.000000 0.000000 0.000000 -60.708740 0.000000 229.000000 -0.569887 0.750700 -0.334183
2.33999991 -3.20000005 -0.49000001 248 140 61 0.000000 0.000000 0.000000 0.000000 -60.708740 0.000000 229.000000 -0.439262 0.855566 -0.273965
2.40000010 -3.05999994 -0.52999997 248 140 61 0.000000 0.000000 0.000000 0.000000 -60.708740 0.000000 229.000000 0.590428 -0.644256 0.486136
2.42000008 -3.05999994 -0.57999998 248 140 61 0.000000 0.000000 0.000000 0.000000 -60.708740 0.000000 229.000000 0.855991 -0.277163 0.436417
2.42000008 -3.10999990 -0.54000002 248 140 61 0.000000 0.000000 0.000000 0.000000 -60.708740 0.000000 229.000000 -0.568199 0.820417 -0.063763
2.40000010 -3.14000010 -0.60000002 248 140 61 0.000000 0.000000 0.000000 0.000000 -60.708740 0.000000 229.000000 0.769855 -0.562648 0.301248
2.42000008 -3.09999990 -0.66000003 248 140 61 0.000000 0.000000 0.000000 0.000000 -60.708740 0.000000 229.000000 0.850665 -0.365459 0.377900
2.42000008 -3.06999993 -0.69000000 248 140 61 0.000000 0.000000 0.000000 0.000000 -60.708740 0.000000 229.000000 0.905993 -0.383360 0.179476
2.40000010 -3.14000010 -0.61000001 248 140 61 0.000000 0.000000 0.000000 0.000000 -60.708740 0.000000 229.000000 0.713035 -0.516909 0.473695
2.40000010 -3.14000010 -0.62000000 248 140 61 0.000000 0.000000 0.000000 0.000000 -60.708740 0.000000 229.000000 -0.490645 0.753197 -0.438134
2.42000008 -3.11999989 -0.63999999 248 140 61 0.000000 0.000000 0.000000 0.000000 -60.708740 0.000000 229.000000 0.874237 -0.340235 0.346338
2.41000009 -3.14000010 -0.62000000 248 140 61 0.000000 0.000000 0.000000 0.000000 -60.708740 0.000000 229.000000 -0.684094 0.699607 -0.206314
2.40000010 -3.11999989 -0.68000001 248 140 61 0.000000 0.000000 0.000000 0.000000 -60.708740 0.000000 229.000000 0.720301 -0.678020 0.146476
2.42000008 -3.14000010 -0.68000001 248 140 61 0.000000 0.000000 0.000000 0.000000 -60.708740 0.000000 229.000000 0.682943 -0.695446 0.223480
2.41000009 -3.14000010 -0.68000001 248 140 61 0.000000 0.000000 0.000000 0.000000 -60.708740 0.000000 229.000000 0.805621 -0.558909 0.196456
2.39000010 -3.07999992 -0.68000001 248 140 61 0.000000 0.000000 0.000000 0.000000 -60.708740 0.000000 229.000000 -0.571553 0.707401 -0.415826
2.36999989 -3.14000010 -0.63000000 248 140 61 0.000000 0.000000 0.000000 0.000000 -60.708740 0.000000 229.000000 0.896192 -0.322510 0.304676
2.39000010 -3.13000011 -0.63999999 248 140 61 0.000000 0.000000 0.000000 0.000000 -60.708740 0.000000 229.000000 0.685725 -0.707106 0.172577
2.39000010 -3.16000009 -0.55000001 248 140 61 0.000000 0.000000 0.000000 0.000000 -60.708740 0.000000 229.000000 0.602300 -0.435458 0.669037
2.38000011 -3.16000009 -0.60000002 248 140 61 0.000000 0.000000 0.000000 0.000000 -60.708740 0.000000 229.000000 0.761249 -0.616103 0.202279
2.36999989 -3.15000010 -0.57999998 248 140 61 0.000000 0.000000 0.000000 0.000000 -60.708740 0.000000 229.000000 -0.488788 0.858681 -0.154122
2.39000010 -3.20000005 -0.56000000 248 140 61 0.000000 0.000000 0.000000 0.000000 -60.708740 0.000000 229.000000 0.372894 -0.625871 0.685008
2.36999989 -3.21000004 -0.52999997 248 140 61 0.000000 0.000000 0.000000 0.000000 -60.708740 0.000000 229.000000 -0.515728 0.845910 -0.135872
2.39000010 -3.20000005 -0.56000000 248 140 61 0.000000 0.000000 0.000000 0.000000 -60.708740 0.000000 229.000000 0.372894 -0.625871 0.685008
2.35999990 -3.20000005 -0.60000002 248 140 61 0.000000 0.000000 0.000000 0.000000 -60.708740 0.000000 229.000000 -0.574450 0.800612 -0.170375
2.38000011 -3.21000004 -0.57999998 248 140 61 0.000000 0.000000 0.000000 0.000000 -60.708740 0.000000 229.000000 0.747384 -0.558502 0.359851
2.36999989 -3.19000006 -0.57999998 248 140 61 0.000000 0.000000 0.000000 0.000000 -60.708740 0.000000 229.000000 0.661550 -0.533616 0.526883
2.40000010 -3.15000010 -0.63000000 248 140 61 0.000000 0.000000 0.000000 0.000000 -60.708740 0.000000 229.000000 -0.539001 0.812341 -0.222664
2.40000010 -3.15000010 -0.68000001 248 140 61 0.000000 0.000000 0.000000 0.000000 -60.708740 0.000000 229.000000 0.849565 -0.450131 0.274995
2.41000009 -3.15000010 -0.68000001 248 140 61 0.000000 0.000000 0.000000 0.000000 -60.708740 0.000000 229.000000 0.781208 -0.524549 0.338470
2.40000010 -3.15000010 -0.67000002 248 140 61 0.000000 0.000000 0.000000 0.000000 -60.708740 0.000000 229.000000 0.730495 -0.618603 0.289321
2.39000010 -3.16000009 -0.61000001 248 140 61 0.000000 0.000000 0.000000 0.000000 -60.708740 0.000000 229.000000 0.798273 -0.530607 0.284985
2.38000011 -3.17000008 -0.62000000 248 140 61 0.000000 0.000000 0.000000 0.000000 -60.708740 0.000000 229.000000 -0.535326 0.789487 -0.300227
2.38000011 -3.17000008 -0.69000000 248 140 61 0.000000 0.000000 0.000000 0.000000 -60.708740 0.000000 229.000000 -0.646306 0.710139 -0.279268
2.39000010 -3.16000009 -0.68000001 248 140 61 0.000000 0.000000 0.000000 0.000000 -60.708740 0.000000 229.000000 0.768959 -0.579482 0.270004
2.38000011 -3.18000007 -0.66000003 248 140 61 0.000000 0.000000 0.000000 0.000000 -60.708740 0.000000 229.000000 0.777627 -0.569418 0.266570
2.39000010 -3.16000009 -0.69000000 248 140 61 0.000000 0.000000 0.000000 0.000000 -60.708740 0.000000 229.000000 0.682294 -0.669451 0.293788
2.39000010 -3.16000009 -0.67000002 248 140 61 0.000000 0.000000 0.000000 0.000000 -60.708740 0.000000 229.000000 0.819974 -0.483171 0.306900
2.39000010 -3.17000008 -0.67000002 248 140 61 0.000000 0.000000 0.000000 0.000000 -60.708740 0.000000 229.000000 0.652809 -0.669170 0.355037
2.35999990 -3.20000005 -0.63000000 248 140 61 0.000000 0.000000 0.000000 0.000000 -60.708740 0.000000 229.000000 0.653056 -0.636438 0.410445
2.36999989 -3.20000005 -0.61000001 248 140 61 0.000000 0.000000 0.000000 0.000000 -60.708740 0.000000 229.000000 0.571168 -0.523992 0.631823
2.35999990 -3.21000004 -0.63000000 248 140 61 0.000000 0.000000 0.000000 0.000000 -60.708740 0.000000 229.000000 -0.274422 0.801312 -0.531594
2.38000011 -3.22000003 -0.63999999 248 140 61 0.000000 0.000000 0.000000 0.000000 -60.708740 0.000000 229.000000 -0.561808 0.695175 -0.448446
2.35999990 -3.21000004 -0.63000000 248 140 61 0.000000 0.000000 0.000000 0.000000 -60.708740 0.000000 229.000000 -0.274422 0.801312 -0.531594
2.35999990 -3.21000004 -0.63000000 248 140 61 0.000000 0.000000 0.000000 0.000000 -60.708740 0.000000 229.000000 -0.274422 0.801312 -0.531594
2.31999993 -3.22000003 -0.52999997 248 140 61 0.000000 0.000000 0.000000 0.000000 -60.708740 0.000000 229.000000 -0.506639 0.814073 -0.283906
2.34999990 -3.22000003 -0.60000002 248 140 61 0.000000 0.000000 0.000000 0.000000 -60.708740 0.000000 229.000000 0.405219 -0.706239 0.580538
2.34999990 -3.21000004 -0.58999997 248 140 61 0.000000 0.000000 0.000000 0.000000 -60.708740 0.000000 229.000000 -0.506809 0.786761 -0.352353
2.33999991 -3.21000004 -0.58999997 248 140 61 0.000000 0.000000 0.000000 0.000000 -60.708740 0.000000 229.000000 0.670102 -0.606916 0.427336
2.33999991 -3.22000003 -0.60000002 248 140 61 0.000000 0.000000 0.000000 0.000000 -60.708740 0.000000 229.000000 -0.349682 0.821199 -0.450948
2.34999990 -3.20000005 -0.62000000 248 140 61 0.000000 0.000000 0.000000 0.000000 -60.708740 0.000000 229.000000 -0.449835 0.784369 -0.427099
2.33999991 -3.21000004 -0.63000000 248 140 61 0.000000 0.000000 0.000000 0.000000 -60.708740 0.000000 229.000000 0.698051 -0.666250 0.262366
2.32999992 -3.22000003 -0.62000000 248 140 61 0.000000 0.000000 0.000000 0.000000 -60.708740 0.000000 229.000000 0.465656 -0.559121 0.685966
2.34999990 -3.20000005 -0.69000000 248 140 61 0.000000 0.000000 0.000000 0.000000 -60.708740 0.000000 229.000000 -0.592874 0.804111 -0.043656
2.32999992 -3.21000004 -0.67000002 248 140 61 0.000000 0.000000 0.000000 0.000000 -60.708740 0.000000 229.000000 -0.507740 0.860831 -0.034214
2.31999993 -3.25000000 -0.41999999 248 140 61 0.000000 0.000000 0.000000 0.000000 -60.708740 0.000000 229.000000 -0.649655 0.582508 -0.488501
2.31999993 -3.25000000 -0.41999999 248 140 61 0.000000 0.000000 0.000000 0.000000 -60.708740 0.000000 229.000000 -0.649655 0.582508 -0.488501
2.28999996 -3.25999999 -0.38999999 248 140 61 0.000000 0.000000 0.000000 0.000000 -60.708740 0.000000 229.000000 -0.301911 0.922904 -0.238953
2.28999996 -3.25999999 -0.38999999 248 140 61 0.000000 0.000000 0.000000 0.000000 -60.708740 0.000000 229.000000 -0.301911 0.922904 -0.238953
2.29999995 -3.25999999 -0.38000000 248 140 61 0.000000 0.000000 0.000000 0.000000 -60.708740 0.000000 229.000000 -0.183809 0.913344 -0.363343
2.29999995 -3.23000002 -0.41999999 248 140 61 0.000000 0.000000 0.000000 0.000000 -60.708740 0.000000 229.000000 -0.457693 0.756259 -0.467536
2.28999996 -3.25999999 -0.41000000 248 140 61 0.000000 0.000000 0.000000 0.000000 -60.708740 0.000000 229.000000 -0.353151 0.730713 -0.584245
2.30999994 -3.25000000 -0.46000001 248 140 61 0.000000 0.000000 0.000000 0.000000 -60.708740 0.000000 229.000000 -0.226712 0.884621 -0.407489
2.30999994 -3.25000000 -0.46000001 248 140 61 0.000000 0.000000 0.000000 0.000000 -60.708740 0.000000 229.000000 -0.226712 0.884621 -0.407489
2.28999996 -3.25999999 -0.44000000 248 140 61 0.000000 0.000000 0.000000 0.000000 -60.708740 0.000000 229.000000 -0.299947 0.729816 -0.614329
2.27999997 -3.25999999 -0.47000000 248 140 61 0.000000 0.000000 0.000000 0.000000 -60.708740 0.000000 229.000000 -0.482703 0.786209 -0.385840
2.30999994 -3.24000001 -0.50999999 248 140 61 0.000000 0.000000 0.000000 0.000000 -60.708740 0.000000 229.000000 -0.562277 0.685744 -0.462168
2.28999996 -3.25999999 -0.49000001 248 140 61 0.000000 0.000000 0.000000 0.000000 -60.708740 0.000000 229.000000 0.585198 -0.527859 0.615555
2.26999998 -3.26999998 -0.44000000 248 140 61 0.000000 0.000000 0.000000 0.000000 -60.708740 0.000000 229.000000 -0.258319 0.692550 -0.673532
2.27999997 -3.26999998 -0.47999999 248 140 61 0.000000 0.000000 0.000000 0.000000 -60.708740 0.000000 229.000000 -0.533140 0.766490 -0.358127
2.29999995 -3.26999998 -0.50000000 248 140 61 0.000000 0.000000 0.000000 0.000000 -60.708740 0.000000 229.000000 0.668099 -0.635107 0.387663
2.27999997 -3.27999997 -0.50000000 248 140 61 0.000000 0.000000 0.000000 0.000000 -60.708740 0.000000 229.000000 -0.241903 0.929418 -0.278684
2.26999998 -3.27999997 -0.51999998 248 140 61 0.000000 0.000000 0.000000 0.000000 -60.708740 0.000000 229.000000 0.110434 0.861960 -0.494802
2.35999990 -3.24000001 -0.56000000 248 140 61 0.000000 0.000000 0.000000 0.000000 -60.708740 0.000000 229.000000 -0.204565 0.903857 -0.375761
2.36999989 -3.24000001 -0.64999998 248 140 61 0.000000 0.000000 0.000000 0.000000 -60.708740 0.000000 229.000000 -0.564786 0.802270 -0.193336
2.32999992 -3.24000001 -0.60000002 248 140 61 0.000000 0.000000 0.000000 0.000000 -60.708740 0.000000 229.000000 -0.487302 0.863262 -0.131586
2.32999992 -3.23000002 -0.57999998 248 140 61 0.000000 0.000000 0.000000 0.000000 -60.708740 0.000000 229.000000 -0.524479 0.797017 -0.299476
2.30999994 -3.25999999 -0.55000001 248 140 61 0.000000 0.000000 0.000000 0.000000 -60.708740 0.000000 229.000000 0.261376 -0.616214 0.742942
2.28999996 -3.27999997 -0.55000001 248 140 61 0.000000 0.000000 0.000000 0.000000 -60.708740 0.000000 229.000000 -0.145060 0.969209 -0.198977
2.30999994 -3.26999998 -0.56000000 248 140 61 0.000000 0.000000 0.000000 0.000000 -60.708740 0.000000 229.000000 -0.554812 0.763872 -0.329671
2.28999996 -3.27999997 -0.56999999 248 140 61 0.000000 0.000000 0.000000 0.000000 -60.708740 0.000000 229.000000 -0.130766 0.964564 -0.229165
2.28999996 -3.26999998 -0.58999997 248 140 61 0.000000 0.000000 0.000000 0.000000 -60.708740 0.000000 229.000000 -0.407978 0.842530 -0.351705
2.33999991 -3.24000001 -0.63000000 248 140 61 0.000000 0.000000 0.000000 0.000000 -60.708740 0.000000 229.000000 -0.420780 0.839995 -0.342568
2.31999993 -3.24000001 -0.63999999 248 140 61 0.000000 0.000000 0.000000 0.000000 -60.708740 0.000000 229.000000 -0.366624 0.639537 -0.675706
2.32999992 -3.24000001 -0.61000001 248 140 61 0.000000 0.000000 0.000000 0.000000 -60.708740 0.000000 229.000000 -0.701428 0.589200 -0.401052
2.33999991 -3.24000001 -0.63000000 248 140 61 0.000000 0.000000 0.000000 0.000000 -60.708740 0.000000 229.000000 -0.420780 0.839995 -0.342568
2.31999993 -3.25000000 -0.64999998 248 140 61 0.000000 0.000000 0.000000 0.000000 -60.708740 0.000000 229.000000 -0.661149 0.683780 -0.308752
2.34999990 -3.23000002 -0.69000000 248 140 61 0.000000 0.000000 0.000000 0.000000 -60.708740 0.000000 229.000000 -0.402284 0.904787 -0.139741
2.32999992 -3.24000001 -0.69000000 248 140 61 0.000000 0.000000 0.000000 0.000000 -60.708740 0.000000 229.000000 0.352410 -0.805281 0.476790
2.32999992 -3.24000001 -0.69000000 248 140 61 0.000000 0.000000 0.000000 0.000000 -60.708740 0.000000 229.000000 0.352410 -0.805281 0.476790
2.30999994 -3.24000001 -0.69000000 248 140 61 0.000000 0.000000 0.000000 0.000000 -60.708740 0.000000 229.000000 -0.395790 0.913466 -0.094497
2.27999997 -3.27999997 -0.62000000 248 140 61 0.000000 0.000000 0.000000 0.000000 -60.708740 0.000000 229.000000 -0.560874 0.638352 -0.527188
2.29999995 -3.26999998 -0.63999999 248 140 61 0.000000 0.000000 0.000000 0.000000 -60.708740 0.000000 229.000000 -0.380427 0.666982 -0.640632
2.29999995 -3.26999998 -0.63999999 248 140 61 0.000000 0.000000 0.000000 0.000000 -60.708740 0.000000 229.000000 -0.380427 0.666982 -0.640632
2.27999997 -3.27999997 -0.62000000 248 140 61 0.000000 0.000000 0.000000 0.000000 -60.708740 0.000000 229.000000 -0.560874 0.638352 -0.527188
2.27999997 -3.27999997 -0.68000001 248 140 61 0.000000 0.000000 0.000000 0.000000 -60.708740 0.000000 229.000000 -0.090758 0.922481 -0.375223
2.29999995 -3.27999997 -0.64999998 248 140 61 0.000000 0.000000 0.000000 0.000000 -60.708740 0.000000 229.000000 -0.347566 0.831955 -0.432491
2.29999995 -3.26999998 -0.67000002 248 140 61 0.000000 0.000000 0.000000 0.000000 -60.708740 0.000000 229.000000 -0.359303 0.638214 -0.680871
2.28999996 -3.28999996 -0.68000001 248 140 61 0.000000 0.000000 0.000000 0.000000 -60.708740 0.000000 229.000000 -0.114064 0.922132 -0.369677
2.44000006 -3.11999989 -0.76999998 248 140 61 0.000000 0.000000 0.000000 0.000000 -60.708740 0.000000 229.000000 0.947295 -0.063325 0.314042
2.45000005 -3.09999990 -0.77999997 248 140 61 0.000000 0.000000 0.000000 0.000000 -60.708740 0.000000 229.000000 0.824310 -0.544074 0.156514
2.46000004 -3.13000011 -0.82999998 248 140 61 0.000000 0.000000 0.000000 0.000000 -60.708740 0.000000 229.000000 0.841367 -0.300155 0.449455
2.45000005 -3.07999992 -0.86000001 248 140 61 0.000000 0.000000 0.000000 0.000000 -60.708740 0.000000 229.000000 0.965681 -0.063878 0.251753
2.45000005 -3.07999992 -0.86000001 248 140 61 0.000000 0.000000 0.000000 0.000000 -60.708740 0.000000 229.000000 0.965681 -0.063878 0.251753
2.46000004 -3.13000011 -0.89999998 248 140 61 0.000000 0.000000 0.000000 0.000000 -60.708740 0.000000 229.000000 0.898023 -0.214649 0.384032
2.44000006 -3.11999989 -0.86000001 248 140 61 0.000000 0.000000 0.000000 0.000000 -60.708740 0.000000 229.000000 0.872600 -0.346901 0.343844
2.45000005 -3.10999990 -0.86000001 248 140 61 0.000000 0.000000 0.000000 0.000000 -60.708740 0.000000 229.000000 0.909844 -0.227824 0.346815
2.46000004 -3.13000011 -0.94000000 248 140 61 0.000000 0.000000 0.000000 0.000000 -60.708740 0.000000 229.000000 0.967251 -0.043126 0.250130
2.45000005 -3.10999990 -0.91000003 248 140 61 0.000000 0.000000 0.000000 0.000000 -60.708740 0.000000 229.000000 0.973795 0.196764 0.114048
2.45000005 -3.14000010 -0.94999999 248 140 61 0.000000 0.000000 0.000000 0.000000 -60.708740 0.000000 229.000000 0.883635 -0.390235 0.258661
2.41000009 -3.07999992 -0.69999999 248 140 61 0.000000 0.000000 0.000000 0.000000 -60.708740 0.000000 229.000000 0.927038 -0.187096 0.324956
2.42000008 -3.06999993 -0.72000003 248 140 61 0.000000 0.000000 0.000000 0.000000 -60.708740 0.000000 229.000000 0.862055 -0.440875 0.249981
2.40000010 -3.05999994 -0.70999998 248 140 61 0.000000 0.000000 0.000000 0.000000 -60.708740 0.000000 229.000000 0.949684 -0.095888 0.298172
2.42000008 -3.06999993 -0.75999999 248 140 61 0.000000 0.000000 0.000000 0.000000 -60.708740 0.000000 229.000000 0.931612 -0.062107 0.358109
2.43000007 -3.06999993 -0.76999998 248 140 61 0.000000 0.000000 0.000000 0.000000 -60.708740 0.000000 229.000000 0.786306 -0.615060 -0.058509
2.40000010 -3.10999990 -0.73000002 248 140 61 0.000000 0.000000 0.000000 0.000000 -60.708740 0.000000 229.000000 0.895605 -0.193684 0.400474
2.41000009 -3.14000010 -0.75999999 248 140 61 0.000000 0.000000 0.000000 0.000000 -60.708740 0.000000 229.000000 0.830733 -0.519019 0.201252
2.43000007 -3.13000011 -0.75999999 248 140 61 0.000000 0.000000 0.000000 0.000000 -60.708740 0.000000 229.000000 0.796527 -0.604021 -0.026504
2.42000008 -3.10999990 -0.76999998 248 140 61 0.000000 0.000000 0.000000 0.000000 -60.708740 0.000000 229.000000 0.731383 -0.675687 -0.092339
2.40000010 -3.14000010 -0.74000001 248 140 61 0.000000 0.000000 0.000000 0.000000 -60.708740 0.000000 229.000000 0.714918 -0.631377 0.300426
2.41000009 -3.13000011 -0.82999998 248 140 61 0.000000 0.000000 0.000000 0.000000 -60.708740 0.000000 229.000000 0.918999 -0.152933 0.363390
2.42000008 -3.13000011 -0.82999998 248 140 61 0.000000 0.000000 0.000000 0.000000 -60.708740 0.000000 229.000000 0.939092 -0.045335 0.340664
2.42000008 -3.15000010 -0.73000002 248 140 61 0.000000 0.000000 0.000000 0.000000 -60.708740 0.000000 229.000000 0.880537 -0.288478 0.376078
2.41000009 -3.15000010 -0.72000003 248 140 61 0.000000 0.000000 0.000000 0.000000 -60.708740 0.000000 229.000000 0.878168 -0.399167 0.263601
2.41000009 -3.16000009 -0.69999999 248 140 61 0.000000 0.000000 0.000000 0.000000 -60.708740 0.000000 229.000000 0.789934 -0.578262 0.204002
2.42000008 -3.17000008 -0.75000000 248 140 61 0.000000 0.000000 0.000000 0.000000 -60.708740 0.000000 229.000000 -0.673238 0.738435 -0.038268
2.42000008 -3.16000009 -0.75000000 248 140 61 0.000000 0.000000 0.000000 0.000000 -60.708740 0.000000 229.000000 0.691280 -0.619033 0.372733
2.40000010 -3.21000004 -0.75000000 248 140 61 0.000000 0.000000 0.000000 0.000000 -60.708740 0.000000 229.000000 -0.561244 0.827458 0.017839
2.39000010 -3.18000007 -0.69999999 248 140 61 0.000000 0.000000 0.000000 0.000000 -60.708740 0.000000 229.000000 0.583132 -0.482303 0.653713
2.39000010 -3.17000008 -0.69999999 248 140 61 0.000000 0.000000 0.000000 0.000000 -60.708740 0.000000 229.000000 0.750976 -0.481479 0.451900
2.38000011 -3.18000007 -0.70999998 248 140 61 0.000000 0.000000 0.000000 0.000000 -60.708740 0.000000 229.000000 -0.563316 0.824605 -0.051977
2.39000010 -3.18000007 -0.69999999 248 140 61 0.000000 0.000000 0.000000 0.000000 -60.708740 0.000000 229.000000 0.583132 -0.482303 0.653713
2.35999990 -3.21000004 -0.70999998 248 140 61 0.000000 0.000000 0.000000 0.000000 -60.708740 0.000000 229.000000 0.776405 -0.307692 0.550020
2.36999989 -3.19000006 -0.69999999 248 140 61 0.000000 0.000000 0.000000 0.000000 -60.708740 0.000000 229.000000 0.750465 -0.415465 0.513995
2.39000010 -3.22000003 -0.73000002 248 140 61 0.000000 0.000000 0.000000 0.000000 -60.708740 0.000000 229.000000 0.835142 -0.369601 0.407348
2.38000011 -3.19000006 -0.70999998 248 140 61 0.000000 0.000000 0.000000 0.000000 -60.708740 0.000000 229.000000 -0.542415 0.515546 -0.663324
2.38000011 -3.20000005 -0.70999998 248 140 61 0.000000 0.000000 0.000000 0.000000 -60.708740 0.000000 229.000000 0.681487 -0.635507 0.362913
2.38000011 -3.19000006 -0.69999999 248 140 61 0.000000 0.000000 0.000000 0.000000 -60.708740 0.000000 229.000000 0.467456 -0.638354 0.611546
2.35999990 -3.20000005 -0.69999999 248 140 61 0.000000 0.000000 0.000000 0.000000 -60.708740 0.000000 229.000000 0.781948 -0.380451 0.493776
2.35999990 -3.22000003 -0.70999998 248 140 61 0.000000 0.000000 0.000000 0.000000 -60.708740 0.000000 229.000000 0.610964 -0.450272 0.651137
2.36999989 -3.22000003 -0.76999998 248 140 61 0.000000 0.000000 0.000000 0.000000 -60.708740 0.000000 229.000000 -0.543500 0.808321 -0.226330
2.40000010 -3.18000007 -0.81000000 248 140 61 0.000000 0.000000 0.000000 0.000000 -60.708740 0.000000 229.000000 -0.687192 0.493240 -0.533368
2.40000010 -3.18000007 -0.81000000 248 140 61 0.000000 0.000000 0.000000 0.000000 -60.708740 0.000000 229.000000 -0.687192 0.493240 -0.533368
2.41000009 -3.17000008 -0.80000001 248 140 61 0.000000 0.000000 0.000000 0.000000 -60.708740 0.000000 229.000000 0.745176 -0.648440 0.155686
2.41000009 -3.18000007 -0.85000002 248 140 61 0.000000 0.000000 0.000000 0.000000 -60.708740 0.000000 229.000000 0.860884 -0.205115 0.465626
2.42000008 -3.15000010 -0.81999999 248 140 61 0.000000 0.000000 0.000000 0.000000 -60.708740 0.000000 229.000000 -0.721938 0.690734 0.041132
2.42000008 -3.15000010 -0.83999997 248 140 61 0.000000 0.000000 0.000000 0.000000 -60.708740 0.000000 229.000000 0.742811 -0.641309 0.192239
2.42000008 -3.17000008 -0.85000002 248 140 61 0.000000 0.000000 0.000000 0.000000 -60.708740 0.000000 229.000000 0.936383 -0.204529 0.285228
2.40000010 -3.17000008 -0.85000002 248 140 61 0.000000 0.000000 0.000000 0.000000 -60.708740 0.000000 229.000000 0.932001 -0.212266 0.293798
2.40000010 -3.21000004 -0.83999997 248 140 61 0.000000 0.000000 0.000000 0.000000 -60.708740 0.000000 229.000000 0.783855 -0.496172 0.373341
2.35999990 -3.22000003 -0.79000002 248 140 61 0.000000 0.000000 0.000000 0.000000 -60.708740 0.000000 229.000000 0.898792 -0.327237 0.291700
2.43000007 -3.15000010 -0.86000001 248 140 61 0.000000 0.000000 0.000000 0.000000 -60.708740 0.000000 229.000000 0.743832 -0.661996 -0.092066
2.42000008 -3.17000008 -0.86000001 248 140 61 0.000000 0.000000 0.000000 0.000000 -60.708740 0.000000 229.000000 0.946235 -0.082452 0.312794
2.40000010 -3.19000006 -0.88000000 248 140 61 0.000000 0.000000 0.000000 0.000000 -60.708740 0.000000 229.000000 0.846742 -0.438077 0.301855
2.40000010 -3.22000003 -0.93000001 248 140 61 0.000000 0.000000 0.000000 0.000000 -60.708740 0.000000 229.000000 -0.656090 0.718724 -0.230179
2.42000008 -3.19000006 -0.93000001 248 140 61 0.000000 0.000000 0.000000 0.000000 -60.708740 0.000000 229.000000 0.816304 -0.478414 0.323679
2.42000008 -3.22000003 -0.94000000 248 140 61 0.000000 0.000000 0.000000 0.000000 -60.708740 0.000000 229.000000 0.841992 -0.362198 0.399828
2.42000008 -3.19000006 -0.93000001 248 140 61 0.000000 0.000000 0.000000 0.000000 -60.708740 0.000000 229.000000 0.816304 -0.478414 0.323679
2.41000009 -3.21000004 -0.93000001 248 140 61 0.000000 0.000000 0.000000 0.000000 -60.708740 0.000000 229.000000 0.968153 -0.105317 0.227129
2.41000009 -3.21000004 -0.91000003 248 140 61 0.000000 0.000000 0.000000 0.000000 -60.708740 0.000000 229.000000 0.966440 -0.132548 0.220055
2.42000008 -3.19000006 -0.93000001 248 140 61 0.000000 0.000000 0.000000 0.000000 -60.708740 0.000000 229.000000 0.816304 -0.478414 0.323679
2.43000007 -3.21000004 -0.92000002 248 140 61 0.000000 0.000000 0.000000 0.000000 -60.708740 0.000000 229.000000 0.825825 -0.477944 0.299303
2.39000010 -3.22000003 -0.94000000 248 140 61 0.000000 0.000000 0.000000 0.000000 -60.708740 0.000000 229.000000 -0.681343 0.720277 -0.130279
2.36999989 -3.22000003 -0.92000002 248 140 61 0.000000 0.000000 0.000000 0.000000 -60.708740 0.000000 229.000000 0.950048 -0.205232 0.235134
2.40000010 -3.21000004 -0.99000001 248 140 61 0.000000 0.000000 0.000000 0.000000 -60.708740 0.000000 229.000000 0.991044 0.113689 0.070051
2.41000009 -3.22000003 -1.00000000 248 140 61 0.000000 0.000000 0.000000 0.000000 -60.708740 0.000000 229.000000 0.972845 0.037464 0.228407
2.43000007 -3.21000004 -0.94999999 248 140 61 0.000000 0.000000 0.000000 0.000000 -60.708740 0.000000 229.000000 0.805860 -0.487967 0.335378
