//X Y Z R G B PointSourceId ScanDirectionFlag NumberOfReturns ReturnNumber GpsTime Intensity Classification Nx Ny Nz
10.51000023 1.01999998 0.23999999 27 33 225 97.000000 1.000000 4.000000 1.000000 -60.708740 114.000000 1.000000 0.633564 -0.268352 0.725661
10.52999973 1.00000000 0.28999999 27 33 225 97.000000 1.000000 4.000000 1.000000 -60.708740 114.000000 1.000000 0.662672 -0.012503 0.748805
10.51000023 0.98000002 0.25999999 27 33 225 97.000000 1.000000 4.000000 1.000000 -60.708740 114.000000 1.000000 0.465140 -0.082412 0.881392
10.51000023 0.97000003 0.25999999 27 33 225 97.000000 1.000000 4.000000 1.000000 -60.708740 114.000000 1.000000 0.645230 0.070730 0.760707
10.51000023 1.00000000 0.23999999 27 33 225 97.000000 1.000000 4.000000 1.000000 -60.708740 114.000000 1.000000 0.347683 0.142675 0.926693
10.53999996 1.03999996 0.20000000 27 33 225 97.000000 1.000000 4.000000 1.000000 -60.708740 114.000000 1.000000 0.013271 -0.031646 0.999411
10.53999996 0.98000002 0.20999999 27 33 225 97.000000 1.000000 4.000000 1.000000 -60.708740 114.000000 1.000000 -0.001083 -0.115898 0.993261
10.53999996 0.99000001 0.20999999 27 33 225 97.000000 1.000000 4.000000 1.000000 -60.708740 114.000000 1.000000 0.348074 0.121485 0.929562
10.52999973 1.01999998 0.20000000 27 33 225 97.000000 1.000000 4.000000 1.000000 -60.708740 114.000000 1.000000 0.407028 -0.106966 0.907131
10.50000000 1.02999997 0.20999999 27 33 225 97.000000 1.000000 4.000000 1.000000 -60.708740 114.000000 1.000000 0.236879 -0.311531 0.920237
10.52000046 1.02999997 0.17000000 27 33 225 97.000000 1.000000 4.000000 1.000000 -60.708740 114.000000 1.000000 0.163838 0.095876 0.981817
10.52000046 1.02999997 0.17000000 27 33 225 97.000000 1.000000 4.000000 1.000000 -60.708740 114.000000 1.000000 0.163838 0.095876 0.981817
10.50000000 0.97000003 0.20999999 27 33 225 97.000000 1.000000 4.000000 1.000000 -60.708740 114.000000 1.000000 0.663215 -0.152585 0.732709
10.51000023 1.00000000 0.23000000 27 33 225 97.000000 1.000000 4.000000 1.000000 -60.708740 114.000000 1.000000 0.471290 -0.175810 0.864278
10.52000046 1.00999999 0.23000000 27 33 225 97.000000 1.000000 4.000000 1.000000 -60.708740 114.000000 1.000000 0.138795 -0.339428 0.930336
10.51000023 0.99000001 0.19000000 27 33 225 97.000000 1.000000 4.000000 1.000000 -60.708740 114.000000 1.000000 0.580711 0.052278 0.812430
10.51000023 0.98000002 0.19000000 27 33 225 97.000000 1.000000 4.000000 1.000000 -60.708740 114.000000 1.000000 0.610597 0.195329 0.767475
10.52000046 1.00999999 0.23000000 27 33 225 97.000000 1.000000 4.000000 1.000000 -60.708740 114.000000 1.000000 0.138795 -0.339428 0.930336
10.52000046 0.99000001 0.19000000 27 33 225 97.000000 1.000000 4.000000 1.000000 -60.708740 114.000000 1.000000 0.592701 -0.097570 0.799491
10.52000046 1.00000000 0.18000001 27 33 225 97.000000 1.000000 4.000000 1.000000 -60.708740 114.000000 1.000000 0.462838 -0.085297 0.882329
10.61999989 1.00000000 0.11000000 27 33 225 97.000000 1.000000 4.000000 1.000000 -60.708740 114.000000 1.000000 0.318903 -0.349131 0.881140
10.60999966 0.99000001 0.11000000 27 33 225 97.000000 1.000000 4.000000 1.000000 -60.708740 114.000000 1.000000 0.450018 -0.456564 0.767485
10.52000046 1.03999996 0.12000000 27 33 225 97.000000 1.000000 4.000000 1.000000 -60.708740 114.000000 1.000000 0.495952 -0.193286 0.846565
10.52000046 0.98000002 0.12000000 27 33 225 97.000000 1.000000 4.000000 1.000000 -60.708740 114.000000 1.000000 -0.049131 -0.197723 0.979026
10.52000046 0.97000003 0.08000000 27 33 225 97.000000 1.000000 4.000000 1.000000 -60.708740 114.000000 1.000000 0.058503 -0.328916 0.942545
10.50000000 1.00000000 0.07000000 27 33 225 97.000000 1.000000 4.000000 1.000000 -60.708740 114.000000 1.000000 0.223217 -0.167743 0.960227
10.32999992 1.19000006 0.16000000 27 33 225 97.000000 1.000000 4.000000 1.000000 -60.708740 114.000000 1.000000 0.034232 0.030083 0.998961
10.39000034 1.13999999 0.02000000 27 33 225 97.000000 1.000000 4.000000 1.000000 -60.708740 114.000000 1.000000 0.356465 -0.056561 0.932595
10.32999992 1.17999995 0.05000000 27 33 225 97.000000 1.000000 4.000000 1.000000 -60.708740 114.000000 1.000000 0.409557 -0.464597 0.785120
10.43999958 1.10000002 0.25999999 27 33 225 97.000000 1.000000 4.000000 1.000000 -60.708740 114.000000 1.000000 0.485786 0.260628 0.834317
10.43999958 1.10000002 0.25999999 27 33 225 97.000000 1.000000 4.000000 1.000000 -60.708740 114.000000 1.000000 0.485786 0.260628 0.834317
10.42000008 1.09000003 0.23999999 27 33 225 97.000000 1.000000 4.000000 1.000000 -60.708740 114.000000 1.000000 0.197772 -0.084759 0.976577
10.42000008 1.09000003 0.23999999 27 33 225 97.000000 1.000000 4.000000 1.000000 -60.708740 114.000000 1.000000 0.197772 -0.084759 0.976577
10.42000008 1.07000005 0.27000001 27 33 225 97.000000 1.000000 4.000000 1.000000 -60.708740 114.000000 1.000000 0.527284 -0.371533 0.764156
10.43000031 1.09000003 0.25999999 27 33 225 97.000000 1.000000 4.000000 1.000000 -60.708740 114.000000 1.000000 0.331585 -0.172088 0.927598
10.46000004 1.02999997 0.23999999 27 33 225 97.000000 1.000000 4.000000 1.000000 -60.708740 114.000000 1.000000 0.237727 -0.271487 0.932620
10.47999954 1.00000000 0.23999999 27 33 225 97.000000 1.000000 4.000000 1.000000 -60.708740 114.000000 1.000000 0.215812 -0.107275 0.970524
10.42000008 1.02999997 0.25000000 27 33 225 97.000000 1.000000 4.000000 1.000000 -60.708740 114.000000 1.000000 0.438294 0.001308 0.898831
10.46000004 1.02999997 0.20999999 27 33 225 97.000000 1.000000 4.000000 1.000000 -60.708740 114.000000 1.000000 0.581263 -0.119196 0.804939
10.48999977 1.03999996 0.23000000 27 33 225 97.000000 1.000000 4.000000 1.000000 -60.708740 114.000000 1.000000 0.343042 0.283640 0.895472
10.46000004 1.03999996 0.20999999 27 33 225 97.000000 1.000000 4.000000 1.000000 -60.708740 114.000000 1.000000 0.422400 -0.172734 0.889798
10.48999977 1.02999997 0.20999999 27 33 225 97.000000 1.000000 4.000000 1.000000 -60.708740 114.000000 1.000000 0.367923 -0.099108 0.924559
10.47999954 1.02999997 0.23000000 27 33 225 97.000000 1.000000 4.000000 1.000000 -60.708740 114.000000 1.000000 0.179556 0.022010 0.983502
10.48999977 1.02999997 0.20999999 27 33 225 97.000000 1.000000 4.000000 1.000000 -60.708740 114.000000 1.000000 0.367923 -0.099108 0.924559
10.48999977 1.02999997 0.20999999 27 33 225 97.000000 1.000000 4.000000 1.000000 -60.708740 114.000000 1.000000 0.367923 -0.099108 0.924559
10.48999977 1.00999999 0.18000001 27 33 225 97.000000 1.000000 4.000000 1.000000 -60.708740 114.000000 1.000000 0.221264 -0.029900 0.974756
10.47999954 0.99000001 0.16000000 27 33 225 97.000000 1.000000 4.000000 1.000000 -60.708740 114.000000 1.000000 0.414848 -0.254943 0.873444
10.43000031 1.04999995 0.22000000 27 33 225 97.000000 1.000000 4.000000 1.000000 -60.708740 114.000000 1.000000 0.535602 -0.172533 0.826658
10.43000031 1.03999996 0.22000000 27 33 225 97.000000 1.000000 4.000000 1.000000 -60.708740 114.000000 1.000000 0.638117 0.365810 0.677487
10.44999981 1.01999998 0.22000000 27 33 225 97.000000 1.000000 4.000000 1.000000 -60.708740 114.000000 1.000000 0.377551 0.386950 0.841264
10.43000031 1.02999997 0.18000001 27 33 225 97.000000 1.000000 4.000000 1.000000 -60.708740 114.000000 1.000000 0.191796 -0.100229 0.976304
10.43999958 0.99000001 0.19000000 27 33 225 97.000000 1.000000 4.000000 1.000000 -60.708740 114.000000 1.000000 0.553146 0.066491 0.830427
10.40999985 1.08000004 0.20000000 27 33 225 97.000000 1.000000 4.000000 1.000000 -60.708740 114.000000 1.000000 0.605265 0.314738 0.731160
10.36999989 1.08000004 0.17000000 27 33 225 97.000000 1.000000 4.000000 1.000000 -60.708740 114.000000 1.000000 0.782031 0.029379 0.622547
10.36999989 1.07000005 0.18000001 27 33 225 97.000000 1.000000 4.000000 1.000000 -60.708740 114.000000 1.000000 0.444851 0.399884 0.801374
10.40999985 1.00999999 0.17000000 27 33 225 97.000000 1.000000 4.000000 1.000000 -60.708740 114.000000 1.000000 0.243455 0.218697 0.944935
10.47000027 1.10000002 0.10000000 27 33 225 97.000000 1.000000 4.000000 1.000000 -60.708740 114.000000 1.000000 0.356290 -0.244858 0.901722
10.46000004 1.09000003 0.11000000 27 33 225 97.000000 1.000000 4.000000 1.000000 -60.708740 114.000000 1.000000 0.371844 0.079201 0.924911
10.46000004 1.08000004 0.08000000 27 33 225 97.000000 1.000000 4.000000 1.000000 -60.708740 114.000000 1.000000 0.340860 -0.374792 0.862175
10.43000031 1.11000001 0.09000000 27 33 225 97.000000 1.000000 4.000000 1.000000 -60.708740 114.000000 1.000000 0.312906 -0.263424 0.912523
10.44999981 1.07000005 0.08000000 27 33 225 97.000000 1.000000 4.000000 1.000000 -60.708740 114.000000 1.000000 0.390823 0.085790 0.916459
10.43999958 1.07000005 0.08000000 27 33 225 97.000000 1.000000 4.000000 1.000000 -60.708740 114.000000 1.000000 0.009908 -0.126603 0.991904
10.46000004 1.11000001 0.06000000 27 33 225 97.000000 1.000000 4.000000 1.000000 -60.708740 114.000000 1.000000 0.041847 -0.444120 0.894990
10.46000004 1.09000003 0.01000000 27 33 225 97.000000 1.000000 4.000000 1.000000 -60.708740 114.000000 1.000000 0.125210 -0.108515 0.986178
10.44999981 1.13000000 0.04000000 27 33 225 97.000000 1.000000 4.000000 1.000000 -60.708740 114.000000 1.000000 0.372528 -0.162892 0.913613
10.43000031 1.10000002 0.00000000 27 33 225 97.000000 1.000000 4.000000 1.000000 -60.708740 114.000000 1.000000 0.216141 -0.205401 0.954512
10.43999958 1.10000002 0.00000000 27 33 225 97.000000 1.000000 4.000000 1.000000 -60.708740 114.000000 1.000000 0.033082 -0.253630 0.966735
10.43000031 1.10000002 0.00000000 27 33 225 97.000000 1.000000 4.000000 1.000000 -60.708740 114.000000 1.000000 0.216141 -0.205401 0.954512
10.42000008 1.11000001 0.01000000 27 33 225 97.000000 1.000000 4.000000 1.000000 -60.708740 114.000000 1.000000 0.611162 0.067271 0.788642
10.44999981 1.09000003 0.04000000 27 33 225 97.000000 1.000000 4.000000 1.000000 -60.708740 114.000000 1.000000 0.212562 -0.357162 0.909534
10.43999958 1.08000004 0.04000000 27 33 225 97.000000 1.000000 4.000000 1.000000 -60.708740 114.000000 1.000000 0.469793 -0.211632 0.857034
10.43000031 1.08000004 0.04000000 27 33 225 97.000000 1.000000 4.000000 1.000000 -60.708740 114.000000 1.000000 0.340235 -0.346338 0.874237
10.47999954 1.01999998 0.11000000 27 33 225 97.000000 1.000000 4.000000 1.000000 -60.708740 114.000000 1.000000 0.097748 -0.118946 0.988078
10.47000027 1.01999998 0.09000000 27 33 225 97.000000 1.000000 4.000000 1.000000 -60.708740 114.000000 1.000000 0.071626 -0.313852 0.946766
10.47000027 1.04999995 0.10000000 27 33 225 97.000000 1.000000 4.000000 1.000000 -60.708740 114.000000 1.000000 0.375994 -0.019381 0.926419
10.47999954 0.99000001 0.13000000 27 33 225 97.000000 1.000000 4.000000 1.000000 -60.708740 114.000000 1.000000 0.207300 -0.407249 0.889480
10.48999977 1.00000000 0.12000000 27 33 225 97.000000 1.000000 4.000000 1.000000 -60.708740 114.000000 1.000000 0.593356 -0.346260 0.726658
10.47999954 1.00000000 0.13000000 27 33 225 97.000000 1.000000 4.000000 1.000000 -60.708740 114.000000 1.000000 0.640246 0.015277 0.768018
10.48999977 1.00000000 0.12000000 27 33 225 97.000000 1.000000 4.000000 1.000000 -60.708740 114.000000 1.000000 0.593356 -0.346260 0.726658
10.47999954 0.99000001 0.13000000 27 33 225 97.000000 1.000000 4.000000 1.000000 -60.708740 114.000000 1.000000 0.207300 -0.407249 0.889480
10.48999977 1.00000000 0.12000000 27 33 225 97.000000 1.000000 4.000000 1.000000 -60.708740 114.000000 1.000000 0.593356 -0.346260 0.726658
10.48999977 0.99000001 0.12000000 27 33 225 97.000000 1.000000 4.000000 1.000000 -60.708740 114.000000 1.000000 0.611548 -0.171476 0.772402
10.46000004 0.99000001 0.12000000 27 33 225 97.000000 1.000000 4.000000 1.000000 -60.708740 114.000000 1.000000 0.575996 -0.231330 0.784038
10.46000004 1.00000000 0.08000000 27 33 225 97.000000 1.000000 4.000000 1.000000 -60.708740 114.000000 1.000000 0.176655 -0.254869 0.950702
10.43000031 1.00999999 0.11000000 27 33 225 97.000000 1.000000 4.000000 1.000000 -60.708740 114.000000 1.000000 0.308739 -0.350909 0.884049
10.43000031 0.97000003 0.07000000 27 33 225 97.000000 1.000000 4.000000 1.000000 -60.708740 114.000000 1.000000 0.681997 -0.209726 0.700639
10.43000031 0.98000002 0.07000000 27 33 225 97.000000 1.000000 4.000000 1.000000 -60.708740 114.000000 1.000000 0.652178 -0.139431 0.745133
10.47999954 1.04999995 0.03000000 27 33 225 97.000000 1.000000 4.000000 1.000000 -60.708740 114.000000 1.000000 0.504341 0.138877 0.852264
10.46000004 1.01999998 0.06000000 27 33 225 97.000000 1.000000 4.000000 1.000000 -60.708740 114.000000 1.000000 0.639955 -0.061562 0.765942
10.44999981 1.00000000 0.06000000 27 33 225 97.000000 1.000000 4.000000 1.000000 -60.708740 114.000000 1.000000 0.548407 -0.203170 0.811154
10.44999981 0.97000003 0.06000000 27 33 225 97.000000 1.000000 4.000000 1.000000 -60.708740 114.000000 1.000000 0.468476 -0.082508 0.879615
10.32999992 1.13000000 0.14000000 27 33 225 97.000000 1.000000 4.000000 1.000000 -60.708740 114.000000 1.000000 0.456966 0.343120 0.820641
10.39999962 1.11000001 -0.01000000 27 33 225 97.000000 1.000000 4.000000 1.000000 -60.708740 114.000000 1.000000 0.434310 -0.480199 0.762091
10.39000034 1.13000000 0.02000000 27 33 225 97.000000 1.000000 4.000000 1.000000 -60.708740 114.000000 1.000000 0.118519 -0.123308 0.985266
10.39999962 1.09000003 0.03000000 27 33 225 97.000000 1.000000 4.000000 1.000000 -60.708740 114.000000 1.000000 0.125642 -0.273767 0.953554
10.40999985 1.08000004 0.02000000 27 33 225 97.000000 1.000000 4.000000 1.000000 -60.708740 114.000000 1.000000 0.675050 0.032414 0.737059
10.34000015 1.12000000 0.04000000 27 33 225 97.000000 1.000000 4.000000 1.000000 -60.708740 114.000000 1.000000 0.455093 -0.468237 0.757393
10.32999992 1.12000000 0.02000000 27 33 225 97.000000 1.000000 4.000000 1.000000 -60.708740 114.000000 1.000000 0.213056 0.075124 0.974147
10.35999966 1.12000000 -0.02000000 27 33 225 97.000000 1.000000 4.000000 1.000000 -60.708740 114.000000 1.000000 0.601092 -0.097514 0.793208
10.40999985 1.04999995 0.09000000 27 33 225 97.000000 1.000000 4.000000 1.000000 -60.708740 114.000000 1.000000 0.266609 0.139273 0.953689
10.39999962 1.00999999 0.12000000 27 33 225 97.000000 1.000000 4.000000 1.000000 -60.708740 114.000000 1.000000 0.604187 0.325581 0.727293
10.40999985 1.01999998 0.12000000 27 33 225 97.000000 1.000000 4.000000 1.000000 -60.708740 114.000000 1.000000 0.450389 -0.053067 0.891254
10.39999962 1.03999996 0.13000000 27 33 225 97.000000 1.000000 4.000000 1.000000 -60.708740 114.000000 1.000000 0.441897 -0.044595 0.895957
10.39000034 1.00999999 0.07000000 27 33 225 97.000000 1.000000 4.000000 1.000000 -60.708740 114.000000 1.000000 0.533493 -0.012217 0.845716
10.93000031 0.88999999 0.56999999 27 33 225 97.000000 1.000000 4.000000 1.000000 -60.708740 114.000000 1.000000 0.644586 0.450373 0.617798
10.96000004 0.87000000 0.56999999 27 33 225 97.000000 1.000000 4.000000 1.000000 -60.708740 114.000000 1.000000 0.855597 0.290319 0.428566
10.96000004 0.87000000 0.56999999 27 33 225 97.000000 1.000000 4.000000 1.000000 -60.708740 114.000000 1.000000 0.855597 0.290319 0.428566
10.98999977 0.85000002 0.57999998 27 33 225 97.000000 1.000000 4.000000 1.000000 -60.708740 114.000000 1.000000 0.318711 0.297958 0.899803
10.97999954 0.88000000 0.57999998 27 33 225 97.000000 1.000000 4.000000 1.000000 -60.708740 114.000000 1.000000 0.313508 0.149225 0.937787
10.98999977 0.81999999 0.56999999 27 33 225 97.000000 1.000000 4.000000 1.000000 -60.708740 114.000000 1.000000 0.895617 -0.017249 0.444491
10.97999954 0.81999999 0.57999998 27 33 225 97.000000 1.000000 4.000000 1.000000 -60.708740 114.000000 1.000000 0.765506 0.015282 0.643247
10.94999981 0.86000001 0.60000002 27 33 225 97.000000 1.000000 4.000000 1.000000 -60.708740 114.000000 1.000000 0.277368 0.062060 0.958757
10.93999958 0.87000000 0.56999999 27 33 225 97.000000 1.000000 4.000000 1.000000 -60.708740 114.000000 1.000000 0.618599 0.438522 0.651947
10.97000027 0.88000000 0.52999997 27 33 225 97.000000 1.000000 4.000000 1.000000 -60.708740 114.000000 1.000000 0.805478 -0.052377 0.590306
10.97999954 0.88000000 0.50999999 27 33 225 97.000000 1.000000 4.000000 1.000000 -60.708740 114.000000 1.000000 0.527558 -0.020448 0.849273
10.97000027 0.81000000 0.52999997 27 33 225 97.000000 1.000000 4.000000 1.000000 -60.708740 114.000000 1.000000 0.591676 0.387309 0.707044
10.96000004 0.83999997 0.51999998 27 33 225 97.000000 1.000000 4.000000 1.000000 -60.708740 114.000000 1.000000 0.375967 0.401136 0.835307
10.94999981 0.86000001 0.56000000 27 33 225 97.000000 1.000000 4.000000 1.000000 -60.708740 114.000000 1.000000 0.633482 -0.276051 0.722839
10.94999981 0.85000002 0.56000000 27 33 225 97.000000 1.000000 4.000000 1.000000 -60.708740 114.000000 1.000000 0.304103 0.084836 0.948854
10.92000008 0.88000000 0.52999997 27 33 225 97.000000 1.000000 4.000000 1.000000 -60.708740 114.000000 1.000000 0.715327 0.098413 0.691825
10.93999958 0.81999999 0.52999997 27 33 225 97.000000 1.000000 4.000000 1.000000 -60.708740 114.000000 1.000000 0.751859 0.123573 0.647641
10.93000031 0.81999999 0.49000001 27 33 225 97.000000 1.000000 4.000000 1.000000 -60.708740 114.000000 1.000000 0.744174 0.366388 0.558538
10.92000008 0.82999998 0.50000000 27 33 225 97.000000 1.000000 4.000000 1.000000 -60.708740 114.000000 1.000000 0.735417 0.416243 0.534699
10.94999981 0.81000000 0.51999998 27 33 225 97.000000 1.000000 4.000000 1.000000 -60.708740 114.000000 1.000000 0.758319 -0.046950 0.650191
10.93000031 0.81999999 0.49000001 27 33 225 97.000000 1.000000 4.000000 1.000000 -60.708740 114.000000 1.000000 0.744174 0.366388 0.558538
10.93999958 0.82999998 0.51999998 27 33 225 97.000000 1.000000 4.000000 1.000000 -60.708740 114.000000 1.000000 0.830951 0.046086 0.554433
10.88000011 0.92000002 0.56999999 27 33 225 97.000000 1.000000 4.000000 1.000000 -60.708740 114.000000 1.000000 0.460046 -0.214288 0.861649
10.89000034 0.88999999 0.54000002 27 33 225 97.000000 1.000000 4.000000 1.000000 -60.708740 114.000000 1.000000 0.551544 -0.172827 0.816045
10.85999966 0.93000001 0.54000002 27 33 225 97.000000 1.000000 4.000000 1.000000 -60.708740 114.000000 1.000000 0.726670 -0.070789 0.683330
10.84000015 0.95999998 0.56000000 27 33 225 97.000000 1.000000 4.000000 1.000000 -60.708740 114.000000 1.000000 0.579101 0.090981 0.810163
10.82999992 0.93000001 0.50999999 27 33 225 97.000000 1.000000 4.000000 1.000000 -60.708740 114.000000 1.000000 0.772811 0.009677 0.634562
10.85999966 0.91000003 0.54000002 27 33 225 97.000000 1.000000 4.000000 1.000000 -60.708740 114.000000 1.000000 0.829862 0.171953 0.530812
10.82999992 0.89999998 0.49000001 27 33 225 97.000000 1.000000 4.000000 1.000000 -60.708740 114.000000 1.000000 0.691928 -0.146225 0.707003
10.89000034 0.81999999 0.54000002 27 33 225 97.000000 1.000000 4.000000 1.000000 -60.708740 114.000000 1.000000 0.402382 -0.301404 0.864433
10.89999962 0.83999997 0.50000000 27 33 225 97.000000 1.000000 4.000000 1.000000 -60.708740 114.000000 1.000000 0.483960 -0.088891 0.870564
10.89999962 0.83999997 0.50000000 27 33 225 97.000000 1.000000 4.000000 1.000000 -60.708740 114.000000 1.000000 0.483960 -0.088891 0.870564
10.90999985 0.81000000 0.50000000 27 33 225 97.000000 1.000000 4.000000 1.000000 -60.708740 114.000000 1.000000 0.404459 0.112581 0.907600
10.85000038 0.82999998 0.51999998 27 33 225 97.000000 1.000000 4.000000 1.000000 -60.708740 114.000000 1.000000 0.239921 0.288189 0.927030
10.82999992 0.83999997 0.51999998 27 33 225 97.000000 1.000000 4.000000 1.000000 -60.708740 114.000000 1.000000 0.383152 0.370641 0.846062
10.84000015 0.81000000 0.51999998 27 33 225 97.000000 1.000000 4.000000 1.000000 -60.708740 114.000000 1.000000 0.314615 -0.204570 0.926914
10.92000008 0.81000000 0.41000000 27 33 225 97.000000 1.000000 4.000000 1.000000 -60.708740 114.000000 1.000000 0.685050 -0.089100 0.723027
10.82999992 0.88999999 0.43000001 27 33 225 97.000000 1.000000 4.000000 1.000000 -60.708740 114.000000 1.000000 0.843425 0.319597 0.431846
10.86999989 0.91000003 0.38999999 27 33 225 97.000000 1.000000 4.000000 1.000000 -60.708740 114.000000 1.000000 0.624495 0.486466 0.611029
10.88000011 0.81999999 0.44999999 27 33 225 97.000000 1.000000 4.000000 1.000000 -60.708740 114.000000 1.000000 0.432347 0.228889 0.872173
10.89000034 0.81000000 0.47000000 27 33 225 97.000000 1.000000 4.000000 1.000000 -60.708740 114.000000 1.000000 0.680649 0.459898 0.570273
10.88000011 0.81999999 0.44999999 27 33 225 97.000000 1.000000 4.000000 1.000000 -60.708740 114.000000 1.000000 0.432347 0.228889 0.872173
10.88000011 0.82999998 0.41999999 27 33 225 97.000000 1.000000 4.000000 1.000000 -60.708740 114.000000 1.000000 0.846489 0.074898 0.527112
10.89999962 0.82999998 0.44000000 27 33 225 97.000000 1.000000 4.000000 1.000000 -60.708740 114.000000 1.000000 0.352195 0.355271 0.865876
10.90999985 0.81999999 0.44000000 27 33 225 97.000000 1.000000 4.000000 1.000000 -60.708740 114.000000 1.000000 0.657839 0.467016 0.590884
10.89999962 0.81000000 0.40000001 27 33 225 97.000000 1.000000 4.000000 1.000000 -60.708740 114.000000 1.000000 0.415229 0.162356 0.895112
10.89999962 0.82999998 0.44000000 27 33 225 97.000000 1.000000 4.000000 1.000000 -60.708740 114.000000 1.000000 0.352195 0.355271 0.865876
10.89999962 0.81000000 0.41000000 27 33 225 97.000000 1.000000 4.000000 1.000000 -60.708740 114.000000 1.000000 0.537962 -0.069187 0.840125
10.82999992 0.85000002 0.46000001 27 33 225 97.000000 1.000000 4.000000 1.000000 -60.708740 114.000000 1.000000 0.384159 -0.182727 0.905004
10.82999992 0.88000000 0.43000001 27 33 225 97.000000 1.000000 4.000000 1.000000 -60.708740 114.000000 1.000000 0.827143 0.009570 0.561910
10.84000015 0.81000000 0.44999999 27 33 225 97.000000 1.000000 4.000000 1.000000 -60.708740 114.000000 1.000000 0.724010 0.067921 0.686437
10.86999989 0.81000000 0.44999999 27 33 225 97.000000 1.000000 4.000000 1.000000 -60.708740 114.000000 1.000000 0.615182 -0.225826 0.755350
10.85000038 0.81999999 0.43000001 27 33 225 97.000000 1.000000 4.000000 1.000000 -60.708740 114.000000 1.000000 0.793016 0.378009 0.477740
10.89000034 0.85000002 0.36000001 27 33 225 97.000000 1.000000 4.000000 1.000000 -60.708740 114.000000 1.000000 0.759466 0.617163 0.205721
10.88000011 0.85000002 0.38000000 27 33 225 97.000000 1.000000 4.000000 1.000000 -60.708740 114.000000 1.000000 0.745285 0.580384 0.328184
10.89000034 0.82999998 0.38999999 27 33 225 97.000000 1.000000 4.000000 1.000000 -60.708740 114.000000 1.000000 0.634049 0.590321 0.499503
10.90999985 0.81000000 0.38999999 27 33 225 97.000000 1.000000 4.000000 1.000000 -60.708740 114.000000 1.000000 0.852030 0.432948 0.294281
10.89999962 0.81999999 0.38000000 27 33 225 97.000000 1.000000 4.000000 1.000000 -60.708740 114.000000 1.000000 0.594696 0.043583 0.802769
10.90999985 0.82999998 0.38000000 27 33 225 97.000000 1.000000 4.000000 1.000000 -60.708740 114.000000 1.000000 0.857216 0.306259 0.413988
10.82999992 0.87000000 0.38000000 27 33 225 97.000000 1.000000 4.000000 1.000000 -60.708740 114.000000 1.000000 0.819150 0.265796 0.508277
10.82999992 0.85000002 0.38000000 27 33 225 97.000000 1.000000 4.000000 1.000000 -60.708740 114.000000 1.000000 0.651645 -0.023824 0.758150
10.84000015 0.85000002 0.34999999 27 33 225 97.000000 1.000000 4.000000 1.000000 -60.708740 114.000000 1.000000 0.644580 0.699506 0.308558
10.82999992 0.85000002 0.31999999 27 33 225 97.000000 1.000000 4.000000 1.000000 -60.708740 114.000000 1.000000 0.579935 0.784072 0.221149
10.82999992 0.82999998 0.37000000 27 33 225 97.000000 1.000000 4.000000 1.000000 -60.708740 114.000000 1.000000 0.942797 0.018982 0.332826
10.85000038 0.83999997 0.31999999 27 33 225 97.000000 1.000000 4.000000 1.000000 -60.708740 114.000000 1.000000 0.847102 0.528916 0.051636
10.96000004 0.77999997 0.54000002 27 33 225 97.000000 1.000000 4.000000 1.000000 -60.708740 114.000000 1.000000 0.743513 0.309931 0.592563
10.96000004 0.77999997 0.54000002 27 33 225 97.000000 1.000000 4.000000 1.000000 -60.708740 114.000000 1.000000 0.743513 0.309931 0.592563
10.98999977 0.80000001 0.51999998 27 33 225 97.000000 1.000000 4.000000 1.000000 -60.708740 114.000000 1.000000 0.828983 0.198532 0.522850
10.92000008 0.79000002 0.54000002 27 33 225 97.000000 1.000000 4.000000 1.000000 -60.708740 114.000000 1.000000 0.664650 -0.165782 0.728530
10.94999981 0.80000001 0.51999998 27 33 225 97.000000 1.000000 4.000000 1.000000 -60.708740 114.000000 1.000000 0.260560 0.156336 0.952716
10.94999981 0.79000002 0.51999998 27 33 225 97.000000 1.000000 4.000000 1.000000 -60.708740 114.000000 1.000000 0.316001 0.079984 0.945381
10.94999981 0.80000001 0.51999998 27 33 225 97.000000 1.000000 4.000000 1.000000 -60.708740 114.000000 1.000000 0.260560 0.156336 0.952716
10.90999985 0.79000002 0.51999998 27 33 225 97.000000 1.000000 4.000000 1.000000 -60.708740 114.000000 1.000000 0.388953 -0.049117 0.919947
10.84000015 0.80000001 0.50999999 27 33 225 97.000000 1.000000 4.000000 1.000000 -60.708740 114.000000 1.000000 0.211174 -0.064695 0.975305
10.85999966 0.75999999 0.50999999 27 33 225 97.000000 1.000000 4.000000 1.000000 -60.708740 114.000000 1.000000 0.703437 -0.101755 0.703437
10.85000038 0.77999997 0.51999998 27 33 225 97.000000 1.000000 4.000000 1.000000 -60.708740 114.000000 1.000000 0.540679 0.237031 0.807145
10.85000038 0.77999997 0.51999998 27 33 225 97.000000 1.000000 4.000000 1.000000 -60.708740 114.000000 1.000000 0.540679 0.237031 0.807145
10.96000004 0.75000000 0.44000000 27 33 225 97.000000 1.000000 4.000000 1.000000 -60.708740 114.000000 1.000000 0.787392 -0.058378 0.613682
10.92000008 0.80000001 0.47999999 27 33 225 97.000000 1.000000 4.000000 1.000000 -60.708740 114.000000 1.000000 0.510309 0.415139 0.753157
10.93000031 0.75999999 0.47000000 27 33 225 97.000000 1.000000 4.000000 1.000000 -60.708740 114.000000 1.000000 0.288787 -0.013518 0.957298
10.92000008 0.79000002 0.41999999 27 33 225 97.000000 1.000000 4.000000 1.000000 -60.708740 114.000000 1.000000 0.575589 -0.112774 0.809925
10.92000008 0.79000002 0.41999999 27 33 225 97.000000 1.000000 4.000000 1.000000 -60.708740 114.000000 1.000000 0.575589 -0.112774 0.809925
10.92000008 0.79000002 0.43000001 27 33 225 97.000000 1.000000 4.000000 1.000000 -60.708740 114.000000 1.000000 0.611438 0.510374 0.604700
10.92000008 0.80000001 0.43000001 27 33 225 97.000000 1.000000 4.000000 1.000000 -60.708740 114.000000 1.000000 0.837093 -0.102295 0.537411
10.93000031 0.74000001 0.41999999 27 33 225 97.000000 1.000000 4.000000 1.000000 -60.708740 114.000000 1.000000 0.671441 -0.196030 0.714660
10.96000004 0.68000001 0.40000001 27 33 225 97.000000 1.000000 4.000000 1.000000 -60.708740 114.000000 1.000000 0.646000 -0.265066 0.715838
10.94999981 0.68000001 0.41000000 27 33 225 97.000000 1.000000 4.000000 1.000000 -60.708740 114.000000 1.000000 0.433142 -0.078378 0.897911
10.93000031 0.68000001 0.41000000 27 33 225 97.000000 1.000000 4.000000 1.000000 -60.708740 114.000000 1.000000 0.465171 0.311680 0.828536
10.90999985 0.77999997 0.47000000 27 33 225 97.000000 1.000000 4.000000 1.000000 -60.708740 114.000000 1.000000 0.810648 -0.183343 0.556089
10.89000034 0.79000002 0.47999999 27 33 225 97.000000 1.000000 4.000000 1.000000 -60.708740 114.000000 1.000000 0.283243 0.111980 0.952488
10.89999962 0.79000002 0.47000000 27 33 225 97.000000 1.000000 4.000000 1.000000 -60.708740 114.000000 1.000000 0.669836 0.268889 0.692111
10.90999985 0.77999997 0.43000001 27 33 225 97.000000 1.000000 4.000000 1.000000 -60.708740 114.000000 1.000000 0.533569 0.031711 0.845162
10.89000034 0.75999999 0.43000001 27 33 225 97.000000 1.000000 4.000000 1.000000 -60.708740 114.000000 1.000000 0.689995 -0.162979 0.705227
10.89000034 0.75999999 0.43000001 27 33 225 97.000000 1.000000 4.000000 1.000000 -60.708740 114.000000 1.000000 0.689995 -0.162979 0.705227
10.89999962 0.75000000 0.46000001 27 33 225 97.000000 1.000000 4.000000 1.000000 -60.708740 114.000000 1.000000 0.810085 0.097094 0.578218
10.88000011 0.75000000 0.43000001 27 33 225 97.000000 1.000000 4.000000 1.000000 -60.708740 114.000000 1.000000 0.209558 -0.101642 0.972499
10.89999962 0.73000002 0.41999999 27 33 225 97.000000 1.000000 4.000000 1.000000 -60.708740 114.000000 1.000000 0.381990 -0.320626 0.866765
10.89999962 0.75000000 0.41999999 27 33 225 97.000000 1.000000 4.000000 1.000000 -60.708740 114.000000 1.000000 0.686332 -0.041208 0.726120
10.89000034 0.73000002 0.43000001 27 33 225 97.000000 1.000000 4.000000 1.000000 -60.708740 114.000000 1.000000 0.739747 -0.206261 0.640493
10.89999962 0.73000002 0.41999999 27 33 225 97.000000 1.000000 4.000000 1.000000 -60.708740 114.000000 1.000000 0.381990 -0.320626 0.866765
10.85000038 0.75999999 0.47999999 27 33 225 97.000000 1.000000 4.000000 1.000000 -60.708740 114.000000 1.000000 0.249741 -0.115166 0.961440
10.85000038 0.75999999 0.47999999 27 33 225 97.000000 1.000000 4.000000 1.000000 -60.708740 114.000000 1.000000 0.249741 -0.115166 0.961440
10.86999989 0.80000001 0.41000000 27 33 225 97.000000 1.000000 4.000000 1.000000 -60.708740 114.000000 1.000000 0.602005 0.113336 0.790408
10.86999989 0.72000003 0.41999999 27 33 225 97.000000 1.000000 4.000000 1.000000 -60.708740 114.000000 1.000000 0.448485 -0.081921 0.890028
10.89999962 0.77999997 0.31999999 27 33 225 97.000000 1.000000 4.000000 1.000000 -60.708740 114.000000 1.000000 0.722951 0.664375 0.189601
10.88000011 0.76999998 0.34000000 27 33 225 97.000000 1.000000 4.000000 1.000000 -60.708740 114.000000 1.000000 0.876773 0.399905 0.267106
10.85999966 0.80000001 0.31999999 27 33 225 97.000000 1.000000 4.000000 1.000000 -60.708740 114.000000 1.000000 0.905337 0.411769 0.103982
10.85000038 0.80000001 0.33000001 27 33 225 97.000000 1.000000 4.000000 1.000000 -60.708740 114.000000 1.000000 0.829357 0.214568 0.515875
10.81999969 0.95999998 0.55000001 27 33 225 97.000000 1.000000 4.000000 1.000000 -60.708740 114.000000 1.000000 0.860492 0.240454 0.449150
10.81000042 0.92000002 0.56000000 27 33 225 97.000000 1.000000 4.000000 1.000000 -60.708740 114.000000 1.000000 0.651389 -0.315188 0.690181
10.77999973 0.91000003 0.50999999 27 33 225 97.000000 1.000000 4.000000 1.000000 -60.708740 114.000000 1.000000 0.465342 -0.234945 0.853380
10.77000046 0.91000003 0.51999998 27 33 225 97.000000 1.000000 4.000000 1.000000 -60.708740 114.000000 1.000000 0.314418 -0.276395 0.908156
10.81000042 0.85000002 0.52999997 27 33 225 97.000000 1.000000 4.000000 1.000000 -60.708740 114.000000 1.000000 0.290191 0.129717 0.948136
10.81000042 0.85000002 0.52999997 27 33 225 97.000000 1.000000 4.000000 1.000000 -60.708740 114.000000 1.000000 0.290191 0.129717 0.948136
10.80000019 0.86000001 0.50000000 27 33 225 97.000000 1.000000 4.000000 1.000000 -60.708740 114.000000 1.000000 0.368063 -0.171952 0.913763
10.78999996 0.85000002 0.49000001 27 33 225 97.000000 1.000000 4.000000 1.000000 -60.708740 114.000000 1.000000 0.509320 -0.051348 0.859044
10.78999996 0.83999997 0.52999997 27 33 225 97.000000 1.000000 4.000000 1.000000 -60.708740 114.000000 1.000000 0.201537 0.087786 0.975539
10.78999996 0.83999997 0.52999997 27 33 225 97.000000 1.000000 4.000000 1.000000 -60.708740 114.000000 1.000000 0.201537 0.087786 0.975539
10.78999996 0.81999999 0.49000001 27 33 225 97.000000 1.000000 4.000000 1.000000 -60.708740 114.000000 1.000000 0.320626 0.155497 0.934355
10.73999977 0.95999998 0.56000000 27 33 225 97.000000 1.000000 4.000000 1.000000 -60.708740 114.000000 1.000000 0.467841 -0.290652 0.834653
10.72999954 0.87000000 0.50999999 27 33 225 97.000000 1.000000 4.000000 1.000000 -60.708740 114.000000 1.000000 0.080373 -0.124637 0.988942
10.73999977 0.85000002 0.50000000 27 33 225 97.000000 1.000000 4.000000 1.000000 -60.708740 114.000000 1.000000 0.061093 -0.328865 0.942399
10.72000027 0.83999997 0.49000001 27 33 225 97.000000 1.000000 4.000000 1.000000 -60.708740 114.000000 1.000000 0.008611 -0.293988 0.955770
10.68000031 0.87000000 0.54000002 27 33 225 97.000000 1.000000 4.000000 1.000000 -60.708740 114.000000 1.000000 0.248738 -0.564745 0.786888
10.67000008 0.86000001 0.50000000 27 33 225 97.000000 1.000000 4.000000 1.000000 -60.708740 114.000000 1.000000 0.309787 -0.044620 0.949758
10.68000031 0.86000001 0.49000001 27 33 225 97.000000 1.000000 4.000000 1.000000 -60.708740 114.000000 1.000000 -0.019053 -0.007020 0.999794
10.69999981 0.88000000 0.49000001 27 33 225 97.000000 1.000000 4.000000 1.000000 -60.708740 114.000000 1.000000 0.409698 -0.207052 0.888413
10.81999969 0.89999998 0.46000001 27 33 225 97.000000 1.000000 4.000000 1.000000 -60.708740 114.000000 1.000000 0.731524 0.047057 0.680189
10.81000042 0.88999999 0.47000000 27 33 225 97.000000 1.000000 4.000000 1.000000 -60.708740 114.000000 1.000000 0.746973 0.254255 0.614318
10.81000042 0.85000002 0.47000000 27 33 225 97.000000 1.000000 4.000000 1.000000 -60.708740 114.000000 1.000000 0.301971 0.018640 0.953135
10.80000019 0.81000000 0.46000001 27 33 225 97.000000 1.000000 4.000000 1.000000 -60.708740 114.000000 1.000000 0.368788 -0.428933 0.824628
10.78999996 0.83999997 0.40000001 27 33 225 97.000000 1.000000 4.000000 1.000000 -60.708740 114.000000 1.000000 0.747407 -0.145872 0.648154
10.77000046 0.82999998 0.46000001 27 33 225 97.000000 1.000000 4.000000 1.000000 -60.708740 114.000000 1.000000 0.424697 0.092686 0.900579
10.80000019 0.85000002 0.38999999 27 33 225 97.000000 1.000000 4.000000 1.000000 -60.708740 114.000000 1.000000 0.807273 0.115743 0.578717
10.71000004 0.88999999 0.47000000 27 33 225 97.000000 1.000000 4.000000 1.000000 -60.708740 114.000000 1.000000 0.228536 0.270597 0.935173
10.71000004 0.88999999 0.47000000 27 33 225 97.000000 1.000000 4.000000 1.000000 -60.708740 114.000000 1.000000 0.228536 0.270597 0.935173
10.72000027 0.88999999 0.41999999 27 33 225 97.000000 1.000000 4.000000 1.000000 -60.708740 114.000000 1.000000 0.812445 -0.106478 0.573233
10.71000004 0.88999999 0.44000000 27 33 225 97.000000 1.000000 4.000000 1.000000 -60.708740 114.000000 1.000000 0.276815 0.128474 0.952296
10.67000008 0.89999998 0.46000001 27 33 225 97.000000 1.000000 4.000000 1.000000 -60.708740 114.000000 1.000000 0.253664 -0.132746 0.958140
10.67000008 0.89999998 0.44999999 27 33 225 97.000000 1.000000 4.000000 1.000000 -60.708740 114.000000 1.000000 0.047731 -0.236207 0.970530
10.67000008 0.91000003 0.41999999 27 33 225 97.000000 1.000000 4.000000 1.000000 -60.708740 114.000000 1.000000 0.136919 -0.269851 0.953118
10.68000031 0.93000001 0.37000000 27 33 225 97.000000 1.000000 4.000000 1.000000 -60.708740 114.000000 1.000000 0.712794 0.219921 0.666002
10.67000008 0.92000002 0.37000000 27 33 225 97.000000 1.000000 4.000000 1.000000 -60.708740 114.000000 1.000000 0.436385 0.465804 0.769802
10.72999954 0.87000000 0.44999999 27 33 225 97.000000 1.000000 4.000000 1.000000 -60.708740 114.000000 1.000000 0.465033 0.347584 0.814205
10.73999977 0.87000000 0.47000000 27 33 225 97.000000 1.000000 4.000000 1.000000 -60.708740 114.000000 1.000000 0.496858 -0.383568 0.778465
10.72000027 0.85000002 0.44999999 27 33 225 97.000000 1.000000 4.000000 1.000000 -60.708740 114.000000 1.000000 0.097821 -0.031874 0.994694
10.71000004 0.86000001 0.47999999 27 33 225 97.000000 1.000000 4.000000 1.000000 -60.708740 114.000000 1.000000 0.680843 -0.261863 0.684018
10.71000004 0.86000001 0.47999999 27 33 225 97.000000 1.000000 4.000000 1.000000 -60.708740 114.000000 1.000000 0.680843 -0.261863 0.684018
10.73999977 0.86000001 0.44000000 27 33 225 97.000000 1.000000 4.000000 1.000000 -60.708740 114.000000 1.000000 0.386385 0.373871 0.843165
10.71000004 0.88000000 0.44000000 27 33 225 97.000000 1.000000 4.000000 1.000000 -60.708740 114.000000 1.000000 0.293092 -0.016077 0.955949
10.72000027 0.88000000 0.41999999 27 33 225 97.000000 1.000000 4.000000 1.000000 -60.708740 114.000000 1.000000 0.346815 0.227824 0.909844
10.72000027 0.86000001 0.40000001 27 33 225 97.000000 1.000000 4.000000 1.000000 -60.708740 114.000000 1.000000 0.208912 0.115218 0.971123
10.71000004 0.83999997 0.44999999 27 33 225 97.000000 1.000000 4.000000 1.000000 -60.708740 114.000000 1.000000 0.188780 -0.251254 0.949333
10.71000004 0.83999997 0.44999999 27 33 225 97.000000 1.000000 4.000000 1.000000 -60.708740 114.000000 1.000000 0.188780 -0.251254 0.949333
10.67000008 0.86000001 0.47000000 27 33 225 97.000000 1.000000 4.000000 1.000000 -60.708740 114.000000 1.000000 0.516050 -0.117087 0.848518
10.68999958 0.86000001 0.47000000 27 33 225 97.000000 1.000000 4.000000 1.000000 -60.708740 114.000000 1.000000 0.475798 -0.436557 0.763566
10.68999958 0.87000000 0.46000001 27 33 225 97.000000 1.000000 4.000000 1.000000 -60.708740 114.000000 1.000000 0.482574 -0.321188 0.814838
10.67000008 0.86000001 0.47000000 27 33 225 97.000000 1.000000 4.000000 1.000000 -60.708740 114.000000 1.000000 0.516050 -0.117087 0.848518
10.67000008 0.86000001 0.47000000 27 33 225 97.000000 1.000000 4.000000 1.000000 -60.708740 114.000000 1.000000 0.516050 -0.117087 0.848518
10.80000019 0.80000001 0.49000001 27 33 225 97.000000 1.000000 4.000000 1.000000 -60.708740 114.000000 1.000000 0.437577 -0.236081 0.867636
10.77000046 0.79000002 0.47999999 27 33 225 97.000000 1.000000 4.000000 1.000000 -60.708740 114.000000 1.000000 0.535711 0.060461 0.842234
10.84000015 0.85000002 0.31000000 27 33 225 97.000000 1.000000 4.000000 1.000000 -60.708740 114.000000 1.000000 0.807233 0.572347 0.144202
10.85000038 0.81000000 0.28000000 27 33 225 97.000000 1.000000 4.000000 1.000000 -60.708740 114.000000 1.000000 0.892416 0.262825 0.366766
10.85000038 0.82999998 0.30000001 27 33 225 97.000000 1.000000 4.000000 1.000000 -60.708740 114.000000 1.000000 0.706162 0.671715 0.223905
10.85000038 0.81999999 0.25999999 27 33 225 97.000000 1.000000 4.000000 1.000000 -60.708740 114.000000 1.000000 0.929088 0.369856 0.001271
10.85000038 0.81000000 0.27000001 27 33 225 97.000000 1.000000 4.000000 1.000000 -60.708740 114.000000 1.000000 0.655427 0.755196 -0.009700
10.84000015 0.81000000 0.25000000 27 33 225 97.000000 1.000000 4.000000 1.000000 -60.708740 114.000000 1.000000 0.796117 0.477670 -0.371521
10.85999966 0.81000000 0.23999999 27 33 225 97.000000 1.000000 4.000000 1.000000 -60.708740 114.000000 1.000000 0.692714 0.720816 -0.023887
10.84000015 0.81000000 0.19000000 27 33 225 97.000000 1.000000 4.000000 1.000000 -60.708740 114.000000 1.000000 -0.240760 -0.668779 0.703398
10.85000038 0.82999998 0.20999999 27 33 225 97.000000 1.000000 4.000000 1.000000 -60.708740 114.000000 1.000000 0.913313 0.367882 -0.174708
10.85000038 0.81000000 0.23000000 27 33 225 97.000000 1.000000 4.000000 1.000000 -60.708740 114.000000 1.000000 0.763113 0.645926 -0.020926
10.84000015 0.81000000 0.20000000 27 33 225 97.000000 1.000000 4.000000 1.000000 -60.708740 114.000000 1.000000 0.566827 0.657654 -0.496184
10.82999992 0.81000000 0.19000000 27 33 225 97.000000 1.000000 4.000000 1.000000 -60.708740 114.000000 1.000000 0.313856 0.748426 -0.584255
10.85999966 0.81000000 0.22000000 27 33 225 97.000000 1.000000 4.000000 1.000000 -60.708740 114.000000 1.000000 0.919853 0.392005 -0.014231
10.85000038 0.81000000 0.20999999 27 33 225 97.000000 1.000000 4.000000 1.000000 -60.708740 114.000000 1.000000 0.856764 0.399823 -0.325725
10.84000015 0.91000003 -0.01000000 27 33 225 97.000000 1.000000 4.000000 1.000000 -60.708740 114.000000 1.000000 -0.192403 -0.651091 0.734209
10.89000034 0.81000000 0.12000000 27 33 225 97.000000 1.000000 4.000000 1.000000 -60.708740 114.000000 1.000000 0.226259 0.756798 -0.613240
10.85000038 0.81999999 0.10000000 27 33 225 97.000000 1.000000 4.000000 1.000000 -60.708740 114.000000 1.000000 0.449703 0.742916 -0.495826
10.85000038 0.86000001 -0.01000000 27 33 225 97.000000 1.000000 4.000000 1.000000 -60.708740 114.000000 1.000000 0.043356 -0.374437 0.926238
10.92000008 0.75000000 0.23999999 27 33 225 97.000000 1.000000 4.000000 1.000000 -60.708740 114.000000 1.000000 0.946528 0.311133 0.085332
10.92000008 0.75000000 0.25000000 27 33 225 97.000000 1.000000 4.000000 1.000000 -60.708740 114.000000 1.000000 0.782899 0.598153 0.171117
10.92000008 0.73000002 0.23999999 27 33 225 97.000000 1.000000 4.000000 1.000000 -60.708740 114.000000 1.000000 0.851881 0.428260 0.301483
10.97000027 0.73000002 0.17000000 27 33 225 97.000000 1.000000 4.000000 1.000000 -60.708740 114.000000 1.000000 0.873098 0.479431 -0.088575
10.97000027 0.72000003 0.18000001 27 33 225 97.000000 1.000000 4.000000 1.000000 -60.708740 114.000000 1.000000 0.886148 0.402255 0.230072
10.97000027 0.73000002 0.16000000 27 33 225 97.000000 1.000000 4.000000 1.000000 -60.708740 114.000000 1.000000 0.795564 0.401816 -0.453455
10.92000008 0.75999999 0.23000000 27 33 225 97.000000 1.000000 4.000000 1.000000 -60.708740 114.000000 1.000000 0.835022 0.460432 0.301232
10.94999981 0.72000003 0.23000000 27 33 225 97.000000 1.000000 4.000000 1.000000 -60.708740 114.000000 1.000000 0.783925 0.620780 0.009678
10.94999981 0.72000003 0.18000001 27 33 225 97.000000 1.000000 4.000000 1.000000 -60.708740 114.000000 1.000000 0.843165 0.373871 -0.386385
10.94999981 0.75000000 0.17000000 27 33 225 97.000000 1.000000 4.000000 1.000000 -60.708740 114.000000 1.000000 0.392230 0.836442 -0.382779
10.93999958 0.75000000 0.16000000 27 33 225 97.000000 1.000000 4.000000 1.000000 -60.708740 114.000000 1.000000 0.740025 0.667044 -0.086117
10.96000004 0.70999998 0.23000000 27 33 225 97.000000 1.000000 4.000000 1.000000 -60.708740 114.000000 1.000000 0.729090 0.675850 -0.107959
10.96000004 0.70999998 0.22000000 27 33 225 97.000000 1.000000 4.000000 1.000000 -60.708740 114.000000 1.000000 0.711226 0.699685 0.067805
10.96000004 0.70999998 0.23000000 27 33 225 97.000000 1.000000 4.000000 1.000000 -60.708740 114.000000 1.000000 0.729090 0.675850 -0.107959
10.97000027 0.69999999 0.20999999 27 33 225 97.000000 1.000000 4.000000 1.000000 -60.708740 114.000000 1.000000 0.791073 0.605280 0.088542
10.97000027 0.69999999 0.18000001 27 33 225 97.000000 1.000000 4.000000 1.000000 -60.708740 114.000000 1.000000 0.901388 0.384650 0.198857
10.97000027 0.70999998 0.18000001 27 33 225 97.000000 1.000000 4.000000 1.000000 -60.708740 114.000000 1.000000 0.908629 0.405218 0.100959
10.98999977 0.70999998 0.18000001 27 33 225 97.000000 1.000000 4.000000 1.000000 -60.708740 114.000000 1.000000 0.690311 0.723512 0.001383
10.94999981 0.70999998 0.20999999 27 33 225 97.000000 1.000000 4.000000 1.000000 -60.708740 114.000000 1.000000 0.628274 0.749275 -0.209425
10.92000008 0.70999998 0.20000000 27 33 225 97.000000 1.000000 4.000000 1.000000 -60.708740 114.000000 1.000000 0.567909 0.788848 -0.234943
10.89000034 0.77999997 0.28000000 27 33 225 97.000000 1.000000 4.000000 1.000000 -60.708740 114.000000 1.000000 0.837222 0.475096 0.270820
10.89999962 0.76999998 0.25000000 27 33 225 97.000000 1.000000 4.000000 1.000000 -60.708740 114.000000 1.000000 0.845427 0.530326 0.063302
10.89000034 0.77999997 0.25000000 27 33 225 97.000000 1.000000 4.000000 1.000000 -60.708740 114.000000 1.000000 0.774811 0.615952 0.142373
10.88000011 0.77999997 0.25999999 27 33 225 97.000000 1.000000 4.000000 1.000000 -60.708740 114.000000 1.000000 0.776446 0.602547 0.184578
10.89999962 0.75999999 0.25000000 27 33 225 97.000000 1.000000 4.000000 1.000000 -60.708740 114.000000 1.000000 0.862323 0.480374 0.160125
10.89999962 0.76999998 0.25999999 27 33 225 97.000000 1.000000 4.000000 1.000000 -60.708740 114.000000 1.000000 0.787783 0.559122 0.258418
10.89999962 0.76999998 0.23999999 27 33 225 97.000000 1.000000 4.000000 1.000000 -60.708740 114.000000 1.000000 0.900144 0.341434 0.270487
10.89000034 0.79000002 0.27000001 27 33 225 97.000000 1.000000 4.000000 1.000000 -60.708740 114.000000 1.000000 0.871673 0.451376 0.190910
10.88000011 0.79000002 0.25999999 27 33 225 97.000000 1.000000 4.000000 1.000000 -60.708740 114.000000 1.000000 0.637217 0.765535 -0.088948
10.89999962 0.72000003 0.23999999 27 33 225 97.000000 1.000000 4.000000 1.000000 -60.708740 114.000000 1.000000 0.910165 0.391273 -0.136034
10.85999966 0.80000001 0.30000001 27 33 225 97.000000 1.000000 4.000000 1.000000 -60.708740 114.000000 1.000000 0.872483 0.479371 0.094743
10.82999992 0.76999998 0.28999999 27 33 225 97.000000 1.000000 4.000000 1.000000 -60.708740 114.000000 1.000000 0.976419 0.158777 0.146275
10.85000038 0.77999997 0.23999999 27 33 225 97.000000 1.000000 4.000000 1.000000 -60.708740 114.000000 1.000000 0.603434 0.796645 -0.035002
10.85999966 0.80000001 0.27000001 27 33 225 97.000000 1.000000 4.000000 1.000000 -60.708740 114.000000 1.000000 0.966439 0.255355 0.028101
10.84000015 0.76999998 0.27000001 27 33 225 97.000000 1.000000 4.000000 1.000000 -60.708740 114.000000 1.000000 0.642041 0.665148 0.381263
10.88000011 0.76999998 0.20999999 27 33 225 97.000000 1.000000 4.000000 1.000000 -60.708740 114.000000 1.000000 0.672956 0.724373 -0.149714
10.89000034 0.75999999 0.19000000 27 33 225 97.000000 1.000000 4.000000 1.000000 -60.708740 114.000000 1.000000 0.533520 0.817860 -0.215548
10.89999962 0.75999999 0.20999999 27 33 225 97.000000 1.000000 4.000000 1.000000 -60.708740 114.000000 1.000000 0.769348 0.632640 0.088715
10.90999985 0.72000003 0.18000001 27 33 225 97.000000 1.000000 4.000000 1.000000 -60.708740 114.000000 1.000000 0.397468 0.855252 -0.332512
10.85999966 0.77999997 0.17000000 27 33 225 97.000000 1.000000 4.000000 1.000000 -60.708740 114.000000 1.000000 0.471104 0.834928 -0.284528
10.82999992 0.80000001 0.18000001 27 33 225 97.000000 1.000000 4.000000 1.000000 -60.708740 114.000000 1.000000 0.622527 0.700955 -0.348027
10.85000038 0.80000001 0.15000001 27 33 225 97.000000 1.000000 4.000000 1.000000 -60.708740 114.000000 1.000000 -0.603913 -0.482794 0.634192
10.85999966 0.75999999 0.17000000 27 33 225 97.000000 1.000000 4.000000 1.000000 -60.708740 114.000000 1.000000 0.658458 0.677968 -0.326790
10.84000015 0.77999997 0.17000000 27 33 225 97.000000 1.000000 4.000000 1.000000 -60.708740 114.000000 1.000000 0.340522 0.889557 -0.304520
10.93000031 0.75000000 0.14000000 27 33 225 97.000000 1.000000 4.000000 1.000000 -60.708740 114.000000 1.000000 0.682174 0.322453 -0.656249
10.92000008 0.73000002 0.13000000 27 33 225 97.000000 1.000000 4.000000 1.000000 -60.708740 114.000000 1.000000 0.555255 0.788052 -0.265830
10.93000031 0.72000003 0.04000000 27 33 225 97.000000 1.000000 4.000000 1.000000 -60.708740 114.000000 1.000000 0.535326 0.300227 -0.789487
10.92000008 0.73000002 0.04000000 27 33 225 97.000000 1.000000 4.000000 1.000000 -60.708740 114.000000 1.000000 -0.028987 -0.553511 0.832337
10.92000008 0.77999997 0.01000000 27 33 225 97.000000 1.000000 4.000000 1.000000 -60.708740 114.000000 1.000000 -0.349394 -0.257991 0.900758
10.93000031 0.72000003 0.04000000 27 33 225 97.000000 1.000000 4.000000 1.000000 -60.708740 114.000000 1.000000 0.535326 0.300227 -0.789487
10.97999954 0.66000003 0.14000000 27 33 225 97.000000 1.000000 4.000000 1.000000 -60.708740 114.000000 1.000000 0.481777 0.846529 -0.226450
10.96000004 0.69999999 0.12000000 27 33 225 97.000000 1.000000 4.000000 1.000000 -60.708740 114.000000 1.000000 0.754071 0.407296 -0.515254
10.92000008 0.70999998 0.08000000 27 33 225 97.000000 1.000000 4.000000 1.000000 -60.708740 114.000000 1.000000 0.490445 0.530618 -0.691310
10.84000015 0.75999999 0.07000000 27 33 225 97.000000 1.000000 4.000000 1.000000 -60.708740 114.000000 1.000000 -0.475748 -0.410799 0.777758
10.84000015 0.75000000 0.07000000 27 33 225 97.000000 1.000000 4.000000 1.000000 -60.708740 114.000000 1.000000 -0.442605 -0.498547 0.745353
10.85999966 0.75000000 0.08000000 27 33 225 97.000000 1.000000 4.000000 1.000000 -60.708740 114.000000 1.000000 0.179124 0.724150 -0.665973
10.89999962 0.75999999 0.06000000 27 33 225 97.000000 1.000000 4.000000 1.000000 -60.708740 114.000000 1.000000 0.142111 0.617807 -0.773381
10.89999962 0.75999999 0.06000000 27 33 225 97.000000 1.000000 4.000000 1.000000 -60.708740 114.000000 1.000000 0.142111 0.617807 -0.773381
10.89000034 0.74000001 0.05000000 27 33 225 97.000000 1.000000 4.000000 1.000000 -60.708740 114.000000 1.000000 0.461272 0.635717 -0.618944
