//X Y Z R G B PointSourceId ScanDirectionFlag NumberOfReturns ReturnNumber GpsTime Intensity Classification Nx Ny Nz
1.92999995 1.13000000 0.23999999 161 58 146 97.000000 1.000000 4.000000 1.000000 -60.708740 114.000000 133.000000 -0.638216 0.023741 0.769491
1.89999998 1.12000000 0.25999999 161 58 146 97.000000 1.000000 4.000000 1.000000 -60.708740 114.000000 133.000000 -0.564428 -0.109385 0.818202
1.90999997 1.11000001 0.25999999 161 58 146 97.000000 1.000000 4.000000 1.000000 -60.708740 114.000000 133.000000 -0.580707 -0.352979 0.733611
1.90999997 1.07000005 0.28000000 161 58 146 97.000000 1.000000 4.000000 1.000000 -60.708740 114.000000 133.000000 0.680916 0.196092 -0.705621
1.89999998 1.09000003 0.28000000 161 58 146 97.000000 1.000000 4.000000 1.000000 -60.708740 114.000000 133.000000 0.801683 0.100392 -0.589259
1.90999997 1.09000003 0.28000000 161 58 146 97.000000 1.000000 4.000000 1.000000 -60.708740 114.000000 133.000000 -0.637581 -0.006915 0.770352
1.89999998 1.07000005 0.28000000 161 58 146 97.000000 1.000000 4.000000 1.000000 -60.708740 114.000000 133.000000 -0.533225 -0.430872 0.728025
1.86000001 1.13000000 0.28000000 161 58 146 97.000000 1.000000 4.000000 1.000000 -60.708740 114.000000 133.000000 -0.628297 0.326325 0.706226
1.87000000 1.13000000 0.28999999 161 58 146 97.000000 1.000000 4.000000 1.000000 -60.708740 114.000000 133.000000 0.884348 0.044967 -0.464657
1.87000000 1.12000000 0.28999999 161 58 146 97.000000 1.000000 4.000000 1.000000 -60.708740 114.000000 133.000000 0.770436 0.276851 -0.574267
1.87000000 1.13000000 0.28999999 161 58 146 97.000000 1.000000 4.000000 1.000000 -60.708740 114.000000 133.000000 0.884348 0.044967 -0.464657
1.88000000 1.13000000 0.31000000 161 58 146 97.000000 1.000000 4.000000 1.000000 -60.708740 114.000000 133.000000 0.853585 0.274312 -0.442883
1.88999999 1.12000000 0.25000000 161 58 146 97.000000 1.000000 4.000000 1.000000 -60.708740 114.000000 133.000000 0.691252 0.248345 -0.678598
1.89999998 1.12000000 0.23000000 161 58 146 97.000000 1.000000 4.000000 1.000000 -60.708740 114.000000 133.000000 -0.542496 -0.369809 0.754281
1.90999997 1.03999996 0.25000000 161 58 146 97.000000 1.000000 4.000000 1.000000 -60.708740 114.000000 133.000000 -0.461767 -0.555121 0.691818
1.90999997 1.03999996 0.25000000 161 58 146 97.000000 1.000000 4.000000 1.000000 -60.708740 114.000000 133.000000 -0.461767 -0.555121 0.691818
1.90999997 1.03999996 0.25000000 161 58 146 97.000000 1.000000 4.000000 1.000000 -60.708740 114.000000 133.000000 -0.461767 -0.555121 0.691818
1.92999995 1.04999995 0.22000000 161 58 146 97.000000 1.000000 4.000000 1.000000 -60.708740 114.000000 133.000000 0.480357 0.824587 -0.298854
1.83000004 1.09000003 0.27000001 161 58 146 97.000000 1.000000 4.000000 1.000000 -60.708740 114.000000 133.000000 -0.643012 0.123256 0.755873
1.84000003 1.12000000 0.25999999 161 58 146 97.000000 1.000000 4.000000 1.000000 -60.708740 114.000000 133.000000 -0.534534 -0.365563 0.761995
1.84000003 1.13000000 0.23000000 161 58 146 97.000000 1.000000 4.000000 1.000000 -60.708740 114.000000 133.000000 0.924026 -0.190448 -0.331521
1.84000003 1.12000000 0.22000000 161 58 146 97.000000 1.000000 4.000000 1.000000 -60.708740 114.000000 133.000000 0.882515 -0.047740 -0.467856
1.82000005 1.12000000 0.18000001 161 58 146 97.000000 1.000000 4.000000 1.000000 -60.708740 114.000000 133.000000 -0.574007 0.224342 0.787519
1.80999994 1.10000002 0.17000000 161 58 146 97.000000 1.000000 4.000000 1.000000 -60.708740 114.000000 133.000000 0.591312 0.496972 -0.635113
1.82000005 1.07000005 0.16000000 161 58 146 97.000000 1.000000 4.000000 1.000000 -60.708740 114.000000 133.000000 0.792473 0.067353 -0.606177
1.79999995 1.11000001 0.20999999 161 58 146 97.000000 1.000000 4.000000 1.000000 -60.708740 114.000000 133.000000 0.538130 0.329303 -0.775871
1.79999995 1.10000002 0.16000000 161 58 146 97.000000 1.000000 4.000000 1.000000 -60.708740 114.000000 133.000000 0.621255 0.506769 -0.597685
1.79999995 1.11000001 0.17000000 161 58 146 97.000000 1.000000 4.000000 1.000000 -60.708740 114.000000 133.000000 -0.668260 -0.206215 0.714775
1.77999997 1.11000001 0.16000000 161 58 146 97.000000 1.000000 4.000000 1.000000 -60.708740 114.000000 133.000000 0.827409 0.248069 -0.503841
1.83000004 0.97000003 0.23999999 161 58 146 97.000000 1.000000 4.000000 1.000000 -60.708740 114.000000 133.000000 0.436358 0.874206 -0.212967
1.79999995 1.01999998 0.15000001 161 58 146 97.000000 1.000000 4.000000 1.000000 -60.708740 114.000000 133.000000 -0.458537 -0.511509 0.726707
1.77999997 1.01999998 0.18000001 161 58 146 97.000000 1.000000 4.000000 1.000000 -60.708740 114.000000 133.000000 -0.611529 -0.181476 0.770129
1.76999998 0.97000003 0.22000000 161 58 146 97.000000 1.000000 4.000000 1.000000 -60.708740 114.000000 133.000000 -0.584948 -0.419240 0.694315
1.89999998 1.08000004 0.11000000 161 58 146 97.000000 1.000000 4.000000 1.000000 -60.708740 114.000000 133.000000 0.718165 0.269113 -0.641730
1.86000001 1.10000002 0.07000000 161 58 146 97.000000 1.000000 4.000000 1.000000 -60.708740 114.000000 133.000000 0.448451 0.581819 -0.678512
1.86000001 1.10000002 0.07000000 161 58 146 97.000000 1.000000 4.000000 1.000000 -60.708740 114.000000 133.000000 0.448451 0.581819 -0.678512
1.88000000 1.11000001 0.07000000 161 58 146 97.000000 1.000000 4.000000 1.000000 -60.708740 114.000000 133.000000 -0.527795 -0.215708 0.821525
1.88999999 1.07000005 0.11000000 161 58 146 97.000000 1.000000 4.000000 1.000000 -60.708740 114.000000 133.000000 0.423054 0.862907 -0.276436
1.90999997 1.09000003 0.04000000 161 58 146 97.000000 1.000000 4.000000 1.000000 -60.708740 114.000000 133.000000 0.568969 0.609489 -0.552085
1.89999998 1.07000005 0.03000000 161 58 146 97.000000 1.000000 4.000000 1.000000 -60.708740 114.000000 133.000000 0.062436 0.872713 -0.484224
1.87000000 1.09000003 0.06000000 161 58 146 97.000000 1.000000 4.000000 1.000000 -60.708740 114.000000 133.000000 0.596493 0.757878 -0.264229
1.86000001 1.09000003 0.06000000 161 58 146 97.000000 1.000000 4.000000 1.000000 -60.708740 114.000000 133.000000 0.639515 0.685311 -0.348380
1.89999998 1.02999997 0.14000000 161 58 146 97.000000 1.000000 4.000000 1.000000 -60.708740 114.000000 133.000000 0.492088 0.815954 -0.303428
1.90999997 1.01999998 0.13000000 161 58 146 97.000000 1.000000 4.000000 1.000000 -60.708740 114.000000 133.000000 0.575972 0.812713 -0.088056
1.91999996 1.01999998 0.14000000 161 58 146 97.000000 1.000000 4.000000 1.000000 -60.708740 114.000000 133.000000 0.355889 0.809129 -0.467603
1.90999997 1.01999998 0.12000000 161 58 146 97.000000 1.000000 4.000000 1.000000 -60.708740 114.000000 133.000000 0.542333 0.793850 -0.275096
1.89999998 1.03999996 0.08000000 161 58 146 97.000000 1.000000 4.000000 1.000000 -60.708740 114.000000 133.000000 0.474345 0.774274 -0.418923
1.89999998 1.03999996 0.07000000 161 58 146 97.000000 1.000000 4.000000 1.000000 -60.708740 114.000000 133.000000 0.704478 0.692358 -0.156046
1.82000005 1.11000001 0.07000000 161 58 146 97.000000 1.000000 4.000000 1.000000 -60.708740 114.000000 133.000000 0.730127 0.223572 -0.645701
1.84000003 1.11000001 0.04000000 161 58 146 97.000000 1.000000 4.000000 1.000000 -60.708740 114.000000 133.000000 -0.512673 -0.315857 0.798373
1.80999994 1.13000000 0.01000000 161 58 146 97.000000 1.000000 4.000000 1.000000 -60.708740 114.000000 133.000000 0.688093 0.483841 -0.540764
1.78999996 1.12000000 0.02000000 161 58 146 97.000000 1.000000 4.000000 1.000000 -60.708740 114.000000 133.000000 -0.541774 0.006789 0.840497
1.78999996 1.13000000 0.02000000 161 58 146 97.000000 1.000000 4.000000 1.000000 -60.708740 114.000000 133.000000 -0.642594 -0.139304 0.753437
1.78999996 1.13000000 0.02000000 161 58 146 97.000000 1.000000 4.000000 1.000000 -60.708740 114.000000 133.000000 -0.642594 -0.139304 0.753437
1.79999995 1.12000000 -0.01000000 161 58 146 97.000000 1.000000 4.000000 1.000000 -60.708740 114.000000 133.000000 0.869982 -0.155926 -0.467779
1.78999996 1.08000004 0.00000000 161 58 146 97.000000 1.000000 4.000000 1.000000 -60.708740 114.000000 133.000000 0.628626 0.403050 -0.665116
1.78999996 1.00000000 0.12000000 161 58 146 97.000000 1.000000 4.000000 1.000000 -60.708740 114.000000 133.000000 0.700285 0.297822 -0.648770
1.79999995 0.98000002 0.02000000 161 58 146 97.000000 1.000000 4.000000 1.000000 -60.708740 114.000000 133.000000 0.698284 0.619788 -0.358136
1.74000001 1.15999997 0.19000000 161 58 146 97.000000 1.000000 4.000000 1.000000 -60.708740 114.000000 133.000000 -0.628406 -0.123304 0.768051
1.74000001 1.15999997 0.15000001 161 58 146 97.000000 1.000000 4.000000 1.000000 -60.708740 114.000000 133.000000 -0.623315 -0.070537 0.778783
1.75999999 1.15999997 0.17000000 161 58 146 97.000000 1.000000 4.000000 1.000000 -60.708740 114.000000 133.000000 -0.558188 0.087531 0.825085
1.74000001 1.14999998 0.15000001 161 58 146 97.000000 1.000000 4.000000 1.000000 -60.708740 114.000000 133.000000 0.718578 -0.092200 -0.689308
1.72000003 1.13999999 0.18000001 161 58 146 97.000000 1.000000 4.000000 1.000000 -60.708740 114.000000 133.000000 -0.647263 0.023766 0.761897
1.61000001 1.29999995 0.28999999 161 58 146 97.000000 1.000000 4.000000 1.000000 -60.708740 114.000000 133.000000 0.872206 -0.091589 -0.480488
1.74000001 1.13999999 0.14000000 161 58 146 97.000000 1.000000 4.000000 1.000000 -60.708740 114.000000 133.000000 0.798508 -0.371138 -0.473964
1.74000001 1.12000000 0.17000000 161 58 146 97.000000 1.000000 4.000000 1.000000 -60.708740 114.000000 133.000000 0.944087 -0.136024 -0.300330
1.75000000 1.11000001 0.16000000 161 58 146 97.000000 1.000000 4.000000 1.000000 -60.708740 114.000000 133.000000 -0.472522 -0.097325 0.875929
1.75000000 1.00999999 0.16000000 161 58 146 97.000000 1.000000 4.000000 1.000000 -60.708740 114.000000 133.000000 -0.496670 -0.247566 0.831883
1.75999999 1.11000001 0.00000000 161 58 146 97.000000 1.000000 4.000000 1.000000 -60.708740 114.000000 133.000000 0.725381 0.067779 -0.685002
1.74000001 0.99000001 0.03000000 161 58 146 97.000000 1.000000 4.000000 1.000000 -60.708740 114.000000 133.000000 -0.479443 -0.499351 0.721653
1.70000005 0.97000003 -0.01000000 161 58 146 97.000000 1.000000 4.000000 1.000000 -60.708740 114.000000 133.000000 0.446058 0.462397 -0.766304
1.67999995 0.99000001 0.03000000 161 58 146 97.000000 1.000000 4.000000 1.000000 -60.708740 114.000000 133.000000 0.600662 0.784323 -0.155058
2.07999992 0.94999999 0.44999999 161 58 146 97.000000 1.000000 4.000000 1.000000 -60.708740 114.000000 133.000000 0.268225 0.850656 -0.452150
2.06999993 0.94000000 0.43000001 161 58 146 97.000000 1.000000 4.000000 1.000000 -60.708740 114.000000 133.000000 0.604420 0.667693 -0.434583
2.06999993 0.94000000 0.43000001 161 58 146 97.000000 1.000000 4.000000 1.000000 -60.708740 114.000000 133.000000 0.604420 0.667693 -0.434583
2.07999992 0.92000002 0.44000000 161 58 146 97.000000 1.000000 4.000000 1.000000 -60.708740 114.000000 133.000000 0.280980 0.959291 -0.028469
2.04999995 0.94000000 0.38000000 161 58 146 97.000000 1.000000 4.000000 1.000000 -60.708740 114.000000 133.000000 0.741615 0.639430 -0.202822
2.01999998 0.94999999 0.37000000 161 58 146 97.000000 1.000000 4.000000 1.000000 -60.708740 114.000000 133.000000 0.622109 0.601878 -0.500722
2.02999997 0.94000000 0.37000000 161 58 146 97.000000 1.000000 4.000000 1.000000 -60.708740 114.000000 133.000000 0.187335 0.874724 -0.446950
2.03999996 0.95999998 0.34999999 161 58 146 97.000000 1.000000 4.000000 1.000000 -60.708740 114.000000 133.000000 0.490832 0.848074 -0.199635
2.03999996 0.95999998 0.31999999 161 58 146 97.000000 1.000000 4.000000 1.000000 -60.708740 114.000000 133.000000 0.321186 0.862132 -0.391878
2.00999999 0.89999998 0.40000001 161 58 146 97.000000 1.000000 4.000000 1.000000 -60.708740 114.000000 133.000000 0.366823 0.897170 -0.246022
2.00999999 0.91000003 0.38000000 161 58 146 97.000000 1.000000 4.000000 1.000000 -60.708740 114.000000 133.000000 0.665056 0.611718 -0.428370
1.97000003 0.92000002 0.34999999 161 58 146 97.000000 1.000000 4.000000 1.000000 -60.708740 114.000000 133.000000 0.217389 0.790926 -0.571995
1.98000002 0.85000002 0.41999999 161 58 146 97.000000 1.000000 4.000000 1.000000 -60.708740 114.000000 133.000000 0.300132 0.925999 -0.229011
2.00999999 0.81000000 0.41999999 161 58 146 97.000000 1.000000 4.000000 1.000000 -60.708740 114.000000 133.000000 0.217465 0.797373 -0.562943
2.00999999 0.81000000 0.41999999 161 58 146 97.000000 1.000000 4.000000 1.000000 -60.708740 114.000000 133.000000 0.217465 0.797373 -0.562943
1.96000004 0.81999999 0.40000001 161 58 146 97.000000 1.000000 4.000000 1.000000 -60.708740 114.000000 133.000000 0.518699 0.727504 -0.449097
1.94000006 0.81000000 0.41999999 161 58 146 97.000000 1.000000 4.000000 1.000000 -60.708740 114.000000 133.000000 0.268867 0.666600 -0.695237
1.95000005 0.81000000 0.44000000 161 58 146 97.000000 1.000000 4.000000 1.000000 -60.708740 114.000000 133.000000 0.529047 0.733414 -0.426864
1.95000005 0.81000000 0.43000001 161 58 146 97.000000 1.000000 4.000000 1.000000 -60.708740 114.000000 133.000000 0.299069 0.938552 -0.172275
1.96000004 0.82999998 0.33000001 161 58 146 97.000000 1.000000 4.000000 1.000000 -60.708740 114.000000 133.000000 0.416776 0.729769 -0.541973
2.01999998 0.76999998 0.46000001 161 58 146 97.000000 1.000000 4.000000 1.000000 -60.708740 114.000000 133.000000 0.589188 0.599318 -0.541918
2.02999997 0.75999999 0.46000001 161 58 146 97.000000 1.000000 4.000000 1.000000 -60.708740 114.000000 133.000000 0.131026 0.873988 -0.467951
2.01999998 0.80000001 0.41999999 161 58 146 97.000000 1.000000 4.000000 1.000000 -60.708740 114.000000 133.000000 0.606548 0.784508 -0.129021
1.99000001 0.75999999 0.43000001 161 58 146 97.000000 1.000000 4.000000 1.000000 -60.708740 114.000000 133.000000 0.276364 0.957635 0.080981
1.98000002 0.80000001 0.40000001 161 58 146 97.000000 1.000000 4.000000 1.000000 -60.708740 114.000000 133.000000 0.714566 0.681189 -0.159298
1.98000002 0.79000002 0.44000000 161 58 146 97.000000 1.000000 4.000000 1.000000 -60.708740 114.000000 133.000000 0.302093 0.798728 -0.520359
2.00000000 0.75000000 0.46000001 161 58 146 97.000000 1.000000 4.000000 1.000000 -60.708740 114.000000 133.000000 0.213710 0.948761 -0.232766
1.99000001 0.75000000 0.44999999 161 58 146 97.000000 1.000000 4.000000 1.000000 -60.708740 114.000000 133.000000 0.354463 0.905850 -0.231932
1.99000001 0.75000000 0.44999999 161 58 146 97.000000 1.000000 4.000000 1.000000 -60.708740 114.000000 133.000000 0.354463 0.905850 -0.231932
2.00999999 0.72000003 0.46000001 161 58 146 97.000000 1.000000 4.000000 1.000000 -60.708740 114.000000 133.000000 -0.056164 0.936505 -0.346128
1.99000001 0.72000003 0.44000000 161 58 146 97.000000 1.000000 4.000000 1.000000 -60.708740 114.000000 133.000000 0.376993 0.919863 -0.108300
1.95000005 0.76999998 0.47000000 161 58 146 97.000000 1.000000 4.000000 1.000000 -60.708740 114.000000 133.000000 0.542305 0.718098 -0.436166
1.96000004 0.75999999 0.44999999 161 58 146 97.000000 1.000000 4.000000 1.000000 -60.708740 114.000000 133.000000 0.648395 0.720965 -0.244528
1.97000003 0.77999997 0.40000001 161 58 146 97.000000 1.000000 4.000000 1.000000 -60.708740 114.000000 133.000000 0.203606 0.962859 -0.177334
1.95000005 0.80000001 0.41000000 161 58 146 97.000000 1.000000 4.000000 1.000000 -60.708740 114.000000 133.000000 0.240908 0.836272 -0.492557
1.95000005 0.80000001 0.41000000 161 58 146 97.000000 1.000000 4.000000 1.000000 -60.708740 114.000000 133.000000 0.240908 0.836272 -0.492557
1.94000006 0.76999998 0.41000000 161 58 146 97.000000 1.000000 4.000000 1.000000 -60.708740 114.000000 133.000000 0.513143 0.566981 -0.644373
1.97000003 0.79000002 0.44000000 161 58 146 97.000000 1.000000 4.000000 1.000000 -60.708740 114.000000 133.000000 0.329596 0.686794 -0.647827
1.94000006 0.75000000 0.47000000 161 58 146 97.000000 1.000000 4.000000 1.000000 -60.708740 114.000000 133.000000 0.542465 0.840077 -0.001353
1.95000005 0.74000001 0.44999999 161 58 146 97.000000 1.000000 4.000000 1.000000 -60.708740 114.000000 133.000000 0.241093 0.937895 -0.249455
1.97000003 0.72000003 0.46000001 161 58 146 97.000000 1.000000 4.000000 1.000000 -60.708740 114.000000 133.000000 0.653449 0.752412 -0.082954
1.94000006 0.74000001 0.44999999 161 58 146 97.000000 1.000000 4.000000 1.000000 -60.708740 114.000000 133.000000 0.345386 0.806962 -0.479084
1.96000004 0.74000001 0.46000001 161 58 146 97.000000 1.000000 4.000000 1.000000 -60.708740 114.000000 133.000000 0.571634 0.814759 -0.096961
2.00000000 0.76999998 0.37000000 161 58 146 97.000000 1.000000 4.000000 1.000000 -60.708740 114.000000 133.000000 0.062974 0.995428 0.071812
1.99000001 0.80000001 0.38000000 161 58 146 97.000000 1.000000 4.000000 1.000000 -60.708740 114.000000 133.000000 0.318080 0.943680 0.091068
2.00999999 0.77999997 0.38000000 161 58 146 97.000000 1.000000 4.000000 1.000000 -60.708740 114.000000 133.000000 0.268023 0.949529 -0.162969
1.99000001 0.79000002 0.34000000 161 58 146 97.000000 1.000000 4.000000 1.000000 -60.708740 114.000000 133.000000 0.226450 0.846529 -0.481777
1.94000006 0.76999998 0.37000000 161 58 146 97.000000 1.000000 4.000000 1.000000 -60.708740 114.000000 133.000000 0.688570 0.612613 -0.388043
1.96000004 0.77999997 0.38999999 161 58 146 97.000000 1.000000 4.000000 1.000000 -60.708740 114.000000 133.000000 0.182211 0.983012 -0.022051
1.94000006 0.77999997 0.38000000 161 58 146 97.000000 1.000000 4.000000 1.000000 -60.708740 114.000000 133.000000 0.547994 0.804239 -0.230003
1.96000004 0.80000001 0.38000000 161 58 146 97.000000 1.000000 4.000000 1.000000 -60.708740 114.000000 133.000000 0.300752 0.699611 -0.648145
1.97000003 0.79000002 0.34000000 161 58 146 97.000000 1.000000 4.000000 1.000000 -60.708740 114.000000 133.000000 0.402863 0.728442 -0.554142
1.96000004 0.79000002 0.34999999 161 58 146 97.000000 1.000000 4.000000 1.000000 -60.708740 114.000000 133.000000 0.310282 0.950625 0.006181
1.96000004 0.79000002 0.34000000 161 58 146 97.000000 1.000000 4.000000 1.000000 -60.708740 114.000000 133.000000 0.411433 0.778959 -0.473230
2.00000000 0.95999998 0.20999999 161 58 146 97.000000 1.000000 4.000000 1.000000 -60.708740 114.000000 133.000000 0.240111 0.964296 0.111709
1.96000004 0.86000001 0.28000000 161 58 146 97.000000 1.000000 4.000000 1.000000 -60.708740 114.000000 133.000000 0.424937 0.896461 -0.125646
1.94000006 0.85000002 0.25000000 161 58 146 97.000000 1.000000 4.000000 1.000000 -60.708740 114.000000 133.000000 0.436656 0.712264 -0.549556
1.85000002 0.93000001 0.49000001 161 58 146 97.000000 1.000000 4.000000 1.000000 -60.708740 114.000000 133.000000 0.613033 0.596145 -0.518461
1.82000005 0.85000002 0.50000000 161 58 146 97.000000 1.000000 4.000000 1.000000 -60.708740 114.000000 133.000000 -0.531778 -0.413239 0.739220
1.76999998 0.85000002 0.50000000 161 58 146 97.000000 1.000000 4.000000 1.000000 -60.708740 114.000000 133.000000 -0.513609 -0.337606 0.788814
1.76999998 0.85000002 0.50000000 161 58 146 97.000000 1.000000 4.000000 1.000000 -60.708740 114.000000 133.000000 -0.513609 -0.337606 0.788814
1.79999995 0.82999998 0.50000000 161 58 146 97.000000 1.000000 4.000000 1.000000 -60.708740 114.000000 133.000000 0.499307 0.848077 -0.177366
1.78999996 0.83999997 0.50000000 161 58 146 97.000000 1.000000 4.000000 1.000000 -60.708740 114.000000 133.000000 0.677083 0.220482 -0.702102
1.78999996 0.83999997 0.49000001 161 58 146 97.000000 1.000000 4.000000 1.000000 -60.708740 114.000000 133.000000 0.470326 0.758748 -0.450660
1.78999996 0.83999997 0.49000001 161 58 146 97.000000 1.000000 4.000000 1.000000 -60.708740 114.000000 133.000000 0.470326 0.758748 -0.450660
1.92999995 0.88999999 0.44999999 161 58 146 97.000000 1.000000 4.000000 1.000000 -60.708740 114.000000 133.000000 0.266260 0.773572 -0.575059
1.88000000 0.94000000 0.46000001 161 58 146 97.000000 1.000000 4.000000 1.000000 -60.708740 114.000000 133.000000 -0.536030 -0.336427 0.774266
1.86000001 0.95999998 0.41999999 161 58 146 97.000000 1.000000 4.000000 1.000000 -60.708740 114.000000 133.000000 0.775230 0.185016 -0.603976
1.85000002 0.89999998 0.46000001 161 58 146 97.000000 1.000000 4.000000 1.000000 -60.708740 114.000000 133.000000 0.760612 0.519561 -0.389264
1.88000000 0.88999999 0.41000000 161 58 146 97.000000 1.000000 4.000000 1.000000 -60.708740 114.000000 133.000000 0.464415 0.830317 -0.308046
1.87000000 0.88999999 0.41000000 161 58 146 97.000000 1.000000 4.000000 1.000000 -60.708740 114.000000 133.000000 0.583384 0.801968 -0.128492
1.85000002 0.91000003 0.40000001 161 58 146 97.000000 1.000000 4.000000 1.000000 -60.708740 114.000000 133.000000 0.518461 0.613033 -0.596145
1.88999999 0.88999999 0.41999999 161 58 146 97.000000 1.000000 4.000000 1.000000 -60.708740 114.000000 133.000000 0.340801 0.887284 -0.310775
1.87000000 0.92000002 0.43000001 161 58 146 97.000000 1.000000 4.000000 1.000000 -60.708740 114.000000 133.000000 0.459328 0.673124 -0.579588
1.88999999 0.88999999 0.41000000 161 58 146 97.000000 1.000000 4.000000 1.000000 -60.708740 114.000000 133.000000 0.266998 0.890490 -0.368427
1.86000001 0.94000000 0.38000000 161 58 146 97.000000 1.000000 4.000000 1.000000 -60.708740 114.000000 133.000000 0.518336 0.832662 -0.194943
1.86000001 0.93000001 0.34999999 161 58 146 97.000000 1.000000 4.000000 1.000000 -60.708740 114.000000 133.000000 0.318631 0.722984 -0.613000
1.87000000 0.89999998 0.37000000 161 58 146 97.000000 1.000000 4.000000 1.000000 -60.708740 114.000000 133.000000 0.277539 0.804392 -0.525285
1.88999999 0.89999998 0.38000000 161 58 146 97.000000 1.000000 4.000000 1.000000 -60.708740 114.000000 133.000000 0.662211 0.747658 -0.049844
1.88999999 0.91000003 0.34999999 161 58 146 97.000000 1.000000 4.000000 1.000000 -60.708740 114.000000 133.000000 0.581764 0.754851 -0.302902
1.88999999 0.89999998 0.34000000 161 58 146 97.000000 1.000000 4.000000 1.000000 -60.708740 114.000000 133.000000 0.654287 0.395885 -0.644348
1.87000000 0.92000002 0.34999999 161 58 146 97.000000 1.000000 4.000000 1.000000 -60.708740 114.000000 133.000000 0.573205 0.647167 -0.502605
1.86000001 0.92000002 0.34000000 161 58 146 97.000000 1.000000 4.000000 1.000000 -60.708740 114.000000 133.000000 0.564332 0.722279 -0.399804
1.89999998 0.87000000 0.46000001 161 58 146 97.000000 1.000000 4.000000 1.000000 -60.708740 114.000000 133.000000 0.795883 0.344295 -0.498027
1.92999995 0.81999999 0.44999999 161 58 146 97.000000 1.000000 4.000000 1.000000 -60.708740 114.000000 133.000000 0.388209 0.901972 -0.189053
1.92999995 0.81999999 0.43000001 161 58 146 97.000000 1.000000 4.000000 1.000000 -60.708740 114.000000 133.000000 0.571553 0.707401 -0.415826
1.90999997 0.81999999 0.40000001 161 58 146 97.000000 1.000000 4.000000 1.000000 -60.708740 114.000000 133.000000 0.619151 0.665629 -0.416641
1.88000000 0.87000000 0.44999999 161 58 146 97.000000 1.000000 4.000000 1.000000 -60.708740 114.000000 133.000000 0.599913 0.695767 -0.394984
1.88000000 0.88000000 0.47999999 161 58 146 97.000000 1.000000 4.000000 1.000000 -60.708740 114.000000 133.000000 0.866811 0.428111 -0.255656
1.88000000 0.87000000 0.44999999 161 58 146 97.000000 1.000000 4.000000 1.000000 -60.708740 114.000000 133.000000 0.599913 0.695767 -0.394984
1.85000002 0.81999999 0.44999999 161 58 146 97.000000 1.000000 4.000000 1.000000 -60.708740 114.000000 133.000000 0.483945 0.497250 -0.720097
1.88999999 0.81000000 0.41000000 161 58 146 97.000000 1.000000 4.000000 1.000000 -60.708740 114.000000 133.000000 0.395397 0.772895 -0.496280
1.86000001 0.83999997 0.41999999 161 58 146 97.000000 1.000000 4.000000 1.000000 -60.708740 114.000000 133.000000 0.723133 0.661194 -0.199752
1.89999998 0.87000000 0.38000000 161 58 146 97.000000 1.000000 4.000000 1.000000 -60.708740 114.000000 133.000000 0.619365 0.595738 -0.511355
1.91999996 0.88000000 0.33000001 161 58 146 97.000000 1.000000 4.000000 1.000000 -60.708740 114.000000 133.000000 0.789664 0.514162 -0.334766
1.89999998 0.83999997 0.38999999 161 58 146 97.000000 1.000000 4.000000 1.000000 -60.708740 114.000000 133.000000 0.510748 0.859419 -0.023154
1.91999996 0.81000000 0.38000000 161 58 146 97.000000 1.000000 4.000000 1.000000 -60.708740 114.000000 133.000000 0.456760 0.823433 -0.336643
1.88000000 0.82999998 0.37000000 161 58 146 97.000000 1.000000 4.000000 1.000000 -60.708740 114.000000 133.000000 0.183537 0.876575 -0.444895
1.86000001 0.81999999 0.38999999 161 58 146 97.000000 1.000000 4.000000 1.000000 -60.708740 114.000000 133.000000 -0.409782 -0.534856 0.738924
1.88000000 0.82999998 0.37000000 161 58 146 97.000000 1.000000 4.000000 1.000000 -60.708740 114.000000 133.000000 0.183537 0.876575 -0.444895
1.85000002 0.81000000 0.33000001 161 58 146 97.000000 1.000000 4.000000 1.000000 -60.708740 114.000000 133.000000 0.644948 0.750184 -0.145827
1.88000000 0.81000000 0.31999999 161 58 146 97.000000 1.000000 4.000000 1.000000 -60.708740 114.000000 133.000000 0.524619 0.704488 -0.477986
1.87000000 0.81999999 0.33000001 161 58 146 97.000000 1.000000 4.000000 1.000000 -60.708740 114.000000 133.000000 0.251935 0.962979 -0.095914
1.86000001 0.82999998 0.31999999 161 58 146 97.000000 1.000000 4.000000 1.000000 -60.708740 114.000000 133.000000 0.790933 0.523575 -0.316692
1.84000003 0.93000001 0.47999999 161 58 146 97.000000 1.000000 4.000000 1.000000 -60.708740 114.000000 133.000000 -0.428473 -0.406006 0.807199
1.80999994 0.94000000 0.47000000 161 58 146 97.000000 1.000000 4.000000 1.000000 -60.708740 114.000000 133.000000 0.690135 0.624564 -0.365559
1.82000005 0.93000001 0.47999999 161 58 146 97.000000 1.000000 4.000000 1.000000 -60.708740 114.000000 133.000000 0.583297 0.702270 -0.408143
1.83000004 0.92000002 0.47999999 161 58 146 97.000000 1.000000 4.000000 1.000000 -60.708740 114.000000 133.000000 -0.695711 -0.297244 0.653936
1.84000003 0.92000002 0.41000000 161 58 146 97.000000 1.000000 4.000000 1.000000 -60.708740 114.000000 133.000000 0.479969 0.831015 -0.281147
1.79999995 0.94999999 0.47999999 161 58 146 97.000000 1.000000 4.000000 1.000000 -60.708740 114.000000 133.000000 -0.457714 -0.412428 0.787656
1.78999996 0.94999999 0.47000000 161 58 146 97.000000 1.000000 4.000000 1.000000 -60.708740 114.000000 133.000000 0.584826 0.621904 -0.520782
1.76999998 0.89999998 0.47999999 161 58 146 97.000000 1.000000 4.000000 1.000000 -60.708740 114.000000 133.000000 0.655158 0.326766 -0.681169
1.76999998 0.89999998 0.40000001 161 58 146 97.000000 1.000000 4.000000 1.000000 -60.708740 114.000000 133.000000 -0.475114 -0.535129 0.698501
1.78999996 0.88999999 0.40000001 161 58 146 97.000000 1.000000 4.000000 1.000000 -60.708740 114.000000 133.000000 -0.694435 -0.199515 0.691342
1.78999996 0.88999999 0.43000001 161 58 146 97.000000 1.000000 4.000000 1.000000 -60.708740 114.000000 133.000000 0.422217 0.845993 -0.325621
1.80999994 0.94000000 0.38000000 161 58 146 97.000000 1.000000 4.000000 1.000000 -60.708740 114.000000 133.000000 -0.625446 -0.413093 0.661945
1.82000005 0.93000001 0.33000001 161 58 146 97.000000 1.000000 4.000000 1.000000 -60.708740 114.000000 133.000000 0.717760 0.658337 -0.226743
1.82000005 0.89999998 0.38000000 161 58 146 97.000000 1.000000 4.000000 1.000000 -60.708740 114.000000 133.000000 0.697574 0.632532 -0.336592
1.76999998 0.95999998 0.31999999 161 58 146 97.000000 1.000000 4.000000 1.000000 -60.708740 114.000000 133.000000 -0.578922 -0.217675 0.785791
1.77999997 0.88999999 0.38999999 161 58 146 97.000000 1.000000 4.000000 1.000000 -60.708740 114.000000 133.000000 0.625846 0.432251 -0.649211
1.76999998 0.89999998 0.38999999 161 58 146 97.000000 1.000000 4.000000 1.000000 -60.708740 114.000000 133.000000 0.788725 0.327969 -0.519951
1.76999998 0.89999998 0.36000001 161 58 146 97.000000 1.000000 4.000000 1.000000 -60.708740 114.000000 133.000000 0.630531 0.296815 -0.717169
1.76999998 0.91000003 0.31999999 161 58 146 97.000000 1.000000 4.000000 1.000000 -60.708740 114.000000 133.000000 0.682792 0.391820 -0.616662
1.78999996 0.89999998 0.34999999 161 58 146 97.000000 1.000000 4.000000 1.000000 -60.708740 114.000000 133.000000 0.810518 0.404459 -0.423643
1.80999994 0.86000001 0.44999999 161 58 146 97.000000 1.000000 4.000000 1.000000 -60.708740 114.000000 133.000000 0.477928 0.648975 -0.591959
1.82000005 0.86000001 0.40000001 161 58 146 97.000000 1.000000 4.000000 1.000000 -60.708740 114.000000 133.000000 0.824052 0.521339 -0.221684
1.84000003 0.81000000 0.46000001 161 58 146 97.000000 1.000000 4.000000 1.000000 -60.708740 114.000000 133.000000 0.358605 0.917065 -0.174342
1.83000004 0.81999999 0.44999999 161 58 146 97.000000 1.000000 4.000000 1.000000 -60.708740 114.000000 133.000000 0.319500 0.759415 -0.566752
1.80999994 0.81999999 0.46000001 161 58 146 97.000000 1.000000 4.000000 1.000000 -60.708740 114.000000 133.000000 0.765959 0.600599 -0.229320
1.80999994 0.81999999 0.47000000 161 58 146 97.000000 1.000000 4.000000 1.000000 -60.708740 114.000000 133.000000 0.830846 0.453903 -0.321973
1.80999994 0.81000000 0.47000000 161 58 146 97.000000 1.000000 4.000000 1.000000 -60.708740 114.000000 133.000000 0.753384 0.418547 -0.507180
1.83000004 0.81999999 0.44999999 161 58 146 97.000000 1.000000 4.000000 1.000000 -60.708740 114.000000 133.000000 0.319500 0.759415 -0.566752
1.82000005 0.83999997 0.40000001 161 58 146 97.000000 1.000000 4.000000 1.000000 -60.708740 114.000000 133.000000 0.741501 0.422540 -0.521188
1.80999994 0.83999997 0.44000000 161 58 146 97.000000 1.000000 4.000000 1.000000 -60.708740 114.000000 133.000000 0.376981 0.803691 -0.460398
1.82000005 0.83999997 0.40000001 161 58 146 97.000000 1.000000 4.000000 1.000000 -60.708740 114.000000 133.000000 0.741501 0.422540 -0.521188
1.80999994 0.81999999 0.40000001 161 58 146 97.000000 1.000000 4.000000 1.000000 -60.708740 114.000000 133.000000 0.772920 0.480024 -0.414936
1.80999994 0.81000000 0.40000001 161 58 146 97.000000 1.000000 4.000000 1.000000 -60.708740 114.000000 133.000000 0.492682 0.864677 -0.097968
1.76999998 0.88000000 0.44999999 161 58 146 97.000000 1.000000 4.000000 1.000000 -60.708740 114.000000 133.000000 0.671079 0.654751 -0.347785
1.77999997 0.87000000 0.44000000 161 58 146 97.000000 1.000000 4.000000 1.000000 -60.708740 114.000000 133.000000 0.487694 0.801098 -0.346982
1.79999995 0.86000001 0.44000000 161 58 146 97.000000 1.000000 4.000000 1.000000 -60.708740 114.000000 133.000000 0.670071 0.326112 -0.666826
1.79999995 0.88000000 0.40000001 161 58 146 97.000000 1.000000 4.000000 1.000000 -60.708740 114.000000 133.000000 0.641647 0.618193 -0.454011
1.76999998 0.88000000 0.43000001 161 58 146 97.000000 1.000000 4.000000 1.000000 -60.708740 114.000000 133.000000 0.815619 0.567577 -0.112348
1.76999998 0.85000002 0.41999999 161 58 146 97.000000 1.000000 4.000000 1.000000 -60.708740 114.000000 133.000000 0.876610 0.389100 -0.283119
1.76999998 0.87000000 0.44000000 161 58 146 97.000000 1.000000 4.000000 1.000000 -60.708740 114.000000 133.000000 0.575612 0.685729 -0.445474
1.79999995 0.88000000 0.41999999 161 58 146 97.000000 1.000000 4.000000 1.000000 -60.708740 114.000000 133.000000 0.850032 0.343432 -0.399375
1.77999997 0.81999999 0.47000000 161 58 146 97.000000 1.000000 4.000000 1.000000 -60.708740 114.000000 133.000000 0.545176 0.803009 -0.240747
1.78999996 0.83999997 0.43000001 161 58 146 97.000000 1.000000 4.000000 1.000000 -60.708740 114.000000 133.000000 0.309417 0.821447 -0.479047
1.77999997 0.83999997 0.43000001 161 58 146 97.000000 1.000000 4.000000 1.000000 -60.708740 114.000000 133.000000 0.644870 0.496701 -0.580888
1.76999998 0.83999997 0.43000001 161 58 146 97.000000 1.000000 4.000000 1.000000 -60.708740 114.000000 133.000000 -0.607271 -0.271131 0.746800
1.76999998 0.81999999 0.43000001 161 58 146 97.000000 1.000000 4.000000 1.000000 -60.708740 114.000000 133.000000 0.804138 0.510288 -0.304909
1.82000005 0.85000002 0.38999999 161 58 146 97.000000 1.000000 4.000000 1.000000 -60.708740 114.000000 133.000000 0.856952 0.328884 -0.396823
1.80999994 0.85000002 0.38999999 161 58 146 97.000000 1.000000 4.000000 1.000000 -60.708740 114.000000 133.000000 0.555821 0.827302 -0.081444
1.82000005 0.86000001 0.38000000 161 58 146 97.000000 1.000000 4.000000 1.000000 -60.708740 114.000000 133.000000 0.517082 0.694463 -0.500348
1.83000004 0.85000002 0.33000001 161 58 146 97.000000 1.000000 4.000000 1.000000 -60.708740 114.000000 133.000000 -0.483945 -0.497250 0.720097
1.82000005 0.86000001 0.33000001 161 58 146 97.000000 1.000000 4.000000 1.000000 -60.708740 114.000000 133.000000 0.667554 0.453401 -0.590593
1.83000004 0.85000002 0.33000001 161 58 146 97.000000 1.000000 4.000000 1.000000 -60.708740 114.000000 133.000000 -0.483945 -0.497250 0.720097
1.82000005 0.81000000 0.38000000 161 58 146 97.000000 1.000000 4.000000 1.000000 -60.708740 114.000000 133.000000 0.552966 0.791071 -0.261602
1.82000005 0.81999999 0.38000000 161 58 146 97.000000 1.000000 4.000000 1.000000 -60.708740 114.000000 133.000000 -0.456057 -0.525709 0.718082
1.82000005 0.82999998 0.38999999 161 58 146 97.000000 1.000000 4.000000 1.000000 -60.708740 114.000000 133.000000 0.495623 0.646830 -0.579627
1.82000005 0.81000000 0.38000000 161 58 146 97.000000 1.000000 4.000000 1.000000 -60.708740 114.000000 133.000000 0.552966 0.791071 -0.261602
1.80999994 0.82999998 0.34999999 161 58 146 97.000000 1.000000 4.000000 1.000000 -60.708740 114.000000 133.000000 0.255306 0.790978 -0.556034
1.80999994 0.81999999 0.34000000 161 58 146 97.000000 1.000000 4.000000 1.000000 -60.708740 114.000000 133.000000 0.293234 0.839363 -0.457693
1.80999994 0.81999999 0.34000000 161 58 146 97.000000 1.000000 4.000000 1.000000 -60.708740 114.000000 133.000000 0.293234 0.839363 -0.457693
1.84000003 0.81000000 0.34999999 161 58 146 97.000000 1.000000 4.000000 1.000000 -60.708740 114.000000 133.000000 0.603192 0.689126 -0.401577
1.80999994 0.81999999 0.34000000 161 58 146 97.000000 1.000000 4.000000 1.000000 -60.708740 114.000000 133.000000 0.293234 0.839363 -0.457693
1.77999997 0.85000002 0.37000000 161 58 146 97.000000 1.000000 4.000000 1.000000 -60.708740 114.000000 133.000000 0.434305 0.884589 -0.169946
1.77999997 0.87000000 0.36000001 161 58 146 97.000000 1.000000 4.000000 1.000000 -60.708740 114.000000 133.000000 0.350148 0.776135 -0.524415
1.77999997 0.87000000 0.36000001 161 58 146 97.000000 1.000000 4.000000 1.000000 -60.708740 114.000000 133.000000 0.350148 0.776135 -0.524415
1.77999997 0.87000000 0.36000001 161 58 146 97.000000 1.000000 4.000000 1.000000 -60.708740 114.000000 133.000000 0.350148 0.776135 -0.524415
1.78999996 0.85000002 0.34000000 161 58 146 97.000000 1.000000 4.000000 1.000000 -60.708740 114.000000 133.000000 0.743676 0.666891 -0.046924
1.76999998 0.87000000 0.34999999 161 58 146 97.000000 1.000000 4.000000 1.000000 -60.708740 114.000000 133.000000 0.436175 0.879693 -0.189450
1.77999997 0.85000002 0.31999999 161 58 146 97.000000 1.000000 4.000000 1.000000 -60.708740 114.000000 133.000000 0.714285 0.647470 -0.265669
1.76999998 0.82999998 0.38999999 161 58 146 97.000000 1.000000 4.000000 1.000000 -60.708740 114.000000 133.000000 0.482574 0.814838 -0.321188
1.78999996 0.83999997 0.38999999 161 58 146 97.000000 1.000000 4.000000 1.000000 -60.708740 114.000000 133.000000 0.781665 0.613850 -0.110405
1.79999995 0.82999998 0.34000000 161 58 146 97.000000 1.000000 4.000000 1.000000 -60.708740 114.000000 133.000000 0.740648 0.652800 -0.159035
1.78999996 0.82999998 0.33000001 161 58 146 97.000000 1.000000 4.000000 1.000000 -60.708740 114.000000 133.000000 0.611229 0.744588 -0.268306
1.79999995 0.81000000 0.31999999 161 58 146 97.000000 1.000000 4.000000 1.000000 -60.708740 114.000000 133.000000 0.707084 0.649624 -0.279322
1.79999995 0.82999998 0.34000000 161 58 146 97.000000 1.000000 4.000000 1.000000 -60.708740 114.000000 133.000000 0.740648 0.652800 -0.159035
1.79999995 0.82999998 0.33000001 161 58 146 97.000000 1.000000 4.000000 1.000000 -60.708740 114.000000 133.000000 0.742678 0.630104 -0.226712
1.90999997 0.79000002 0.44999999 161 58 146 97.000000 1.000000 4.000000 1.000000 -60.708740 114.000000 133.000000 0.131790 0.798145 -0.587873
1.89999998 0.80000001 0.41000000 161 58 146 97.000000 1.000000 4.000000 1.000000 -60.708740 114.000000 133.000000 0.362864 0.900549 -0.239461
1.92999995 0.75000000 0.46000001 161 58 146 97.000000 1.000000 4.000000 1.000000 -60.708740 114.000000 133.000000 0.590306 0.805478 -0.052377
1.85000002 0.80000001 0.40000001 161 58 146 97.000000 1.000000 4.000000 1.000000 -60.708740 114.000000 133.000000 0.734031 0.643640 -0.216625
1.88999999 0.80000001 0.44000000 161 58 146 97.000000 1.000000 4.000000 1.000000 -60.708740 114.000000 133.000000 0.790188 0.582324 -0.191051
1.88999999 0.80000001 0.41000000 161 58 146 97.000000 1.000000 4.000000 1.000000 -60.708740 114.000000 133.000000 0.627307 0.760970 -0.165560
1.89999998 0.77999997 0.36000001 161 58 146 97.000000 1.000000 4.000000 1.000000 -60.708740 114.000000 133.000000 0.134212 0.952774 -0.272411
1.89999998 0.77999997 0.36000001 161 58 146 97.000000 1.000000 4.000000 1.000000 -60.708740 114.000000 133.000000 0.134212 0.952774 -0.272411
1.89999998 0.77999997 0.36000001 161 58 146 97.000000 1.000000 4.000000 1.000000 -60.708740 114.000000 133.000000 0.134212 0.952774 -0.272411
1.91999996 0.75999999 0.37000000 161 58 146 97.000000 1.000000 4.000000 1.000000 -60.708740 114.000000 133.000000 0.106055 0.938389 -0.328906
1.92999995 0.76999998 0.36000001 161 58 146 97.000000 1.000000 4.000000 1.000000 -60.708740 114.000000 133.000000 0.194937 0.979467 0.051425
1.91999996 0.77999997 0.38000000 161 58 146 97.000000 1.000000 4.000000 1.000000 -60.708740 114.000000 133.000000 0.533581 0.811971 -0.236632
1.90999997 0.75999999 0.37000000 161 58 146 97.000000 1.000000 4.000000 1.000000 -60.708740 114.000000 133.000000 0.688018 0.717610 -0.108011
1.90999997 0.79000002 0.38999999 161 58 146 97.000000 1.000000 4.000000 1.000000 -60.708740 114.000000 133.000000 0.644870 0.580888 -0.496701
1.90999997 0.79000002 0.38999999 161 58 146 97.000000 1.000000 4.000000 1.000000 -60.708740 114.000000 133.000000 0.644870 0.580888 -0.496701
1.90999997 0.77999997 0.37000000 161 58 146 97.000000 1.000000 4.000000 1.000000 -60.708740 114.000000 133.000000 0.206411 0.978409 -0.010495
1.89999998 0.76999998 0.38000000 161 58 146 97.000000 1.000000 4.000000 1.000000 -60.708740 114.000000 133.000000 0.639782 0.710335 -0.293434
1.91999996 0.76999998 0.38000000 161 58 146 97.000000 1.000000 4.000000 1.000000 -60.708740 114.000000 133.000000 0.680666 0.587470 -0.437690
1.92999995 0.76999998 0.34999999 161 58 146 97.000000 1.000000 4.000000 1.000000 -60.708740 114.000000 133.000000 0.578622 0.790425 -0.201060
1.89999998 0.76999998 0.33000001 161 58 146 97.000000 1.000000 4.000000 1.000000 -60.708740 114.000000 133.000000 0.652432 0.585344 -0.481357
1.92999995 0.80000001 0.33000001 161 58 146 97.000000 1.000000 4.000000 1.000000 -60.708740 114.000000 133.000000 0.125447 0.798436 -0.588865
1.91999996 0.76999998 0.34999999 161 58 146 97.000000 1.000000 4.000000 1.000000 -60.708740 114.000000 133.000000 0.211129 0.974158 -0.080254
1.92999995 0.75000000 0.37000000 161 58 146 97.000000 1.000000 4.000000 1.000000 -60.708740 114.000000 133.000000 0.292118 0.953565 -0.073351
1.88999999 0.80000001 0.38000000 161 58 146 97.000000 1.000000 4.000000 1.000000 -60.708740 114.000000 133.000000 0.516418 0.722321 -0.459961
1.88000000 0.80000001 0.37000000 161 58 146 97.000000 1.000000 4.000000 1.000000 -60.708740 114.000000 133.000000 0.423416 0.905821 0.014420
1.88000000 0.80000001 0.37000000 161 58 146 97.000000 1.000000 4.000000 1.000000 -60.708740 114.000000 133.000000 0.423416 0.905821 0.014420
1.87000000 0.80000001 0.34999999 161 58 146 97.000000 1.000000 4.000000 1.000000 -60.708740 114.000000 133.000000 0.764898 0.521300 -0.378389
1.88999999 0.77999997 0.31999999 161 58 146 97.000000 1.000000 4.000000 1.000000 -60.708740 114.000000 133.000000 0.338325 0.929357 -0.147758
1.87000000 0.79000002 0.34000000 161 58 146 97.000000 1.000000 4.000000 1.000000 -60.708740 114.000000 133.000000 0.623212 0.695184 -0.358224
1.86000001 0.80000001 0.34000000 161 58 146 97.000000 1.000000 4.000000 1.000000 -60.708740 114.000000 133.000000 0.356726 0.822849 -0.442341
1.86000001 0.79000002 0.34000000 161 58 146 97.000000 1.000000 4.000000 1.000000 -60.708740 114.000000 133.000000 0.387172 0.798442 -0.461072
1.87000000 0.77999997 0.33000001 161 58 146 97.000000 1.000000 4.000000 1.000000 -60.708740 114.000000 133.000000 0.066372 0.965524 -0.251712
1.86000001 0.80000001 0.33000001 161 58 146 97.000000 1.000000 4.000000 1.000000 -60.708740 114.000000 133.000000 0.615078 0.788456 0.004128
1.82000005 0.80000001 0.47999999 161 58 146 97.000000 1.000000 4.000000 1.000000 -60.708740 114.000000 133.000000 0.700792 0.461091 -0.544321
1.83000004 0.77999997 0.43000001 161 58 146 97.000000 1.000000 4.000000 1.000000 -60.708740 114.000000 133.000000 0.645925 0.551482 -0.527871
1.83000004 0.80000001 0.44000000 161 58 146 97.000000 1.000000 4.000000 1.000000 -60.708740 114.000000 133.000000 0.744881 0.622564 -0.239930
1.83000004 0.80000001 0.33000001 161 58 146 97.000000 1.000000 4.000000 1.000000 -60.708740 114.000000 133.000000 0.567068 0.594152 -0.570454
1.75999999 0.94000000 0.37000000 161 58 146 97.000000 1.000000 4.000000 1.000000 -60.708740 114.000000 133.000000 0.633448 0.739804 -0.226790
1.75999999 0.88000000 0.44999999 161 58 146 97.000000 1.000000 4.000000 1.000000 -60.708740 114.000000 133.000000 0.506841 0.794637 -0.334163
1.75999999 0.87000000 0.44000000 161 58 146 97.000000 1.000000 4.000000 1.000000 -60.708740 114.000000 133.000000 -0.323728 -0.578200 0.748922
1.75999999 0.85000002 0.40000001 161 58 146 97.000000 1.000000 4.000000 1.000000 -60.708740 114.000000 133.000000 0.808255 0.570095 -0.147361
1.72000003 0.87000000 0.43000001 161 58 146 97.000000 1.000000 4.000000 1.000000 -60.708740 114.000000 133.000000 0.671845 0.290224 -0.681465
1.71000004 0.81999999 0.37000000 161 58 146 97.000000 1.000000 4.000000 1.000000 -60.708740 114.000000 133.000000 0.511288 0.779029 -0.362902
1.70000005 0.81000000 0.38000000 161 58 146 97.000000 1.000000 4.000000 1.000000 -60.708740 114.000000 133.000000 0.722743 0.595488 -0.350767
1.69000006 0.83999997 0.38000000 161 58 146 97.000000 1.000000 4.000000 1.000000 -60.708740 114.000000 133.000000 0.680943 0.269507 -0.680943
1.73000002 0.80000001 0.40000001 161 58 146 97.000000 1.000000 4.000000 1.000000 -60.708740 114.000000 133.000000 -0.606226 -0.413562 0.679305
1.89999998 0.89999998 0.28999999 161 58 146 97.000000 1.000000 4.000000 1.000000 -60.708740 114.000000 133.000000 0.608692 0.790005 -0.073388
1.92999995 0.88999999 0.28000000 161 58 146 97.000000 1.000000 4.000000 1.000000 -60.708740 114.000000 133.000000 0.505793 0.815846 -0.280300
1.91999996 0.88999999 0.28000000 161 58 146 97.000000 1.000000 4.000000 1.000000 -60.708740 114.000000 133.000000 0.384129 0.651206 -0.654504
1.89999998 0.88999999 0.23999999 161 58 146 97.000000 1.000000 4.000000 1.000000 -60.708740 114.000000 133.000000 0.296548 0.784980 -0.543936
1.88000000 0.93000001 0.25000000 161 58 146 97.000000 1.000000 4.000000 1.000000 -60.708740 114.000000 133.000000 0.690490 0.714248 -0.114339
1.86000001 0.93000001 0.23999999 161 58 146 97.000000 1.000000 4.000000 1.000000 -60.708740 114.000000 133.000000 0.421787 0.845131 -0.328403
1.88999999 0.91000003 0.31000000 161 58 146 97.000000 1.000000 4.000000 1.000000 -60.708740 114.000000 133.000000 0.587778 0.745593 -0.314019
1.88000000 0.91000003 0.28999999 161 58 146 97.000000 1.000000 4.000000 1.000000 -60.708740 114.000000 133.000000 0.773927 0.624135 -0.107204
1.88999999 0.91000003 0.25999999 161 58 146 97.000000 1.000000 4.000000 1.000000 -60.708740 114.000000 133.000000 0.751144 0.650794 -0.110679
1.86000001 0.89999998 0.25999999 161 58 146 97.000000 1.000000 4.000000 1.000000 -60.708740 114.000000 133.000000 0.420768 0.778177 -0.466256
1.89999998 0.89999998 0.17000000 161 58 146 97.000000 1.000000 4.000000 1.000000 -60.708740 114.000000 133.000000 0.476914 0.820039 -0.316368
1.87000000 0.93000001 0.22000000 161 58 146 97.000000 1.000000 4.000000 1.000000 -60.708740 114.000000 133.000000 0.346132 0.934156 -0.086867
1.85000002 0.93000001 0.19000000 161 58 146 97.000000 1.000000 4.000000 1.000000 -60.708740 114.000000 133.000000 0.380782 0.554014 -0.740320
1.85000002 0.94000000 0.20999999 161 58 146 97.000000 1.000000 4.000000 1.000000 -60.708740 114.000000 133.000000 0.532908 0.754545 -0.382977
1.85000002 0.94000000 0.19000000 161 58 146 97.000000 1.000000 4.000000 1.000000 -60.708740 114.000000 133.000000 0.263893 0.834889 -0.483032
1.85000002 0.94000000 0.20999999 161 58 146 97.000000 1.000000 4.000000 1.000000 -60.708740 114.000000 133.000000 0.532908 0.754545 -0.382977
1.85000002 0.93000001 0.16000000 161 58 146 97.000000 1.000000 4.000000 1.000000 -60.708740 114.000000 133.000000 0.205630 0.969398 -0.134106
1.88000000 0.88999999 0.23000000 161 58 146 97.000000 1.000000 4.000000 1.000000 -60.708740 114.000000 133.000000 0.247307 0.968720 -0.020508
1.87000000 0.88999999 0.20000000 161 58 146 97.000000 1.000000 4.000000 1.000000 -60.708740 114.000000 133.000000 0.424179 0.683677 -0.593851
1.88000000 0.88999999 0.23000000 161 58 146 97.000000 1.000000 4.000000 1.000000 -60.708740 114.000000 133.000000 0.247307 0.968720 -0.020508
1.85000002 0.89999998 0.22000000 161 58 146 97.000000 1.000000 4.000000 1.000000 -60.708740 114.000000 133.000000 0.312484 0.873432 -0.373457
1.88999999 0.89999998 0.16000000 161 58 146 97.000000 1.000000 4.000000 1.000000 -60.708740 114.000000 133.000000 0.602592 0.756781 -0.253309
1.86000001 0.88999999 0.17000000 161 58 146 97.000000 1.000000 4.000000 1.000000 -60.708740 114.000000 133.000000 0.201299 0.775999 -0.597750
1.88000000 0.91000003 0.18000001 161 58 146 97.000000 1.000000 4.000000 1.000000 -60.708740 114.000000 133.000000 0.365936 0.664593 -0.651465
1.85000002 0.89999998 0.16000000 161 58 146 97.000000 1.000000 4.000000 1.000000 -60.708740 114.000000 133.000000 0.262714 0.843451 -0.468584
1.85000002 0.92000002 0.15000001 161 58 146 97.000000 1.000000 4.000000 1.000000 -60.708740 114.000000 133.000000 0.357511 0.847723 -0.391857
1.88000000 0.91000003 0.15000001 161 58 146 97.000000 1.000000 4.000000 1.000000 -60.708740 114.000000 133.000000 0.708384 0.696503 -0.114351
1.85000002 0.88999999 0.15000001 161 58 146 97.000000 1.000000 4.000000 1.000000 -60.708740 114.000000 133.000000 0.483113 0.874530 -0.042426
1.85000002 0.88999999 0.15000001 161 58 146 97.000000 1.000000 4.000000 1.000000 -60.708740 114.000000 133.000000 0.483113 0.874530 -0.042426
1.90999997 0.87000000 0.30000001 161 58 146 97.000000 1.000000 4.000000 1.000000 -60.708740 114.000000 133.000000 0.260172 0.859633 -0.439706
1.92999995 0.88000000 0.28000000 161 58 146 97.000000 1.000000 4.000000 1.000000 -60.708740 114.000000 133.000000 0.581947 0.694689 -0.422782
1.92999995 0.88000000 0.25999999 161 58 146 97.000000 1.000000 4.000000 1.000000 -60.708740 114.000000 133.000000 0.652197 0.588486 -0.477831
1.90999997 0.81999999 0.30000001 161 58 146 97.000000 1.000000 4.000000 1.000000 -60.708740 114.000000 133.000000 0.487672 0.873026 0.001329
1.89999998 0.81000000 0.28000000 161 58 146 97.000000 1.000000 4.000000 1.000000 -60.708740 114.000000 133.000000 0.505042 0.726930 -0.465301
1.90999997 0.81000000 0.28000000 161 58 146 97.000000 1.000000 4.000000 1.000000 -60.708740 114.000000 133.000000 0.129231 0.852345 -0.506761
1.89999998 0.81999999 0.30000001 161 58 146 97.000000 1.000000 4.000000 1.000000 -60.708740 114.000000 133.000000 0.038490 0.962250 -0.269430
1.89999998 0.81999999 0.30000001 161 58 146 97.000000 1.000000 4.000000 1.000000 -60.708740 114.000000 133.000000 0.038490 0.962250 -0.269430
1.89999998 0.82999998 0.25000000 161 58 146 97.000000 1.000000 4.000000 1.000000 -60.708740 114.000000 133.000000 0.558331 0.723031 -0.406808
1.89999998 0.82999998 0.25000000 161 58 146 97.000000 1.000000 4.000000 1.000000 -60.708740 114.000000 133.000000 0.558331 0.723031 -0.406808
