//X Y Z R G B PointSourceId ScanDirectionFlag NumberOfReturns ReturnNumber GpsTime Intensity Classification Nx Ny Nz
4.61000013 -20.09000015 -0.31999999 1 61 224 0.000000 0.000000 0.000000 0.000000 -60.708740 0.000000 6.000000 -0.446988 -0.440486 0.778572
4.57000017 -20.03000069 -0.31000000 1 61 224 0.000000 0.000000 0.000000 0.000000 -60.708740 0.000000 6.000000 0.542922 0.607193 -0.580131
4.55999994 -20.05999947 -0.31999999 1 61 224 0.000000 0.000000 0.000000 0.000000 -60.708740 0.000000 6.000000 0.225960 0.941268 -0.250912
4.53000021 -20.04999924 -0.22000000 1 61 224 0.000000 0.000000 0.000000 0.000000 -60.708740 0.000000 6.000000 -0.085081 0.922384 -0.376787
4.53000021 -20.04999924 -0.22000000 1 61 224 0.000000 0.000000 0.000000 0.000000 -60.708740 0.000000 6.000000 -0.085081 0.922384 -0.376787
4.51000023 -20.04000092 -0.22000000 1 61 224 0.000000 0.000000 0.000000 0.000000 -60.708740 0.000000 6.000000 0.015971 0.959478 -0.281332
4.51999998 -20.04999924 -0.23999999 1 61 224 0.000000 0.000000 0.000000 0.000000 -60.708740 0.000000 6.000000 0.043137 0.998466 -0.034720
4.51999998 -20.04999924 -0.23999999 1 61 224 0.000000 0.000000 0.000000 0.000000 -60.708740 0.000000 6.000000 0.043137 0.998466 -0.034720
4.51000023 -20.06999969 -0.20999999 1 61 224 0.000000 0.000000 0.000000 0.000000 -60.708740 0.000000 6.000000 0.066016 0.996733 -0.046536
4.51999998 -20.05999947 -0.27000001 1 61 224 0.000000 0.000000 0.000000 0.000000 -60.708740 0.000000 6.000000 0.225303 0.826109 -0.516510
4.53000021 -20.05999947 -0.23999999 1 61 224 0.000000 0.000000 0.000000 0.000000 -60.708740 0.000000 6.000000 0.190626 0.924888 -0.329006
4.46999979 -20.06999969 -0.20000000 1 61 224 0.000000 0.000000 0.000000 0.000000 -60.708740 0.000000 6.000000 -0.203767 0.978322 -0.036940
4.48000002 -20.06999969 -0.22000000 1 61 224 0.000000 0.000000 0.000000 0.000000 -60.708740 0.000000 6.000000 0.169866 0.975156 -0.142184
4.48000002 -20.06999969 -0.20000000 1 61 224 0.000000 0.000000 0.000000 0.000000 -60.708740 0.000000 6.000000 0.122821 0.963176 0.239178
4.48999977 -20.07999992 -0.27000001 1 61 224 0.000000 0.000000 0.000000 0.000000 -60.708740 0.000000 6.000000 -0.005953 0.970335 -0.241691
4.46999979 -20.06999969 -0.25999999 1 61 224 0.000000 0.000000 0.000000 0.000000 -60.708740 0.000000 6.000000 0.212118 0.852985 -0.476889
4.51999998 -20.09000015 -0.28000000 1 61 224 0.000000 0.000000 0.000000 0.000000 -60.708740 0.000000 6.000000 0.031553 0.851940 -0.522688
4.46999979 -20.17000008 -0.20000000 1 61 224 0.000000 0.000000 0.000000 0.000000 -60.708740 0.000000 6.000000 -0.029470 0.939198 -0.342109
4.46000004 -20.14999962 -0.19000000 1 61 224 0.000000 0.000000 0.000000 0.000000 -60.708740 0.000000 6.000000 -0.262324 0.964319 -0.035716
4.46000004 -20.17000008 -0.23000000 1 61 224 0.000000 0.000000 0.000000 0.000000 -60.708740 0.000000 6.000000 0.158971 0.761545 -0.628313
4.53000021 -20.11000061 -0.30000001 1 61 224 0.000000 0.000000 0.000000 0.000000 -60.708740 0.000000 6.000000 0.447255 0.823392 -0.349270
4.51999998 -20.11000061 -0.31000000 1 61 224 0.000000 0.000000 0.000000 0.000000 -60.708740 0.000000 6.000000 0.250030 0.839057 -0.483186
4.51000023 -20.11000061 -0.33000001 1 61 224 0.000000 0.000000 0.000000 0.000000 -60.708740 0.000000 6.000000 0.567700 0.752082 -0.334798
4.48999977 -20.14999962 -0.34999999 1 61 224 0.000000 0.000000 0.000000 0.000000 -60.708740 0.000000 6.000000 -0.586610 -0.459594 0.666830
4.48999977 -20.14999962 -0.34999999 1 61 224 0.000000 0.000000 0.000000 0.000000 -60.708740 0.000000 6.000000 -0.586610 -0.459594 0.666830
4.42999983 -20.06999969 -0.13000000 1 61 224 0.000000 0.000000 0.000000 0.000000 -60.708740 0.000000 6.000000 -0.567761 0.815883 -0.109465
4.44999981 -20.07999992 -0.16000000 1 61 224 0.000000 0.000000 0.000000 0.000000 -60.708740 0.000000 6.000000 0.006896 0.999976 -0.000985
4.44999981 -20.05999947 -0.13000000 1 61 224 0.000000 0.000000 0.000000 0.000000 -60.708740 0.000000 6.000000 0.078619 0.980921 -0.177800
4.44999981 -20.06999969 -0.14000000 1 61 224 0.000000 0.000000 0.000000 0.000000 -60.708740 0.000000 6.000000 -0.103020 0.955865 -0.275153
4.44000006 -20.05999947 -0.15000001 1 61 224 0.000000 0.000000 0.000000 0.000000 -60.708740 0.000000 6.000000 -0.451264 0.880902 0.142732
4.44000006 -20.11000061 -0.05000000 1 61 224 0.000000 0.000000 0.000000 0.000000 -60.708740 0.000000 6.000000 -0.651358 0.758770 0.001377
4.42999983 -20.11000061 -0.09000000 1 61 224 0.000000 0.000000 0.000000 0.000000 -60.708740 0.000000 6.000000 -0.461430 0.882186 0.093969
4.42000008 -20.15999985 -0.06000000 1 61 224 0.000000 0.000000 0.000000 0.000000 -60.708740 0.000000 6.000000 0.832741 -0.234640 -0.501485
4.42000008 -20.15999985 -0.06000000 1 61 224 0.000000 0.000000 0.000000 0.000000 -60.708740 0.000000 6.000000 0.832741 -0.234640 -0.501485
4.42000008 -20.15999985 -0.06000000 1 61 224 0.000000 0.000000 0.000000 0.000000 -60.708740 0.000000 6.000000 0.832741 -0.234640 -0.501485
4.42999983 -20.15999985 -0.05000000 1 61 224 0.000000 0.000000 0.000000 0.000000 -60.708740 0.000000 6.000000 0.761489 -0.371814 -0.530932
4.42000008 -20.15999985 -0.06000000 1 61 224 0.000000 0.000000 0.000000 0.000000 -60.708740 0.000000 6.000000 0.832741 -0.234640 -0.501485
4.42000008 -20.17000008 -0.10000000 1 61 224 0.000000 0.000000 0.000000 0.000000 -60.708740 0.000000 6.000000 0.834477 -0.392788 -0.386478
4.42999983 -20.17000008 -0.09000000 1 61 224 0.000000 0.000000 0.000000 0.000000 -60.708740 0.000000 6.000000 0.542965 -0.583561 -0.603859
4.44000006 -20.17000008 -0.09000000 1 61 224 0.000000 0.000000 0.000000 0.000000 -60.708740 0.000000 6.000000 0.793785 -0.506297 -0.336999
4.42999983 -20.13999939 -0.10000000 1 61 224 0.000000 0.000000 0.000000 0.000000 -60.708740 0.000000 6.000000 -0.699450 0.539194 0.469083
4.42000008 -20.17000008 -0.10000000 1 61 224 0.000000 0.000000 0.000000 0.000000 -60.708740 0.000000 6.000000 0.834477 -0.392788 -0.386478
4.40000010 -20.18000031 -0.10000000 1 61 224 0.000000 0.000000 0.000000 0.000000 -60.708740 0.000000 6.000000 -0.618228 0.747222 0.243830
4.44000006 -20.12999916 -0.12000000 1 61 224 0.000000 0.000000 0.000000 0.000000 -60.708740 0.000000 6.000000 -0.294678 0.865711 0.404609
4.44000006 -20.12999916 -0.11000000 1 61 224 0.000000 0.000000 0.000000 0.000000 -60.708740 0.000000 6.000000 -0.462531 0.877806 -0.124583
4.42999983 -20.12999916 -0.13000000 1 61 224 0.000000 0.000000 0.000000 0.000000 -60.708740 0.000000 6.000000 -0.426540 0.901084 -0.078176
4.44000006 -20.12999916 -0.12000000 1 61 224 0.000000 0.000000 0.000000 0.000000 -60.708740 0.000000 6.000000 -0.294678 0.865711 0.404609
4.42999983 -20.12999916 -0.12000000 1 61 224 0.000000 0.000000 0.000000 0.000000 -60.708740 0.000000 6.000000 -0.455620 0.783147 0.423191
4.42000008 -20.15999985 -0.12000000 1 61 224 0.000000 0.000000 0.000000 0.000000 -60.708740 0.000000 6.000000 0.778085 -0.605177 -0.168358
4.44999981 -20.14999962 -0.12000000 1 61 224 0.000000 0.000000 0.000000 0.000000 -60.708740 0.000000 6.000000 -0.401294 0.907456 -0.124443
4.44000006 -20.15999985 -0.18000001 1 61 224 0.000000 0.000000 0.000000 0.000000 -60.708740 0.000000 6.000000 -0.109554 0.990603 0.081878
4.44999981 -20.18000031 -0.15000001 1 61 224 0.000000 0.000000 0.000000 0.000000 -60.708740 0.000000 6.000000 -0.232747 0.953858 -0.189695
4.42999983 -20.17000008 -0.15000001 1 61 224 0.000000 0.000000 0.000000 0.000000 -60.708740 0.000000 6.000000 -0.514100 0.857729 0.001342
4.44000006 -20.15999985 -0.16000000 1 61 224 0.000000 0.000000 0.000000 0.000000 -60.708740 0.000000 6.000000 -0.502469 0.855790 0.123083
4.42999983 -20.17000008 -0.15000001 1 61 224 0.000000 0.000000 0.000000 0.000000 -60.708740 0.000000 6.000000 -0.514100 0.857729 0.001342
4.44000006 -20.15999985 -0.18000001 1 61 224 0.000000 0.000000 0.000000 0.000000 -60.708740 0.000000 6.000000 -0.109554 0.990603 0.081878
4.44999981 -20.07999992 -0.20000000 1 61 224 0.000000 0.000000 0.000000 0.000000 -60.708740 0.000000 6.000000 -0.285567 0.958071 -0.023488
4.44999981 -20.07999992 -0.28000000 1 61 224 0.000000 0.000000 0.000000 0.000000 -60.708740 0.000000 6.000000 0.093050 0.995083 0.033936
4.44999981 -20.10000038 -0.22000000 1 61 224 0.000000 0.000000 0.000000 0.000000 -60.708740 0.000000 6.000000 -0.062843 0.972215 0.225495
4.44999981 -20.10000038 -0.19000000 1 61 224 0.000000 0.000000 0.000000 0.000000 -60.708740 0.000000 6.000000 -0.253660 0.891520 -0.375299
4.42999983 -20.12999916 -0.19000000 1 61 224 0.000000 0.000000 0.000000 0.000000 -60.708740 0.000000 6.000000 -0.092458 0.988952 -0.115865
4.44999981 -20.17000008 -0.22000000 1 61 224 0.000000 0.000000 0.000000 0.000000 -60.708740 0.000000 6.000000 -0.085843 0.959649 -0.267779
4.42000008 -20.14999962 -0.20999999 1 61 224 0.000000 0.000000 0.000000 0.000000 -60.708740 0.000000 6.000000 -0.069628 0.991909 -0.106154
4.44000006 -20.18000031 -0.23999999 1 61 224 0.000000 0.000000 0.000000 0.000000 -60.708740 0.000000 6.000000 0.115820 0.804875 -0.582032
4.44000006 -20.18000031 -0.23999999 1 61 224 0.000000 0.000000 0.000000 0.000000 -60.708740 0.000000 6.000000 0.115820 0.804875 -0.582032
4.44000006 -20.18000031 -0.23999999 1 61 224 0.000000 0.000000 0.000000 0.000000 -60.708740 0.000000 6.000000 0.115820 0.804875 -0.582032
4.42000008 -20.18000031 -0.23000000 1 61 224 0.000000 0.000000 0.000000 0.000000 -60.708740 0.000000 6.000000 -0.418100 0.908287 0.014417
4.42999983 -20.14999962 -0.23000000 1 61 224 0.000000 0.000000 0.000000 0.000000 -60.708740 0.000000 6.000000 -0.145060 0.969209 -0.198977
4.44999981 -20.14999962 -0.30000001 1 61 224 0.000000 0.000000 0.000000 0.000000 -60.708740 0.000000 6.000000 0.435356 0.598823 -0.672217
4.57999992 -20.06999969 -0.36000001 1 61 224 0.000000 0.000000 0.000000 0.000000 -60.708740 0.000000 6.000000 0.385070 0.791085 -0.475295
4.55999994 -20.05999947 -0.40000001 1 61 224 0.000000 0.000000 0.000000 0.000000 -60.708740 0.000000 6.000000 0.397032 0.779478 -0.484541
4.55000019 -20.12000084 -0.37000000 1 61 224 0.000000 0.000000 0.000000 0.000000 -60.708740 0.000000 6.000000 0.556964 0.789163 -0.258870
4.53999996 -20.12000084 -0.41000000 1 61 224 0.000000 0.000000 0.000000 0.000000 -60.708740 0.000000 6.000000 0.799563 0.247818 -0.547070
4.55000019 -20.12999916 -0.51999998 1 61 224 0.000000 0.000000 0.000000 0.000000 -60.708740 0.000000 6.000000 0.887644 0.175785 -0.425662
4.53000021 -20.09000015 -0.46000001 1 61 224 0.000000 0.000000 0.000000 0.000000 -60.708740 0.000000 6.000000 -0.647270 -0.311529 0.695694
4.53000021 -20.11000061 -0.43000001 1 61 224 0.000000 0.000000 0.000000 0.000000 -60.708740 0.000000 6.000000 0.555233 0.769645 -0.315219
4.53000021 -20.11000061 -0.41999999 1 61 224 0.000000 0.000000 0.000000 0.000000 -60.708740 0.000000 6.000000 0.694757 0.672601 -0.254797
4.53000021 -20.11000061 -0.41999999 1 61 224 0.000000 0.000000 0.000000 0.000000 -60.708740 0.000000 6.000000 0.694757 0.672601 -0.254797
4.50000000 -20.17000008 -0.41999999 1 61 224 0.000000 0.000000 0.000000 0.000000 -60.708740 0.000000 6.000000 0.797516 0.337226 -0.500246
4.50000000 -20.17000008 -0.41999999 1 61 224 0.000000 0.000000 0.000000 0.000000 -60.708740 0.000000 6.000000 0.797516 0.337226 -0.500246
4.48000002 -20.12000084 -0.37000000 1 61 224 0.000000 0.000000 0.000000 0.000000 -60.708740 0.000000 6.000000 0.203706 0.889564 -0.408877
4.48999977 -20.13999939 -0.38000000 1 61 224 0.000000 0.000000 0.000000 0.000000 -60.708740 0.000000 6.000000 0.793337 0.405555 -0.454028
4.48999977 -20.15999985 -0.41999999 1 61 224 0.000000 0.000000 0.000000 0.000000 -60.708740 0.000000 6.000000 -0.429295 -0.311510 0.847742
4.48999977 -20.14999962 -0.41999999 1 61 224 0.000000 0.000000 0.000000 0.000000 -60.708740 0.000000 6.000000 0.677547 0.460062 -0.573823
4.53000021 -20.12999916 -0.47000000 1 61 224 0.000000 0.000000 0.000000 0.000000 -60.708740 0.000000 6.000000 0.625063 0.625063 -0.467540
4.51999998 -20.12000084 -0.47999999 1 61 224 0.000000 0.000000 0.000000 0.000000 -60.708740 0.000000 6.000000 -0.460994 -0.365286 0.808734
4.51000023 -20.12000084 -0.47999999 1 61 224 0.000000 0.000000 0.000000 0.000000 -60.708740 0.000000 6.000000 0.751067 0.271527 -0.601806
4.53000021 -20.13999939 -0.44999999 1 61 224 0.000000 0.000000 0.000000 0.000000 -60.708740 0.000000 6.000000 0.594655 0.405823 -0.694041
4.59000015 -20.12000084 -0.54000002 1 61 224 0.000000 0.000000 0.000000 0.000000 -60.708740 0.000000 6.000000 0.810210 0.001366 -0.586138
4.55000019 -20.12000084 -0.54000002 1 61 224 0.000000 0.000000 0.000000 0.000000 -60.708740 0.000000 6.000000 0.917290 0.252796 -0.307689
4.53000021 -20.15999985 -0.55000001 1 61 224 0.000000 0.000000 0.000000 0.000000 -60.708740 0.000000 6.000000 0.808520 0.473630 -0.349242
4.55000019 -20.30999947 -0.04000000 1 61 224 0.000000 0.000000 0.000000 0.000000 -60.708740 0.000000 6.000000 -0.022971 0.999736 0.000999
4.55000019 -20.34000015 -0.05000000 1 61 224 0.000000 0.000000 0.000000 0.000000 -60.708740 0.000000 6.000000 0.048953 0.960229 0.274889
4.46999979 -20.21999931 -0.04000000 1 61 224 0.000000 0.000000 0.000000 0.000000 -60.708740 0.000000 6.000000 0.830325 -0.114879 -0.545310
4.46000004 -20.26000023 -0.04000000 1 61 224 0.000000 0.000000 0.000000 0.000000 -60.708740 0.000000 6.000000 0.811127 0.280835 -0.513034
4.50000000 -20.34000015 -0.10000000 1 61 224 0.000000 0.000000 0.000000 0.000000 -60.708740 0.000000 6.000000 0.302290 0.942116 0.145045
4.53000021 -20.34000015 -0.10000000 1 61 224 0.000000 0.000000 0.000000 0.000000 -60.708740 0.000000 6.000000 -0.006910 0.999964 -0.004936
4.53000021 -20.34000015 -0.10000000 1 61 224 0.000000 0.000000 0.000000 0.000000 -60.708740 0.000000 6.000000 -0.006910 0.999964 -0.004936
4.51000023 -20.32999992 -0.08000000 1 61 224 0.000000 0.000000 0.000000 0.000000 -60.708740 0.000000 6.000000 0.022349 0.997204 -0.071305
4.48000002 -20.28000069 -0.08000000 1 61 224 0.000000 0.000000 0.000000 0.000000 -60.708740 0.000000 6.000000 0.795656 0.380951 -0.470964
4.46999979 -20.31999969 -0.10000000 1 61 224 0.000000 0.000000 0.000000 0.000000 -60.708740 0.000000 6.000000 0.097458 0.795668 -0.597842
4.48999977 -20.30999947 -0.08000000 1 61 224 0.000000 0.000000 0.000000 0.000000 -60.708740 0.000000 6.000000 0.176772 0.984219 0.007983
4.48000002 -20.34000015 -0.10000000 1 61 224 0.000000 0.000000 0.000000 0.000000 -60.708740 0.000000 6.000000 0.264803 0.960711 0.083151
4.48999977 -20.34000015 -0.12000000 1 61 224 0.000000 0.000000 0.000000 0.000000 -60.708740 0.000000 6.000000 0.162760 0.986665 0.001122
4.46999979 -20.31999969 -0.14000000 1 61 224 0.000000 0.000000 0.000000 0.000000 -60.708740 0.000000 6.000000 0.360261 0.922212 0.140488
4.48000002 -20.34000015 -0.13000000 1 61 224 0.000000 0.000000 0.000000 0.000000 -60.708740 0.000000 6.000000 -0.136624 0.926009 -0.351911
4.48999977 -20.31999969 -0.17000000 1 61 224 0.000000 0.000000 0.000000 0.000000 -60.708740 0.000000 6.000000 -0.128090 0.942474 -0.308765
4.46999979 -20.25000000 -0.23000000 1 61 224 0.000000 0.000000 0.000000 0.000000 -60.708740 0.000000 6.000000 0.699450 -0.539194 -0.469083
4.48000002 -20.20999908 -0.20999999 1 61 224 0.000000 0.000000 0.000000 0.000000 -60.708740 0.000000 6.000000 0.573053 0.812189 -0.109361
4.46000004 -20.26000023 -0.34000000 1 61 224 0.000000 0.000000 0.000000 0.000000 -60.708740 0.000000 6.000000 0.877972 -0.199204 -0.435297
4.46000004 -20.30999947 -0.19000000 1 61 224 0.000000 0.000000 0.000000 0.000000 -60.708740 0.000000 6.000000 0.150591 0.942892 -0.297113
4.48000002 -20.31999969 -0.22000000 1 61 224 0.000000 0.000000 0.000000 0.000000 -60.708740 0.000000 6.000000 -0.358323 0.921601 -0.149185
4.46999979 -20.30999947 -0.25000000 1 61 224 0.000000 0.000000 0.000000 0.000000 -60.708740 0.000000 6.000000 -0.408923 0.903565 0.127876
4.59999990 -20.35000038 -0.09000000 1 61 224 0.000000 0.000000 0.000000 0.000000 -60.708740 0.000000 6.000000 -0.460846 0.703747 0.540704
4.57999992 -20.35000038 -0.07000000 1 61 224 0.000000 0.000000 0.000000 0.000000 -60.708740 0.000000 6.000000 -0.145995 0.949639 0.277257
4.61000013 -20.37999916 -0.12000000 1 61 224 0.000000 0.000000 0.000000 0.000000 -60.708740 0.000000 6.000000 0.759012 -0.645378 -0.085953
4.59000015 -20.37999916 -0.14000000 1 61 224 0.000000 0.000000 0.000000 0.000000 -60.708740 0.000000 6.000000 -0.437684 0.776117 0.453955
4.57000017 -20.37999916 -0.15000001 1 61 224 0.000000 0.000000 0.000000 0.000000 -60.708740 0.000000 6.000000 -0.008816 0.940819 0.338795
4.53999996 -20.39999962 -0.17000000 1 61 224 0.000000 0.000000 0.000000 0.000000 -60.708740 0.000000 6.000000 -0.194860 0.963839 0.181782
4.51999998 -20.35000038 -0.09000000 1 61 224 0.000000 0.000000 0.000000 0.000000 -60.708740 0.000000 6.000000 0.276940 0.941044 0.194271
4.53000021 -20.36000061 -0.07000000 1 61 224 0.000000 0.000000 0.000000 0.000000 -60.708740 0.000000 6.000000 -0.121736 0.992533 0.007677
4.57999992 -20.37999916 -0.23999999 1 61 224 0.000000 0.000000 0.000000 0.000000 -60.708740 0.000000 6.000000 0.427762 -0.637481 -0.640810
4.57999992 -20.38999939 -0.23000000 1 61 224 0.000000 0.000000 0.000000 0.000000 -60.708740 0.000000 6.000000 0.762813 -0.626866 -0.158605
4.53999996 -20.38999939 -0.19000000 1 61 224 0.000000 0.000000 0.000000 0.000000 -60.708740 0.000000 6.000000 -0.233042 0.901388 0.364952
4.55999994 -20.40999985 -0.22000000 1 61 224 0.000000 0.000000 0.000000 0.000000 -60.708740 0.000000 6.000000 -0.297510 0.936812 0.184041
4.55999994 -20.40999985 -0.22000000 1 61 224 0.000000 0.000000 0.000000 0.000000 -60.708740 0.000000 6.000000 -0.297510 0.936812 0.184041
4.53999996 -20.39999962 -0.23000000 1 61 224 0.000000 0.000000 0.000000 0.000000 -60.708740 0.000000 6.000000 -0.441986 0.864362 0.239849
4.55999994 -20.45000076 -0.28999999 1 61 224 0.000000 0.000000 0.000000 0.000000 -60.708740 0.000000 6.000000 -0.640981 0.763073 0.082848
4.51999998 -20.37000084 -0.20999999 1 61 224 0.000000 0.000000 0.000000 0.000000 -60.708740 0.000000 6.000000 -0.504844 0.861692 0.051176
4.51999998 -20.37000084 -0.20999999 1 61 224 0.000000 0.000000 0.000000 0.000000 -60.708740 0.000000 6.000000 -0.504844 0.861692 0.051176
4.51999998 -20.37999916 -0.23999999 1 61 224 0.000000 0.000000 0.000000 0.000000 -60.708740 0.000000 6.000000 0.664375 -0.717276 -0.210048
4.51999998 -20.37999916 -0.25000000 1 61 224 0.000000 0.000000 0.000000 0.000000 -60.708740 0.000000 6.000000 -0.244339 0.729864 0.638434
4.51999998 -20.43000031 -0.27000001 1 61 224 0.000000 0.000000 0.000000 0.000000 -60.708740 0.000000 6.000000 -0.339056 0.728402 0.595375
4.48999977 -20.35000038 -0.23000000 1 61 224 0.000000 0.000000 0.000000 0.000000 -60.708740 0.000000 6.000000 -0.169815 0.946889 0.273063
4.51000023 -20.38999939 -0.33000001 1 61 224 0.000000 0.000000 0.000000 0.000000 -60.708740 0.000000 6.000000 -0.675017 0.712089 0.193083
4.46000004 -20.35000038 -0.30000001 1 61 224 0.000000 0.000000 0.000000 0.000000 -60.708740 0.000000 6.000000 -0.636463 0.733897 0.237299
4.46000004 -20.37999916 -0.33000001 1 61 224 0.000000 0.000000 0.000000 0.000000 -60.708740 0.000000 6.000000 -0.649251 0.760471 -0.012512
4.46999979 -20.37000084 -0.33000001 1 61 224 0.000000 0.000000 0.000000 0.000000 -60.708740 0.000000 6.000000 -0.586814 0.785994 0.194583
4.46999979 -20.37000084 -0.33000001 1 61 224 0.000000 0.000000 0.000000 0.000000 -60.708740 0.000000 6.000000 -0.586814 0.785994 0.194583
4.44000006 -20.21999931 -0.06000000 1 61 224 0.000000 0.000000 0.000000 0.000000 -60.708740 0.000000 6.000000 0.700453 0.080093 -0.709190
4.44999981 -20.20000076 -0.10000000 1 61 224 0.000000 0.000000 0.000000 0.000000 -60.708740 0.000000 6.000000 0.876158 -0.199463 -0.438818
4.42999983 -20.21999931 -0.10000000 1 61 224 0.000000 0.000000 0.000000 0.000000 -60.708740 0.000000 6.000000 -0.502582 0.549647 0.667308
4.44999981 -20.26000023 -0.05000000 1 61 224 0.000000 0.000000 0.000000 0.000000 -60.708740 0.000000 6.000000 0.858681 0.154122 -0.488788
4.44999981 -20.26000023 -0.04000000 1 61 224 0.000000 0.000000 0.000000 0.000000 -60.708740 0.000000 6.000000 0.781781 0.300930 -0.546132
4.42999983 -20.23999977 -0.05000000 1 61 224 0.000000 0.000000 0.000000 0.000000 -60.708740 0.000000 6.000000 0.710647 -0.233745 -0.663584
4.44000006 -20.23999977 -0.09000000 1 61 224 0.000000 0.000000 0.000000 0.000000 -60.708740 0.000000 6.000000 0.945024 -0.093842 -0.313246
4.42000008 -20.20999908 -0.11000000 1 61 224 0.000000 0.000000 0.000000 0.000000 -60.708740 0.000000 6.000000 0.774816 -0.040928 -0.630861
4.44000006 -20.21999931 -0.15000001 1 61 224 0.000000 0.000000 0.000000 0.000000 -60.708740 0.000000 6.000000 0.597035 -0.482673 -0.640762
4.44000006 -20.21999931 -0.15000001 1 61 224 0.000000 0.000000 0.000000 0.000000 -60.708740 0.000000 6.000000 0.597035 -0.482673 -0.640762
4.44000006 -20.21999931 -0.15000001 1 61 224 0.000000 0.000000 0.000000 0.000000 -60.708740 0.000000 6.000000 0.597035 -0.482673 -0.640762
4.44000006 -20.19000053 -0.15000001 1 61 224 0.000000 0.000000 0.000000 0.000000 -60.708740 0.000000 6.000000 0.768703 -0.630542 -0.107295
4.44999981 -20.22999954 -0.13000000 1 61 224 0.000000 0.000000 0.000000 0.000000 -60.708740 0.000000 6.000000 0.809630 -0.034958 -0.585898
4.44999981 -20.22999954 -0.18000001 1 61 224 0.000000 0.000000 0.000000 0.000000 -60.708740 0.000000 6.000000 -0.508374 0.855834 0.095409
4.44000006 -20.22999954 -0.15000001 1 61 224 0.000000 0.000000 0.000000 0.000000 -60.708740 0.000000 6.000000 0.954589 -0.013584 -0.297615
4.44000006 -20.23999977 -0.17000000 1 61 224 0.000000 0.000000 0.000000 0.000000 -60.708740 0.000000 6.000000 0.883019 -0.076482 -0.463064
4.44999981 -20.27000046 -0.05000000 1 61 224 0.000000 0.000000 0.000000 0.000000 -60.708740 0.000000 6.000000 0.795648 0.306507 -0.522492
4.42000008 -20.19000053 -0.20999999 1 61 224 0.000000 0.000000 0.000000 0.000000 -60.708740 0.000000 6.000000 -0.257786 0.955792 0.141452
4.44000006 -20.23999977 -0.19000000 1 61 224 0.000000 0.000000 0.000000 0.000000 -60.708740 0.000000 6.000000 0.917575 -0.027488 -0.396612
4.44000006 -20.22999954 -0.19000000 1 61 224 0.000000 0.000000 0.000000 0.000000 -60.708740 0.000000 6.000000 0.740748 -0.540368 -0.399117
4.44000006 -20.26000023 -0.27000001 1 61 224 0.000000 0.000000 0.000000 0.000000 -60.708740 0.000000 6.000000 0.831715 -0.093370 -0.547295
4.44000006 -20.19000053 -0.31000000 1 61 224 0.000000 0.000000 0.000000 0.000000 -60.708740 0.000000 6.000000 0.724573 0.371282 -0.580640
4.44999981 -20.20000076 -0.31000000 1 61 224 0.000000 0.000000 0.000000 0.000000 -60.708740 0.000000 6.000000 0.538984 0.626844 -0.562639
4.44000006 -20.25000000 -0.28000000 1 61 224 0.000000 0.000000 0.000000 0.000000 -60.708740 0.000000 6.000000 0.943023 -0.136259 -0.303548
4.42999983 -20.26000023 -0.30000001 1 61 224 0.000000 0.000000 0.000000 0.000000 -60.708740 0.000000 6.000000 -0.542791 0.046047 0.838605
4.44000006 -20.22999954 -0.34999999 1 61 224 0.000000 0.000000 0.000000 0.000000 -60.708740 0.000000 6.000000 -0.734414 0.018185 0.678458
4.44000006 -20.23999977 -0.31999999 1 61 224 0.000000 0.000000 0.000000 0.000000 -60.708740 0.000000 6.000000 0.778674 0.241873 -0.578934
4.44000006 -20.22999954 -0.34999999 1 61 224 0.000000 0.000000 0.000000 0.000000 -60.708740 0.000000 6.000000 -0.734414 0.018185 0.678458
4.44999981 -20.22999954 -0.34999999 1 61 224 0.000000 0.000000 0.000000 0.000000 -60.708740 0.000000 6.000000 -0.706523 -0.189330 0.681894
4.44999981 -20.22999954 -0.34999999 1 61 224 0.000000 0.000000 0.000000 0.000000 -60.708740 0.000000 6.000000 -0.706523 -0.189330 0.681894
4.42999983 -20.27000046 -0.30000001 1 61 224 0.000000 0.000000 0.000000 0.000000 -60.708740 0.000000 6.000000 0.619245 -0.545003 -0.565251
4.42999983 -20.27000046 -0.33000001 1 61 224 0.000000 0.000000 0.000000 0.000000 -60.708740 0.000000 6.000000 -0.682310 0.032491 0.730340
4.44999981 -20.28000069 -0.34000000 1 61 224 0.000000 0.000000 0.000000 0.000000 -60.708740 0.000000 6.000000 0.821269 -0.474476 -0.316843
4.40999985 -20.30999947 -0.31000000 1 61 224 0.000000 0.000000 0.000000 0.000000 -60.708740 0.000000 6.000000 -0.370545 0.865631 0.336720
4.44999981 -20.31999969 -0.28000000 1 61 224 0.000000 0.000000 0.000000 0.000000 -60.708740 0.000000 6.000000 -0.417341 0.872349 0.254624
4.42999983 -20.30999947 -0.30000001 1 61 224 0.000000 0.000000 0.000000 0.000000 -60.708740 0.000000 6.000000 -0.485253 0.821317 0.299946
4.42999983 -20.30999947 -0.34000000 1 61 224 0.000000 0.000000 0.000000 0.000000 -60.708740 0.000000 6.000000 -0.647967 0.729158 0.220153
4.46000004 -20.26000023 -0.38999999 1 61 224 0.000000 0.000000 0.000000 0.000000 -60.708740 0.000000 6.000000 0.829029 -0.298201 -0.473062
4.46000004 -20.22999954 -0.43000001 1 61 224 0.000000 0.000000 0.000000 0.000000 -60.708740 0.000000 6.000000 0.763690 0.149123 -0.628124
4.46000004 -20.25000000 -0.43000001 1 61 224 0.000000 0.000000 0.000000 0.000000 -60.708740 0.000000 6.000000 0.771925 -0.161636 -0.614821
4.46000004 -20.23999977 -0.43000001 1 61 224 0.000000 0.000000 0.000000 0.000000 -60.708740 0.000000 6.000000 0.884816 -0.114672 -0.451610
4.46000004 -20.21999931 -0.47000000 1 61 224 0.000000 0.000000 0.000000 0.000000 -60.708740 0.000000 6.000000 0.779602 0.431304 -0.454090
4.48000002 -20.20999908 -0.51999998 1 61 224 0.000000 0.000000 0.000000 0.000000 -60.708740 0.000000 6.000000 0.932136 -0.024428 -0.361283
4.46000004 -20.23999977 -0.51999998 1 61 224 0.000000 0.000000 0.000000 0.000000 -60.708740 0.000000 6.000000 0.691617 0.348261 -0.632756
4.46000004 -20.29999924 -0.38000000 1 61 224 0.000000 0.000000 0.000000 0.000000 -60.708740 0.000000 6.000000 0.848925 -0.012225 -0.528371
4.48000002 -20.29000092 -0.46000001 1 61 224 0.000000 0.000000 0.000000 0.000000 -60.708740 0.000000 6.000000 0.937372 -0.189690 -0.292150
4.48000002 -20.29000092 -0.47000000 1 61 224 0.000000 0.000000 0.000000 0.000000 -60.708740 0.000000 6.000000 0.750034 -0.260538 -0.607922
4.46000004 -20.29999924 -0.49000001 1 61 224 0.000000 0.000000 0.000000 0.000000 -60.708740 0.000000 6.000000 0.895127 -0.087431 -0.437155
4.46000004 -20.29000092 -0.50000000 1 61 224 0.000000 0.000000 0.000000 0.000000 -60.708740 0.000000 6.000000 0.829301 -0.318238 -0.459329
4.46000004 -20.30999947 -0.44000000 1 61 224 0.000000 0.000000 0.000000 0.000000 -60.708740 0.000000 6.000000 -0.621545 0.113679 0.775086
4.46000004 -20.30999947 -0.49000001 1 61 224 0.000000 0.000000 0.000000 0.000000 -60.708740 0.000000 6.000000 0.905919 -0.219573 -0.362077
4.53999996 -20.23999977 -0.61000001 1 61 224 0.000000 0.000000 0.000000 0.000000 -60.708740 0.000000 6.000000 0.842469 0.203458 -0.498850
4.50000000 -20.20000076 -0.60000002 1 61 224 0.000000 0.000000 0.000000 0.000000 -60.708740 0.000000 6.000000 0.797947 -0.186948 -0.573002
4.48999977 -20.21999931 -0.55000001 1 61 224 0.000000 0.000000 0.000000 0.000000 -60.708740 0.000000 6.000000 0.874867 -0.020220 -0.483940
4.46000004 -20.21999931 -0.56000000 1 61 224 0.000000 0.000000 0.000000 0.000000 -60.708740 0.000000 6.000000 0.919454 -0.014265 -0.392940
4.50000000 -20.19000053 -0.62000000 1 61 224 0.000000 0.000000 0.000000 0.000000 -60.708740 0.000000 6.000000 0.864637 -0.125582 -0.486448
4.50000000 -20.19000053 -0.61000001 1 61 224 0.000000 0.000000 0.000000 0.000000 -60.708740 0.000000 6.000000 -0.552494 -0.046158 0.832238
4.50000000 -20.20000076 -0.63000000 1 61 224 0.000000 0.000000 0.000000 0.000000 -60.708740 0.000000 6.000000 0.820194 0.402930 -0.406115
4.53000021 -20.21999931 -0.64999998 1 61 224 0.000000 0.000000 0.000000 0.000000 -60.708740 0.000000 6.000000 0.743982 -0.236508 -0.624944
4.51999998 -20.21999931 -0.67000002 1 61 224 0.000000 0.000000 0.000000 0.000000 -60.708740 0.000000 6.000000 0.953260 -0.062698 -0.295575
4.48000002 -20.25000000 -0.64999998 1 61 224 0.000000 0.000000 0.000000 0.000000 -60.708740 0.000000 6.000000 0.723807 0.169142 -0.668950
4.48000002 -20.25000000 -0.64999998 1 61 224 0.000000 0.000000 0.000000 0.000000 -60.708740 0.000000 6.000000 0.723807 0.169142 -0.668950
4.46999979 -20.28000069 -0.62000000 1 61 224 0.000000 0.000000 0.000000 0.000000 -60.708740 0.000000 6.000000 0.898575 -0.261162 -0.352643
4.46000004 -20.32999992 -0.64999998 1 61 224 0.000000 0.000000 0.000000 0.000000 -60.708740 0.000000 6.000000 0.795373 -0.032150 -0.605267
4.53999996 -20.45000076 -0.37000000 1 61 224 0.000000 0.000000 0.000000 0.000000 -60.708740 0.000000 6.000000 -0.534981 0.784106 0.314601
4.55000019 -20.45000076 -0.41999999 1 61 224 0.000000 0.000000 0.000000 0.000000 -60.708740 0.000000 6.000000 -0.440118 0.884565 0.154402
4.57999992 -20.50000000 -0.47999999 1 61 224 0.000000 0.000000 0.000000 0.000000 -60.708740 0.000000 6.000000 -0.344028 0.910151 0.230804
4.57999992 -20.50000000 -0.47999999 1 61 224 0.000000 0.000000 0.000000 0.000000 -60.708740 0.000000 6.000000 -0.344028 0.910151 0.230804
4.46000004 -20.37999916 -0.40000001 1 61 224 0.000000 0.000000 0.000000 0.000000 -60.708740 0.000000 6.000000 0.769917 -0.459335 -0.442989
4.46999979 -20.38999939 -0.38999999 1 61 224 0.000000 0.000000 0.000000 0.000000 -60.708740 0.000000 6.000000 -0.315137 0.849163 0.423805
4.50000000 -20.40999985 -0.49000001 1 61 224 0.000000 0.000000 0.000000 0.000000 -60.708740 0.000000 6.000000 0.720685 -0.644657 -0.255012
4.48000002 -20.36000061 -0.44000000 1 61 224 0.000000 0.000000 0.000000 0.000000 -60.708740 0.000000 6.000000 0.755411 -0.561301 -0.338075
4.46000004 -20.37000084 -0.47999999 1 61 224 0.000000 0.000000 0.000000 0.000000 -60.708740 0.000000 6.000000 -0.463408 0.567132 0.680892
4.48000002 -20.35000038 -0.44999999 1 61 224 0.000000 0.000000 0.000000 0.000000 -60.708740 0.000000 6.000000 -0.556961 0.739893 0.377296
4.46000004 -20.37000084 -0.47999999 1 61 224 0.000000 0.000000 0.000000 0.000000 -60.708740 0.000000 6.000000 -0.463408 0.567132 0.680892
4.48000002 -20.42000008 -0.44000000 1 61 224 0.000000 0.000000 0.000000 0.000000 -60.708740 0.000000 6.000000 0.820486 -0.498543 -0.279747
4.46999979 -20.38999939 -0.46000001 1 61 224 0.000000 0.000000 0.000000 0.000000 -60.708740 0.000000 6.000000 0.739005 -0.274942 -0.615043
4.53000021 -20.50000000 -0.50000000 1 61 224 0.000000 0.000000 0.000000 0.000000 -60.708740 0.000000 6.000000 -0.711372 0.657743 0.247639
4.48000002 -20.45999908 -0.47999999 1 61 224 0.000000 0.000000 0.000000 0.000000 -60.708740 0.000000 6.000000 0.719991 -0.667572 -0.189634
4.46999979 -20.44000053 -0.47999999 1 61 224 0.000000 0.000000 0.000000 0.000000 -60.708740 0.000000 6.000000 0.760566 -0.648923 -0.020933
4.48000002 -20.46999931 -0.47000000 1 61 224 0.000000 0.000000 0.000000 0.000000 -60.708740 0.000000 6.000000 -0.567909 0.788848 0.234943
4.46999979 -20.37000084 -0.56999999 1 61 224 0.000000 0.000000 0.000000 0.000000 -60.708740 0.000000 6.000000 0.768658 -0.525924 -0.364101
4.48000002 -20.40999985 -0.52999997 1 61 224 0.000000 0.000000 0.000000 0.000000 -60.708740 0.000000 6.000000 0.781687 -0.571775 -0.249075
4.46000004 -20.40999985 -0.56999999 1 61 224 0.000000 0.000000 0.000000 0.000000 -60.708740 0.000000 6.000000 0.882899 -0.227031 -0.411030
4.46000004 -20.37000084 -0.64999998 1 61 224 0.000000 0.000000 0.000000 0.000000 -60.708740 0.000000 6.000000 0.794901 -0.358107 -0.489787
4.46000004 -20.37000084 -0.64999998 1 61 224 0.000000 0.000000 0.000000 0.000000 -60.708740 0.000000 6.000000 0.794901 -0.358107 -0.489787
4.46999979 -20.36000061 -0.69000000 1 61 224 0.000000 0.000000 0.000000 0.000000 -60.708740 0.000000 6.000000 0.807047 -0.503812 -0.307973
4.46999979 -20.45999908 -0.60000002 1 61 224 0.000000 0.000000 0.000000 0.000000 -60.708740 0.000000 6.000000 0.909144 -0.305976 -0.282552
4.46000004 -20.46999931 -0.60000002 1 61 224 0.000000 0.000000 0.000000 0.000000 -60.708740 0.000000 6.000000 0.797800 -0.377229 -0.470333
4.48999977 -20.50000000 -0.57999998 1 61 224 0.000000 0.000000 0.000000 0.000000 -60.708740 0.000000 6.000000 -0.764112 0.601601 0.232828
4.48999977 -20.48999977 -0.57999998 1 61 224 0.000000 0.000000 0.000000 0.000000 -60.708740 0.000000 6.000000 -0.539684 0.832196 0.127243
4.46000004 -20.46999931 -0.67000002 1 61 224 0.000000 0.000000 0.000000 0.000000 -60.708740 0.000000 6.000000 -0.772396 0.513311 0.374053
4.46999979 -20.50000000 -0.63000000 1 61 224 0.000000 0.000000 0.000000 0.000000 -60.708740 0.000000 6.000000 0.782100 -0.356380 -0.511187
4.46000004 -20.48999977 -0.69000000 1 61 224 0.000000 0.000000 0.000000 0.000000 -60.708740 0.000000 6.000000 0.851987 -0.419035 -0.313890
4.46000004 -20.48999977 -0.68000001 1 61 224 0.000000 0.000000 0.000000 0.000000 -60.708740 0.000000 6.000000 -0.647269 0.482510 0.590108
4.46999979 -20.51000023 -0.67000002 1 61 224 0.000000 0.000000 0.000000 0.000000 -60.708740 0.000000 6.000000 0.728445 -0.378137 -0.571297
4.44000006 -20.21999931 -0.38000000 1 61 224 0.000000 0.000000 0.000000 0.000000 -60.708740 0.000000 6.000000 0.921373 0.218558 -0.321409
4.42000008 -20.26000023 -0.47999999 1 61 224 0.000000 0.000000 0.000000 0.000000 -60.708740 0.000000 6.000000 0.735083 -0.172691 -0.655615
4.44999981 -20.23999977 -0.49000001 1 61 224 0.000000 0.000000 0.000000 0.000000 -60.708740 0.000000 6.000000 0.866740 0.220053 -0.447591
4.44999981 -20.29000092 -0.43000001 1 61 224 0.000000 0.000000 0.000000 0.000000 -60.708740 0.000000 6.000000 0.882626 0.045018 -0.467915
4.44000006 -20.29999924 -0.43000001 1 61 224 0.000000 0.000000 0.000000 0.000000 -60.708740 0.000000 6.000000 0.863203 -0.023109 -0.504328
4.44999981 -20.34000015 -0.41999999 1 61 224 0.000000 0.000000 0.000000 0.000000 -60.708740 0.000000 6.000000 -0.392301 0.824309 0.408184
4.44000006 -20.34000015 -0.43000001 1 61 224 0.000000 0.000000 0.000000 0.000000 -60.708740 0.000000 6.000000 -0.730075 0.628278 0.268808
4.44999981 -20.28000069 -0.46000001 1 61 224 0.000000 0.000000 0.000000 0.000000 -60.708740 0.000000 6.000000 0.835684 -0.197965 -0.512291
4.44999981 -20.28000069 -0.46000001 1 61 224 0.000000 0.000000 0.000000 0.000000 -60.708740 0.000000 6.000000 0.835684 -0.197965 -0.512291
4.44000006 -20.29999924 -0.47999999 1 61 224 0.000000 0.000000 0.000000 0.000000 -60.708740 0.000000 6.000000 0.726870 -0.300055 -0.617760
4.44000006 -20.29999924 -0.47999999 1 61 224 0.000000 0.000000 0.000000 0.000000 -60.708740 0.000000 6.000000 0.726870 -0.300055 -0.617760
4.44000006 -20.30999947 -0.47999999 1 61 224 0.000000 0.000000 0.000000 0.000000 -60.708740 0.000000 6.000000 0.933935 -0.089519 -0.346050
4.44000006 -20.30999947 -0.47999999 1 61 224 0.000000 0.000000 0.000000 0.000000 -60.708740 0.000000 6.000000 0.933935 -0.089519 -0.346050
4.44000006 -20.30999947 -0.47999999 1 61 224 0.000000 0.000000 0.000000 0.000000 -60.708740 0.000000 6.000000 0.933935 -0.089519 -0.346050
4.44999981 -20.19000053 -0.56000000 1 61 224 0.000000 0.000000 0.000000 0.000000 -60.708740 0.000000 6.000000 0.771255 0.256038 -0.582761
4.42000008 -20.25000000 -0.58999997 1 61 224 0.000000 0.000000 0.000000 0.000000 -60.708740 0.000000 6.000000 0.871894 0.065357 -0.485313
4.44999981 -20.26000023 -0.54000002 1 61 224 0.000000 0.000000 0.000000 0.000000 -60.708740 0.000000 6.000000 0.919229 0.126169 -0.372960
4.44000006 -20.23999977 -0.63000000 1 61 224 0.000000 0.000000 0.000000 0.000000 -60.708740 0.000000 6.000000 -0.501084 0.025801 0.865014
4.44000006 -20.23999977 -0.62000000 1 61 224 0.000000 0.000000 0.000000 0.000000 -60.708740 0.000000 6.000000 0.727593 -0.029554 -0.685373
4.44999981 -20.28000069 -0.55000001 1 61 224 0.000000 0.000000 0.000000 0.000000 -60.708740 0.000000 6.000000 0.689222 -0.223489 -0.689222
4.42999983 -20.29000092 -0.52999997 1 61 224 0.000000 0.000000 0.000000 0.000000 -60.708740 0.000000 6.000000 -0.636114 -0.032297 0.770919
4.44999981 -20.28000069 -0.55000001 1 61 224 0.000000 0.000000 0.000000 0.000000 -60.708740 0.000000 6.000000 0.689222 -0.223489 -0.689222
4.44999981 -20.34000015 -0.55000001 1 61 224 0.000000 0.000000 0.000000 0.000000 -60.708740 0.000000 6.000000 0.919500 -0.213072 -0.330334
4.44999981 -20.34000015 -0.54000002 1 61 224 0.000000 0.000000 0.000000 0.000000 -60.708740 0.000000 6.000000 0.906061 -0.332271 -0.262011
4.44000006 -20.31999969 -0.56000000 1 61 224 0.000000 0.000000 0.000000 0.000000 -60.708740 0.000000 6.000000 -0.706506 -0.041225 0.706506
4.44000006 -20.34000015 -0.55000001 1 61 224 0.000000 0.000000 0.000000 0.000000 -60.708740 0.000000 6.000000 0.913257 -0.138882 -0.382979
4.44999981 -20.32999992 -0.55000001 1 61 224 0.000000 0.000000 0.000000 0.000000 -60.708740 0.000000 6.000000 -0.594111 0.577185 0.560259
4.44999981 -20.34000015 -0.69000000 1 61 224 0.000000 0.000000 0.000000 0.000000 -60.708740 0.000000 6.000000 0.889594 -0.053130 -0.453652
4.44999981 -20.34000015 -0.69000000 1 61 224 0.000000 0.000000 0.000000 0.000000 -60.708740 0.000000 6.000000 0.889594 -0.053130 -0.453652
4.44999981 -20.30999947 -0.67000002 1 61 224 0.000000 0.000000 0.000000 0.000000 -60.708740 0.000000 6.000000 0.753426 -0.288309 -0.590954
4.44999981 -20.34000015 -0.64999998 1 61 224 0.000000 0.000000 0.000000 0.000000 -60.708740 0.000000 6.000000 -0.457925 0.384015 0.801771
4.44999981 -20.36000061 -0.56000000 1 61 224 0.000000 0.000000 0.000000 0.000000 -60.708740 0.000000 6.000000 -0.568429 0.305831 0.763777
4.44999981 -20.35000038 -0.52999997 1 61 224 0.000000 0.000000 0.000000 0.000000 -60.708740 0.000000 6.000000 0.750398 -0.384191 -0.537867
4.44999981 -20.36000061 -0.56000000 1 61 224 0.000000 0.000000 0.000000 0.000000 -60.708740 0.000000 6.000000 -0.568429 0.305831 0.763777
4.44999981 -20.35000038 -0.52999997 1 61 224 0.000000 0.000000 0.000000 0.000000 -60.708740 0.000000 6.000000 0.750398 -0.384191 -0.537867
4.42999983 -20.37999916 -0.57999998 1 61 224 0.000000 0.000000 0.000000 0.000000 -60.708740 0.000000 6.000000 -0.723761 0.518392 0.455456
4.44000006 -20.37999916 -0.57999998 1 61 224 0.000000 0.000000 0.000000 0.000000 -60.708740 0.000000 6.000000 0.586053 -0.619831 -0.521874
4.44000006 -20.38999939 -0.56000000 1 61 224 0.000000 0.000000 0.000000 0.000000 -60.708740 0.000000 6.000000 0.929203 -0.305974 -0.207273
4.42999983 -20.42000008 -0.57999998 1 61 224 0.000000 0.000000 0.000000 0.000000 -60.708740 0.000000 6.000000 -0.373334 0.845078 0.382706
4.40000010 -20.43000031 -0.56000000 1 61 224 0.000000 0.000000 0.000000 0.000000 -60.708740 0.000000 6.000000 0.636197 -0.602625 -0.481764
4.40000010 -20.40999985 -0.57999998 1 61 224 0.000000 0.000000 0.000000 0.000000 -60.708740 0.000000 6.000000 0.885222 -0.339310 -0.318198
4.44000006 -20.35000038 -0.63999999 1 61 224 0.000000 0.000000 0.000000 0.000000 -60.708740 0.000000 6.000000 -0.622560 0.662404 0.416700
4.44000006 -20.36000061 -0.63999999 1 61 224 0.000000 0.000000 0.000000 0.000000 -60.708740 0.000000 6.000000 0.936579 -0.244994 -0.250594
4.44000006 -20.36000061 -0.67000002 1 61 224 0.000000 0.000000 0.000000 0.000000 -60.708740 0.000000 6.000000 0.798173 0.049444 -0.600396
4.42000008 -20.36000061 -0.69000000 1 61 224 0.000000 0.000000 0.000000 0.000000 -60.708740 0.000000 6.000000 0.744111 -0.607080 -0.278842
4.44999981 -20.35000038 -0.68000001 1 61 224 0.000000 0.000000 0.000000 0.000000 -60.708740 0.000000 6.000000 0.906281 -0.092421 -0.412448
4.44999981 -20.37999916 -0.64999998 1 61 224 0.000000 0.000000 0.000000 0.000000 -60.708740 0.000000 6.000000 -0.539757 0.395384 0.743191
4.44999981 -20.38999939 -0.63999999 1 61 224 0.000000 0.000000 0.000000 0.000000 -60.708740 0.000000 6.000000 0.902002 -0.128053 -0.412304
4.44999981 -20.40999985 -0.63999999 1 61 224 0.000000 0.000000 0.000000 0.000000 -60.708740 0.000000 6.000000 0.941727 -0.236469 -0.239235
4.44000006 -20.38999939 -0.68000001 1 61 224 0.000000 0.000000 0.000000 0.000000 -60.708740 0.000000 6.000000 0.840370 -0.023306 -0.541511
4.42999983 -20.38999939 -0.68000001 1 61 224 0.000000 0.000000 0.000000 0.000000 -60.708740 0.000000 6.000000 0.900542 -0.149379 -0.408302
4.40000010 -20.45000076 -0.54000002 1 61 224 0.000000 0.000000 0.000000 0.000000 -60.708740 0.000000 6.000000 0.678413 -0.534355 -0.504203
4.42999983 -20.51000023 -0.68000001 1 61 224 0.000000 0.000000 0.000000 0.000000 -60.708740 0.000000 6.000000 -0.681480 0.527435 0.507343
4.65000010 -20.18000031 -0.79000002 1 61 224 0.000000 0.000000 0.000000 0.000000 -60.708740 0.000000 6.000000 0.886637 -0.044807 -0.460291
4.55000019 -20.21999931 -0.69999999 1 61 224 0.000000 0.000000 0.000000 0.000000 -60.708740 0.000000 6.000000 -0.775797 0.304265 0.552776
4.55000019 -20.21999931 -0.69999999 1 61 224 0.000000 0.000000 0.000000 0.000000 -60.708740 0.000000 6.000000 -0.775797 0.304265 0.552776
4.57000017 -20.23999977 -0.75000000 1 61 224 0.000000 0.000000 0.000000 0.000000 -60.708740 0.000000 6.000000 0.974724 0.057337 -0.215928
4.46000004 -20.23999977 -0.73000002 1 61 224 0.000000 0.000000 0.000000 0.000000 -60.708740 0.000000 6.000000 0.792079 0.132261 -0.595917
4.48000002 -20.26000023 -0.72000003 1 61 224 0.000000 0.000000 0.000000 0.000000 -60.708740 0.000000 6.000000 0.758067 0.070753 -0.648328
4.48999977 -20.27000046 -0.70999998 1 61 224 0.000000 0.000000 0.000000 0.000000 -60.708740 0.000000 6.000000 0.799955 -0.394344 -0.452288
4.48999977 -20.27000046 -0.72000003 1 61 224 0.000000 0.000000 0.000000 0.000000 -60.708740 0.000000 6.000000 -0.661959 0.251197 0.706195
4.48999977 -20.27000046 -0.72000003 1 61 224 0.000000 0.000000 0.000000 0.000000 -60.708740 0.000000 6.000000 -0.661959 0.251197 0.706195
4.48999977 -20.27000046 -0.70999998 1 61 224 0.000000 0.000000 0.000000 0.000000 -60.708740 0.000000 6.000000 0.799955 -0.394344 -0.452288
4.46000004 -20.28000069 -0.76999998 1 61 224 0.000000 0.000000 0.000000 0.000000 -60.708740 0.000000 6.000000 -0.570316 -0.154180 0.806826
4.46000004 -20.27000046 -0.76999998 1 61 224 0.000000 0.000000 0.000000 0.000000 -60.708740 0.000000 6.000000 0.765342 0.009688 -0.643551
4.46999979 -20.27000046 -0.75999999 1 61 224 0.000000 0.000000 0.000000 0.000000 -60.708740 0.000000 6.000000 0.781566 -0.414344 -0.466340
4.46000004 -20.28000069 -0.75999999 1 61 224 0.000000 0.000000 0.000000 0.000000 -60.708740 0.000000 6.000000 0.928458 0.104367 -0.356474
4.46000004 -20.28000069 -0.76999998 1 61 224 0.000000 0.000000 0.000000 0.000000 -60.708740 0.000000 6.000000 -0.570316 -0.154180 0.806826
4.46999979 -20.28000069 -0.75999999 1 61 224 0.000000 0.000000 0.000000 0.000000 -60.708740 0.000000 6.000000 0.955846 0.062532 -0.287137
4.44000006 -20.34000015 -0.72000003 1 61 224 0.000000 0.000000 0.000000 0.000000 -60.708740 0.000000 6.000000 0.880780 0.164509 -0.444030
4.44000006 -20.31999969 -0.69999999 1 61 224 0.000000 0.000000 0.000000 0.000000 -60.708740 0.000000 6.000000 0.851402 -0.040017 -0.522985
4.44999981 -20.37999916 -0.72000003 1 61 224 0.000000 0.000000 0.000000 0.000000 -60.708740 0.000000 6.000000 0.708452 -0.272237 -0.651139
4.44999981 -20.36000061 -0.73000002 1 61 224 0.000000 0.000000 0.000000 0.000000 -60.708740 0.000000 6.000000 0.892380 0.019949 -0.450845
4.44000006 -20.37000084 -0.73000002 1 61 224 0.000000 0.000000 0.000000 0.000000 -60.708740 0.000000 6.000000 0.928935 0.027207 -0.369242
4.44999981 -20.36000061 -0.72000003 1 61 224 0.000000 0.000000 0.000000 0.000000 -60.708740 0.000000 6.000000 0.811146 0.001363 -0.584843
4.42999983 -20.37999916 -0.75000000 1 61 224 0.000000 0.000000 0.000000 0.000000 -60.708740 0.000000 6.000000 -0.629489 0.202612 0.750128
4.44000006 -20.37999916 -0.75000000 1 61 224 0.000000 0.000000 0.000000 0.000000 -60.708740 0.000000 6.000000 0.807880 -0.508665 -0.297640
4.42999983 -20.37999916 -0.75000000 1 61 224 0.000000 0.000000 0.000000 0.000000 -60.708740 0.000000 6.000000 -0.629489 0.202612 0.750128
4.44000006 -20.37999916 -0.75000000 1 61 224 0.000000 0.000000 0.000000 0.000000 -60.708740 0.000000 6.000000 0.807880 -0.508665 -0.297640
4.42999983 -20.37999916 -0.75999999 1 61 224 0.000000 0.000000 0.000000 0.000000 -60.708740 0.000000 6.000000 0.826433 -0.505129 -0.248702
4.42999983 -20.39999962 -0.70999998 1 61 224 0.000000 0.000000 0.000000 0.000000 -60.708740 0.000000 6.000000 0.715958 -0.353902 -0.601796
4.44000006 -20.40999985 -0.69999999 1 61 224 0.000000 0.000000 0.000000 0.000000 -60.708740 0.000000 6.000000 -0.677729 0.553897 0.483614
4.44000006 -20.38999939 -0.72000003 1 61 224 0.000000 0.000000 0.000000 0.000000 -60.708740 0.000000 6.000000 0.817955 -0.393830 -0.419341
4.42999983 -20.38999939 -0.75000000 1 61 224 0.000000 0.000000 0.000000 0.000000 -60.708740 0.000000 6.000000 0.501771 -0.406974 -0.763281
4.42999983 -20.39999962 -0.75000000 1 61 224 0.000000 0.000000 0.000000 0.000000 -60.708740 0.000000 6.000000 0.697195 -0.362541 -0.618453
4.42999983 -20.38999939 -0.75000000 1 61 224 0.000000 0.000000 0.000000 0.000000 -60.708740 0.000000 6.000000 0.501771 -0.406974 -0.763281
4.61000013 -20.55999947 -0.56000000 1 61 224 0.000000 0.000000 0.000000 0.000000 -60.708740 0.000000 6.000000 -0.278457 0.826038 0.490023
4.53000021 -20.53000069 -0.63000000 1 61 224 0.000000 0.000000 0.000000 0.000000 -60.708740 0.000000 6.000000 -0.458271 0.736211 0.497977
4.50000000 -20.54000092 -0.64999998 1 61 224 0.000000 0.000000 0.000000 0.000000 -60.708740 0.000000 6.000000 0.695503 -0.325865 -0.640381
4.46000004 -20.52000046 -0.67000002 1 61 224 0.000000 0.000000 0.000000 0.000000 -60.708740 0.000000 6.000000 -0.576775 0.654127 0.489334
4.46000004 -20.52000046 -0.67000002 1 61 224 0.000000 0.000000 0.000000 0.000000 -60.708740 0.000000 6.000000 -0.576775 0.654127 0.489334
4.46000004 -20.52000046 -0.67000002 1 61 224 0.000000 0.000000 0.000000 0.000000 -60.708740 0.000000 6.000000 -0.576775 0.654127 0.489334
4.44999981 -20.53000069 -0.67000002 1 61 224 0.000000 0.000000 0.000000 0.000000 -60.708740 0.000000 6.000000 -0.653637 0.743794 0.139743
4.75000000 -19.82999992 0.86000001 1 61 224 0.000000 0.000000 0.000000 0.000000 -60.708740 0.000000 6.000000 -0.689044 0.712958 0.130036
4.73000002 -19.81999969 0.81999999 1 61 224 0.000000 0.000000 0.000000 0.000000 -60.708740 0.000000 6.000000 0.284413 -0.868448 -0.406087
4.67000008 -19.79999924 0.64999998 1 61 224 0.000000 0.000000 0.000000 0.000000 -60.708740 0.000000 6.000000 -0.666536 0.735128 0.123764
4.65999985 -19.84000015 0.49000001 1 61 224 0.000000 0.000000 0.000000 0.000000 -60.708740 0.000000 6.000000 -0.335590 0.775551 0.534696
4.67000008 -19.82999992 0.41999999 1 61 224 0.000000 0.000000 0.000000 0.000000 -60.708740 0.000000 6.000000 -0.469149 0.752285 0.462565
4.59000015 -19.81999969 0.55000001 1 61 224 0.000000 0.000000 0.000000 0.000000 -60.708740 0.000000 6.000000 -0.341367 0.939081 0.039934
4.59000015 -19.82999992 0.50999999 1 61 224 0.000000 0.000000 0.000000 0.000000 -60.708740 0.000000 6.000000 -0.701424 0.712579 0.015339
4.76000023 -19.95000076 0.87000000 1 61 224 0.000000 0.000000 0.000000 0.000000 -60.708740 0.000000 6.000000 0.787561 -0.282512 -0.547663
4.75000000 -19.95000076 0.86000001 1 61 224 0.000000 0.000000 0.000000 0.000000 -60.708740 0.000000 6.000000 0.754401 -0.162416 -0.636004
4.76000023 -19.97999954 0.89999998 1 61 224 0.000000 0.000000 0.000000 0.000000 -60.708740 0.000000 6.000000 -0.629387 0.685260 0.366458
4.76000023 -20.01000023 0.81999999 1 61 224 0.000000 0.000000 0.000000 0.000000 -60.708740 0.000000 6.000000 0.869024 -0.366308 -0.332589
4.75000000 -19.98999977 0.81999999 1 61 224 0.000000 0.000000 0.000000 0.000000 -60.708740 0.000000 6.000000 0.841712 -0.501413 -0.200264
4.75000000 -19.98999977 0.81999999 1 61 224 0.000000 0.000000 0.000000 0.000000 -60.708740 0.000000 6.000000 0.841712 -0.501413 -0.200264
4.75000000 -20.00000000 0.81999999 1 61 224 0.000000 0.000000 0.000000 0.000000 -60.708740 0.000000 6.000000 0.894715 -0.354622 -0.271530
4.76000023 -20.00000000 0.75000000 1 61 224 0.000000 0.000000 0.000000 0.000000 -60.708740 0.000000 6.000000 0.870651 -0.469483 -0.146804
4.76000023 -19.98999977 0.74000001 1 61 224 0.000000 0.000000 0.000000 0.000000 -60.708740 0.000000 6.000000 0.723964 -0.389069 -0.569650
4.76999998 -19.96999931 0.67000002 1 61 224 0.000000 0.000000 0.000000 0.000000 -60.708740 0.000000 6.000000 0.663377 -0.518945 -0.539099
