//X Y Z R G B PointSourceId ScanDirectionFlag NumberOfReturns ReturnNumber GpsTime Intensity Classification Nx Ny Nz
-10.28999996 -18.01000023 -0.44999999 164 111 118 0.000000 0.000000 0.000000 0.000000 -60.708740 0.000000 46.000000 0.709967 -0.622236 0.329802
-10.30000019 -18.04000092 -0.49000001 164 111 118 0.000000 0.000000 0.000000 0.000000 -60.708740 0.000000 46.000000 0.720987 -0.435907 0.538668
-10.26000023 -18.12000084 -0.38000000 164 111 118 0.000000 0.000000 0.000000 0.000000 -60.708740 0.000000 46.000000 0.605283 0.365795 -0.706984
-10.25000000 -18.12000084 -0.38000000 164 111 118 0.000000 0.000000 0.000000 0.000000 -60.708740 0.000000 46.000000 -0.092081 -0.110730 0.989576
-10.26000023 -18.13999939 -0.38999999 164 111 118 0.000000 0.000000 0.000000 0.000000 -60.708740 0.000000 46.000000 -0.507569 -0.141885 0.849849
-10.23999977 -18.13999939 -0.37000000 164 111 118 0.000000 0.000000 0.000000 0.000000 -60.708740 0.000000 46.000000 -0.020113 -0.216511 0.976073
-10.25000000 -18.15999985 -0.41999999 164 111 118 0.000000 0.000000 0.000000 0.000000 -60.708740 0.000000 46.000000 -0.129961 -0.727483 0.673706
-10.26000023 -18.13999939 -0.40000001 164 111 118 0.000000 0.000000 0.000000 0.000000 -60.708740 0.000000 46.000000 -0.429377 -0.514923 0.741950
-10.27000046 -18.14999962 -0.40000001 164 111 118 0.000000 0.000000 0.000000 0.000000 -60.708740 0.000000 46.000000 -0.060261 -0.066834 0.995943
-10.27000046 -18.12999916 -0.40000001 164 111 118 0.000000 0.000000 0.000000 0.000000 -60.708740 0.000000 46.000000 -0.237672 -0.291753 0.926494
-10.27000046 -18.12999916 -0.40000001 164 111 118 0.000000 0.000000 0.000000 0.000000 -60.708740 0.000000 46.000000 -0.237672 -0.291753 0.926494
-10.27000046 -18.15999985 -0.41999999 164 111 118 0.000000 0.000000 0.000000 0.000000 -60.708740 0.000000 46.000000 -0.229492 -0.191914 0.954203
-10.31000042 -18.11000061 -0.40000001 164 111 118 0.000000 0.000000 0.000000 0.000000 -60.708740 0.000000 46.000000 -0.510408 0.207495 0.834524
-10.27999973 -18.14999962 -0.38999999 164 111 118 0.000000 0.000000 0.000000 0.000000 -60.708740 0.000000 46.000000 -0.151129 0.005597 0.988498
-10.27999973 -18.13999939 -0.40000001 164 111 118 0.000000 0.000000 0.000000 0.000000 -60.708740 0.000000 46.000000 -0.319980 0.108445 0.941197
-10.27000046 -18.14999962 -0.46000001 164 111 118 0.000000 0.000000 0.000000 0.000000 -60.708740 0.000000 46.000000 -0.443307 -0.174104 0.879299
-10.15999985 -18.12000084 -0.69000000 164 111 118 0.000000 0.000000 0.000000 0.000000 -60.708740 0.000000 46.000000 -0.505696 -0.126062 0.853452
-10.15999985 -18.15999985 -0.66000003 164 111 118 0.000000 0.000000 0.000000 0.000000 -60.708740 0.000000 46.000000 -0.365325 0.222688 0.903852
-10.15999985 -18.12999916 -0.66000003 164 111 118 0.000000 0.000000 0.000000 0.000000 -60.708740 0.000000 46.000000 -0.416040 -0.191232 0.889011
-10.27999973 -18.03000069 -0.64999998 164 111 118 0.000000 0.000000 0.000000 0.000000 -60.708740 0.000000 46.000000 -0.179321 -0.343110 0.922019
-10.31000042 -18.01000023 -0.66000003 164 111 118 0.000000 0.000000 0.000000 0.000000 -60.708740 0.000000 46.000000 0.432111 -0.326033 0.840822
-10.27999973 -18.03000069 -0.66000003 164 111 118 0.000000 0.000000 0.000000 0.000000 -60.708740 0.000000 46.000000 0.055096 0.812307 -0.580623
-10.25000000 -18.10000038 -0.69000000 164 111 118 0.000000 0.000000 0.000000 0.000000 -60.708740 0.000000 46.000000 0.106762 -0.586461 0.802911
-10.39000034 -17.95000076 -0.50999999 164 111 118 0.000000 0.000000 0.000000 0.000000 -60.708740 0.000000 46.000000 -0.487748 0.682177 -0.544736
-10.39999962 -17.95999908 -0.51999998 164 111 118 0.000000 0.000000 0.000000 0.000000 -60.708740 0.000000 46.000000 -0.365459 0.850665 -0.377900
-10.39999962 -17.95999908 -0.51999998 164 111 118 0.000000 0.000000 0.000000 0.000000 -60.708740 0.000000 46.000000 -0.365459 0.850665 -0.377900
-10.40999985 -17.88999939 -0.51999998 164 111 118 0.000000 0.000000 0.000000 0.000000 -60.708740 0.000000 46.000000 -0.355989 0.861462 -0.362153
-10.43999958 -17.98999977 -0.51999998 164 111 118 0.000000 0.000000 0.000000 0.000000 -60.708740 0.000000 46.000000 0.859635 -0.404444 0.312175
-10.38000011 -17.86000061 -0.55000001 164 111 118 0.000000 0.000000 0.000000 0.000000 -60.708740 0.000000 46.000000 -0.440570 0.876720 -0.193026
-10.39999962 -17.89999962 -0.55000001 164 111 118 0.000000 0.000000 0.000000 0.000000 -60.708740 0.000000 46.000000 -0.260830 0.855705 -0.446919
-10.39999962 -17.87999916 -0.52999997 164 111 118 0.000000 0.000000 0.000000 0.000000 -60.708740 0.000000 46.000000 -0.554445 0.713331 -0.428660
-10.39000034 -17.90999985 -0.66000003 164 111 118 0.000000 0.000000 0.000000 0.000000 -60.708740 0.000000 46.000000 -0.327949 0.850180 -0.411879
-10.39000034 -17.90999985 -0.63000000 164 111 118 0.000000 0.000000 0.000000 0.000000 -60.708740 0.000000 46.000000 -0.075943 0.806710 -0.586047
-10.32999992 -17.90999985 -0.64999998 164 111 118 0.000000 0.000000 0.000000 0.000000 -60.708740 0.000000 46.000000 -0.486483 0.621150 -0.614416
-10.35000038 -17.90999985 -0.63999999 164 111 118 0.000000 0.000000 0.000000 0.000000 -60.708740 0.000000 46.000000 0.104420 -0.504936 0.856817
-10.34000015 -17.93000031 -0.56999999 164 111 118 0.000000 0.000000 0.000000 0.000000 -60.708740 0.000000 46.000000 0.468561 -0.531925 0.705342
-10.39999962 -17.95000076 -0.56000000 164 111 118 0.000000 0.000000 0.000000 0.000000 -60.708740 0.000000 46.000000 -0.576462 0.772302 -0.266910
-10.39999962 -17.95000076 -0.56000000 164 111 118 0.000000 0.000000 0.000000 0.000000 -60.708740 0.000000 46.000000 -0.576462 0.772302 -0.266910
-10.32999992 -17.97999954 -0.67000002 164 111 118 0.000000 0.000000 0.000000 0.000000 -60.708740 0.000000 46.000000 -0.393327 0.820094 -0.415620
-10.43999958 -17.89999962 -0.54000002 164 111 118 0.000000 0.000000 0.000000 0.000000 -60.708740 0.000000 46.000000 -0.578087 0.805773 0.128628
-10.43999958 -17.86000061 -0.63000000 164 111 118 0.000000 0.000000 0.000000 0.000000 -60.708740 0.000000 46.000000 -0.528597 0.843750 -0.093113
-10.40999985 -17.87999916 -0.61000001 164 111 118 0.000000 0.000000 0.000000 0.000000 -60.708740 0.000000 46.000000 0.230324 -0.706641 0.669037
-10.40999985 -17.90999985 -0.66000003 164 111 118 0.000000 0.000000 0.000000 0.000000 -60.708740 0.000000 46.000000 0.553823 -0.526889 0.644724
-10.47000027 -17.90999985 -0.64999998 164 111 118 0.000000 0.000000 0.000000 0.000000 -60.708740 0.000000 46.000000 -0.329418 0.885969 -0.326410
-10.43000031 -17.92000008 -0.52999997 164 111 118 0.000000 0.000000 0.000000 0.000000 -60.708740 0.000000 46.000000 0.888414 -0.429039 0.163237
-10.47000027 -17.92000008 -0.55000001 164 111 118 0.000000 0.000000 0.000000 0.000000 -60.708740 0.000000 46.000000 -0.453987 0.890564 0.028123
-10.44999981 -17.95000076 -0.57999998 164 111 118 0.000000 0.000000 0.000000 0.000000 -60.708740 0.000000 46.000000 -0.286379 0.821578 -0.492947
-10.40999985 -17.94000053 -0.63999999 164 111 118 0.000000 0.000000 0.000000 0.000000 -60.708740 0.000000 46.000000 0.383829 -0.624340 0.680349
-10.43000031 -17.92000008 -0.61000001 164 111 118 0.000000 0.000000 0.000000 0.000000 -60.708740 0.000000 46.000000 0.516964 -0.731678 0.444292
-10.43000031 -17.93000031 -0.63999999 164 111 118 0.000000 0.000000 0.000000 0.000000 -60.708740 0.000000 46.000000 0.168687 -0.618519 0.767450
-10.40999985 -17.95000076 -0.66000003 164 111 118 0.000000 0.000000 0.000000 0.000000 -60.708740 0.000000 46.000000 0.385070 -0.475295 0.791085
-10.34000015 -18.05999947 -0.47000000 164 111 118 0.000000 0.000000 0.000000 0.000000 -60.708740 0.000000 46.000000 -0.605084 0.721882 0.335797
-10.34000015 -18.05999947 -0.47000000 164 111 118 0.000000 0.000000 0.000000 0.000000 -60.708740 0.000000 46.000000 -0.605084 0.721882 0.335797
-10.31999969 -18.14999962 -0.41999999 164 111 118 0.000000 0.000000 0.000000 0.000000 -60.708740 0.000000 46.000000 0.848824 -0.077939 -0.522898
-10.35000038 -18.12000084 -0.44000000 164 111 118 0.000000 0.000000 0.000000 0.000000 -60.708740 0.000000 46.000000 0.815037 -0.552900 -0.173252
-10.35999966 -18.02000046 -0.67000002 164 111 118 0.000000 0.000000 0.000000 0.000000 -60.708740 0.000000 46.000000 0.293362 -0.550251 0.781769
-10.34000015 -18.04000092 -0.66000003 164 111 118 0.000000 0.000000 0.000000 0.000000 -60.708740 0.000000 46.000000 -0.145254 0.846581 -0.512057
-10.35000038 -18.07999992 -0.66000003 164 111 118 0.000000 0.000000 0.000000 0.000000 -60.708740 0.000000 46.000000 0.435625 -0.548258 0.713894
-10.36999989 -18.04000092 -0.63999999 164 111 118 0.000000 0.000000 0.000000 0.000000 -60.708740 0.000000 46.000000 0.408183 -0.424190 0.808362
-10.35000038 -18.10000038 -0.67000002 164 111 118 0.000000 0.000000 0.000000 0.000000 -60.708740 0.000000 46.000000 -0.058007 -0.578652 0.813509
-10.35999966 -18.15999985 -0.68000001 164 111 118 0.000000 0.000000 0.000000 0.000000 -60.708740 0.000000 46.000000 0.236047 -0.304715 0.922730
-10.35000038 -18.15999985 -0.64999998 164 111 118 0.000000 0.000000 0.000000 0.000000 -60.708740 0.000000 46.000000 0.141983 -0.337727 0.930473
-10.43000031 -18.00000000 -0.54000002 164 111 118 0.000000 0.000000 0.000000 0.000000 -60.708740 0.000000 46.000000 -0.596050 0.589296 -0.545394
-10.44999981 -18.01000023 -0.56000000 164 111 118 0.000000 0.000000 0.000000 0.000000 -60.708740 0.000000 46.000000 -0.462583 0.886283 -0.022794
-10.15999985 -18.29999924 -0.31000000 164 111 118 0.000000 0.000000 0.000000 0.000000 -60.708740 0.000000 46.000000 0.723031 -0.558331 0.406808
-10.18000031 -18.31999969 -0.33000001 164 111 118 0.000000 0.000000 0.000000 0.000000 -60.708740 0.000000 46.000000 0.724708 -0.553023 0.411053
-10.18000031 -18.31999969 -0.31999999 164 111 118 0.000000 0.000000 0.000000 0.000000 -60.708740 0.000000 46.000000 0.550405 -0.380547 0.743128
-10.22000027 -18.37000084 -0.18000001 164 111 118 0.000000 0.000000 0.000000 0.000000 -60.708740 0.000000 46.000000 -0.091478 0.797168 -0.596787
-10.22999954 -18.37000084 -0.18000001 164 111 118 0.000000 0.000000 0.000000 0.000000 -60.708740 0.000000 46.000000 -0.164538 0.843442 -0.511402
-10.15999985 -18.35000038 -0.27000001 164 111 118 0.000000 0.000000 0.000000 0.000000 -60.708740 0.000000 46.000000 -0.657559 0.463471 -0.593979
-10.19999981 -18.34000015 -0.23999999 164 111 118 0.000000 0.000000 0.000000 0.000000 -60.708740 0.000000 46.000000 0.383587 -0.454206 0.804088
-10.21000004 -18.36000061 -0.27000001 164 111 118 0.000000 0.000000 0.000000 0.000000 -60.708740 0.000000 46.000000 -0.118583 0.815441 -0.566563
-10.22999954 -18.37999916 -0.20999999 164 111 118 0.000000 0.000000 0.000000 0.000000 -60.708740 0.000000 46.000000 0.035296 0.738392 -0.673447
-10.21000004 -18.38999939 -0.20999999 164 111 118 0.000000 0.000000 0.000000 0.000000 -60.708740 0.000000 46.000000 -0.089313 -0.698400 0.710113
-10.18000031 -18.37000084 -0.28000000 164 111 118 0.000000 0.000000 0.000000 0.000000 -60.708740 0.000000 46.000000 0.545435 -0.508513 0.666270
-10.15999985 -18.35000038 -0.34999999 164 111 118 0.000000 0.000000 0.000000 0.000000 -60.708740 0.000000 46.000000 -0.249839 0.844549 -0.473622
-10.22000027 -18.17000008 -0.43000001 164 111 118 0.000000 0.000000 0.000000 0.000000 -60.708740 0.000000 46.000000 -0.272102 0.847052 -0.456578
-10.22000027 -18.30999947 -0.41000000 164 111 118 0.000000 0.000000 0.000000 0.000000 -60.708740 0.000000 46.000000 -0.265950 0.673633 -0.689558
-10.15999985 -18.29000092 -0.49000001 164 111 118 0.000000 0.000000 0.000000 0.000000 -60.708740 0.000000 46.000000 0.826350 -0.479564 0.295236
-10.17000008 -18.29999924 -0.49000001 164 111 118 0.000000 0.000000 0.000000 0.000000 -60.708740 0.000000 46.000000 0.882626 -0.467915 -0.045018
-10.21000004 -18.26000023 -0.47000000 164 111 118 0.000000 0.000000 0.000000 0.000000 -60.708740 0.000000 46.000000 0.720741 -0.661842 0.206148
-10.22999954 -18.25000000 -0.44000000 164 111 118 0.000000 0.000000 0.000000 0.000000 -60.708740 0.000000 46.000000 -0.536018 0.660361 -0.525936
-10.22999954 -18.25000000 -0.44000000 164 111 118 0.000000 0.000000 0.000000 0.000000 -60.708740 0.000000 46.000000 -0.536018 0.660361 -0.525936
-10.22000027 -18.29999924 -0.50999999 164 111 118 0.000000 0.000000 0.000000 0.000000 -60.708740 0.000000 46.000000 -0.655642 0.751166 0.076709
-10.26000023 -18.22999954 -0.43000001 164 111 118 0.000000 0.000000 0.000000 0.000000 -60.708740 0.000000 46.000000 -0.279525 0.781723 -0.557471
-10.27000046 -18.23999977 -0.44999999 164 111 118 0.000000 0.000000 0.000000 0.000000 -60.708740 0.000000 46.000000 -0.567048 0.792631 -0.224038
-10.23999977 -18.23999977 -0.47000000 164 111 118 0.000000 0.000000 0.000000 0.000000 -60.708740 0.000000 46.000000 -0.440042 0.854018 -0.277518
-10.27000046 -18.21999931 -0.46000001 164 111 118 0.000000 0.000000 0.000000 0.000000 -60.708740 0.000000 46.000000 0.413951 -0.623420 0.663319
-10.27000046 -18.23999977 -0.47000000 164 111 118 0.000000 0.000000 0.000000 0.000000 -60.708740 0.000000 46.000000 0.575217 -0.514490 0.635944
-10.28999996 -18.19000053 -0.44000000 164 111 118 0.000000 0.000000 0.000000 0.000000 -60.708740 0.000000 46.000000 0.225938 -0.329553 0.916704
-10.28999996 -18.20000076 -0.44999999 164 111 118 0.000000 0.000000 0.000000 0.000000 -60.708740 0.000000 46.000000 0.257794 -0.377005 0.889612
-10.23999977 -18.25000000 -0.41000000 164 111 118 0.000000 0.000000 0.000000 0.000000 -60.708740 0.000000 46.000000 0.671291 -0.460361 0.580892
-10.18999958 -18.20000076 -0.63000000 164 111 118 0.000000 0.000000 0.000000 0.000000 -60.708740 0.000000 46.000000 -0.673706 0.129961 0.727483
-10.18000031 -18.21999931 -0.69000000 164 111 118 0.000000 0.000000 0.000000 0.000000 -60.708740 0.000000 46.000000 -0.271402 -0.059330 0.960636
-10.21000004 -18.17000008 -0.63000000 164 111 118 0.000000 0.000000 0.000000 0.000000 -60.708740 0.000000 46.000000 -0.376749 0.292019 0.879082
-10.22000027 -18.20000076 -0.63000000 164 111 118 0.000000 0.000000 0.000000 0.000000 -60.708740 0.000000 46.000000 -0.378407 0.076759 0.922451
-10.18000031 -18.31999969 -0.56999999 164 111 118 0.000000 0.000000 0.000000 0.000000 -60.708740 0.000000 46.000000 0.714097 -0.630276 -0.304660
-10.22999954 -18.28000069 -0.52999997 164 111 118 0.000000 0.000000 0.000000 0.000000 -60.708740 0.000000 46.000000 0.803228 -0.370351 -0.466546
-10.22999954 -18.26000023 -0.52999997 164 111 118 0.000000 0.000000 0.000000 0.000000 -60.708740 0.000000 46.000000 0.974853 -0.195969 -0.106098
-10.19999981 -18.28000069 -0.55000001 164 111 118 0.000000 0.000000 0.000000 0.000000 -60.708740 0.000000 46.000000 0.849179 -0.295434 -0.437737
-10.22999954 -18.25000000 -0.60000002 164 111 118 0.000000 0.000000 0.000000 0.000000 -60.708740 0.000000 46.000000 -0.502403 0.238142 0.831192
-10.22000027 -18.31999969 -0.56999999 164 111 118 0.000000 0.000000 0.000000 0.000000 -60.708740 0.000000 46.000000 0.787664 -0.389789 -0.477127
-10.22000027 -18.25000000 -0.63999999 164 111 118 0.000000 0.000000 0.000000 0.000000 -60.708740 0.000000 46.000000 -0.420873 0.492930 0.761503
-10.21000004 -18.29999924 -0.61000001 164 111 118 0.000000 0.000000 0.000000 0.000000 -60.708740 0.000000 46.000000 0.727593 0.029554 -0.685373
-10.19999981 -18.29999924 -0.63999999 164 111 118 0.000000 0.000000 0.000000 0.000000 -60.708740 0.000000 46.000000 0.665752 -0.471225 -0.578551
-10.19999981 -18.29999924 -0.63999999 164 111 118 0.000000 0.000000 0.000000 0.000000 -60.708740 0.000000 46.000000 0.665752 -0.471225 -0.578551
-10.31000042 -18.19000053 -0.57999998 164 111 118 0.000000 0.000000 0.000000 0.000000 -60.708740 0.000000 46.000000 -0.394043 -0.491338 0.776735
-10.30000019 -18.20999908 -0.56000000 164 111 118 0.000000 0.000000 0.000000 0.000000 -60.708740 0.000000 46.000000 -0.198836 -0.167646 0.965588
-10.26000023 -18.22999954 -0.60000002 164 111 118 0.000000 0.000000 0.000000 0.000000 -60.708740 0.000000 46.000000 -0.409241 0.425290 0.807248
-10.27999973 -18.22999954 -0.60000002 164 111 118 0.000000 0.000000 0.000000 0.000000 -60.708740 0.000000 46.000000 -0.611504 -0.161558 0.774572
-10.31000042 -18.20000076 -0.58999997 164 111 118 0.000000 0.000000 0.000000 0.000000 -60.708740 0.000000 46.000000 -0.240925 -0.346055 0.906753
-10.30000019 -18.19000053 -0.58999997 164 111 118 0.000000 0.000000 0.000000 0.000000 -60.708740 0.000000 46.000000 -0.328440 -0.454158 0.828171
-10.27000046 -18.18000031 -0.68000001 164 111 118 0.000000 0.000000 0.000000 0.000000 -60.708740 0.000000 46.000000 -0.069728 -0.570633 0.818239
-10.25000000 -18.26000023 -0.58999997 164 111 118 0.000000 0.000000 0.000000 0.000000 -60.708740 0.000000 46.000000 0.674348 -0.012514 -0.738307
-10.27000046 -18.29999924 -0.58999997 164 111 118 0.000000 0.000000 0.000000 0.000000 -60.708740 0.000000 46.000000 -0.546797 0.233899 0.803931
-10.23999977 -18.32999992 -0.57999998 164 111 118 0.000000 0.000000 0.000000 0.000000 -60.708740 0.000000 46.000000 0.769114 -0.178191 -0.613768
-10.31000042 -18.29000092 -0.57999998 164 111 118 0.000000 0.000000 0.000000 0.000000 -60.708740 0.000000 46.000000 0.942070 -0.193915 -0.273682
-10.26000023 -18.31999969 -0.61000001 164 111 118 0.000000 0.000000 0.000000 0.000000 -60.708740 0.000000 46.000000 0.822503 -0.225154 -0.522297
-10.23999977 -18.29999924 -0.63999999 164 111 118 0.000000 0.000000 0.000000 0.000000 -60.708740 0.000000 46.000000 0.868478 -0.223494 -0.442489
-10.25000000 -18.29999924 -0.61000001 164 111 118 0.000000 0.000000 0.000000 0.000000 -60.708740 0.000000 46.000000 0.872391 0.022993 -0.488268
-10.27000046 -18.31999969 -0.62000000 164 111 118 0.000000 0.000000 0.000000 0.000000 -60.708740 0.000000 46.000000 0.711699 -0.555756 -0.429674
-10.31000042 -18.26000023 -0.62000000 164 111 118 0.000000 0.000000 0.000000 0.000000 -60.708740 0.000000 46.000000 -0.324752 -0.414875 0.849950
-10.28999996 -18.29999924 -0.68000001 164 111 118 0.000000 0.000000 0.000000 0.000000 -60.708740 0.000000 46.000000 0.727483 0.129961 -0.673706
-10.21000004 -18.35000038 -0.38000000 164 111 118 0.000000 0.000000 0.000000 0.000000 -60.708740 0.000000 46.000000 -0.502685 0.811545 -0.297829
-10.26000023 -18.39999962 -0.38999999 164 111 118 0.000000 0.000000 0.000000 0.000000 -60.708740 0.000000 46.000000 0.422530 -0.397019 0.814766
-10.27999973 -18.34000015 -0.41000000 164 111 118 0.000000 0.000000 0.000000 0.000000 -60.708740 0.000000 46.000000 0.368350 -0.328611 0.869674
-10.30000019 -18.38999939 -0.38000000 164 111 118 0.000000 0.000000 0.000000 0.000000 -60.708740 0.000000 46.000000 -0.083141 -0.689922 0.719094
-10.30000019 -18.38999939 -0.38000000 164 111 118 0.000000 0.000000 0.000000 0.000000 -60.708740 0.000000 46.000000 -0.083141 -0.689922 0.719094
-10.18999958 -18.35000038 -0.60000002 164 111 118 0.000000 0.000000 0.000000 0.000000 -60.708740 0.000000 46.000000 0.654751 -0.347785 -0.671079
-10.18999958 -18.36000061 -0.58999997 164 111 118 0.000000 0.000000 0.000000 0.000000 -60.708740 0.000000 46.000000 0.732008 -0.296327 -0.613477
-10.17000008 -18.40999985 -0.56999999 164 111 118 0.000000 0.000000 0.000000 0.000000 -60.708740 0.000000 46.000000 0.776482 -0.390673 -0.494420
-10.18000031 -18.37999916 -0.60000002 164 111 118 0.000000 0.000000 0.000000 0.000000 -60.708740 0.000000 46.000000 0.752285 -0.462565 -0.469149
-10.21000004 -18.39999962 -0.57999998 164 111 118 0.000000 0.000000 0.000000 0.000000 -60.708740 0.000000 46.000000 -0.658429 0.540552 0.523712
-10.19999981 -18.39999962 -0.60000002 164 111 118 0.000000 0.000000 0.000000 0.000000 -60.708740 0.000000 46.000000 0.977596 -0.165210 -0.130429
-10.19999981 -18.39999962 -0.58999997 164 111 118 0.000000 0.000000 0.000000 0.000000 -60.708740 0.000000 46.000000 0.879231 -0.450479 -0.154988
-10.18999958 -18.34000015 -0.61000001 164 111 118 0.000000 0.000000 0.000000 0.000000 -60.708740 0.000000 46.000000 0.808133 -0.277747 -0.519402
-10.18999958 -18.34000015 -0.61000001 164 111 118 0.000000 0.000000 0.000000 0.000000 -60.708740 0.000000 46.000000 0.808133 -0.277747 -0.519402
-10.19999981 -18.34000015 -0.62000000 164 111 118 0.000000 0.000000 0.000000 0.000000 -60.708740 0.000000 46.000000 0.840227 -0.075096 -0.537009
-10.22000027 -18.34000015 -0.68000001 164 111 118 0.000000 0.000000 0.000000 0.000000 -60.708740 0.000000 46.000000 -0.537040 0.215734 0.815504
-10.22000027 -18.40999985 -0.63000000 164 111 118 0.000000 0.000000 0.000000 0.000000 -60.708740 0.000000 46.000000 0.925133 -0.090487 -0.368703
-10.21000004 -18.39999962 -0.62000000 164 111 118 0.000000 0.000000 0.000000 0.000000 -60.708740 0.000000 46.000000 0.701266 -0.244261 -0.669748
-10.21000004 -18.39999962 -0.61000001 164 111 118 0.000000 0.000000 0.000000 0.000000 -60.708740 0.000000 46.000000 0.908926 -0.227594 -0.349364
-10.21000004 -18.40999985 -0.61000001 164 111 118 0.000000 0.000000 0.000000 0.000000 -60.708740 0.000000 46.000000 0.914395 -0.398444 -0.071585
-10.21000004 -18.40999985 -0.69000000 164 111 118 0.000000 0.000000 0.000000 0.000000 -60.708740 0.000000 46.000000 0.862302 -0.298666 -0.408943
-10.18000031 -18.42000008 -0.61000001 164 111 118 0.000000 0.000000 0.000000 0.000000 -60.708740 0.000000 46.000000 0.803494 -0.326171 -0.498007
-10.18999958 -18.48999977 -0.62000000 164 111 118 0.000000 0.000000 0.000000 0.000000 -60.708740 0.000000 46.000000 0.557819 -0.671728 -0.487463
-10.25000000 -18.36000061 -0.54000002 164 111 118 0.000000 0.000000 0.000000 0.000000 -60.708740 0.000000 46.000000 0.736778 -0.669398 -0.095210
-10.27000046 -18.37000084 -0.54000002 164 111 118 0.000000 0.000000 0.000000 0.000000 -60.708740 0.000000 46.000000 0.659063 -0.712543 0.240660
-10.26000023 -18.36000061 -0.54000002 164 111 118 0.000000 0.000000 0.000000 0.000000 -60.708740 0.000000 46.000000 0.806883 -0.586172 0.073092
-10.27999973 -18.40999985 -0.55000001 164 111 118 0.000000 0.000000 0.000000 0.000000 -60.708740 0.000000 46.000000 -0.561321 0.824129 0.075700
-10.27999973 -18.40999985 -0.56999999 164 111 118 0.000000 0.000000 0.000000 0.000000 -60.708740 0.000000 46.000000 -0.508944 0.860773 -0.006714
-10.23999977 -18.35000038 -0.68000001 164 111 118 0.000000 0.000000 0.000000 0.000000 -60.708740 0.000000 46.000000 -0.541119 0.362371 0.758866
-10.31000042 -18.36000061 -0.62000000 164 111 118 0.000000 0.000000 0.000000 0.000000 -60.708740 0.000000 46.000000 0.868618 0.009398 -0.495394
-10.30000019 -18.34000015 -0.63999999 164 111 118 0.000000 0.000000 0.000000 0.000000 -60.708740 0.000000 46.000000 0.791345 -0.015245 -0.611179
-10.23999977 -18.50000000 -0.63000000 164 111 118 0.000000 0.000000 0.000000 0.000000 -60.708740 0.000000 46.000000 0.843165 -0.386385 -0.373871
-10.27000046 -18.46999931 -0.66000003 164 111 118 0.000000 0.000000 0.000000 0.000000 -60.708740 0.000000 46.000000 0.535873 -0.508995 -0.673620
-10.27000046 -18.45999908 -0.68000001 164 111 118 0.000000 0.000000 0.000000 0.000000 -60.708740 0.000000 46.000000 0.818085 -0.556773 -0.144019
-10.27999973 -18.43000031 -0.64999998 164 111 118 0.000000 0.000000 0.000000 0.000000 -60.708740 0.000000 46.000000 0.628640 -0.344527 -0.697218
-10.27999973 -18.46999931 -0.67000002 164 111 118 0.000000 0.000000 0.000000 0.000000 -60.708740 0.000000 46.000000 0.763918 -0.492375 -0.417129
-10.31000042 -18.45999908 -0.66000003 164 111 118 0.000000 0.000000 0.000000 0.000000 -60.708740 0.000000 46.000000 0.844996 -0.388917 -0.367050
-10.31999969 -18.19000053 -0.44999999 164 111 118 0.000000 0.000000 0.000000 0.000000 -60.708740 0.000000 46.000000 -0.150753 -0.202292 0.967652
-10.31999969 -18.19000053 -0.44999999 164 111 118 0.000000 0.000000 0.000000 0.000000 -60.708740 0.000000 46.000000 -0.150753 -0.202292 0.967652
-10.32999992 -18.20000076 -0.56000000 164 111 118 0.000000 0.000000 0.000000 0.000000 -60.708740 0.000000 46.000000 -0.126409 -0.623124 0.771840
-10.34000015 -18.20000076 -0.55000001 164 111 118 0.000000 0.000000 0.000000 0.000000 -60.708740 0.000000 46.000000 0.511341 -0.448457 0.733087
-10.32999992 -18.17000008 -0.57999998 164 111 118 0.000000 0.000000 0.000000 0.000000 -60.708740 0.000000 46.000000 -0.023830 -0.730335 0.682674
-10.34000015 -18.22999954 -0.63000000 164 111 118 0.000000 0.000000 0.000000 0.000000 -60.708740 0.000000 46.000000 -0.263830 -0.230328 0.936666
-10.39000034 -18.22999954 -0.66000003 164 111 118 0.000000 0.000000 0.000000 0.000000 -60.708740 0.000000 46.000000 -0.040995 -0.398052 0.916446
-10.31999969 -18.28000069 -0.58999997 164 111 118 0.000000 0.000000 0.000000 0.000000 -60.708740 0.000000 46.000000 0.822007 -0.134296 -0.553416
-10.32999992 -18.30999947 -0.60000002 164 111 118 0.000000 0.000000 0.000000 0.000000 -60.708740 0.000000 46.000000 0.902937 -0.118992 -0.412971
-10.32999992 -18.26000023 -0.63999999 164 111 118 0.000000 0.000000 0.000000 0.000000 -60.708740 0.000000 46.000000 0.650824 0.374018 -0.660710
-10.35000038 -18.29000092 -0.63999999 164 111 118 0.000000 0.000000 0.000000 0.000000 -60.708740 0.000000 46.000000 -0.277611 -0.318739 0.906277
-10.35999966 -18.27000046 -0.67000002 164 111 118 0.000000 0.000000 0.000000 0.000000 -60.708740 0.000000 46.000000 0.367493 0.563489 -0.739885
-10.34000015 -18.29000092 -0.67000002 164 111 118 0.000000 0.000000 0.000000 0.000000 -60.708740 0.000000 46.000000 -0.230927 -0.162309 0.959337
-10.31999969 -18.29999924 -0.62000000 164 111 118 0.000000 0.000000 0.000000 0.000000 -60.708740 0.000000 46.000000 -0.380296 0.094052 0.920070
-10.34000015 -18.29999924 -0.64999998 164 111 118 0.000000 0.000000 0.000000 0.000000 -60.708740 0.000000 46.000000 -0.479263 0.179538 0.859112
-10.32999992 -18.32999992 -0.66000003 164 111 118 0.000000 0.000000 0.000000 0.000000 -60.708740 0.000000 46.000000 -0.541826 -0.254518 0.801028
-10.35999966 -18.30999947 -0.64999998 164 111 118 0.000000 0.000000 0.000000 0.000000 -60.708740 0.000000 46.000000 -0.177802 -0.233950 0.955853
-10.34000015 -18.30999947 -0.64999998 164 111 118 0.000000 0.000000 0.000000 0.000000 -60.708740 0.000000 46.000000 -0.387747 0.097279 0.916618
-10.34000015 -18.31999969 -0.67000002 164 111 118 0.000000 0.000000 0.000000 0.000000 -60.708740 0.000000 46.000000 -0.553358 0.377067 0.742708
-10.39000034 -18.26000023 -0.63000000 164 111 118 0.000000 0.000000 0.000000 0.000000 -60.708740 0.000000 46.000000 -0.004108 -0.587434 0.809262
-10.36999989 -18.29000092 -0.69000000 164 111 118 0.000000 0.000000 0.000000 0.000000 -60.708740 0.000000 46.000000 -0.246708 -0.315959 0.916136
-10.36999989 -18.31999969 -0.69000000 164 111 118 0.000000 0.000000 0.000000 0.000000 -60.708740 0.000000 46.000000 -0.154477 -0.154477 0.975845
-10.44999981 -18.25000000 -0.69000000 164 111 118 0.000000 0.000000 0.000000 0.000000 -60.708740 0.000000 46.000000 -0.149425 0.835891 -0.528165
-10.47000027 -18.27000046 -0.68000001 164 111 118 0.000000 0.000000 0.000000 0.000000 -60.708740 0.000000 46.000000 -0.352208 0.754732 -0.553470
-10.31999969 -18.37999916 -0.58999997 164 111 118 0.000000 0.000000 0.000000 0.000000 -60.708740 0.000000 46.000000 -0.718379 0.685658 0.117499
-10.32999992 -18.35000038 -0.63000000 164 111 118 0.000000 0.000000 0.000000 0.000000 -60.708740 0.000000 46.000000 0.693327 -0.580267 -0.427303
-10.34000015 -18.36000061 -0.61000001 164 111 118 0.000000 0.000000 0.000000 0.000000 -60.708740 0.000000 46.000000 0.819562 -0.255629 -0.512807
-10.32999992 -18.35000038 -0.63999999 164 111 118 0.000000 0.000000 0.000000 0.000000 -60.708740 0.000000 46.000000 0.706641 -0.230324 -0.669037
-10.32999992 -18.34000015 -0.69000000 164 111 118 0.000000 0.000000 0.000000 0.000000 -60.708740 0.000000 46.000000 0.744666 0.250321 -0.618718
-10.35000038 -18.37999916 -0.62000000 164 111 118 0.000000 0.000000 0.000000 0.000000 -60.708740 0.000000 46.000000 -0.636591 0.219460 0.739317
-10.35999966 -18.37999916 -0.63999999 164 111 118 0.000000 0.000000 0.000000 0.000000 -60.708740 0.000000 46.000000 0.890287 0.070177 -0.449960
-10.32999992 -18.40999985 -0.69000000 164 111 118 0.000000 0.000000 0.000000 0.000000 -60.708740 0.000000 46.000000 -0.756175 -0.139256 0.639380
-10.39999962 -18.34000015 -0.68000001 164 111 118 0.000000 0.000000 0.000000 0.000000 -60.708740 0.000000 46.000000 0.694059 0.318717 -0.645524
-10.39000034 -18.45000076 -0.68000001 164 111 118 0.000000 0.000000 0.000000 0.000000 -60.708740 0.000000 46.000000 0.742456 -0.388437 -0.545779
-10.39000034 -18.47999954 -0.67000002 164 111 118 0.000000 0.000000 0.000000 0.000000 -60.708740 0.000000 46.000000 0.934043 -0.281473 -0.219857
-10.39999962 -18.48999977 -0.66000003 164 111 118 0.000000 0.000000 0.000000 0.000000 -60.708740 0.000000 46.000000 0.761975 -0.591595 -0.263457
-10.43000031 -18.45000076 -0.66000003 164 111 118 0.000000 0.000000 0.000000 0.000000 -60.708740 0.000000 46.000000 0.754281 -0.542496 -0.369809
-10.03999996 -18.09000015 -0.74000001 164 111 118 0.000000 0.000000 0.000000 0.000000 -60.708740 0.000000 46.000000 0.760474 -0.229548 -0.607443
-10.06999969 -18.06999969 -0.75000000 164 111 118 0.000000 0.000000 0.000000 0.000000 -60.708740 0.000000 46.000000 0.675341 -0.023869 -0.737119
-10.06999969 -18.06999969 -0.75000000 164 111 118 0.000000 0.000000 0.000000 0.000000 -60.708740 0.000000 46.000000 0.675341 -0.023869 -0.737119
-10.07999992 -18.15999985 -0.73000002 164 111 118 0.000000 0.000000 0.000000 0.000000 -60.708740 0.000000 46.000000 -0.388592 0.413969 0.823180
-10.07999992 -18.13999939 -0.74000001 164 111 118 0.000000 0.000000 0.000000 0.000000 -60.708740 0.000000 46.000000 -0.556964 -0.258870 0.789163
-10.14999962 -18.15999985 -0.70999998 164 111 118 0.000000 0.000000 0.000000 0.000000 -60.708740 0.000000 46.000000 -0.398893 -0.315726 0.860931
-10.06000042 -18.20000076 -0.75000000 164 111 118 0.000000 0.000000 0.000000 0.000000 -60.708740 0.000000 46.000000 0.843799 -0.051604 -0.534173
-10.10999966 -18.17000008 -0.69999999 164 111 118 0.000000 0.000000 0.000000 0.000000 -60.708740 0.000000 46.000000 0.690551 0.073833 -0.719505
-10.19999981 -18.07999992 -0.76999998 164 111 118 0.000000 0.000000 0.000000 0.000000 -60.708740 0.000000 46.000000 -0.035214 -0.629618 0.776106
-10.18999958 -18.13999939 -0.75999999 164 111 118 0.000000 0.000000 0.000000 0.000000 -60.708740 0.000000 46.000000 -0.468238 -0.541556 0.698191
-10.19999981 -18.13999939 -0.73000002 164 111 118 0.000000 0.000000 0.000000 0.000000 -60.708740 0.000000 46.000000 -0.482732 0.094848 0.870617
-10.31000042 -18.12000084 -0.69999999 164 111 118 0.000000 0.000000 0.000000 0.000000 -60.708740 0.000000 46.000000 -0.189265 -0.385753 0.902980
-10.28999996 -18.09000015 -0.69999999 164 111 118 0.000000 0.000000 0.000000 0.000000 -60.708740 0.000000 46.000000 -0.133015 -0.042064 0.990221
-10.31000042 -18.09000015 -0.75000000 164 111 118 0.000000 0.000000 0.000000 0.000000 -60.708740 0.000000 46.000000 0.197185 -0.155944 0.967884
-10.35999966 -17.90999985 -0.70999998 164 111 118 0.000000 0.000000 0.000000 0.000000 -60.708740 0.000000 46.000000 0.006772 -0.532298 0.846530
-10.38000011 -17.88999939 -0.75000000 164 111 118 0.000000 0.000000 0.000000 0.000000 -60.708740 0.000000 46.000000 0.590138 -0.536028 0.603665
-10.38000011 -17.85000038 -0.75999999 164 111 118 0.000000 0.000000 0.000000 0.000000 -60.708740 0.000000 46.000000 -0.133698 0.875503 -0.464348
-10.35999966 -17.86000061 -0.76999998 164 111 118 0.000000 0.000000 0.000000 0.000000 -60.708740 0.000000 46.000000 0.103221 -0.389488 0.915229
-10.34000015 -17.85000038 -0.76999998 164 111 118 0.000000 0.000000 0.000000 0.000000 -60.708740 0.000000 46.000000 0.181896 -0.243875 0.952596
-10.39999962 -17.94000053 -0.75999999 164 111 118 0.000000 0.000000 0.000000 0.000000 -60.708740 0.000000 46.000000 0.017976 0.808904 -0.587665
-10.38000011 -17.95000076 -0.74000001 164 111 118 0.000000 0.000000 0.000000 0.000000 -60.708740 0.000000 46.000000 -0.514819 0.589088 -0.622846
-10.36999989 -17.95999908 -0.75999999 164 111 118 0.000000 0.000000 0.000000 0.000000 -60.708740 0.000000 46.000000 0.270764 -0.442095 0.855125
-10.36999989 -17.96999931 -0.76999998 164 111 118 0.000000 0.000000 0.000000 0.000000 -60.708740 0.000000 46.000000 0.060851 -0.561810 0.825025
-10.35999966 -17.94000053 -0.80000001 164 111 118 0.000000 0.000000 0.000000 0.000000 -60.708740 0.000000 46.000000 0.236118 -0.255678 0.937485
-10.35000038 -17.96999931 -0.77999997 164 111 118 0.000000 0.000000 0.000000 0.000000 -60.708740 0.000000 46.000000 -0.125853 0.860716 -0.493284
-10.38000011 -17.97999954 -0.77999997 164 111 118 0.000000 0.000000 0.000000 0.000000 -60.708740 0.000000 46.000000 0.070698 -0.662254 0.745937
-10.44999981 -17.87999916 -0.76999998 164 111 118 0.000000 0.000000 0.000000 0.000000 -60.708740 0.000000 46.000000 -0.501456 0.669166 -0.548415
-10.47000027 -17.87000084 -0.72000003 164 111 118 0.000000 0.000000 0.000000 0.000000 -60.708740 0.000000 46.000000 0.086135 -0.737256 0.670100
-10.46000004 -17.87000084 -0.72000003 164 111 118 0.000000 0.000000 0.000000 0.000000 -60.708740 0.000000 46.000000 -0.384619 0.622323 -0.681749
-10.43999958 -17.89999962 -0.85000002 164 111 118 0.000000 0.000000 0.000000 0.000000 -60.708740 0.000000 46.000000 -0.087933 0.817343 -0.569401
-10.44999981 -17.85000038 -0.80000001 164 111 118 0.000000 0.000000 0.000000 0.000000 -60.708740 0.000000 46.000000 -0.049982 0.738304 -0.672614
-10.40999985 -17.95000076 -0.81000000 164 111 118 0.000000 0.000000 0.000000 0.000000 -60.708740 0.000000 46.000000 0.012123 0.866099 -0.499725
-10.43000031 -17.95000076 -0.77999997 164 111 118 0.000000 0.000000 0.000000 0.000000 -60.708740 0.000000 46.000000 0.188867 -0.530338 0.826481
-10.39000034 -17.97999954 -0.86000001 164 111 118 0.000000 0.000000 0.000000 0.000000 -60.708740 0.000000 46.000000 -0.413517 0.736423 -0.535430
-10.44999981 -17.92000008 -0.86000001 164 111 118 0.000000 0.000000 0.000000 0.000000 -60.708740 0.000000 46.000000 -0.014206 -0.383568 0.923404
-10.47999954 -17.96999931 -0.89999998 164 111 118 0.000000 0.000000 1.000000 1.000000 1686050355.397767 771.000000 46.000000 -0.584647 0.474083 -0.658356
-10.34000015 -18.06999969 -0.69999999 164 111 118 0.000000 0.000000 0.000000 0.000000 -60.708740 0.000000 46.000000 -0.284397 0.770573 -0.570383
-10.39999962 -18.04000092 -0.70999998 164 111 118 0.000000 0.000000 0.000000 0.000000 -60.708740 0.000000 46.000000 0.224658 -0.380303 0.897162
-10.36999989 -18.07999992 -0.75000000 164 111 118 0.000000 0.000000 0.000000 0.000000 -60.708740 0.000000 46.000000 0.121860 -0.404800 0.906249
-10.39000034 -18.02000046 -0.80000001 164 111 118 0.000000 0.000000 0.000000 0.000000 -60.708740 0.000000 46.000000 0.104152 -0.629314 0.770140
-10.39000034 -18.00000000 -0.81999999 164 111 118 0.000000 0.000000 0.000000 0.000000 -60.708740 0.000000 46.000000 -0.075233 -0.269055 0.960182
-10.34000015 -18.12999916 -0.70999998 164 111 118 0.000000 0.000000 0.000000 0.000000 -60.708740 0.000000 46.000000 0.093803 -0.567150 0.818255
-10.32999992 -18.12999916 -0.76999998 164 111 118 0.000000 0.000000 0.000000 0.000000 -60.708740 0.000000 46.000000 -0.374022 -0.563483 0.736611
-10.38000011 -18.09000015 -0.73000002 164 111 118 0.000000 0.000000 0.000000 0.000000 -60.708740 0.000000 46.000000 0.427529 -0.297881 0.853514
-10.36999989 -18.11000061 -0.76999998 164 111 118 0.000000 0.000000 0.000000 0.000000 -60.708740 0.000000 46.000000 0.272530 -0.559237 0.782932
-10.36999989 -18.14999962 -0.72000003 164 111 118 0.000000 0.000000 0.000000 0.000000 -60.708740 0.000000 46.000000 -0.286619 0.690128 -0.664509
-10.34000015 -18.12999916 -0.77999997 164 111 118 0.000000 0.000000 0.000000 0.000000 -60.708740 0.000000 46.000000 -0.310887 -0.543654 0.779609
-10.39000034 -18.10000038 -0.77999997 164 111 118 0.000000 0.000000 0.000000 0.000000 -60.708740 0.000000 46.000000 -0.171476 0.772402 -0.611548
-10.43000031 -18.03000069 -0.85000002 164 111 118 0.000000 0.000000 0.000000 0.000000 -60.708740 0.000000 46.000000 -0.196030 0.714660 -0.671441
-10.43999958 -18.06999969 -0.82999998 164 111 118 0.000000 0.000000 0.000000 0.000000 -60.708740 0.000000 46.000000 -0.155743 -0.464317 0.871868
-10.47000027 -18.10000038 -0.75000000 164 111 118 0.000000 0.000000 0.000000 0.000000 -60.708740 0.000000 46.000000 -0.040111 -0.524216 0.850640
-10.42000008 -18.12000084 -0.74000001 164 111 118 0.000000 0.000000 0.000000 0.000000 -60.708740 0.000000 46.000000 0.136560 -0.658792 0.739828
-10.43000031 -18.12999916 -0.83999997 164 111 118 0.000000 0.000000 0.000000 0.000000 -60.708740 0.000000 46.000000 0.417218 -0.363688 0.832862
-10.47000027 -18.12000084 -0.79000002 164 111 118 0.000000 0.000000 0.000000 0.000000 -60.708740 0.000000 46.000000 -0.068751 -0.514928 0.854472
-10.47000027 -18.12000084 -0.82999998 164 111 118 0.000000 0.000000 0.000000 0.000000 -60.708740 0.000000 46.000000 0.016499 -0.346482 0.937912
-10.47000027 -18.10000038 -0.81999999 164 111 118 0.000000 0.000000 0.000000 0.000000 -60.708740 0.000000 46.000000 0.411666 -0.443953 0.795887
-10.47000027 -18.12000084 -0.82999998 164 111 118 0.000000 0.000000 0.000000 0.000000 -60.708740 0.000000 46.000000 0.016499 -0.346482 0.937912
-10.46000004 -18.12999916 -0.77999997 164 111 118 0.000000 0.000000 0.000000 0.000000 -60.708740 0.000000 46.000000 -0.099612 -0.544255 0.832985
-10.47999954 -18.06999969 -0.87000000 164 111 118 0.000000 0.000000 1.000000 1.000000 1686050404.153809 1028.000000 46.000000 -0.105563 -0.536493 0.837276
-10.47000027 -18.00000000 -0.86000001 164 111 118 0.000000 0.000000 0.000000 0.000000 -60.708740 0.000000 46.000000 0.261847 -0.674455 0.690324
-10.44999981 -18.11000061 -0.88000000 164 111 118 0.000000 0.000000 0.000000 0.000000 -60.708740 0.000000 46.000000 0.347114 -0.497477 0.795003
-10.27999973 -18.18000031 -0.75000000 164 111 118 0.000000 0.000000 0.000000 0.000000 -60.708740 0.000000 46.000000 -0.086439 -0.178966 0.980051
-10.31000042 -18.17000008 -0.74000001 164 111 118 0.000000 0.000000 0.000000 0.000000 -60.708740 0.000000 46.000000 -0.110572 -0.641320 0.759264
-10.30000019 -18.23999977 -0.69999999 164 111 118 0.000000 0.000000 0.000000 0.000000 -60.708740 0.000000 46.000000 -0.295577 -0.520026 0.801378
-10.30000019 -18.23999977 -0.77999997 164 111 118 0.000000 0.000000 0.000000 0.000000 -60.708740 0.000000 46.000000 0.045176 -0.089251 0.994984
-10.27999973 -18.25000000 -0.77999997 164 111 118 0.000000 0.000000 0.000000 0.000000 -60.708740 0.000000 46.000000 -0.289476 -0.331042 0.898117
-10.28999996 -18.34000015 -0.72000003 164 111 118 0.000000 0.000000 0.000000 0.000000 -60.708740 0.000000 46.000000 -0.595161 0.023584 0.803260
-10.28999996 -18.45999908 -0.76999998 164 111 118 0.000000 0.000000 0.000000 0.000000 -60.708740 0.000000 46.000000 0.724087 -0.531881 -0.439092
-10.28999996 -18.47999954 -0.70999998 164 111 118 0.000000 0.000000 0.000000 0.000000 -60.708740 0.000000 46.000000 0.717009 -0.514051 -0.470797
-10.30000019 -18.42000008 -0.73000002 164 111 118 0.000000 0.000000 0.000000 0.000000 -60.708740 0.000000 46.000000 0.920472 -0.233339 -0.313504
-10.30000019 -18.45999908 -0.79000002 164 111 118 0.000000 0.000000 0.000000 0.000000 -60.708740 0.000000 46.000000 -0.761509 0.510390 0.399507
-10.35999966 -18.17000008 -0.70999998 164 111 118 0.000000 0.000000 0.000000 0.000000 -60.708740 0.000000 46.000000 0.280801 -0.321966 0.904151
-10.31999969 -18.17000008 -0.74000001 164 111 118 0.000000 0.000000 0.000000 0.000000 -60.708740 0.000000 46.000000 -0.315840 -0.565947 0.761544
-10.31999969 -18.18000031 -0.75000000 164 111 118 0.000000 0.000000 0.000000 0.000000 -60.708740 0.000000 46.000000 -0.346900 -0.451445 0.822106
-10.34000015 -18.20000076 -0.75000000 164 111 118 0.000000 0.000000 0.000000 0.000000 -60.708740 0.000000 46.000000 0.077768 -0.269002 0.959995
-10.34000015 -18.17000008 -0.74000001 164 111 118 0.000000 0.000000 0.000000 0.000000 -60.708740 0.000000 46.000000 0.069917 -0.583589 0.809034
-10.32999992 -18.20999908 -0.72000003 164 111 118 0.000000 0.000000 0.000000 0.000000 -60.708740 0.000000 46.000000 -0.212963 -0.442308 0.871212
-10.34000015 -18.23999977 -0.70999998 164 111 118 0.000000 0.000000 0.000000 0.000000 -60.708740 0.000000 46.000000 0.015435 -0.038073 0.999156
-10.38000011 -18.17000008 -0.74000001 164 111 118 0.000000 0.000000 0.000000 0.000000 -60.708740 0.000000 46.000000 0.009715 -0.650875 0.759123
-10.39999962 -18.23999977 -0.70999998 164 111 118 0.000000 0.000000 0.000000 0.000000 -60.708740 0.000000 46.000000 -0.180397 -0.287809 0.940544
-10.39000034 -18.22999954 -0.75000000 164 111 118 0.000000 0.000000 0.000000 0.000000 -60.708740 0.000000 46.000000 0.157369 -0.568026 0.807825
-10.35000038 -18.19000053 -0.81999999 164 111 118 0.000000 0.000000 0.000000 0.000000 -60.708740 0.000000 46.000000 -0.275113 -0.532933 0.800185
-10.38000011 -18.19000053 -0.82999998 164 111 118 0.000000 0.000000 0.000000 0.000000 -60.708740 0.000000 46.000000 -0.305799 -0.375783 0.874799
-10.36999989 -18.20000076 -0.81999999 164 111 118 0.000000 0.000000 0.000000 0.000000 -60.708740 0.000000 46.000000 -0.436184 -0.508607 0.742336
-10.35999966 -18.31999969 -0.69999999 164 111 118 0.000000 0.000000 0.000000 0.000000 -60.708740 0.000000 46.000000 -0.569865 -0.287314 0.769873
-10.31999969 -18.32999992 -0.75000000 164 111 118 0.000000 0.000000 0.000000 0.000000 -60.708740 0.000000 46.000000 -0.662679 0.156192 0.732435
-10.39999962 -18.26000023 -0.73000002 164 111 118 0.000000 0.000000 0.000000 0.000000 -60.708740 0.000000 46.000000 -0.467946 -0.484482 0.739124
-10.39999962 -18.32999992 -0.69999999 164 111 118 0.000000 0.000000 0.000000 0.000000 -60.708740 0.000000 46.000000 -0.307163 -0.269314 0.912755
-10.43999958 -18.20000076 -0.73000002 164 111 118 0.000000 0.000000 0.000000 0.000000 -60.708740 0.000000 46.000000 0.554419 -0.477370 0.681717
-10.40999985 -18.21999931 -0.74000001 164 111 118 0.000000 0.000000 0.000000 0.000000 -60.708740 0.000000 46.000000 -0.185291 -0.614064 0.767198
-10.43000031 -18.21999931 -0.74000001 164 111 118 0.000000 0.000000 0.000000 0.000000 -60.708740 0.000000 46.000000 -0.339792 -0.427480 0.837736
-10.43000031 -18.21999931 -0.74000001 164 111 118 0.000000 0.000000 0.000000 0.000000 -60.708740 0.000000 46.000000 -0.339792 -0.427480 0.837736
-10.42000008 -18.25000000 -0.75999999 164 111 118 0.000000 0.000000 0.000000 0.000000 -60.708740 0.000000 46.000000 0.108031 -0.708863 0.697024
-10.43000031 -18.25000000 -0.76999998 164 111 118 0.000000 0.000000 0.000000 0.000000 -60.708740 0.000000 46.000000 -0.149794 -0.415144 0.897339
-10.43000031 -18.25000000 -0.76999998 164 111 118 0.000000 0.000000 0.000000 0.000000 -60.708740 0.000000 46.000000 -0.149794 -0.415144 0.897339
-10.40999985 -18.32999992 -0.69999999 164 111 118 0.000000 0.000000 0.000000 0.000000 -60.708740 0.000000 46.000000 -0.063592 0.044191 0.996997
-10.42000008 -18.30999947 -0.69999999 164 111 118 0.000000 0.000000 0.000000 0.000000 -60.708740 0.000000 46.000000 0.180034 -0.177444 0.967523
-10.40999985 -18.25000000 -0.81999999 164 111 118 0.000000 0.000000 0.000000 0.000000 -60.708740 0.000000 46.000000 -0.022715 -0.452968 0.891237
-10.40999985 -18.22999954 -0.88999999 164 111 118 0.000000 0.000000 0.000000 0.000000 -60.708740 0.000000 46.000000 0.219696 -0.489392 0.843937
-10.42000008 -18.21999931 -0.86000001 164 111 118 0.000000 0.000000 0.000000 0.000000 -60.708740 0.000000 46.000000 0.201643 -0.384427 0.900864
-10.35999966 -18.38999939 -0.73000002 164 111 118 0.000000 0.000000 0.000000 0.000000 -60.708740 0.000000 46.000000 0.777959 -0.012481 -0.628191
-10.34000015 -18.38999939 -0.70999998 164 111 118 0.000000 0.000000 0.000000 0.000000 -60.708740 0.000000 46.000000 0.878281 -0.050696 -0.475450
-10.39999962 -18.36000061 -0.76999998 164 111 118 0.000000 0.000000 0.000000 0.000000 -60.708740 0.000000 46.000000 -0.557349 0.169759 0.812738
-10.39000034 -18.38999939 -0.75999999 164 111 118 0.000000 0.000000 0.000000 0.000000 -60.708740 0.000000 46.000000 -0.509748 0.201177 0.836471
-10.31999969 -18.45000076 -0.73000002 164 111 118 0.000000 0.000000 0.000000 0.000000 -60.708740 0.000000 46.000000 -0.526798 0.500040 0.687346
-10.32999992 -18.45000076 -0.74000001 164 111 118 0.000000 0.000000 0.000000 0.000000 -60.708740 0.000000 46.000000 0.544186 -0.493953 -0.678139
-10.34000015 -18.45999908 -0.69999999 164 111 118 0.000000 0.000000 0.000000 0.000000 -60.708740 0.000000 46.000000 -0.683321 0.472811 0.556347
-10.39000034 -18.45000076 -0.73000002 164 111 118 0.000000 0.000000 0.000000 0.000000 -60.708740 0.000000 46.000000 0.899827 -0.257725 -0.351978
-10.39000034 -18.47999954 -0.75000000 164 111 118 0.000000 0.000000 0.000000 0.000000 -60.708740 0.000000 46.000000 0.618857 -0.527799 -0.581759
-10.39000034 -18.48999977 -0.74000001 164 111 118 0.000000 0.000000 0.000000 0.000000 -60.708740 0.000000 46.000000 0.685729 -0.575612 -0.445474
-10.39999962 -18.50000000 -0.75000000 164 111 118 0.000000 0.000000 0.000000 0.000000 -60.708740 0.000000 46.000000 0.721453 -0.559663 -0.407778
-10.39000034 -18.47999954 -0.75000000 164 111 118 0.000000 0.000000 0.000000 0.000000 -60.708740 0.000000 46.000000 0.618857 -0.527799 -0.581759
-10.44999981 -18.39999962 -0.74000001 164 111 118 0.000000 0.000000 0.000000 0.000000 -60.708740 0.000000 46.000000 -0.341546 -0.571402 0.746221
-10.40999985 -18.37999916 -0.76999998 164 111 118 0.000000 0.000000 0.000000 0.000000 -60.708740 0.000000 46.000000 -0.435667 -0.387792 0.812288
-10.43999958 -18.39999962 -0.77999997 164 111 118 0.000000 0.000000 0.000000 0.000000 -60.708740 0.000000 46.000000 -0.408622 -0.016972 0.912546
-10.42000008 -18.40999985 -0.77999997 164 111 118 0.000000 0.000000 0.000000 0.000000 -60.708740 0.000000 46.000000 -0.242288 -0.302501 0.921840
-10.43999958 -18.39999962 -0.77999997 164 111 118 0.000000 0.000000 0.000000 0.000000 -60.708740 0.000000 46.000000 -0.408622 -0.016972 0.912546
-10.43000031 -18.37999916 -0.79000002 164 111 118 0.000000 0.000000 0.000000 0.000000 -60.708740 0.000000 46.000000 -0.552601 -0.283426 0.783774
-10.47000027 -18.36000061 -0.82999998 164 111 118 0.000000 0.000000 0.000000 0.000000 -60.708740 0.000000 46.000000 -0.027592 -0.400735 0.915778
-10.40999985 -18.44000053 -0.75999999 164 111 118 0.000000 0.000000 0.000000 0.000000 -60.708740 0.000000 46.000000 -0.503685 0.454142 0.734885
-10.40999985 -18.45999908 -0.76999998 164 111 118 0.000000 0.000000 0.000000 0.000000 -60.708740 0.000000 46.000000 -0.275695 -0.120040 0.953721
-10.46000004 -18.44000053 -0.75000000 164 111 118 0.000000 0.000000 0.000000 0.000000 -60.708740 0.000000 46.000000 -0.119753 -0.058166 0.991098
-10.42000008 -18.42000008 -0.77999997 164 111 118 0.000000 0.000000 0.000000 0.000000 -60.708740 0.000000 46.000000 -0.672986 0.009713 0.739591
-10.47999954 -18.45999908 -0.79000002 164 111 118 0.000000 0.000000 1.000000 1.000000 1686050356.432923 5397.000000 46.000000 -0.479146 -0.462680 0.745886
-10.01000023 -18.54999924 -0.43000001 164 111 118 0.000000 0.000000 0.000000 0.000000 -60.708740 0.000000 46.000000 -0.548935 0.807258 -0.216806
-9.98999977 -18.54000092 -0.38999999 164 111 118 0.000000 0.000000 0.000000 0.000000 -60.708740 0.000000 46.000000 0.502957 -0.661078 0.556786
-10.02000046 -18.53000069 -0.47000000 164 111 118 0.000000 0.000000 0.000000 0.000000 -60.708740 0.000000 46.000000 -0.496215 0.865944 0.062548
-9.98999977 -18.52000046 -0.50000000 164 111 118 0.000000 0.000000 0.000000 0.000000 -60.708740 0.000000 46.000000 -0.491704 0.869727 0.042459
-10.02000046 -18.57999992 -0.46000001 164 111 118 0.000000 0.000000 0.000000 0.000000 -60.708740 0.000000 46.000000 -0.682275 0.694823 0.227425
-10.05000019 -18.55999947 -0.46000001 164 111 118 0.000000 0.000000 0.000000 0.000000 -60.708740 0.000000 46.000000 0.857937 -0.487096 0.163346
-10.06000042 -18.60000038 -0.47000000 164 111 118 0.000000 0.000000 0.000000 0.000000 -60.708740 0.000000 46.000000 -0.620638 0.637367 -0.456696
-10.07999992 -18.57999992 -0.47999999 164 111 118 0.000000 0.000000 0.000000 0.000000 -60.708740 0.000000 46.000000 0.697228 -0.675194 -0.240803
-10.10999966 -18.51000023 -0.51999998 164 111 118 0.000000 0.000000 0.000000 0.000000 -60.708740 0.000000 46.000000 0.838213 -0.401021 0.369569
