//X Y Z R G B PointSourceId ScanDirectionFlag NumberOfReturns ReturnNumber GpsTime Intensity Classification Nx Ny Nz
1.42999995 0.83999997 -0.05000000 187 5 159 97.000000 1.000000 4.000000 1.000000 -60.708740 114.000000 133.000000 0.608269 -0.604899 -0.513912
1.48000002 0.87000000 -0.18000001 187 5 159 97.000000 1.000000 4.000000 1.000000 -60.708740 114.000000 133.000000 -0.426156 0.442360 0.789119
1.46000004 0.86000001 -0.12000000 187 5 159 97.000000 1.000000 4.000000 1.000000 -60.708740 114.000000 133.000000 -0.476307 0.743303 0.469715
1.42999995 0.83999997 -0.16000000 187 5 159 97.000000 1.000000 4.000000 1.000000 -60.708740 114.000000 133.000000 -0.351430 0.658726 0.665264
1.47000003 0.81000000 -0.18000001 187 5 159 97.000000 1.000000 4.000000 1.000000 -60.708740 114.000000 133.000000 -0.290556 0.773227 0.563646
1.45000005 0.81000000 -0.18000001 187 5 159 97.000000 1.000000 4.000000 1.000000 -60.708740 114.000000 133.000000 -0.256608 0.843579 0.471728
1.44000006 0.83999997 -0.15000001 187 5 159 97.000000 1.000000 4.000000 1.000000 -60.708740 114.000000 133.000000 0.686555 -0.566283 -0.456033
1.59000003 0.94999999 -0.31000000 187 5 159 97.000000 1.000000 4.000000 1.000000 -60.708740 114.000000 133.000000 0.593979 0.657559 0.463471
1.42999995 0.89999998 -0.25000000 187 5 159 97.000000 1.000000 4.000000 1.000000 -60.708740 114.000000 133.000000 -0.496094 0.627265 0.600358
1.49000001 0.88999999 -0.19000000 187 5 159 97.000000 1.000000 4.000000 1.000000 -60.708740 114.000000 133.000000 0.171212 0.780300 0.601513
1.50000000 0.89999998 -0.34000000 187 5 159 97.000000 1.000000 4.000000 1.000000 -60.708740 114.000000 133.000000 -0.236368 0.846348 0.477310
1.48000002 0.89999998 -0.34000000 187 5 159 97.000000 1.000000 4.000000 1.000000 -60.708740 114.000000 133.000000 -0.327344 0.814406 0.479155
1.42999995 0.88999999 -0.34000000 187 5 159 97.000000 1.000000 4.000000 1.000000 -60.708740 114.000000 133.000000 -0.490100 0.744225 0.453796
1.47000003 0.88999999 -0.31999999 187 5 159 97.000000 1.000000 4.000000 1.000000 -60.708740 114.000000 133.000000 -0.420426 0.529243 0.736983
1.48000002 0.85000002 -0.25999999 187 5 159 97.000000 1.000000 4.000000 1.000000 -60.708740 114.000000 133.000000 -0.113272 0.792905 0.598724
1.42999995 0.86000001 -0.27000001 187 5 159 97.000000 1.000000 4.000000 1.000000 -60.708740 114.000000 133.000000 -0.374297 0.813898 0.444379
1.42999995 0.86000001 -0.27000001 187 5 159 97.000000 1.000000 4.000000 1.000000 -60.708740 114.000000 133.000000 -0.374297 0.813898 0.444379
1.42999995 0.85000002 -0.25999999 187 5 159 97.000000 1.000000 4.000000 1.000000 -60.708740 114.000000 133.000000 0.495034 -0.394404 -0.774201
1.44000006 0.81000000 -0.20000000 187 5 159 97.000000 1.000000 4.000000 1.000000 -60.708740 114.000000 133.000000 0.713533 -0.612760 -0.339700
1.45000005 0.83999997 -0.27000001 187 5 159 97.000000 1.000000 4.000000 1.000000 -60.708740 114.000000 133.000000 -0.629904 0.679244 0.376627
1.45000005 0.83999997 -0.23999999 187 5 159 97.000000 1.000000 4.000000 1.000000 -60.708740 114.000000 133.000000 -0.466403 0.743279 0.479588
1.50000000 0.87000000 -0.33000001 187 5 159 97.000000 1.000000 4.000000 1.000000 -60.708740 114.000000 133.000000 -0.301927 0.830691 0.467753
1.44000006 0.87000000 -0.28000000 187 5 159 97.000000 1.000000 4.000000 1.000000 -60.708740 114.000000 133.000000 -0.648785 0.628771 0.428632
1.44000006 0.87000000 -0.34999999 187 5 159 97.000000 1.000000 4.000000 1.000000 -60.708740 114.000000 133.000000 0.660092 -0.576111 -0.482052
1.44000006 0.83999997 -0.28000000 187 5 159 97.000000 1.000000 4.000000 1.000000 -60.708740 114.000000 133.000000 0.836911 -0.489862 -0.244163
1.44000006 0.83999997 -0.28999999 187 5 159 97.000000 1.000000 4.000000 1.000000 -60.708740 114.000000 133.000000 0.913239 -0.268600 -0.306349
1.49000001 0.80000001 -0.10000000 187 5 159 97.000000 1.000000 4.000000 1.000000 -60.708740 114.000000 133.000000 -0.534958 0.602461 0.592335
1.42999995 0.75999999 -0.05000000 187 5 159 97.000000 1.000000 4.000000 1.000000 -60.708740 114.000000 133.000000 -0.386987 0.272547 0.880885
1.45000005 0.75999999 -0.09000000 187 5 159 97.000000 1.000000 4.000000 1.000000 -60.708740 114.000000 133.000000 -0.071714 0.516063 0.853543
1.47000003 0.75999999 -0.10000000 187 5 159 97.000000 1.000000 4.000000 1.000000 -60.708740 114.000000 133.000000 0.321028 -0.811267 -0.488658
1.47000003 0.76999998 -0.10000000 187 5 159 97.000000 1.000000 4.000000 1.000000 -60.708740 114.000000 133.000000 -0.365420 0.839054 0.403060
1.47000003 0.80000001 -0.07000000 187 5 159 97.000000 1.000000 4.000000 1.000000 -60.708740 114.000000 133.000000 -0.315145 0.693319 0.648068
1.46000004 0.75999999 -0.09000000 187 5 159 97.000000 1.000000 4.000000 1.000000 -60.708740 114.000000 133.000000 -0.006946 0.712624 0.701511
1.47000003 0.76999998 -0.10000000 187 5 159 97.000000 1.000000 4.000000 1.000000 -60.708740 114.000000 133.000000 -0.365420 0.839054 0.403060
1.44000006 0.73000002 -0.04000000 187 5 159 97.000000 1.000000 4.000000 1.000000 -60.708740 114.000000 133.000000 -0.560574 0.421671 0.712706
1.48000002 0.77999997 -0.11000000 187 5 159 97.000000 1.000000 4.000000 1.000000 -60.708740 114.000000 133.000000 -0.124730 0.465946 0.875978
1.48000002 0.77999997 -0.11000000 187 5 159 97.000000 1.000000 4.000000 1.000000 -60.708740 114.000000 133.000000 -0.124730 0.465946 0.875978
1.46000004 0.76999998 -0.11000000 187 5 159 97.000000 1.000000 4.000000 1.000000 -60.708740 114.000000 133.000000 -0.205628 0.613793 0.762217
1.46000004 0.76999998 -0.11000000 187 5 159 97.000000 1.000000 4.000000 1.000000 -60.708740 114.000000 133.000000 -0.205628 0.613793 0.762217
1.44000006 0.76999998 -0.12000000 187 5 159 97.000000 1.000000 4.000000 1.000000 -60.708740 114.000000 133.000000 0.510373 -0.719842 -0.470474
1.47000003 0.77999997 -0.13000000 187 5 159 97.000000 1.000000 4.000000 1.000000 -60.708740 114.000000 133.000000 -0.435947 0.772296 0.462071
1.45000005 0.77999997 -0.12000000 187 5 159 97.000000 1.000000 4.000000 1.000000 -60.708740 114.000000 133.000000 -0.517964 0.571954 0.636067
1.44000006 0.76999998 -0.12000000 187 5 159 97.000000 1.000000 4.000000 1.000000 -60.708740 114.000000 133.000000 0.510373 -0.719842 -0.470474
1.44000006 0.76999998 -0.14000000 187 5 159 97.000000 1.000000 4.000000 1.000000 -60.708740 114.000000 133.000000 -0.643732 0.692377 0.325920
1.42999995 0.76999998 -0.15000001 187 5 159 97.000000 1.000000 4.000000 1.000000 -60.708740 114.000000 133.000000 -0.456788 0.740425 0.493067
1.47000003 0.69999999 -0.05000000 187 5 159 97.000000 1.000000 4.000000 1.000000 -60.708740 114.000000 133.000000 -0.527697 0.649084 0.547928
1.45000005 0.69000000 -0.03000000 187 5 159 97.000000 1.000000 4.000000 1.000000 -60.708740 114.000000 133.000000 0.368641 -0.758394 -0.537534
1.44000006 0.70999998 -0.08000000 187 5 159 97.000000 1.000000 4.000000 1.000000 -60.708740 114.000000 133.000000 -0.441087 0.684101 0.580903
1.38999999 0.88999999 -0.03000000 187 5 159 97.000000 1.000000 4.000000 1.000000 -60.708740 114.000000 133.000000 -0.152513 0.463348 0.872954
1.37000000 0.91000003 -0.05000000 187 5 159 97.000000 1.000000 4.000000 1.000000 -60.708740 114.000000 133.000000 0.286899 -0.713241 -0.639513
1.38000000 0.88999999 -0.03000000 187 5 159 97.000000 1.000000 4.000000 1.000000 -60.708740 114.000000 133.000000 -0.315275 0.395247 0.862776
1.38000000 0.88999999 -0.03000000 187 5 159 97.000000 1.000000 4.000000 1.000000 -60.708740 114.000000 133.000000 -0.315275 0.395247 0.862776
1.37000000 0.91000003 -0.06000000 187 5 159 97.000000 1.000000 4.000000 1.000000 -60.708740 114.000000 133.000000 -0.396864 0.371766 0.839219
1.36000001 0.91000003 -0.07000000 187 5 159 97.000000 1.000000 4.000000 1.000000 -60.708740 114.000000 133.000000 -0.543830 0.421510 0.725658
1.39999998 0.87000000 -0.05000000 187 5 159 97.000000 1.000000 4.000000 1.000000 -60.708740 114.000000 133.000000 -0.026127 0.545914 0.837434
1.40999997 0.85000002 -0.03000000 187 5 159 97.000000 1.000000 4.000000 1.000000 -60.708740 114.000000 133.000000 -0.202666 0.537903 0.818283
1.39999998 0.87000000 -0.05000000 187 5 159 97.000000 1.000000 4.000000 1.000000 -60.708740 114.000000 133.000000 -0.026127 0.545914 0.837434
1.39999998 0.85000002 -0.09000000 187 5 159 97.000000 1.000000 4.000000 1.000000 -60.708740 114.000000 133.000000 0.319300 -0.762147 -0.563187
1.38999999 0.85000002 -0.10000000 187 5 159 97.000000 1.000000 4.000000 1.000000 -60.708740 114.000000 133.000000 -0.630916 0.634263 0.446829
1.39999998 0.85000002 -0.09000000 187 5 159 97.000000 1.000000 4.000000 1.000000 -60.708740 114.000000 133.000000 0.319300 -0.762147 -0.563187
1.41999996 0.81999999 -0.06000000 187 5 159 97.000000 1.000000 4.000000 1.000000 -60.708740 114.000000 133.000000 -0.107079 0.602868 0.790623
1.41999996 0.81999999 -0.06000000 187 5 159 97.000000 1.000000 4.000000 1.000000 -60.708740 114.000000 133.000000 -0.107079 0.602868 0.790623
1.38999999 0.83999997 -0.09000000 187 5 159 97.000000 1.000000 4.000000 1.000000 -60.708740 114.000000 133.000000 0.429377 -0.514923 -0.741950
1.38999999 0.83999997 -0.09000000 187 5 159 97.000000 1.000000 4.000000 1.000000 -60.708740 114.000000 133.000000 0.429377 -0.514923 -0.741950
1.40999997 0.82999998 -0.10000000 187 5 159 97.000000 1.000000 4.000000 1.000000 -60.708740 114.000000 133.000000 -0.550651 0.343955 0.760577
1.41999996 0.82999998 -0.10000000 187 5 159 97.000000 1.000000 4.000000 1.000000 -60.708740 114.000000 133.000000 -0.308739 0.350909 0.884049
1.40999997 0.81999999 -0.10000000 187 5 159 97.000000 1.000000 4.000000 1.000000 -60.708740 114.000000 133.000000 -0.346605 0.584183 0.733890
1.39999998 0.81000000 -0.09000000 187 5 159 97.000000 1.000000 4.000000 1.000000 -60.708740 114.000000 133.000000 -0.339955 0.373797 0.862964
1.37000000 0.88000000 -0.03000000 187 5 159 97.000000 1.000000 4.000000 1.000000 -60.708740 114.000000 133.000000 -0.177620 0.447719 0.876355
1.35000002 0.83999997 -0.04000000 187 5 159 97.000000 1.000000 4.000000 1.000000 -60.708740 114.000000 133.000000 -0.713341 0.632829 0.301117
1.36000001 0.82999998 -0.07000000 187 5 159 97.000000 1.000000 4.000000 1.000000 -60.708740 114.000000 133.000000 -0.219480 0.617967 0.754947
1.38000000 0.81999999 -0.10000000 187 5 159 97.000000 1.000000 4.000000 1.000000 -60.708740 114.000000 133.000000 -0.334844 0.316826 0.887412
1.38000000 0.81999999 -0.10000000 187 5 159 97.000000 1.000000 4.000000 1.000000 -60.708740 114.000000 133.000000 -0.334844 0.316826 0.887412
1.39999998 0.81999999 -0.14000000 187 5 159 97.000000 1.000000 4.000000 1.000000 -60.708740 114.000000 133.000000 0.800211 -0.288834 -0.525583
1.32000005 0.81999999 -0.05000000 187 5 159 97.000000 1.000000 4.000000 1.000000 -60.708740 114.000000 133.000000 -0.359197 0.560737 0.746024
1.26999998 0.87000000 -0.05000000 187 5 159 97.000000 1.000000 4.000000 1.000000 -60.708740 114.000000 133.000000 -0.538450 0.599215 0.592464
1.26999998 0.83999997 -0.04000000 187 5 159 97.000000 1.000000 4.000000 1.000000 -60.708740 114.000000 133.000000 0.798169 -0.298721 -0.523156
1.28999996 0.81000000 -0.08000000 187 5 159 97.000000 1.000000 4.000000 1.000000 -60.708740 114.000000 133.000000 -0.622107 0.250418 0.741804
1.29999995 0.82999998 -0.14000000 187 5 159 97.000000 1.000000 4.000000 1.000000 -60.708740 114.000000 133.000000 0.769207 -0.565359 -0.297809
1.27999997 0.87000000 -0.15000001 187 5 159 97.000000 1.000000 4.000000 1.000000 -60.708740 114.000000 133.000000 0.799048 -0.557943 -0.224104
1.38000000 0.89999998 -0.20000000 187 5 159 97.000000 1.000000 4.000000 1.000000 -60.708740 114.000000 133.000000 0.833110 -0.411043 -0.370096
1.41999996 0.88999999 -0.34000000 187 5 159 97.000000 1.000000 4.000000 1.000000 -60.708740 114.000000 133.000000 0.901412 -0.220605 -0.372545
1.40999997 0.89999998 -0.31999999 187 5 159 97.000000 1.000000 4.000000 1.000000 -60.708740 114.000000 133.000000 -0.548334 0.487967 0.679130
1.35000002 0.93000001 -0.34000000 187 5 159 97.000000 1.000000 4.000000 1.000000 -60.708740 114.000000 133.000000 0.746570 -0.092043 -0.658910
1.38000000 0.88999999 -0.31999999 187 5 159 97.000000 1.000000 4.000000 1.000000 -60.708740 114.000000 133.000000 0.748467 -0.165483 -0.642194
1.39999998 0.87000000 -0.22000000 187 5 159 97.000000 1.000000 4.000000 1.000000 -60.708740 114.000000 133.000000 -0.622995 0.585852 0.518319
1.39999998 0.86000001 -0.20999999 187 5 159 97.000000 1.000000 4.000000 1.000000 -60.708740 114.000000 133.000000 0.724464 -0.283069 -0.628509
1.41999996 0.85000002 -0.20999999 187 5 159 97.000000 1.000000 4.000000 1.000000 -60.708740 114.000000 133.000000 -0.403965 0.825356 0.394460
1.40999997 0.87000000 -0.20000000 187 5 159 97.000000 1.000000 4.000000 1.000000 -60.708740 114.000000 133.000000 0.675027 -0.318898 -0.665314
1.41999996 0.86000001 -0.27000001 187 5 159 97.000000 1.000000 4.000000 1.000000 -60.708740 114.000000 133.000000 -0.599172 0.184478 0.779077
1.39999998 0.88000000 -0.27000001 187 5 159 97.000000 1.000000 4.000000 1.000000 -60.708740 114.000000 133.000000 -0.460331 0.631071 0.624376
1.39999998 0.82999998 -0.22000000 187 5 159 97.000000 1.000000 4.000000 1.000000 -60.708740 114.000000 133.000000 0.846042 -0.430007 -0.315131
1.41999996 0.81000000 -0.19000000 187 5 159 97.000000 1.000000 4.000000 1.000000 -60.708740 114.000000 133.000000 -0.403425 0.220184 0.888126
1.39999998 0.82999998 -0.19000000 187 5 159 97.000000 1.000000 4.000000 1.000000 -60.708740 114.000000 133.000000 -0.568709 0.173479 0.804037
1.39999998 0.82999998 -0.19000000 187 5 159 97.000000 1.000000 4.000000 1.000000 -60.708740 114.000000 133.000000 -0.568709 0.173479 0.804037
1.41999996 0.81000000 -0.19000000 187 5 159 97.000000 1.000000 4.000000 1.000000 -60.708740 114.000000 133.000000 -0.403425 0.220184 0.888126
1.38000000 0.86000001 -0.19000000 187 5 159 97.000000 1.000000 4.000000 1.000000 -60.708740 114.000000 133.000000 -0.576024 0.559132 0.596295
1.38000000 0.83999997 -0.20999999 187 5 159 97.000000 1.000000 4.000000 1.000000 -60.708740 114.000000 133.000000 -0.590048 0.495909 0.637117
1.40999997 0.86000001 -0.28000000 187 5 159 97.000000 1.000000 4.000000 1.000000 -60.708740 114.000000 133.000000 0.916707 -0.291087 -0.273709
1.38999999 0.85000002 -0.28999999 187 5 159 97.000000 1.000000 4.000000 1.000000 -60.708740 114.000000 133.000000 -0.589188 0.723020 0.360694
1.38999999 0.85000002 -0.28999999 187 5 159 97.000000 1.000000 4.000000 1.000000 -60.708740 114.000000 133.000000 -0.589188 0.723020 0.360694
1.40999997 0.88000000 -0.28999999 187 5 159 97.000000 1.000000 4.000000 1.000000 -60.708740 114.000000 133.000000 -0.465847 0.277032 0.840381
1.40999997 0.88000000 -0.28999999 187 5 159 97.000000 1.000000 4.000000 1.000000 -60.708740 114.000000 133.000000 -0.465847 0.277032 0.840381
1.40999997 0.86000001 -0.28000000 187 5 159 97.000000 1.000000 4.000000 1.000000 -60.708740 114.000000 133.000000 0.916707 -0.291087 -0.273709
1.37000000 0.86000001 -0.28000000 187 5 159 97.000000 1.000000 4.000000 1.000000 -60.708740 114.000000 133.000000 -0.560606 0.287450 0.776591
1.37000000 0.86000001 -0.28000000 187 5 159 97.000000 1.000000 4.000000 1.000000 -60.708740 114.000000 133.000000 -0.560606 0.287450 0.776591
1.37000000 0.86000001 -0.31000000 187 5 159 97.000000 1.000000 4.000000 1.000000 -60.708740 114.000000 133.000000 0.645240 -0.333185 -0.687498
1.36000001 0.87000000 -0.31999999 187 5 159 97.000000 1.000000 4.000000 1.000000 -60.708740 114.000000 133.000000 -0.730904 0.272298 0.625807
1.35000002 0.87000000 -0.33000001 187 5 159 97.000000 1.000000 4.000000 1.000000 -60.708740 114.000000 133.000000 0.794993 -0.430554 -0.427329
1.36000001 0.86000001 -0.31999999 187 5 159 97.000000 1.000000 4.000000 1.000000 -60.708740 114.000000 133.000000 0.686624 -0.210191 -0.695965
1.28999996 0.89999998 -0.22000000 187 5 159 97.000000 1.000000 4.000000 1.000000 -60.708740 114.000000 133.000000 -0.643939 0.101211 0.758352
1.26999998 0.95999998 -0.23999999 187 5 159 97.000000 1.000000 4.000000 1.000000 -60.708740 114.000000 133.000000 0.851727 -0.083614 -0.517272
1.26999998 0.95999998 -0.25999999 187 5 159 97.000000 1.000000 4.000000 1.000000 -60.708740 114.000000 133.000000 0.694059 -0.318717 -0.645524
1.30999994 0.89999998 -0.28999999 187 5 159 97.000000 1.000000 4.000000 1.000000 -60.708740 114.000000 133.000000 0.836765 -0.120785 -0.534074
1.33000004 0.88999999 -0.31000000 187 5 159 97.000000 1.000000 4.000000 1.000000 -60.708740 114.000000 133.000000 0.789304 -0.306510 -0.532026
1.34000003 0.88999999 -0.30000001 187 5 159 97.000000 1.000000 4.000000 1.000000 -60.708740 114.000000 133.000000 0.748225 -0.136450 -0.649261
1.28999996 0.94000000 -0.28999999 187 5 159 97.000000 1.000000 4.000000 1.000000 -60.708740 114.000000 133.000000 0.931582 -0.106814 -0.347484
1.28999996 0.93000001 -0.28000000 187 5 159 97.000000 1.000000 4.000000 1.000000 -60.708740 114.000000 133.000000 0.845968 -0.502806 -0.177549
1.29999995 0.94000000 -0.33000001 187 5 159 97.000000 1.000000 4.000000 1.000000 -60.708740 114.000000 133.000000 -0.663977 0.647501 0.374002
1.29999995 0.94000000 -0.34999999 187 5 159 97.000000 1.000000 4.000000 1.000000 -60.708740 114.000000 133.000000 0.935528 -0.353197 0.006330
1.26999998 0.92000002 -0.33000001 187 5 159 97.000000 1.000000 4.000000 1.000000 -60.708740 114.000000 133.000000 0.992023 -0.103644 -0.071754
1.28999996 0.89999998 -0.33000001 187 5 159 97.000000 1.000000 4.000000 1.000000 -60.708740 114.000000 133.000000 0.696932 -0.368964 -0.614940
1.34000003 0.81000000 -0.23999999 187 5 159 97.000000 1.000000 4.000000 1.000000 -60.708740 114.000000 133.000000 0.979410 0.012810 -0.201472
1.34000003 0.85000002 -0.31000000 187 5 159 97.000000 1.000000 4.000000 1.000000 -60.708740 114.000000 133.000000 0.879500 0.115088 -0.461773
1.26999998 0.88000000 -0.28999999 187 5 159 97.000000 1.000000 4.000000 1.000000 -60.708740 114.000000 133.000000 0.790870 -0.043702 -0.610422
1.39999998 0.79000002 -0.03000000 187 5 159 97.000000 1.000000 4.000000 1.000000 -60.708740 114.000000 133.000000 -0.282898 0.704848 0.650506
1.38999999 0.80000001 -0.05000000 187 5 159 97.000000 1.000000 4.000000 1.000000 -60.708740 114.000000 133.000000 -0.353992 0.729191 0.585637
1.40999997 0.79000002 -0.03000000 187 5 159 97.000000 1.000000 4.000000 1.000000 -60.708740 114.000000 133.000000 0.576449 -0.485696 -0.657119
1.39999998 0.80000001 -0.09000000 187 5 159 97.000000 1.000000 4.000000 1.000000 -60.708740 114.000000 133.000000 -0.416710 0.802850 0.426363
1.39999998 0.80000001 -0.09000000 187 5 159 97.000000 1.000000 4.000000 1.000000 -60.708740 114.000000 133.000000 -0.416710 0.802850 0.426363
1.39999998 0.76999998 -0.08000000 187 5 159 97.000000 1.000000 4.000000 1.000000 -60.708740 114.000000 133.000000 -0.216347 0.655268 0.723752
1.38999999 0.72000003 -0.06000000 187 5 159 97.000000 1.000000 4.000000 1.000000 -60.708740 114.000000 133.000000 -0.420566 0.303486 0.854997
1.38999999 0.74000001 -0.06000000 187 5 159 97.000000 1.000000 4.000000 1.000000 -60.708740 114.000000 133.000000 -0.599522 0.151759 0.785839
1.40999997 0.75000000 -0.03000000 187 5 159 97.000000 1.000000 4.000000 1.000000 -60.708740 114.000000 133.000000 -0.557418 0.176742 0.811201
1.41999996 0.75000000 -0.10000000 187 5 159 97.000000 1.000000 4.000000 1.000000 -60.708740 114.000000 133.000000 -0.342319 0.825037 0.449590
1.38999999 0.73000002 -0.07000000 187 5 159 97.000000 1.000000 4.000000 1.000000 -60.708740 114.000000 133.000000 -0.570688 0.677797 0.463580
1.36000001 0.80000001 -0.10000000 187 5 159 97.000000 1.000000 4.000000 1.000000 -60.708740 114.000000 133.000000 0.661332 -0.365948 -0.654768
1.38000000 0.80000001 -0.08000000 187 5 159 97.000000 1.000000 4.000000 1.000000 -60.708740 114.000000 133.000000 0.709700 -0.598246 -0.372060
1.38000000 0.80000001 -0.08000000 187 5 159 97.000000 1.000000 4.000000 1.000000 -60.708740 114.000000 133.000000 0.709700 -0.598246 -0.372060
1.38000000 0.75999999 -0.10000000 187 5 159 97.000000 1.000000 4.000000 1.000000 -60.708740 114.000000 133.000000 0.798675 -0.498973 -0.336368
1.36000001 0.72000003 -0.03000000 187 5 159 97.000000 1.000000 4.000000 1.000000 -60.708740 114.000000 133.000000 -0.550532 0.402628 0.731304
1.40999997 0.69999999 -0.04000000 187 5 159 97.000000 1.000000 4.000000 1.000000 -60.708740 114.000000 133.000000 0.577331 -0.703054 -0.415215
1.38999999 0.70999998 -0.05000000 187 5 159 97.000000 1.000000 4.000000 1.000000 -60.708740 114.000000 133.000000 0.383671 -0.686655 -0.617496
1.35000002 0.64999998 -0.05000000 187 5 159 97.000000 1.000000 4.000000 1.000000 -60.708740 114.000000 133.000000 -0.735722 0.023823 0.676864
1.35000002 0.64999998 -0.05000000 187 5 159 97.000000 1.000000 4.000000 1.000000 -60.708740 114.000000 133.000000 -0.735722 0.023823 0.676864
1.33000004 0.79000002 -0.05000000 187 5 159 97.000000 1.000000 4.000000 1.000000 -60.708740 114.000000 133.000000 0.784813 -0.268944 -0.558334
1.30999994 0.74000001 -0.05000000 187 5 159 97.000000 1.000000 4.000000 1.000000 -60.708740 114.000000 133.000000 -0.478969 0.647028 0.593249
1.34000003 0.75000000 -0.09000000 187 5 159 97.000000 1.000000 4.000000 1.000000 -60.708740 114.000000 133.000000 -0.653979 0.123645 0.746340
1.26999998 0.79000002 -0.10000000 187 5 159 97.000000 1.000000 4.000000 1.000000 -60.708740 114.000000 133.000000 0.792972 -0.575173 -0.200927
1.29999995 0.76999998 -0.07000000 187 5 159 97.000000 1.000000 4.000000 1.000000 -60.708740 114.000000 133.000000 -0.766301 0.337173 0.546897
1.27999997 0.79000002 -0.08000000 187 5 159 97.000000 1.000000 4.000000 1.000000 -60.708740 114.000000 133.000000 -0.461927 0.702062 0.541972
1.26999998 0.77999997 -0.09000000 187 5 159 97.000000 1.000000 4.000000 1.000000 -60.708740 114.000000 133.000000 0.749027 -0.341349 -0.567837
1.26999998 0.79000002 -0.09000000 187 5 159 97.000000 1.000000 4.000000 1.000000 -60.708740 114.000000 133.000000 -0.753878 0.598341 0.271396
1.33000004 0.70999998 -0.06000000 187 5 159 97.000000 1.000000 4.000000 1.000000 -60.708740 114.000000 133.000000 0.910089 -0.338199 -0.239497
1.30999994 0.69000000 -0.04000000 187 5 159 97.000000 1.000000 4.000000 1.000000 -60.708740 114.000000 133.000000 0.650593 -0.311575 -0.692567
1.27999997 0.70999998 -0.05000000 187 5 159 97.000000 1.000000 4.000000 1.000000 -60.708740 114.000000 133.000000 -0.495825 0.640370 0.586586
1.40999997 0.75999999 -0.19000000 187 5 159 97.000000 1.000000 4.000000 1.000000 -60.708740 114.000000 133.000000 0.703840 -0.354369 -0.615656
1.59000003 0.94999999 -0.38999999 187 5 159 97.000000 1.000000 4.000000 1.000000 -60.708740 114.000000 133.000000 0.466249 0.283467 0.838009
1.59000003 0.94999999 -0.38999999 187 5 159 97.000000 1.000000 4.000000 1.000000 -60.708740 114.000000 133.000000 0.466249 0.283467 0.838009
1.55999994 0.94999999 -0.38999999 187 5 159 97.000000 1.000000 4.000000 1.000000 -60.708740 114.000000 133.000000 0.384376 0.839351 0.384376
1.59000003 0.92000002 -0.40000001 187 5 159 97.000000 1.000000 4.000000 1.000000 -60.708740 114.000000 133.000000 0.478401 0.575760 0.663048
1.58000004 0.94000000 -0.44000000 187 5 159 97.000000 1.000000 4.000000 1.000000 -60.708740 114.000000 133.000000 0.979289 0.184150 0.084148
1.58000004 0.94000000 -0.47999999 187 5 159 97.000000 1.000000 4.000000 1.000000 -60.708740 114.000000 133.000000 0.985072 -0.007972 -0.171960
1.58000004 0.94000000 -0.47000000 187 5 159 97.000000 1.000000 4.000000 1.000000 -60.708740 114.000000 133.000000 0.983952 -0.152579 -0.092508
1.44000006 0.94000000 -0.38999999 187 5 159 97.000000 1.000000 4.000000 1.000000 -60.708740 114.000000 133.000000 0.660331 -0.522552 -0.539354
1.47000003 0.93000001 -0.37000000 187 5 159 97.000000 1.000000 4.000000 1.000000 -60.708740 114.000000 133.000000 -0.496637 0.421240 0.758887
1.44000006 0.94000000 -0.40000001 187 5 159 97.000000 1.000000 4.000000 1.000000 -60.708740 114.000000 133.000000 0.793139 -0.563424 -0.231267
1.44000006 0.91000003 -0.38999999 187 5 159 97.000000 1.000000 4.000000 1.000000 -60.708740 114.000000 133.000000 0.708893 -0.358539 -0.607388
1.42999995 0.88999999 -0.43000001 187 5 159 97.000000 1.000000 4.000000 1.000000 -60.708740 114.000000 133.000000 0.991878 -0.046265 0.118484
1.46000004 0.94999999 -0.44000000 187 5 159 97.000000 1.000000 4.000000 1.000000 -60.708740 114.000000 133.000000 -0.675026 0.213576 0.706205
1.44000006 0.94000000 -0.50000000 187 5 159 97.000000 1.000000 4.000000 1.000000 -60.708740 114.000000 133.000000 0.976326 -0.156663 0.149144
1.45000005 0.91000003 -0.44999999 187 5 159 97.000000 1.000000 4.000000 1.000000 -60.708740 114.000000 133.000000 0.994578 0.014100 -0.103037
1.42999995 0.89999998 -0.49000001 187 5 159 97.000000 1.000000 4.000000 1.000000 -60.708740 114.000000 133.000000 0.839617 0.436226 0.323651
1.42999995 0.88000000 -0.41999999 187 5 159 97.000000 1.000000 4.000000 1.000000 -60.708740 114.000000 133.000000 0.920795 -0.022141 -0.389417
1.42999995 0.88000000 -0.38999999 187 5 159 97.000000 1.000000 4.000000 1.000000 -60.708740 114.000000 133.000000 0.874866 -0.392704 -0.283536
1.42999995 0.88000000 -0.41000000 187 5 159 97.000000 1.000000 4.000000 1.000000 -60.708740 114.000000 133.000000 0.957342 0.119177 -0.263236
1.55999994 0.94999999 -0.57999998 187 5 159 97.000000 1.000000 4.000000 1.000000 -60.708740 114.000000 133.000000 -0.336643 0.456760 0.823433
1.55999994 0.94999999 -0.62000000 187 5 159 97.000000 1.000000 4.000000 1.000000 -60.708740 114.000000 133.000000 0.608080 -0.362226 -0.706422
1.58000004 0.94999999 -0.61000001 187 5 159 97.000000 1.000000 4.000000 1.000000 -60.708740 114.000000 133.000000 -0.605685 0.409875 0.682018
1.55999994 0.94999999 -0.62000000 187 5 159 97.000000 1.000000 4.000000 1.000000 -60.708740 114.000000 133.000000 0.608080 -0.362226 -0.706422
1.50000000 0.94000000 -0.60000002 187 5 159 97.000000 1.000000 4.000000 1.000000 -60.708740 114.000000 133.000000 0.143043 0.657999 0.739308
1.44000006 0.93000001 -0.52999997 187 5 159 97.000000 1.000000 4.000000 1.000000 -60.708740 114.000000 133.000000 0.909048 0.118329 0.399536
1.42999995 0.93000001 -0.54000002 187 5 159 97.000000 1.000000 4.000000 1.000000 -60.708740 114.000000 133.000000 0.988876 0.143232 -0.040105
1.42999995 0.94000000 -0.54000002 187 5 159 97.000000 1.000000 4.000000 1.000000 -60.708740 114.000000 133.000000 0.999190 0.033958 0.021610
1.42999995 0.94999999 -0.52999997 187 5 159 97.000000 1.000000 4.000000 1.000000 -60.708740 114.000000 133.000000 0.818076 0.106074 0.565243
1.47000003 0.89999998 -0.56999999 187 5 159 97.000000 1.000000 4.000000 1.000000 -60.708740 114.000000 133.000000 0.326325 0.628297 0.706226
1.45000005 0.92000002 -0.58999997 187 5 159 97.000000 1.000000 4.000000 1.000000 -60.708740 114.000000 133.000000 0.259747 0.587185 0.766646
1.42999995 0.93000001 -0.62000000 187 5 159 97.000000 1.000000 4.000000 1.000000 -60.708740 114.000000 133.000000 0.597058 0.459918 0.657265
1.45000005 0.88000000 -0.55000001 187 5 159 97.000000 1.000000 4.000000 1.000000 -60.708740 114.000000 133.000000 0.827550 0.466380 0.312490
1.41999996 0.93000001 -0.41999999 187 5 159 97.000000 1.000000 4.000000 1.000000 -60.708740 114.000000 133.000000 0.973127 -0.225317 -0.047499
1.41999996 0.93000001 -0.40000001 187 5 159 97.000000 1.000000 4.000000 1.000000 -60.708740 114.000000 133.000000 0.942084 -0.320229 -0.099656
1.41999996 0.93000001 -0.41999999 187 5 159 97.000000 1.000000 4.000000 1.000000 -60.708740 114.000000 133.000000 0.973127 -0.225317 -0.047499
1.41999996 0.88999999 -0.41000000 187 5 159 97.000000 1.000000 4.000000 1.000000 -60.708740 114.000000 133.000000 0.958981 0.192327 -0.208244
1.37000000 0.95999998 -0.38000000 187 5 159 97.000000 1.000000 4.000000 1.000000 -60.708740 114.000000 133.000000 0.972590 -0.227628 -0.047473
1.36000001 0.94000000 -0.37000000 187 5 159 97.000000 1.000000 4.000000 1.000000 -60.708740 114.000000 133.000000 0.862055 -0.440875 -0.249981
1.36000001 0.91000003 -0.37000000 187 5 159 97.000000 1.000000 4.000000 1.000000 -60.708740 114.000000 133.000000 -0.771894 0.328978 0.544017
1.38000000 0.88999999 -0.41000000 187 5 159 97.000000 1.000000 4.000000 1.000000 -60.708740 114.000000 133.000000 0.933515 -0.284968 -0.217586
1.39999998 0.94000000 -0.47000000 187 5 159 97.000000 1.000000 4.000000 1.000000 -60.708740 114.000000 133.000000 0.970523 0.022907 -0.239918
1.39999998 0.94999999 -0.46000001 187 5 159 97.000000 1.000000 4.000000 1.000000 -60.708740 114.000000 133.000000 0.993598 -0.011997 -0.112339
1.39999998 0.94000000 -0.47000000 187 5 159 97.000000 1.000000 4.000000 1.000000 -60.708740 114.000000 133.000000 0.970523 0.022907 -0.239918
1.41999996 0.95999998 -0.50999999 187 5 159 97.000000 1.000000 4.000000 1.000000 -60.708740 114.000000 133.000000 0.968481 -0.238684 -0.071230
1.39999998 0.94999999 -0.50999999 187 5 159 97.000000 1.000000 4.000000 1.000000 -60.708740 114.000000 133.000000 0.913257 0.403657 -0.054983
1.39999998 0.95999998 -0.50999999 187 5 159 97.000000 1.000000 4.000000 1.000000 -60.708740 114.000000 133.000000 0.984525 0.166249 0.055416
1.39999998 0.95999998 -0.51999998 187 5 159 97.000000 1.000000 4.000000 1.000000 -60.708740 114.000000 133.000000 0.980117 -0.056246 0.190279
1.41999996 0.94000000 -0.51999998 187 5 159 97.000000 1.000000 4.000000 1.000000 -60.708740 114.000000 133.000000 0.899696 -0.022526 0.435935
1.38999999 0.91000003 -0.44999999 187 5 159 97.000000 1.000000 4.000000 1.000000 -60.708740 114.000000 133.000000 0.969491 -0.147281 0.195947
1.41999996 0.92000002 -0.47000000 187 5 159 97.000000 1.000000 4.000000 1.000000 -60.708740 114.000000 133.000000 0.988823 0.035356 -0.144845
1.38999999 0.91000003 -0.44999999 187 5 159 97.000000 1.000000 4.000000 1.000000 -60.708740 114.000000 133.000000 0.969491 -0.147281 0.195947
1.35000002 0.93000001 -0.44999999 187 5 159 97.000000 1.000000 4.000000 1.000000 -60.708740 114.000000 133.000000 0.878773 0.062080 -0.473185
1.38000000 0.94999999 -0.51999998 187 5 159 97.000000 1.000000 4.000000 1.000000 -60.708740 114.000000 133.000000 0.903464 0.179544 0.389251
1.36000001 0.95999998 -0.51999998 187 5 159 97.000000 1.000000 4.000000 1.000000 -60.708740 114.000000 133.000000 0.996101 -0.085257 -0.022663
1.38000000 0.88999999 -0.44000000 187 5 159 97.000000 1.000000 4.000000 1.000000 -60.708740 114.000000 133.000000 0.952105 0.293055 0.087265
1.40999997 0.86000001 -0.36000001 187 5 159 97.000000 1.000000 4.000000 1.000000 -60.708740 114.000000 133.000000 0.860702 -0.312563 -0.401866
1.37000000 0.88000000 -0.36000001 187 5 159 97.000000 1.000000 4.000000 1.000000 -60.708740 114.000000 133.000000 0.836210 -0.404719 -0.370074
1.37000000 0.86000001 -0.38999999 187 5 159 97.000000 1.000000 4.000000 1.000000 -60.708740 114.000000 133.000000 0.825866 -0.291941 -0.482406
1.37000000 0.86000001 -0.38999999 187 5 159 97.000000 1.000000 4.000000 1.000000 -60.708740 114.000000 133.000000 0.825866 -0.291941 -0.482406
1.37000000 0.87000000 -0.38999999 187 5 159 97.000000 1.000000 4.000000 1.000000 -60.708740 114.000000 133.000000 0.869887 -0.210384 -0.446134
1.38000000 0.88000000 -0.41000000 187 5 159 97.000000 1.000000 4.000000 1.000000 -60.708740 114.000000 133.000000 0.970857 -0.139058 -0.195192
1.38000000 0.88000000 -0.43000001 187 5 159 97.000000 1.000000 4.000000 1.000000 -60.708740 114.000000 133.000000 0.959564 -0.048919 0.277207
1.38000000 0.88000000 -0.41999999 187 5 159 97.000000 1.000000 4.000000 1.000000 -60.708740 114.000000 133.000000 0.968196 0.218707 -0.121504
1.30999994 0.93000001 -0.38000000 187 5 159 97.000000 1.000000 4.000000 1.000000 -60.708740 114.000000 133.000000 0.967443 -0.252950 -0.008392
1.30999994 0.93000001 -0.38000000 187 5 159 97.000000 1.000000 4.000000 1.000000 -60.708740 114.000000 133.000000 0.967443 -0.252950 -0.008392
1.32000005 0.94000000 -0.41999999 187 5 159 97.000000 1.000000 4.000000 1.000000 -60.708740 114.000000 133.000000 0.795689 -0.271507 -0.541445
1.30999994 0.94000000 -0.43000001 187 5 159 97.000000 1.000000 4.000000 1.000000 -60.708740 114.000000 133.000000 0.828842 -0.268018 -0.491108
1.26999998 0.95999998 -0.40000001 187 5 159 97.000000 1.000000 4.000000 1.000000 -60.708740 114.000000 133.000000 0.934603 0.210949 -0.286388
1.26999998 0.95999998 -0.40000001 187 5 159 97.000000 1.000000 4.000000 1.000000 -60.708740 114.000000 133.000000 0.934603 0.210949 -0.286388
1.32000005 0.94999999 -0.46000001 187 5 159 97.000000 1.000000 4.000000 1.000000 -60.708740 114.000000 133.000000 0.920746 -0.268611 -0.282975
1.32000005 0.94999999 -0.46000001 187 5 159 97.000000 1.000000 4.000000 1.000000 -60.708740 114.000000 133.000000 0.920746 -0.268611 -0.282975
1.27999997 0.94000000 -0.51999998 187 5 159 97.000000 1.000000 4.000000 1.000000 -60.708740 114.000000 133.000000 0.893365 0.147227 0.424527
1.32000005 0.87000000 -0.41999999 187 5 159 97.000000 1.000000 4.000000 1.000000 -60.708740 114.000000 133.000000 0.960062 -0.099228 -0.261601
1.33000004 0.88000000 -0.38999999 187 5 159 97.000000 1.000000 4.000000 1.000000 -60.708740 114.000000 133.000000 0.999094 0.027954 0.032095
1.41999996 0.95999998 -0.56000000 187 5 159 97.000000 1.000000 4.000000 1.000000 -60.708740 114.000000 133.000000 0.822079 0.418195 0.386393
1.40999997 0.93000001 -0.58999997 187 5 159 97.000000 1.000000 4.000000 1.000000 -60.708740 114.000000 133.000000 0.953153 0.280030 0.114378
1.40999997 0.93000001 -0.56999999 187 5 159 97.000000 1.000000 4.000000 1.000000 -60.708740 114.000000 133.000000 0.649495 0.355014 0.672399
1.38999999 0.94999999 -0.60000002 187 5 159 97.000000 1.000000 4.000000 1.000000 -60.708740 114.000000 133.000000 0.882469 0.097114 0.460235
1.39999998 0.92000002 -0.56000000 187 5 159 97.000000 1.000000 4.000000 1.000000 -60.708740 114.000000 133.000000 0.904198 0.421413 0.069554
1.40999997 0.91000003 -0.56999999 187 5 159 97.000000 1.000000 4.000000 1.000000 -60.708740 114.000000 133.000000 0.793418 0.368545 0.484420
1.40999997 0.92000002 -0.57999998 187 5 159 97.000000 1.000000 4.000000 1.000000 -60.708740 114.000000 133.000000 0.796987 0.354395 0.489097
1.36000001 0.95999998 -0.52999997 187 5 159 97.000000 1.000000 4.000000 1.000000 -60.708740 114.000000 133.000000 0.943235 -0.324849 -0.069144
1.37000000 0.94999999 -0.56000000 187 5 159 97.000000 1.000000 4.000000 1.000000 -60.708740 114.000000 133.000000 0.998267 -0.024194 0.053648
1.37000000 0.95999998 -0.56999999 187 5 159 97.000000 1.000000 4.000000 1.000000 -60.708740 114.000000 133.000000 0.936980 0.315974 -0.149096
1.41999996 0.94000000 -0.63000000 187 5 159 97.000000 1.000000 4.000000 1.000000 -60.708740 114.000000 133.000000 0.909269 0.294304 0.294304
1.41999996 0.92000002 -0.61000001 187 5 159 97.000000 1.000000 4.000000 1.000000 -60.708740 114.000000 133.000000 0.893409 0.200323 0.402107
1.27999997 0.93000001 -0.52999997 187 5 159 97.000000 1.000000 4.000000 1.000000 -60.708740 114.000000 133.000000 0.990702 0.089013 0.102885
1.33000004 0.95999998 -0.68000001 187 5 159 97.000000 1.000000 4.000000 1.000000 -60.708740 114.000000 133.000000 0.882208 0.042139 0.468970
1.36000001 0.62000000 -0.04000000 187 5 159 97.000000 1.000000 4.000000 1.000000 -60.708740 114.000000 133.000000 0.883982 -0.099782 -0.456748
1.37000000 0.62000000 -0.04000000 187 5 159 97.000000 1.000000 4.000000 1.000000 -60.708740 114.000000 133.000000 0.753992 -0.595257 -0.277787
1.34000003 0.62000000 -0.03000000 187 5 159 97.000000 1.000000 4.000000 1.000000 -60.708740 114.000000 133.000000 0.938550 -0.050627 -0.341409
1.34000003 0.62000000 -0.03000000 187 5 159 97.000000 1.000000 4.000000 1.000000 -60.708740 114.000000 133.000000 0.938550 -0.050627 -0.341409
1.23000002 0.92000002 -0.06000000 187 5 159 97.000000 1.000000 4.000000 1.000000 -60.708740 114.000000 133.000000 0.882165 -0.154995 -0.444704
1.17999995 0.95999998 -0.05000000 187 5 159 97.000000 1.000000 4.000000 1.000000 -60.708740 114.000000 133.000000 -0.376802 0.502942 0.777862
1.21000004 0.88999999 -0.08000000 187 5 159 97.000000 1.000000 4.000000 1.000000 -60.708740 114.000000 133.000000 -0.414097 0.636945 0.650249
1.21000004 0.88999999 -0.08000000 187 5 159 97.000000 1.000000 4.000000 1.000000 -60.708740 114.000000 133.000000 -0.414097 0.636945 0.650249
1.17999995 0.89999998 -0.08000000 187 5 159 97.000000 1.000000 4.000000 1.000000 -60.708740 114.000000 133.000000 0.581171 -0.500313 -0.641815
1.25000000 0.94999999 -0.14000000 187 5 159 97.000000 1.000000 4.000000 1.000000 -60.708740 114.000000 133.000000 0.711806 -0.308288 -0.631103
1.25000000 0.94999999 -0.14000000 187 5 159 97.000000 1.000000 4.000000 1.000000 -60.708740 114.000000 133.000000 0.711806 -0.308288 -0.631103
1.25000000 0.93000001 -0.15000001 187 5 159 97.000000 1.000000 4.000000 1.000000 -60.708740 114.000000 133.000000 0.876720 -0.193026 -0.440570
1.25000000 0.93000001 -0.17000000 187 5 159 97.000000 1.000000 4.000000 1.000000 -60.708740 114.000000 133.000000 0.839908 -0.184151 -0.510532
1.25999999 0.94000000 -0.17000000 187 5 159 97.000000 1.000000 4.000000 1.000000 -60.708740 114.000000 133.000000 0.676577 -0.283107 -0.679776
1.23000002 0.92000002 -0.13000000 187 5 159 97.000000 1.000000 4.000000 1.000000 -60.708740 114.000000 133.000000 0.766304 -0.462397 -0.446058
1.25999999 0.89999998 -0.13000000 187 5 159 97.000000 1.000000 4.000000 1.000000 -60.708740 114.000000 133.000000 0.650506 -0.282898 -0.704848
1.23000002 0.92000002 -0.12000000 187 5 159 97.000000 1.000000 4.000000 1.000000 -60.708740 114.000000 133.000000 -0.537319 0.681274 0.497146
1.25000000 0.92000002 -0.13000000 187 5 159 97.000000 1.000000 4.000000 1.000000 -60.708740 114.000000 133.000000 -0.670670 0.532838 0.516029
1.25000000 0.88999999 -0.16000000 187 5 159 97.000000 1.000000 4.000000 1.000000 -60.708740 114.000000 133.000000 0.820928 -0.346403 -0.453962
1.20000005 0.94999999 -0.13000000 187 5 159 97.000000 1.000000 4.000000 1.000000 -60.708740 114.000000 133.000000 0.850856 -0.262156 -0.455323
1.20000005 0.89999998 -0.13000000 187 5 159 97.000000 1.000000 4.000000 1.000000 -60.708740 114.000000 133.000000 0.628536 -0.381081 -0.678027
1.21000004 0.88999999 -0.12000000 187 5 159 97.000000 1.000000 4.000000 1.000000 -60.708740 114.000000 133.000000 0.645867 -0.554804 -0.524450
1.17999995 0.92000002 -0.14000000 187 5 159 97.000000 1.000000 4.000000 1.000000 -60.708740 114.000000 133.000000 0.937841 -0.125857 -0.323440
1.20000005 0.91000003 -0.14000000 187 5 159 97.000000 1.000000 4.000000 1.000000 -60.708740 114.000000 133.000000 0.856457 -0.391833 -0.336078
1.22000003 0.92000002 -0.13000000 187 5 159 97.000000 1.000000 4.000000 1.000000 -60.708740 114.000000 133.000000 -0.670874 0.600957 0.434487
1.20000005 0.92000002 -0.11000000 187 5 159 97.000000 1.000000 4.000000 1.000000 -60.708740 114.000000 133.000000 -0.607425 0.741346 0.285378
1.20000005 0.89999998 -0.13000000 187 5 159 97.000000 1.000000 4.000000 1.000000 -60.708740 114.000000 133.000000 0.628536 -0.381081 -0.678027
1.20000005 0.89999998 -0.17000000 187 5 159 97.000000 1.000000 4.000000 1.000000 -60.708740 114.000000 133.000000 0.695899 -0.633968 -0.337356
1.20000005 0.89999998 -0.17000000 187 5 159 97.000000 1.000000 4.000000 1.000000 -60.708740 114.000000 133.000000 0.695899 -0.633968 -0.337356
1.22000003 0.89999998 -0.18000001 187 5 159 97.000000 1.000000 4.000000 1.000000 -60.708740 114.000000 133.000000 0.635273 -0.145677 -0.758423
1.21000004 0.88999999 -0.16000000 187 5 159 97.000000 1.000000 4.000000 1.000000 -60.708740 114.000000 133.000000 -0.527918 0.368731 0.765075
1.24000001 0.86000001 -0.09000000 187 5 159 97.000000 1.000000 4.000000 1.000000 -60.708740 114.000000 133.000000 -0.576927 0.549857 0.603997
1.24000001 0.82999998 -0.07000000 187 5 159 97.000000 1.000000 4.000000 1.000000 -60.708740 114.000000 133.000000 0.694354 -0.493577 -0.523693
1.23000002 0.82999998 -0.08000000 187 5 159 97.000000 1.000000 4.000000 1.000000 -60.708740 114.000000 133.000000 0.794495 -0.006885 -0.607231
1.17999995 0.85000002 -0.05000000 187 5 159 97.000000 1.000000 4.000000 1.000000 -60.708740 114.000000 133.000000 -0.588930 0.201436 0.782678
1.19000006 0.86000001 -0.04000000 187 5 159 97.000000 1.000000 4.000000 1.000000 -60.708740 114.000000 133.000000 0.831382 -0.009556 -0.555620
1.19000006 0.86000001 -0.04000000 187 5 159 97.000000 1.000000 4.000000 1.000000 -60.708740 114.000000 133.000000 0.831382 -0.009556 -0.555620
1.19000006 0.87000000 -0.05000000 187 5 159 97.000000 1.000000 4.000000 1.000000 -60.708740 114.000000 133.000000 0.764441 -0.580085 -0.281302
1.19000006 0.87000000 -0.05000000 187 5 159 97.000000 1.000000 4.000000 1.000000 -60.708740 114.000000 133.000000 0.764441 -0.580085 -0.281302
1.17999995 0.88000000 -0.04000000 187 5 159 97.000000 1.000000 4.000000 1.000000 -60.708740 114.000000 133.000000 0.855563 -0.391424 -0.338821
1.17999995 0.88000000 -0.03000000 187 5 159 97.000000 1.000000 4.000000 1.000000 -60.708740 114.000000 133.000000 0.704008 -0.595192 -0.387452
1.17999995 0.88000000 -0.03000000 187 5 159 97.000000 1.000000 4.000000 1.000000 -60.708740 114.000000 133.000000 0.704008 -0.595192 -0.387452
1.17999995 0.85000002 -0.09000000 187 5 159 97.000000 1.000000 4.000000 1.000000 -60.708740 114.000000 133.000000 -0.671070 0.644818 0.365889
1.17999995 0.86000001 -0.07000000 187 5 159 97.000000 1.000000 4.000000 1.000000 -60.708740 114.000000 133.000000 0.750479 -0.580135 -0.316583
1.22000003 0.88000000 -0.10000000 187 5 159 97.000000 1.000000 4.000000 1.000000 -60.708740 114.000000 133.000000 0.790110 -0.338161 -0.511248
1.20000005 0.81999999 -0.06000000 187 5 159 97.000000 1.000000 4.000000 1.000000 -60.708740 114.000000 133.000000 0.801746 -0.428991 -0.416137
1.22000003 0.83999997 -0.03000000 187 5 159 97.000000 1.000000 4.000000 1.000000 -60.708740 114.000000 133.000000 0.839908 -0.184151 -0.510532
1.20000005 0.81000000 -0.03000000 187 5 159 97.000000 1.000000 4.000000 1.000000 -60.708740 114.000000 133.000000 0.901927 -0.183271 -0.391075
1.22000003 0.82999998 -0.09000000 187 5 159 97.000000 1.000000 4.000000 1.000000 -60.708740 114.000000 133.000000 0.660656 -0.159469 -0.733556
1.22000003 0.82999998 -0.09000000 187 5 159 97.000000 1.000000 4.000000 1.000000 -60.708740 114.000000 133.000000 0.660656 -0.159469 -0.733556
1.25000000 0.85000002 -0.13000000 187 5 159 97.000000 1.000000 4.000000 1.000000 -60.708740 114.000000 133.000000 0.913721 -0.382000 -0.138527
1.23000002 0.88000000 -0.15000001 187 5 159 97.000000 1.000000 4.000000 1.000000 -60.708740 114.000000 133.000000 0.757273 -0.188934 -0.625173
1.23000002 0.88000000 -0.15000001 187 5 159 97.000000 1.000000 4.000000 1.000000 -60.708740 114.000000 133.000000 0.757273 -0.188934 -0.625173
1.23000002 0.81999999 -0.12000000 187 5 159 97.000000 1.000000 4.000000 1.000000 -60.708740 114.000000 133.000000 0.808912 -0.001364 -0.587928
1.23000002 0.83999997 -0.14000000 187 5 159 97.000000 1.000000 4.000000 1.000000 -60.708740 114.000000 133.000000 0.807425 -0.280639 -0.518947
1.21000004 0.88000000 -0.11000000 187 5 159 97.000000 1.000000 4.000000 1.000000 -60.708740 114.000000 133.000000 -0.676246 0.576061 0.459179
1.17999995 0.85000002 -0.12000000 187 5 159 97.000000 1.000000 4.000000 1.000000 -60.708740 114.000000 133.000000 0.707475 -0.400738 -0.582141
1.19000006 0.83999997 -0.13000000 187 5 159 97.000000 1.000000 4.000000 1.000000 -60.708740 114.000000 133.000000 -0.744371 0.483594 0.460487
1.19000006 0.83999997 -0.13000000 187 5 159 97.000000 1.000000 4.000000 1.000000 -60.708740 114.000000 133.000000 -0.744371 0.483594 0.460487
1.20000005 0.81999999 -0.16000000 187 5 159 97.000000 1.000000 4.000000 1.000000 -60.708740 114.000000 133.000000 0.742401 -0.038181 -0.668868
1.14999998 0.94999999 -0.06000000 187 5 159 97.000000 1.000000 4.000000 1.000000 -60.708740 114.000000 133.000000 -0.680299 0.092170 0.727116
1.16999996 0.89999998 -0.03000000 187 5 159 97.000000 1.000000 4.000000 1.000000 -60.708740 114.000000 133.000000 -0.734997 0.500459 0.457515
1.16999996 0.92000002 -0.05000000 187 5 159 97.000000 1.000000 4.000000 1.000000 -60.708740 114.000000 133.000000 -0.526128 0.737239 0.423871
1.13999999 0.91000003 -0.05000000 187 5 159 97.000000 1.000000 4.000000 1.000000 -60.708740 114.000000 133.000000 0.704459 -0.169620 -0.689178
1.16999996 0.89999998 -0.03000000 187 5 159 97.000000 1.000000 4.000000 1.000000 -60.708740 114.000000 133.000000 -0.734997 0.500459 0.457515
1.15999997 0.89999998 -0.09000000 187 5 159 97.000000 1.000000 4.000000 1.000000 -60.708740 114.000000 133.000000 0.665322 -0.258824 -0.700255
1.14999998 0.89999998 -0.10000000 187 5 159 97.000000 1.000000 4.000000 1.000000 -60.708740 114.000000 133.000000 0.840195 -0.369058 -0.397326
1.15999997 0.89999998 -0.09000000 187 5 159 97.000000 1.000000 4.000000 1.000000 -60.708740 114.000000 133.000000 0.665322 -0.258824 -0.700255
1.10000002 0.89999998 -0.05000000 187 5 159 97.000000 1.000000 4.000000 1.000000 -60.708740 114.000000 133.000000 -0.530990 0.628760 0.568076
1.10000002 0.89999998 -0.04000000 187 5 159 97.000000 1.000000 4.000000 1.000000 -60.708740 114.000000 133.000000 0.731080 -0.526444 -0.434027
1.10000002 0.88999999 -0.04000000 187 5 159 97.000000 1.000000 4.000000 1.000000 -60.708740 114.000000 133.000000 0.663444 -0.529076 -0.529076
1.10000002 0.88999999 -0.03000000 187 5 159 97.000000 1.000000 4.000000 1.000000 -60.708740 114.000000 133.000000 0.730137 -0.445367 -0.518215
1.15999997 0.88999999 -0.17000000 187 5 159 97.000000 1.000000 4.000000 1.000000 -60.708740 114.000000 133.000000 0.620847 -0.499706 -0.604022
1.16999996 0.89999998 -0.14000000 187 5 159 97.000000 1.000000 4.000000 1.000000 -60.708740 114.000000 133.000000 0.827346 -0.406554 -0.387571
1.16999996 0.88000000 -0.05000000 187 5 159 97.000000 1.000000 4.000000 1.000000 -60.708740 114.000000 133.000000 0.735610 -0.603619 -0.307443
1.16999996 0.87000000 -0.04000000 187 5 159 97.000000 1.000000 4.000000 1.000000 -60.708740 114.000000 133.000000 0.857355 -0.189364 -0.478628
1.16999996 0.87000000 -0.03000000 187 5 159 97.000000 1.000000 4.000000 1.000000 -60.708740 114.000000 133.000000 0.850172 -0.346596 -0.396332
1.16999996 0.87000000 -0.03000000 187 5 159 97.000000 1.000000 4.000000 1.000000 -60.708740 114.000000 133.000000 0.850172 -0.346596 -0.396332
1.15999997 0.88000000 -0.05000000 187 5 159 97.000000 1.000000 4.000000 1.000000 -60.708740 114.000000 133.000000 0.722896 -0.490240 -0.486916
1.15999997 0.88000000 -0.06000000 187 5 159 97.000000 1.000000 4.000000 1.000000 -60.708740 114.000000 133.000000 -0.501027 0.541244 0.675298
1.16999996 0.88000000 -0.04000000 187 5 159 97.000000 1.000000 4.000000 1.000000 -60.708740 114.000000 133.000000 -0.486916 0.490240 0.722896
1.14999998 0.86000001 -0.08000000 187 5 159 97.000000 1.000000 4.000000 1.000000 -60.708740 114.000000 133.000000 0.909843 -0.336278 -0.243110
1.13999999 0.81999999 -0.06000000 187 5 159 97.000000 1.000000 4.000000 1.000000 -60.708740 114.000000 133.000000 0.912103 0.009108 -0.409861
1.16999996 0.82999998 -0.07000000 187 5 159 97.000000 1.000000 4.000000 1.000000 -60.708740 114.000000 133.000000 -0.577350 0.577350 0.577350
1.13999999 0.82999998 -0.09000000 187 5 159 97.000000 1.000000 4.000000 1.000000 -60.708740 114.000000 133.000000 0.886133 -0.418819 -0.198388
1.14999998 0.81999999 -0.08000000 187 5 159 97.000000 1.000000 4.000000 1.000000 -60.708740 114.000000 133.000000 0.865145 -0.141040 -0.481282
1.13000000 0.85000002 -0.10000000 187 5 159 97.000000 1.000000 4.000000 1.000000 -60.708740 114.000000 133.000000 -0.693273 0.133264 0.708247
1.10000002 0.81000000 -0.07000000 187 5 159 97.000000 1.000000 4.000000 1.000000 -60.708740 114.000000 133.000000 0.623894 -0.361891 -0.692670
1.10000002 0.81000000 -0.09000000 187 5 159 97.000000 1.000000 4.000000 1.000000 -60.708740 114.000000 133.000000 -0.634837 0.359249 0.684049
1.16999996 0.85000002 -0.13000000 187 5 159 97.000000 1.000000 4.000000 1.000000 -60.708740 114.000000 133.000000 0.718165 -0.269113 -0.641730
1.16999996 0.83999997 -0.12000000 187 5 159 97.000000 1.000000 4.000000 1.000000 -60.708740 114.000000 133.000000 0.833786 -0.521304 -0.181780
