//X Y Z R G B PointSourceId ScanDirectionFlag NumberOfReturns ReturnNumber GpsTime Intensity Classification Nx Ny Nz
15.18999958 8.53999996 0.40000001 144 173 97 0.000000 0.000000 0.000000 0.000000 -60.708740 0.000000 248.000000 0.481131 0.860738 -0.166262
15.15999985 8.56999969 0.31999999 144 173 97 0.000000 0.000000 0.000000 0.000000 -60.708740 0.000000 248.000000 0.236699 0.866889 -0.438721
15.17000008 8.60000038 0.31999999 144 173 97 0.000000 0.000000 0.000000 0.000000 -60.708740 0.000000 248.000000 0.315892 0.652843 -0.688482
15.11999989 8.59000015 0.37000000 144 173 97 0.000000 0.000000 0.000000 0.000000 -60.708740 0.000000 248.000000 0.341552 0.790540 -0.508319
15.10999966 8.59000015 0.36000001 144 173 97 0.000000 0.000000 0.000000 0.000000 -60.708740 0.000000 248.000000 0.534629 0.622329 -0.571733
15.11999989 8.56000042 0.31999999 144 173 97 0.000000 0.000000 0.000000 0.000000 -60.708740 0.000000 248.000000 0.435714 0.822312 -0.366000
15.11999989 8.56000042 0.31999999 144 173 97 0.000000 0.000000 0.000000 0.000000 -60.708740 0.000000 248.000000 0.435714 0.822312 -0.366000
15.06999969 8.65999985 0.34000000 144 173 97 0.000000 0.000000 0.000000 0.000000 -60.708740 0.000000 248.000000 0.614056 0.689784 -0.383579
15.07999992 8.64000034 0.36000001 144 173 97 0.000000 0.000000 0.000000 0.000000 -60.708740 0.000000 248.000000 0.387157 0.588150 -0.710063
15.07999992 8.64000034 0.34000000 144 173 97 0.000000 0.000000 0.000000 0.000000 -60.708740 0.000000 248.000000 0.525936 0.660361 -0.536018
15.10000038 8.63000011 0.31999999 144 173 97 0.000000 0.000000 0.000000 0.000000 -60.708740 0.000000 248.000000 0.677487 0.638117 -0.365810
15.05000019 8.68000031 0.34999999 144 173 97 0.000000 0.000000 0.000000 0.000000 -60.708740 0.000000 248.000000 0.396431 0.765128 -0.507367
15.05000019 8.64000034 0.36000001 144 173 97 0.000000 0.000000 0.000000 0.000000 -60.708740 0.000000 248.000000 0.437861 0.779685 -0.447627
15.09000015 8.57999992 0.34000000 144 173 97 0.000000 0.000000 0.000000 0.000000 -60.708740 0.000000 248.000000 0.329135 0.708532 -0.624222
15.10000038 8.60000038 0.33000001 144 173 97 0.000000 0.000000 0.000000 0.000000 -60.708740 0.000000 248.000000 0.641255 0.740147 -0.202420
15.06999969 8.52999973 0.31999999 144 173 97 0.000000 0.000000 0.000000 0.000000 -60.708740 0.000000 248.000000 0.702546 0.690301 -0.172958
15.06999969 8.52999973 0.31999999 144 173 97 0.000000 0.000000 0.000000 0.000000 -60.708740 0.000000 248.000000 0.702546 0.690301 -0.172958
15.19999981 8.65999985 0.25000000 144 173 97 0.000000 0.000000 0.000000 0.000000 -60.708740 0.000000 248.000000 0.462533 0.885961 -0.033712
15.19999981 8.60999966 0.31000000 144 173 97 0.000000 0.000000 0.000000 0.000000 -60.708740 0.000000 248.000000 0.209512 0.892257 -0.399977
15.21000004 8.60999966 0.31000000 144 173 97 0.000000 0.000000 0.000000 0.000000 -60.708740 0.000000 248.000000 0.556403 0.690073 -0.462834
15.19999981 8.68999958 0.20000000 144 173 97 0.000000 0.000000 0.000000 0.000000 -60.708740 0.000000 248.000000 0.542996 0.600510 -0.586977
15.22000027 8.67000008 0.17000000 144 173 97 0.000000 0.000000 0.000000 0.000000 -60.708740 0.000000 248.000000 0.606939 0.780778 0.148363
15.19999981 8.55000019 0.31000000 144 173 97 0.000000 0.000000 0.000000 0.000000 -60.708740 0.000000 248.000000 0.198454 0.773818 -0.601516
15.25000000 8.43999958 -0.01000000 144 173 97 0.000000 0.000000 0.000000 0.000000 -60.708740 0.000000 216.000000 0.673259 0.666770 -0.319595
15.19999981 8.39999962 0.00000000 144 173 97 0.000000 0.000000 0.000000 0.000000 -60.708740 0.000000 216.000000 0.826630 0.451891 -0.335376
15.19999981 8.39000034 -0.01000000 144 173 97 0.000000 0.000000 0.000000 0.000000 -60.708740 0.000000 216.000000 0.615182 0.755350 0.225826
15.21000004 8.35999966 -0.01000000 144 173 97 0.000000 0.000000 0.000000 0.000000 -60.708740 0.000000 216.000000 0.785517 0.515646 0.342158
15.18999958 8.60999966 0.30000001 144 173 97 0.000000 0.000000 0.000000 0.000000 -60.708740 0.000000 248.000000 0.528553 0.825391 -0.198397
15.17000008 8.55000019 0.28999999 144 173 97 0.000000 0.000000 0.000000 0.000000 -60.708740 0.000000 248.000000 0.291973 0.797007 -0.528708
15.14999962 8.56999969 0.31000000 144 173 97 0.000000 0.000000 0.000000 0.000000 -60.708740 0.000000 248.000000 0.412721 0.830186 -0.374770
15.11999989 8.56000042 0.31000000 144 173 97 0.000000 0.000000 0.000000 0.000000 -60.708740 0.000000 248.000000 0.426823 0.797273 -0.426823
15.06000042 8.64999962 0.28000000 144 173 97 0.000000 0.000000 0.000000 0.000000 -60.708740 0.000000 248.000000 0.388532 0.838412 -0.382240
15.09000015 8.56999969 0.28999999 144 173 97 0.000000 0.000000 0.000000 0.000000 -60.708740 0.000000 248.000000 0.300038 0.914609 -0.271049
15.18999958 8.67000008 0.13000000 144 173 97 0.000000 0.000000 0.000000 0.000000 -60.708740 0.000000 248.000000 0.820314 0.571899 0.004095
15.18999958 8.65999985 0.13000000 144 173 97 0.000000 0.000000 0.000000 0.000000 -60.708740 0.000000 248.000000 0.828338 0.505609 0.241278
15.10999966 8.50000000 0.28000000 144 173 97 0.000000 0.000000 0.000000 0.000000 -60.708740 0.000000 248.000000 0.644607 0.463782 -0.607773
15.14000034 8.47000027 0.28000000 144 173 97 0.000000 0.000000 0.000000 0.000000 -60.708740 0.000000 248.000000 0.666480 0.532177 -0.522104
15.13000011 8.47999954 0.27000001 144 173 97 0.000000 0.000000 0.000000 0.000000 -60.708740 0.000000 248.000000 0.304357 0.697282 -0.648972
15.07999992 8.50000000 0.31000000 144 173 97 0.000000 0.000000 0.000000 0.000000 -60.708740 0.000000 248.000000 0.351832 0.875773 -0.330509
15.18000031 8.39999962 0.04000000 144 173 97 0.000000 0.000000 0.000000 0.000000 -60.708740 0.000000 216.000000 0.799866 0.555420 -0.227428
15.15999985 8.42000008 0.00000000 144 173 97 0.000000 0.000000 0.000000 0.000000 -60.708740 0.000000 216.000000 0.853210 0.453316 0.257947
15.14000034 8.39999962 0.00000000 144 173 97 0.000000 0.000000 0.000000 0.000000 -60.708740 0.000000 216.000000 0.447738 0.894164 0.001313
15.13000011 8.40999985 -0.02000000 144 173 97 0.000000 0.000000 0.000000 0.000000 -60.708740 0.000000 216.000000 0.682961 0.673364 0.283101
15.13000011 8.35999966 0.02000000 144 173 97 0.000000 0.000000 0.000000 0.000000 -60.708740 0.000000 216.000000 0.816300 0.534500 -0.219007
15.10000038 8.40999985 0.00000000 144 173 97 0.000000 0.000000 0.000000 0.000000 -60.708740 0.000000 216.000000 0.501232 0.850172 -0.161163
15.10000038 8.40999985 0.00000000 144 173 97 0.000000 0.000000 0.000000 0.000000 -60.708740 0.000000 216.000000 0.501232 0.850172 -0.161163
15.39000034 8.15999985 -0.02000000 144 173 97 0.000000 0.000000 0.000000 0.000000 -60.708740 0.000000 216.000000 0.806585 0.589047 0.049440
15.36999989 8.18000031 0.04000000 144 173 97 0.000000 0.000000 0.000000 0.000000 -60.708740 0.000000 216.000000 0.744128 0.493336 -0.450437
15.35999966 8.27000046 -0.01000000 144 173 97 0.000000 0.000000 0.000000 0.000000 -60.708740 0.000000 216.000000 0.795340 0.590187 0.138255
15.31999969 8.23999977 0.00000000 144 173 97 0.000000 0.000000 0.000000 0.000000 -60.708740 0.000000 216.000000 0.608019 0.736361 -0.296790
15.31999969 8.23999977 0.00000000 144 173 97 0.000000 0.000000 0.000000 0.000000 -60.708740 0.000000 216.000000 0.608019 0.736361 -0.296790
15.32999992 8.22999954 0.02000000 144 173 97 0.000000 0.000000 0.000000 0.000000 -60.708740 0.000000 216.000000 0.743494 0.668729 -0.004154
15.32999992 8.22999954 0.02000000 144 173 97 0.000000 0.000000 0.000000 0.000000 -60.708740 0.000000 216.000000 0.743494 0.668729 -0.004154
15.34000015 8.18999958 -0.02000000 144 173 97 0.000000 0.000000 0.000000 0.000000 -60.708740 0.000000 216.000000 0.624670 0.671064 -0.399325
15.34000015 8.18999958 0.02000000 144 173 97 0.000000 0.000000 0.000000 0.000000 -60.708740 0.000000 216.000000 0.467351 0.644911 -0.604709
15.31000042 8.21000004 0.03000000 144 173 97 0.000000 0.000000 0.000000 0.000000 -60.708740 0.000000 216.000000 0.712799 0.523384 -0.466891
15.30000019 8.21000004 0.02000000 144 173 97 0.000000 0.000000 0.000000 0.000000 -60.708740 0.000000 216.000000 0.660656 0.733556 -0.159469
15.25000000 8.35000038 -0.01000000 144 173 97 0.000000 0.000000 0.000000 0.000000 -60.708740 0.000000 216.000000 0.949552 0.313190 -0.016221
15.22000027 8.34000015 0.06000000 144 173 97 0.000000 0.000000 0.000000 0.000000 -60.708740 0.000000 216.000000 0.877972 0.435297 -0.199204
15.22000027 8.35000038 0.00000000 144 173 97 0.000000 0.000000 0.000000 0.000000 -60.708740 0.000000 216.000000 0.809835 0.559495 0.176445
15.19999981 8.28999996 0.04000000 144 173 97 0.000000 0.000000 0.000000 0.000000 -60.708740 0.000000 216.000000 0.798223 0.595408 0.091267
15.22000027 8.27999973 0.02000000 144 173 97 0.000000 0.000000 0.000000 0.000000 -60.708740 0.000000 216.000000 0.462963 0.882828 -0.079246
15.25000000 8.25000000 0.04000000 144 173 97 0.000000 0.000000 0.000000 0.000000 -60.708740 0.000000 216.000000 0.718839 0.686232 0.111161
15.26000023 8.23999977 0.04000000 144 173 97 0.000000 0.000000 0.000000 0.000000 -60.708740 0.000000 216.000000 0.669506 0.518489 -0.531913
15.23999977 8.26000023 0.03000000 144 173 97 0.000000 0.000000 0.000000 0.000000 -60.708740 0.000000 216.000000 0.877979 0.353315 -0.322987
15.25000000 8.23999977 0.02000000 144 173 97 0.000000 0.000000 0.000000 0.000000 -60.708740 0.000000 216.000000 0.532177 0.666480 -0.522104
15.23999977 8.22999954 0.00000000 144 173 97 0.000000 0.000000 0.000000 0.000000 -60.708740 0.000000 216.000000 0.605013 0.796070 -0.015229
15.22999954 8.27000046 0.03000000 144 173 97 0.000000 0.000000 0.000000 0.000000 -60.708740 0.000000 216.000000 0.460984 0.756275 -0.464265
15.31000042 8.18000031 0.04000000 144 173 97 0.000000 0.000000 0.000000 0.000000 -60.708740 0.000000 216.000000 0.816754 0.458334 -0.350490
15.27999973 8.18000031 -0.02000000 144 173 97 0.000000 0.000000 0.000000 0.000000 -60.708740 0.000000 216.000000 0.579666 0.788776 0.204498
15.28999996 8.17000008 -0.02000000 144 173 97 0.000000 0.000000 0.000000 0.000000 -60.708740 0.000000 216.000000 0.630128 0.772088 -0.082569
15.31000042 8.17000008 0.02000000 144 173 97 0.000000 0.000000 0.000000 0.000000 -60.708740 0.000000 216.000000 0.719831 0.687578 0.095293
15.15999985 8.34000015 0.10000000 144 173 97 0.000000 0.000000 0.000000 0.000000 -60.708740 0.000000 216.000000 0.618279 0.771720 -0.148928
15.18000031 8.34000015 -0.01000000 144 173 97 0.000000 0.000000 0.000000 0.000000 -60.708740 0.000000 216.000000 0.924927 0.330834 0.187238
15.18999958 8.35000038 0.02000000 144 173 97 0.000000 0.000000 0.000000 0.000000 -60.708740 0.000000 216.000000 0.655163 0.746856 -0.113877
15.17000008 8.31999969 -0.02000000 144 173 97 0.000000 0.000000 0.000000 0.000000 -60.708740 0.000000 216.000000 0.785481 0.594787 -0.171020
15.18000031 8.30000019 0.02000000 144 173 97 0.000000 0.000000 0.000000 0.000000 -60.708740 0.000000 216.000000 0.953007 0.301806 -0.026298
14.73999977 9.18000031 0.67000002 144 173 97 0.000000 0.000000 0.000000 0.000000 -60.708740 0.000000 248.000000 0.711934 0.539344 -0.449730
14.75000000 9.18000031 0.68000001 144 173 97 0.000000 0.000000 0.000000 0.000000 -60.708740 0.000000 248.000000 0.751427 0.613378 -0.243155
14.86999989 9.63000011 0.38000000 144 173 97 0.000000 0.000000 0.000000 0.000000 -60.708740 0.000000 248.000000 0.265367 -0.046097 0.963045
14.89000034 9.56000042 0.34999999 144 173 97 0.000000 0.000000 0.000000 0.000000 -60.708740 0.000000 248.000000 0.441464 -0.233539 0.866354
14.86999989 9.60999966 0.36000001 144 173 97 0.000000 0.000000 0.000000 0.000000 -60.708740 0.000000 248.000000 0.510586 -0.322894 0.796895
14.89999962 9.36999989 0.50000000 144 173 97 0.000000 0.000000 0.000000 0.000000 -60.708740 0.000000 248.000000 0.676903 0.654068 -0.337636
14.96000004 9.36999989 0.41000000 144 173 97 0.000000 0.000000 0.000000 0.000000 -60.708740 0.000000 248.000000 0.770144 0.377776 0.513969
15.02000046 9.36999989 0.33000001 144 173 97 0.000000 0.000000 0.000000 0.000000 -60.708740 0.000000 248.000000 0.825971 0.118414 0.551135
14.97999954 9.40999985 0.33000001 144 173 97 0.000000 0.000000 0.000000 0.000000 -60.708740 0.000000 248.000000 0.338001 -0.006283 0.941125
14.94999981 9.40999985 0.33000001 144 173 97 0.000000 0.000000 0.000000 0.000000 -60.708740 0.000000 248.000000 0.373857 0.051521 0.926054
14.96000004 9.39000034 0.34999999 144 173 97 0.000000 0.000000 0.000000 0.000000 -60.708740 0.000000 248.000000 0.520801 0.396723 0.755895
14.97999954 9.39000034 0.34999999 144 173 97 0.000000 0.000000 0.000000 0.000000 -60.708740 0.000000 248.000000 0.680480 -0.089267 0.727309
14.97999954 9.39999962 0.31999999 144 173 97 0.000000 0.000000 0.000000 0.000000 -60.708740 0.000000 248.000000 0.484551 -0.390558 0.782736
14.90999985 9.50000000 0.36000001 144 173 97 0.000000 0.000000 0.000000 0.000000 -60.708740 0.000000 248.000000 0.507740 -0.034214 0.860831
14.89999962 9.48999977 0.33000001 144 173 97 0.000000 0.000000 0.000000 0.000000 -60.708740 0.000000 248.000000 0.655331 -0.381313 0.652029
14.89000034 9.47999954 0.31999999 144 173 97 0.000000 0.000000 0.000000 0.000000 -60.708740 0.000000 248.000000 0.574227 -0.368094 0.731280
14.85999966 9.44999981 0.34999999 144 173 97 0.000000 0.000000 0.000000 0.000000 -60.708740 0.000000 248.000000 0.823222 0.275445 0.496423
14.86999989 9.44999981 0.34000000 144 173 97 0.000000 0.000000 0.000000 0.000000 -60.708740 0.000000 248.000000 0.516182 0.430427 0.740466
14.88000011 9.47000027 0.33000001 144 173 97 0.000000 0.000000 0.000000 0.000000 -60.708740 0.000000 248.000000 0.740738 0.209643 0.638246
14.88000011 9.47000027 0.33000001 144 173 97 0.000000 0.000000 0.000000 0.000000 -60.708740 0.000000 248.000000 0.740738 0.209643 0.638246
14.89000034 9.46000004 0.31999999 144 173 97 0.000000 0.000000 0.000000 0.000000 -60.708740 0.000000 248.000000 0.856054 -0.104677 0.506176
14.92000008 9.36999989 0.41000000 144 173 97 0.000000 0.000000 0.000000 0.000000 -60.708740 0.000000 248.000000 0.816697 0.565406 -0.115419
14.86999989 9.36999989 0.44000000 144 173 97 0.000000 0.000000 0.000000 0.000000 -60.708740 0.000000 248.000000 0.698592 0.683033 0.213156
14.90999985 9.42000008 0.36000001 144 173 97 0.000000 0.000000 0.000000 0.000000 -60.708740 0.000000 248.000000 0.436487 0.410716 0.800494
14.93999958 9.42000008 0.36000001 144 173 97 0.000000 0.000000 0.000000 0.000000 -60.708740 0.000000 248.000000 0.408031 0.124793 0.904399
14.92000008 9.43999958 0.34000000 144 173 97 0.000000 0.000000 0.000000 0.000000 -60.708740 0.000000 248.000000 0.882563 -0.164299 0.440555
14.93999958 9.40999985 0.34000000 144 173 97 0.000000 0.000000 0.000000 0.000000 -60.708740 0.000000 248.000000 0.890285 0.050291 0.452618
14.86999989 9.40999985 0.36000001 144 173 97 0.000000 0.000000 0.000000 0.000000 -60.708740 0.000000 248.000000 0.508665 0.297640 0.807880
14.88000011 9.43999958 0.31999999 144 173 97 0.000000 0.000000 0.000000 0.000000 -60.708740 0.000000 248.000000 0.775772 -0.235697 0.585341
14.89999962 9.42000008 0.34000000 144 173 97 0.000000 0.000000 0.000000 0.000000 -60.708740 0.000000 248.000000 0.714665 -0.255124 0.651280
14.86999989 9.43999958 0.34000000 144 173 97 0.000000 0.000000 0.000000 0.000000 -60.708740 0.000000 248.000000 0.393839 0.118291 0.911536
14.89000034 9.39999962 0.36000001 144 173 97 0.000000 0.000000 0.000000 0.000000 -60.708740 0.000000 248.000000 0.898288 0.279698 0.338893
14.89999962 9.39999962 0.34999999 144 173 97 0.000000 0.000000 0.000000 0.000000 -60.708740 0.000000 248.000000 0.800658 0.271064 0.534294
14.89999962 9.38000011 0.34999999 144 173 97 0.000000 0.000000 0.000000 0.000000 -60.708740 0.000000 248.000000 0.724150 0.179124 0.665973
14.89999962 9.38000011 0.34999999 144 173 97 0.000000 0.000000 0.000000 0.000000 -60.708740 0.000000 248.000000 0.724150 0.179124 0.665973
14.89000034 9.39999962 0.34999999 144 173 97 0.000000 0.000000 0.000000 0.000000 -60.708740 0.000000 248.000000 0.818609 0.430763 0.379898
14.85999966 9.39999962 0.34000000 144 173 97 0.000000 0.000000 0.000000 0.000000 -60.708740 0.000000 248.000000 0.842507 0.072215 0.533824
14.80000019 9.61999989 0.40000001 144 173 97 0.000000 0.000000 0.000000 0.000000 -60.708740 0.000000 248.000000 0.541905 0.268596 0.796364
14.81999969 9.64000034 0.38000000 144 173 97 0.000000 0.000000 0.000000 0.000000 -60.708740 0.000000 248.000000 0.509637 0.086596 0.856020
14.81999969 9.64999962 0.37000000 144 173 97 0.000000 0.000000 0.000000 0.000000 -60.708740 0.000000 248.000000 0.290879 0.044073 0.955744
14.78999996 9.65999985 0.36000001 144 173 97 0.000000 0.000000 0.000000 0.000000 -60.708740 0.000000 248.000000 0.183483 -0.559546 0.808234
14.80000019 9.68999958 0.38999999 144 173 97 0.000000 0.000000 0.000000 0.000000 -60.708740 0.000000 248.000000 0.223684 -0.170741 0.959590
14.78999996 9.68999958 0.33000001 144 173 97 0.000000 0.000000 0.000000 0.000000 -60.708740 0.000000 248.000000 0.204222 -0.024790 0.978611
14.81000042 9.61999989 0.37000000 144 173 97 0.000000 0.000000 0.000000 0.000000 -60.708740 0.000000 248.000000 0.792381 -0.122472 0.597606
14.80000019 9.64999962 0.38000000 144 173 97 0.000000 0.000000 0.000000 0.000000 -60.708740 0.000000 248.000000 0.163698 -0.494045 0.853887
14.77999973 9.63000011 0.38000000 144 173 97 0.000000 0.000000 0.000000 0.000000 -60.708740 0.000000 248.000000 0.770131 0.004133 0.637872
14.78999996 9.64999962 0.34999999 144 173 97 0.000000 0.000000 0.000000 0.000000 -60.708740 0.000000 248.000000 0.431766 -0.017165 0.901822
14.81000042 9.56000042 0.41999999 144 173 97 0.000000 0.000000 0.000000 0.000000 -60.708740 0.000000 248.000000 0.426463 -0.119635 0.896558
14.80000019 9.52999973 0.41999999 144 173 97 0.000000 0.000000 0.000000 0.000000 -60.708740 0.000000 248.000000 0.614145 0.035134 0.788411
14.78999996 9.55000019 0.33000001 144 173 97 0.000000 0.000000 0.000000 0.000000 -60.708740 0.000000 248.000000 0.245896 -0.178711 0.952679
14.73999977 9.63000011 0.40000001 144 173 97 0.000000 0.000000 0.000000 0.000000 -60.708740 0.000000 248.000000 0.690808 -0.110943 0.714476
14.75000000 9.63000011 0.40000001 144 173 97 0.000000 0.000000 0.000000 0.000000 -60.708740 0.000000 248.000000 0.416913 -0.156163 0.895431
14.72999954 9.65999985 0.41000000 144 173 97 0.000000 0.000000 0.000000 0.000000 -60.708740 0.000000 248.000000 0.470191 0.301485 0.829474
14.69999981 9.63000011 0.41000000 144 173 97 0.000000 0.000000 0.000000 0.000000 -60.708740 0.000000 248.000000 0.766492 -0.305637 0.564868
14.69999981 9.61999989 0.41000000 144 173 97 0.000000 0.000000 0.000000 0.000000 -60.708740 0.000000 248.000000 0.603877 0.113135 0.789007
14.75000000 9.68000031 0.37000000 144 173 97 0.000000 0.000000 0.000000 0.000000 -60.708740 0.000000 248.000000 0.493836 -0.434773 0.753059
14.77000046 9.65999985 0.37000000 144 173 97 0.000000 0.000000 0.000000 0.000000 -60.708740 0.000000 248.000000 0.325464 0.080378 0.942132
14.73999977 9.67000008 0.37000000 144 173 97 0.000000 0.000000 0.000000 0.000000 -60.708740 0.000000 248.000000 0.390221 -0.063025 0.918562
14.76000023 9.67000008 0.34999999 144 173 97 0.000000 0.000000 0.000000 0.000000 -60.708740 0.000000 248.000000 0.763173 -0.208983 0.611468
14.73999977 9.64000034 0.36000001 144 173 97 0.000000 0.000000 0.000000 0.000000 -60.708740 0.000000 248.000000 0.440415 -0.274684 0.854742
14.76000023 9.64999962 0.38999999 144 173 97 0.000000 0.000000 0.000000 0.000000 -60.708740 0.000000 248.000000 0.782822 -0.211532 0.585187
14.73999977 9.63000011 0.38999999 144 173 97 0.000000 0.000000 0.000000 0.000000 -60.708740 0.000000 248.000000 0.446277 0.148759 0.882444
14.77000046 9.61999989 0.38999999 144 173 97 0.000000 0.000000 0.000000 0.000000 -60.708740 0.000000 248.000000 0.719328 -0.123611 0.683585
14.77000046 9.63000011 0.34999999 144 173 97 0.000000 0.000000 0.000000 0.000000 -60.708740 0.000000 248.000000 0.242189 0.022893 0.969959
14.72000027 9.64000034 0.38000000 144 173 97 0.000000 0.000000 0.000000 0.000000 -60.708740 0.000000 248.000000 0.627208 0.004135 0.778841
14.72999954 9.63000011 0.36000001 144 173 97 0.000000 0.000000 0.000000 0.000000 -60.708740 0.000000 248.000000 0.301050 0.082105 0.950067
14.71000004 9.64999962 0.34999999 144 173 97 0.000000 0.000000 0.000000 0.000000 -60.708740 0.000000 248.000000 0.424562 0.283552 0.859852
14.76000023 9.60000038 0.44999999 144 173 97 0.000000 0.000000 0.000000 0.000000 -60.708740 0.000000 248.000000 0.751748 -0.098181 0.652101
14.73999977 9.57999992 0.44999999 144 173 97 0.000000 0.000000 0.000000 0.000000 -60.708740 0.000000 248.000000 0.756917 -0.046864 0.651829
14.76000023 9.59000015 0.41000000 144 173 97 0.000000 0.000000 0.000000 0.000000 -60.708740 0.000000 248.000000 0.482650 0.401396 0.778415
14.75000000 9.60999966 0.41000000 144 173 97 0.000000 0.000000 0.000000 0.000000 -60.708740 0.000000 248.000000 0.694645 -0.237849 0.678893
14.75000000 9.56999969 0.47000000 144 173 97 0.000000 0.000000 0.000000 0.000000 -60.708740 0.000000 248.000000 0.961669 0.104277 0.253613
14.75000000 9.56999969 0.40000001 144 173 97 0.000000 0.000000 0.000000 0.000000 -60.708740 0.000000 248.000000 0.718256 0.179181 0.672312
14.75000000 9.53999996 0.40000001 144 173 97 0.000000 0.000000 0.000000 0.000000 -60.708740 0.000000 248.000000 0.928008 0.207636 0.309336
14.75000000 9.55000019 0.41000000 144 173 97 0.000000 0.000000 0.000000 0.000000 -60.708740 0.000000 248.000000 0.929952 -0.095830 0.354974
14.69999981 9.60999966 0.41999999 144 173 97 0.000000 0.000000 0.000000 0.000000 -60.708740 0.000000 248.000000 0.687381 -0.006943 0.726264
14.72000027 9.52999973 0.43000001 144 173 97 0.000000 0.000000 0.000000 0.000000 -60.708740 0.000000 248.000000 0.659164 0.625957 0.416751
14.73999977 9.60999966 0.38999999 144 173 97 0.000000 0.000000 0.000000 0.000000 -60.708740 0.000000 248.000000 0.895011 -0.101928 0.434241
14.75000000 9.57999992 0.38000000 144 173 97 0.000000 0.000000 0.000000 0.000000 -60.708740 0.000000 248.000000 0.437419 -0.050107 0.897861
14.73999977 9.60000038 0.38999999 144 173 97 0.000000 0.000000 0.000000 0.000000 -60.708740 0.000000 248.000000 0.709747 -0.162619 0.685430
14.75000000 9.59000015 0.38000000 144 173 97 0.000000 0.000000 0.000000 0.000000 -60.708740 0.000000 248.000000 0.696868 0.380559 0.607906
14.73999977 9.57999992 0.34000000 144 173 97 0.000000 0.000000 0.000000 0.000000 -60.708740 0.000000 248.000000 0.567331 0.316613 0.760192
14.77000046 9.53999996 0.38999999 144 173 97 0.000000 0.000000 0.000000 0.000000 -60.708740 0.000000 248.000000 0.589469 0.151492 0.793458
14.73999977 9.55000019 0.31999999 144 173 97 0.000000 0.000000 0.000000 0.000000 -60.708740 0.000000 248.000000 0.371596 -0.008939 0.928352
14.73999977 9.55000019 0.31999999 144 173 97 0.000000 0.000000 0.000000 0.000000 -60.708740 0.000000 248.000000 0.371596 -0.008939 0.928352
14.77000046 9.56999969 0.34999999 144 173 97 0.000000 0.000000 0.000000 0.000000 -60.708740 0.000000 248.000000 0.452288 -0.394344 0.799955
14.75000000 9.56000042 0.31999999 144 173 97 0.000000 0.000000 0.000000 0.000000 -60.708740 0.000000 248.000000 0.665248 0.089187 0.741276
14.72000027 9.59000015 0.34000000 144 173 97 0.000000 0.000000 0.000000 0.000000 -60.708740 0.000000 248.000000 0.566345 0.241828 0.787891
14.69999981 9.53999996 0.38000000 144 173 97 0.000000 0.000000 0.000000 0.000000 -60.708740 0.000000 248.000000 0.857889 0.179282 0.481544
14.69999981 9.56000042 0.38999999 144 173 97 0.000000 0.000000 0.000000 0.000000 -60.708740 0.000000 248.000000 0.926688 0.180851 0.329458
14.69999981 9.56000042 0.38999999 144 173 97 0.000000 0.000000 0.000000 0.000000 -60.708740 0.000000 248.000000 0.926688 0.180851 0.329458
14.69999981 9.56000042 0.31999999 144 173 97 0.000000 0.000000 0.000000 0.000000 -60.708740 0.000000 248.000000 0.791332 -0.190591 0.580920
14.69999981 9.56999969 0.31999999 144 173 97 0.000000 0.000000 0.000000 0.000000 -60.708740 0.000000 248.000000 0.434999 0.377636 0.817415
14.85000038 9.39000034 0.49000001 144 173 97 0.000000 0.000000 0.000000 0.000000 -60.708740 0.000000 248.000000 0.967245 0.253009 0.020580
14.82999992 9.38000011 0.49000001 144 173 97 0.000000 0.000000 0.000000 0.000000 -60.708740 0.000000 248.000000 0.880120 0.474324 -0.020155
14.84000015 9.47000027 0.31999999 144 173 97 0.000000 0.000000 0.000000 0.000000 -60.708740 0.000000 248.000000 0.715152 -0.234192 0.658568
14.85000038 9.47999954 0.31999999 144 173 97 0.000000 0.000000 0.000000 0.000000 -60.708740 0.000000 248.000000 0.673918 -0.247787 0.696014
14.77999973 9.50000000 0.33000001 144 173 97 0.000000 0.000000 0.000000 0.000000 -60.708740 0.000000 248.000000 0.835684 -0.197965 0.512291
14.80000019 9.51000023 0.34000000 144 173 97 0.000000 0.000000 0.000000 0.000000 -60.708740 0.000000 248.000000 0.352609 0.016548 0.935624
14.81000042 9.44999981 0.38999999 144 173 97 0.000000 0.000000 0.000000 0.000000 -60.708740 0.000000 248.000000 0.879082 0.292019 0.376749
14.81000042 9.44999981 0.34000000 144 173 97 0.000000 0.000000 0.000000 0.000000 -60.708740 0.000000 248.000000 0.745331 0.345873 0.569959
14.82999992 9.39000034 0.46000001 144 173 97 0.000000 0.000000 0.000000 0.000000 -60.708740 0.000000 248.000000 0.951611 0.198986 0.234180
14.85000038 9.36999989 0.47000000 144 173 97 0.000000 0.000000 0.000000 0.000000 -60.708740 0.000000 248.000000 0.760245 0.643509 -0.089011
14.85000038 9.36999989 0.47000000 144 173 97 0.000000 0.000000 0.000000 0.000000 -60.708740 0.000000 248.000000 0.760245 0.643509 -0.089011
14.84000015 9.39999962 0.44000000 144 173 97 0.000000 0.000000 0.000000 0.000000 -60.708740 0.000000 248.000000 0.942914 0.323922 0.077374
14.80000019 9.39000034 0.44000000 144 173 97 0.000000 0.000000 0.000000 0.000000 -60.708740 0.000000 248.000000 0.808163 0.433688 0.398481
14.81000042 9.36999989 0.40000001 144 173 97 0.000000 0.000000 0.000000 0.000000 -60.708740 0.000000 248.000000 0.542717 0.569768 0.617108
14.80000019 9.38000011 0.44000000 144 173 97 0.000000 0.000000 0.000000 0.000000 -60.708740 0.000000 248.000000 0.874564 0.363515 0.320927
14.85000038 9.40999985 0.34999999 144 173 97 0.000000 0.000000 0.000000 0.000000 -60.708740 0.000000 248.000000 0.803485 -0.029243 0.594607
14.80000019 9.42000008 0.38000000 144 173 97 0.000000 0.000000 0.000000 0.000000 -60.708740 0.000000 248.000000 0.950228 0.201974 0.237218
14.81000042 9.42000008 0.34000000 144 173 97 0.000000 0.000000 0.000000 0.000000 -60.708740 0.000000 248.000000 0.940504 -0.011362 0.339592
14.77999973 9.36999989 0.34999999 144 173 97 0.000000 0.000000 0.000000 0.000000 -60.708740 0.000000 248.000000 0.797553 0.373903 0.473397
14.77999973 9.36999989 0.31999999 144 173 97 0.000000 0.000000 0.000000 0.000000 -60.708740 0.000000 248.000000 0.866925 0.023064 0.497905
14.80000019 9.36999989 0.31999999 144 173 97 0.000000 0.000000 0.000000 0.000000 -60.708740 0.000000 248.000000 0.783778 0.141827 0.604629
14.77999973 9.36999989 0.31999999 144 173 97 0.000000 0.000000 0.000000 0.000000 -60.708740 0.000000 248.000000 0.866925 0.023064 0.497905
14.76000023 9.50000000 0.43000001 144 173 97 0.000000 0.000000 0.000000 0.000000 -60.708740 0.000000 248.000000 0.908027 0.187917 0.374400
14.76000023 9.50000000 0.40000001 144 173 97 0.000000 0.000000 0.000000 0.000000 -60.708740 0.000000 248.000000 0.541745 0.575499 0.612628
14.75000000 9.48999977 0.41999999 144 173 97 0.000000 0.000000 0.000000 0.000000 -60.708740 0.000000 248.000000 0.663257 0.572584 0.481911
14.76000023 9.47999954 0.41000000 144 173 97 0.000000 0.000000 0.000000 0.000000 -60.708740 0.000000 248.000000 0.882865 0.275237 0.380519
14.76000023 9.47000027 0.43000001 144 173 97 0.000000 0.000000 0.000000 0.000000 -60.708740 0.000000 248.000000 0.838623 0.155300 0.522105
14.76000023 9.47999954 0.41000000 144 173 97 0.000000 0.000000 0.000000 0.000000 -60.708740 0.000000 248.000000 0.882865 0.275237 0.380519
14.76000023 9.47999954 0.41999999 144 173 97 0.000000 0.000000 0.000000 0.000000 -60.708740 0.000000 248.000000 0.889333 0.298444 0.346435
14.75000000 9.47999954 0.43000001 144 173 97 0.000000 0.000000 0.000000 0.000000 -60.708740 0.000000 248.000000 0.608858 0.264102 0.748025
14.76000023 9.47000027 0.41999999 144 173 97 0.000000 0.000000 0.000000 0.000000 -60.708740 0.000000 248.000000 0.926290 0.181322 0.330316
14.72000027 9.47000027 0.43000001 144 173 97 0.000000 0.000000 0.000000 0.000000 -60.708740 0.000000 248.000000 0.874354 0.106628 0.473430
14.77000046 9.48999977 0.33000001 144 173 97 0.000000 0.000000 0.000000 0.000000 -60.708740 0.000000 248.000000 0.599077 -0.073268 0.797332
14.77000046 9.51000023 0.33000001 144 173 97 0.000000 0.000000 0.000000 0.000000 -60.708740 0.000000 248.000000 0.450032 -0.099540 0.887447
14.77000046 9.50000000 0.33000001 144 173 97 0.000000 0.000000 0.000000 0.000000 -60.708740 0.000000 248.000000 0.599234 0.132337 0.789561
14.75000000 9.44999981 0.38999999 144 173 97 0.000000 0.000000 0.000000 0.000000 -60.708740 0.000000 248.000000 0.762683 0.175067 0.622629
14.69999981 9.52000046 0.36000001 144 173 97 0.000000 0.000000 0.000000 0.000000 -60.708740 0.000000 248.000000 0.907504 0.063566 0.415207
14.72999954 9.48999977 0.36000001 144 173 97 0.000000 0.000000 0.000000 0.000000 -60.708740 0.000000 248.000000 0.873804 0.174761 0.453790
14.72999954 9.48999977 0.36000001 144 173 97 0.000000 0.000000 0.000000 0.000000 -60.708740 0.000000 248.000000 0.873804 0.174761 0.453790
14.73999977 9.42000008 0.46000001 144 173 97 0.000000 0.000000 0.000000 0.000000 -60.708740 0.000000 248.000000 0.644255 0.764442 0.023758
14.73999977 9.40999985 0.40000001 144 173 97 0.000000 0.000000 0.000000 0.000000 -60.708740 0.000000 248.000000 0.923065 0.217610 0.317170
14.77000046 9.43999958 0.31999999 144 173 97 0.000000 0.000000 0.000000 0.000000 -60.708740 0.000000 248.000000 0.616242 -0.192095 0.763771
14.77000046 9.38000011 0.36000001 144 173 97 0.000000 0.000000 0.000000 0.000000 -60.708740 0.000000 248.000000 0.852967 0.326635 0.407133
14.75000000 9.39000034 0.38999999 144 173 97 0.000000 0.000000 0.000000 0.000000 -60.708740 0.000000 248.000000 0.978268 0.104858 0.178876
14.73999977 9.36999989 0.33000001 144 173 97 0.000000 0.000000 0.000000 0.000000 -60.708740 0.000000 248.000000 0.604079 0.657626 0.450131
14.75000000 9.39000034 0.34000000 144 173 97 0.000000 0.000000 0.000000 0.000000 -60.708740 0.000000 248.000000 0.641746 0.261452 0.720974
14.77000046 9.36999989 0.33000001 144 173 97 0.000000 0.000000 0.000000 0.000000 -60.708740 0.000000 248.000000 0.691335 0.220041 0.688214
15.01000023 9.55000019 0.15000001 144 173 97 0.000000 0.000000 0.000000 0.000000 -60.708740 0.000000 248.000000 -0.038213 -0.683583 0.728872
14.93000031 9.60999966 0.28000000 144 173 97 0.000000 0.000000 0.000000 0.000000 -60.708740 0.000000 248.000000 0.505584 -0.539178 0.673552
14.92000008 9.60000038 0.27000001 144 173 97 0.000000 0.000000 0.000000 0.000000 -60.708740 0.000000 248.000000 0.369155 -0.544789 0.752947
14.90999985 9.56000042 0.28999999 144 173 97 0.000000 0.000000 0.000000 0.000000 -60.708740 0.000000 248.000000 0.178983 -0.005700 0.983836
14.90999985 9.53999996 0.28999999 144 173 97 0.000000 0.000000 0.000000 0.000000 -60.708740 0.000000 248.000000 0.673357 -0.101667 0.732294
14.93999958 9.55000019 0.28999999 144 173 97 0.000000 0.000000 0.000000 0.000000 -60.708740 0.000000 248.000000 0.132199 -0.427870 0.894120
14.93999958 9.55000019 0.28999999 144 173 97 0.000000 0.000000 0.000000 0.000000 -60.708740 0.000000 248.000000 0.132199 -0.427870 0.894120
14.93000031 9.53999996 0.25000000 144 173 97 0.000000 0.000000 0.000000 0.000000 -60.708740 0.000000 248.000000 0.252473 -0.395890 0.882909
14.93000031 9.53999996 0.25000000 144 173 97 0.000000 0.000000 0.000000 0.000000 -60.708740 0.000000 248.000000 0.252473 -0.395890 0.882909
14.92000008 9.52999973 0.25999999 144 173 97 0.000000 0.000000 0.000000 0.000000 -60.708740 0.000000 248.000000 0.121776 -0.102859 0.987213
14.90999985 9.53999996 0.25999999 144 173 97 0.000000 0.000000 0.000000 0.000000 -60.708740 0.000000 248.000000 0.445345 -0.448607 0.774867
14.90999985 9.52999973 0.23999999 144 173 97 0.000000 0.000000 0.000000 0.000000 -60.708740 0.000000 248.000000 0.653809 -0.282944 0.701766
14.89999962 9.59000015 0.25999999 144 173 97 0.000000 0.000000 0.000000 0.000000 -60.708740 0.000000 248.000000 0.608087 -0.151646 0.779252
14.89999962 9.55000019 0.28999999 144 173 97 0.000000 0.000000 0.000000 0.000000 -60.708740 0.000000 248.000000 0.471468 -0.270515 0.839368
14.89999962 9.55000019 0.28999999 144 173 97 0.000000 0.000000 0.000000 0.000000 -60.708740 0.000000 248.000000 0.471468 -0.270515 0.839368
14.90999985 9.56000042 0.20000000 144 173 97 0.000000 0.000000 0.000000 0.000000 -60.708740 0.000000 248.000000 0.179450 -0.221986 0.958395
14.93000031 9.55000019 0.23000000 144 173 97 0.000000 0.000000 0.000000 0.000000 -60.708740 0.000000 248.000000 0.265564 -0.237462 0.934392
14.93000031 9.52999973 0.23000000 144 173 97 0.000000 0.000000 0.000000 0.000000 -60.708740 0.000000 248.000000 0.231790 -0.065695 0.970545
14.93000031 9.55000019 0.23000000 144 173 97 0.000000 0.000000 0.000000 0.000000 -60.708740 0.000000 248.000000 0.265564 -0.237462 0.934392
14.93999958 9.52999973 0.23000000 144 173 97 0.000000 0.000000 0.000000 0.000000 -60.708740 0.000000 248.000000 -0.011770 -0.086670 0.996168
14.93999958 9.52999973 0.23000000 144 173 97 0.000000 0.000000 0.000000 0.000000 -60.708740 0.000000 248.000000 -0.011770 -0.086670 0.996168
14.92000008 9.55000019 0.23000000 144 173 97 0.000000 0.000000 0.000000 0.000000 -60.708740 0.000000 248.000000 0.093492 -0.367193 0.925434
14.85999966 9.53999996 0.23000000 144 173 97 0.000000 0.000000 0.000000 0.000000 -60.708740 0.000000 248.000000 0.727663 0.015363 0.685763
14.88000011 9.55000019 0.20999999 144 173 97 0.000000 0.000000 0.000000 0.000000 -60.708740 0.000000 248.000000 -0.003778 -0.346286 0.938121
14.88000011 9.57999992 0.02000000 144 173 97 0.000000 0.000000 0.000000 0.000000 -60.708740 0.000000 248.000000 -0.045775 -0.253618 0.966221
15.01000023 9.46000004 0.31000000 144 173 97 0.000000 0.000000 0.000000 0.000000 -60.708740 0.000000 248.000000 0.131871 -0.591198 0.795673
15.00000000 9.47000027 0.31000000 144 173 97 0.000000 0.000000 0.000000 0.000000 -60.708740 0.000000 248.000000 0.416390 -0.261947 0.870634
15.02000046 9.46000004 0.30000001 144 173 97 0.000000 0.000000 0.000000 0.000000 -60.708740 0.000000 248.000000 -0.470553 0.587773 -0.658105
14.96000004 9.51000023 0.27000001 144 173 97 0.000000 0.000000 0.000000 0.000000 -60.708740 0.000000 248.000000 0.118045 -0.459380 0.880361
14.94999981 9.52000046 0.25000000 144 173 97 0.000000 0.000000 0.000000 0.000000 -60.708740 0.000000 248.000000 0.528975 -0.162418 0.832950
14.94999981 9.52000046 0.25000000 144 173 97 0.000000 0.000000 0.000000 0.000000 -60.708740 0.000000 248.000000 0.528975 -0.162418 0.832950
14.96000004 9.48999977 0.23999999 144 173 97 0.000000 0.000000 0.000000 0.000000 -60.708740 0.000000 248.000000 0.205280 -0.348832 0.914427
14.97000027 9.44999981 0.31000000 144 173 97 0.000000 0.000000 0.000000 0.000000 -60.708740 0.000000 248.000000 0.321999 0.161691 0.932830
15.00000000 9.50000000 0.19000000 144 173 97 0.000000 0.000000 0.000000 0.000000 -60.708740 0.000000 248.000000 -0.085762 -0.485047 0.870273
14.98999977 9.51000023 0.20000000 144 173 97 0.000000 0.000000 0.000000 0.000000 -60.708740 0.000000 248.000000 0.125396 -0.359652 0.924622
14.98999977 9.47999954 0.22000000 144 173 97 0.000000 0.000000 0.000000 0.000000 -60.708740 0.000000 248.000000 0.065496 -0.491919 0.868174
14.94999981 9.51000023 0.20000000 144 173 97 0.000000 0.000000 0.000000 0.000000 -60.708740 0.000000 248.000000 0.043102 -0.361794 0.931261
14.94999981 9.48999977 0.23000000 144 173 97 0.000000 0.000000 0.000000 0.000000 -60.708740 0.000000 248.000000 0.088722 -0.618143 0.781042
15.00000000 9.40999985 0.30000001 144 173 97 0.000000 0.000000 0.000000 0.000000 -60.708740 0.000000 248.000000 0.103405 -0.398453 0.911341
14.98999977 9.40999985 0.25000000 144 173 97 0.000000 0.000000 0.000000 0.000000 -60.708740 0.000000 248.000000 0.538274 -0.282554 0.793993
15.00000000 9.39999962 0.30000001 144 173 97 0.000000 0.000000 0.000000 0.000000 -60.708740 0.000000 248.000000 0.308626 -0.282298 0.908327
14.97000027 9.42000008 0.18000001 144 173 97 0.000000 0.000000 0.000000 0.000000 -60.708740 0.000000 248.000000 0.429674 -0.555756 0.711699
14.93999958 9.52000046 0.28000000 144 173 97 0.000000 0.000000 0.000000 0.000000 -60.708740 0.000000 248.000000 0.347484 -0.106814 0.931582
14.93999958 9.52000046 0.25000000 144 173 97 0.000000 0.000000 0.000000 0.000000 -60.708740 0.000000 248.000000 0.014694 -0.474208 0.880290
14.92000008 9.52000046 0.25999999 144 173 97 0.000000 0.000000 0.000000 0.000000 -60.708740 0.000000 248.000000 0.287502 -0.428947 0.856357
14.86999989 9.51000023 0.23999999 144 173 97 0.000000 0.000000 0.000000 0.000000 -60.708740 0.000000 248.000000 0.462709 0.224572 0.857594
14.85999966 9.52000046 0.25000000 144 173 97 0.000000 0.000000 0.000000 0.000000 -60.708740 0.000000 248.000000 0.456438 -0.152146 0.876651
14.89999962 9.51000023 0.23999999 144 173 97 0.000000 0.000000 0.000000 0.000000 -60.708740 0.000000 248.000000 0.540067 0.066275 0.839008
14.89999962 9.50000000 0.23999999 144 173 97 0.000000 0.000000 0.000000 0.000000 -60.708740 0.000000 248.000000 0.506752 -0.167927 0.845578
14.88000011 9.52000046 0.23999999 144 173 97 0.000000 0.000000 0.000000 0.000000 -60.708740 0.000000 248.000000 0.056676 -0.270784 0.960970
14.85999966 9.48999977 0.25000000 144 173 97 0.000000 0.000000 0.000000 0.000000 -60.708740 0.000000 248.000000 0.580972 0.284915 0.762427
14.85999966 9.51000023 0.25000000 144 173 97 0.000000 0.000000 0.000000 0.000000 -60.708740 0.000000 248.000000 0.325356 0.117452 0.938269
14.85999966 9.51000023 0.25000000 144 173 97 0.000000 0.000000 0.000000 0.000000 -60.708740 0.000000 248.000000 0.325356 0.117452 0.938269
14.85999966 9.50000000 0.25000000 144 173 97 0.000000 0.000000 0.000000 0.000000 -60.708740 0.000000 248.000000 0.535051 0.045862 0.843574
14.88000011 9.52000046 0.23999999 144 173 97 0.000000 0.000000 0.000000 0.000000 -60.708740 0.000000 248.000000 0.056676 -0.270784 0.960970
14.89999962 9.48999977 0.27000001 144 173 97 0.000000 0.000000 0.000000 0.000000 -60.708740 0.000000 248.000000 0.451148 -0.220328 0.864825
14.88000011 9.47000027 0.28000000 144 173 97 0.000000 0.000000 0.000000 0.000000 -60.708740 0.000000 248.000000 0.697517 0.080091 0.712079
14.90999985 9.48999977 0.23000000 144 173 97 0.000000 0.000000 0.000000 0.000000 -60.708740 0.000000 248.000000 0.627623 -0.058616 0.776308
14.92000008 9.51000023 0.22000000 144 173 97 0.000000 0.000000 0.000000 0.000000 -60.708740 0.000000 248.000000 0.265874 -0.363906 0.892683
14.85999966 9.47999954 0.20000000 144 173 97 0.000000 0.000000 0.000000 0.000000 -60.708740 0.000000 248.000000 0.779950 0.058461 0.623105
14.89999962 9.38000011 0.31000000 144 173 97 0.000000 0.000000 0.000000 0.000000 -60.708740 0.000000 248.000000 0.687581 0.369226 0.625223
14.96000004 9.47999954 0.11000000 144 173 97 0.000000 0.000000 0.000000 0.000000 -60.708740 0.000000 248.000000 0.319595 -0.666770 0.673259
15.01000023 9.50000000 0.00000000 144 173 97 0.000000 0.000000 0.000000 0.000000 -60.708740 0.000000 248.000000 -0.102052 -0.368748 0.923910
15.01000023 9.40999985 0.14000000 144 173 97 0.000000 0.000000 0.000000 0.000000 -60.708740 0.000000 248.000000 0.417660 -0.251802 0.873015
15.01000023 9.43000031 0.14000000 144 173 97 0.000000 0.000000 0.000000 0.000000 -60.708740 0.000000 248.000000 0.582095 -0.353823 0.732103
15.02000046 9.38000011 0.12000000 144 173 97 0.000000 0.000000 0.000000 0.000000 -60.708740 0.000000 248.000000 0.524260 -0.368443 0.767725
14.98999977 9.39999962 0.07000000 144 173 97 0.000000 0.000000 0.000000 0.000000 -60.708740 0.000000 248.000000 0.271012 -0.484725 0.831621
14.97000027 9.36999989 0.08000000 144 173 97 0.000000 0.000000 0.000000 0.000000 -60.708740 0.000000 248.000000 0.545328 -0.150077 0.824678
14.94999981 9.40999985 0.06000000 144 173 97 0.000000 0.000000 0.000000 0.000000 -60.708740 0.000000 248.000000 0.538213 -0.494619 0.682407
15.01000023 9.39999962 0.05000000 144 173 97 0.000000 0.000000 0.000000 0.000000 -60.708740 0.000000 248.000000 0.621529 -0.181725 0.762022
14.85999966 9.47999954 0.14000000 144 173 97 0.000000 0.000000 0.000000 0.000000 -60.708740 0.000000 248.000000 0.507705 0.231612 0.829814
14.85999966 9.44999981 0.11000000 144 173 97 0.000000 0.000000 0.000000 0.000000 -60.708740 0.000000 248.000000 0.823986 -0.106086 0.556590
14.93000031 9.40999985 0.13000000 144 173 97 0.000000 0.000000 0.000000 0.000000 -60.708740 0.000000 248.000000 0.198809 -0.470864 0.859513
14.90999985 9.40999985 0.07000000 144 173 97 0.000000 0.000000 0.000000 0.000000 -60.708740 0.000000 248.000000 0.699823 -0.269408 0.661564
14.93999958 9.39999962 0.09000000 144 173 97 0.000000 0.000000 0.000000 0.000000 -60.708740 0.000000 248.000000 0.632633 -0.478251 0.609140
14.89999962 9.40999985 0.08000000 144 173 97 0.000000 0.000000 0.000000 0.000000 -60.708740 0.000000 248.000000 0.374026 -0.550422 0.746418
14.89999962 9.40999985 0.08000000 144 173 97 0.000000 0.000000 0.000000 0.000000 -60.708740 0.000000 248.000000 0.374026 -0.550422 0.746418
14.86999989 9.36999989 0.13000000 144 173 97 0.000000 0.000000 0.000000 0.000000 -60.708740 0.000000 248.000000 0.548758 -0.439338 0.711230
14.85000038 9.57999992 0.31000000 144 173 97 0.000000 0.000000 0.000000 0.000000 -60.708740 0.000000 248.000000 0.573091 -0.539280 0.617045
14.82999992 9.56999969 0.23999999 144 173 97 0.000000 0.000000 0.000000 0.000000 -60.708740 0.000000 248.000000 0.450862 -0.408846 0.793453
14.78999996 9.57999992 0.27000001 144 173 97 0.000000 0.000000 0.000000 0.000000 -60.708740 0.000000 248.000000 0.199800 -0.401059 0.893997
14.77999973 9.56000042 0.27000001 144 173 97 0.000000 0.000000 0.000000 0.000000 -60.708740 0.000000 248.000000 0.266318 0.153903 0.951519
14.81000042 9.52999973 0.27000001 144 173 97 0.000000 0.000000 0.000000 0.000000 -60.708740 0.000000 248.000000 0.586050 -0.171120 0.792000
14.85000038 9.53999996 0.23000000 144 173 97 0.000000 0.000000 0.000000 0.000000 -60.708740 0.000000 248.000000 0.768209 0.018125 0.639942
14.77000046 9.57999992 0.28000000 144 173 97 0.000000 0.000000 0.000000 0.000000 -60.708740 0.000000 248.000000 0.794597 0.097684 0.599228
14.75000000 9.55000019 0.28000000 144 173 97 0.000000 0.000000 0.000000 0.000000 -60.708740 0.000000 248.000000 0.571146 -0.302371 0.763128
14.75000000 9.53999996 0.31000000 144 173 97 0.000000 0.000000 0.000000 0.000000 -60.708740 0.000000 248.000000 0.705066 -0.230835 0.670520
14.76000023 9.53999996 0.30000001 144 173 97 0.000000 0.000000 0.000000 0.000000 -60.708740 0.000000 248.000000 0.569213 0.141189 0.809977
14.76000023 9.53999996 0.30000001 144 173 97 0.000000 0.000000 0.000000 0.000000 -60.708740 0.000000 248.000000 0.569213 0.141189 0.809977
14.76000023 9.55000019 0.31000000 144 173 97 0.000000 0.000000 0.000000 0.000000 -60.708740 0.000000 248.000000 0.365229 -0.137482 0.920710
14.75000000 9.55000019 0.31000000 144 173 97 0.000000 0.000000 0.000000 0.000000 -60.708740 0.000000 248.000000 0.794969 0.261854 0.547227
14.71000004 9.60999966 0.30000001 144 173 97 0.000000 0.000000 0.000000 0.000000 -60.708740 0.000000 248.000000 0.613745 0.004119 0.789493
14.71000004 9.55000019 0.31000000 144 173 97 0.000000 0.000000 0.000000 0.000000 -60.708740 0.000000 248.000000 0.635945 0.432309 0.639283
14.69999981 9.56999969 0.30000001 144 173 97 0.000000 0.000000 0.000000 0.000000 -60.708740 0.000000 248.000000 0.885363 -0.067680 0.459947
14.81999969 9.51000023 0.25999999 144 173 97 0.000000 0.000000 0.000000 0.000000 -60.708740 0.000000 248.000000 0.241039 -0.071188 0.967901
14.84000015 9.50000000 0.25999999 144 173 97 0.000000 0.000000 0.000000 0.000000 -60.708740 0.000000 248.000000 0.512823 0.187985 0.837660
14.85000038 9.48999977 0.25999999 144 173 97 0.000000 0.000000 0.000000 0.000000 -60.708740 0.000000 248.000000 0.474432 -0.045119 0.879135
14.78999996 9.50000000 0.31000000 144 173 97 0.000000 0.000000 0.000000 0.000000 -60.708740 0.000000 248.000000 0.683467 0.067913 0.726816
14.80000019 9.48999977 0.30000001 144 173 97 0.000000 0.000000 0.000000 0.000000 -60.708740 0.000000 248.000000 0.607114 -0.088387 0.789683
14.78999996 9.47999954 0.31000000 144 173 97 0.000000 0.000000 0.000000 0.000000 -60.708740 0.000000 248.000000 0.904381 0.075251 0.420038
14.81000042 9.47999954 0.25999999 144 173 97 0.000000 0.000000 0.000000 0.000000 -60.708740 0.000000 248.000000 0.375315 0.102359 0.921228
14.85000038 9.46000004 0.23000000 144 173 97 0.000000 0.000000 0.000000 0.000000 -60.708740 0.000000 248.000000 0.619642 0.172038 0.765798
14.85000038 9.43000031 0.25000000 144 173 97 0.000000 0.000000 0.000000 0.000000 -60.708740 0.000000 248.000000 0.731113 0.216684 0.646933
14.81999969 9.39999962 0.27000001 144 173 97 0.000000 0.000000 0.000000 0.000000 -60.708740 0.000000 248.000000 0.822007 0.134296 0.553416
14.80000019 9.40999985 0.30000001 144 173 97 0.000000 0.000000 0.000000 0.000000 -60.708740 0.000000 248.000000 0.953193 0.068177 0.294576
14.77999973 9.36999989 0.31000000 144 173 97 0.000000 0.000000 0.000000 0.000000 -60.708740 0.000000 248.000000 0.788418 0.255491 0.559573
14.80000019 9.39999962 0.31000000 144 173 97 0.000000 0.000000 0.000000 0.000000 -60.708740 0.000000 248.000000 0.563060 0.096979 0.820706
14.80000019 9.39999962 0.31000000 144 173 97 0.000000 0.000000 0.000000 0.000000 -60.708740 0.000000 248.000000 0.563060 0.096979 0.820706
14.76000023 9.44999981 0.25000000 144 173 97 0.000000 0.000000 0.000000 0.000000 -60.708740 0.000000 248.000000 0.405803 0.230401 0.884443
14.72999954 9.39000034 0.31000000 144 173 97 0.000000 0.000000 0.000000 0.000000 -60.708740 0.000000 248.000000 0.642093 0.652048 0.403175
14.69999981 9.39999962 0.30000001 144 173 97 0.000000 0.000000 0.000000 0.000000 -60.708740 0.000000 248.000000 0.785474 0.558804 0.266022
14.71000004 9.39000034 0.28000000 144 173 97 0.000000 0.000000 0.000000 0.000000 -60.708740 0.000000 248.000000 0.619299 0.464894 0.632726
14.84000015 9.47999954 0.12000000 144 173 97 0.000000 0.000000 0.000000 0.000000 -60.708740 0.000000 248.000000 0.253981 0.118525 0.959919
14.80000019 9.51000023 0.02000000 144 173 97 0.000000 0.000000 0.000000 0.000000 -60.708740 0.000000 248.000000 0.568504 0.183437 0.801969
14.84000015 9.39000034 0.09000000 144 173 97 0.000000 0.000000 0.000000 0.000000 -60.708740 0.000000 248.000000 0.609674 -0.439299 0.659784
14.77000046 9.39000034 0.03000000 144 173 97 0.000000 0.000000 0.000000 0.000000 -60.708740 0.000000 248.000000 0.483919 -0.434707 0.759507
14.69999981 9.40999985 -0.02000000 144 173 97 0.000000 0.000000 0.000000 0.000000 -60.708740 0.000000 248.000000 0.842456 -0.086954 0.531702
14.97999954 9.25000000 0.50000000 144 173 97 0.000000 0.000000 0.000000 0.000000 -60.708740 0.000000 248.000000 0.379613 0.836409 -0.395365
14.93999958 9.30000019 0.50000000 144 173 97 0.000000 0.000000 0.000000 0.000000 -60.708740 0.000000 248.000000 0.221970 0.856168 -0.466589
14.85999966 9.32999992 0.54000002 144 173 97 0.000000 0.000000 0.000000 0.000000 -60.708740 0.000000 248.000000 0.433513 0.743400 -0.509336
14.85999966 9.31999969 0.51999998 144 173 97 0.000000 0.000000 0.000000 0.000000 -60.708740 0.000000 248.000000 0.838213 0.538341 0.087106
14.85999966 9.35000038 0.49000001 144 173 97 0.000000 0.000000 0.000000 0.000000 -60.708740 0.000000 248.000000 0.732895 0.659758 0.166082
14.89000034 9.35999966 0.49000001 144 173 97 0.000000 0.000000 0.000000 0.000000 -60.708740 0.000000 248.000000 0.814406 0.479155 -0.327344
14.86999989 9.30000019 0.54000002 144 173 97 0.000000 0.000000 0.000000 0.000000 -60.708740 0.000000 248.000000 0.316183 0.916785 -0.243995
14.88000011 9.30000019 0.49000001 144 173 97 0.000000 0.000000 0.000000 0.000000 -60.708740 0.000000 248.000000 0.729864 0.638434 -0.244339
