//X Y Z R G B PointSourceId ScanDirectionFlag NumberOfReturns ReturnNumber GpsTime Intensity Classification Nx Ny Nz
2.36999989 -2.91000009 0.17000000 247 199 32 0.000000 0.000000 0.000000 0.000000 -60.708740 0.000000 229.000000 0.832869 0.482350 -0.271419
2.39000010 -2.93000007 0.16000000 247 199 32 0.000000 0.000000 0.000000 0.000000 -60.708740 0.000000 229.000000 0.943185 0.144793 -0.299059
2.36999989 -2.92000008 0.17000000 247 199 32 0.000000 0.000000 0.000000 0.000000 -60.708740 0.000000 229.000000 0.778122 0.262518 -0.570623
2.36999989 -2.90000010 0.17000000 247 199 32 0.000000 0.000000 0.000000 0.000000 -60.708740 0.000000 229.000000 0.646739 0.623342 -0.439515
2.39000010 -2.92000008 0.16000000 247 199 32 0.000000 0.000000 0.000000 0.000000 -60.708740 0.000000 229.000000 0.881493 0.088289 -0.463870
2.36999989 -2.91000009 0.17000000 247 199 32 0.000000 0.000000 0.000000 0.000000 -60.708740 0.000000 229.000000 0.832869 0.482350 -0.271419
2.39000010 -2.94000006 0.20999999 247 199 32 0.000000 0.000000 0.000000 0.000000 -60.708740 0.000000 229.000000 0.952900 0.222388 -0.206215
2.39000010 -2.94000006 0.20999999 247 199 32 0.000000 0.000000 0.000000 0.000000 -60.708740 0.000000 229.000000 0.952900 0.222388 -0.206215
2.38000011 -2.94000006 0.16000000 247 199 32 0.000000 0.000000 0.000000 0.000000 -60.708740 0.000000 229.000000 0.915038 0.199046 -0.350836
2.39000010 -2.95000005 0.16000000 247 199 32 0.000000 0.000000 0.000000 0.000000 -60.708740 0.000000 229.000000 0.968700 0.160807 -0.189109
2.38000011 -2.94000006 0.16000000 247 199 32 0.000000 0.000000 0.000000 0.000000 -60.708740 0.000000 229.000000 0.915038 0.199046 -0.350836
2.40000010 -2.98000002 0.31000000 247 199 32 0.000000 0.000000 0.000000 0.000000 -60.708740 0.000000 229.000000 0.895756 0.165348 -0.412652
2.40000010 -2.98000002 0.31000000 247 199 32 0.000000 0.000000 0.000000 0.000000 -60.708740 0.000000 229.000000 0.895756 0.165348 -0.412652
2.40000010 -2.98000002 0.31000000 247 199 32 0.000000 0.000000 0.000000 0.000000 -60.708740 0.000000 229.000000 0.895756 0.165348 -0.412652
2.40000010 -2.99000001 0.31000000 247 199 32 0.000000 0.000000 0.000000 0.000000 -60.708740 0.000000 229.000000 0.975083 0.184002 -0.123919
2.40000010 -2.98000002 0.25000000 247 199 32 0.000000 0.000000 0.000000 0.000000 -60.708740 0.000000 229.000000 0.831331 0.405412 -0.380172
2.40000010 -2.99000001 0.25000000 247 199 32 0.000000 0.000000 0.000000 0.000000 -60.708740 0.000000 229.000000 0.930027 0.043166 -0.364947
2.40000010 -3.00999999 0.25000000 247 199 32 0.000000 0.000000 0.000000 0.000000 -60.708740 0.000000 229.000000 0.916284 -0.259107 -0.305428
2.40000010 -3.00999999 0.25999999 247 199 32 0.000000 0.000000 0.000000 0.000000 -60.708740 0.000000 229.000000 0.959218 0.126936 -0.252564
2.40000010 -3.01999998 0.28000000 247 199 32 0.000000 0.000000 0.000000 0.000000 -60.708740 0.000000 229.000000 0.866703 -0.191119 -0.460760
2.40000010 -3.01999998 0.31000000 247 199 32 0.000000 0.000000 0.000000 0.000000 -60.708740 0.000000 229.000000 0.950458 0.031556 -0.309246
2.40000010 -3.03999996 0.30000001 247 199 32 0.000000 0.000000 0.000000 0.000000 -60.708740 0.000000 229.000000 0.716594 0.192633 -0.670362
2.40000010 -3.01999998 0.28000000 247 199 32 0.000000 0.000000 0.000000 0.000000 -60.708740 0.000000 229.000000 0.866703 -0.191119 -0.460760
2.40000010 -3.01999998 0.25999999 247 199 32 0.000000 0.000000 0.000000 0.000000 -60.708740 0.000000 229.000000 0.896507 0.134973 -0.421969
2.40000010 -3.01999998 0.25000000 247 199 32 0.000000 0.000000 0.000000 0.000000 -60.708740 0.000000 229.000000 0.804214 0.209861 -0.556056
2.39000010 -2.98000002 0.30000001 247 199 32 0.000000 0.000000 0.000000 0.000000 -60.708740 0.000000 229.000000 -0.634692 -0.286171 0.717825
2.39000010 -2.98000002 0.30000001 247 199 32 0.000000 0.000000 0.000000 0.000000 -60.708740 0.000000 229.000000 -0.634692 -0.286171 0.717825
2.39000010 -2.99000001 0.28000000 247 199 32 0.000000 0.000000 0.000000 0.000000 -60.708740 0.000000 229.000000 0.816838 0.242426 -0.523456
2.39000010 -3.00999999 0.25000000 247 199 32 0.000000 0.000000 0.000000 0.000000 -60.708740 0.000000 229.000000 0.786627 -0.231178 -0.572516
2.36999989 -2.99000001 0.23999999 247 199 32 0.000000 0.000000 0.000000 0.000000 -60.708740 0.000000 229.000000 0.721943 0.083133 -0.686940
2.39000010 -3.01999998 0.25000000 247 199 32 0.000000 0.000000 0.000000 0.000000 -60.708740 0.000000 229.000000 0.821320 0.020706 -0.570092
2.39000010 -3.01999998 0.27000001 247 199 32 0.000000 0.000000 0.000000 0.000000 -60.708740 0.000000 229.000000 0.944021 -0.210240 -0.254212
2.38000011 -3.01999998 0.23999999 247 199 32 0.000000 0.000000 0.000000 0.000000 -60.708740 0.000000 229.000000 0.880946 0.205111 -0.426455
2.41000009 -2.98000002 0.20000000 247 199 32 0.000000 0.000000 0.000000 0.000000 -60.708740 0.000000 229.000000 0.845402 0.071979 -0.529258
2.41000009 -3.03999996 0.20999999 247 199 32 0.000000 0.000000 0.000000 0.000000 -60.708740 0.000000 229.000000 0.779059 -0.249236 -0.575281
2.42000008 -3.01999998 0.19000000 247 199 32 0.000000 0.000000 0.000000 0.000000 -60.708740 0.000000 229.000000 0.849357 0.170464 -0.499535
2.43000007 -3.04999995 0.19000000 247 199 32 0.000000 0.000000 0.000000 0.000000 -60.708740 0.000000 229.000000 0.859392 -0.228064 -0.457638
2.42000008 -3.01999998 0.17000000 247 199 32 0.000000 0.000000 0.000000 0.000000 -60.708740 0.000000 229.000000 0.965488 -0.116990 -0.232694
2.39000010 -3.00000000 0.20999999 247 199 32 0.000000 0.000000 0.000000 0.000000 -60.708740 0.000000 229.000000 0.989283 0.073065 -0.126415
2.38000011 -2.99000001 0.18000001 247 199 32 0.000000 0.000000 0.000000 0.000000 -60.708740 0.000000 229.000000 0.966143 0.148737 -0.210818
2.39000010 -3.02999997 0.23000000 247 199 32 0.000000 0.000000 0.000000 0.000000 -60.708740 0.000000 229.000000 0.839763 0.048905 -0.540746
2.38000011 -3.01999998 0.23000000 247 199 32 0.000000 0.000000 0.000000 0.000000 -60.708740 0.000000 229.000000 0.969759 -0.025361 -0.242742
2.39000010 -3.01999998 0.15000001 247 199 32 0.000000 0.000000 0.000000 0.000000 -60.708740 0.000000 229.000000 0.659560 0.237693 -0.713080
2.34999990 -2.91000009 0.31000000 247 199 32 0.000000 0.000000 0.000000 0.000000 -60.708740 0.000000 229.000000 0.655436 0.668512 -0.351418
2.34999990 -2.91000009 0.19000000 247 199 32 0.000000 0.000000 0.000000 0.000000 -60.708740 0.000000 229.000000 0.874888 0.333218 -0.351477
2.34999990 -2.90000010 0.23000000 247 199 32 0.000000 0.000000 0.000000 0.000000 -60.708740 0.000000 229.000000 0.886712 0.422174 -0.188444
2.38000011 -2.93000007 0.12000000 247 199 32 0.000000 0.000000 0.000000 0.000000 -60.708740 0.000000 229.000000 0.704944 0.394571 -0.589379
2.38000011 -2.92000008 0.12000000 247 199 32 0.000000 0.000000 0.000000 0.000000 -60.708740 0.000000 229.000000 -0.645523 -0.152688 0.748323
2.35999990 -2.90000010 0.12000000 247 199 32 0.000000 0.000000 0.000000 0.000000 -60.708740 0.000000 229.000000 0.705763 0.430100 -0.562950
2.36999989 -2.90000010 0.08000000 247 199 32 0.000000 0.000000 0.000000 0.000000 -60.708740 0.000000 229.000000 0.723807 0.169142 -0.668950
2.39000010 -2.95000005 0.13000000 247 199 32 0.000000 0.000000 0.000000 0.000000 -60.708740 0.000000 229.000000 0.877694 0.115224 -0.465163
2.36999989 -2.95000005 0.12000000 247 199 32 0.000000 0.000000 0.000000 0.000000 -60.708740 0.000000 229.000000 0.871161 0.370739 -0.321918
2.38000011 -2.95000005 0.13000000 247 199 32 0.000000 0.000000 0.000000 0.000000 -60.708740 0.000000 229.000000 0.854708 0.080526 -0.512825
2.36999989 -2.96000004 0.08000000 247 199 32 0.000000 0.000000 0.000000 0.000000 -60.708740 0.000000 229.000000 0.946800 0.085120 -0.310362
2.35999990 -2.94000006 0.10000000 247 199 32 0.000000 0.000000 0.000000 0.000000 -60.708740 0.000000 229.000000 0.785044 0.191287 -0.589165
2.39000010 -2.97000003 0.07000000 247 199 32 0.000000 0.000000 0.000000 0.000000 -60.708740 0.000000 229.000000 0.841726 0.174304 -0.510995
2.39000010 -2.95000005 0.09000000 247 199 32 0.000000 0.000000 0.000000 0.000000 -60.708740 0.000000 229.000000 0.739608 -0.006938 -0.673002
2.40000010 -2.97000003 0.01000000 247 199 32 0.000000 0.000000 0.000000 0.000000 -60.708740 0.000000 229.000000 0.582324 0.191051 -0.790188
2.36999989 -2.91000009 0.05000000 247 199 32 0.000000 0.000000 0.000000 0.000000 -60.708740 0.000000 229.000000 0.927839 0.201337 -0.313973
2.38000011 -2.93000007 0.06000000 247 199 32 0.000000 0.000000 0.000000 0.000000 -60.708740 0.000000 229.000000 0.708679 0.411331 -0.573220
2.39000010 -2.93000007 -0.02000000 247 199 32 0.000000 0.000000 0.000000 0.000000 -60.708740 0.000000 229.000000 0.607798 0.219180 -0.763245
2.38000011 -2.93000007 0.02000000 247 199 32 0.000000 0.000000 0.000000 0.000000 -60.708740 0.000000 229.000000 0.740708 0.412234 -0.530485
2.36999989 -2.90000010 0.01000000 247 199 32 0.000000 0.000000 0.000000 0.000000 -60.708740 0.000000 229.000000 0.848149 0.246040 -0.469156
2.38000011 -2.95000005 0.06000000 247 199 32 0.000000 0.000000 0.000000 0.000000 -60.708740 0.000000 229.000000 0.841333 0.283543 -0.460176
2.38000011 -2.96000004 0.06000000 247 199 32 0.000000 0.000000 0.000000 0.000000 -60.708740 0.000000 229.000000 0.808861 -0.020740 -0.587634
2.36999989 -2.95000005 -0.02000000 247 199 32 0.000000 0.000000 0.000000 0.000000 -60.708740 0.000000 229.000000 0.913934 -0.009075 -0.405761
2.38000011 -2.94000006 -0.01000000 247 199 32 0.000000 0.000000 0.000000 0.000000 -60.708740 0.000000 229.000000 0.748906 0.189149 -0.635109
2.41000009 -2.99000001 0.11000000 247 199 32 0.000000 0.000000 0.000000 0.000000 -60.708740 0.000000 229.000000 0.905032 -0.080782 -0.417602
2.41000009 -2.99000001 0.11000000 247 199 32 0.000000 0.000000 0.000000 0.000000 -60.708740 0.000000 229.000000 0.905032 -0.080782 -0.417602
2.41000009 -2.99000001 0.08000000 247 199 32 0.000000 0.000000 0.000000 0.000000 -60.708740 0.000000 229.000000 0.828484 -0.105918 -0.549905
2.41000009 -2.98000002 0.08000000 247 199 32 0.000000 0.000000 0.000000 0.000000 -60.708740 0.000000 229.000000 0.782362 0.038061 -0.621660
2.40000010 -2.98000002 0.08000000 247 199 32 0.000000 0.000000 0.000000 0.000000 -60.708740 0.000000 229.000000 0.674949 0.312386 -0.668475
2.40000010 -3.01999998 0.12000000 247 199 32 0.000000 0.000000 0.000000 0.000000 -60.708740 0.000000 229.000000 -0.695922 -0.199942 0.689722
2.40000010 -3.04999995 0.10000000 247 199 32 0.000000 0.000000 0.000000 0.000000 -60.708740 0.000000 229.000000 -0.639429 0.067535 0.765878
2.40000010 -3.02999997 0.08000000 247 199 32 0.000000 0.000000 0.000000 0.000000 -60.708740 0.000000 229.000000 0.786666 0.138823 -0.601568
2.40000010 -3.02999997 0.08000000 247 199 32 0.000000 0.000000 0.000000 0.000000 -60.708740 0.000000 229.000000 0.786666 0.138823 -0.601568
2.39000010 -2.99000001 0.13000000 247 199 32 0.000000 0.000000 0.000000 0.000000 -60.708740 0.000000 229.000000 0.836281 0.191365 -0.513823
2.39000010 -3.00000000 0.13000000 247 199 32 0.000000 0.000000 0.000000 0.000000 -60.708740 0.000000 229.000000 0.754401 0.162416 -0.636004
2.39000010 -2.99000001 0.07000000 247 199 32 0.000000 0.000000 0.000000 0.000000 -60.708740 0.000000 229.000000 -0.661251 -0.041063 0.749040
2.39000010 -2.98000002 0.07000000 247 199 32 0.000000 0.000000 0.000000 0.000000 -60.708740 0.000000 229.000000 0.689297 0.213168 -0.692409
2.39000010 -3.02999997 0.10000000 247 199 32 0.000000 0.000000 0.000000 0.000000 -60.708740 0.000000 229.000000 0.785947 0.261982 -0.560046
2.41000009 -3.00000000 0.03000000 247 199 32 0.000000 0.000000 0.000000 0.000000 -60.708740 0.000000 229.000000 0.755099 0.079713 -0.650747
2.40000010 -3.00999999 0.02000000 247 199 32 0.000000 0.000000 0.000000 0.000000 -60.708740 0.000000 229.000000 0.896633 -0.345315 -0.277141
2.40000010 -3.00999999 0.02000000 247 199 32 0.000000 0.000000 0.000000 0.000000 -60.708740 0.000000 229.000000 0.896633 -0.345315 -0.277141
2.41000009 -3.01999998 0.05000000 247 199 32 0.000000 0.000000 0.000000 0.000000 -60.708740 0.000000 229.000000 -0.599205 0.058355 0.798466
2.34999990 -2.90000010 0.03000000 247 199 32 0.000000 0.000000 0.000000 0.000000 -60.708740 0.000000 229.000000 0.835820 0.454624 -0.307769
2.34999990 -2.90000010 0.02000000 247 199 32 0.000000 0.000000 0.000000 0.000000 -60.708740 0.000000 229.000000 0.826129 0.215313 -0.520721
2.30999994 -3.23000002 0.92000002 247 199 32 0.000000 0.000000 0.000000 0.000000 -60.708740 0.000000 229.000000 0.196238 0.978780 -0.058992
2.31999993 -3.24000001 0.86000001 247 199 32 0.000000 0.000000 0.000000 0.000000 -60.708740 0.000000 229.000000 0.299275 0.931545 -0.206542
2.29999995 -3.23000002 0.82999998 247 199 32 0.000000 0.000000 0.000000 0.000000 -60.708740 0.000000 229.000000 0.028804 0.997465 -0.065075
2.29999995 -3.24000001 0.77999997 247 199 32 0.000000 0.000000 0.000000 0.000000 -60.708740 0.000000 229.000000 -0.031013 0.986685 -0.159661
2.28999996 -3.23000002 0.77999997 247 199 32 0.000000 0.000000 0.000000 0.000000 -60.708740 0.000000 229.000000 -0.003282 0.992323 0.123630
2.28999996 -3.23000002 0.75999999 247 199 32 0.000000 0.000000 0.000000 0.000000 -60.708740 0.000000 229.000000 0.177528 0.977023 -0.117938
2.28999996 -3.23000002 0.75999999 247 199 32 0.000000 0.000000 0.000000 0.000000 -60.708740 0.000000 229.000000 0.177528 0.977023 -0.117938
2.29999995 -3.23000002 0.75999999 247 199 32 0.000000 0.000000 0.000000 0.000000 -60.708740 0.000000 229.000000 0.030217 0.915709 0.400705
2.33999991 -3.24000001 0.67000002 247 199 32 0.000000 0.000000 0.000000 0.000000 -60.708740 0.000000 229.000000 0.057098 0.986987 0.150320
2.31999993 -3.23000002 0.68000001 247 199 32 0.000000 0.000000 0.000000 0.000000 -60.708740 0.000000 229.000000 -0.041796 0.896592 0.440881
2.29999995 -3.24000001 0.69999999 247 199 32 0.000000 0.000000 0.000000 0.000000 -60.708740 0.000000 229.000000 0.114741 0.963049 -0.243663
2.29999995 -3.24000001 0.70999998 247 199 32 0.000000 0.000000 0.000000 0.000000 -60.708740 0.000000 229.000000 0.218329 0.895295 0.388303
2.30999994 -3.24000001 0.69000000 247 199 32 0.000000 0.000000 0.000000 0.000000 -60.708740 0.000000 229.000000 -0.196109 0.880279 0.432030
2.29999995 -3.27999997 0.69000000 247 199 32 0.000000 0.000000 0.000000 0.000000 -60.708740 0.000000 229.000000 0.030186 0.971999 0.233038
2.27999997 -3.27999997 0.66000003 247 199 32 0.000000 0.000000 0.000000 0.000000 -60.708740 0.000000 229.000000 -0.118308 0.985904 0.118308
2.44000006 -3.06999993 0.55000001 247 199 32 0.000000 0.000000 0.000000 0.000000 -60.708740 0.000000 229.000000 0.878948 0.218622 -0.423858
2.42000008 -3.05999994 0.58999997 247 199 32 0.000000 0.000000 0.000000 0.000000 -60.708740 0.000000 229.000000 0.743279 -0.479588 -0.466403
2.42000008 -3.05999994 0.60000002 247 199 32 0.000000 0.000000 0.000000 0.000000 -60.708740 0.000000 229.000000 0.953670 -0.167193 -0.250121
2.42000008 -3.05999994 0.60000002 247 199 32 0.000000 0.000000 0.000000 0.000000 -60.708740 0.000000 229.000000 0.953670 -0.167193 -0.250121
2.42000008 -3.06999993 0.60000002 247 199 32 0.000000 0.000000 0.000000 0.000000 -60.708740 0.000000 229.000000 0.973505 -0.075265 -0.215923
2.40000010 -3.05999994 0.50000000 247 199 32 0.000000 0.000000 0.000000 0.000000 -60.708740 0.000000 229.000000 0.911811 -0.150794 -0.381918
2.39000010 -3.08999991 0.49000001 247 199 32 0.000000 0.000000 0.000000 0.000000 -60.708740 0.000000 229.000000 0.930924 -0.014085 -0.364942
2.39000010 -3.06999993 0.50000000 247 199 32 0.000000 0.000000 0.000000 0.000000 -60.708740 0.000000 229.000000 0.924238 -0.032682 -0.380415
2.31999993 -3.20000005 0.57999998 247 199 32 0.000000 0.000000 0.000000 0.000000 -60.708740 0.000000 229.000000 -0.510356 0.614786 0.601311
2.30999994 -3.20000005 0.58999997 247 199 32 0.000000 0.000000 0.000000 0.000000 -60.708740 0.000000 229.000000 -0.490670 0.808255 0.325525
2.31999993 -3.22000003 0.50999999 247 199 32 0.000000 0.000000 0.000000 0.000000 -60.708740 0.000000 229.000000 0.729501 -0.641647 -0.236892
2.41000009 -3.08999991 0.46000001 247 199 32 0.000000 0.000000 0.000000 0.000000 -60.708740 0.000000 229.000000 -0.706672 0.372192 0.601737
2.40000010 -3.07999992 0.44999999 247 199 32 0.000000 0.000000 0.000000 0.000000 -60.708740 0.000000 229.000000 0.756244 -0.333779 -0.562749
2.40000010 -3.06999993 0.47999999 247 199 32 0.000000 0.000000 0.000000 0.000000 -60.708740 0.000000 229.000000 0.795970 -0.125524 -0.592178
2.41000009 -3.08999991 0.44999999 247 199 32 0.000000 0.000000 0.000000 0.000000 -60.708740 0.000000 229.000000 0.852472 0.068816 -0.518224
2.40000010 -3.07999992 0.44999999 247 199 32 0.000000 0.000000 0.000000 0.000000 -60.708740 0.000000 229.000000 0.756244 -0.333779 -0.562749
2.40000010 -3.06999993 0.44999999 247 199 32 0.000000 0.000000 0.000000 0.000000 -60.708740 0.000000 229.000000 0.806436 -0.109769 -0.581044
2.40000010 -3.08999991 0.44000000 247 199 32 0.000000 0.000000 0.000000 0.000000 -60.708740 0.000000 229.000000 0.888110 -0.341118 -0.308058
2.40000010 -3.09999990 0.40000001 247 199 32 0.000000 0.000000 0.000000 0.000000 -60.708740 0.000000 229.000000 0.937808 -0.310777 -0.154704
2.40000010 -3.08999991 0.44000000 247 199 32 0.000000 0.000000 0.000000 0.000000 -60.708740 0.000000 229.000000 0.888110 -0.341118 -0.308058
2.38000011 -3.08999991 0.46000001 247 199 32 0.000000 0.000000 0.000000 0.000000 -60.708740 0.000000 229.000000 0.542139 -0.511927 -0.666345
2.39000010 -3.09999990 0.47000000 247 199 32 0.000000 0.000000 0.000000 0.000000 -60.708740 0.000000 229.000000 -0.556401 0.230929 0.798179
2.38000011 -3.08999991 0.46000001 247 199 32 0.000000 0.000000 0.000000 0.000000 -60.708740 0.000000 229.000000 0.542139 -0.511927 -0.666345
2.39000010 -3.05999994 0.41999999 247 199 32 0.000000 0.000000 0.000000 0.000000 -60.708740 0.000000 229.000000 0.921634 -0.128504 -0.366166
2.39000010 -3.06999993 0.41999999 247 199 32 0.000000 0.000000 0.000000 0.000000 -60.708740 0.000000 229.000000 0.972887 -0.020293 -0.230389
2.38000011 -3.10999990 0.47000000 247 199 32 0.000000 0.000000 0.000000 0.000000 -60.708740 0.000000 229.000000 0.876819 -0.377078 -0.298330
2.39000010 -3.10999990 0.47000000 247 199 32 0.000000 0.000000 0.000000 0.000000 -60.708740 0.000000 229.000000 0.454161 -0.550650 -0.700373
2.41000009 -3.06999993 0.38999999 247 199 32 0.000000 0.000000 0.000000 0.000000 -60.708740 0.000000 229.000000 0.758853 -0.548510 -0.351111
2.42000008 -3.05999994 0.36000001 247 199 32 0.000000 0.000000 0.000000 0.000000 -60.708740 0.000000 229.000000 0.667853 -0.456952 -0.587510
2.42000008 -3.05999994 0.36000001 247 199 32 0.000000 0.000000 0.000000 0.000000 -60.708740 0.000000 229.000000 0.667853 -0.456952 -0.587510
2.40000010 -3.09999990 0.38999999 247 199 32 0.000000 0.000000 0.000000 0.000000 -60.708740 0.000000 229.000000 0.797059 -0.151037 -0.584709
2.40000010 -3.14000010 0.37000000 247 199 32 0.000000 0.000000 0.000000 0.000000 -60.708740 0.000000 229.000000 0.579694 -0.532372 -0.616875
2.39000010 -3.08999991 0.38000000 247 199 32 0.000000 0.000000 0.000000 0.000000 -60.708740 0.000000 229.000000 0.902009 -0.247869 -0.353470
2.38000011 -3.07999992 0.33000001 247 199 32 0.000000 0.000000 0.000000 0.000000 -60.708740 0.000000 229.000000 0.838823 -0.409220 -0.359048
2.35999990 -3.13000011 0.36000001 247 199 32 0.000000 0.000000 0.000000 0.000000 -60.708740 0.000000 229.000000 0.759572 -0.570081 -0.313143
2.39000010 -3.11999989 0.31999999 247 199 32 0.000000 0.000000 0.000000 0.000000 -60.708740 0.000000 229.000000 0.534489 -0.649143 -0.541234
2.35999990 -3.17000008 0.38000000 247 199 32 0.000000 0.000000 0.000000 0.000000 -60.708740 0.000000 229.000000 -0.446106 0.857194 0.257310
2.32999992 -3.18000007 0.43000001 247 199 32 0.000000 0.000000 0.000000 0.000000 -60.708740 0.000000 229.000000 0.821987 -0.383170 -0.421328
2.31999993 -3.21000004 0.41999999 247 199 32 0.000000 0.000000 0.000000 0.000000 -60.708740 0.000000 229.000000 -0.510658 0.645485 0.567959
2.30999994 -3.22000003 0.46000001 247 199 32 0.000000 0.000000 0.000000 0.000000 -60.708740 0.000000 229.000000 -0.663062 0.713223 0.227291
2.32999992 -3.21000004 0.36000001 247 199 32 0.000000 0.000000 0.000000 0.000000 -60.708740 0.000000 229.000000 0.808941 -0.571454 -0.138039
2.33999991 -3.25000000 0.63000000 247 199 32 0.000000 0.000000 0.000000 0.000000 -60.708740 0.000000 229.000000 -0.038380 0.998927 0.025933
2.26999998 -3.25000000 0.64999998 247 199 32 0.000000 0.000000 0.000000 0.000000 -60.708740 0.000000 229.000000 -0.055523 0.984062 0.168933
2.26999998 -3.25000000 0.64999998 247 199 32 0.000000 0.000000 0.000000 0.000000 -60.708740 0.000000 229.000000 -0.055523 0.984062 0.168933
2.31999993 -3.23000002 0.50999999 247 199 32 0.000000 0.000000 0.000000 0.000000 -60.708740 0.000000 229.000000 0.718160 -0.655302 -0.234149
2.26999998 -3.25999999 0.51999998 247 199 32 0.000000 0.000000 0.000000 0.000000 -60.708740 0.000000 229.000000 -0.447069 0.744015 0.496560
2.26999998 -3.25999999 0.50999999 247 199 32 0.000000 0.000000 0.000000 0.000000 -60.708740 0.000000 229.000000 -0.194470 0.865466 0.461681
2.26999998 -3.25000000 0.50000000 247 199 32 0.000000 0.000000 0.000000 0.000000 -60.708740 0.000000 229.000000 -0.144990 0.986642 0.074263
2.27999997 -3.25000000 0.41000000 247 199 32 0.000000 0.000000 0.000000 0.000000 -60.708740 0.000000 229.000000 -0.232883 0.847815 0.476420
2.27999997 -3.25000000 0.41999999 247 199 32 0.000000 0.000000 0.000000 0.000000 -60.708740 0.000000 229.000000 -0.168342 0.896386 0.410064
2.27999997 -3.25999999 0.44000000 247 199 32 0.000000 0.000000 0.000000 0.000000 -60.708740 0.000000 229.000000 -0.392301 0.821133 0.414537
2.28999996 -3.23000002 0.41000000 247 199 32 0.000000 0.000000 0.000000 0.000000 -60.708740 0.000000 229.000000 -0.416390 0.870634 0.261947
2.29999995 -3.24000001 0.41999999 247 199 32 0.000000 0.000000 0.000000 0.000000 -60.708740 0.000000 229.000000 -0.561804 0.771883 0.297613
2.28999996 -3.25999999 0.37000000 247 199 32 0.000000 0.000000 0.000000 0.000000 -60.708740 0.000000 229.000000 0.649272 -0.738297 -0.182656
2.29999995 -3.23000002 0.36000001 247 199 32 0.000000 0.000000 0.000000 0.000000 -60.708740 0.000000 229.000000 0.669051 -0.642749 -0.373156
2.30999994 -3.23000002 0.38000000 247 199 32 0.000000 0.000000 0.000000 0.000000 -60.708740 0.000000 229.000000 0.679680 -0.528640 -0.508502
2.29999995 -3.24000001 0.37000000 247 199 32 0.000000 0.000000 0.000000 0.000000 -60.708740 0.000000 229.000000 -0.678839 0.706673 0.199477
2.30999994 -3.23000002 0.36000001 247 199 32 0.000000 0.000000 0.000000 0.000000 -60.708740 0.000000 229.000000 -0.718621 0.628592 0.297416
2.29999995 -3.24000001 0.36000001 247 199 32 0.000000 0.000000 0.000000 0.000000 -60.708740 0.000000 229.000000 0.674150 -0.677368 -0.294438
2.28999996 -3.24000001 0.36000001 247 199 32 0.000000 0.000000 0.000000 0.000000 -60.708740 0.000000 229.000000 -0.562344 0.659705 0.498556
2.27999997 -3.24000001 0.36000001 247 199 32 0.000000 0.000000 0.000000 0.000000 -60.708740 0.000000 229.000000 -0.431559 0.678165 0.594852
2.27999997 -3.25000000 0.34000000 247 199 32 0.000000 0.000000 0.000000 0.000000 -60.708740 0.000000 229.000000 -0.401722 0.808246 0.430531
2.42000008 -3.09999990 0.28000000 247 199 32 0.000000 0.000000 0.000000 0.000000 -60.708740 0.000000 229.000000 0.807844 -0.066964 -0.585580
2.40000010 -3.08999991 0.30000001 247 199 32 0.000000 0.000000 0.000000 0.000000 -60.708740 0.000000 229.000000 0.827468 -0.345172 -0.442892
2.39000010 -3.13000011 0.23999999 247 199 32 0.000000 0.000000 0.000000 0.000000 -60.708740 0.000000 229.000000 0.591064 -0.510235 -0.624743
2.38000011 -3.11999989 0.23999999 247 199 32 0.000000 0.000000 0.000000 0.000000 -60.708740 0.000000 229.000000 -0.572385 0.238624 0.784496
2.38000011 -3.11999989 0.23999999 247 199 32 0.000000 0.000000 0.000000 0.000000 -60.708740 0.000000 229.000000 -0.572385 0.238624 0.784496
2.41000009 -3.08999991 0.22000000 247 199 32 0.000000 0.000000 0.000000 0.000000 -60.708740 0.000000 229.000000 0.752088 -0.522693 -0.401441
2.41000009 -3.07999992 0.19000000 247 199 32 0.000000 0.000000 0.000000 0.000000 -60.708740 0.000000 229.000000 0.779239 -0.418088 -0.466893
2.40000010 -3.09999990 0.20999999 247 199 32 0.000000 0.000000 0.000000 0.000000 -60.708740 0.000000 229.000000 0.681541 -0.520785 -0.514086
2.41000009 -3.08999991 0.20999999 247 199 32 0.000000 0.000000 0.000000 0.000000 -60.708740 0.000000 229.000000 -0.542364 0.475611 0.692557
2.42000008 -3.05999994 0.19000000 247 199 32 0.000000 0.000000 0.000000 0.000000 -60.708740 0.000000 229.000000 0.679627 -0.391902 -0.620097
2.41000009 -3.08999991 0.20999999 247 199 32 0.000000 0.000000 0.000000 0.000000 -60.708740 0.000000 229.000000 -0.542364 0.475611 0.692557
2.42000008 -3.08999991 0.17000000 247 199 32 0.000000 0.000000 0.000000 0.000000 -60.708740 0.000000 229.000000 0.761088 -0.533898 -0.368373
2.39000010 -3.06999993 0.22000000 247 199 32 0.000000 0.000000 0.000000 0.000000 -60.708740 0.000000 229.000000 0.869519 -0.284764 -0.403542
2.38000011 -3.05999994 0.20999999 247 199 32 0.000000 0.000000 0.000000 0.000000 -60.708740 0.000000 229.000000 0.698423 0.023890 -0.715286
2.39000010 -3.07999992 0.18000001 247 199 32 0.000000 0.000000 0.000000 0.000000 -60.708740 0.000000 229.000000 0.822255 -0.208996 -0.529355
2.39000010 -3.07999992 0.18000001 247 199 32 0.000000 0.000000 0.000000 0.000000 -60.708740 0.000000 229.000000 0.822255 -0.208996 -0.529355
2.39000010 -3.11999989 0.15000001 247 199 32 0.000000 0.000000 0.000000 0.000000 -60.708740 0.000000 229.000000 0.554767 -0.544649 -0.628960
2.39000010 -3.10999990 0.15000001 247 199 32 0.000000 0.000000 0.000000 0.000000 -60.708740 0.000000 229.000000 0.523036 -0.529764 -0.667670
2.38000011 -3.10999990 0.15000001 247 199 32 0.000000 0.000000 0.000000 0.000000 -60.708740 0.000000 229.000000 0.507051 -0.567695 -0.648554
2.30999994 -3.20000005 0.23999999 247 199 32 0.000000 0.000000 0.000000 0.000000 -60.708740 0.000000 229.000000 0.861529 -0.478627 -0.169360
2.31999993 -3.22000003 0.20000000 247 199 32 0.000000 0.000000 0.000000 0.000000 -60.708740 0.000000 229.000000 0.783855 -0.373341 -0.496172
2.33999991 -3.19000006 0.22000000 247 199 32 0.000000 0.000000 0.000000 0.000000 -60.708740 0.000000 229.000000 0.862257 -0.343977 -0.371742
2.33999991 -3.20000005 0.15000001 247 199 32 0.000000 0.000000 0.000000 0.000000 -60.708740 0.000000 229.000000 0.883698 -0.415945 -0.214634
2.33999991 -3.19000006 0.17000000 247 199 32 0.000000 0.000000 0.000000 0.000000 -60.708740 0.000000 229.000000 0.914427 -0.205280 -0.348832
2.39000010 -3.07999992 0.12000000 247 199 32 0.000000 0.000000 0.000000 0.000000 -60.708740 0.000000 229.000000 0.834092 -0.493082 -0.247309
2.36999989 -3.09999990 0.13000000 247 199 32 0.000000 0.000000 0.000000 0.000000 -60.708740 0.000000 229.000000 0.772222 -0.465292 -0.432640
2.39000010 -3.05999994 0.11000000 247 199 32 0.000000 0.000000 0.000000 0.000000 -60.708740 0.000000 229.000000 0.890213 -0.371295 -0.263933
2.39000010 -3.05999994 0.14000000 247 199 32 0.000000 0.000000 0.000000 0.000000 -60.708740 0.000000 229.000000 0.723583 -0.012548 -0.690123
2.36999989 -3.10999990 0.14000000 247 199 32 0.000000 0.000000 0.000000 0.000000 -60.708740 0.000000 229.000000 -0.568263 0.248909 0.784297
2.39000010 -3.10999990 0.14000000 247 199 32 0.000000 0.000000 0.000000 0.000000 -60.708740 0.000000 229.000000 0.742832 -0.391913 -0.542775
2.39000010 -3.10999990 0.14000000 247 199 32 0.000000 0.000000 0.000000 0.000000 -60.708740 0.000000 229.000000 0.742832 -0.391913 -0.542775
2.39000010 -3.13000011 0.13000000 247 199 32 0.000000 0.000000 0.000000 0.000000 -60.708740 0.000000 229.000000 0.640022 -0.376774 -0.669637
2.40000010 -3.09999990 0.04000000 247 199 32 0.000000 0.000000 0.000000 0.000000 -60.708740 0.000000 229.000000 0.759462 -0.058640 -0.647903
2.40000010 -3.05999994 0.02000000 247 199 32 0.000000 0.000000 0.000000 0.000000 -60.708740 0.000000 229.000000 0.710387 -0.567978 -0.415634
2.40000010 -3.06999993 -0.01000000 247 199 32 0.000000 0.000000 0.000000 0.000000 -60.708740 0.000000 229.000000 0.749813 -0.534180 -0.390425
2.40000010 -3.06999993 -0.02000000 247 199 32 0.000000 0.000000 0.000000 0.000000 -60.708740 0.000000 229.000000 0.630276 -0.304660 -0.714097
2.40000010 -3.10999990 0.04000000 247 199 32 0.000000 0.000000 0.000000 0.000000 -60.708740 0.000000 229.000000 -0.628500 0.178916 0.756952
2.41000009 -3.13000011 -0.01000000 247 199 32 0.000000 0.000000 0.000000 0.000000 -60.708740 0.000000 229.000000 0.669278 -0.348548 -0.656187
2.38000011 -3.14000010 -0.02000000 247 199 32 0.000000 0.000000 0.000000 0.000000 -60.708740 0.000000 229.000000 0.592293 -0.645985 -0.481552
2.35999990 -3.14000010 -0.01000000 247 199 32 0.000000 0.000000 0.000000 0.000000 -60.708740 0.000000 229.000000 0.615842 -0.507859 -0.602344
2.35999990 -3.16000009 0.09000000 247 199 32 0.000000 0.000000 0.000000 0.000000 -60.708740 0.000000 229.000000 -0.532343 0.416975 0.736711
2.35999990 -3.16000009 0.09000000 247 199 32 0.000000 0.000000 0.000000 0.000000 -60.708740 0.000000 229.000000 -0.532343 0.416975 0.736711
2.35999990 -3.20000005 0.04000000 247 199 32 0.000000 0.000000 0.000000 0.000000 -60.708740 0.000000 229.000000 -0.549655 0.322101 0.770799
2.34999990 -3.18000007 0.12000000 247 199 32 0.000000 0.000000 0.000000 0.000000 -60.708740 0.000000 229.000000 -0.472811 0.556347 0.683321
2.33999991 -3.18000007 0.08000000 247 199 32 0.000000 0.000000 0.000000 0.000000 -60.708740 0.000000 229.000000 -0.368631 0.706133 0.604555
2.33999991 -3.20000005 0.13000000 247 199 32 0.000000 0.000000 0.000000 0.000000 -60.708740 0.000000 229.000000 0.813427 -0.351795 -0.463224
2.31999993 -3.19000006 0.10000000 247 199 32 0.000000 0.000000 0.000000 0.000000 -60.708740 0.000000 229.000000 -0.412902 0.615208 0.671588
2.34999990 -3.19000006 0.09000000 247 199 32 0.000000 0.000000 0.000000 0.000000 -60.708740 0.000000 229.000000 0.780379 -0.308002 -0.544191
2.34999990 -3.20000005 0.07000000 247 199 32 0.000000 0.000000 0.000000 0.000000 -60.708740 0.000000 229.000000 0.409244 -0.588185 -0.697537
2.34999990 -3.20000005 0.07000000 247 199 32 0.000000 0.000000 0.000000 0.000000 -60.708740 0.000000 229.000000 0.409244 -0.588185 -0.697537
2.30999994 -3.20000005 0.11000000 247 199 32 0.000000 0.000000 0.000000 0.000000 -60.708740 0.000000 229.000000 0.747303 -0.348525 -0.565746
2.34999990 -3.16000009 0.04000000 247 199 32 0.000000 0.000000 0.000000 0.000000 -60.708740 0.000000 229.000000 -0.460879 0.735093 0.497221
2.34999990 -3.16000009 0.04000000 247 199 32 0.000000 0.000000 0.000000 0.000000 -60.708740 0.000000 229.000000 -0.460879 0.735093 0.497221
2.31999993 -3.22000003 0.06000000 247 199 32 0.000000 0.000000 0.000000 0.000000 -60.708740 0.000000 229.000000 0.631026 -0.329301 -0.702401
2.33999991 -3.20000005 0.05000000 247 199 32 0.000000 0.000000 0.000000 0.000000 -60.708740 0.000000 229.000000 0.923547 -0.287803 -0.253438
2.31999993 -3.23000002 0.25999999 247 199 32 0.000000 0.000000 0.000000 0.000000 -60.708740 0.000000 229.000000 0.720063 -0.360848 -0.592705
2.30999994 -3.23000002 0.31000000 247 199 32 0.000000 0.000000 0.000000 0.000000 -60.708740 0.000000 229.000000 0.613958 -0.556453 -0.559835
2.28999996 -3.23000002 0.30000001 247 199 32 0.000000 0.000000 0.000000 0.000000 -60.708740 0.000000 229.000000 0.807991 -0.526679 -0.264121
2.29999995 -3.24000001 0.30000001 247 199 32 0.000000 0.000000 0.000000 0.000000 -60.708740 0.000000 229.000000 -0.662048 0.715262 0.223813
2.26999998 -3.24000001 0.28000000 247 199 32 0.000000 0.000000 0.000000 0.000000 -60.708740 0.000000 229.000000 -0.662073 0.665343 0.344932
2.30999994 -3.23000002 0.25999999 247 199 32 0.000000 0.000000 0.000000 0.000000 -60.708740 0.000000 229.000000 -0.425341 0.500885 0.753790
2.28999996 -3.25999999 0.25999999 247 199 32 0.000000 0.000000 0.000000 0.000000 -60.708740 0.000000 229.000000 -0.659401 0.585575 0.471480
2.30999994 -3.23000002 0.25000000 247 199 32 0.000000 0.000000 0.000000 0.000000 -60.708740 0.000000 229.000000 0.813124 -0.536447 -0.225953
2.28999996 -3.24000001 0.23999999 247 199 32 0.000000 0.000000 0.000000 0.000000 -60.708740 0.000000 229.000000 -0.641100 0.714642 0.279782
2.26999998 -3.27999997 0.28000000 247 199 32 0.000000 0.000000 0.000000 0.000000 -60.708740 0.000000 229.000000 -0.630074 0.666456 0.398551
2.27999997 -3.26999998 0.28999999 247 199 32 0.000000 0.000000 0.000000 0.000000 -60.708740 0.000000 229.000000 0.693456 -0.671240 -0.261831
2.27999997 -3.26999998 0.28000000 247 199 32 0.000000 0.000000 0.000000 0.000000 -60.708740 0.000000 229.000000 0.683736 -0.708210 -0.175905
2.30999994 -3.24000001 0.22000000 247 199 32 0.000000 0.000000 0.000000 0.000000 -60.708740 0.000000 229.000000 -0.489833 0.637961 0.594196
2.27999997 -3.25000000 0.20999999 247 199 32 0.000000 0.000000 0.000000 0.000000 -60.708740 0.000000 229.000000 -0.677677 0.641578 0.359349
2.28999996 -3.23000002 0.19000000 247 199 32 0.000000 0.000000 0.000000 0.000000 -60.708740 0.000000 229.000000 -0.651091 0.734209 0.192403
2.27999997 -3.25000000 0.20999999 247 199 32 0.000000 0.000000 0.000000 0.000000 -60.708740 0.000000 229.000000 -0.677677 0.641578 0.359349
2.27999997 -3.25000000 0.18000001 247 199 32 0.000000 0.000000 0.000000 0.000000 -60.708740 0.000000 229.000000 0.627555 -0.446819 -0.637595
2.29999995 -3.23000002 0.15000001 247 199 32 0.000000 0.000000 0.000000 0.000000 -60.708740 0.000000 229.000000 0.852777 -0.468043 -0.231749
2.28999996 -3.25999999 0.16000000 247 199 32 0.000000 0.000000 0.000000 0.000000 -60.708740 0.000000 229.000000 0.790933 -0.523575 -0.316692
2.26999998 -3.26999998 0.20999999 247 199 32 0.000000 0.000000 0.000000 0.000000 -60.708740 0.000000 229.000000 0.650200 -0.707712 -0.276375
2.27999997 -3.26999998 0.19000000 247 199 32 0.000000 0.000000 0.000000 0.000000 -60.708740 0.000000 229.000000 0.706035 -0.668296 -0.234297
2.33999991 -3.23000002 0.12000000 247 199 32 0.000000 0.000000 0.000000 0.000000 -60.708740 0.000000 229.000000 -0.502942 0.376802 0.777862
2.31999993 -3.23000002 0.09000000 247 199 32 0.000000 0.000000 0.000000 0.000000 -60.708740 0.000000 229.000000 0.642617 -0.406825 -0.649259
2.31999993 -3.23000002 0.09000000 247 199 32 0.000000 0.000000 0.000000 0.000000 -60.708740 0.000000 229.000000 0.642617 -0.406825 -0.649259
2.33999991 -3.23000002 0.07000000 247 199 32 0.000000 0.000000 0.000000 0.000000 -60.708740 0.000000 229.000000 0.827370 -0.241894 -0.506899
2.26999998 -3.25000000 0.11000000 247 199 32 0.000000 0.000000 0.000000 0.000000 -60.708740 0.000000 229.000000 -0.569085 0.714242 0.407432
2.29999995 -3.28999996 0.08000000 247 199 32 0.000000 0.000000 0.000000 0.000000 -60.708740 0.000000 229.000000 -0.318205 0.621872 0.715557
2.28999996 -3.25000000 0.05000000 247 199 32 0.000000 0.000000 0.000000 0.000000 -60.708740 0.000000 229.000000 0.701420 -0.609430 -0.369601
2.28999996 -3.25999999 0.03000000 247 199 32 0.000000 0.000000 0.000000 0.000000 -60.708740 0.000000 229.000000 -0.279527 0.688436 0.669268
2.26999998 -3.25000000 0.05000000 247 199 32 0.000000 0.000000 0.000000 0.000000 -60.708740 0.000000 229.000000 -0.545085 0.679260 0.491415
2.28999996 -3.25999999 0.04000000 247 199 32 0.000000 0.000000 0.000000 0.000000 -60.708740 0.000000 229.000000 0.880605 -0.408158 -0.240709
2.26999998 -3.25999999 0.01000000 247 199 32 0.000000 0.000000 0.000000 0.000000 -60.708740 0.000000 229.000000 0.798367 -0.427409 -0.424183
2.22000003 -2.75999999 0.74000001 247 199 32 0.000000 0.000000 0.000000 0.000000 -60.708740 0.000000 229.000000 0.054245 0.858188 0.510462
2.24000001 -2.75999999 0.73000002 247 199 32 0.000000 0.000000 0.000000 0.000000 -60.708740 0.000000 229.000000 0.297559 0.929343 0.218586
2.24000001 -2.75999999 0.73000002 247 199 32 0.000000 0.000000 0.000000 0.000000 -60.708740 0.000000 229.000000 0.297559 0.929343 0.218586
2.23000002 -2.75999999 0.73000002 247 199 32 0.000000 0.000000 0.000000 0.000000 -60.708740 0.000000 229.000000 0.156539 0.929535 0.333857
2.23000002 -2.75000000 0.66000003 247 199 32 0.000000 0.000000 0.000000 0.000000 -60.708740 0.000000 229.000000 0.015061 0.833847 0.551790
2.25999999 -2.76999998 0.67000002 247 199 32 0.000000 0.000000 0.000000 0.000000 -60.708740 0.000000 229.000000 0.235709 0.959953 -0.151433
2.25000000 -2.77999997 0.66000003 247 199 32 0.000000 0.000000 0.000000 0.000000 -60.708740 0.000000 229.000000 0.156956 0.966380 -0.203653
2.24000001 -2.76999998 0.68000001 247 199 32 0.000000 0.000000 0.000000 0.000000 -60.708740 0.000000 229.000000 0.057990 0.983458 -0.171602
2.25999999 -2.76999998 0.67000002 247 199 32 0.000000 0.000000 0.000000 0.000000 -60.708740 0.000000 229.000000 0.235709 0.959953 -0.151433
2.22000003 -2.78999996 0.68000001 247 199 32 0.000000 0.000000 0.000000 0.000000 -60.708740 0.000000 229.000000 0.154298 0.958757 0.238700
2.15000010 -2.77999997 0.67000002 247 199 32 0.000000 0.000000 0.000000 0.000000 -60.708740 0.000000 229.000000 -0.080128 0.995560 -0.049394
2.15000010 -2.77999997 0.67000002 247 199 32 0.000000 0.000000 0.000000 0.000000 -60.708740 0.000000 229.000000 -0.080128 0.995560 -0.049394
2.09999990 -2.75999999 0.67000002 247 199 32 0.000000 0.000000 0.000000 0.000000 -60.708740 0.000000 229.000000 -0.086730 0.935353 0.342918
2.07999992 -2.75999999 0.66000003 247 199 32 0.000000 0.000000 0.000000 0.000000 -60.708740 0.000000 229.000000 -0.257206 0.746370 0.613822
2.07999992 -2.75999999 0.66000003 247 199 32 0.000000 0.000000 0.000000 0.000000 -60.708740 0.000000 229.000000 -0.257206 0.746370 0.613822
2.09999990 -2.77999997 0.66000003 247 199 32 0.000000 0.000000 0.000000 0.000000 -60.708740 0.000000 229.000000 0.442961 -0.656920 -0.610116
1.98000002 -2.81999993 0.67000002 247 199 32 0.000000 0.000000 0.000000 0.000000 -60.708740 0.000000 229.000000 0.521746 -0.485073 -0.701773
1.98000002 -2.81999993 0.67000002 247 199 32 0.000000 0.000000 0.000000 0.000000 -60.708740 0.000000 229.000000 0.521746 -0.485073 -0.701773
1.99000001 -2.84999990 0.69000000 247 199 32 0.000000 0.000000 0.000000 0.000000 -60.708740 0.000000 229.000000 0.599193 -0.481704 -0.639475
1.95000005 -2.82999992 0.66000003 247 199 32 0.000000 0.000000 0.000000 0.000000 -60.708740 0.000000 229.000000 0.724070 -0.367756 -0.583506
1.98000002 -2.92000008 0.69000000 247 199 32 0.000000 0.000000 0.000000 0.000000 -60.708740 0.000000 229.000000 -0.592717 0.225575 0.773177
1.94000006 -3.03999996 0.68000001 247 199 32 0.000000 0.000000 0.000000 0.000000 -60.708740 0.000000 229.000000 0.936607 0.277772 -0.213563
1.92999995 -2.92000008 0.67000002 247 199 32 0.000000 0.000000 0.000000 0.000000 -60.708740 0.000000 229.000000 0.781369 -0.158080 -0.603716
1.91999996 -2.94000006 0.67000002 247 199 32 0.000000 0.000000 0.000000 0.000000 -60.708740 0.000000 229.000000 -0.527164 0.225928 0.819179
1.92999995 -2.94000006 0.68000001 247 199 32 0.000000 0.000000 0.000000 0.000000 -60.708740 0.000000 229.000000 0.732433 0.064753 -0.677753
1.92999995 -3.00999999 0.68000001 247 199 32 0.000000 0.000000 0.000000 0.000000 -60.708740 0.000000 229.000000 -0.618544 0.178691 0.765162
1.92999995 -3.04999995 0.69999999 247 199 32 0.000000 0.000000 0.000000 0.000000 -60.708740 0.000000 229.000000 0.755674 0.243512 -0.607996
1.88999999 -2.98000002 0.67000002 247 199 32 0.000000 0.000000 0.000000 0.000000 -60.708740 0.000000 229.000000 0.736335 -0.104769 -0.668456
2.03999996 -2.71000004 0.01000000 247 199 32 0.000000 0.000000 0.000000 0.000000 -60.708740 0.000000 229.000000 0.680704 0.714207 -0.162943
2.24000001 -2.75000000 0.61000001 247 199 32 0.000000 0.000000 0.000000 0.000000 -60.708740 0.000000 229.000000 0.192736 0.963679 -0.184869
2.23000002 -2.74000001 0.63999999 247 199 32 0.000000 0.000000 0.000000 0.000000 -60.708740 0.000000 229.000000 0.112936 0.976710 -0.182435
2.25999999 -2.79999995 0.57999998 247 199 32 0.000000 0.000000 0.000000 0.000000 -60.708740 0.000000 229.000000 0.265826 0.928258 -0.260140
2.25000000 -2.77999997 0.57999998 247 199 32 0.000000 0.000000 0.000000 0.000000 -60.708740 0.000000 229.000000 0.397537 0.917090 -0.030176
2.25999999 -2.76999998 0.60000002 247 199 32 0.000000 0.000000 0.000000 0.000000 -60.708740 0.000000 229.000000 0.230229 0.930803 -0.283902
2.25000000 -2.76999998 0.58999997 247 199 32 0.000000 0.000000 0.000000 0.000000 -60.708740 0.000000 229.000000 0.239237 0.930051 -0.278874
2.20000005 -2.73000002 0.63999999 247 199 32 0.000000 0.000000 0.000000 0.000000 -60.708740 0.000000 229.000000 0.224619 0.948846 0.221896
2.21000004 -2.75000000 0.58999997 247 199 32 0.000000 0.000000 0.000000 0.000000 -60.708740 0.000000 229.000000 0.200963 0.864887 0.459983
2.20000005 -2.75000000 0.60000002 247 199 32 0.000000 0.000000 0.000000 0.000000 -60.708740 0.000000 229.000000 0.226693 0.966968 0.116548
2.20000005 -2.74000001 0.57999998 247 199 32 0.000000 0.000000 0.000000 0.000000 -60.708740 0.000000 229.000000 0.113179 0.904038 0.412197
2.19000006 -2.75000000 0.58999997 247 199 32 0.000000 0.000000 0.000000 0.000000 -60.708740 0.000000 229.000000 0.260714 0.957697 -0.121841
2.19000006 -2.75000000 0.57999998 247 199 32 0.000000 0.000000 0.000000 0.000000 -60.708740 0.000000 229.000000 0.178152 0.980443 -0.083622
2.22000003 -2.76999998 0.61000001 247 199 32 0.000000 0.000000 0.000000 0.000000 -60.708740 0.000000 229.000000 0.264066 0.959654 -0.096609
2.20000005 -2.76999998 0.64999998 247 199 32 0.000000 0.000000 0.000000 0.000000 -60.708740 0.000000 229.000000 0.083972 0.846837 0.525181
2.22000003 -2.76999998 0.63999999 247 199 32 0.000000 0.000000 0.000000 0.000000 -60.708740 0.000000 229.000000 0.261585 0.872455 0.412791
2.22000003 -2.76999998 0.61000001 247 199 32 0.000000 0.000000 0.000000 0.000000 -60.708740 0.000000 229.000000 0.264066 0.959654 -0.096609
2.19000006 -2.76999998 0.60000002 247 199 32 0.000000 0.000000 0.000000 0.000000 -60.708740 0.000000 229.000000 0.307617 0.950701 0.039243
2.22000003 -2.77999997 0.56999999 247 199 32 0.000000 0.000000 0.000000 0.000000 -60.708740 0.000000 229.000000 0.274655 0.944212 -0.181737
2.22000003 -2.77999997 0.56999999 247 199 32 0.000000 0.000000 0.000000 0.000000 -60.708740 0.000000 229.000000 0.274655 0.944212 -0.181737
2.19000006 -2.76999998 0.60000002 247 199 32 0.000000 0.000000 0.000000 0.000000 -60.708740 0.000000 229.000000 0.307617 0.950701 0.039243
2.23000002 -2.75000000 0.55000001 247 199 32 0.000000 0.000000 0.000000 0.000000 -60.708740 0.000000 229.000000 0.068313 0.981552 -0.178573
2.25000000 -2.75000000 0.56000000 247 199 32 0.000000 0.000000 0.000000 0.000000 -60.708740 0.000000 229.000000 0.415975 0.836658 0.356325
2.24000001 -2.75999999 0.49000001 247 199 32 0.000000 0.000000 0.000000 0.000000 -60.708740 0.000000 229.000000 0.463831 0.853144 -0.238759
2.24000001 -2.75999999 0.50000000 247 199 32 0.000000 0.000000 0.000000 0.000000 -60.708740 0.000000 229.000000 0.471484 0.876819 0.094297
2.24000001 -2.75999999 0.50000000 247 199 32 0.000000 0.000000 0.000000 0.000000 -60.708740 0.000000 229.000000 0.471484 0.876819 0.094297
2.24000001 -2.76999998 0.55000001 247 199 32 0.000000 0.000000 0.000000 0.000000 -60.708740 0.000000 229.000000 0.415770 0.904749 0.092547
2.25000000 -2.76999998 0.55000001 247 199 32 0.000000 0.000000 0.000000 0.000000 -60.708740 0.000000 229.000000 0.250495 0.893779 -0.372037
2.23000002 -2.78999996 0.50000000 247 199 32 0.000000 0.000000 0.000000 0.000000 -60.708740 0.000000 229.000000 0.246003 0.967943 -0.050684
2.24000001 -2.78999996 0.50000000 247 199 32 0.000000 0.000000 0.000000 0.000000 -60.708740 0.000000 229.000000 0.294221 0.937914 -0.183715
2.21000004 -2.75999999 0.52999997 247 199 32 0.000000 0.000000 0.000000 0.000000 -60.708740 0.000000 229.000000 0.360212 0.911293 -0.199480
2.19000006 -2.75000000 0.49000001 247 199 32 0.000000 0.000000 0.000000 0.000000 -60.708740 0.000000 229.000000 -0.079452 0.949519 -0.303481
2.21000004 -2.74000001 0.50999999 247 199 32 0.000000 0.000000 0.000000 0.000000 -60.708740 0.000000 229.000000 0.193950 0.972284 -0.130567
2.19000006 -2.74000001 0.51999998 247 199 32 0.000000 0.000000 0.000000 0.000000 -60.708740 0.000000 229.000000 0.303632 0.935852 0.178852
2.21000004 -2.77999997 0.54000002 247 199 32 0.000000 0.000000 0.000000 0.000000 -60.708740 0.000000 229.000000 0.291085 0.939473 -0.180721
2.25999999 -2.80999994 0.49000001 247 199 32 0.000000 0.000000 0.000000 0.000000 -60.708740 0.000000 229.000000 0.615769 0.728312 -0.300650
2.25000000 -2.80999994 0.56000000 247 199 32 0.000000 0.000000 0.000000 0.000000 -60.708740 0.000000 229.000000 0.336460 0.929071 0.153691
2.25999999 -2.80999994 0.52999997 247 199 32 0.000000 0.000000 0.000000 0.000000 -60.708740 0.000000 229.000000 0.256550 0.945257 -0.201673
2.16000009 -2.75000000 0.64999998 247 199 32 0.000000 0.000000 0.000000 0.000000 -60.708740 0.000000 229.000000 0.170598 0.964985 0.199248
2.16000009 -2.75000000 0.64999998 247 199 32 0.000000 0.000000 0.000000 0.000000 -60.708740 0.000000 229.000000 0.170598 0.964985 0.199248
2.17000008 -2.75999999 0.61000001 247 199 32 0.000000 0.000000 0.000000 0.000000 -60.708740 0.000000 229.000000 0.143033 0.967730 0.207463
2.17000008 -2.75999999 0.61000001 247 199 32 0.000000 0.000000 0.000000 0.000000 -60.708740 0.000000 229.000000 0.143033 0.967730 0.207463
2.15000010 -2.75000000 0.56999999 247 199 32 0.000000 0.000000 0.000000 0.000000 -60.708740 0.000000 229.000000 0.056786 0.997512 -0.041786
2.16000009 -2.75000000 0.56999999 247 199 32 0.000000 0.000000 0.000000 0.000000 -60.708740 0.000000 229.000000 0.012583 0.984889 -0.172727
2.18000007 -2.77999997 0.62000000 247 199 32 0.000000 0.000000 0.000000 0.000000 -60.708740 0.000000 229.000000 0.195169 0.980518 0.022205
2.16000009 -2.78999996 0.63000000 247 199 32 0.000000 0.000000 0.000000 0.000000 -60.708740 0.000000 229.000000 0.097948 0.987741 0.121550
2.18000007 -2.76999998 0.57999998 247 199 32 0.000000 0.000000 0.000000 0.000000 -60.708740 0.000000 229.000000 0.149688 0.987474 -0.049896
2.17000008 -2.77999997 0.58999997 247 199 32 0.000000 0.000000 0.000000 0.000000 -60.708740 0.000000 229.000000 0.243647 0.968405 0.053182
2.17000008 -2.77999997 0.60000002 247 199 32 0.000000 0.000000 0.000000 0.000000 -60.708740 0.000000 229.000000 0.107970 0.992187 0.062509
2.14000010 -2.75999999 0.64999998 247 199 32 0.000000 0.000000 0.000000 0.000000 -60.708740 0.000000 229.000000 0.063062 0.951080 0.302441
2.14000010 -2.75000000 0.56999999 247 199 32 0.000000 0.000000 0.000000 0.000000 -60.708740 0.000000 229.000000 0.076336 0.992368 0.096844
2.10999990 -2.77999997 0.63999999 247 199 32 0.000000 0.000000 0.000000 0.000000 -60.708740 0.000000 229.000000 0.129183 -0.788460 -0.601368
2.16000009 -2.74000001 0.52999997 247 199 32 0.000000 0.000000 0.000000 0.000000 -60.708740 0.000000 229.000000 0.038621 0.906931 0.419505
2.18000007 -2.74000001 0.50999999 247 199 32 0.000000 0.000000 0.000000 0.000000 -60.708740 0.000000 229.000000 0.062698 0.953260 -0.295575
2.18000007 -2.74000001 0.50000000 247 199 32 0.000000 0.000000 0.000000 0.000000 -60.708740 0.000000 229.000000 0.103578 0.974629 -0.198420
2.15000010 -2.75999999 0.49000001 247 199 32 0.000000 0.000000 0.000000 0.000000 -60.708740 0.000000 229.000000 0.156108 0.868079 0.471243
2.16000009 -2.77999997 0.49000001 247 199 32 0.000000 0.000000 0.000000 0.000000 -60.708740 0.000000 229.000000 0.180590 0.897171 0.403077
2.10999990 -2.75999999 0.56000000 247 199 32 0.000000 0.000000 0.000000 0.000000 -60.708740 0.000000 229.000000 -0.051022 0.998575 0.015619
2.14000010 -2.75999999 0.49000001 247 199 32 0.000000 0.000000 0.000000 0.000000 -60.708740 0.000000 229.000000 -0.019826 0.998600 -0.049043
2.13000011 -2.75000000 0.50999999 247 199 32 0.000000 0.000000 0.000000 0.000000 -60.708740 0.000000 229.000000 0.170305 0.944171 0.282025
2.14000010 -2.75999999 0.49000001 247 199 32 0.000000 0.000000 0.000000 0.000000 -60.708740 0.000000 229.000000 -0.019826 0.998600 -0.049043
2.14000010 -2.73000002 0.49000001 247 199 32 0.000000 0.000000 0.000000 0.000000 -60.708740 0.000000 229.000000 0.167508 0.934445 0.314250
