//X Y Z R G B PointSourceId ScanDirectionFlag NumberOfReturns ReturnNumber GpsTime Intensity Classification Nx Ny Nz
15.14999962 8.89000034 0.23000000 98 29 192 0.000000 0.000000 0.000000 0.000000 -60.708740 0.000000 248.000000 0.510032 0.658161 0.553797
15.07999992 8.98999977 0.18000001 98 29 192 0.000000 0.000000 0.000000 0.000000 -60.708740 0.000000 248.000000 0.544749 0.362624 0.756144
15.09000015 8.97000027 0.16000000 98 29 192 0.000000 0.000000 0.000000 0.000000 -60.708740 0.000000 248.000000 0.172833 0.668390 0.723452
15.05000019 8.98999977 0.17000000 98 29 192 0.000000 0.000000 0.000000 0.000000 -60.708740 0.000000 248.000000 0.506827 0.614590 0.604488
15.05000019 8.97000027 0.17000000 98 29 192 0.000000 0.000000 0.000000 0.000000 -60.708740 0.000000 248.000000 0.377633 0.644780 0.664569
15.02999973 8.92000008 0.31000000 98 29 192 0.000000 0.000000 0.000000 0.000000 -60.708740 0.000000 248.000000 0.809989 0.584600 0.046486
15.02999973 8.92000008 0.30000001 98 29 192 0.000000 0.000000 0.000000 0.000000 -60.708740 0.000000 248.000000 0.845288 0.484106 0.226118
15.02999973 8.93000031 0.25000000 98 29 192 0.000000 0.000000 0.000000 0.000000 -60.708740 0.000000 248.000000 0.403246 0.804885 0.435377
15.03999996 8.89000034 0.27000001 98 29 192 0.000000 0.000000 0.000000 0.000000 -60.708740 0.000000 248.000000 0.837939 0.307400 0.450958
15.05000019 8.90999985 0.20000000 98 29 192 0.000000 0.000000 0.000000 0.000000 -60.708740 0.000000 248.000000 0.382893 0.854147 0.351890
15.05000019 8.92000008 0.19000000 98 29 192 0.000000 0.000000 0.000000 0.000000 -60.708740 0.000000 248.000000 0.525108 0.572385 0.629792
15.02999973 8.90999985 0.15000001 98 29 192 0.000000 0.000000 0.000000 0.000000 -60.708740 0.000000 248.000000 0.607142 0.383372 0.695992
15.06000042 8.88000011 0.16000000 98 29 192 0.000000 0.000000 0.000000 0.000000 -60.708740 0.000000 248.000000 0.327304 0.436927 0.837835
15.18999958 8.97999954 0.14000000 98 29 192 0.000000 0.000000 0.000000 0.000000 -60.708740 0.000000 248.000000 -0.091768 0.770562 0.630724
15.15999985 8.97999954 0.07000000 98 29 192 0.000000 0.000000 0.000000 0.000000 -60.708740 0.000000 248.000000 -0.176708 0.433738 0.883541
15.18000031 8.96000004 0.07000000 98 29 192 0.000000 0.000000 0.000000 0.000000 -60.708740 0.000000 248.000000 -0.316588 0.310642 0.896255
15.14000034 9.01000023 0.10000000 98 29 192 0.000000 0.000000 0.000000 0.000000 -60.708740 0.000000 248.000000 0.400501 0.305363 0.863917
15.14999962 8.97999954 0.14000000 98 29 192 0.000000 0.000000 0.000000 0.000000 -60.708740 0.000000 248.000000 0.245205 0.390842 0.887196
15.14000034 8.94999981 0.12000000 98 29 192 0.000000 0.000000 0.000000 0.000000 -60.708740 0.000000 248.000000 0.411724 0.752913 0.513425
15.11999989 8.96000004 0.09000000 98 29 192 0.000000 0.000000 0.000000 0.000000 -60.708740 0.000000 248.000000 0.250735 0.185679 0.950082
15.14000034 8.97000027 0.08000000 98 29 192 0.000000 0.000000 0.000000 0.000000 -60.708740 0.000000 248.000000 0.127248 0.458952 0.879301
15.14999962 9.01000023 0.04000000 98 29 192 0.000000 0.000000 0.000000 0.000000 -60.708740 0.000000 248.000000 0.254822 0.688495 0.678999
15.18000031 9.02000046 0.05000000 98 29 192 0.000000 0.000000 0.000000 0.000000 -60.708740 0.000000 248.000000 0.155686 0.523403 0.837741
15.18999958 8.93999958 0.13000000 98 29 192 0.000000 0.000000 0.000000 0.000000 -60.708740 0.000000 248.000000 -0.114714 0.205476 0.971916
15.18000031 8.93999958 0.13000000 98 29 192 0.000000 0.000000 0.000000 0.000000 -60.708740 0.000000 248.000000 0.411385 0.395502 0.821182
15.18000031 8.93000031 0.10000000 98 29 192 0.000000 0.000000 0.000000 0.000000 -60.708740 0.000000 248.000000 0.329285 0.299486 0.895477
15.18999958 8.92000008 0.10000000 98 29 192 0.000000 0.000000 0.000000 0.000000 -60.708740 0.000000 248.000000 0.392230 0.382779 0.836442
15.15999985 8.85999966 0.12000000 98 29 192 0.000000 0.000000 0.000000 0.000000 -60.708740 0.000000 248.000000 0.477737 0.393526 0.785433
15.11999989 8.93000031 0.14000000 98 29 192 0.000000 0.000000 0.000000 0.000000 -60.708740 0.000000 248.000000 -0.098396 0.685832 0.721078
15.07999992 9.02000046 0.11000000 98 29 192 0.000000 0.000000 0.000000 0.000000 -60.708740 0.000000 248.000000 0.497096 0.628532 0.598200
15.09000015 8.94999981 0.13000000 98 29 192 0.000000 0.000000 0.000000 0.000000 -60.708740 0.000000 248.000000 0.202197 0.471792 0.858212
15.15999985 8.81999969 0.25999999 98 29 192 0.000000 0.000000 0.000000 0.000000 -60.708740 0.000000 248.000000 0.616662 0.391820 0.682792
15.17000008 8.81999969 0.23999999 98 29 192 0.000000 0.000000 0.000000 0.000000 -60.708740 0.000000 248.000000 0.569287 0.735669 0.367019
15.18000031 8.84000015 0.25999999 98 29 192 0.000000 0.000000 0.000000 0.000000 -60.708740 0.000000 248.000000 0.258825 0.897753 0.356439
15.18000031 8.81000042 0.23999999 98 29 192 0.000000 0.000000 0.000000 0.000000 -60.708740 0.000000 248.000000 0.344601 0.632040 0.694101
15.18000031 8.77999973 0.25000000 98 29 192 0.000000 0.000000 0.000000 0.000000 -60.708740 0.000000 248.000000 0.545155 0.458464 0.701867
15.17000008 8.81999969 0.20999999 98 29 192 0.000000 0.000000 0.000000 0.000000 -60.708740 0.000000 248.000000 0.348038 0.833085 0.429929
15.18000031 8.77999973 0.20999999 98 29 192 0.000000 0.000000 0.000000 0.000000 -60.708740 0.000000 248.000000 0.413475 0.802816 0.429563
15.14999962 8.81999969 0.23000000 98 29 192 0.000000 0.000000 0.000000 0.000000 -60.708740 0.000000 248.000000 0.212942 0.657477 0.722758
15.18999958 8.73999977 0.25999999 98 29 192 0.000000 0.000000 0.000000 0.000000 -60.708740 0.000000 248.000000 0.424083 0.846613 0.321558
15.18999958 8.72000027 0.28000000 98 29 192 0.000000 0.000000 0.000000 0.000000 -60.708740 0.000000 248.000000 0.363563 0.559203 0.745060
15.11999989 8.75000000 0.28000000 98 29 192 0.000000 0.000000 0.000000 0.000000 -60.708740 0.000000 248.000000 0.651548 0.621554 0.434921
15.18999958 8.75000000 0.17000000 98 29 192 0.000000 0.000000 0.000000 0.000000 -60.708740 0.000000 248.000000 0.318898 0.675027 0.665314
15.07999992 8.81999969 0.30000001 98 29 192 0.000000 0.000000 0.000000 0.000000 -60.708740 0.000000 248.000000 0.412208 0.876878 0.247325
15.06000042 8.84000015 0.25000000 98 29 192 0.000000 0.000000 0.000000 0.000000 -60.708740 0.000000 248.000000 0.312484 0.873432 0.373457
15.05000019 8.85000038 0.27000001 98 29 192 0.000000 0.000000 0.000000 0.000000 -60.708740 0.000000 248.000000 0.392355 0.770057 0.503061
15.05000019 8.80000019 0.30000001 98 29 192 0.000000 0.000000 0.000000 0.000000 -60.708740 0.000000 248.000000 0.842217 0.329699 0.426578
15.15999985 8.82999992 0.13000000 98 29 192 0.000000 0.000000 0.000000 0.000000 -60.708740 0.000000 248.000000 0.481911 0.572584 0.663257
15.17000008 8.85000038 0.07000000 98 29 192 0.000000 0.000000 0.000000 0.000000 -60.708740 0.000000 248.000000 0.009337 0.481539 0.876375
15.27999973 8.60999966 0.50000000 98 29 192 0.000000 0.000000 0.000000 0.000000 -60.708740 0.000000 248.000000 0.715236 0.698373 -0.026698
15.35000038 8.68999958 0.47999999 98 29 192 0.000000 0.000000 0.000000 0.000000 -60.708740 0.000000 248.000000 0.641206 0.747820 -0.172105
15.35000038 8.59000015 0.46000001 98 29 192 0.000000 0.000000 0.000000 0.000000 -60.708740 0.000000 248.000000 0.607402 0.563411 0.560028
15.31999969 8.59000015 0.41999999 98 29 192 0.000000 0.000000 0.000000 0.000000 -60.708740 0.000000 248.000000 0.400822 0.515343 0.757472
15.32999992 8.55000019 0.43000001 98 29 192 0.000000 0.000000 0.000000 0.000000 -60.708740 0.000000 248.000000 0.571948 0.725996 0.381845
15.31000042 8.59000015 0.44999999 98 29 192 0.000000 0.000000 0.000000 0.000000 -60.708740 0.000000 248.000000 0.725896 0.661166 0.189565
15.31000042 8.60000038 0.41999999 98 29 192 0.000000 0.000000 0.000000 0.000000 -60.708740 0.000000 248.000000 0.680675 0.661273 0.315277
15.30000019 8.56000042 0.46000001 98 29 192 0.000000 0.000000 0.000000 0.000000 -60.708740 0.000000 248.000000 0.573918 0.587462 0.570532
15.27999973 8.52999973 0.44000000 98 29 192 0.000000 0.000000 0.000000 0.000000 -60.708740 0.000000 248.000000 0.568041 0.790924 0.227526
15.22999954 8.63000011 0.46000001 98 29 192 0.000000 0.000000 0.000000 0.000000 -60.708740 0.000000 248.000000 0.863838 0.490131 0.116424
15.25000000 8.56000042 0.44999999 98 29 192 0.000000 0.000000 0.000000 0.000000 -60.708740 0.000000 248.000000 0.801335 0.534746 0.268157
15.23999977 8.52999973 0.43000001 98 29 192 0.000000 0.000000 0.000000 0.000000 -60.708740 0.000000 248.000000 0.731997 0.451095 0.510581
15.22999954 8.59000015 0.43000001 98 29 192 0.000000 0.000000 0.000000 0.000000 -60.708740 0.000000 248.000000 0.642398 0.733053 0.223511
15.22000027 8.60000038 0.41999999 98 29 192 0.000000 0.000000 0.000000 0.000000 -60.708740 0.000000 248.000000 0.569836 0.820282 0.049245
15.22999954 8.56000042 0.47999999 98 29 192 0.000000 0.000000 0.000000 0.000000 -60.708740 0.000000 248.000000 0.904113 0.395639 0.161398
15.22999954 8.56000042 0.47999999 98 29 192 0.000000 0.000000 0.000000 0.000000 -60.708740 0.000000 248.000000 0.904113 0.395639 0.161398
15.31000042 8.47000027 0.47000000 98 29 192 0.000000 0.000000 0.000000 0.000000 -60.708740 0.000000 248.000000 0.716804 0.663938 0.213020
15.25000000 8.51000023 0.47999999 98 29 192 0.000000 0.000000 0.000000 0.000000 -60.708740 0.000000 248.000000 0.852931 0.472508 -0.221913
15.23999977 8.52000046 0.47000000 98 29 192 0.000000 0.000000 0.000000 0.000000 -60.708740 0.000000 248.000000 0.558334 0.784813 0.268944
15.23999977 8.52000046 0.44000000 98 29 192 0.000000 0.000000 0.000000 0.000000 -60.708740 0.000000 248.000000 0.680647 0.607780 0.409051
15.25000000 8.52000046 0.44000000 98 29 192 0.000000 0.000000 0.000000 0.000000 -60.708740 0.000000 248.000000 0.846594 0.518412 -0.120527
15.19999981 8.47999954 0.47000000 98 29 192 0.000000 0.000000 0.000000 0.000000 -60.708740 0.000000 248.000000 0.746340 0.653979 0.123645
15.11999989 8.65999985 0.60000002 98 29 192 0.000000 0.000000 0.000000 0.000000 -60.708740 0.000000 248.000000 0.913864 0.001289 -0.406019
15.18000031 8.68000031 0.49000001 98 29 192 0.000000 0.000000 0.000000 0.000000 -60.708740 0.000000 248.000000 0.649408 0.662561 -0.373204
15.18000031 8.68000031 0.51999998 98 29 192 0.000000 0.000000 0.000000 0.000000 -60.708740 0.000000 248.000000 0.930374 0.361297 -0.062201
15.10999966 8.68999958 0.52999997 98 29 192 0.000000 0.000000 0.000000 0.000000 -60.708740 0.000000 248.000000 0.951082 0.288886 0.109487
15.03999996 8.67000008 0.60000002 98 29 192 0.000000 0.000000 0.000000 0.000000 -60.708740 0.000000 248.000000 0.849565 0.450131 -0.274995
15.10000038 8.61999989 0.52999997 98 29 192 0.000000 0.000000 0.000000 0.000000 -60.708740 0.000000 248.000000 0.740015 0.423572 -0.522460
15.06000042 8.60000038 0.56999999 98 29 192 0.000000 0.000000 0.000000 0.000000 -60.708740 0.000000 248.000000 0.731160 0.314738 -0.605265
15.13000011 8.65999985 0.33000001 98 29 192 0.000000 0.000000 0.000000 0.000000 -60.708740 0.000000 248.000000 0.890649 0.452758 0.041897
15.15999985 8.61999989 0.34000000 98 29 192 0.000000 0.000000 0.000000 0.000000 -60.708740 0.000000 248.000000 0.745176 0.648440 0.155686
15.17000008 8.57999992 0.38000000 98 29 192 0.000000 0.000000 0.000000 0.000000 -60.708740 0.000000 248.000000 0.432039 0.865594 0.253160
15.17000008 8.55000019 0.33000001 98 29 192 0.000000 0.000000 0.000000 0.000000 -60.708740 0.000000 248.000000 0.767901 0.566746 0.298540
15.07999992 8.61999989 0.40000001 98 29 192 0.000000 0.000000 0.000000 0.000000 -60.708740 0.000000 248.000000 0.931612 0.328071 -0.156422
15.05000019 8.67000008 0.31999999 98 29 192 0.000000 0.000000 0.000000 0.000000 -60.708740 0.000000 248.000000 0.848757 0.301471 0.434427
15.06000042 8.67000008 0.31999999 98 29 192 0.000000 0.000000 0.000000 0.000000 -60.708740 0.000000 248.000000 0.578386 0.743639 0.335367
15.05000019 8.64000034 0.34999999 98 29 192 0.000000 0.000000 0.000000 0.000000 -60.708740 0.000000 248.000000 0.730765 0.636065 0.247797
15.07999992 8.51000023 0.31999999 98 29 192 0.000000 0.000000 0.000000 0.000000 -60.708740 0.000000 248.000000 0.751630 0.659251 -0.020995
15.19999981 8.68000031 0.19000000 98 29 192 0.000000 0.000000 0.000000 0.000000 -60.708740 0.000000 248.000000 0.363513 0.735176 0.572166
15.22999954 8.67000008 0.16000000 98 29 192 0.000000 0.000000 0.000000 0.000000 -60.708740 0.000000 248.000000 0.671559 0.402935 0.621814
15.21000004 8.56999969 0.27000001 98 29 192 0.000000 0.000000 0.000000 0.000000 -60.708740 0.000000 248.000000 0.574986 0.353462 0.737872
15.26000023 8.68999958 0.12000000 98 29 192 0.000000 0.000000 0.000000 0.000000 -60.708740 0.000000 248.000000 0.279325 0.553915 0.784319
15.18000031 8.67000008 0.23999999 98 29 192 0.000000 0.000000 0.000000 0.000000 -60.708740 0.000000 248.000000 0.651187 0.631201 0.421356
15.18000031 8.67000008 0.25000000 98 29 192 0.000000 0.000000 0.000000 0.000000 -60.708740 0.000000 248.000000 0.702101 0.572636 0.423252
15.17000008 8.68000031 0.25000000 98 29 192 0.000000 0.000000 0.000000 0.000000 -60.708740 0.000000 248.000000 0.830410 0.403342 0.384361
15.18000031 8.60999966 0.30000001 98 29 192 0.000000 0.000000 0.000000 0.000000 -60.708740 0.000000 248.000000 0.528427 0.720583 0.448915
15.18999958 8.60999966 0.28999999 98 29 192 0.000000 0.000000 0.000000 0.000000 -60.708740 0.000000 248.000000 0.658616 0.723702 0.206108
15.15999985 8.60999966 0.31000000 98 29 192 0.000000 0.000000 0.000000 0.000000 -60.708740 0.000000 248.000000 0.807862 0.583216 0.084962
15.14000034 8.67000008 0.31000000 98 29 192 0.000000 0.000000 0.000000 0.000000 -60.708740 0.000000 248.000000 0.673853 0.405636 0.617561
15.14999962 8.65999985 0.31000000 98 29 192 0.000000 0.000000 0.000000 0.000000 -60.708740 0.000000 248.000000 0.437251 0.740852 0.509852
15.13000011 8.64999962 0.28999999 98 29 192 0.000000 0.000000 0.000000 0.000000 -60.708740 0.000000 248.000000 0.898325 0.355495 0.258139
15.13000011 8.63000011 0.28000000 98 29 192 0.000000 0.000000 0.000000 0.000000 -60.708740 0.000000 248.000000 0.474467 0.645476 0.598533
15.18999958 8.64999962 0.22000000 98 29 192 0.000000 0.000000 0.000000 0.000000 -60.708740 0.000000 248.000000 0.680675 0.315277 0.661273
15.17000008 8.65999985 0.22000000 98 29 192 0.000000 0.000000 0.000000 0.000000 -60.708740 0.000000 248.000000 0.412746 0.839616 0.353109
15.15999985 8.68999958 0.20000000 98 29 192 0.000000 0.000000 0.000000 0.000000 -60.708740 0.000000 248.000000 0.464784 0.642644 0.609085
15.14000034 8.68000031 0.20999999 98 29 192 0.000000 0.000000 0.000000 0.000000 -60.708740 0.000000 248.000000 0.595403 0.375612 0.710219
15.14000034 8.68000031 0.20000000 98 29 192 0.000000 0.000000 0.000000 0.000000 -60.708740 0.000000 248.000000 0.778613 0.479521 0.404749
15.13000011 8.67000008 0.23000000 98 29 192 0.000000 0.000000 0.000000 0.000000 -60.708740 0.000000 248.000000 0.302590 0.800042 0.518047
15.18000031 8.56999969 0.28999999 98 29 192 0.000000 0.000000 0.000000 0.000000 -60.708740 0.000000 248.000000 0.532555 0.673674 0.512395
15.09000015 8.64000034 0.31000000 98 29 192 0.000000 0.000000 0.000000 0.000000 -60.708740 0.000000 248.000000 0.604321 0.724213 0.332133
15.07999992 8.56999969 0.30000001 98 29 192 0.000000 0.000000 0.000000 0.000000 -60.708740 0.000000 248.000000 0.669717 0.562293 0.485083
15.18999958 8.68000031 0.10000000 98 29 192 0.000000 0.000000 0.000000 0.000000 -60.708740 0.000000 248.000000 0.162619 0.709747 0.685430
15.10000038 8.46000004 0.27000001 98 29 192 0.000000 0.000000 0.000000 0.000000 -60.708740 0.000000 248.000000 0.644560 0.405957 0.647874
14.85000038 9.14999962 0.68000001 98 29 192 0.000000 0.000000 0.000000 0.000000 -60.708740 0.000000 248.000000 -0.375477 -0.029882 0.926350
14.97000027 9.47000027 0.38000000 98 29 192 0.000000 0.000000 0.000000 0.000000 -60.708740 0.000000 248.000000 -0.375356 0.114119 0.919829
14.94999981 9.40999985 0.41000000 98 29 192 0.000000 0.000000 0.000000 0.000000 -60.708740 0.000000 248.000000 -0.538081 0.240353 0.807898
15.00000000 9.43999958 0.33000001 98 29 192 0.000000 0.000000 0.000000 0.000000 -60.708740 0.000000 248.000000 -0.228081 0.182732 0.956341
14.98999977 9.38000011 0.38000000 98 29 192 0.000000 0.000000 0.000000 0.000000 -60.708740 0.000000 248.000000 -0.435787 0.439027 0.785713
15.02000046 9.39000034 0.33000001 98 29 192 0.000000 0.000000 0.000000 0.000000 -60.708740 0.000000 248.000000 -0.082937 0.728972 0.679501
15.01000023 9.39000034 0.33000001 98 29 192 0.000000 0.000000 0.000000 0.000000 -60.708740 0.000000 248.000000 0.063037 0.522508 0.850301
14.96000004 9.43000031 0.34999999 98 29 192 0.000000 0.000000 0.000000 0.000000 -60.708740 0.000000 248.000000 -0.225459 0.065297 0.972062
14.96000004 9.36999989 0.36000001 98 29 192 0.000000 0.000000 0.000000 0.000000 -60.708740 0.000000 248.000000 -0.250603 0.152484 0.956006
14.97999954 9.39999962 0.36000001 98 29 192 0.000000 0.000000 0.000000 0.000000 -60.708740 0.000000 248.000000 0.083822 0.178577 0.980349
14.89000034 9.44999981 0.33000001 98 29 192 0.000000 0.000000 0.000000 0.000000 -60.708740 0.000000 248.000000 -0.399807 -0.001286 0.916599
14.90999985 9.40999985 0.38999999 98 29 192 0.000000 0.000000 0.000000 0.000000 -60.708740 0.000000 248.000000 -0.056389 0.350134 0.935001
14.90999985 9.39000034 0.36000001 98 29 192 0.000000 0.000000 0.000000 0.000000 -60.708740 0.000000 248.000000 -0.641895 0.333135 0.690646
14.90999985 9.39999962 0.34000000 98 29 192 0.000000 0.000000 0.000000 0.000000 -60.708740 0.000000 248.000000 -0.024484 0.067064 0.997448
14.89000034 9.42000008 0.36000001 98 29 192 0.000000 0.000000 0.000000 0.000000 -60.708740 0.000000 248.000000 0.719485 -0.015368 -0.694338
14.89999962 9.42000008 0.37000000 98 29 192 0.000000 0.000000 0.000000 0.000000 -60.708740 0.000000 248.000000 -0.434332 0.154397 0.887422
14.88000011 9.42000008 0.34000000 98 29 192 0.000000 0.000000 0.000000 0.000000 -60.708740 0.000000 248.000000 0.621141 -0.246884 -0.743796
14.78999996 9.63000011 0.41000000 98 29 192 0.000000 0.000000 0.000000 0.000000 -60.708740 0.000000 248.000000 0.018316 0.267410 0.963409
14.81999969 9.65999985 0.36000001 98 29 192 0.000000 0.000000 0.000000 0.000000 -60.708740 0.000000 248.000000 -0.212813 0.537392 0.816040
14.82999992 9.64999962 0.37000000 98 29 192 0.000000 0.000000 0.000000 0.000000 -60.708740 0.000000 248.000000 -0.072033 0.328734 0.941672
14.77999973 9.67000008 0.38999999 98 29 192 0.000000 0.000000 0.000000 0.000000 -60.708740 0.000000 248.000000 -0.335625 0.525116 0.782054
14.78999996 9.68999958 0.36000001 98 29 192 0.000000 0.000000 0.000000 0.000000 -60.708740 0.000000 248.000000 0.185171 0.304905 0.934208
14.78999996 9.67000008 0.33000001 98 29 192 0.000000 0.000000 0.000000 0.000000 -60.708740 0.000000 248.000000 -0.027289 0.009096 0.999586
14.78999996 9.60999966 0.41000000 98 29 192 0.000000 0.000000 0.000000 0.000000 -60.708740 0.000000 248.000000 -0.077946 0.214043 0.973709
14.81999969 9.60999966 0.40000001 98 29 192 0.000000 0.000000 0.000000 0.000000 -60.708740 0.000000 248.000000 -0.047050 0.423447 0.904698
14.85000038 9.56999969 0.33000001 98 29 192 0.000000 0.000000 0.000000 0.000000 -60.708740 0.000000 248.000000 -0.360444 0.128434 0.923897
14.85000038 9.55000019 0.33000001 98 29 192 0.000000 0.000000 0.000000 0.000000 -60.708740 0.000000 248.000000 -0.107181 -0.109537 0.988187
14.77999973 9.55000019 0.33000001 98 29 192 0.000000 0.000000 0.000000 0.000000 -60.708740 0.000000 248.000000 -0.136139 0.046905 0.989579
14.84000015 9.59000015 0.37000000 98 29 192 0.000000 0.000000 0.000000 0.000000 -60.708740 0.000000 248.000000 0.070047 0.593253 0.801963
14.73999977 9.63000011 0.43000001 98 29 192 0.000000 0.000000 0.000000 0.000000 -60.708740 0.000000 248.000000 -0.514470 0.234967 0.824688
14.77000046 9.63000011 0.37000000 98 29 192 0.000000 0.000000 0.000000 0.000000 -60.708740 0.000000 248.000000 -0.419987 -0.131511 0.897951
14.72999954 9.68000031 0.38999999 98 29 192 0.000000 0.000000 0.000000 0.000000 -60.708740 0.000000 248.000000 -0.452577 -0.158620 0.877504
14.72000027 9.65999985 0.38000000 98 29 192 0.000000 0.000000 0.000000 0.000000 -60.708740 0.000000 248.000000 -0.615208 0.178609 0.767866
14.73999977 9.59000015 0.40000001 98 29 192 0.000000 0.000000 0.000000 0.000000 -60.708740 0.000000 248.000000 -0.688330 -0.104650 0.717809
14.73999977 9.60000038 0.40000001 98 29 192 0.000000 0.000000 0.000000 0.000000 -60.708740 0.000000 248.000000 0.728368 -0.061775 -0.682396
14.72000027 9.57999992 0.41999999 98 29 192 0.000000 0.000000 0.000000 0.000000 -60.708740 0.000000 248.000000 -0.127418 -0.037210 0.991151
14.72000027 9.57999992 0.41999999 98 29 192 0.000000 0.000000 0.000000 0.000000 -60.708740 0.000000 248.000000 -0.127418 -0.037210 0.991151
14.69999981 9.55000019 0.44000000 98 29 192 0.000000 0.000000 0.000000 0.000000 -60.708740 0.000000 248.000000 -0.333314 0.086316 0.938856
14.75000000 9.60000038 0.37000000 98 29 192 0.000000 0.000000 0.000000 0.000000 -60.708740 0.000000 248.000000 -0.213822 0.257966 0.942196
14.75000000 9.53999996 0.31999999 98 29 192 0.000000 0.000000 0.000000 0.000000 -60.708740 0.000000 248.000000 0.552076 -0.133970 -0.822961
14.72999954 9.57999992 0.38999999 98 29 192 0.000000 0.000000 0.000000 0.000000 -60.708740 0.000000 248.000000 -0.706796 -0.029626 0.706796
14.72999954 9.60000038 0.37000000 98 29 192 0.000000 0.000000 0.000000 0.000000 -60.708740 0.000000 248.000000 0.570197 -0.469869 -0.673869
14.69999981 9.59000015 0.31999999 98 29 192 0.000000 0.000000 0.000000 0.000000 -60.708740 0.000000 248.000000 -0.154217 0.105645 0.982373
14.72000027 9.53999996 0.31999999 98 29 192 0.000000 0.000000 0.000000 0.000000 -60.708740 0.000000 248.000000 0.802216 0.026416 -0.596449
14.76000023 9.38000011 0.52999997 98 29 192 0.000000 0.000000 0.000000 0.000000 -60.708740 0.000000 248.000000 -0.483469 -0.349438 0.802590
14.82999992 9.47000027 0.43000001 98 29 192 0.000000 0.000000 0.000000 0.000000 -60.708740 0.000000 248.000000 -0.126190 0.207767 0.970005
14.84000015 9.48999977 0.38000000 98 29 192 0.000000 0.000000 0.000000 0.000000 -60.708740 0.000000 248.000000 -0.003220 0.099822 0.995000
14.84000015 9.44999981 0.38999999 98 29 192 0.000000 0.000000 0.000000 0.000000 -60.708740 0.000000 248.000000 -0.605566 -0.058419 0.793648
14.84000015 9.46000004 0.34000000 98 29 192 0.000000 0.000000 0.000000 0.000000 -60.708740 0.000000 248.000000 -0.395913 0.203070 0.895553
14.81999969 9.47999954 0.31999999 98 29 192 0.000000 0.000000 0.000000 0.000000 -60.708740 0.000000 248.000000 -0.227117 -0.121899 0.966208
14.84000015 9.46000004 0.34000000 98 29 192 0.000000 0.000000 0.000000 0.000000 -60.708740 0.000000 248.000000 -0.395913 0.203070 0.895553
14.80000019 9.48999977 0.34000000 98 29 192 0.000000 0.000000 0.000000 0.000000 -60.708740 0.000000 248.000000 -0.466767 0.009309 0.884331
14.78999996 9.44999981 0.33000001 98 29 192 0.000000 0.000000 0.000000 0.000000 -60.708740 0.000000 248.000000 -0.420773 0.119618 0.899245
14.78999996 9.44999981 0.33000001 98 29 192 0.000000 0.000000 0.000000 0.000000 -60.708740 0.000000 248.000000 -0.420773 0.119618 0.899245
14.84000015 9.38000011 0.47000000 98 29 192 0.000000 0.000000 0.000000 0.000000 -60.708740 0.000000 248.000000 -0.619511 0.076536 0.781248
14.78999996 9.36999989 0.41000000 98 29 192 0.000000 0.000000 0.000000 0.000000 -60.708740 0.000000 248.000000 -0.491950 -0.132057 0.860550
14.81999969 9.39999962 0.36000001 98 29 192 0.000000 0.000000 0.000000 0.000000 -60.708740 0.000000 248.000000 -0.377049 0.214001 0.901132
14.77999973 9.42000008 0.31999999 98 29 192 0.000000 0.000000 0.000000 0.000000 -60.708740 0.000000 248.000000 -0.660656 -0.159469 0.733556
14.77999973 9.38000011 0.31999999 98 29 192 0.000000 0.000000 0.000000 0.000000 -60.708740 0.000000 248.000000 0.841502 0.239775 -0.484131
14.81000042 9.38000011 0.34999999 98 29 192 0.000000 0.000000 0.000000 0.000000 -60.708740 0.000000 248.000000 -0.421530 -0.269353 0.865887
14.73999977 9.51000023 0.40000001 98 29 192 0.000000 0.000000 0.000000 0.000000 -60.708740 0.000000 248.000000 -0.433636 -0.260182 0.862708
14.73999977 9.51000023 0.31999999 98 29 192 0.000000 0.000000 0.000000 0.000000 -60.708740 0.000000 248.000000 -0.276389 0.030985 0.960546
14.69999981 9.52000046 0.33000001 98 29 192 0.000000 0.000000 0.000000 0.000000 -60.708740 0.000000 248.000000 -0.446867 -0.139377 0.883676
14.72999954 9.46000004 0.38999999 98 29 192 0.000000 0.000000 0.000000 0.000000 -60.708740 0.000000 248.000000 -0.261136 0.082799 0.961744
14.73999977 9.36999989 0.47000000 98 29 192 0.000000 0.000000 0.000000 0.000000 -60.708740 0.000000 248.000000 -0.519750 0.039981 0.853382
14.77000046 9.36999989 0.36000001 98 29 192 0.000000 0.000000 0.000000 0.000000 -60.708740 0.000000 248.000000 0.811835 0.009616 -0.583807
14.77000046 9.39000034 0.31999999 98 29 192 0.000000 0.000000 0.000000 0.000000 -60.708740 0.000000 248.000000 0.792568 0.443902 -0.418075
14.76000023 9.36999989 0.34999999 98 29 192 0.000000 0.000000 0.000000 0.000000 -60.708740 0.000000 248.000000 -0.576003 0.064000 0.814938
14.73999977 9.38000011 0.34000000 98 29 192 0.000000 0.000000 0.000000 0.000000 -60.708740 0.000000 248.000000 0.662049 0.318884 -0.678236
14.73999977 9.38000011 0.34999999 98 29 192 0.000000 0.000000 0.000000 0.000000 -60.708740 0.000000 248.000000 -0.451119 -0.193759 0.871177
14.72999954 9.42000008 0.36000001 98 29 192 0.000000 0.000000 0.000000 0.000000 -60.708740 0.000000 248.000000 0.738435 0.038268 -0.673238
14.94999981 9.52999973 0.28000000 98 29 192 0.000000 0.000000 0.000000 0.000000 -60.708740 0.000000 248.000000 -0.001292 0.412244 0.911072
14.93999958 9.52999973 0.28000000 98 29 192 0.000000 0.000000 0.000000 0.000000 -60.708740 0.000000 248.000000 0.048576 0.368914 0.928193
14.93999958 9.56999969 0.27000001 98 29 192 0.000000 0.000000 0.000000 0.000000 -60.708740 0.000000 248.000000 0.381680 0.416522 0.825125
14.89999962 9.55000019 0.25000000 98 29 192 0.000000 0.000000 0.000000 0.000000 -60.708740 0.000000 248.000000 -0.226642 0.367014 0.902183
14.93999958 9.53999996 0.23000000 98 29 192 0.000000 0.000000 0.000000 0.000000 -60.708740 0.000000 248.000000 -0.005991 0.255196 0.966871
14.93999958 9.55000019 0.00000000 98 29 192 0.000000 0.000000 0.000000 0.000000 -60.708740 0.000000 248.000000 0.737772 0.289667 -0.609742
14.93999958 9.53999996 0.02000000 98 29 192 0.000000 0.000000 0.000000 0.000000 -60.708740 0.000000 248.000000 -0.626871 0.290188 0.723066
14.92000008 9.53999996 0.00000000 98 29 192 0.000000 0.000000 0.000000 0.000000 -60.708740 0.000000 248.000000 -0.692686 0.123641 0.710562
14.90999985 9.52999973 0.01000000 98 29 192 0.000000 0.000000 0.000000 0.000000 -60.708740 0.000000 248.000000 -0.270420 0.172579 0.947148
14.89000034 9.53999996 0.03000000 98 29 192 0.000000 0.000000 0.000000 0.000000 -60.708740 0.000000 248.000000 0.563353 -0.330909 -0.757056
14.85999966 9.53999996 -0.01000000 98 29 192 0.000000 0.000000 0.000000 0.000000 -60.708740 0.000000 248.000000 0.114112 0.160738 0.980378
14.89999962 9.53999996 0.00000000 98 29 192 0.000000 0.000000 0.000000 0.000000 -60.708740 0.000000 248.000000 -0.103982 0.411769 0.905337
14.85999966 9.52999973 0.01000000 98 29 192 0.000000 0.000000 0.000000 0.000000 -60.708740 0.000000 248.000000 -0.398695 0.408225 0.821215
15.02000046 9.47000027 0.28999999 98 29 192 0.000000 0.000000 0.000000 0.000000 -60.708740 0.000000 248.000000 0.116806 -0.619517 -0.776244
15.02000046 9.47999954 0.28000000 98 29 192 0.000000 0.000000 0.000000 0.000000 -60.708740 0.000000 248.000000 0.089011 0.643509 0.760245
14.98999977 9.46000004 0.27000001 98 29 192 0.000000 0.000000 0.000000 0.000000 -60.708740 0.000000 248.000000 0.056251 0.349277 0.935330
14.96000004 9.48999977 0.30000001 98 29 192 0.000000 0.000000 0.000000 0.000000 -60.708740 0.000000 248.000000 -0.111030 0.431471 0.895268
14.94999981 9.52000046 0.28999999 98 29 192 0.000000 0.000000 0.000000 0.000000 -60.708740 0.000000 248.000000 -0.306525 0.330449 0.892662
14.96000004 9.51000023 0.25000000 98 29 192 0.000000 0.000000 0.000000 0.000000 -60.708740 0.000000 248.000000 0.385856 0.289014 0.876120
14.97999954 9.44999981 0.28999999 98 29 192 0.000000 0.000000 0.000000 0.000000 -60.708740 0.000000 248.000000 -0.029796 0.369215 0.928866
14.94999981 9.44999981 0.30000001 98 29 192 0.000000 0.000000 0.000000 0.000000 -60.708740 0.000000 248.000000 -0.028035 0.254753 0.966600
14.97999954 9.47000027 0.25000000 98 29 192 0.000000 0.000000 0.000000 0.000000 -60.708740 0.000000 248.000000 0.389618 0.235549 0.890345
14.98999977 9.47000027 0.20000000 98 29 192 0.000000 0.000000 0.000000 0.000000 -60.708740 0.000000 248.000000 0.201986 0.533061 0.821613
14.94999981 9.47999954 0.23000000 98 29 192 0.000000 0.000000 0.000000 0.000000 -60.708740 0.000000 248.000000 0.252341 0.260800 0.931830
15.02000046 9.42000008 0.30000001 98 29 192 0.000000 0.000000 0.000000 0.000000 -60.708740 0.000000 248.000000 0.439456 0.326855 0.836686
15.02000046 9.40999985 0.31000000 98 29 192 0.000000 0.000000 0.000000 0.000000 -60.708740 0.000000 248.000000 -0.186459 0.318242 0.929492
14.96000004 9.43000031 0.28000000 98 29 192 0.000000 0.000000 0.000000 0.000000 -60.708740 0.000000 248.000000 0.506211 -0.217382 -0.834563
14.96000004 9.43999958 0.30000001 98 29 192 0.000000 0.000000 0.000000 0.000000 -60.708740 0.000000 248.000000 -0.159790 0.012466 0.987072
14.90999985 9.51000023 0.28999999 98 29 192 0.000000 0.000000 0.000000 0.000000 -60.708740 0.000000 248.000000 0.164048 0.192465 0.967494
14.92000008 9.51000023 0.23999999 98 29 192 0.000000 0.000000 0.000000 0.000000 -60.708740 0.000000 248.000000 -0.411401 0.421006 0.808395
14.93000031 9.44999981 0.31000000 98 29 192 0.000000 0.000000 0.000000 0.000000 -60.708740 0.000000 248.000000 -0.251346 0.501150 0.828054
14.92000008 9.46000004 0.28000000 98 29 192 0.000000 0.000000 0.000000 0.000000 -60.708740 0.000000 248.000000 -0.331473 0.383892 0.861831
14.92000008 9.47000027 0.28000000 98 29 192 0.000000 0.000000 0.000000 0.000000 -60.708740 0.000000 248.000000 -0.487083 0.220022 0.845187
14.89999962 9.48999977 0.30000001 98 29 192 0.000000 0.000000 0.000000 0.000000 -60.708740 0.000000 248.000000 -0.374660 0.362223 0.853478
14.89000034 9.51000023 0.23999999 98 29 192 0.000000 0.000000 0.000000 0.000000 -60.708740 0.000000 248.000000 -0.051714 0.203249 0.977760
14.88000011 9.51000023 0.25999999 98 29 192 0.000000 0.000000 0.000000 0.000000 -60.708740 0.000000 248.000000 -0.572520 0.040594 0.818885
14.89000034 9.51000023 0.23999999 98 29 192 0.000000 0.000000 0.000000 0.000000 -60.708740 0.000000 248.000000 -0.051714 0.203249 0.977760
14.89999962 9.44999981 0.28000000 98 29 192 0.000000 0.000000 0.000000 0.000000 -60.708740 0.000000 248.000000 -0.581864 0.058045 0.811212
14.93000031 9.52000046 0.20000000 98 29 192 0.000000 0.000000 0.000000 0.000000 -60.708740 0.000000 248.000000 -0.264340 0.374855 0.888599
14.90999985 9.44999981 0.20000000 98 29 192 0.000000 0.000000 0.000000 0.000000 -60.708740 0.000000 248.000000 -0.197723 -0.049131 0.979026
14.92000008 9.44999981 0.22000000 98 29 192 0.000000 0.000000 0.000000 0.000000 -60.708740 0.000000 248.000000 -0.345484 0.357768 0.867550
14.92000008 9.47000027 0.20000000 98 29 192 0.000000 0.000000 0.000000 0.000000 -60.708740 0.000000 248.000000 -0.554928 0.017813 0.831707
14.90999985 9.44999981 0.20000000 98 29 192 0.000000 0.000000 0.000000 0.000000 -60.708740 0.000000 248.000000 -0.197723 -0.049131 0.979026
14.89999962 9.50000000 0.20999999 98 29 192 0.000000 0.000000 0.000000 0.000000 -60.708740 0.000000 248.000000 -0.484105 0.039547 0.874116
14.86999989 9.50000000 0.16000000 98 29 192 0.000000 0.000000 0.000000 0.000000 -60.708740 0.000000 248.000000 -0.697174 -0.297869 0.652091
14.89000034 9.50000000 0.17000000 98 29 192 0.000000 0.000000 0.000000 0.000000 -60.708740 0.000000 248.000000 0.721628 -0.089289 -0.686498
14.88000011 9.48999977 0.17000000 98 29 192 0.000000 0.000000 0.000000 0.000000 -60.708740 0.000000 248.000000 -0.599375 -0.191616 0.777195
14.88000011 9.48999977 0.17000000 98 29 192 0.000000 0.000000 0.000000 0.000000 -60.708740 0.000000 248.000000 -0.599375 -0.191616 0.777195
14.89000034 9.46000004 0.22000000 98 29 192 0.000000 0.000000 0.000000 0.000000 -60.708740 0.000000 248.000000 -0.224303 0.042436 0.973595
14.89000034 9.44999981 0.17000000 98 29 192 0.000000 0.000000 0.000000 0.000000 -60.708740 0.000000 248.000000 0.839282 0.096123 -0.535132
14.88000011 9.46000004 0.16000000 98 29 192 0.000000 0.000000 0.000000 0.000000 -60.708740 0.000000 248.000000 0.874320 0.424413 -0.235452
14.86999989 9.47999954 0.16000000 98 29 192 0.000000 0.000000 0.000000 0.000000 -60.708740 0.000000 248.000000 0.871788 0.134010 -0.471198
14.90999985 9.42000008 0.18000001 98 29 192 0.000000 0.000000 0.000000 0.000000 -60.708740 0.000000 248.000000 0.878660 -0.106118 -0.465506
14.88000011 9.43000031 0.15000001 98 29 192 0.000000 0.000000 0.000000 0.000000 -60.708740 0.000000 248.000000 0.618665 0.628725 -0.471125
14.96000004 9.40999985 0.14000000 98 29 192 0.000000 0.000000 0.000000 0.000000 -60.708740 0.000000 248.000000 0.110710 0.267006 0.957314
14.94999981 9.39999962 0.05000000 98 29 192 0.000000 0.000000 0.000000 0.000000 -60.708740 0.000000 248.000000 -0.207007 0.338350 0.917969
14.92000008 9.47000027 0.14000000 98 29 192 0.000000 0.000000 0.000000 0.000000 -60.708740 0.000000 248.000000 -0.562562 0.382149 0.733135
14.86999989 9.48999977 0.12000000 98 29 192 0.000000 0.000000 0.000000 0.000000 -60.708740 0.000000 248.000000 0.754921 0.614252 0.229758
14.85999966 9.52000046 0.14000000 98 29 192 0.000000 0.000000 0.000000 0.000000 -60.708740 0.000000 248.000000 -0.552752 0.336808 0.762250
14.85999966 9.50000000 0.07000000 98 29 192 0.000000 0.000000 0.000000 0.000000 -60.708740 0.000000 248.000000 0.402210 0.663730 0.630626
14.86999989 9.47000027 0.09000000 98 29 192 0.000000 0.000000 0.000000 0.000000 -60.708740 0.000000 248.000000 0.585136 0.784789 0.204260
14.93999958 9.52000046 0.00000000 98 29 192 0.000000 0.000000 0.000000 0.000000 -60.708740 0.000000 248.000000 0.626116 -0.394833 -0.672373
14.90999985 9.52000046 0.00000000 98 29 192 0.000000 0.000000 0.000000 0.000000 -60.708740 0.000000 248.000000 -0.336097 0.541936 0.770289
14.93000031 9.50000000 0.02000000 98 29 192 0.000000 0.000000 0.000000 0.000000 -60.708740 0.000000 248.000000 -0.423540 0.128904 0.896659
14.90999985 9.47000027 0.00000000 98 29 192 0.000000 0.000000 0.000000 0.000000 -60.708740 0.000000 248.000000 -0.479591 0.249755 0.841199
14.85999966 9.52000046 -0.01000000 98 29 192 0.000000 0.000000 0.000000 0.000000 -60.708740 0.000000 248.000000 -0.325455 0.159265 0.932048
14.90999985 9.42000008 0.12000000 98 29 192 0.000000 0.000000 0.000000 0.000000 -60.708740 0.000000 248.000000 0.849010 0.341162 0.403474
14.85999966 9.40999985 0.13000000 98 29 192 0.000000 0.000000 0.000000 0.000000 -60.708740 0.000000 248.000000 0.876583 0.480707 0.022891
14.89999962 9.43000031 0.11000000 98 29 192 0.000000 0.000000 0.000000 0.000000 -60.708740 0.000000 248.000000 0.646187 0.315806 0.694773
14.89999962 9.43000031 0.12000000 98 29 192 0.000000 0.000000 0.000000 0.000000 -60.708740 0.000000 248.000000 0.669081 0.734358 0.114233
14.89999962 9.38000011 0.08000000 98 29 192 0.000000 0.000000 0.000000 0.000000 -60.708740 0.000000 248.000000 0.389543 0.272229 0.879856
14.85999966 9.43999958 0.03000000 98 29 192 0.000000 0.000000 0.000000 0.000000 -60.708740 0.000000 248.000000 0.454211 0.762485 0.460770
14.82999992 9.55000019 0.23000000 98 29 192 0.000000 0.000000 0.000000 0.000000 -60.708740 0.000000 248.000000 -0.248344 0.422938 0.871463
14.75000000 9.60999966 0.28999999 98 29 192 0.000000 0.000000 0.000000 0.000000 -60.708740 0.000000 248.000000 -0.188387 -0.058796 0.980333
14.73999977 9.57999992 0.28000000 98 29 192 0.000000 0.000000 0.000000 0.000000 -60.708740 0.000000 248.000000 0.802656 -0.109653 -0.586275
14.81999969 9.52999973 0.00000000 98 29 192 0.000000 0.000000 0.000000 0.000000 -60.708740 0.000000 248.000000 0.237538 0.376224 0.895562
14.85000038 9.53999996 -0.01000000 98 29 192 0.000000 0.000000 0.000000 0.000000 -60.708740 0.000000 248.000000 -0.066407 0.410642 0.909375
14.85000038 9.52000046 0.28000000 98 29 192 0.000000 0.000000 0.000000 0.000000 -60.708740 0.000000 248.000000 0.680620 -0.175891 -0.711210
14.78999996 9.44999981 0.27000001 98 29 192 0.000000 0.000000 0.000000 0.000000 -60.708740 0.000000 248.000000 0.509370 -0.062799 -0.858253
14.85000038 9.40999985 0.31000000 98 29 192 0.000000 0.000000 0.000000 0.000000 -60.708740 0.000000 248.000000 -0.632235 0.215923 0.744080
14.81999969 9.43999958 0.27000001 98 29 192 0.000000 0.000000 0.000000 0.000000 -60.708740 0.000000 248.000000 0.763904 -0.098237 -0.637809
14.80000019 9.42000008 0.28000000 98 29 192 0.000000 0.000000 0.000000 0.000000 -60.708740 0.000000 248.000000 -0.413463 -0.204524 0.887253
14.73999977 9.44999981 0.31000000 98 29 192 0.000000 0.000000 0.000000 0.000000 -60.708740 0.000000 248.000000 0.680673 0.365759 -0.634748
14.72000027 9.51000023 0.31000000 98 29 192 0.000000 0.000000 0.000000 0.000000 -60.708740 0.000000 248.000000 0.686624 -0.210191 -0.695965
14.71000004 9.40999985 0.31000000 98 29 192 0.000000 0.000000 0.000000 0.000000 -60.708740 0.000000 248.000000 -0.458187 -0.039196 0.887991
14.84000015 9.48999977 0.14000000 98 29 192 0.000000 0.000000 0.000000 0.000000 -60.708740 0.000000 248.000000 0.731182 0.095244 -0.675501
14.82999992 9.44999981 0.10000000 98 29 192 0.000000 0.000000 0.000000 0.000000 -60.708740 0.000000 248.000000 0.882208 0.468970 0.042139
14.85000038 9.47000027 0.08000000 98 29 192 0.000000 0.000000 0.000000 0.000000 -60.708740 0.000000 248.000000 0.751644 0.515834 0.411030
14.85000038 9.51000023 0.02000000 98 29 192 0.000000 0.000000 0.000000 0.000000 -60.708740 0.000000 248.000000 0.126643 0.660031 0.740487
14.82999992 9.50000000 0.00000000 98 29 192 0.000000 0.000000 0.000000 0.000000 -60.708740 0.000000 248.000000 0.283020 0.695557 0.660379
14.81999969 9.48999977 -0.02000000 98 29 192 0.000000 0.000000 0.000000 0.000000 -60.708740 0.000000 248.000000 0.241050 0.383018 0.891736
14.84000015 9.47000027 0.03000000 98 29 192 0.000000 0.000000 0.000000 0.000000 -60.708740 0.000000 248.000000 0.278881 0.827296 0.487653
14.84000015 9.47000027 0.02000000 98 29 192 0.000000 0.000000 0.000000 0.000000 -60.708740 0.000000 248.000000 0.213778 0.307218 0.927317
14.77999973 9.47999954 -0.01000000 98 29 192 0.000000 0.000000 0.000000 0.000000 -60.708740 0.000000 248.000000 0.722019 0.608443 0.329371
14.82999992 9.39000034 0.09000000 98 29 192 0.000000 0.000000 0.000000 0.000000 -60.708740 0.000000 248.000000 0.713026 0.425169 0.557517
14.81999969 9.40999985 0.08000000 98 29 192 0.000000 0.000000 0.000000 0.000000 -60.708740 0.000000 248.000000 0.627910 0.699671 0.340865
14.84000015 9.38000011 0.03000000 98 29 192 0.000000 0.000000 0.000000 0.000000 -60.708740 0.000000 248.000000 0.104300 0.624329 0.774168
14.81000042 9.43000031 -0.02000000 98 29 192 0.000000 0.000000 0.000000 0.000000 -60.708740 0.000000 248.000000 0.519454 0.779986 0.348983
14.84000015 9.39000034 0.03000000 98 29 192 0.000000 0.000000 0.000000 0.000000 -60.708740 0.000000 248.000000 0.698936 0.488755 0.522117
14.77000046 9.48999977 0.00000000 98 29 192 0.000000 0.000000 0.000000 0.000000 -60.708740 0.000000 248.000000 0.701844 0.304939 0.643760
14.75000000 9.47000027 -0.01000000 98 29 192 0.000000 0.000000 0.000000 0.000000 -60.708740 0.000000 248.000000 0.233621 0.719677 0.653824
14.72000027 9.44999981 0.01000000 98 29 192 0.000000 0.000000 0.000000 0.000000 -60.708740 0.000000 248.000000 0.430704 0.676821 0.596999
14.72000027 9.47000027 -0.01000000 98 29 192 0.000000 0.000000 0.000000 0.000000 -60.708740 0.000000 248.000000 0.472038 0.636664 0.609786
14.76000023 9.43000031 0.04000000 98 29 192 0.000000 0.000000 0.000000 0.000000 -60.708740 0.000000 248.000000 0.427409 0.798367 0.424183
14.72000027 9.42000008 0.02000000 98 29 192 0.000000 0.000000 0.000000 0.000000 -60.708740 0.000000 248.000000 0.481214 0.757132 0.441797
14.98999977 9.28999996 0.50000000 98 29 192 0.000000 0.000000 0.000000 0.000000 -60.708740 0.000000 248.000000 -0.248738 0.564745 0.786888
14.93000031 9.31999969 0.50000000 98 29 192 0.000000 0.000000 0.000000 0.000000 -60.708740 0.000000 248.000000 -0.025776 0.266352 0.963531
14.88000011 9.28999996 0.50999999 98 29 192 0.000000 0.000000 0.000000 0.000000 -60.708740 0.000000 248.000000 -0.189976 0.164129 0.967973
14.85999966 9.30000019 0.50000000 98 29 192 0.000000 0.000000 0.000000 0.000000 -60.708740 0.000000 248.000000 -0.380155 0.156867 0.911524
14.93000031 9.26000023 0.50000000 98 29 192 0.000000 0.000000 0.000000 0.000000 -60.708740 0.000000 248.000000 -0.258049 0.176986 0.949782
14.89999962 9.25000000 0.50000000 98 29 192 0.000000 0.000000 0.000000 0.000000 -60.708740 0.000000 248.000000 -0.629826 0.333629 0.701435
14.88000011 9.26000023 0.49000001 98 29 192 0.000000 0.000000 0.000000 0.000000 -60.708740 0.000000 248.000000 -0.554363 -0.200059 0.807873
15.01000023 9.31000042 0.40000001 98 29 192 0.000000 0.000000 0.000000 0.000000 -60.708740 0.000000 248.000000 -0.358072 0.309725 0.880826
14.94999981 9.35000038 0.41000000 98 29 192 0.000000 0.000000 0.000000 0.000000 -60.708740 0.000000 248.000000 -0.063247 0.125343 0.990095
14.94999981 9.27999973 0.41999999 98 29 192 0.000000 0.000000 0.000000 0.000000 -60.708740 0.000000 248.000000 -0.332329 0.222992 0.916423
15.02000046 9.31999969 0.36000001 98 29 192 0.000000 0.000000 0.000000 0.000000 -60.708740 0.000000 248.000000 -0.183911 0.234923 0.954457
15.01000023 9.34000015 0.37000000 98 29 192 0.000000 0.000000 0.000000 0.000000 -60.708740 0.000000 248.000000 -0.338333 0.387769 0.857418
14.98999977 9.31999969 0.38000000 98 29 192 0.000000 0.000000 0.000000 0.000000 -60.708740 0.000000 248.000000 -0.559869 0.433608 0.706067
15.02000046 9.32999992 0.33000001 98 29 192 0.000000 0.000000 0.000000 0.000000 -60.708740 0.000000 248.000000 0.055448 0.109765 0.992410
15.02000046 9.27999973 0.38999999 98 29 192 0.000000 0.000000 0.000000 0.000000 -60.708740 0.000000 248.000000 -0.383484 0.096895 0.918451
15.00000000 9.28999996 0.38000000 98 29 192 0.000000 0.000000 0.000000 0.000000 -60.708740 0.000000 248.000000 -0.035962 0.274052 0.961042
15.02000046 9.31000042 0.37000000 98 29 192 0.000000 0.000000 0.000000 0.000000 -60.708740 0.000000 248.000000 -0.033598 0.279985 0.959416
15.02000046 9.31000042 0.33000001 98 29 192 0.000000 0.000000 0.000000 0.000000 -60.708740 0.000000 248.000000 -0.112969 -0.062760 0.991614
14.97999954 9.31999969 0.34999999 98 29 192 0.000000 0.000000 0.000000 0.000000 -60.708740 0.000000 248.000000 -0.362371 0.541119 0.758866
14.97999954 9.31000042 0.34999999 98 29 192 0.000000 0.000000 0.000000 0.000000 -60.708740 0.000000 248.000000 -0.600682 0.174882 0.780126
15.00000000 9.26000023 0.46000001 98 29 192 0.000000 0.000000 0.000000 0.000000 -60.708740 0.000000 248.000000 -0.431952 0.387322 0.814493
14.98999977 9.27000046 0.44999999 98 29 192 0.000000 0.000000 0.000000 0.000000 -60.708740 0.000000 248.000000 -0.246720 0.084771 0.965372
15.00000000 9.19999981 0.41999999 98 29 192 0.000000 0.000000 0.000000 0.000000 -60.708740 0.000000 248.000000 -0.344688 -0.308563 0.886555
15.01000023 9.22000027 0.40000001 98 29 192 0.000000 0.000000 0.000000 0.000000 -60.708740 0.000000 248.000000 -0.436962 0.373404 0.818311
15.02000046 9.21000004 0.43000001 98 29 192 0.000000 0.000000 0.000000 0.000000 -60.708740 0.000000 248.000000 -0.250364 0.115453 0.961243
14.94999981 9.22999954 0.46000001 98 29 192 0.000000 0.000000 0.000000 0.000000 -60.708740 0.000000 248.000000 -0.338350 0.207007 0.917969
14.94999981 9.22000027 0.46000001 98 29 192 0.000000 0.000000 0.000000 0.000000 -60.708740 0.000000 248.000000 -0.652145 0.185670 0.735006
15.01000023 9.27000046 0.34999999 98 29 192 0.000000 0.000000 0.000000 0.000000 -60.708740 0.000000 248.000000 -0.406980 0.435935 0.802700
14.97000027 9.27000046 0.38000000 98 29 192 0.000000 0.000000 0.000000 0.000000 -60.708740 0.000000 248.000000 0.650495 -0.064619 -0.756757
14.97000027 9.26000023 0.38000000 98 29 192 0.000000 0.000000 0.000000 0.000000 -60.708740 0.000000 248.000000 -0.626974 0.123023 0.769265
14.90999985 9.35000038 0.44999999 98 29 192 0.000000 0.000000 0.000000 0.000000 -60.708740 0.000000 248.000000 -0.060563 0.030813 0.997689
14.90999985 9.32999992 0.47000000 98 29 192 0.000000 0.000000 0.000000 0.000000 -60.708740 0.000000 248.000000 -0.272313 -0.136821 0.952431
14.90999985 9.35999966 0.40000001 98 29 192 0.000000 0.000000 0.000000 0.000000 -60.708740 0.000000 248.000000 -0.372815 0.210343 0.903750
14.90999985 9.28999996 0.47999999 98 29 192 0.000000 0.000000 0.000000 0.000000 -60.708740 0.000000 248.000000 -0.135926 0.063897 0.988656
14.93999958 9.27999973 0.47999999 98 29 192 0.000000 0.000000 0.000000 0.000000 -60.708740 0.000000 248.000000 -0.435271 0.123350 0.891809
14.92000008 9.28999996 0.41999999 98 29 192 0.000000 0.000000 0.000000 0.000000 -60.708740 0.000000 248.000000 -0.282092 -0.201494 0.937990
14.93999958 9.27999973 0.41000000 98 29 192 0.000000 0.000000 0.000000 0.000000 -60.708740 0.000000 248.000000 -0.534445 0.060318 0.843048
14.88000011 9.35999966 0.47999999 98 29 192 0.000000 0.000000 0.000000 0.000000 -60.708740 0.000000 248.000000 -0.381758 0.173006 0.907926
14.89000034 9.35000038 0.47000000 98 29 192 0.000000 0.000000 0.000000 0.000000 -60.708740 0.000000 248.000000 0.791246 -0.070365 -0.607436
14.89999962 9.35000038 0.44999999 98 29 192 0.000000 0.000000 0.000000 0.000000 -60.708740 0.000000 248.000000 -0.068088 0.079250 0.994527
14.89000034 9.32999992 0.41000000 98 29 192 0.000000 0.000000 0.000000 0.000000 -60.708740 0.000000 248.000000 -0.316496 0.137193 0.938621
14.88000011 9.31999969 0.44000000 98 29 192 0.000000 0.000000 0.000000 0.000000 -60.708740 0.000000 248.000000 0.695679 -0.086048 -0.713180
14.89999962 9.31999969 0.41999999 98 29 192 0.000000 0.000000 0.000000 0.000000 -60.708740 0.000000 248.000000 -0.550553 -0.012295 0.834710
14.89999962 9.31000042 0.44999999 98 29 192 0.000000 0.000000 0.000000 0.000000 -60.708740 0.000000 248.000000 -0.417252 0.122225 0.900534
14.88000011 9.31000042 0.47000000 98 29 192 0.000000 0.000000 0.000000 0.000000 -60.708740 0.000000 248.000000 0.729664 -0.064763 -0.680732
14.89000034 9.31000042 0.44999999 98 29 192 0.000000 0.000000 0.000000 0.000000 -60.708740 0.000000 248.000000 -0.226482 0.188958 0.955511
14.93999958 9.35999966 0.38000000 98 29 192 0.000000 0.000000 0.000000 0.000000 -60.708740 0.000000 248.000000 -0.218898 0.179098 0.959170
14.93000031 9.25000000 0.47000000 98 29 192 0.000000 0.000000 0.000000 0.000000 -60.708740 0.000000 248.000000 -0.570155 0.256020 0.780626
14.93000031 9.22000027 0.47999999 98 29 192 0.000000 0.000000 0.000000 0.000000 -60.708740 0.000000 248.000000 0.689947 -0.329551 -0.644492
14.93000031 9.19999981 0.47999999 98 29 192 0.000000 0.000000 0.000000 0.000000 -60.708740 0.000000 248.000000 -0.329458 -0.180851 0.926688
14.89000034 9.23999977 0.44999999 98 29 192 0.000000 0.000000 0.000000 0.000000 -60.708740 0.000000 248.000000 0.731719 -0.029607 -0.680964
14.89999962 9.23999977 0.44999999 98 29 192 0.000000 0.000000 0.000000 0.000000 -60.708740 0.000000 248.000000 0.700768 0.354468 -0.619093
14.88000011 9.25000000 0.46000001 98 29 192 0.000000 0.000000 0.000000 0.000000 -60.708740 0.000000 248.000000 0.711377 0.092406 -0.696709
14.89000034 9.27000046 0.43000001 98 29 192 0.000000 0.000000 0.000000 0.000000 -60.708740 0.000000 248.000000 -0.420773 0.119618 0.899245
14.89000034 9.23999977 0.44000000 98 29 192 0.000000 0.000000 0.000000 0.000000 -60.708740 0.000000 248.000000 -0.585698 0.134933 0.799219
14.89000034 9.26000023 0.43000001 98 29 192 0.000000 0.000000 0.000000 0.000000 -60.708740 0.000000 248.000000 -0.644917 -0.009708 0.764191
14.85999966 9.25000000 0.43000001 98 29 192 0.000000 0.000000 0.000000 0.000000 -60.708740 0.000000 248.000000 -0.580443 -0.287836 0.761732
