//X Y Z R G B PointSourceId ScanDirectionFlag NumberOfReturns ReturnNumber GpsTime Intensity Classification Nx Ny Nz
10.53999996 -2.21000004 0.30000001 68 255 94 0.000000 0.000000 0.000000 0.000000 -60.708740 0.000000 150.000000 0.588818 0.784581 -0.194233
10.55000019 -2.21000004 0.27000001 68 255 94 0.000000 0.000000 0.000000 0.000000 -60.708740 0.000000 150.000000 0.271991 0.919590 -0.283504
10.53999996 -2.21000004 0.25999999 68 255 94 0.000000 0.000000 0.000000 0.000000 -60.708740 0.000000 150.000000 0.278457 0.826038 -0.490023
10.53999996 -2.21000004 0.25999999 68 255 94 0.000000 0.000000 0.000000 0.000000 -60.708740 0.000000 150.000000 0.278457 0.826038 -0.490023
10.52000046 -2.17000008 0.31000000 68 255 94 0.000000 0.000000 0.000000 0.000000 -60.708740 0.000000 150.000000 0.738837 0.381705 -0.555357
10.51000023 -2.17000008 0.30000001 68 255 94 0.000000 0.000000 0.000000 0.000000 -60.708740 0.000000 150.000000 0.611029 0.624495 -0.486466
10.51000023 -2.17000008 0.30000001 68 255 94 0.000000 0.000000 0.000000 0.000000 -60.708740 0.000000 150.000000 0.611029 0.624495 -0.486466
10.51000023 -2.17000008 0.30000001 68 255 94 0.000000 0.000000 0.000000 0.000000 -60.708740 0.000000 150.000000 0.611029 0.624495 -0.486466
10.52000046 -2.17000008 0.23999999 68 255 94 0.000000 0.000000 0.000000 0.000000 -60.708740 0.000000 150.000000 0.524395 0.851291 -0.017707
10.51000023 -2.16000009 0.23999999 68 255 94 0.000000 0.000000 0.000000 0.000000 -60.708740 0.000000 150.000000 0.910022 0.348673 -0.224250
10.52000046 -2.15000010 0.25000000 68 255 94 0.000000 0.000000 0.000000 0.000000 -60.708740 0.000000 150.000000 0.737039 0.512794 -0.440245
10.51000023 -2.14000010 0.25999999 68 255 94 0.000000 0.000000 0.000000 0.000000 -60.708740 0.000000 150.000000 0.788719 0.612501 -0.052581
10.52999973 -2.20000005 0.31000000 68 255 94 0.000000 0.000000 0.000000 0.000000 -60.708740 0.000000 150.000000 0.692989 0.667500 -0.272416
10.52999973 -2.19000006 0.31000000 68 255 94 0.000000 0.000000 0.000000 0.000000 -60.708740 0.000000 150.000000 0.885921 0.429141 -0.176020
10.50000000 -2.20000005 0.28000000 68 255 94 0.000000 0.000000 0.000000 0.000000 -60.708740 0.000000 150.000000 0.698711 0.673476 -0.241316
10.51000023 -2.19000006 0.28999999 68 255 94 0.000000 0.000000 0.000000 0.000000 -60.708740 0.000000 150.000000 0.863634 0.330983 -0.380245
10.52999973 -2.21000004 0.28999999 68 255 94 0.000000 0.000000 0.000000 0.000000 -60.708740 0.000000 150.000000 0.582087 0.812698 0.026395
10.52999973 -2.21000004 0.28999999 68 255 94 0.000000 0.000000 0.000000 0.000000 -60.708740 0.000000 150.000000 0.582087 0.812698 0.026395
10.52000046 -2.21000004 0.23999999 68 255 94 0.000000 0.000000 0.000000 0.000000 -60.708740 0.000000 150.000000 0.669863 0.689048 -0.276578
10.52999973 -2.20000005 0.27000001 68 255 94 0.000000 0.000000 0.000000 0.000000 -60.708740 0.000000 150.000000 0.534074 0.836765 -0.120785
10.51000023 -2.20000005 0.25000000 68 255 94 0.000000 0.000000 0.000000 0.000000 -60.708740 0.000000 150.000000 0.845121 0.470875 -0.253076
10.52000046 -2.21000004 0.25000000 68 255 94 0.000000 0.000000 0.000000 0.000000 -60.708740 0.000000 150.000000 0.546353 0.686701 -0.479521
10.52000046 -2.21000004 0.25000000 68 255 94 0.000000 0.000000 0.000000 0.000000 -60.708740 0.000000 150.000000 0.546353 0.686701 -0.479521
10.51000023 -2.05999994 0.11000000 68 255 94 0.000000 0.000000 0.000000 0.000000 -60.708740 0.000000 150.000000 0.708592 -0.322677 -0.627517
10.60000038 -2.23000002 0.28999999 68 255 94 0.000000 0.000000 0.000000 0.000000 -60.708740 0.000000 150.000000 0.464504 0.847758 -0.256014
10.57999992 -2.23000002 0.23999999 68 255 94 0.000000 0.000000 0.000000 0.000000 -60.708740 0.000000 150.000000 0.457965 0.880263 0.124121
10.53999996 -2.22000003 0.27000001 68 255 94 0.000000 0.000000 0.000000 0.000000 -60.708740 0.000000 150.000000 0.403761 0.861253 -0.308577
10.55000019 -2.22000003 0.25999999 68 255 94 0.000000 0.000000 0.000000 0.000000 -60.708740 0.000000 150.000000 0.258425 0.824794 -0.502923
10.52000046 -2.22000003 0.25000000 68 255 94 0.000000 0.000000 0.000000 0.000000 -60.708740 0.000000 150.000000 0.814476 0.538382 -0.216273
10.47999954 -2.05999994 0.23999999 68 255 94 0.000000 0.000000 0.000000 0.000000 -60.708740 0.000000 150.000000 0.760294 -0.308919 -0.571421
10.47999954 -2.07999992 0.23999999 68 255 94 0.000000 0.000000 0.000000 0.000000 -60.708740 0.000000 150.000000 0.999395 -0.009150 -0.033550
10.48999977 -2.06999993 0.25000000 68 255 94 0.000000 0.000000 0.000000 0.000000 -60.708740 0.000000 150.000000 0.873539 -0.447855 -0.190671
10.47000027 -2.09999990 0.23999999 68 255 94 0.000000 0.000000 0.000000 0.000000 -60.708740 0.000000 150.000000 0.973917 0.189757 -0.124410
10.47999954 -2.10999990 0.25000000 68 255 94 0.000000 0.000000 0.000000 0.000000 -60.708740 0.000000 150.000000 0.909144 0.282552 -0.305976
10.48999977 -2.10999990 0.25000000 68 255 94 0.000000 0.000000 0.000000 0.000000 -60.708740 0.000000 150.000000 0.706931 0.186359 -0.682289
10.43999958 -2.08999991 0.23999999 68 255 94 0.000000 0.000000 0.000000 0.000000 -60.708740 0.000000 150.000000 0.968652 -0.218234 -0.118689
10.44999981 -2.07999992 0.27000001 68 255 94 0.000000 0.000000 0.000000 0.000000 -60.708740 0.000000 150.000000 0.702413 -0.035333 -0.710892
10.43999958 -2.06999993 0.23999999 68 255 94 0.000000 0.000000 0.000000 0.000000 -60.708740 0.000000 150.000000 0.964280 0.157886 -0.212690
10.48999977 -2.07999992 0.19000000 68 255 94 0.000000 0.000000 0.000000 0.000000 -60.708740 0.000000 150.000000 0.871981 -0.017520 -0.489226
10.47000027 -2.10999990 0.22000000 68 255 94 0.000000 0.000000 0.000000 0.000000 -60.708740 0.000000 150.000000 0.853585 0.274312 -0.442883
10.47000027 -2.09999990 0.23000000 68 255 94 0.000000 0.000000 0.000000 0.000000 -60.708740 0.000000 150.000000 0.885335 0.236585 -0.400261
10.47000027 -2.13000011 0.22000000 68 255 94 0.000000 0.000000 0.000000 0.000000 -60.708740 0.000000 150.000000 0.822719 0.143791 -0.549962
10.43000031 -2.08999991 0.22000000 68 255 94 0.000000 0.000000 0.000000 0.000000 -60.708740 0.000000 150.000000 0.936403 0.261745 -0.233751
10.44999981 -2.06999993 0.16000000 68 255 94 0.000000 0.000000 0.000000 0.000000 -60.708740 0.000000 150.000000 0.880039 -0.381904 -0.282277
10.42000008 -2.07999992 0.17000000 68 255 94 0.000000 0.000000 0.000000 0.000000 -60.708740 0.000000 150.000000 0.897736 -0.187089 -0.398833
10.44999981 -2.06999993 0.16000000 68 255 94 0.000000 0.000000 0.000000 0.000000 -60.708740 0.000000 150.000000 0.880039 -0.381904 -0.282277
10.48999977 -2.14000010 0.25999999 68 255 94 0.000000 0.000000 0.000000 0.000000 -60.708740 0.000000 150.000000 -0.737383 -0.267995 0.620036
10.48999977 -2.14000010 0.23000000 68 255 94 0.000000 0.000000 0.000000 0.000000 -60.708740 0.000000 150.000000 0.915661 0.380480 -0.129614
10.43999958 -2.06999993 0.14000000 68 255 94 0.000000 0.000000 0.000000 0.000000 -60.708740 0.000000 150.000000 0.803776 -0.141144 -0.577946
10.43000031 -2.05999994 0.13000000 68 255 94 0.000000 0.000000 0.000000 0.000000 -60.708740 0.000000 150.000000 0.933898 0.248571 -0.256997
10.43999958 -2.06999993 0.14000000 68 255 94 0.000000 0.000000 0.000000 0.000000 -60.708740 0.000000 150.000000 0.803776 -0.141144 -0.577946
10.43000031 -2.05999994 0.13000000 68 255 94 0.000000 0.000000 0.000000 0.000000 -60.708740 0.000000 150.000000 0.933898 0.248571 -0.256997
10.47999954 -2.05999994 0.04000000 68 255 94 0.000000 0.000000 0.000000 0.000000 -60.708740 0.000000 150.000000 0.736502 -0.478312 -0.478312
10.47999954 -2.06999993 0.03000000 68 255 94 0.000000 0.000000 0.000000 0.000000 -60.708740 0.000000 150.000000 0.839897 -0.359507 -0.406604
10.42000008 -2.07999992 0.03000000 68 255 94 0.000000 0.000000 0.000000 0.000000 -60.708740 0.000000 150.000000 0.791421 0.441836 -0.422415
10.39999962 -2.05999994 0.14000000 68 255 94 0.000000 0.000000 0.000000 0.000000 -60.708740 0.000000 150.000000 0.905248 0.092316 -0.414733
10.39000034 -2.09999990 0.13000000 68 255 94 0.000000 0.000000 0.000000 0.000000 -60.708740 0.000000 150.000000 0.999476 -0.013245 -0.029546
10.35999966 -2.06999993 0.02000000 68 255 94 0.000000 0.000000 0.000000 0.000000 -60.708740 0.000000 150.000000 0.696887 -0.156382 -0.699924
10.50000000 -1.90999997 -0.05000000 68 255 94 0.000000 0.000000 0.000000 0.000000 -60.708740 0.000000 150.000000 0.116598 0.923181 -0.366254
10.52000046 -1.92999995 -0.03000000 68 255 94 0.000000 0.000000 0.000000 0.000000 -60.708740 0.000000 150.000000 -0.061670 0.962811 0.263043
10.52000046 -1.92999995 -0.03000000 68 255 94 0.000000 0.000000 0.000000 0.000000 -60.708740 0.000000 150.000000 -0.061670 0.962811 0.263043
10.52999973 -1.92999995 -0.03000000 68 255 94 0.000000 0.000000 0.000000 0.000000 -60.708740 0.000000 150.000000 -0.123898 0.992280 0.005482
10.55000019 -1.95000005 -0.13000000 68 255 94 0.000000 0.000000 0.000000 0.000000 -60.708740 0.000000 150.000000 0.290314 0.858653 -0.422414
10.51000023 -1.96000004 -0.18000001 68 255 94 0.000000 0.000000 0.000000 0.000000 -60.708740 0.000000 150.000000 0.299371 0.842272 -0.448281
10.51000023 -1.96000004 -0.18000001 68 255 94 0.000000 0.000000 0.000000 0.000000 -60.708740 0.000000 150.000000 0.299371 0.842272 -0.448281
10.50000000 -1.96000004 -0.18000001 68 255 94 0.000000 0.000000 0.000000 0.000000 -60.708740 0.000000 150.000000 0.533170 0.779741 -0.328228
10.51000023 -1.94000006 -0.15000001 68 255 94 0.000000 0.000000 0.000000 0.000000 -60.708740 0.000000 150.000000 0.477667 0.818182 -0.320021
10.53999996 -1.99000001 -0.13000000 68 255 94 0.000000 0.000000 0.000000 0.000000 -60.708740 0.000000 150.000000 0.469726 0.875205 -0.115647
10.53999996 -1.97000003 -0.16000000 68 255 94 0.000000 0.000000 0.000000 0.000000 -60.708740 0.000000 150.000000 0.350437 0.897533 -0.267633
10.52999973 -2.00999999 -0.11000000 68 255 94 0.000000 0.000000 0.000000 0.000000 -60.708740 0.000000 150.000000 0.329851 0.801522 -0.498760
10.50000000 -2.02999997 -0.13000000 68 255 94 0.000000 0.000000 0.000000 0.000000 -60.708740 0.000000 150.000000 0.383760 0.921292 0.062846
10.50000000 -2.01999998 -0.14000000 68 255 94 0.000000 0.000000 0.000000 0.000000 -60.708740 0.000000 150.000000 0.309573 0.949270 -0.055235
10.52999973 -2.02999997 -0.18000001 68 255 94 0.000000 0.000000 0.000000 0.000000 -60.708740 0.000000 150.000000 0.710725 0.251682 -0.656906
10.51000023 -1.96000004 -0.23000000 68 255 94 0.000000 0.000000 0.000000 0.000000 -60.708740 0.000000 150.000000 0.555584 0.817737 0.150440
10.53999996 -1.95000005 -0.28000000 68 255 94 0.000000 0.000000 0.000000 0.000000 -60.708740 0.000000 150.000000 0.735674 0.677265 -0.009735
10.53999996 -1.96000004 -0.28000000 68 255 94 0.000000 0.000000 0.000000 0.000000 -60.708740 0.000000 150.000000 0.619239 0.772175 -0.142440
10.52999973 -1.97000003 -0.20000000 68 255 94 0.000000 0.000000 0.000000 0.000000 -60.708740 0.000000 150.000000 0.751050 0.650318 0.114065
10.52000046 -1.97000003 -0.25000000 68 255 94 0.000000 0.000000 0.000000 0.000000 -60.708740 0.000000 150.000000 0.769414 0.605972 -0.201991
10.52000046 -2.01999998 -0.20000000 68 255 94 0.000000 0.000000 0.000000 0.000000 -60.708740 0.000000 150.000000 0.939118 0.335870 -0.072443
10.52999973 -2.02999997 -0.19000000 68 255 94 0.000000 0.000000 0.000000 0.000000 -60.708740 0.000000 150.000000 0.940631 0.001253 -0.339429
10.52000046 -2.03999996 -0.27000001 68 255 94 0.000000 0.000000 0.000000 0.000000 -60.708740 0.000000 150.000000 0.960229 0.048953 -0.274889
10.51000023 -1.99000001 -0.28999999 68 255 94 0.000000 0.000000 0.000000 0.000000 -60.708740 0.000000 150.000000 0.538758 0.796356 -0.274876
10.51000023 -1.99000001 -0.31000000 68 255 94 0.000000 0.000000 0.000000 0.000000 -60.708740 0.000000 150.000000 0.803048 0.595721 -0.015204
10.50000000 -2.00999999 -0.30000001 68 255 94 0.000000 0.000000 0.000000 0.000000 -60.708740 0.000000 150.000000 0.963285 0.213047 -0.163379
10.50000000 -1.98000002 -0.31999999 68 255 94 0.000000 0.000000 0.000000 0.000000 -60.708740 0.000000 150.000000 0.930338 0.363475 -0.048551
10.50000000 -2.03999996 -0.34000000 68 255 94 0.000000 0.000000 0.000000 0.000000 -60.708740 0.000000 150.000000 0.988890 -0.124925 -0.080559
10.50000000 -2.04999995 -0.33000001 68 255 94 0.000000 0.000000 0.000000 0.000000 -60.708740 0.000000 150.000000 0.922901 0.011585 -0.384864
10.35999966 -1.88000000 -0.11000000 68 255 94 0.000000 0.000000 0.000000 0.000000 -60.708740 0.000000 150.000000 -0.327639 0.926671 -0.184209
10.35999966 -1.88000000 -0.17000000 68 255 94 0.000000 0.000000 0.000000 0.000000 -60.708740 0.000000 150.000000 -0.241136 0.970485 0.003564
10.42000008 -1.88000000 -0.30000001 68 255 94 0.000000 0.000000 0.000000 0.000000 -60.708740 0.000000 150.000000 0.223616 0.924375 -0.309074
10.42000008 -1.88000000 -0.30000001 68 255 94 0.000000 0.000000 0.000000 0.000000 -60.708740 0.000000 150.000000 0.223616 0.924375 -0.309074
10.38000011 -1.88000000 -0.20999999 68 255 94 0.000000 0.000000 0.000000 0.000000 -60.708740 0.000000 150.000000 -0.190420 0.943879 -0.269875
10.38000011 -1.88000000 -0.20999999 68 255 94 0.000000 0.000000 0.000000 0.000000 -60.708740 0.000000 150.000000 -0.190420 0.943879 -0.269875
10.38000011 -1.88000000 -0.20999999 68 255 94 0.000000 0.000000 0.000000 0.000000 -60.708740 0.000000 150.000000 -0.190420 0.943879 -0.269875
10.39999962 -1.88000000 -0.23999999 68 255 94 0.000000 0.000000 0.000000 0.000000 -60.708740 0.000000 150.000000 0.078066 0.938117 0.337405
10.39000034 -1.87000000 -0.34000000 68 255 94 0.000000 0.000000 0.000000 0.000000 -60.708740 0.000000 150.000000 0.080072 0.962134 -0.260551
10.39000034 -1.88000000 -0.34999999 68 255 94 0.000000 0.000000 0.000000 0.000000 -60.708740 0.000000 150.000000 0.314611 0.938386 -0.143005
10.39000034 -1.88000000 -0.34999999 68 255 94 0.000000 0.000000 0.000000 0.000000 -60.708740 0.000000 150.000000 0.314611 0.938386 -0.143005
10.39000034 -1.87000000 -0.34000000 68 255 94 0.000000 0.000000 0.000000 0.000000 -60.708740 0.000000 150.000000 0.080072 0.962134 -0.260551
10.35000038 -1.88000000 -0.34999999 68 255 94 0.000000 0.000000 0.000000 0.000000 -60.708740 0.000000 150.000000 -0.284764 0.869519 0.403542
10.48999977 -1.92999995 -0.09000000 68 255 94 0.000000 0.000000 0.000000 0.000000 -60.708740 0.000000 150.000000 -0.068600 0.996331 -0.051178
10.46000004 -2.04999995 -0.04000000 68 255 94 0.000000 0.000000 0.000000 0.000000 -60.708740 0.000000 150.000000 0.793512 -0.605463 -0.061259
10.46000004 -2.04999995 -0.03000000 68 255 94 0.000000 0.000000 0.000000 0.000000 -60.708740 0.000000 150.000000 -0.502241 0.742658 0.442960
10.43000031 -2.03999996 -0.04000000 68 255 94 0.000000 0.000000 0.000000 0.000000 -60.708740 0.000000 150.000000 -0.625227 0.700320 0.344446
10.47999954 -2.00999999 -0.14000000 68 255 94 0.000000 0.000000 0.000000 0.000000 -60.708740 0.000000 150.000000 0.421279 0.853360 -0.307086
10.39000034 -1.89999998 -0.10000000 68 255 94 0.000000 0.000000 0.000000 0.000000 -60.708740 0.000000 150.000000 -0.163602 0.806002 0.568854
10.32999992 -1.95000005 -0.05000000 68 255 94 0.000000 0.000000 0.000000 0.000000 -60.708740 0.000000 150.000000 0.667590 -0.714275 -0.210081
10.32999992 -1.96000004 -0.10000000 68 255 94 0.000000 0.000000 0.000000 0.000000 -60.708740 0.000000 150.000000 -0.523384 0.712799 0.466891
10.34000015 -1.94000006 -0.09000000 68 255 94 0.000000 0.000000 0.000000 0.000000 -60.708740 0.000000 150.000000 -0.555289 0.783099 0.280017
10.34000015 -1.95000005 -0.07000000 68 255 94 0.000000 0.000000 0.000000 0.000000 -60.708740 0.000000 150.000000 -0.640872 0.767083 0.029449
10.39000034 -1.90999997 -0.14000000 68 255 94 0.000000 0.000000 0.000000 0.000000 -60.708740 0.000000 150.000000 -0.096988 0.881325 0.462450
10.34000015 -1.91999996 -0.11000000 68 255 94 0.000000 0.000000 0.000000 0.000000 -60.708740 0.000000 150.000000 -0.437975 0.803757 0.402681
10.35000038 -1.91999996 -0.18000001 68 255 94 0.000000 0.000000 0.000000 0.000000 -60.708740 0.000000 150.000000 -0.382305 0.835407 0.394891
10.35000038 -1.91999996 -0.18000001 68 255 94 0.000000 0.000000 0.000000 0.000000 -60.708740 0.000000 150.000000 -0.382305 0.835407 0.394891
10.35999966 -1.92999995 -0.14000000 68 255 94 0.000000 0.000000 0.000000 0.000000 -60.708740 0.000000 150.000000 -0.410566 0.909208 -0.069105
10.39000034 -2.00999999 -0.03000000 68 255 94 0.000000 0.000000 0.000000 0.000000 -60.708740 0.000000 150.000000 0.819760 -0.269105 -0.505545
10.38000011 -2.01999998 -0.06000000 68 255 94 0.000000 0.000000 0.000000 0.000000 -60.708740 0.000000 150.000000 0.723389 -0.671827 -0.159237
10.39999962 -2.04999995 -0.06000000 68 255 94 0.000000 0.000000 0.000000 0.000000 -60.708740 0.000000 150.000000 0.909800 0.166583 -0.380151
10.32999992 -1.97000003 -0.04000000 68 255 94 0.000000 0.000000 0.000000 0.000000 -60.708740 0.000000 150.000000 -0.621704 0.467535 0.628407
10.34000015 -1.99000001 -0.05000000 68 255 94 0.000000 0.000000 0.000000 0.000000 -60.708740 0.000000 150.000000 0.521874 -0.619831 -0.586053
10.32999992 -1.97000003 -0.04000000 68 255 94 0.000000 0.000000 0.000000 0.000000 -60.708740 0.000000 150.000000 -0.621704 0.467535 0.628407
10.34000015 -1.99000001 -0.05000000 68 255 94 0.000000 0.000000 0.000000 0.000000 -60.708740 0.000000 150.000000 0.521874 -0.619831 -0.586053
10.32999992 -2.01999998 -0.04000000 68 255 94 0.000000 0.000000 0.000000 0.000000 -60.708740 0.000000 150.000000 0.819370 -0.137300 -0.556581
10.46000004 -1.89999998 -0.23000000 68 255 94 0.000000 0.000000 0.000000 0.000000 -60.708740 0.000000 150.000000 0.182453 0.906517 -0.380708
10.46000004 -1.89999998 -0.23000000 68 255 94 0.000000 0.000000 0.000000 0.000000 -60.708740 0.000000 150.000000 0.182453 0.906517 -0.380708
10.48999977 -1.95000005 -0.25999999 68 255 94 0.000000 0.000000 0.000000 0.000000 -60.708740 0.000000 150.000000 0.256473 0.966331 -0.020664
10.42000008 -1.88999999 -0.23000000 68 255 94 0.000000 0.000000 0.000000 0.000000 -60.708740 0.000000 150.000000 -0.042973 0.933686 -0.355504
10.48999977 -1.91999996 -0.31000000 68 255 94 0.000000 0.000000 0.000000 0.000000 -60.708740 0.000000 150.000000 0.406583 0.735800 -0.541562
10.48999977 -1.91999996 -0.31000000 68 255 94 0.000000 0.000000 0.000000 0.000000 -60.708740 0.000000 150.000000 0.406583 0.735800 -0.541562
10.44999981 -1.88999999 -0.28000000 68 255 94 0.000000 0.000000 0.000000 0.000000 -60.708740 0.000000 150.000000 0.445098 0.838658 -0.313911
10.47000027 -2.03999996 -0.23999999 68 255 94 0.000000 0.000000 0.000000 0.000000 -60.708740 0.000000 150.000000 0.718858 0.503034 -0.479792
10.38000011 -1.89999998 -0.20000000 68 255 94 0.000000 0.000000 0.000000 0.000000 -60.708740 0.000000 150.000000 -0.105216 0.893631 0.436294
10.39000034 -1.88999999 -0.27000001 68 255 94 0.000000 0.000000 0.000000 0.000000 -60.708740 0.000000 150.000000 -0.136576 0.976081 -0.169154
10.36999989 -1.89999998 -0.25000000 68 255 94 0.000000 0.000000 0.000000 0.000000 -60.708740 0.000000 150.000000 -0.022268 0.912990 0.407374
10.40999985 -1.88999999 -0.27000001 68 255 94 0.000000 0.000000 0.000000 0.000000 -60.708740 0.000000 150.000000 0.245923 0.883832 0.397948
10.39000034 -1.88999999 -0.27000001 68 255 94 0.000000 0.000000 0.000000 0.000000 -60.708740 0.000000 150.000000 -0.136576 0.976081 -0.169154
10.34000015 -1.88999999 -0.22000000 68 255 94 0.000000 0.000000 0.000000 0.000000 -60.708740 0.000000 150.000000 -0.205065 0.976790 -0.061884
10.35000038 -1.91999996 -0.19000000 68 255 94 0.000000 0.000000 0.000000 0.000000 -60.708740 0.000000 150.000000 -0.492923 0.867154 -0.071216
10.35000038 -1.90999997 -0.22000000 68 255 94 0.000000 0.000000 0.000000 0.000000 -60.708740 0.000000 150.000000 -0.176499 0.905456 0.386003
10.35000038 -1.88999999 -0.25000000 68 255 94 0.000000 0.000000 0.000000 0.000000 -60.708740 0.000000 150.000000 -0.138166 0.972234 0.188869
10.34000015 -1.94000006 -0.20000000 68 255 94 0.000000 0.000000 0.000000 0.000000 -60.708740 0.000000 150.000000 -0.326925 0.900893 0.285505
10.32999992 -1.94000006 -0.20999999 68 255 94 0.000000 0.000000 0.000000 0.000000 -60.708740 0.000000 150.000000 -0.646970 0.762049 -0.026665
10.35000038 -1.94000006 -0.20999999 68 255 94 0.000000 0.000000 0.000000 0.000000 -60.708740 0.000000 150.000000 -0.478821 0.705719 0.522199
10.34000015 -1.92999995 -0.23999999 68 255 94 0.000000 0.000000 0.000000 0.000000 -60.708740 0.000000 150.000000 -0.650262 0.759338 -0.023773
10.32999992 -1.94000006 -0.25999999 68 255 94 0.000000 0.000000 0.000000 0.000000 -60.708740 0.000000 150.000000 -0.557725 0.771866 0.305231
10.34000015 -1.92999995 -0.23999999 68 255 94 0.000000 0.000000 0.000000 0.000000 -60.708740 0.000000 150.000000 -0.650262 0.759338 -0.023773
10.34000015 -1.92999995 -0.23999999 68 255 94 0.000000 0.000000 0.000000 0.000000 -60.708740 0.000000 150.000000 -0.650262 0.759338 -0.023773
10.39000034 -1.88999999 -0.31999999 68 255 94 0.000000 0.000000 0.000000 0.000000 -60.708740 0.000000 150.000000 0.107812 0.923910 0.367107
10.39000034 -1.88999999 -0.31999999 68 255 94 0.000000 0.000000 0.000000 0.000000 -60.708740 0.000000 150.000000 0.107812 0.923910 0.367107
10.34000015 -1.91999996 -0.28999999 68 255 94 0.000000 0.000000 0.000000 0.000000 -60.708740 0.000000 150.000000 -0.336764 0.940079 0.053310
10.34000015 -1.91999996 -0.31000000 68 255 94 0.000000 0.000000 0.000000 0.000000 -60.708740 0.000000 150.000000 -0.491655 0.837804 0.237403
10.35000038 -1.88999999 -0.31000000 68 255 94 0.000000 0.000000 0.000000 0.000000 -60.708740 0.000000 150.000000 -0.066762 0.903324 0.423731
10.35999966 -1.90999997 -0.28999999 68 255 94 0.000000 0.000000 0.000000 0.000000 -60.708740 0.000000 150.000000 -0.451708 0.888128 -0.084782
10.35000038 -1.88999999 -0.28999999 68 255 94 0.000000 0.000000 0.000000 0.000000 -60.708740 0.000000 150.000000 -0.148946 0.880658 0.449729
10.35000038 -1.88999999 -0.30000001 68 255 94 0.000000 0.000000 0.000000 0.000000 -60.708740 0.000000 150.000000 -0.289286 0.934939 0.205435
10.35000038 -1.88999999 -0.33000001 68 255 94 0.000000 0.000000 0.000000 0.000000 -60.708740 0.000000 150.000000 -0.052323 0.994137 0.094627
10.35000038 -1.90999997 -0.31999999 68 255 94 0.000000 0.000000 0.000000 0.000000 -60.708740 0.000000 150.000000 -0.195079 0.884454 0.423893
10.35000038 -1.88999999 -0.34000000 68 255 94 0.000000 0.000000 0.000000 0.000000 -60.708740 0.000000 150.000000 -0.318236 0.932474 0.170930
10.35000038 -1.90999997 -0.31999999 68 255 94 0.000000 0.000000 0.000000 0.000000 -60.708740 0.000000 150.000000 -0.195079 0.884454 0.423893
10.32999992 -1.92999995 -0.34000000 68 255 94 0.000000 0.000000 0.000000 0.000000 -60.708740 0.000000 150.000000 -0.326696 0.930040 -0.168214
10.40999985 -2.04999995 -0.20999999 68 255 94 0.000000 0.000000 0.000000 0.000000 -60.708740 0.000000 150.000000 0.597908 -0.618119 -0.510327
10.36999989 -2.01999998 -0.19000000 68 255 94 0.000000 0.000000 0.000000 0.000000 -60.708740 0.000000 150.000000 0.828022 -0.560654 -0.006821
10.40999985 -2.04999995 -0.20999999 68 255 94 0.000000 0.000000 0.000000 0.000000 -60.708740 0.000000 150.000000 0.597908 -0.618119 -0.510327
10.39000034 -2.01999998 -0.23999999 68 255 94 0.000000 0.000000 0.000000 0.000000 -60.708740 0.000000 150.000000 0.731555 -0.681770 -0.004149
10.39000034 -2.01999998 -0.23999999 68 255 94 0.000000 0.000000 0.000000 0.000000 -60.708740 0.000000 150.000000 0.731555 -0.681770 -0.004149
10.32999992 -1.97000003 -0.25999999 68 255 94 0.000000 0.000000 0.000000 0.000000 -60.708740 0.000000 150.000000 0.823514 -0.470804 -0.316494
10.35999966 -2.02999997 -0.19000000 68 255 94 0.000000 0.000000 0.000000 0.000000 -60.708740 0.000000 150.000000 0.718846 -0.642677 -0.265005
10.35000038 -2.03999996 -0.28000000 68 255 94 0.000000 0.000000 0.000000 0.000000 -60.708740 0.000000 150.000000 0.960000 -0.259704 -0.104657
10.35000038 -2.03999996 -0.28999999 68 255 94 0.000000 0.000000 0.000000 0.000000 -60.708740 0.000000 150.000000 0.707044 -0.397197 -0.585083
10.32999992 -2.01999998 -0.28000000 68 255 94 0.000000 0.000000 0.000000 0.000000 -60.708740 0.000000 150.000000 0.803827 -0.481018 -0.349976
10.34000015 -2.03999996 -0.30000001 68 255 94 0.000000 0.000000 0.000000 0.000000 -60.708740 0.000000 150.000000 0.864625 -0.437612 -0.246819
10.34000015 -2.04999995 -0.31000000 68 255 94 0.000000 0.000000 0.000000 0.000000 -60.708740 0.000000 150.000000 0.950233 -0.174367 -0.258172
10.34000015 -2.04999995 -0.30000001 68 255 94 0.000000 0.000000 0.000000 0.000000 -60.708740 0.000000 150.000000 0.998489 -0.019865 -0.051231
10.32999992 -2.04999995 -0.31999999 68 255 94 0.000000 0.000000 0.000000 0.000000 -60.708740 0.000000 150.000000 0.924178 -0.068210 -0.375823
10.50000000 -1.92999995 -0.43000001 68 255 94 0.000000 0.000000 0.000000 0.000000 -60.708740 0.000000 150.000000 0.487973 0.662369 -0.568463
10.51000023 -1.92999995 -0.43000001 68 255 94 0.000000 0.000000 0.000000 0.000000 -60.708740 0.000000 150.000000 0.536634 0.709421 -0.456887
10.52000046 -1.97000003 -0.41000000 68 255 94 0.000000 0.000000 0.000000 0.000000 -60.708740 0.000000 150.000000 0.697213 0.655540 -0.290105
10.51000023 -1.99000001 -0.40000001 68 255 94 0.000000 0.000000 0.000000 0.000000 -60.708740 0.000000 150.000000 0.935699 0.278332 -0.216791
10.50000000 -2.03999996 -0.43000001 68 255 94 0.000000 0.000000 0.000000 0.000000 -60.708740 0.000000 150.000000 0.890436 -0.175763 -0.419798
10.52999973 -1.98000002 -0.49000001 68 255 94 0.000000 0.000000 0.000000 0.000000 -60.708740 0.000000 150.000000 0.827118 0.561893 -0.012304
10.52000046 -2.03999996 -0.50999999 68 255 94 0.000000 0.000000 0.000000 0.000000 -60.708740 0.000000 150.000000 0.909970 0.142051 -0.389585
10.53999996 -1.94000006 -0.57999998 68 255 94 0.000000 0.000000 0.000000 0.000000 -60.708740 0.000000 150.000000 0.617985 0.634732 -0.463907
10.51000023 -1.91999996 -0.55000001 68 255 94 0.000000 0.000000 0.000000 0.000000 -60.708740 0.000000 150.000000 0.628975 0.548034 -0.551407
10.51000023 -1.91999996 -0.55000001 68 255 94 0.000000 0.000000 0.000000 0.000000 -60.708740 0.000000 150.000000 0.628975 0.548034 -0.551407
10.50000000 -1.89999998 -0.58999997 68 255 94 0.000000 0.000000 0.000000 0.000000 -60.708740 0.000000 150.000000 0.732446 0.497666 -0.464599
10.52000046 -1.90999997 -0.60000002 68 255 94 0.000000 0.000000 0.000000 0.000000 -60.708740 0.000000 150.000000 0.682681 0.565841 -0.462354
10.53999996 -1.96000004 -0.69000000 68 255 94 0.000000 0.000000 0.000000 0.000000 -60.708740 0.000000 150.000000 0.777516 0.138789 -0.613357
10.53999996 -1.96000004 -0.69000000 68 255 94 0.000000 0.000000 0.000000 0.000000 -60.708740 0.000000 150.000000 0.777516 0.138789 -0.613357
10.51000023 -1.88999999 -0.69000000 68 255 94 0.000000 0.000000 0.000000 0.000000 -60.708740 0.000000 150.000000 0.531637 0.682576 -0.501450
10.51000023 -1.88999999 -0.69000000 68 255 94 0.000000 0.000000 0.000000 0.000000 -60.708740 0.000000 150.000000 0.531637 0.682576 -0.501450
10.52000046 -1.95000005 -0.67000002 68 255 94 0.000000 0.000000 0.000000 0.000000 -60.708740 0.000000 150.000000 0.826809 0.127766 -0.547779
10.52000046 -1.99000001 -0.58999997 68 255 94 0.000000 0.000000 0.000000 0.000000 -60.708740 0.000000 150.000000 0.951586 0.307321 -0.006171
10.52000046 -1.99000001 -0.58999997 68 255 94 0.000000 0.000000 0.000000 0.000000 -60.708740 0.000000 150.000000 0.951586 0.307321 -0.006171
10.51000023 -1.97000003 -0.62000000 68 255 94 0.000000 0.000000 0.000000 0.000000 -60.708740 0.000000 150.000000 -0.728564 -0.092353 0.678723
10.50000000 -1.98000002 -0.68000001 68 255 94 0.000000 0.000000 0.000000 0.000000 -60.708740 0.000000 150.000000 0.779126 0.377415 -0.500520
10.51000023 -2.00999999 -0.64999998 68 255 94 0.000000 0.000000 0.000000 0.000000 -60.708740 0.000000 150.000000 0.899585 0.058344 -0.432832
10.43000031 -1.87000000 -0.40000001 68 255 94 0.000000 0.000000 0.000000 0.000000 -60.708740 0.000000 150.000000 0.602676 0.790371 -0.109977
10.43000031 -1.87000000 -0.40000001 68 255 94 0.000000 0.000000 0.000000 0.000000 -60.708740 0.000000 150.000000 0.602676 0.790371 -0.109977
10.43000031 -1.85000002 -0.51999998 68 255 94 0.000000 0.000000 0.000000 0.000000 -60.708740 0.000000 150.000000 0.408183 0.808362 -0.424190
10.43000031 -1.85000002 -0.51999998 68 255 94 0.000000 0.000000 0.000000 0.000000 -60.708740 0.000000 150.000000 0.408183 0.808362 -0.424190
10.35999966 -1.88000000 -0.36000001 68 255 94 0.000000 0.000000 0.000000 0.000000 -60.708740 0.000000 150.000000 -0.114676 0.887676 0.445961
10.35000038 -1.87000000 -0.38999999 68 255 94 0.000000 0.000000 0.000000 0.000000 -60.708740 0.000000 150.000000 -0.103726 0.973523 0.203702
10.36999989 -1.84000003 -0.47999999 68 255 94 0.000000 0.000000 0.000000 0.000000 -60.708740 0.000000 150.000000 0.437939 0.877353 -0.196114
10.36999989 -1.87000000 -0.47000000 68 255 94 0.000000 0.000000 0.000000 0.000000 -60.708740 0.000000 150.000000 -0.075697 0.988716 -0.129267
10.39999962 -1.88000000 -0.46000001 68 255 94 0.000000 0.000000 0.000000 0.000000 -60.708740 0.000000 150.000000 0.125857 0.937841 -0.323440
10.38000011 -1.86000001 -0.47999999 68 255 94 0.000000 0.000000 0.000000 0.000000 -60.708740 0.000000 150.000000 0.240725 0.956250 -0.166246
10.35999966 -1.87000000 -0.44000000 68 255 94 0.000000 0.000000 0.000000 0.000000 -60.708740 0.000000 150.000000 0.323318 0.921526 -0.215070
10.34000015 -1.85000002 -0.47000000 68 255 94 0.000000 0.000000 0.000000 0.000000 -60.708740 0.000000 150.000000 0.490731 0.868858 0.065338
10.32999992 -1.88000000 -0.46000001 68 255 94 0.000000 0.000000 0.000000 0.000000 -60.708740 0.000000 150.000000 0.410132 0.910358 -0.055132
10.35000038 -1.87000000 -0.46000001 68 255 94 0.000000 0.000000 0.000000 0.000000 -60.708740 0.000000 150.000000 0.287455 0.957775 -0.006116
10.32999992 -1.88000000 -0.46000001 68 255 94 0.000000 0.000000 0.000000 0.000000 -60.708740 0.000000 150.000000 0.410132 0.910358 -0.055132
10.32999992 -1.85000002 -0.49000001 68 255 94 0.000000 0.000000 0.000000 0.000000 -60.708740 0.000000 150.000000 0.065673 0.982706 -0.173138
10.42000008 -1.84000003 -0.68000001 68 255 94 0.000000 0.000000 0.000000 0.000000 -60.708740 0.000000 150.000000 0.612326 0.731255 -0.300538
10.42000008 -1.83000004 -0.67000002 68 255 94 0.000000 0.000000 0.000000 0.000000 -60.708740 0.000000 150.000000 0.559203 0.745060 -0.363563
10.42000008 -1.84000003 -0.64999998 68 255 94 0.000000 0.000000 0.000000 0.000000 -60.708740 0.000000 150.000000 0.316218 0.856103 -0.408770
10.35000038 -1.79999995 -0.68000001 68 255 94 0.000000 0.000000 0.000000 0.000000 -60.708740 0.000000 150.000000 0.463653 0.832078 -0.304419
10.34000015 -1.86000001 -0.55000001 68 255 94 0.000000 0.000000 0.000000 0.000000 -60.708740 0.000000 150.000000 0.421439 0.906811 -0.009133
10.35000038 -1.86000001 -0.52999997 68 255 94 0.000000 0.000000 0.000000 0.000000 -60.708740 0.000000 150.000000 0.353672 0.934980 -0.027008
10.35999966 -1.86000001 -0.57999998 68 255 94 0.000000 0.000000 0.000000 0.000000 -60.708740 0.000000 150.000000 0.471745 0.869462 -0.146604
10.35999966 -1.86000001 -0.56999999 68 255 94 0.000000 0.000000 0.000000 0.000000 -60.708740 0.000000 150.000000 0.064515 0.960139 -0.271976
10.38000011 -1.84000003 -0.62000000 68 255 94 0.000000 0.000000 0.000000 0.000000 -60.708740 0.000000 150.000000 0.731901 0.665502 -0.146380
10.39000034 -1.83000004 -0.68000001 68 255 94 0.000000 0.000000 0.000000 0.000000 -60.708740 0.000000 150.000000 0.665528 0.729201 -0.159181
10.32999992 -1.84000003 -0.63999999 68 255 94 0.000000 0.000000 0.000000 0.000000 -60.708740 0.000000 150.000000 0.250480 0.945803 0.206680
10.32999992 -1.88000000 -0.63000000 68 255 94 0.000000 0.000000 0.000000 0.000000 -60.708740 0.000000 150.000000 0.308204 0.903966 0.296406
10.35999966 -1.87000000 -0.63000000 68 255 94 0.000000 0.000000 0.000000 0.000000 -60.708740 0.000000 150.000000 0.530477 0.836126 -0.139599
10.34000015 -1.85000002 -0.62000000 68 255 94 0.000000 0.000000 0.000000 0.000000 -60.708740 0.000000 150.000000 0.210198 0.974779 0.074983
10.34000015 -1.85000002 -0.63000000 68 255 94 0.000000 0.000000 0.000000 0.000000 -60.708740 0.000000 150.000000 0.258839 0.965433 0.030668
10.32999992 -1.88000000 -0.62000000 68 255 94 0.000000 0.000000 0.000000 0.000000 -60.708740 0.000000 150.000000 0.509208 0.844720 0.164787
10.35000038 -1.86000001 -0.63999999 68 255 94 0.000000 0.000000 0.000000 0.000000 -60.708740 0.000000 150.000000 0.258713 0.949517 -0.177442
10.32999992 -1.88000000 -0.62000000 68 255 94 0.000000 0.000000 0.000000 0.000000 -60.708740 0.000000 150.000000 0.509208 0.844720 0.164787
10.35999966 -1.86000001 -0.63000000 68 255 94 0.000000 0.000000 0.000000 0.000000 -60.708740 0.000000 150.000000 0.398221 0.862556 -0.312119
10.32999992 -1.88000000 -0.63000000 68 255 94 0.000000 0.000000 0.000000 0.000000 -60.708740 0.000000 150.000000 0.308204 0.903966 0.296406
10.46000004 -1.88999999 -0.41999999 68 255 94 0.000000 0.000000 0.000000 0.000000 -60.708740 0.000000 150.000000 0.613851 0.643958 -0.456625
10.43000031 -1.88999999 -0.37000000 68 255 94 0.000000 0.000000 0.000000 0.000000 -60.708740 0.000000 150.000000 0.611490 0.778940 -0.139043
10.42000008 -1.88999999 -0.38000000 68 255 94 0.000000 0.000000 0.000000 0.000000 -60.708740 0.000000 150.000000 0.135232 0.915953 -0.377813
10.42000008 -1.88999999 -0.41999999 68 255 94 0.000000 0.000000 0.000000 0.000000 -60.708740 0.000000 150.000000 0.504503 0.816889 0.279585
10.42000008 -1.88999999 -0.41000000 68 255 94 0.000000 0.000000 0.000000 0.000000 -60.708740 0.000000 150.000000 0.169213 0.927177 -0.334231
10.48999977 -1.88999999 -0.47999999 68 255 94 0.000000 0.000000 0.000000 0.000000 -60.708740 0.000000 150.000000 0.704590 0.481387 -0.521363
10.48999977 -1.88999999 -0.47999999 68 255 94 0.000000 0.000000 0.000000 0.000000 -60.708740 0.000000 150.000000 0.704590 0.481387 -0.521363
10.46000004 -1.89999998 -0.47000000 68 255 94 0.000000 0.000000 0.000000 0.000000 -60.708740 0.000000 150.000000 0.530606 0.725658 -0.438039
10.48999977 -1.98000002 -0.43000001 68 255 94 0.000000 0.000000 0.000000 0.000000 -60.708740 0.000000 150.000000 0.855790 0.123083 -0.502469
10.48999977 -2.04999995 -0.36000001 68 255 94 0.000000 0.000000 0.000000 0.000000 -60.708740 0.000000 150.000000 0.885158 -0.315159 -0.342301
10.44999981 -2.00999999 -0.38000000 68 255 94 0.000000 0.000000 0.000000 0.000000 -60.708740 0.000000 150.000000 0.875898 0.381023 -0.296014
10.44999981 -2.00999999 -0.38000000 68 255 94 0.000000 0.000000 0.000000 0.000000 -60.708740 0.000000 150.000000 0.875898 0.381023 -0.296014
10.48999977 -2.00999999 -0.44000000 68 255 94 0.000000 0.000000 0.000000 0.000000 -60.708740 0.000000 150.000000 0.859059 0.502899 -0.095451
10.48999977 -2.00999999 -0.44999999 68 255 94 0.000000 0.000000 0.000000 0.000000 -60.708740 0.000000 150.000000 0.981807 0.183571 -0.048557
10.47000027 -2.00999999 -0.50999999 68 255 94 0.000000 0.000000 0.000000 0.000000 -60.708740 0.000000 150.000000 0.889841 -0.157200 -0.428335
10.47999954 -2.02999997 -0.49000001 68 255 94 0.000000 0.000000 0.000000 0.000000 -60.708740 0.000000 150.000000 0.944992 -0.221461 -0.240718
10.47999954 -2.01999998 -0.49000001 68 255 94 0.000000 0.000000 0.000000 0.000000 -60.708740 0.000000 150.000000 0.889997 -0.129583 -0.437166
10.42000008 -2.03999996 -0.46000001 68 255 94 0.000000 0.000000 0.000000 0.000000 -60.708740 0.000000 150.000000 0.703407 0.290015 -0.648929
10.36999989 -1.90999997 -0.37000000 68 255 94 0.000000 0.000000 0.000000 0.000000 -60.708740 0.000000 150.000000 0.060592 0.991192 0.117754
10.36999989 -1.92999995 -0.38000000 68 255 94 0.000000 0.000000 0.000000 0.000000 -60.708740 0.000000 150.000000 -0.331390 0.937821 0.103308
10.34000015 -1.90999997 -0.38000000 68 255 94 0.000000 0.000000 0.000000 0.000000 -60.708740 0.000000 150.000000 -0.480840 0.876347 -0.028444
10.34000015 -1.90999997 -0.38999999 68 255 94 0.000000 0.000000 0.000000 0.000000 -60.708740 0.000000 150.000000 0.267082 0.957587 -0.108136
10.34000015 -1.91999996 -0.38999999 68 255 94 0.000000 0.000000 0.000000 0.000000 -60.708740 0.000000 150.000000 0.067905 0.997687 0.003134
10.34000015 -1.90999997 -0.38000000 68 255 94 0.000000 0.000000 0.000000 0.000000 -60.708740 0.000000 150.000000 -0.480840 0.876347 -0.028444
10.32999992 -1.91999996 -0.43000001 68 255 94 0.000000 0.000000 0.000000 0.000000 -60.708740 0.000000 150.000000 0.035631 0.996584 -0.074501
10.35999966 -1.88999999 -0.44000000 68 255 94 0.000000 0.000000 0.000000 0.000000 -60.708740 0.000000 150.000000 -0.258622 0.961146 -0.096501
10.34000015 -1.88999999 -0.47000000 68 255 94 0.000000 0.000000 0.000000 0.000000 -60.708740 0.000000 150.000000 0.159437 0.975451 -0.151904
10.35999966 -1.88999999 -0.44000000 68 255 94 0.000000 0.000000 0.000000 0.000000 -60.708740 0.000000 150.000000 -0.258622 0.961146 -0.096501
10.34000015 -1.89999998 -0.44000000 68 255 94 0.000000 0.000000 0.000000 0.000000 -60.708740 0.000000 150.000000 -0.041262 0.911766 0.408631
10.34000015 -1.89999998 -0.44000000 68 255 94 0.000000 0.000000 0.000000 0.000000 -60.708740 0.000000 150.000000 -0.041262 0.911766 0.408631
10.35999966 -1.89999998 -0.50000000 68 255 94 0.000000 0.000000 0.000000 0.000000 -60.708740 0.000000 150.000000 0.585698 0.799219 -0.134933
10.35999966 -1.88999999 -0.50999999 68 255 94 0.000000 0.000000 0.000000 0.000000 -60.708740 0.000000 150.000000 0.451170 0.841875 -0.296129
10.35000038 -1.88999999 -0.50999999 68 255 94 0.000000 0.000000 0.000000 0.000000 -60.708740 0.000000 150.000000 -0.128962 0.975352 -0.179044
10.35999966 -1.92999995 -0.46000001 68 255 94 0.000000 0.000000 0.000000 0.000000 -60.708740 0.000000 150.000000 -0.036529 0.998809 -0.032354
10.35000038 -1.92999995 -0.46000001 68 255 94 0.000000 0.000000 0.000000 0.000000 -60.708740 0.000000 150.000000 0.234322 0.954695 0.183441
10.34000015 -1.92999995 -0.47000000 68 255 94 0.000000 0.000000 0.000000 0.000000 -60.708740 0.000000 150.000000 0.037666 0.931270 0.362377
10.39000034 -1.99000001 -0.43000001 68 255 94 0.000000 0.000000 0.000000 0.000000 -60.708740 0.000000 150.000000 0.239205 0.899586 -0.365411
10.36999989 -1.99000001 -0.43000001 68 255 94 0.000000 0.000000 0.000000 0.000000 -60.708740 0.000000 150.000000 0.132164 0.988308 -0.076024
10.40999985 -2.01999998 -0.38999999 68 255 94 0.000000 0.000000 0.000000 0.000000 -60.708740 0.000000 150.000000 0.851939 0.342948 -0.395710
10.32999992 -2.00000000 -0.37000000 68 255 94 0.000000 0.000000 0.000000 0.000000 -60.708740 0.000000 150.000000 0.744597 -0.629083 -0.223223
10.32999992 -1.98000002 -0.41000000 68 255 94 0.000000 0.000000 0.000000 0.000000 -60.708740 0.000000 150.000000 -0.007329 0.997795 0.065961
10.35999966 -2.02999997 -0.37000000 68 255 94 0.000000 0.000000 0.000000 0.000000 -60.708740 0.000000 150.000000 -0.066762 0.903324 0.423731
10.35000038 -2.03999996 -0.50999999 68 255 94 0.000000 0.000000 0.000000 0.000000 -60.708740 0.000000 150.000000 0.779836 -0.085680 -0.620093
10.47999954 -2.02999997 -0.56000000 68 255 94 0.000000 0.000000 0.000000 0.000000 -60.708740 0.000000 150.000000 0.943392 -0.108083 -0.313575
10.46000004 -2.03999996 -0.57999998 68 255 94 0.000000 0.000000 0.000000 0.000000 -60.708740 0.000000 150.000000 0.966240 -0.175562 -0.188566
10.47000027 -2.03999996 -0.63000000 68 255 94 0.000000 0.000000 0.000000 0.000000 -60.708740 0.000000 150.000000 0.999821 -0.018902 -0.000995
10.47000027 -2.03999996 -0.66000003 68 255 94 0.000000 0.000000 0.000000 0.000000 -60.708740 0.000000 150.000000 0.999807 0.019015 -0.005004
10.47999954 -2.01999998 -0.69000000 68 255 94 0.000000 0.000000 0.000000 0.000000 -60.708740 0.000000 150.000000 0.997313 -0.071010 0.018017
10.43000031 -2.04999995 -0.64999998 68 255 94 0.000000 0.000000 0.000000 0.000000 -60.708740 0.000000 150.000000 0.961672 0.059083 -0.267760
10.34000015 -1.88999999 -0.52999997 68 255 94 0.000000 0.000000 0.000000 0.000000 -60.708740 0.000000 150.000000 0.057014 0.993841 -0.095024
10.32999992 -1.94000006 -0.52999997 68 255 94 0.000000 0.000000 0.000000 0.000000 -60.708740 0.000000 150.000000 0.246171 0.965747 -0.082057
10.39999962 -2.03999996 -0.57999998 68 255 94 0.000000 0.000000 0.000000 0.000000 -60.708740 0.000000 150.000000 0.918280 -0.266690 -0.292639
10.35000038 -1.97000003 -0.54000002 68 255 94 0.000000 0.000000 0.000000 0.000000 -60.708740 0.000000 150.000000 0.234158 0.881447 -0.410149
10.32999992 -2.00000000 -0.60000002 68 255 94 0.000000 0.000000 0.000000 0.000000 -60.708740 0.000000 150.000000 0.422463 0.843368 -0.332047
10.34000015 -1.99000001 -0.57999998 68 255 94 0.000000 0.000000 0.000000 0.000000 -60.708740 0.000000 150.000000 0.818683 0.360857 -0.446699
10.32999992 -2.00000000 -0.60000002 68 255 94 0.000000 0.000000 0.000000 0.000000 -60.708740 0.000000 150.000000 0.422463 0.843368 -0.332047
10.34000015 -1.97000003 -0.67000002 68 255 94 0.000000 0.000000 0.000000 0.000000 -60.708740 0.000000 150.000000 0.875108 0.380679 -0.298780
10.34000015 -1.97000003 -0.67000002 68 255 94 0.000000 0.000000 0.000000 0.000000 -60.708740 0.000000 150.000000 0.875108 0.380679 -0.298780
10.32999992 -1.97000003 -0.68000001 68 255 94 0.000000 0.000000 0.000000 0.000000 -60.708740 0.000000 150.000000 0.619181 0.507830 -0.598935
10.52000046 -2.05999994 -0.27000001 68 255 94 0.000000 0.000000 0.000000 0.000000 -60.708740 0.000000 150.000000 0.975530 0.067320 -0.209305
10.42000008 -2.06999993 -0.07000000 68 255 94 0.000000 0.000000 0.000000 0.000000 -60.708740 0.000000 150.000000 0.908830 -0.364396 -0.203083
10.48999977 -2.05999994 -0.14000000 68 255 94 0.000000 0.000000 0.000000 0.000000 -60.708740 0.000000 150.000000 0.878384 -0.020177 -0.477529
10.39000034 -2.06999993 -0.07000000 68 255 94 0.000000 0.000000 0.000000 0.000000 -60.708740 0.000000 150.000000 0.972302 -0.161415 -0.169041
10.36999989 -2.06999993 -0.12000000 68 255 94 0.000000 0.000000 0.000000 0.000000 -60.708740 0.000000 150.000000 0.849316 0.265699 -0.456143
10.38000011 -2.07999992 -0.11000000 68 255 94 0.000000 0.000000 0.000000 0.000000 -60.708740 0.000000 150.000000 0.857594 0.224572 -0.462709
10.40999985 -2.06999993 -0.12000000 68 255 94 0.000000 0.000000 0.000000 0.000000 -60.708740 0.000000 150.000000 0.971132 -0.230752 -0.060464
10.32999992 -2.05999994 -0.13000000 68 255 94 0.000000 0.000000 0.000000 0.000000 -60.708740 0.000000 150.000000 0.821218 0.124872 -0.556783
10.32999992 -2.05999994 -0.18000001 68 255 94 0.000000 0.000000 0.000000 0.000000 -60.708740 0.000000 150.000000 0.847759 0.043012 -0.528635
10.32999992 -2.09999990 -0.13000000 68 255 94 0.000000 0.000000 0.000000 0.000000 -60.708740 0.000000 150.000000 0.950379 0.283120 -0.128932
10.36999989 -2.05999994 -0.20999999 68 255 94 0.000000 0.000000 0.000000 0.000000 -60.708740 0.000000 150.000000 0.942627 0.241522 -0.230481
10.35000038 -2.05999994 -0.28999999 68 255 94 0.000000 0.000000 0.000000 0.000000 -60.708740 0.000000 150.000000 0.927969 0.142445 -0.344358
10.35000038 -2.05999994 -0.28999999 68 255 94 0.000000 0.000000 0.000000 0.000000 -60.708740 0.000000 150.000000 0.927969 0.142445 -0.344358
10.35000038 -2.06999993 -0.31000000 68 255 94 0.000000 0.000000 0.000000 0.000000 -60.708740 0.000000 150.000000 0.615849 0.538235 -0.575355
10.32999992 -2.06999993 -0.31999999 68 255 94 0.000000 0.000000 0.000000 0.000000 -60.708740 0.000000 150.000000 0.804193 0.103626 -0.585266
10.50000000 -2.05999994 -0.43000001 68 255 94 0.000000 0.000000 0.000000 0.000000 -60.708740 0.000000 150.000000 0.955933 -0.235983 -0.174654
10.47000027 -2.07999992 -0.38000000 68 255 94 0.000000 0.000000 0.000000 0.000000 -60.708740 0.000000 150.000000 0.883834 -0.405524 -0.233213
10.47000027 -2.05999994 -0.41000000 68 255 94 0.000000 0.000000 0.000000 0.000000 -60.708740 0.000000 150.000000 0.827214 -0.412816 -0.381183
10.48999977 -2.07999992 -0.50000000 68 255 94 0.000000 0.000000 0.000000 0.000000 -60.708740 0.000000 150.000000 0.767329 -0.365008 -0.527234
10.48999977 -2.09999990 -0.47000000 68 255 94 0.000000 0.000000 0.000000 0.000000 -60.708740 0.000000 150.000000 0.864926 -0.255994 -0.431706
10.43000031 -2.06999993 -0.46000001 68 255 94 0.000000 0.000000 0.000000 0.000000 -60.708740 0.000000 150.000000 0.951380 0.023816 -0.307099
10.43000031 -2.06999993 -0.50999999 68 255 94 0.000000 0.000000 0.000000 0.000000 -60.708740 0.000000 150.000000 0.935294 -0.141047 -0.324546
10.39999962 -2.07999992 -0.51999998 68 255 94 0.000000 0.000000 0.000000 0.000000 -60.708740 0.000000 150.000000 0.779849 -0.572726 -0.252627
10.42000008 -2.06999993 -0.52999997 68 255 94 0.000000 0.000000 0.000000 0.000000 -60.708740 0.000000 150.000000 0.982067 -0.188104 -0.012694
10.47999954 -2.06999993 -0.54000002 68 255 94 0.000000 0.000000 0.000000 0.000000 -60.708740 0.000000 150.000000 0.983643 0.161351 -0.080078
10.44999981 -2.07999992 -0.56000000 68 255 94 0.000000 0.000000 0.000000 0.000000 -60.708740 0.000000 150.000000 0.897159 -0.202772 -0.392416
10.43999958 -2.05999994 -0.64999998 68 255 94 0.000000 0.000000 0.000000 0.000000 -60.708740 0.000000 150.000000 0.798045 0.241125 -0.552253
10.43000031 -2.05999994 -0.64999998 68 255 94 0.000000 0.000000 0.000000 0.000000 -60.708740 0.000000 150.000000 0.824476 -0.245031 -0.510097
10.36999989 -2.08999991 -0.54000002 68 255 94 0.000000 0.000000 0.000000 0.000000 -60.708740 0.000000 150.000000 0.879299 -0.174104 -0.443307
10.36999989 -2.06999993 -0.54000002 68 255 94 0.000000 0.000000 0.000000 0.000000 -60.708740 0.000000 150.000000 0.935084 0.064443 -0.348519
10.38000011 -2.09999990 -0.56000000 68 255 94 0.000000 0.000000 0.000000 0.000000 -60.708740 0.000000 150.000000 0.834871 -0.277258 -0.475520
10.35999966 -2.05999994 -0.55000001 68 255 94 0.000000 0.000000 0.000000 0.000000 -60.708740 0.000000 150.000000 0.791774 -0.026532 -0.610238
10.35000038 -2.06999993 -0.57999998 68 255 94 0.000000 0.000000 0.000000 0.000000 -60.708740 0.000000 150.000000 0.656380 -0.254644 -0.710156
10.40999985 -2.07999992 -0.64999998 68 255 94 0.000000 0.000000 0.000000 0.000000 -60.708740 0.000000 150.000000 0.846938 -0.512273 -0.142380
10.40999985 -2.07999992 -0.67000002 68 255 94 0.000000 0.000000 0.000000 0.000000 -60.708740 0.000000 150.000000 0.894456 -0.108121 -0.433888
10.51000023 -1.83000004 -0.79000002 68 255 94 0.000000 0.000000 0.000000 0.000000 -60.708740 0.000000 150.000000 0.635113 0.496972 -0.591312
10.52000046 -1.88000000 -0.85000002 68 255 94 0.000000 0.000000 0.000000 0.000000 -60.708740 0.000000 150.000000 0.634699 0.377522 -0.674265
10.51000023 -1.84000003 -0.86000001 68 255 94 0.000000 0.000000 0.000000 0.000000 -60.708740 0.000000 150.000000 0.677487 0.638117 -0.365810
10.50000000 -1.88999999 -0.69999999 68 255 94 0.000000 0.000000 0.000000 0.000000 -60.708740 0.000000 150.000000 0.703778 0.422267 -0.571302
10.50000000 -1.94000006 -0.83999997 68 255 94 0.000000 0.000000 0.000000 0.000000 -60.708740 0.000000 150.000000 0.831835 0.004071 -0.555009
10.50000000 -1.92999995 -0.83999997 68 255 94 0.000000 0.000000 0.000000 0.000000 -60.708740 0.000000 150.000000 0.793535 0.067200 -0.604802
10.52000046 -2.00000000 -0.73000002 68 255 94 0.000000 0.000000 0.000000 0.000000 -60.708740 0.000000 150.000000 0.789209 -0.138746 -0.598247
10.53999996 -1.89999998 -0.93000001 68 255 94 0.000000 0.000000 0.000000 0.000000 -60.708740 0.000000 150.000000 0.758902 0.386795 -0.523887
10.50000000 -1.96000004 -0.94000000 68 255 94 0.000000 0.000000 0.000000 0.000000 -60.708740 0.000000 150.000000 0.819740 -0.172973 -0.545992
10.50000000 -1.95000005 -0.94000000 68 255 94 0.000000 0.000000 0.000000 0.000000 -60.708740 0.000000 150.000000 0.906820 0.115616 -0.405353
10.50000000 -1.96000004 -0.94000000 68 255 94 0.000000 0.000000 0.000000 0.000000 -60.708740 0.000000 150.000000 0.819740 -0.172973 -0.545992
10.51000023 -1.94000006 -0.98000002 68 255 94 0.000000 0.000000 0.000000 0.000000 -60.708740 0.000000 150.000000 0.818815 0.015138 -0.573858
10.50000000 -1.98000002 -0.91000003 68 255 94 0.000000 0.000000 0.000000 0.000000 -60.708740 0.000000 150.000000 0.831185 -0.023433 -0.555502
