//X Y Z R G B PointSourceId ScanDirectionFlag NumberOfReturns ReturnNumber GpsTime Intensity Classification Nx Ny Nz
17.19000053 -4.15999985 -0.28999999 163 119 114 97.000000 1.000000 4.000000 1.000000 -60.708740 114.000000 18.000000 0.177579 0.115489 0.977307
17.09000015 -4.09999990 -0.27000001 163 119 114 97.000000 1.000000 4.000000 1.000000 -60.708740 114.000000 18.000000 -0.200225 0.449393 0.870607
17.05999947 -4.07000017 -0.28000000 163 119 114 97.000000 1.000000 4.000000 1.000000 -60.708740 114.000000 18.000000 0.678724 -0.166249 -0.715329
17.04999924 -4.11999989 -0.30000001 163 119 114 97.000000 1.000000 4.000000 1.000000 -60.708740 114.000000 18.000000 -0.664449 -0.001381 0.747332
17.04999924 -4.07999992 -0.30000001 163 119 114 97.000000 1.000000 4.000000 1.000000 -60.708740 114.000000 18.000000 0.759035 -0.295624 -0.580062
17.04999924 -4.13000011 -0.31000000 163 119 114 97.000000 1.000000 4.000000 1.000000 -60.708740 114.000000 18.000000 -0.401801 0.243471 0.882767
17.11000061 -4.15999985 -0.20999999 163 119 114 97.000000 1.000000 4.000000 1.000000 -60.708740 114.000000 18.000000 0.235234 -0.226980 0.945063
17.06999969 -4.15999985 -0.23000000 163 119 114 97.000000 1.000000 4.000000 1.000000 -60.708740 114.000000 18.000000 -0.447021 0.200491 0.871766
17.05999947 -4.21999979 -0.25000000 163 119 114 97.000000 1.000000 4.000000 1.000000 -60.708740 114.000000 18.000000 -0.339238 -0.207551 0.917518
17.04999924 -4.21000004 -0.31000000 163 119 114 97.000000 1.000000 4.000000 1.000000 -60.708740 114.000000 18.000000 -0.469840 0.225100 0.853569
17.20000076 -4.25000000 -0.31999999 163 119 114 97.000000 1.000000 4.000000 1.000000 -60.708740 114.000000 18.000000 0.874314 0.056630 0.482047
17.19000053 -4.26999998 -0.28999999 163 119 114 97.000000 1.000000 4.000000 1.000000 -60.708740 114.000000 18.000000 0.723774 -0.101712 0.682500
17.20000076 -4.25000000 -0.31999999 163 119 114 97.000000 1.000000 4.000000 1.000000 -60.708740 114.000000 18.000000 0.874314 0.056630 0.482047
17.09000015 -4.28000021 -0.27000001 163 119 114 97.000000 1.000000 4.000000 1.000000 -60.708740 114.000000 18.000000 0.291937 -0.003664 0.956430
17.04999924 -4.28999996 -0.25000000 163 119 114 97.000000 1.000000 4.000000 1.000000 -60.708740 114.000000 18.000000 -0.030240 -0.235873 0.971313
17.05999947 -4.30999994 -0.28999999 163 119 114 97.000000 1.000000 4.000000 1.000000 -60.708740 114.000000 18.000000 0.221684 -0.075546 0.972188
17.10000038 -4.30999994 -0.28000000 163 119 114 97.000000 1.000000 4.000000 1.000000 -60.708740 114.000000 18.000000 0.148563 -0.269020 0.951608
17.06999969 -4.34999990 -0.27000001 163 119 114 97.000000 1.000000 4.000000 1.000000 -60.708740 114.000000 18.000000 0.046677 0.404087 0.913529
17.05999947 -4.36999989 -0.27000001 163 119 114 97.000000 1.000000 4.000000 1.000000 -60.708740 114.000000 18.000000 -0.175122 -0.117990 0.977451
17.05999947 -4.34000015 -0.27000001 163 119 114 97.000000 1.000000 4.000000 1.000000 -60.708740 114.000000 18.000000 0.011207 0.031583 0.999438
17.30999947 -4.13000011 -0.37000000 163 119 114 97.000000 1.000000 4.000000 1.000000 -60.708740 114.000000 18.000000 0.963798 -0.252695 -0.085078
17.36000061 -4.07000017 -0.36000001 163 119 114 97.000000 1.000000 4.000000 1.000000 -60.708740 114.000000 18.000000 0.748539 -0.472155 0.465575
17.35000038 -4.15000010 -0.38999999 163 119 114 97.000000 1.000000 4.000000 1.000000 -60.708740 114.000000 18.000000 0.971011 -0.238890 -0.008320
17.30999947 -4.13000011 -0.37000000 163 119 114 97.000000 1.000000 4.000000 1.000000 -60.708740 114.000000 18.000000 0.963798 -0.252695 -0.085078
17.37000084 -4.07000017 -0.37000000 163 119 114 97.000000 1.000000 4.000000 1.000000 -60.708740 114.000000 18.000000 0.845600 -0.446761 0.292173
17.36000061 -4.15999985 -0.52999997 163 119 114 97.000000 1.000000 4.000000 1.000000 -60.708740 114.000000 18.000000 0.934005 -0.155897 -0.321452
17.20999908 -4.32999992 -0.41999999 163 119 114 97.000000 1.000000 4.000000 1.000000 -60.708740 114.000000 18.000000 0.959564 -0.048919 -0.277207
17.29999924 -4.26000023 -0.57999998 163 119 114 97.000000 1.000000 4.000000 1.000000 -60.708740 114.000000 18.000000 -0.574608 0.259754 0.776114
17.36000061 -4.26999998 -0.66000003 163 119 114 97.000000 1.000000 4.000000 1.000000 -60.708740 114.000000 18.000000 -0.423577 0.332922 0.842464
17.35000038 -4.30000019 -0.64999998 163 119 114 97.000000 1.000000 4.000000 1.000000 -60.708740 114.000000 18.000000 0.930459 -0.174374 -0.322243
17.32999992 -4.34000015 -0.69000000 163 119 114 97.000000 1.000000 4.000000 1.000000 -60.708740 114.000000 18.000000 -0.670757 -0.189662 0.717017
17.26000023 -4.28000021 -0.55000001 163 119 114 97.000000 1.000000 4.000000 1.000000 -60.708740 114.000000 18.000000 -0.663508 0.107876 0.740351
17.12999916 -4.28999996 -0.43000001 163 119 114 97.000000 1.000000 4.000000 1.000000 -60.708740 114.000000 18.000000 0.731984 -0.409582 -0.544465
17.18000031 -4.26999998 -0.44999999 163 119 114 97.000000 1.000000 4.000000 1.000000 -60.708740 114.000000 18.000000 0.720909 -0.358002 -0.593401
17.18000031 -4.28999996 -0.44999999 163 119 114 97.000000 1.000000 4.000000 1.000000 -60.708740 114.000000 18.000000 0.822007 0.134296 -0.553416
17.19000053 -4.28000021 -0.49000001 163 119 114 97.000000 1.000000 4.000000 1.000000 -60.708740 114.000000 18.000000 0.884370 -0.338983 -0.320904
17.18000031 -4.34999990 -0.43000001 163 119 114 97.000000 1.000000 4.000000 1.000000 -60.708740 114.000000 18.000000 0.928996 -0.358961 0.090076
17.10000038 -4.30000019 -0.41999999 163 119 114 97.000000 1.000000 4.000000 1.000000 -60.708740 114.000000 18.000000 0.933647 -0.357919 -0.014011
17.05999947 -4.36999989 -0.37000000 163 119 114 97.000000 1.000000 4.000000 1.000000 -60.708740 114.000000 18.000000 0.064513 -0.102994 0.992588
17.17000008 -4.26000023 -0.54000002 163 119 114 97.000000 1.000000 4.000000 1.000000 -60.708740 114.000000 18.000000 -0.211174 -0.064695 0.975305
17.12999916 -4.26999998 -0.57999998 163 119 114 97.000000 1.000000 4.000000 1.000000 -60.708740 114.000000 18.000000 -0.341068 0.250312 0.906100
17.14999962 -4.30999994 -0.52999997 163 119 114 97.000000 1.000000 4.000000 1.000000 -60.708740 114.000000 18.000000 0.461957 -0.308493 -0.831522
17.14999962 -4.30999994 -0.52999997 163 119 114 97.000000 1.000000 4.000000 1.000000 -60.708740 114.000000 18.000000 0.461957 -0.308493 -0.831522
17.12999916 -4.38000011 -0.62000000 163 119 114 97.000000 1.000000 4.000000 1.000000 -60.708740 114.000000 18.000000 -0.288129 0.471908 0.833237
17.13999939 -4.38999987 -0.64999998 163 119 114 97.000000 1.000000 4.000000 1.000000 -60.708740 114.000000 18.000000 0.052738 0.160558 0.985616
17.13999939 -4.38000011 -0.61000001 163 119 114 97.000000 1.000000 4.000000 1.000000 -60.708740 114.000000 18.000000 -0.336205 0.366909 0.867378
17.13999939 -4.36000013 -0.61000001 163 119 114 97.000000 1.000000 4.000000 1.000000 -60.708740 114.000000 18.000000 -0.003068 -0.043970 0.999028
17.13999939 -4.36999989 -0.61000001 163 119 114 97.000000 1.000000 4.000000 1.000000 -60.708740 114.000000 18.000000 -0.350055 0.101367 0.931228
17.12000084 -4.36000013 -0.52999997 163 119 114 97.000000 1.000000 4.000000 1.000000 -60.708740 114.000000 18.000000 -0.378670 -0.114290 0.918448
17.12000084 -4.36000013 -0.52999997 163 119 114 97.000000 1.000000 4.000000 1.000000 -60.708740 114.000000 18.000000 -0.378670 -0.114290 0.918448
17.12000084 -4.36000013 -0.61000001 163 119 114 97.000000 1.000000 4.000000 1.000000 -60.708740 114.000000 18.000000 -0.064784 -0.154304 0.985897
17.10000038 -4.38000011 -0.63000000 163 119 114 97.000000 1.000000 4.000000 1.000000 -60.708740 114.000000 18.000000 -0.081383 0.003171 0.996678
17.07999992 -4.32999992 -0.63999999 163 119 114 97.000000 1.000000 4.000000 1.000000 -60.708740 114.000000 18.000000 -0.323440 -0.125857 0.937841
17.39999962 -4.38999987 -0.74000001 163 119 114 97.000000 1.000000 4.000000 1.000000 -60.708740 114.000000 18.000000 -0.534500 0.219007 0.816300
17.35000038 -4.38999987 -0.70999998 163 119 114 97.000000 1.000000 4.000000 1.000000 -60.708740 114.000000 18.000000 -0.403240 0.510989 0.759136
17.05999947 -4.34000015 -0.81000000 163 119 114 97.000000 1.000000 4.000000 1.000000 -60.708740 114.000000 18.000000 0.251563 0.251563 0.934576
17.12999916 -4.25000000 -0.88999999 163 119 114 97.000000 1.000000 4.000000 1.000000 -60.708740 114.000000 18.000000 -0.006311 0.347102 0.937806
17.12999916 -4.38999987 -0.89999998 163 119 114 97.000000 1.000000 4.000000 1.000000 -60.708740 114.000000 18.000000 -0.195240 0.316035 0.928441
17.17000008 -4.36000013 -0.86000001 163 119 114 97.000000 1.000000 4.000000 1.000000 -60.708740 114.000000 18.000000 -0.199805 -0.131082 0.971028
17.13999939 -4.34000015 -0.88999999 163 119 114 97.000000 1.000000 4.000000 1.000000 -60.708740 114.000000 18.000000 0.040931 -0.096243 0.994516
17.18000031 -4.36000013 -0.87000000 163 119 114 97.000000 1.000000 4.000000 1.000000 -60.708740 114.000000 18.000000 -0.196409 0.356977 0.913231
17.12000084 -4.28999996 -0.88999999 163 119 114 97.000000 1.000000 4.000000 1.000000 -60.708740 114.000000 18.000000 -0.042039 -0.063598 0.997090
17.11000061 -4.25000000 -0.89999998 163 119 114 97.000000 1.000000 4.000000 1.000000 -60.708740 114.000000 18.000000 0.204764 -0.188911 0.960408
17.04999924 -4.38999987 -0.86000001 163 119 114 97.000000 1.000000 4.000000 1.000000 -60.708740 114.000000 18.000000 0.037956 0.246104 0.968500
17.04999924 -4.36999989 -0.87000000 163 119 114 97.000000 1.000000 4.000000 1.000000 -60.708740 114.000000 18.000000 -0.023816 -0.307099 0.951380
17.45999908 -4.55999994 -0.67000002 163 119 114 97.000000 1.000000 4.000000 1.000000 -60.708740 114.000000 18.000000 0.563460 -0.433814 -0.703078
17.45000076 -4.57999992 -0.69000000 163 119 114 97.000000 1.000000 4.000000 1.000000 -60.708740 114.000000 18.000000 -0.591244 0.346928 0.728060
17.14999962 -4.73000002 -0.05000000 163 119 114 97.000000 1.000000 4.000000 1.000000 -60.708740 114.000000 18.000000 0.382860 0.129476 0.914688
17.13999939 -4.61000013 -0.31000000 163 119 114 97.000000 1.000000 4.000000 1.000000 -60.708740 114.000000 18.000000 0.724286 0.250896 0.642232
17.04999924 -4.65000010 -0.30000001 163 119 114 97.000000 1.000000 4.000000 1.000000 -60.708740 114.000000 18.000000 0.578150 -0.167558 0.798541
17.07999992 -4.65000010 -0.31000000 163 119 114 97.000000 1.000000 4.000000 1.000000 -60.708740 114.000000 18.000000 0.761966 0.073739 0.643406
17.05999947 -4.63000011 -0.31999999 163 119 114 97.000000 1.000000 4.000000 1.000000 -60.708740 114.000000 18.000000 0.408209 0.089339 0.908506
17.04999924 -4.65999985 -0.30000001 163 119 114 97.000000 1.000000 4.000000 1.000000 -60.708740 114.000000 18.000000 0.383079 0.040809 0.922813
17.35000038 -4.55000019 -0.63000000 163 119 114 97.000000 1.000000 4.000000 1.000000 -60.708740 114.000000 18.000000 0.642180 -0.318664 -0.697178
17.20999908 -4.55999994 -0.56000000 163 119 114 97.000000 1.000000 4.000000 1.000000 -60.708740 114.000000 18.000000 0.832811 0.111914 -0.542127
17.05999947 -4.51000023 -0.50999999 163 119 114 97.000000 1.000000 4.000000 1.000000 -60.708740 114.000000 18.000000 -0.044728 0.318211 0.946964
17.14999962 -4.42999983 -0.63000000 163 119 114 97.000000 1.000000 4.000000 1.000000 -60.708740 114.000000 18.000000 -0.650850 -0.095068 0.753231
17.12999916 -4.53000021 -0.64999998 163 119 114 97.000000 1.000000 4.000000 1.000000 -60.708740 114.000000 18.000000 -0.130767 0.044347 0.990421
17.05999947 -4.44999981 -0.63000000 163 119 114 97.000000 1.000000 4.000000 1.000000 -60.708740 114.000000 18.000000 0.003670 -0.294858 0.955534
17.04999924 -4.57000017 -0.50000000 163 119 114 97.000000 1.000000 4.000000 1.000000 -60.708740 114.000000 18.000000 0.051314 0.266581 0.962445
17.05999947 -4.57000017 -0.50000000 163 119 114 97.000000 1.000000 4.000000 1.000000 -60.708740 114.000000 18.000000 -0.220328 0.451148 0.864825
17.07999992 -4.61000013 -0.47999999 163 119 114 97.000000 1.000000 4.000000 1.000000 -60.708740 114.000000 18.000000 0.826109 -0.225303 -0.516510
17.05999947 -4.65999985 -0.49000001 163 119 114 97.000000 1.000000 4.000000 1.000000 -60.708740 114.000000 18.000000 -0.183747 0.183747 0.965647
17.12999916 -4.57999992 -0.55000001 163 119 114 97.000000 1.000000 4.000000 1.000000 -60.708740 114.000000 18.000000 -0.232509 0.027708 0.972200
17.18000031 -4.61999989 -0.56000000 163 119 114 97.000000 1.000000 4.000000 1.000000 -60.708740 114.000000 18.000000 0.571588 -0.441606 -0.691572
17.13999939 -4.57999992 -0.60000002 163 119 114 97.000000 1.000000 4.000000 1.000000 -60.708740 114.000000 18.000000 -0.427897 0.530328 0.731886
17.12000084 -4.61000013 -0.52999997 163 119 114 97.000000 1.000000 4.000000 1.000000 -60.708740 114.000000 18.000000 -0.371934 0.350327 0.859614
17.11000061 -4.61999989 -0.55000001 163 119 114 97.000000 1.000000 4.000000 1.000000 -60.708740 114.000000 18.000000 -0.251757 0.107158 0.961840
17.07999992 -4.59999990 -0.56999999 163 119 114 97.000000 1.000000 4.000000 1.000000 -60.708740 114.000000 18.000000 -0.365794 -0.045888 0.929564
17.07999992 -4.63000011 -0.52999997 163 119 114 97.000000 1.000000 4.000000 1.000000 -60.708740 114.000000 18.000000 -0.390465 -0.077012 0.917391
17.06999969 -4.69000006 -0.52999997 163 119 114 97.000000 1.000000 4.000000 1.000000 -60.708740 114.000000 18.000000 -0.540326 -0.043059 0.840353
17.28000069 -4.80999994 -0.05000000 163 119 114 97.000000 1.000000 4.000000 1.000000 -60.708740 114.000000 18.000000 0.676912 -0.052951 0.734157
17.26000023 -4.82000017 -0.07000000 163 119 114 97.000000 1.000000 4.000000 1.000000 -60.708740 114.000000 18.000000 0.756799 0.067752 0.650127
17.12999916 -4.76000023 -0.03000000 163 119 114 97.000000 1.000000 4.000000 1.000000 -60.708740 114.000000 18.000000 0.337433 -0.069587 0.938774
17.12999916 -4.76000023 -0.03000000 163 119 114 97.000000 1.000000 4.000000 1.000000 -60.708740 114.000000 18.000000 0.337433 -0.069587 0.938774
17.17000008 -4.82000017 -0.03000000 163 119 114 97.000000 1.000000 4.000000 1.000000 -60.708740 114.000000 18.000000 0.188954 -0.178529 0.965621
17.05999947 -4.75000000 -0.51999998 163 119 114 97.000000 1.000000 4.000000 1.000000 -60.708740 114.000000 18.000000 -0.614830 0.380766 0.690653
17.37999916 -4.48999977 -0.69999999 163 119 114 97.000000 1.000000 4.000000 1.000000 -60.708740 114.000000 18.000000 0.722145 0.104851 -0.683749
17.38999939 -4.59999990 -0.73000002 163 119 114 97.000000 1.000000 4.000000 1.000000 -60.708740 114.000000 18.000000 0.756498 -0.113993 -0.643985
17.42000008 -4.63000011 -0.75000000 163 119 114 97.000000 1.000000 4.000000 1.000000 -60.708740 114.000000 18.000000 0.836166 -0.043130 -0.546778
17.38999939 -4.61000013 -0.72000003 163 119 114 97.000000 1.000000 4.000000 1.000000 -60.708740 114.000000 18.000000 -0.539129 0.040192 0.841263
17.30999947 -4.42999983 -0.72000003 163 119 114 97.000000 1.000000 4.000000 1.000000 -60.708740 114.000000 18.000000 -0.515649 -0.042856 0.855728
17.30999947 -4.44000006 -0.72000003 163 119 114 97.000000 1.000000 4.000000 1.000000 -60.708740 114.000000 18.000000 -0.368225 0.307611 0.877374
17.35000038 -4.53999996 -0.70999998 163 119 114 97.000000 1.000000 4.000000 1.000000 -60.708740 114.000000 18.000000 0.720698 -0.032438 -0.692490
17.36000061 -4.59000015 -0.69999999 163 119 114 97.000000 1.000000 4.000000 1.000000 -60.708740 114.000000 18.000000 -0.662266 -0.104724 0.741915
17.36000061 -4.71999979 -0.79000002 163 119 114 97.000000 1.000000 4.000000 1.000000 -60.708740 114.000000 18.000000 -0.394864 0.040939 0.917827
17.37000084 -4.67999983 -0.79000002 163 119 114 97.000000 1.000000 4.000000 1.000000 -60.708740 114.000000 18.000000 -0.371132 0.014126 0.928473
17.34000015 -4.67000008 -0.81000000 163 119 114 97.000000 1.000000 4.000000 1.000000 -60.708740 114.000000 18.000000 -0.504085 0.273111 0.819334
17.20999908 -4.61999989 -0.76999998 163 119 114 97.000000 1.000000 4.000000 1.000000 -60.708740 114.000000 18.000000 -0.229557 0.084046 0.969660
17.23999977 -4.63999987 -0.80000001 163 119 114 97.000000 1.000000 4.000000 1.000000 -60.708740 114.000000 18.000000 -0.266417 -0.107867 0.957803
17.25000000 -4.67000008 -0.79000002 163 119 114 97.000000 1.000000 4.000000 1.000000 -60.708740 114.000000 18.000000 -0.161394 0.283456 0.945307
17.04999924 -4.44000006 -0.85000002 163 119 114 97.000000 1.000000 4.000000 1.000000 -60.708740 114.000000 18.000000 -0.349947 0.151969 0.924361
17.04999924 -4.48000002 -0.83999997 163 119 114 97.000000 1.000000 4.000000 1.000000 -60.708740 114.000000 18.000000 -0.161417 -0.318695 0.934012
17.09000015 -4.42000008 -0.86000001 163 119 114 97.000000 1.000000 4.000000 1.000000 -60.708740 114.000000 18.000000 -0.101498 0.045730 0.993784
17.15999985 -4.57999992 -0.76999998 163 119 114 97.000000 1.000000 4.000000 1.000000 -60.708740 114.000000 18.000000 -0.285395 0.442748 0.850014
17.12999916 -4.65000010 -0.75999999 163 119 114 97.000000 1.000000 4.000000 1.000000 -60.708740 114.000000 18.000000 0.005943 0.238894 0.971027
17.12999916 -4.61999989 -0.76999998 163 119 114 97.000000 1.000000 4.000000 1.000000 -60.708740 114.000000 18.000000 0.072215 0.264788 0.961599
17.18000031 -4.63999987 -0.76999998 163 119 114 97.000000 1.000000 4.000000 1.000000 -60.708740 114.000000 18.000000 -0.286886 -0.103489 0.952358
17.12999916 -4.61999989 -0.79000002 163 119 114 97.000000 1.000000 4.000000 1.000000 -60.708740 114.000000 18.000000 -0.382583 0.166402 0.908813
17.17000008 -4.59000015 -0.77999997 163 119 114 97.000000 1.000000 4.000000 1.000000 -60.708740 114.000000 18.000000 -0.219533 0.008218 0.975570
17.19000053 -4.63999987 -0.77999997 163 119 114 97.000000 1.000000 4.000000 1.000000 -60.708740 114.000000 18.000000 -0.339428 0.138795 0.930336
17.12999916 -4.65999985 -0.75999999 163 119 114 97.000000 1.000000 4.000000 1.000000 -60.708740 114.000000 18.000000 0.041367 -0.045609 0.998102
17.07999992 -4.59999990 -0.80000001 163 119 114 97.000000 1.000000 4.000000 1.000000 -60.708740 114.000000 18.000000 0.043437 0.383037 0.922711
17.11000061 -4.65999985 -0.75000000 163 119 114 97.000000 1.000000 4.000000 1.000000 -60.708740 114.000000 18.000000 -0.401870 0.203127 0.892883
17.11000061 -4.71000004 -0.70999998 163 119 114 97.000000 1.000000 4.000000 1.000000 -60.708740 114.000000 18.000000 -0.024335 0.062426 0.997753
17.06999969 -4.67999983 -0.73000002 163 119 114 97.000000 1.000000 4.000000 1.000000 -60.708740 114.000000 18.000000 -0.142854 0.271022 0.951914
17.05999947 -4.69999981 -0.72000003 163 119 114 97.000000 1.000000 4.000000 1.000000 -60.708740 114.000000 18.000000 -0.296486 0.454818 0.839784
17.10000038 -4.75000000 -0.76999998 163 119 114 97.000000 1.000000 4.000000 1.000000 -60.708740 114.000000 18.000000 -0.457169 0.244532 0.855103
17.04000092 -3.77999997 -0.28000000 163 119 114 97.000000 1.000000 4.000000 1.000000 -60.708740 114.000000 18.000000 -0.586932 -0.125666 0.799824
16.97999954 -3.91000009 -0.31000000 163 119 114 97.000000 1.000000 4.000000 1.000000 -60.708740 114.000000 18.000000 0.815529 -0.520385 -0.253202
17.01000023 -3.96000004 -0.34000000 163 119 114 97.000000 1.000000 4.000000 1.000000 -60.708740 114.000000 18.000000 0.955491 -0.260348 -0.138764
17.03000069 -3.96000004 -0.28999999 163 119 114 97.000000 1.000000 4.000000 1.000000 -60.708740 114.000000 18.000000 -0.493738 0.028563 0.869142
17.04000092 -3.79999995 -0.36000001 163 119 114 97.000000 1.000000 4.000000 1.000000 -60.708740 114.000000 18.000000 0.793167 0.006873 -0.608965
17.02000046 -3.76999998 -0.41000000 163 119 114 97.000000 1.000000 4.000000 1.000000 -60.708740 114.000000 18.000000 0.901208 -0.315201 -0.297443
17.00000000 -3.91000009 -0.37000000 163 119 114 97.000000 1.000000 4.000000 1.000000 -60.708740 114.000000 18.000000 0.777297 -0.032329 -0.628303
17.01000023 -3.94000006 -0.36000001 163 119 114 97.000000 1.000000 4.000000 1.000000 -60.708740 114.000000 18.000000 0.684318 -0.182997 -0.705847
17.04000092 -4.17000008 -0.12000000 163 119 114 97.000000 1.000000 4.000000 1.000000 -60.708740 114.000000 18.000000 -0.195845 -0.167312 0.966256
17.03000069 -4.13999987 -0.27000001 163 119 114 97.000000 1.000000 4.000000 1.000000 -60.708740 114.000000 18.000000 -0.338034 0.092191 0.936608
17.02000046 -4.09000015 -0.31999999 163 119 114 97.000000 1.000000 4.000000 1.000000 -60.708740 114.000000 18.000000 0.921564 -0.173057 -0.347521
17.04000092 -4.19000006 -0.22000000 163 119 114 97.000000 1.000000 4.000000 1.000000 -60.708740 114.000000 18.000000 -0.098754 -0.250091 0.963173
17.00000000 -4.17999983 -0.27000001 163 119 114 97.000000 1.000000 4.000000 1.000000 -60.708740 114.000000 18.000000 -0.329830 -0.153185 0.931529
17.00000000 -4.19999981 -0.25000000 163 119 114 97.000000 1.000000 4.000000 1.000000 -60.708740 114.000000 18.000000 -0.646374 0.158944 0.746282
17.01000023 -4.19999981 -0.23000000 163 119 114 97.000000 1.000000 4.000000 1.000000 -60.708740 114.000000 18.000000 -0.232207 0.394900 0.888895
16.98999977 -4.21000004 -0.28999999 163 119 114 97.000000 1.000000 4.000000 1.000000 -60.708740 114.000000 18.000000 0.616087 -0.435769 -0.656157
16.89999962 -4.23000002 -0.20999999 163 119 114 97.000000 1.000000 4.000000 1.000000 -60.708740 114.000000 18.000000 -0.667870 0.076783 0.740307
17.03000069 -4.26999998 -0.17000000 163 119 114 97.000000 1.000000 4.000000 1.000000 -60.708740 114.000000 18.000000 -0.537159 -0.040252 0.842520
17.04000092 -4.23999977 -0.22000000 163 119 114 97.000000 1.000000 4.000000 1.000000 -60.708740 114.000000 18.000000 0.082312 -0.080057 0.993386
17.02000046 -4.30999994 -0.28000000 163 119 114 97.000000 1.000000 4.000000 1.000000 -60.708740 114.000000 18.000000 -0.329641 0.108983 0.937795
17.03000069 -4.30000019 -0.28000000 163 119 114 97.000000 1.000000 4.000000 1.000000 -60.708740 114.000000 18.000000 -0.426762 -0.176240 0.887025
17.00000000 -4.34999990 -0.25000000 163 119 114 97.000000 1.000000 4.000000 1.000000 -60.708740 114.000000 18.000000 -0.205555 0.019968 0.978442
16.97999954 -4.32000017 -0.20999999 163 119 114 97.000000 1.000000 4.000000 1.000000 -60.708740 114.000000 18.000000 -0.456981 -0.050473 0.888043
16.98999977 -4.34000015 -0.20000000 163 119 114 97.000000 1.000000 4.000000 1.000000 -60.708740 114.000000 18.000000 -0.497000 0.258564 0.828333
16.97999954 -4.34999990 -0.20999999 163 119 114 97.000000 1.000000 4.000000 1.000000 -60.708740 114.000000 18.000000 -0.612624 0.184857 0.768453
16.97999954 -4.34999990 -0.25999999 163 119 114 97.000000 1.000000 4.000000 1.000000 -60.708740 114.000000 18.000000 -0.533877 -0.229244 0.813893
16.97999954 -4.38000011 -0.27000001 163 119 114 97.000000 1.000000 4.000000 1.000000 -60.708740 114.000000 18.000000 -0.439114 0.093399 0.893563
16.84000015 -4.28999996 -0.17000000 163 119 114 97.000000 1.000000 4.000000 1.000000 -60.708740 114.000000 18.000000 -0.376293 0.210666 0.902232
16.87000084 -4.25000000 -0.17000000 163 119 114 97.000000 1.000000 4.000000 1.000000 -60.708740 114.000000 18.000000 0.611856 -0.233163 -0.755822
17.02000046 -4.40000010 -0.43000001 163 119 114 97.000000 1.000000 4.000000 1.000000 -60.708740 114.000000 18.000000 0.780672 -0.505901 0.366900
17.03000069 -4.32999992 -0.74000001 163 119 114 97.000000 1.000000 4.000000 1.000000 -60.708740 114.000000 18.000000 0.086439 0.178966 0.980051
16.98999977 -4.40000010 -0.86000001 163 119 114 97.000000 1.000000 4.000000 1.000000 -60.708740 114.000000 18.000000 0.177088 0.358426 0.916608
16.92000008 -4.53000021 -0.16000000 163 119 114 97.000000 1.000000 4.000000 1.000000 -60.708740 114.000000 18.000000 0.633186 0.136217 -0.761919
16.88999939 -4.51000023 -0.14000000 163 119 114 97.000000 1.000000 4.000000 1.000000 -60.708740 114.000000 18.000000 -0.522769 0.133255 0.841995
16.93000031 -4.46000004 -0.23000000 163 119 114 97.000000 1.000000 4.000000 1.000000 -60.708740 114.000000 18.000000 -0.607685 -0.211839 0.765404
16.90999985 -4.42999983 -0.20000000 163 119 114 97.000000 1.000000 4.000000 1.000000 -60.708740 114.000000 18.000000 -0.630805 0.129740 0.765018
16.90999985 -4.44000006 -0.20000000 163 119 114 97.000000 1.000000 4.000000 1.000000 -60.708740 114.000000 18.000000 -0.654519 -0.220256 0.723251
16.90999985 -4.40999985 -0.23000000 163 119 114 97.000000 1.000000 4.000000 1.000000 -60.708740 114.000000 18.000000 0.866524 -0.017574 -0.498826
16.89999962 -4.51999998 -0.20000000 163 119 114 97.000000 1.000000 4.000000 1.000000 -60.708740 114.000000 18.000000 0.758770 0.001377 -0.651358
16.87999916 -4.65000010 -0.14000000 163 119 114 97.000000 1.000000 4.000000 1.000000 -60.708740 114.000000 18.000000 -0.627308 0.233090 0.743071
16.89999962 -4.63000011 -0.17000000 163 119 114 97.000000 1.000000 4.000000 1.000000 -60.708740 114.000000 18.000000 -0.384372 0.160273 0.909159
17.02000046 -4.63999987 -0.30000001 163 119 114 97.000000 1.000000 4.000000 1.000000 -60.708740 114.000000 18.000000 0.141842 -0.386204 0.911442
17.01000023 -4.65000010 -0.31000000 163 119 114 97.000000 1.000000 4.000000 1.000000 -60.708740 114.000000 18.000000 -0.260692 0.174245 0.949567
17.00000000 -4.67000008 -0.34999999 163 119 114 97.000000 1.000000 4.000000 1.000000 -60.708740 114.000000 18.000000 0.314636 0.293956 0.902548
17.03000069 -4.67000008 -0.33000001 163 119 114 97.000000 1.000000 4.000000 1.000000 -60.708740 114.000000 18.000000 0.082497 -0.080237 0.993356
16.93000031 -4.71999979 -0.34000000 163 119 114 97.000000 1.000000 4.000000 1.000000 -60.708740 114.000000 18.000000 0.682610 0.117486 -0.721277
16.79999924 -4.40999985 -0.12000000 163 119 114 97.000000 1.000000 4.000000 1.000000 -60.708740 114.000000 18.000000 0.848067 -0.004045 -0.529873
16.77000046 -4.42000008 -0.05000000 163 119 114 97.000000 1.000000 4.000000 1.000000 -60.708740 114.000000 18.000000 0.395213 -0.459738 -0.795266
16.87000084 -4.63999987 -0.08000000 163 119 114 97.000000 1.000000 4.000000 1.000000 -60.708740 114.000000 18.000000 -0.418227 0.044094 0.907272
16.84000015 -4.63999987 -0.10000000 163 119 114 97.000000 1.000000 4.000000 1.000000 -60.708740 114.000000 18.000000 0.695272 -0.143277 -0.704321
16.81999969 -4.63999987 -0.09000000 163 119 114 97.000000 1.000000 4.000000 1.000000 -60.708740 114.000000 18.000000 -0.285024 0.353669 0.890887
16.84000015 -4.67000008 -0.09000000 163 119 114 97.000000 1.000000 4.000000 1.000000 -60.708740 114.000000 18.000000 -0.396570 0.322502 0.859491
16.84000015 -4.65999985 -0.09000000 163 119 114 97.000000 1.000000 4.000000 1.000000 -60.708740 114.000000 18.000000 0.713080 -0.237693 -0.659560
16.84000015 -4.69999981 -0.14000000 163 119 114 97.000000 1.000000 4.000000 1.000000 -60.708740 114.000000 18.000000 0.698050 -0.307916 -0.646462
16.76000023 -4.61999989 -0.03000000 163 119 114 97.000000 1.000000 4.000000 1.000000 -60.708740 114.000000 18.000000 -0.597274 0.061295 0.799691
17.01000023 -4.42999983 -0.47000000 163 119 114 97.000000 1.000000 4.000000 1.000000 -60.708740 114.000000 18.000000 0.524479 -0.299476 0.797017
17.03000069 -4.42999983 -0.50000000 163 119 114 97.000000 1.000000 4.000000 1.000000 -60.708740 114.000000 18.000000 0.083388 0.273256 0.958320
17.03000069 -4.46999979 -0.44000000 163 119 114 97.000000 1.000000 4.000000 1.000000 -60.708740 114.000000 18.000000 0.478585 -0.122161 0.869502
16.98999977 -4.44000006 -0.46000001 163 119 114 97.000000 1.000000 4.000000 1.000000 -60.708740 114.000000 18.000000 0.569351 -0.001359 0.822094
16.97999954 -4.40999985 -0.50000000 163 119 114 97.000000 1.000000 4.000000 1.000000 -60.708740 114.000000 18.000000 0.805010 -0.280891 0.522551
17.02000046 -4.65000010 -0.36000001 163 119 114 97.000000 1.000000 4.000000 1.000000 -60.708740 114.000000 18.000000 0.428144 0.343456 0.835901
17.04000092 -4.57000017 -0.46000001 163 119 114 97.000000 1.000000 4.000000 1.000000 -60.708740 114.000000 18.000000 -0.218987 0.029916 0.975269
16.95999908 -4.73000002 -0.38999999 163 119 114 97.000000 1.000000 4.000000 1.000000 -60.708740 114.000000 18.000000 0.843442 -0.511402 0.164538
17.04000092 -4.65999985 -0.49000001 163 119 114 97.000000 1.000000 4.000000 1.000000 -60.708740 114.000000 18.000000 -0.045148 0.030449 0.998516
17.04000092 -4.65999985 -0.49000001 163 119 114 97.000000 1.000000 4.000000 1.000000 -60.708740 114.000000 18.000000 -0.045148 0.030449 0.998516
17.03000069 -4.73000002 -0.56999999 163 119 114 97.000000 1.000000 4.000000 1.000000 -60.708740 114.000000 18.000000 -0.314641 0.338728 0.886715
17.01000023 -4.73000002 -0.55000001 163 119 114 97.000000 1.000000 4.000000 1.000000 -60.708740 114.000000 18.000000 0.112264 0.397776 0.910588
17.01000023 -4.69000006 -0.62000000 163 119 114 97.000000 1.000000 4.000000 1.000000 -60.708740 114.000000 18.000000 -0.053357 0.066424 0.996364
16.95999908 -4.73999977 -0.28000000 163 119 114 97.000000 1.000000 4.000000 1.000000 -60.708740 114.000000 18.000000 -0.181953 0.038738 0.982544
16.90999985 -4.78000021 -0.27000001 163 119 114 97.000000 1.000000 4.000000 1.000000 -60.708740 114.000000 18.000000 -0.444469 0.250298 0.860115
16.86000061 -4.73999977 -0.12000000 163 119 114 97.000000 1.000000 4.000000 1.000000 -60.708740 114.000000 18.000000 -0.530630 -0.042949 0.846515
16.73999977 -4.78000021 -0.04000000 163 119 114 97.000000 1.000000 4.000000 1.000000 -60.708740 114.000000 18.000000 -0.170419 0.065546 0.983189
16.77000046 -4.76000023 -0.11000000 163 119 114 97.000000 1.000000 4.000000 1.000000 -60.708740 114.000000 18.000000 0.703682 -0.219998 -0.675597
16.85000038 -4.75000000 -0.31999999 163 119 114 97.000000 1.000000 4.000000 1.000000 -60.708740 114.000000 18.000000 -0.638028 0.192177 0.745647
16.86000061 -4.90000010 -0.31000000 163 119 114 97.000000 1.000000 4.000000 1.000000 -60.708740 114.000000 18.000000 -0.642205 -0.006905 0.766502
16.79000092 -4.84999990 -0.30000001 163 119 114 97.000000 1.000000 4.000000 1.000000 -60.708740 114.000000 18.000000 0.777427 -0.064428 -0.625664
16.77000046 -4.86999989 -0.23000000 163 119 114 97.000000 1.000000 4.000000 1.000000 -60.708740 114.000000 18.000000 0.794884 -0.125820 -0.593573
16.75000000 -4.88000011 -0.34999999 163 119 114 97.000000 1.000000 4.000000 1.000000 -60.708740 114.000000 18.000000 0.996948 -0.055206 -0.055206
16.75000000 -4.86999989 -0.34999999 163 119 114 97.000000 1.000000 4.000000 1.000000 -60.708740 114.000000 18.000000 0.963799 0.197468 -0.179159
16.70999908 -4.92000008 -0.20999999 163 119 114 97.000000 1.000000 4.000000 1.000000 -60.708740 114.000000 18.000000 0.732020 -0.076826 -0.676937
16.71999931 -4.92999983 -0.33000001 163 119 114 97.000000 1.000000 4.000000 1.000000 -60.708740 114.000000 18.000000 0.870517 -0.428493 -0.242061
16.72999954 -4.96000004 -0.34999999 163 119 114 97.000000 1.000000 4.000000 1.000000 -60.708740 114.000000 18.000000 0.976113 -0.171226 -0.133731
16.71999931 -4.94000006 -0.22000000 163 119 114 97.000000 1.000000 4.000000 1.000000 -60.708740 114.000000 18.000000 0.681886 -0.480838 -0.551205
16.92000008 -4.75000000 -0.40000001 163 119 114 97.000000 1.000000 4.000000 1.000000 -60.708740 114.000000 18.000000 0.934793 -0.283652 0.213787
16.88999939 -4.76999998 -0.40000001 163 119 114 97.000000 1.000000 4.000000 1.000000 -60.708740 114.000000 18.000000 0.995105 -0.038400 0.091062
16.89999962 -4.82000017 -0.40000001 163 119 114 97.000000 1.000000 4.000000 1.000000 -60.708740 114.000000 18.000000 0.859578 -0.224303 0.459144
16.88999939 -4.78999996 -0.40000001 163 119 114 97.000000 1.000000 4.000000 1.000000 -60.708740 114.000000 18.000000 0.859991 -0.110550 0.498192
16.90999985 -4.82999992 -0.46000001 163 119 114 97.000000 1.000000 4.000000 1.000000 -60.708740 114.000000 18.000000 0.229619 -0.119300 0.965941
16.87999916 -4.82999992 -0.47999999 163 119 114 97.000000 1.000000 4.000000 1.000000 -60.708740 114.000000 18.000000 0.769771 -0.332657 0.544786
17.03000069 -4.76000023 -0.54000002 163 119 114 97.000000 1.000000 4.000000 1.000000 -60.708740 114.000000 18.000000 -0.210664 0.077613 0.974473
17.01000023 -4.76999998 -0.55000001 163 119 114 97.000000 1.000000 4.000000 1.000000 -60.708740 114.000000 18.000000 -0.017389 0.031709 0.999346
16.85000038 -4.80000019 -0.44000000 163 119 114 97.000000 1.000000 4.000000 1.000000 -60.708740 114.000000 18.000000 0.662073 -0.344932 0.665343
16.82999992 -4.84000015 -0.41999999 163 119 114 97.000000 1.000000 4.000000 1.000000 -60.708740 114.000000 18.000000 0.734749 -0.550651 0.396140
16.79999924 -4.84999990 -0.37000000 163 119 114 97.000000 1.000000 4.000000 1.000000 -60.708740 114.000000 18.000000 0.837017 -0.536327 -0.108422
16.87000084 -4.84000015 -0.50999999 163 119 114 97.000000 1.000000 4.000000 1.000000 -60.708740 114.000000 18.000000 0.638117 0.159150 0.753311
16.86000061 -4.84000015 -0.50000000 163 119 114 97.000000 1.000000 4.000000 1.000000 -60.708740 114.000000 18.000000 0.520263 0.281351 0.806330
16.81999969 -4.88000011 -0.47000000 163 119 114 97.000000 1.000000 4.000000 1.000000 -60.708740 114.000000 18.000000 0.818885 0.040594 0.572520
16.81999969 -4.88999987 -0.47000000 163 119 114 97.000000 1.000000 4.000000 1.000000 -60.708740 114.000000 18.000000 -0.801647 0.409659 -0.435363
16.73999977 -4.80999994 -0.38000000 163 119 114 97.000000 1.000000 4.000000 1.000000 -60.708740 114.000000 18.000000 0.939752 -0.272653 -0.206220
16.76000023 -4.84000015 -0.38000000 163 119 114 97.000000 1.000000 4.000000 1.000000 -60.708740 114.000000 18.000000 0.931992 -0.008900 0.362371
16.75000000 -4.88000011 -0.38000000 163 119 114 97.000000 1.000000 4.000000 1.000000 -60.708740 114.000000 18.000000 0.994739 -0.074633 -0.070178
16.70999908 -4.90000010 -0.38999999 163 119 114 97.000000 1.000000 4.000000 1.000000 -60.708740 114.000000 18.000000 0.949515 -0.235002 0.207834
16.71999931 -4.88000011 -0.46000001 163 119 114 97.000000 1.000000 4.000000 1.000000 -60.708740 114.000000 18.000000 0.995613 -0.084337 -0.040525
16.71999931 -4.90000010 -0.44999999 163 119 114 97.000000 1.000000 4.000000 1.000000 -60.708740 114.000000 18.000000 0.984994 -0.028936 0.170146
16.80999947 -4.88999987 -0.64999998 163 119 114 97.000000 1.000000 4.000000 1.000000 -60.708740 114.000000 18.000000 0.526253 -0.408215 0.745935
16.78000069 -4.90000010 -0.62000000 163 119 114 97.000000 1.000000 4.000000 1.000000 -60.708740 114.000000 18.000000 0.407785 0.306224 0.860197
16.86000061 -4.90999985 -0.47999999 163 119 114 97.000000 1.000000 4.000000 1.000000 -60.708740 114.000000 18.000000 0.562668 -0.090660 0.821697
16.72999954 -4.96000004 -0.41000000 163 119 114 97.000000 1.000000 4.000000 1.000000 -60.708740 114.000000 18.000000 0.859618 -0.496764 0.119511
16.72999954 -4.90999985 -0.36000001 163 119 114 97.000000 1.000000 4.000000 1.000000 -60.708740 114.000000 18.000000 0.998339 0.047440 0.032681
16.75000000 -4.92999983 -0.37000000 163 119 114 97.000000 1.000000 4.000000 1.000000 -60.708740 114.000000 18.000000 0.999633 -0.027071 0.001003
16.70999908 -4.92000008 -0.36000001 163 119 114 97.000000 1.000000 4.000000 1.000000 -60.708740 114.000000 18.000000 0.905439 -0.374017 0.200727
16.75000000 -4.90999985 -0.38999999 163 119 114 97.000000 1.000000 4.000000 1.000000 -60.708740 114.000000 18.000000 0.981797 -0.178182 0.065772
16.76000023 -4.98000002 -0.38999999 163 119 114 97.000000 1.000000 4.000000 1.000000 -60.708740 114.000000 18.000000 0.878976 -0.472017 -0.067827
16.80999947 -4.94000006 -0.54000002 163 119 114 97.000000 1.000000 4.000000 1.000000 -60.708740 114.000000 18.000000 0.720546 -0.271994 0.637834
16.79999924 -4.96999979 -0.56999999 163 119 114 97.000000 1.000000 4.000000 1.000000 -60.708740 114.000000 18.000000 0.513109 0.148493 0.845381
16.86000061 -4.90999985 -0.68000001 163 119 114 97.000000 1.000000 4.000000 1.000000 -60.708740 114.000000 18.000000 0.628223 0.085601 0.773310
16.84000015 -4.92000008 -0.68000001 163 119 114 97.000000 1.000000 4.000000 1.000000 -60.708740 114.000000 18.000000 0.392182 0.205568 0.896624
16.85000038 -4.94999981 -0.66000003 163 119 114 97.000000 1.000000 4.000000 1.000000 -60.708740 114.000000 18.000000 0.421088 -0.211283 0.882068
16.81999969 -4.92000008 -0.61000001 163 119 114 97.000000 1.000000 4.000000 1.000000 -60.708740 114.000000 18.000000 0.397912 0.022179 0.917155
16.80999947 -4.94000006 -0.63000000 163 119 114 97.000000 1.000000 4.000000 1.000000 -60.708740 114.000000 18.000000 0.693809 0.110950 0.711561
16.81999969 -4.96000004 -0.63999999 163 119 114 97.000000 1.000000 4.000000 1.000000 -60.708740 114.000000 18.000000 0.530525 -0.146301 0.834949
16.79000092 -5.00000000 -0.64999998 163 119 114 97.000000 1.000000 4.000000 1.000000 -60.708740 114.000000 18.000000 0.683946 -0.226939 0.693337
16.80999947 -5.00000000 -0.63000000 163 119 114 97.000000 1.000000 4.000000 1.000000 -60.708740 114.000000 18.000000 0.633482 -0.276051 0.722839
16.76000023 -4.92000008 -0.56000000 163 119 114 97.000000 1.000000 4.000000 1.000000 -60.708740 114.000000 18.000000 0.805016 0.160404 0.571157
16.76000023 -5.01999998 -0.68000001 163 119 114 97.000000 1.000000 4.000000 1.000000 -60.708740 114.000000 18.000000 0.506112 -0.154932 0.848438
16.61000061 -5.07000017 -0.20000000 163 119 114 97.000000 1.000000 4.000000 1.000000 -60.708740 114.000000 18.000000 0.878660 0.079624 -0.470761
16.67000008 -5.01999998 -0.19000000 163 119 114 97.000000 1.000000 4.000000 1.000000 -60.708740 114.000000 18.000000 0.699123 -0.508908 -0.502234
16.67000008 -5.05999994 -0.27000001 163 119 114 97.000000 1.000000 4.000000 1.000000 -60.708740 114.000000 18.000000 0.899217 0.090060 -0.428133
16.69000053 -4.94000006 -0.56000000 163 119 114 97.000000 1.000000 4.000000 1.000000 -60.708740 114.000000 18.000000 0.927039 0.046023 0.372130
16.96999931 -4.55000019 -0.81999999 163 119 114 97.000000 1.000000 4.000000 1.000000 -60.708740 114.000000 18.000000 0.287090 0.065074 0.955691
17.02000046 -4.46999979 -0.83999997 163 119 114 97.000000 1.000000 4.000000 1.000000 -60.708740 114.000000 18.000000 0.349394 0.257991 0.900758
17.04000092 -4.46999979 -0.83999997 163 119 114 97.000000 1.000000 4.000000 1.000000 -60.708740 114.000000 18.000000 -0.066122 0.086295 0.994073
17.04000092 -4.40999985 -0.85000002 163 119 114 97.000000 1.000000 4.000000 1.000000 -60.708740 114.000000 18.000000 0.148984 0.066867 0.986576
16.95999908 -4.59999990 -0.76999998 163 119 114 97.000000 1.000000 4.000000 1.000000 -60.708740 114.000000 18.000000 -0.055047 0.226305 0.972500
17.03000069 -4.73000002 -0.69999999 163 119 114 97.000000 1.000000 4.000000 1.000000 -60.708740 114.000000 18.000000 0.153349 -0.199740 0.967775
17.01000023 -4.69999981 -0.72000003 163 119 114 97.000000 1.000000 4.000000 1.000000 -60.708740 114.000000 18.000000 -0.017330 0.457249 0.889170
16.96999931 -4.71999979 -0.75999999 163 119 114 97.000000 1.000000 4.000000 1.000000 -60.708740 114.000000 18.000000 -0.003582 -0.249551 0.968355
16.97999954 -4.71000004 -0.75999999 163 119 114 97.000000 1.000000 4.000000 1.000000 -60.708740 114.000000 18.000000 -0.146033 0.153521 0.977295
16.97999954 -4.71999979 -0.75000000 163 119 114 97.000000 1.000000 4.000000 1.000000 -60.708740 114.000000 18.000000 -0.052921 0.168172 0.984336
16.95000076 -4.57999992 -0.77999997 163 119 114 97.000000 1.000000 4.000000 1.000000 -60.708740 114.000000 18.000000 0.137571 0.242387 0.960376
17.04000092 -4.82000017 -0.75999999 163 119 114 97.000000 1.000000 4.000000 1.000000 -60.708740 114.000000 18.000000 -0.069891 -0.273210 0.959412
16.97999954 -4.78999996 -0.77999997 163 119 114 97.000000 1.000000 4.000000 1.000000 -60.708740 114.000000 18.000000 -0.128790 -0.243270 0.961370
17.03000069 -4.86000013 -0.76999998 163 119 114 97.000000 1.000000 4.000000 1.000000 -60.708740 114.000000 18.000000 -0.387807 0.068437 0.919196
17.04000092 -4.84000015 -0.75999999 163 119 114 97.000000 1.000000 4.000000 1.000000 -60.708740 114.000000 18.000000 -0.321720 0.128960 0.938011
16.94000053 -4.73999977 -0.75000000 163 119 114 97.000000 1.000000 4.000000 1.000000 -60.708740 114.000000 18.000000 0.197739 -0.376714 0.904979
16.93000031 -4.80000019 -0.76999998 163 119 114 97.000000 1.000000 4.000000 1.000000 -60.708740 114.000000 18.000000 -0.204081 -0.159885 0.965809
16.89999962 -4.73999977 -0.73000002 163 119 114 97.000000 1.000000 4.000000 1.000000 -60.708740 114.000000 18.000000 0.531562 -0.142830 0.834890
16.92000008 -4.80999994 -0.81000000 163 119 114 97.000000 1.000000 4.000000 1.000000 -60.708740 114.000000 18.000000 0.029444 -0.344369 0.938373
16.92000008 -4.80999994 -0.81000000 163 119 114 97.000000 1.000000 4.000000 1.000000 -60.708740 114.000000 18.000000 0.029444 -0.344369 0.938373
16.87999916 -4.88000011 -0.75000000 163 119 114 97.000000 1.000000 4.000000 1.000000 -60.708740 114.000000 18.000000 0.527155 -0.012196 0.849682
16.93000031 -4.82999992 -0.76999998 163 119 114 97.000000 1.000000 4.000000 1.000000 -60.708740 114.000000 18.000000 -0.222637 0.304885 0.926001
16.87000084 -4.86999989 -0.75000000 163 119 114 97.000000 1.000000 4.000000 1.000000 -60.708740 114.000000 18.000000 0.215631 0.160743 0.963153
16.87000084 -4.80000019 -0.76999998 163 119 114 97.000000 1.000000 4.000000 1.000000 -60.708740 114.000000 18.000000 0.283546 -0.312929 0.906464
16.80999947 -5.01999998 -0.75000000 163 119 114 97.000000 1.000000 4.000000 1.000000 -60.708740 114.000000 18.000000 -0.038407 0.088886 0.995301
16.86000061 -5.01000023 -0.74000001 163 119 114 97.000000 1.000000 4.000000 1.000000 -60.708740 114.000000 18.000000 0.379663 0.059947 0.923181
16.87000084 -5.01000023 -0.73000002 163 119 114 97.000000 1.000000 4.000000 1.000000 -60.708740 114.000000 18.000000 0.280443 -0.339796 0.897714
16.87999916 -5.25000000 -0.61000001 163 119 114 97.000000 1.000000 4.000000 1.000000 -60.708740 114.000000 18.000000 -0.080622 0.022574 0.996489
16.94000053 -5.38999987 -0.69000000 163 119 114 97.000000 1.000000 4.000000 1.000000 -60.708740 114.000000 18.000000 -0.164448 0.146873 0.975390
16.82999992 -5.23000002 -0.60000002 163 119 114 97.000000 1.000000 4.000000 1.000000 -60.708740 114.000000 18.000000 -0.208392 0.169073 0.963321
16.75000000 -5.13999987 -0.64999998 163 119 114 97.000000 1.000000 4.000000 1.000000 -60.708740 114.000000 18.000000 0.185327 -0.247554 0.950984
16.71999931 -5.09999990 -0.62000000 163 119 114 97.000000 1.000000 4.000000 1.000000 -60.708740 114.000000 18.000000 0.178585 0.001137 0.983924
16.73999977 -5.15000010 -0.69000000 163 119 114 97.000000 1.000000 4.000000 1.000000 -60.708740 114.000000 18.000000 0.692306 0.192735 0.695389
16.75000000 -5.19999981 -0.68000001 163 119 114 97.000000 1.000000 4.000000 1.000000 -60.708740 114.000000 18.000000 -0.001114 0.152643 0.988281
16.78000069 -5.23999977 -0.61000001 163 119 114 97.000000 1.000000 4.000000 1.000000 -60.708740 114.000000 18.000000 0.294304 0.294304 0.909269
16.80999947 -5.26000023 -0.60000002 163 119 114 97.000000 1.000000 4.000000 1.000000 -60.708740 114.000000 18.000000 -0.046630 -0.128518 0.990610
16.79999924 -5.30999994 -0.60000002 163 119 114 97.000000 1.000000 4.000000 1.000000 -60.708740 114.000000 18.000000 0.070878 -0.131299 0.988806
16.79999924 -5.30999994 -0.60000002 163 119 114 97.000000 1.000000 4.000000 1.000000 -60.708740 114.000000 18.000000 0.070878 -0.131299 0.988806
16.87000084 -5.25000000 -0.61000001 163 119 114 97.000000 1.000000 4.000000 1.000000 -60.708740 114.000000 18.000000 -0.278793 0.094660 0.955675
16.79999924 -5.26999998 -0.61000001 163 119 114 97.000000 1.000000 4.000000 1.000000 -60.708740 114.000000 18.000000 0.388893 0.136183 0.911162
16.79000092 -5.38000011 -0.58999997 163 119 114 97.000000 1.000000 4.000000 1.000000 -60.708740 114.000000 18.000000 -0.151455 0.272083 0.950280
16.79000092 -5.36000013 -0.60000002 163 119 114 97.000000 1.000000 4.000000 1.000000 -60.708740 114.000000 18.000000 0.053452 0.179361 0.982330
16.80999947 -5.38999987 -0.60000002 163 119 114 97.000000 1.000000 4.000000 1.000000 -60.708740 114.000000 18.000000 0.384036 -0.074112 0.920339
16.82999992 -5.40000010 -0.62000000 163 119 114 97.000000 1.000000 4.000000 1.000000 -60.708740 114.000000 18.000000 0.353311 -0.101526 0.929980
16.80999947 -5.38000011 -0.61000001 163 119 114 97.000000 1.000000 4.000000 1.000000 -60.708740 114.000000 18.000000 0.319512 -0.096782 0.942627
16.76000023 -5.26000023 -0.56999999 163 119 114 97.000000 1.000000 4.000000 1.000000 -60.708740 114.000000 18.000000 0.484003 -0.299174 0.822336
16.77000046 -5.28000021 -0.58999997 163 119 114 97.000000 1.000000 4.000000 1.000000 -60.708740 114.000000 18.000000 0.036677 0.036677 0.998654
16.77000046 -5.30999994 -0.60000002 163 119 114 97.000000 1.000000 4.000000 1.000000 -60.708740 114.000000 18.000000 0.114498 -0.324635 0.938883
16.75000000 -5.32000017 -0.58999997 163 119 114 97.000000 1.000000 4.000000 1.000000 -60.708740 114.000000 18.000000 0.389840 -0.225077 0.892953
16.71999931 -5.30000019 -0.57999998 163 119 114 97.000000 1.000000 4.000000 1.000000 -60.708740 114.000000 18.000000 0.543298 -0.443610 0.712767
16.70999908 -5.32000017 -0.60000002 163 119 114 97.000000 1.000000 4.000000 1.000000 -60.708740 114.000000 18.000000 0.328842 0.135084 0.934674
16.75000000 -5.25000000 -0.61000001 163 119 114 97.000000 1.000000 4.000000 1.000000 -60.708740 114.000000 18.000000 0.574827 0.157590 0.802957
16.72999954 -5.28000021 -0.62000000 163 119 114 97.000000 1.000000 4.000000 1.000000 -60.708740 114.000000 18.000000 0.546713 -0.063571 0.834903
16.77000046 -5.28999996 -0.68000001 163 119 114 97.000000 1.000000 4.000000 1.000000 -60.708740 114.000000 18.000000 0.468262 -0.287802 0.835404
16.75000000 -5.30999994 -0.67000002 163 119 114 97.000000 1.000000 4.000000 1.000000 -60.708740 114.000000 18.000000 0.594919 0.138665 0.791734
16.72999954 -5.40000010 -0.63999999 163 119 114 97.000000 1.000000 4.000000 1.000000 -60.708740 114.000000 18.000000 0.331014 -0.255187 0.908465
16.73999977 -5.34999990 -0.61000001 163 119 114 97.000000 1.000000 4.000000 1.000000 -60.708740 114.000000 18.000000 0.347544 0.145387 0.926324
16.73999977 -5.34000015 -0.64999998 163 119 114 97.000000 1.000000 4.000000 1.000000 -60.708740 114.000000 18.000000 0.297765 0.395493 0.868862
16.81999969 -5.40999985 -0.60000002 163 119 114 97.000000 1.000000 4.000000 1.000000 -60.708740 114.000000 18.000000 0.391110 0.111943 0.913511
16.82999992 -5.42999983 -0.60000002 163 119 114 97.000000 1.000000 4.000000 1.000000 -60.708740 114.000000 18.000000 -0.311779 0.276649 0.908988
16.82999992 -5.42999983 -0.60000002 163 119 114 97.000000 1.000000 4.000000 1.000000 -60.708740 114.000000 18.000000 -0.311779 0.276649 0.908988
16.85000038 -5.48999977 -0.58999997 163 119 114 97.000000 1.000000 4.000000 1.000000 -60.708740 114.000000 18.000000 -0.391593 -0.060142 0.918171
16.79999924 -5.40999985 -0.61000001 163 119 114 97.000000 1.000000 4.000000 1.000000 -60.708740 114.000000 18.000000 -0.050942 0.181259 0.982115
16.80999947 -5.44999981 -0.63000000 163 119 114 97.000000 1.000000 4.000000 1.000000 -60.708740 114.000000 18.000000 -0.128032 0.353810 0.926513
16.79000092 -5.53000021 -0.63999999 163 119 114 97.000000 1.000000 4.000000 1.000000 -60.708740 114.000000 18.000000 -0.322121 -0.117258 0.939409
16.79000092 -5.50000000 -0.67000002 163 119 114 97.000000 1.000000 4.000000 1.000000 -60.708740 114.000000 18.000000 0.029144 -0.080955 0.996292
16.76000023 -5.44000006 -0.58999997 163 119 114 97.000000 1.000000 4.000000 1.000000 -60.708740 114.000000 18.000000 0.267511 0.323060 0.907783
16.73999977 -5.42000008 -0.60000002 163 119 114 97.000000 1.000000 4.000000 1.000000 -60.708740 114.000000 18.000000 0.455466 -0.237568 0.857970
16.75000000 -5.40999985 -0.60000002 163 119 114 97.000000 1.000000 4.000000 1.000000 -60.708740 114.000000 18.000000 0.097074 -0.001067 0.995277
16.70999908 -5.42999983 -0.60000002 163 119 114 97.000000 1.000000 4.000000 1.000000 -60.708740 114.000000 18.000000 0.357342 -0.084317 0.930160
16.78000069 -5.42000008 -0.58999997 163 119 114 97.000000 1.000000 4.000000 1.000000 -60.708740 114.000000 18.000000 -0.077058 -0.312151 0.946902
16.77000046 -5.42000008 -0.61000001 163 119 114 97.000000 1.000000 4.000000 1.000000 -60.708740 114.000000 18.000000 0.069226 -0.146665 0.986761
