//X Y Z R G B PointSourceId ScanDirectionFlag NumberOfReturns ReturnNumber GpsTime Intensity Classification Nx Ny Nz
-17.94000053 -8.10999966 0.41000000 246 140 62 97.000000 1.000000 4.000000 1.000000 -60.708740 114.000000 180.000000 0.935098 0.152417 -0.319938
-17.93000031 -8.10999966 0.44000000 246 140 62 97.000000 1.000000 4.000000 1.000000 -60.708740 114.000000 180.000000 0.991258 -0.099930 -0.086146
-17.95000076 -8.11999989 0.38999999 246 140 62 97.000000 1.000000 4.000000 1.000000 -60.708740 114.000000 180.000000 0.853552 0.063070 -0.517177
-17.95000076 -8.14000034 0.37000000 246 140 62 97.000000 1.000000 4.000000 1.000000 -60.708740 114.000000 180.000000 0.990421 0.130767 -0.044347
-17.98999977 -8.10000038 0.44000000 246 140 62 97.000000 1.000000 4.000000 1.000000 -60.708740 114.000000 180.000000 0.908467 -0.291119 -0.299896
-18.04000092 -8.11999989 0.44999999 246 140 62 97.000000 1.000000 4.000000 1.000000 -60.708740 114.000000 180.000000 0.946633 -0.212342 -0.242481
-18.00000000 -8.10999966 0.43000001 246 140 62 97.000000 1.000000 4.000000 1.000000 -60.708740 114.000000 180.000000 0.962062 -0.213937 -0.169312
-18.00000000 -8.11999989 0.43000001 246 140 62 97.000000 1.000000 4.000000 1.000000 -60.708740 114.000000 180.000000 0.935919 0.244822 -0.253216
-18.00000000 -8.11999989 0.41999999 246 140 62 97.000000 1.000000 4.000000 1.000000 -60.708740 114.000000 180.000000 0.998687 -0.042786 -0.028176
-18.02000046 -8.15999985 0.46000001 246 140 62 97.000000 1.000000 4.000000 1.000000 -60.708740 114.000000 180.000000 0.988844 -0.051923 0.139615
-18.01000023 -8.17000008 0.40000001 246 140 62 97.000000 1.000000 4.000000 1.000000 -60.708740 114.000000 180.000000 0.959624 0.186630 0.210455
-18.02000046 -8.14000034 0.43000001 246 140 62 97.000000 1.000000 4.000000 1.000000 -60.708740 114.000000 180.000000 0.948573 0.222471 0.225201
-17.98999977 -8.10000038 0.38999999 246 140 62 97.000000 1.000000 4.000000 1.000000 -60.708740 114.000000 180.000000 0.990221 -0.133015 0.042064
-17.97999954 -8.11999989 0.31999999 246 140 62 97.000000 1.000000 4.000000 1.000000 -60.708740 114.000000 180.000000 0.947624 0.310675 0.074094
-18.01000023 -8.13000011 0.37000000 246 140 62 97.000000 1.000000 4.000000 1.000000 -60.708740 114.000000 180.000000 0.994038 -0.096844 -0.050092
-18.01000023 -8.13000011 0.36000001 246 140 62 97.000000 1.000000 4.000000 1.000000 -60.708740 114.000000 180.000000 0.827174 0.491959 -0.271586
-18.02000046 -8.13000011 0.38000000 246 140 62 97.000000 1.000000 4.000000 1.000000 -60.708740 114.000000 180.000000 0.990532 0.136740 0.012229
-18.01000023 -8.13000011 0.37000000 246 140 62 97.000000 1.000000 4.000000 1.000000 -60.708740 114.000000 180.000000 0.994038 -0.096844 -0.050092
-18.01000023 -8.14000034 0.36000001 246 140 62 97.000000 1.000000 4.000000 1.000000 -60.708740 114.000000 180.000000 0.990686 0.132167 0.032759
-18.01000023 -8.14000034 0.37000000 246 140 62 97.000000 1.000000 4.000000 1.000000 -60.708740 114.000000 180.000000 0.986245 0.140892 0.086430
-18.04999924 -8.15999985 0.44000000 246 140 62 97.000000 1.000000 4.000000 1.000000 -60.708740 114.000000 180.000000 0.991782 0.001093 0.127937
-18.05999947 -8.17000008 0.31999999 246 140 62 97.000000 1.000000 4.000000 1.000000 -60.708740 114.000000 180.000000 0.828130 0.559921 -0.026268
-18.09000015 -8.15999985 0.38000000 246 140 62 97.000000 1.000000 4.000000 1.000000 -60.708740 114.000000 180.000000 0.995848 0.007472 -0.090726
-18.11000061 -8.15999985 0.33000001 246 140 62 97.000000 1.000000 4.000000 1.000000 -60.708740 114.000000 180.000000 0.897213 0.435553 0.072821
-18.06999969 -8.18999958 0.47000000 246 140 62 97.000000 1.000000 4.000000 1.000000 -60.708740 114.000000 180.000000 0.918601 0.155671 -0.363233
-18.05999947 -8.21000004 0.44999999 246 140 62 97.000000 1.000000 4.000000 1.000000 -60.708740 114.000000 180.000000 0.865993 0.445754 0.226629
-18.05999947 -8.18000031 0.43000001 246 140 62 97.000000 1.000000 4.000000 1.000000 -60.708740 114.000000 180.000000 0.999641 -0.025218 0.009078
-18.10000038 -8.18999958 0.43000001 246 140 62 97.000000 1.000000 4.000000 1.000000 -60.708740 114.000000 180.000000 0.878847 0.443080 0.176939
-18.07999992 -8.19999981 0.38999999 246 140 62 97.000000 1.000000 4.000000 1.000000 -60.708740 114.000000 180.000000 0.907474 0.381568 0.175778
-18.05999947 -8.18000031 0.34000000 246 140 62 97.000000 1.000000 4.000000 1.000000 -60.708740 114.000000 180.000000 0.945791 0.242968 0.215514
-18.07999992 -8.22000027 0.33000001 246 140 62 97.000000 1.000000 4.000000 1.000000 -60.708740 114.000000 180.000000 0.982456 0.073174 0.171540
-18.05999947 -8.18000031 0.34000000 246 140 62 97.000000 1.000000 4.000000 1.000000 -60.708740 114.000000 180.000000 0.945791 0.242968 0.215514
-18.11000061 -8.18000031 0.36000001 246 140 62 97.000000 1.000000 4.000000 1.000000 -60.708740 114.000000 180.000000 0.802617 0.403721 -0.439107
-18.11000061 -8.18000031 0.37000000 246 140 62 97.000000 1.000000 4.000000 1.000000 -60.708740 114.000000 180.000000 0.862450 0.505480 0.025887
-18.10000038 -8.18999958 0.34000000 246 140 62 97.000000 1.000000 4.000000 1.000000 -60.708740 114.000000 180.000000 0.875126 0.426343 0.228879
-18.10000038 -8.18000031 0.33000001 246 140 62 97.000000 1.000000 4.000000 1.000000 -60.708740 114.000000 180.000000 0.895526 0.415421 -0.159556
-18.12999916 -8.17000008 0.31999999 246 140 62 97.000000 1.000000 4.000000 1.000000 -60.708740 114.000000 180.000000 0.978223 0.167376 0.122743
-18.12999916 -8.17000008 0.33000001 246 140 62 97.000000 1.000000 4.000000 1.000000 -60.708740 114.000000 180.000000 0.949085 0.306866 -0.071214
-18.12999916 -8.17000008 0.31999999 246 140 62 97.000000 1.000000 4.000000 1.000000 -60.708740 114.000000 180.000000 0.978223 0.167376 0.122743
-18.12999916 -8.17000008 0.34000000 246 140 62 97.000000 1.000000 4.000000 1.000000 -60.708740 114.000000 180.000000 0.906171 -0.027780 -0.421998
-18.12999916 -8.19999981 0.44999999 246 140 62 97.000000 1.000000 4.000000 1.000000 -60.708740 114.000000 180.000000 0.882523 0.249376 -0.398703
-17.94000053 -8.10000038 0.28999999 246 140 62 97.000000 1.000000 4.000000 1.000000 -60.708740 114.000000 180.000000 0.944502 0.313951 -0.096702
-17.95000076 -8.14000034 0.25999999 246 140 62 97.000000 1.000000 4.000000 1.000000 -60.708740 114.000000 180.000000 0.931681 0.342390 0.121405
-17.95000076 -8.10000038 0.16000000 246 140 62 97.000000 1.000000 4.000000 1.000000 -60.708740 114.000000 180.000000 0.975367 -0.069756 -0.209269
-17.94000053 -8.18999958 0.25000000 246 140 62 97.000000 1.000000 4.000000 1.000000 -60.708740 114.000000 180.000000 0.922101 0.386688 0.014226
-17.97999954 -8.13000011 0.31000000 246 140 62 97.000000 1.000000 4.000000 1.000000 -60.708740 114.000000 180.000000 0.959556 -0.183970 -0.213088
-17.98999977 -8.11999989 0.27000001 246 140 62 97.000000 1.000000 4.000000 1.000000 -60.708740 114.000000 180.000000 0.988000 -0.076000 -0.134462
-17.95999908 -8.14999962 0.28999999 246 140 62 97.000000 1.000000 4.000000 1.000000 -60.708740 114.000000 180.000000 0.986848 0.160491 -0.019350
-17.98999977 -8.14999962 0.23999999 246 140 62 97.000000 1.000000 4.000000 1.000000 -60.708740 114.000000 180.000000 0.867931 0.496537 -0.012111
-18.00000000 -8.15999985 0.28000000 246 140 62 97.000000 1.000000 4.000000 1.000000 -60.708740 114.000000 180.000000 0.996286 0.085942 -0.005305
-18.02000046 -8.14999962 0.23999999 246 140 62 97.000000 1.000000 4.000000 1.000000 -60.708740 114.000000 180.000000 0.992576 -0.032379 -0.117233
-17.95999908 -8.10000038 0.22000000 246 140 62 97.000000 1.000000 4.000000 1.000000 -60.708740 114.000000 180.000000 0.961390 -0.123589 -0.245876
-17.97999954 -8.17000008 0.15000001 246 140 62 97.000000 1.000000 4.000000 1.000000 -60.708740 114.000000 180.000000 0.914231 0.129807 -0.383838
-17.96999931 -8.17000008 0.16000000 246 140 62 97.000000 1.000000 4.000000 1.000000 -60.708740 114.000000 180.000000 0.949967 0.302794 -0.076673
-18.00000000 -8.15999985 0.20000000 246 140 62 97.000000 1.000000 4.000000 1.000000 -60.708740 114.000000 180.000000 0.777088 0.461040 -0.428458
-18.00000000 -8.15999985 0.20000000 246 140 62 97.000000 1.000000 4.000000 1.000000 -60.708740 114.000000 180.000000 0.777088 0.461040 -0.428458
-18.01000023 -8.14999962 0.20000000 246 140 62 97.000000 1.000000 4.000000 1.000000 -60.708740 114.000000 180.000000 0.764098 0.489219 -0.420499
-18.01000023 -8.14000034 0.20000000 246 140 62 97.000000 1.000000 4.000000 1.000000 -60.708740 114.000000 180.000000 0.911362 0.373929 0.172036
-18.04000092 -8.14999962 0.17000000 246 140 62 97.000000 1.000000 4.000000 1.000000 -60.708740 114.000000 180.000000 0.997331 -0.048310 0.054751
-18.02000046 -8.14999962 0.16000000 246 140 62 97.000000 1.000000 4.000000 1.000000 -60.708740 114.000000 180.000000 0.923321 0.374466 0.085167
-18.02000046 -8.18999958 0.28999999 246 140 62 97.000000 1.000000 4.000000 1.000000 -60.708740 114.000000 180.000000 0.913188 0.165648 -0.372354
-18.02000046 -8.18000031 0.31000000 246 140 62 97.000000 1.000000 4.000000 1.000000 -60.708740 114.000000 180.000000 0.962320 -0.023292 -0.270921
-18.04000092 -8.18000031 0.25999999 246 140 62 97.000000 1.000000 4.000000 1.000000 -60.708740 114.000000 180.000000 0.808191 0.476626 -0.345912
-18.03000069 -8.23999977 0.22000000 246 140 62 97.000000 1.000000 4.000000 1.000000 -60.708740 114.000000 180.000000 0.865424 0.475910 -0.156684
-18.02000046 -8.18000031 0.20000000 246 140 62 97.000000 1.000000 4.000000 1.000000 -60.708740 114.000000 180.000000 0.933438 0.299984 0.196733
-18.02000046 -8.18000031 0.22000000 246 140 62 97.000000 1.000000 4.000000 1.000000 -60.708740 114.000000 180.000000 0.803685 0.594028 0.034943
-17.96999931 -8.18000031 0.23000000 246 140 62 97.000000 1.000000 4.000000 1.000000 -60.708740 114.000000 180.000000 0.810650 0.566711 -0.147256
-17.94000053 -8.11999989 0.13000000 246 140 62 97.000000 1.000000 4.000000 1.000000 -60.708740 114.000000 180.000000 0.978074 0.005815 -0.208175
-17.93000031 -8.10000038 0.08000000 246 140 62 97.000000 1.000000 4.000000 1.000000 -60.708740 114.000000 180.000000 0.998535 -0.017738 -0.051127
-17.94000053 -8.14000034 0.09000000 246 140 62 97.000000 1.000000 4.000000 1.000000 -60.708740 114.000000 180.000000 0.603486 0.787350 -0.126035
-17.90999985 -8.11999989 0.05000000 246 140 62 97.000000 1.000000 4.000000 1.000000 -60.708740 114.000000 180.000000 0.983208 0.155624 0.095305
-17.90999985 -8.10999966 -0.02000000 246 140 62 97.000000 1.000000 4.000000 1.000000 -60.708740 114.000000 180.000000 0.943059 0.332624 0.001246
-17.95999908 -8.10000038 0.14000000 246 140 62 97.000000 1.000000 4.000000 1.000000 -60.708740 114.000000 180.000000 0.951769 -0.036655 -0.304617
-18.01000023 -8.15999985 0.11000000 246 140 62 97.000000 1.000000 4.000000 1.000000 -60.708740 114.000000 180.000000 0.822670 0.565850 -0.055033
-18.01000023 -8.14999962 0.11000000 246 140 62 97.000000 1.000000 4.000000 1.000000 -60.708740 114.000000 180.000000 0.739413 0.515448 -0.433108
-17.95999908 -8.15999985 0.03000000 246 140 62 97.000000 1.000000 4.000000 1.000000 -60.708740 114.000000 180.000000 0.811680 0.517661 -0.270560
-17.95999908 -8.14999962 0.03000000 246 140 62 97.000000 1.000000 4.000000 1.000000 -60.708740 114.000000 180.000000 0.914863 0.311720 -0.256626
-17.96999931 -8.14000034 0.03000000 246 140 62 97.000000 1.000000 4.000000 1.000000 -60.708740 114.000000 180.000000 0.687800 0.547228 -0.476941
-17.95999908 -8.14999962 0.04000000 246 140 62 97.000000 1.000000 4.000000 1.000000 -60.708740 114.000000 180.000000 0.936710 0.163684 -0.309486
-17.95999908 -8.15999985 0.03000000 246 140 62 97.000000 1.000000 4.000000 1.000000 -60.708740 114.000000 180.000000 0.811680 0.517661 -0.270560
-17.97999954 -8.14000034 0.02000000 246 140 62 97.000000 1.000000 4.000000 1.000000 -60.708740 114.000000 180.000000 0.634662 0.745844 -0.202289
-18.00000000 -8.11999989 0.04000000 246 140 62 97.000000 1.000000 4.000000 1.000000 -60.708740 114.000000 180.000000 0.868614 0.457243 -0.190888
-18.03000069 -8.10000038 -0.02000000 246 140 62 97.000000 1.000000 4.000000 1.000000 -60.708740 114.000000 180.000000 0.856178 0.250923 -0.451661
-18.02000046 -8.14000034 0.05000000 246 140 62 97.000000 1.000000 4.000000 1.000000 -60.708740 114.000000 180.000000 0.852148 0.505462 0.135470
-18.00000000 -8.15999985 0.06000000 246 140 62 97.000000 1.000000 4.000000 1.000000 -60.708740 114.000000 180.000000 0.678999 0.688495 -0.254822
-18.00000000 -8.15999985 0.04000000 246 140 62 97.000000 1.000000 4.000000 1.000000 -60.708740 114.000000 180.000000 0.811620 0.583308 0.032019
-18.00000000 -8.14999962 0.05000000 246 140 62 97.000000 1.000000 4.000000 1.000000 -60.708740 114.000000 180.000000 0.741808 0.654537 0.145954
-18.00000000 -8.14000034 0.01000000 246 140 62 97.000000 1.000000 4.000000 1.000000 -60.708740 114.000000 180.000000 0.955309 0.295545 -0.006132
-18.06999969 -8.15999985 0.28000000 246 140 62 97.000000 1.000000 4.000000 1.000000 -60.708740 114.000000 180.000000 0.925787 0.328323 0.187412
-18.06999969 -8.14999962 0.27000001 246 140 62 97.000000 1.000000 4.000000 1.000000 -60.708740 114.000000 180.000000 0.910114 0.388033 0.145336
-18.12000084 -8.17000008 0.30000001 246 140 62 97.000000 1.000000 4.000000 1.000000 -60.708740 114.000000 180.000000 0.810258 0.297357 -0.505035
-18.10000038 -8.17000008 0.28999999 246 140 62 97.000000 1.000000 4.000000 1.000000 -60.708740 114.000000 180.000000 0.962652 0.248717 0.106961
-18.12000084 -8.14999962 0.31000000 246 140 62 97.000000 1.000000 4.000000 1.000000 -60.708740 114.000000 180.000000 0.983781 0.048190 0.172779
-18.11000061 -8.17000008 0.23999999 246 140 62 97.000000 1.000000 4.000000 1.000000 -60.708740 114.000000 180.000000 0.931228 0.350055 -0.101367
-18.09000015 -8.14999962 0.25999999 246 140 62 97.000000 1.000000 4.000000 1.000000 -60.708740 114.000000 180.000000 0.942946 0.325650 -0.069315
-18.07999992 -8.17000008 0.20000000 246 140 62 97.000000 1.000000 4.000000 1.000000 -60.708740 114.000000 180.000000 0.826006 0.530033 -0.191778
-18.07999992 -8.17000008 0.20000000 246 140 62 97.000000 1.000000 4.000000 1.000000 -60.708740 114.000000 180.000000 0.826006 0.530033 -0.191778
-18.06999969 -8.14999962 0.23000000 246 140 62 97.000000 1.000000 4.000000 1.000000 -60.708740 114.000000 180.000000 0.883069 0.468922 0.017367
-18.07999992 -8.15999985 0.16000000 246 140 62 97.000000 1.000000 4.000000 1.000000 -60.708740 114.000000 180.000000 0.947087 0.315696 0.057985
-18.07999992 -8.15999985 0.16000000 246 140 62 97.000000 1.000000 4.000000 1.000000 -60.708740 114.000000 180.000000 0.947087 0.315696 0.057985
-18.12000084 -8.13000011 0.16000000 246 140 62 97.000000 1.000000 4.000000 1.000000 -60.708740 114.000000 180.000000 0.882937 0.268329 -0.385255
-18.12000084 -8.10999966 0.17000000 246 140 62 97.000000 1.000000 4.000000 1.000000 -60.708740 114.000000 180.000000 0.979875 0.078924 0.183347
-18.12000084 -8.13000011 0.16000000 246 140 62 97.000000 1.000000 4.000000 1.000000 -60.708740 114.000000 180.000000 0.882937 0.268329 -0.385255
-18.12000084 -8.15999985 0.19000000 246 140 62 97.000000 1.000000 4.000000 1.000000 -60.708740 114.000000 180.000000 0.866560 0.486816 0.109926
-18.10000038 -8.14000034 0.20000000 246 140 62 97.000000 1.000000 4.000000 1.000000 -60.708740 114.000000 180.000000 0.946029 -0.042245 -0.321317
-18.10000038 -8.14000034 0.19000000 246 140 62 97.000000 1.000000 4.000000 1.000000 -60.708740 114.000000 180.000000 0.933381 0.078558 -0.350184
-18.10000038 -8.14999962 0.22000000 246 140 62 97.000000 1.000000 4.000000 1.000000 -60.708740 114.000000 180.000000 0.991400 -0.044087 0.123218
-18.11000061 -8.17000008 0.23000000 246 140 62 97.000000 1.000000 4.000000 1.000000 -60.708740 114.000000 180.000000 0.985293 0.091738 -0.144160
-18.09000015 -8.17000008 0.18000001 246 140 62 97.000000 1.000000 4.000000 1.000000 -60.708740 114.000000 180.000000 0.858621 0.477673 -0.186010
-18.04999924 -8.18999958 0.23999999 246 140 62 97.000000 1.000000 4.000000 1.000000 -60.708740 114.000000 180.000000 0.862964 0.442817 -0.243323
-18.04999924 -8.19999981 0.18000001 246 140 62 97.000000 1.000000 4.000000 1.000000 -60.708740 114.000000 180.000000 0.941124 0.148455 -0.303720
-18.09000015 -8.18000031 0.18000001 246 140 62 97.000000 1.000000 4.000000 1.000000 -60.708740 114.000000 180.000000 0.818077 0.541843 0.192757
-18.15999985 -8.14000034 0.28999999 246 140 62 97.000000 1.000000 4.000000 1.000000 -60.708740 114.000000 180.000000 0.892405 -0.150405 -0.425432
-18.15999985 -8.14999962 0.28999999 246 140 62 97.000000 1.000000 4.000000 1.000000 -60.708740 114.000000 180.000000 0.922064 0.386672 0.016812
-18.12999916 -8.14000034 0.25999999 246 140 62 97.000000 1.000000 4.000000 1.000000 -60.708740 114.000000 180.000000 0.818910 0.560152 -0.124968
-18.18000031 -8.11999989 0.23999999 246 140 62 97.000000 1.000000 4.000000 1.000000 -60.708740 114.000000 180.000000 0.919327 0.354456 -0.170873
-18.17000008 -8.14000034 0.28000000 246 140 62 97.000000 1.000000 4.000000 1.000000 -60.708740 114.000000 180.000000 0.884998 0.461080 -0.064689
-18.15999985 -8.10000038 0.22000000 246 140 62 97.000000 1.000000 4.000000 1.000000 -60.708740 114.000000 180.000000 0.875532 0.441457 -0.196367
-18.15999985 -8.10999966 0.20999999 246 140 62 97.000000 1.000000 4.000000 1.000000 -60.708740 114.000000 180.000000 0.931826 0.345874 -0.109866
-18.13999939 -8.14000034 0.17000000 246 140 62 97.000000 1.000000 4.000000 1.000000 -60.708740 114.000000 180.000000 0.779029 0.511288 -0.362902
-18.13999939 -8.14000034 0.17000000 246 140 62 97.000000 1.000000 4.000000 1.000000 -60.708740 114.000000 180.000000 0.779029 0.511288 -0.362902
-18.04999924 -8.13000011 0.09000000 246 140 62 97.000000 1.000000 4.000000 1.000000 -60.708740 114.000000 180.000000 0.998497 -0.053100 -0.013535
-18.04999924 -8.17000008 0.11000000 246 140 62 97.000000 1.000000 4.000000 1.000000 -60.708740 114.000000 180.000000 0.800671 0.552881 0.230754
-18.06999969 -8.15999985 0.12000000 246 140 62 97.000000 1.000000 4.000000 1.000000 -60.708740 114.000000 180.000000 0.692188 0.676349 -0.251849
-18.07999992 -8.14000034 0.11000000 246 140 62 97.000000 1.000000 4.000000 1.000000 -60.708740 114.000000 180.000000 0.995814 0.089548 -0.018341
-18.04999924 -8.17000008 0.13000000 246 140 62 97.000000 1.000000 4.000000 1.000000 -60.708740 114.000000 180.000000 0.895011 0.438514 -0.081616
-18.06999969 -8.14999962 0.12000000 246 140 62 97.000000 1.000000 4.000000 1.000000 -60.708740 114.000000 180.000000 0.719024 0.591270 -0.365245
-18.07999992 -8.15999985 0.10000000 246 140 62 97.000000 1.000000 4.000000 1.000000 -60.708740 114.000000 180.000000 0.892875 0.404790 0.197280
-18.04999924 -8.14999962 0.08000000 246 140 62 97.000000 1.000000 4.000000 1.000000 -60.708740 114.000000 180.000000 0.827633 0.211862 -0.519748
-18.04999924 -8.14999962 0.08000000 246 140 62 97.000000 1.000000 4.000000 1.000000 -60.708740 114.000000 180.000000 0.827633 0.211862 -0.519748
-18.04999924 -8.17000008 0.08000000 246 140 62 97.000000 1.000000 4.000000 1.000000 -60.708740 114.000000 180.000000 0.963623 0.251435 -0.090619
-18.11000061 -8.11999989 0.14000000 246 140 62 97.000000 1.000000 4.000000 1.000000 -60.708740 114.000000 180.000000 0.995100 -0.027308 0.095031
-18.11000061 -8.11999989 0.08000000 246 140 62 97.000000 1.000000 4.000000 1.000000 -60.708740 114.000000 180.000000 0.992988 0.050605 0.106833
-18.11000061 -8.13000011 0.08000000 246 140 62 97.000000 1.000000 4.000000 1.000000 -60.708740 114.000000 180.000000 0.972709 0.230914 0.022732
-18.11000061 -8.11999989 0.07000000 246 140 62 97.000000 1.000000 4.000000 1.000000 -60.708740 114.000000 180.000000 0.878249 0.450048 -0.161668
-18.12000084 -8.17000008 0.14000000 246 140 62 97.000000 1.000000 4.000000 1.000000 -60.708740 114.000000 180.000000 0.889612 0.377005 0.257794
-18.07999992 -8.11999989 0.04000000 246 140 62 97.000000 1.000000 4.000000 1.000000 -60.708740 114.000000 180.000000 0.866832 0.476394 -0.147143
-18.05999947 -8.10000038 0.00000000 246 140 62 97.000000 1.000000 4.000000 1.000000 -60.708740 114.000000 180.000000 0.927268 -0.021985 -0.373752
-18.07999992 -8.10999966 0.01000000 246 140 62 97.000000 1.000000 4.000000 1.000000 -60.708740 114.000000 180.000000 0.979223 0.170780 -0.109349
-18.10000038 -8.10000038 0.05000000 246 140 62 97.000000 1.000000 4.000000 1.000000 -60.708740 114.000000 180.000000 0.981552 0.178573 -0.068313
-18.09000015 -8.11999989 -0.01000000 246 140 62 97.000000 1.000000 4.000000 1.000000 -60.708740 114.000000 180.000000 0.969784 0.183681 -0.160560
-18.12999916 -8.10999966 0.11000000 246 140 62 97.000000 1.000000 4.000000 1.000000 -60.708740 114.000000 180.000000 0.986102 0.166045 -0.005648
-18.13999939 -8.10000038 0.14000000 246 140 62 97.000000 1.000000 4.000000 1.000000 -60.708740 114.000000 180.000000 0.809742 0.492818 -0.318509
-18.15999985 -8.11999989 0.14000000 246 140 62 97.000000 1.000000 4.000000 1.000000 -60.708740 114.000000 180.000000 0.892751 0.344283 -0.290628
-18.13999939 -8.11999989 0.08000000 246 140 62 97.000000 1.000000 4.000000 1.000000 -60.708740 114.000000 180.000000 0.998385 0.055177 -0.013534
-18.17000008 -8.10000038 0.12000000 246 140 62 97.000000 1.000000 4.000000 1.000000 -60.708740 114.000000 180.000000 0.864926 -0.101169 -0.491597
-18.17000008 -8.10999966 0.12000000 246 140 62 97.000000 1.000000 4.000000 1.000000 -60.708740 114.000000 180.000000 0.921575 0.203059 -0.330858
-18.17000008 -8.10000038 0.11000000 246 140 62 97.000000 1.000000 4.000000 1.000000 -60.708740 114.000000 180.000000 0.931683 -0.165231 -0.323520
-18.17000008 -8.10000038 0.12000000 246 140 62 97.000000 1.000000 4.000000 1.000000 -60.708740 114.000000 180.000000 0.864926 -0.101169 -0.491597
-17.52000046 -7.88000011 -0.69000000 246 140 62 97.000000 1.000000 4.000000 1.000000 -60.708740 114.000000 180.000000 0.882130 0.380203 -0.278014
-17.51000023 -7.92999983 -0.67000002 246 140 62 97.000000 1.000000 4.000000 1.000000 -60.708740 114.000000 180.000000 0.952907 -0.302688 -0.018684
-17.69000053 -7.88000011 -0.33000001 246 140 62 97.000000 1.000000 4.000000 1.000000 -60.708740 114.000000 180.000000 0.673428 0.704678 -0.223434
-17.70000076 -7.86999989 -0.33000001 246 140 62 97.000000 1.000000 4.000000 1.000000 -60.708740 114.000000 180.000000 0.942004 0.327139 -0.074887
-17.69000053 -7.88000011 -0.33000001 246 140 62 97.000000 1.000000 4.000000 1.000000 -60.708740 114.000000 180.000000 0.673428 0.704678 -0.223434
-17.70000076 -7.96999979 -0.27000001 246 140 62 97.000000 1.000000 4.000000 1.000000 -60.708740 114.000000 180.000000 0.900703 -0.269769 -0.340528
-17.69000053 -8.00000000 -0.34000000 246 140 62 97.000000 1.000000 4.000000 1.000000 -60.708740 114.000000 180.000000 0.978982 -0.129953 -0.157182
-17.70000076 -8.00000000 -0.34000000 246 140 62 97.000000 1.000000 4.000000 1.000000 -60.708740 114.000000 180.000000 0.793785 -0.434884 -0.425184
-17.70000076 -8.00000000 -0.33000001 246 140 62 97.000000 1.000000 4.000000 1.000000 -60.708740 114.000000 180.000000 0.910028 -0.324698 -0.257720
-17.84000015 -7.84000015 -0.06000000 246 140 62 97.000000 1.000000 4.000000 1.000000 -60.708740 114.000000 180.000000 0.570694 -0.743040 -0.349570
-17.79000092 -7.84000015 -0.17000000 246 140 62 97.000000 1.000000 4.000000 1.000000 -60.708740 114.000000 180.000000 -0.213045 0.973030 0.088457
-17.79000092 -7.88000011 -0.10000000 246 140 62 97.000000 1.000000 4.000000 1.000000 -60.708740 114.000000 180.000000 -0.068050 0.982549 0.173110
-17.81999969 -7.86000013 -0.07000000 246 140 62 97.000000 1.000000 4.000000 1.000000 -60.708740 114.000000 180.000000 -0.647304 0.660481 0.380477
-17.80999947 -7.86000013 -0.08000000 246 140 62 97.000000 1.000000 4.000000 1.000000 -60.708740 114.000000 180.000000 -0.557503 0.830120 -0.009542
-17.79999924 -7.90000010 -0.06000000 246 140 62 97.000000 1.000000 4.000000 1.000000 -60.708740 114.000000 180.000000 -0.593874 0.804290 -0.020765
-17.80999947 -7.90999985 -0.05000000 246 140 62 97.000000 1.000000 4.000000 1.000000 -60.708740 114.000000 180.000000 -0.620166 0.745769 0.243356
-17.80999947 -7.90999985 -0.05000000 246 140 62 97.000000 1.000000 4.000000 1.000000 -60.708740 114.000000 180.000000 -0.620166 0.745769 0.243356
-17.79999924 -7.88999987 -0.10000000 246 140 62 97.000000 1.000000 4.000000 1.000000 -60.708740 114.000000 180.000000 -0.491902 0.868795 -0.056811
-17.79999924 -7.88999987 -0.10000000 246 140 62 97.000000 1.000000 4.000000 1.000000 -60.708740 114.000000 180.000000 -0.491902 0.868795 -0.056811
-17.79000092 -7.88999987 -0.07000000 246 140 62 97.000000 1.000000 4.000000 1.000000 -60.708740 114.000000 180.000000 -0.475390 0.823695 0.309082
-17.86000061 -7.86000013 -0.06000000 246 140 62 97.000000 1.000000 4.000000 1.000000 -60.708740 114.000000 180.000000 -0.610576 0.573366 0.546305
-17.87000084 -7.86000013 -0.08000000 246 140 62 97.000000 1.000000 4.000000 1.000000 -60.708740 114.000000 180.000000 0.711727 -0.498376 -0.495042
-17.87000084 -7.88999987 -0.10000000 246 140 62 97.000000 1.000000 4.000000 1.000000 -60.708740 114.000000 180.000000 0.920710 -0.365229 -0.137482
-17.81999969 -7.88000011 -0.12000000 246 140 62 97.000000 1.000000 4.000000 1.000000 -60.708740 114.000000 180.000000 -0.379613 0.905009 0.191972
-17.81999969 -7.86999989 -0.12000000 246 140 62 97.000000 1.000000 4.000000 1.000000 -60.708740 114.000000 180.000000 -0.371001 0.889509 0.266704
-17.86000061 -7.86000013 -0.13000000 246 140 62 97.000000 1.000000 4.000000 1.000000 -60.708740 114.000000 180.000000 -0.232018 0.850732 0.471618
-17.87000084 -7.86999989 -0.14000000 246 140 62 97.000000 1.000000 4.000000 1.000000 -60.708740 114.000000 180.000000 -0.361174 0.813040 0.456639
-17.85000038 -7.86999989 -0.11000000 246 140 62 97.000000 1.000000 4.000000 1.000000 -60.708740 114.000000 180.000000 -0.548361 0.780421 0.300406
-17.84000015 -7.86000013 -0.16000000 246 140 62 97.000000 1.000000 4.000000 1.000000 -60.708740 114.000000 180.000000 -0.519190 0.854415 -0.020441
-17.78000069 -7.82999992 -0.25999999 246 140 62 97.000000 1.000000 4.000000 1.000000 -60.708740 114.000000 180.000000 0.056907 0.861926 0.503831
-17.77000046 -7.84000015 -0.23000000 246 140 62 97.000000 1.000000 4.000000 1.000000 -60.708740 114.000000 180.000000 -0.254873 0.943720 0.210787
-17.77000046 -7.82000017 -0.28000000 246 140 62 97.000000 1.000000 4.000000 1.000000 -60.708740 114.000000 180.000000 0.051348 0.859044 0.509320
-17.70999908 -7.90000010 -0.28999999 246 140 62 97.000000 1.000000 4.000000 1.000000 -60.708740 114.000000 180.000000 0.867680 0.377984 -0.322893
-17.70999908 -7.90000010 -0.28999999 246 140 62 97.000000 1.000000 4.000000 1.000000 -60.708740 114.000000 180.000000 0.867680 0.377984 -0.322893
-17.80999947 -7.82999992 -0.20000000 246 140 62 97.000000 1.000000 4.000000 1.000000 -60.708740 114.000000 180.000000 -0.222208 0.772288 0.595143
-17.79000092 -7.82999992 -0.23999999 246 140 62 97.000000 1.000000 4.000000 1.000000 -60.708740 114.000000 180.000000 -0.077168 0.868489 0.489665
-17.81999969 -7.82999992 -0.23999999 246 140 62 97.000000 1.000000 4.000000 1.000000 -60.708740 114.000000 180.000000 -0.039683 0.871655 0.488510
-17.85000038 -7.84000015 -0.23999999 246 140 62 97.000000 1.000000 4.000000 1.000000 -60.708740 114.000000 180.000000 0.690324 -0.674455 -0.261847
-17.86000061 -7.82999992 -0.27000001 246 140 62 97.000000 1.000000 4.000000 1.000000 -60.708740 114.000000 180.000000 -0.159933 0.814611 0.557522
-17.80999947 -7.82999992 -0.31000000 246 140 62 97.000000 1.000000 4.000000 1.000000 -60.708740 114.000000 180.000000 0.210702 0.885538 0.414037
-17.80999947 -7.82999992 -0.31000000 246 140 62 97.000000 1.000000 4.000000 1.000000 -60.708740 114.000000 180.000000 0.210702 0.885538 0.414037
-17.84000015 -7.82000017 -0.30000001 246 140 62 97.000000 1.000000 4.000000 1.000000 -60.708740 114.000000 180.000000 -0.074037 0.873073 0.481936
-17.84000015 -7.84000015 -0.33000001 246 140 62 97.000000 1.000000 4.000000 1.000000 -60.708740 114.000000 180.000000 -0.074197 0.869360 0.488578
-17.85000038 -7.84000015 -0.31999999 246 140 62 97.000000 1.000000 4.000000 1.000000 -60.708740 114.000000 180.000000 -0.335875 0.735030 0.588998
-17.84000015 -7.82999992 -0.33000001 246 140 62 97.000000 1.000000 4.000000 1.000000 -60.708740 114.000000 180.000000 -0.329989 0.867182 0.372965
-17.85000038 -7.82999992 -0.33000001 246 140 62 97.000000 1.000000 4.000000 1.000000 -60.708740 114.000000 180.000000 -0.054030 0.865864 0.497353
-17.81999969 -7.86000013 -0.20000000 246 140 62 97.000000 1.000000 4.000000 1.000000 -60.708740 114.000000 180.000000 -0.431562 0.870643 0.236081
-17.81999969 -7.84999990 -0.23999999 246 140 62 97.000000 1.000000 4.000000 1.000000 -60.708740 114.000000 180.000000 0.395774 -0.763861 -0.509784
-17.87000084 -7.84999990 -0.20000000 246 140 62 97.000000 1.000000 4.000000 1.000000 -60.708740 114.000000 180.000000 -0.401309 0.826411 0.394964
-17.86000061 -7.86999989 -0.27000001 246 140 62 97.000000 1.000000 4.000000 1.000000 -60.708740 114.000000 180.000000 -0.387792 0.812288 0.435667
-17.86000061 -7.84999990 -0.30000001 246 140 62 97.000000 1.000000 4.000000 1.000000 -60.708740 114.000000 180.000000 -0.642737 0.642737 0.416866
-17.87000084 -7.84999990 -0.34000000 246 140 62 97.000000 1.000000 4.000000 1.000000 -60.708740 114.000000 180.000000 -0.308332 0.768434 0.560749
-17.87000084 -7.84999990 -0.31000000 246 140 62 97.000000 1.000000 4.000000 1.000000 -60.708740 114.000000 180.000000 -0.397034 0.723227 0.565073
-17.87000084 -7.84999990 -0.31000000 246 140 62 97.000000 1.000000 4.000000 1.000000 -60.708740 114.000000 180.000000 -0.397034 0.723227 0.565073
-17.81999969 -7.94999981 -0.03000000 246 140 62 97.000000 1.000000 4.000000 1.000000 -60.708740 114.000000 180.000000 0.909330 -0.392122 -0.139140
-17.79000092 -7.92999983 -0.03000000 246 140 62 97.000000 1.000000 4.000000 1.000000 -60.708740 114.000000 180.000000 -0.583662 0.747667 0.316753
-17.80999947 -7.94000006 -0.03000000 246 140 62 97.000000 1.000000 4.000000 1.000000 -60.708740 114.000000 180.000000 0.776166 -0.444221 -0.447475
-17.79999924 -7.92999983 -0.04000000 246 140 62 97.000000 1.000000 4.000000 1.000000 -60.708740 114.000000 180.000000 0.764868 -0.497409 -0.409343
-17.79999924 -7.96000004 -0.08000000 246 140 62 97.000000 1.000000 4.000000 1.000000 -60.708740 114.000000 180.000000 0.759601 -0.649267 0.038192
-17.79000092 -7.96000004 -0.08000000 246 140 62 97.000000 1.000000 4.000000 1.000000 -60.708740 114.000000 180.000000 0.885545 -0.458710 -0.073449
-17.81999969 -7.94999981 -0.07000000 246 140 62 97.000000 1.000000 4.000000 1.000000 -60.708740 114.000000 180.000000 0.743046 -0.331862 -0.581163
-17.79000092 -7.94000006 -0.09000000 246 140 62 97.000000 1.000000 4.000000 1.000000 -60.708740 114.000000 180.000000 0.809289 -0.521263 -0.270806
-17.80999947 -8.00000000 -0.06000000 246 140 62 97.000000 1.000000 4.000000 1.000000 -60.708740 114.000000 180.000000 0.992609 -0.032307 -0.116974
-17.80999947 -7.96999979 -0.05000000 246 140 62 97.000000 1.000000 4.000000 1.000000 -60.708740 114.000000 180.000000 0.975329 -0.152277 -0.159828
-17.82999992 -7.96999979 -0.04000000 246 140 62 97.000000 1.000000 4.000000 1.000000 -60.708740 114.000000 180.000000 0.910288 -0.166152 -0.379168
-17.81999969 -8.01000023 -0.07000000 246 140 62 97.000000 1.000000 4.000000 1.000000 -60.708740 114.000000 180.000000 0.891562 0.076025 -0.446472
-17.80999947 -8.01000023 -0.10000000 246 140 62 97.000000 1.000000 4.000000 1.000000 -60.708740 114.000000 180.000000 0.984864 -0.024190 -0.171631
-17.81999969 -8.00000000 -0.07000000 246 140 62 97.000000 1.000000 4.000000 1.000000 -60.708740 114.000000 180.000000 0.854220 -0.037140 -0.518584
-17.80999947 -8.00000000 -0.09000000 246 140 62 97.000000 1.000000 4.000000 1.000000 -60.708740 114.000000 180.000000 0.992707 -0.069206 0.098703
-17.84000015 -8.01000023 -0.03000000 246 140 62 97.000000 1.000000 4.000000 1.000000 -60.708740 114.000000 180.000000 0.918433 -0.278269 -0.281153
-17.79000092 -7.96999979 -0.15000001 246 140 62 97.000000 1.000000 4.000000 1.000000 -60.708740 114.000000 180.000000 0.866524 -0.498826 0.017574
-17.84000015 -8.02999973 -0.06000000 246 140 62 97.000000 1.000000 4.000000 1.000000 -60.708740 114.000000 180.000000 0.823704 0.547652 0.146931
-17.87000084 -8.02000046 -0.13000000 246 140 62 97.000000 1.000000 4.000000 1.000000 -60.708740 114.000000 180.000000 0.974241 0.222787 -0.034923
-17.85000038 -8.09000015 -0.15000001 246 140 62 97.000000 1.000000 4.000000 1.000000 -60.708740 114.000000 180.000000 0.709336 0.611497 -0.350591
-17.72999954 -8.01000023 -0.20999999 246 140 62 97.000000 1.000000 4.000000 1.000000 -60.708740 114.000000 180.000000 -0.621705 0.783043 -0.018081
-17.72999954 -8.01000023 -0.27000001 246 140 62 97.000000 1.000000 4.000000 1.000000 -60.708740 114.000000 180.000000 0.870650 -0.391869 -0.297332
-17.70999908 -7.98999977 -0.25999999 246 140 62 97.000000 1.000000 4.000000 1.000000 -60.708740 114.000000 180.000000 0.788396 -0.596177 -0.151672
-17.73999977 -8.01000023 -0.23000000 246 140 62 97.000000 1.000000 4.000000 1.000000 -60.708740 114.000000 180.000000 0.479291 -0.689711 -0.542751
-17.77000046 -7.98999977 -0.22000000 246 140 62 97.000000 1.000000 4.000000 1.000000 -60.708740 114.000000 180.000000 0.767752 -0.611443 -0.191555
-17.70999908 -7.94999981 -0.31000000 246 140 62 97.000000 1.000000 4.000000 1.000000 -60.708740 114.000000 180.000000 0.959019 -0.170639 -0.226196
-17.70999908 -7.96000004 -0.30000001 246 140 62 97.000000 1.000000 4.000000 1.000000 -60.708740 114.000000 180.000000 0.944290 -0.302226 -0.130293
-17.72999954 -8.00000000 -0.31000000 246 140 62 97.000000 1.000000 4.000000 1.000000 -60.708740 114.000000 180.000000 -0.596649 0.741389 0.307170
-17.70999908 -8.02999973 -0.23999999 246 140 62 97.000000 1.000000 4.000000 1.000000 -60.708740 114.000000 180.000000 0.942965 -0.252654 -0.216758
-17.72999954 -8.03999996 -0.25999999 246 140 62 97.000000 1.000000 4.000000 1.000000 -60.708740 114.000000 180.000000 0.706461 -0.665553 -0.240732
-17.75000000 -8.02000046 -0.22000000 246 140 62 97.000000 1.000000 4.000000 1.000000 -60.708740 114.000000 180.000000 -0.534857 0.816844 0.216088
-17.75000000 -8.02999973 -0.20999999 246 140 62 97.000000 1.000000 4.000000 1.000000 -60.708740 114.000000 180.000000 0.577363 -0.674427 -0.460217
-17.75000000 -8.02000046 -0.20999999 246 140 62 97.000000 1.000000 4.000000 1.000000 -60.708740 114.000000 180.000000 -0.420351 0.893785 0.156376
-17.70999908 -8.02000046 -0.28999999 246 140 62 97.000000 1.000000 4.000000 1.000000 -60.708740 114.000000 180.000000 0.873595 -0.381343 -0.302340
-17.70999908 -8.02999973 -0.28000000 246 140 62 97.000000 1.000000 4.000000 1.000000 -60.708740 114.000000 180.000000 0.853929 -0.313468 -0.415383
-17.75000000 -8.02000046 -0.28000000 246 140 62 97.000000 1.000000 4.000000 1.000000 -60.708740 114.000000 180.000000 -0.363757 0.923807 0.119422
-17.76000023 -8.06999969 -0.34999999 246 140 62 97.000000 1.000000 4.000000 1.000000 -60.708740 114.000000 180.000000 -0.330154 0.874832 0.354497
-17.76000023 -8.06999969 -0.34999999 246 140 62 97.000000 1.000000 4.000000 1.000000 -60.708740 114.000000 180.000000 -0.330154 0.874832 0.354497
-17.80999947 -8.06999969 -0.33000001 246 140 62 97.000000 1.000000 4.000000 1.000000 -60.708740 114.000000 180.000000 0.406379 0.906323 -0.115909
-17.55999947 -7.86000013 -0.50000000 246 140 62 97.000000 1.000000 4.000000 1.000000 -60.708740 114.000000 180.000000 0.944084 0.050231 -0.325857
-17.62000084 -7.86000013 -0.50999999 246 140 62 97.000000 1.000000 4.000000 1.000000 -60.708740 114.000000 180.000000 0.989614 0.051602 0.134166
-17.62000084 -7.92000008 -0.47000000 246 140 62 97.000000 1.000000 4.000000 1.000000 -60.708740 114.000000 180.000000 0.963651 0.114813 -0.241235
-17.60000038 -7.90000010 -0.50999999 246 140 62 97.000000 1.000000 4.000000 1.000000 -60.708740 114.000000 180.000000 0.818468 0.522524 -0.238912
-17.60000038 -7.90999985 -0.50999999 246 140 62 97.000000 1.000000 4.000000 1.000000 -60.708740 114.000000 180.000000 0.975849 -0.188191 -0.110920
-17.69000053 -7.82999992 -0.41999999 246 140 62 97.000000 1.000000 4.000000 1.000000 -60.708740 114.000000 180.000000 0.899641 0.428466 0.084040
-17.69000053 -7.82999992 -0.41000000 246 140 62 97.000000 1.000000 4.000000 1.000000 -60.708740 114.000000 180.000000 0.912399 0.379343 0.153712
-17.69000053 -7.82000017 -0.41999999 246 140 62 97.000000 1.000000 4.000000 1.000000 -60.708740 114.000000 180.000000 0.848067 0.529873 0.004045
-17.69000053 -7.82999992 -0.41000000 246 140 62 97.000000 1.000000 4.000000 1.000000 -60.708740 114.000000 180.000000 0.912399 0.379343 0.153712
-17.68000031 -7.82999992 -0.40000001 246 140 62 97.000000 1.000000 4.000000 1.000000 -60.708740 114.000000 180.000000 0.911542 0.318386 -0.260233
-17.64999962 -7.82999992 -0.47999999 246 140 62 97.000000 1.000000 4.000000 1.000000 -60.708740 114.000000 180.000000 0.983066 0.182816 0.012648
-17.68000031 -7.80000019 -0.47000000 246 140 62 97.000000 1.000000 4.000000 1.000000 -60.708740 114.000000 180.000000 0.856072 0.479580 0.192728
-17.70000076 -7.78999996 -0.51999998 246 140 62 97.000000 1.000000 4.000000 1.000000 -60.708740 114.000000 180.000000 0.858789 0.460335 -0.224885
-17.70000076 -7.80999994 -0.47999999 246 140 62 97.000000 1.000000 4.000000 1.000000 -60.708740 114.000000 180.000000 0.934651 0.333318 0.123804
-17.67000008 -7.82000017 -0.44000000 246 140 62 97.000000 1.000000 4.000000 1.000000 -60.708740 114.000000 180.000000 0.905605 0.410374 0.107115
-17.70000076 -7.82000017 -0.44999999 246 140 62 97.000000 1.000000 4.000000 1.000000 -60.708740 114.000000 180.000000 0.817446 0.523845 0.239516
-17.70000076 -7.82000017 -0.47999999 246 140 62 97.000000 1.000000 4.000000 1.000000 -60.708740 114.000000 180.000000 0.836224 0.542762 0.078351
-17.70000076 -7.80999994 -0.47999999 246 140 62 97.000000 1.000000 4.000000 1.000000 -60.708740 114.000000 180.000000 0.934651 0.333318 0.123804
-17.67000008 -7.82000017 -0.51999998 246 140 62 97.000000 1.000000 4.000000 1.000000 -60.708740 114.000000 180.000000 0.835783 0.499636 0.227663
-17.70000076 -7.80999994 -0.49000001 246 140 62 97.000000 1.000000 4.000000 1.000000 -60.708740 114.000000 180.000000 0.909507 0.393793 -0.133133
-17.65999985 -7.86000013 -0.43000001 246 140 62 97.000000 1.000000 4.000000 1.000000 -60.708740 114.000000 180.000000 0.865145 0.481282 -0.141040
-17.65999985 -7.90999985 -0.40000001 246 140 62 97.000000 1.000000 4.000000 1.000000 -60.708740 114.000000 180.000000 0.799668 0.472750 -0.370187
-17.65999985 -7.90999985 -0.40000001 246 140 62 97.000000 1.000000 4.000000 1.000000 -60.708740 114.000000 180.000000 0.799668 0.472750 -0.370187
-17.68000031 -7.84999990 -0.41000000 246 140 62 97.000000 1.000000 4.000000 1.000000 -60.708740 114.000000 180.000000 0.869918 0.337877 -0.359281
-17.68000031 -7.84999990 -0.41000000 246 140 62 97.000000 1.000000 4.000000 1.000000 -60.708740 114.000000 180.000000 0.869918 0.337877 -0.359281
-17.68000031 -7.86999989 -0.41999999 246 140 62 97.000000 1.000000 4.000000 1.000000 -60.708740 114.000000 180.000000 0.956359 0.287541 0.051935
-17.68000031 -7.84999990 -0.41000000 246 140 62 97.000000 1.000000 4.000000 1.000000 -60.708740 114.000000 180.000000 0.869918 0.337877 -0.359281
-17.67000008 -7.90999985 -0.41000000 246 140 62 97.000000 1.000000 4.000000 1.000000 -60.708740 114.000000 180.000000 0.995752 -0.058186 -0.071360
-17.68000031 -7.92000008 -0.41000000 246 140 62 97.000000 1.000000 4.000000 1.000000 -60.708740 114.000000 180.000000 0.969014 -0.155711 -0.191744
-17.62999916 -7.84999990 -0.46000001 246 140 62 97.000000 1.000000 4.000000 1.000000 -60.708740 114.000000 180.000000 0.783315 0.534441 -0.317474
-17.63999939 -7.86000013 -0.50999999 246 140 62 97.000000 1.000000 4.000000 1.000000 -60.708740 114.000000 180.000000 0.745803 0.612794 -0.261269
-17.62999916 -7.92000008 -0.47999999 246 140 62 97.000000 1.000000 4.000000 1.000000 -60.708740 114.000000 180.000000 0.955838 -0.260443 -0.136171
-17.62000084 -7.84000015 -0.56000000 246 140 62 97.000000 1.000000 4.000000 1.000000 -60.708740 114.000000 180.000000 0.954581 0.232268 0.186620
-17.61000061 -7.82999992 -0.62000000 246 140 62 97.000000 1.000000 4.000000 1.000000 -60.708740 114.000000 180.000000 0.986195 0.162636 -0.031143
-17.59000015 -7.84000015 -0.69000000 246 140 62 97.000000 1.000000 4.000000 1.000000 -60.708740 114.000000 180.000000 0.768690 0.600976 -0.218960
-17.62000084 -7.80999994 -0.66000003 246 140 62 97.000000 1.000000 4.000000 1.000000 -60.708740 114.000000 180.000000 0.997892 0.011518 -0.063873
-17.56999969 -7.92000008 -0.57999998 246 140 62 97.000000 1.000000 4.000000 1.000000 -60.708740 114.000000 180.000000 0.977094 0.110217 -0.182044
-17.60000038 -7.86999989 -0.52999997 246 140 62 97.000000 1.000000 4.000000 1.000000 -60.708740 114.000000 180.000000 0.820541 0.302800 -0.484794
-17.60000038 -7.92000008 -0.55000001 246 140 62 97.000000 1.000000 4.000000 1.000000 -60.708740 114.000000 180.000000 0.974046 -0.192296 0.119399
-17.59000015 -7.90000010 -0.55000001 246 140 62 97.000000 1.000000 4.000000 1.000000 -60.708740 114.000000 180.000000 0.983007 -0.107611 0.148721
-17.60000038 -7.92000008 -0.54000002 246 140 62 97.000000 1.000000 4.000000 1.000000 -60.708740 114.000000 180.000000 0.970215 -0.220790 0.099671
-17.57999992 -7.92000008 -0.58999997 246 140 62 97.000000 1.000000 4.000000 1.000000 -60.708740 114.000000 180.000000 0.910816 0.275431 -0.307492
-17.56999969 -7.84999990 -0.63000000 246 140 62 97.000000 1.000000 4.000000 1.000000 -60.708740 114.000000 180.000000 0.999738 0.015132 0.017150
-17.56999969 -7.88000011 -0.63999999 246 140 62 97.000000 1.000000 4.000000 1.000000 -60.708740 114.000000 180.000000 0.987766 -0.155845 -0.005606
-17.56999969 -7.88000011 -0.63999999 246 140 62 97.000000 1.000000 4.000000 1.000000 -60.708740 114.000000 180.000000 0.987766 -0.155845 -0.005606
-17.56999969 -7.86000013 -0.69000000 246 140 62 97.000000 1.000000 4.000000 1.000000 -60.708740 114.000000 180.000000 0.929203 -0.207273 -0.305974
-17.56999969 -7.88000011 -0.68000001 246 140 62 97.000000 1.000000 4.000000 1.000000 -60.708740 114.000000 180.000000 0.917046 0.318159 -0.240419
-17.56999969 -7.86000013 -0.69000000 246 140 62 97.000000 1.000000 4.000000 1.000000 -60.708740 114.000000 180.000000 0.929203 -0.207273 -0.305974
-17.55999947 -7.90000010 -0.63999999 246 140 62 97.000000 1.000000 4.000000 1.000000 -60.708740 114.000000 180.000000 0.994675 -0.009720 -0.102600
-17.54999924 -7.90000010 -0.63000000 246 140 62 97.000000 1.000000 4.000000 1.000000 -60.708740 114.000000 180.000000 0.914753 -0.177829 -0.362772
-17.55999947 -7.90000010 -0.63999999 246 140 62 97.000000 1.000000 4.000000 1.000000 -60.708740 114.000000 180.000000 0.994675 -0.009720 -0.102600
-17.55999947 -7.90999985 -0.63000000 246 140 62 97.000000 1.000000 4.000000 1.000000 -60.708740 114.000000 180.000000 0.995616 -0.007502 -0.093238
-17.54000092 -7.90999985 -0.64999998 246 140 62 97.000000 1.000000 4.000000 1.000000 -60.708740 114.000000 180.000000 0.923416 -0.090850 -0.372892
-17.56999969 -7.88999987 -0.64999998 246 140 62 97.000000 1.000000 4.000000 1.000000 -60.708740 114.000000 180.000000 0.925661 0.151725 -0.346601
-17.61000061 -7.84999990 -0.63999999 246 140 62 97.000000 1.000000 4.000000 1.000000 -60.708740 114.000000 180.000000 0.941856 0.276369 -0.191121
-17.59000015 -7.86000013 -0.64999998 246 140 62 97.000000 1.000000 4.000000 1.000000 -60.708740 114.000000 180.000000 0.820837 0.471075 -0.322978
-17.57999992 -7.92000008 -0.64999998 246 140 62 97.000000 1.000000 4.000000 1.000000 -60.708740 114.000000 180.000000 0.863917 -0.305363 -0.400501
-17.57999992 -7.88999987 -0.64999998 246 140 62 97.000000 1.000000 4.000000 1.000000 -60.708740 114.000000 180.000000 0.905216 0.148744 -0.398069
-17.62999916 -7.82999992 -0.54000002 246 140 62 97.000000 1.000000 4.000000 1.000000 -60.708740 114.000000 180.000000 0.794106 0.573776 -0.200439
-17.65999985 -7.80999994 -0.56000000 246 140 62 97.000000 1.000000 4.000000 1.000000 -60.708740 114.000000 180.000000 0.568024 0.778869 -0.265917
-17.64999962 -7.80999994 -0.60000002 246 140 62 97.000000 1.000000 4.000000 1.000000 -60.708740 114.000000 180.000000 0.897973 0.438979 0.030689
-17.64999962 -7.80999994 -0.60000002 246 140 62 97.000000 1.000000 4.000000 1.000000 -60.708740 114.000000 180.000000 0.897973 0.438979 0.030689
-17.63999939 -7.80999994 -0.60000002 246 140 62 97.000000 1.000000 4.000000 1.000000 -60.708740 114.000000 180.000000 0.722470 0.550532 -0.418272
-17.70000076 -7.82000017 -0.52999997 246 140 62 97.000000 1.000000 4.000000 1.000000 -60.708740 114.000000 180.000000 0.878039 0.477577 -0.031117
-17.67000008 -7.80999994 -0.56999999 246 140 62 97.000000 1.000000 4.000000 1.000000 -60.708740 114.000000 180.000000 0.794884 0.593573 -0.125820
-17.64999962 -7.80000019 -0.61000001 246 140 62 97.000000 1.000000 4.000000 1.000000 -60.708740 114.000000 180.000000 0.768560 0.620586 -0.155524
-17.65999985 -7.78999996 -0.62000000 246 140 62 97.000000 1.000000 4.000000 1.000000 -60.708740 114.000000 180.000000 0.872349 0.417341 -0.254624
-17.64999962 -7.80999994 -0.61000001 246 140 62 97.000000 1.000000 4.000000 1.000000 -60.708740 114.000000 180.000000 0.788535 0.612990 -0.049549
-17.65999985 -7.80999994 -0.68000001 246 140 62 97.000000 1.000000 4.000000 1.000000 -60.708740 114.000000 180.000000 0.855597 0.428566 -0.290319
-17.70000076 -7.78000021 -0.63000000 246 140 62 97.000000 1.000000 4.000000 1.000000 -60.708740 114.000000 180.000000 0.802739 0.565116 -0.190403
-17.67000008 -7.80000019 -0.67000002 246 140 62 97.000000 1.000000 4.000000 1.000000 -60.708740 114.000000 180.000000 0.796240 0.502637 -0.336687
-17.62000084 -7.92999983 -0.47000000 246 140 62 97.000000 1.000000 4.000000 1.000000 -60.708740 114.000000 180.000000 0.907259 -0.057968 -0.416557
-17.59000015 -7.94999981 -0.51999998 246 140 62 97.000000 1.000000 4.000000 1.000000 -60.708740 114.000000 180.000000 0.988107 -0.085566 -0.127762
-17.68000031 -7.94000006 -0.38000000 246 140 62 97.000000 1.000000 4.000000 1.000000 -60.708740 114.000000 180.000000 0.897548 0.277424 -0.342700
-17.69000053 -7.94999981 -0.41999999 246 140 62 97.000000 1.000000 4.000000 1.000000 -60.708740 114.000000 180.000000 0.946858 -0.321456 0.011257
-17.67000008 -7.94999981 -0.40000001 246 140 62 97.000000 1.000000 4.000000 1.000000 -60.708740 114.000000 180.000000 0.878393 0.036656 -0.476532
-17.67000008 -7.94000006 -0.40000001 246 140 62 97.000000 1.000000 4.000000 1.000000 -60.708740 114.000000 180.000000 0.901969 -0.072541 -0.425664
-17.67000008 -8.01000023 -0.44999999 246 140 62 97.000000 1.000000 4.000000 1.000000 -60.708740 114.000000 180.000000 -0.664375 0.722951 0.189601
-17.67000008 -8.02000046 -0.44000000 246 140 62 97.000000 1.000000 4.000000 1.000000 -60.708740 114.000000 180.000000 0.783615 -0.542014 -0.303591
-17.67000008 -8.02000046 -0.50000000 246 140 62 97.000000 1.000000 4.000000 1.000000 -60.708740 114.000000 180.000000 0.946118 -0.323705 -0.008749
-17.69000053 -8.02999973 -0.51999998 246 140 62 97.000000 1.000000 4.000000 1.000000 -60.708740 114.000000 180.000000 0.925495 -0.363928 0.104953
-17.54999924 -7.92999983 -0.57999998 246 140 62 97.000000 1.000000 4.000000 1.000000 -60.708740 114.000000 180.000000 0.947263 0.247409 -0.203668
-17.57999992 -7.92999983 -0.58999997 246 140 62 97.000000 1.000000 4.000000 1.000000 -60.708740 114.000000 180.000000 0.934471 -0.199745 -0.294729
-17.62000084 -7.98000002 -0.58999997 246 140 62 97.000000 1.000000 4.000000 1.000000 -60.708740 114.000000 180.000000 0.820779 -0.564915 -0.084809
-17.61000061 -7.98999977 -0.57999998 246 140 62 97.000000 1.000000 4.000000 1.000000 -60.708740 114.000000 180.000000 0.763837 -0.575668 -0.291821
-17.60000038 -7.96999979 -0.57999998 246 140 62 97.000000 1.000000 4.000000 1.000000 -60.708740 114.000000 180.000000 0.805461 -0.332034 -0.490902
