//X Y Z R G B PointSourceId ScanDirectionFlag NumberOfReturns ReturnNumber GpsTime Intensity Classification Nx Ny Nz
-6.73000002 9.85999966 -0.55000001 197 135 89 97.000000 1.000000 4.000000 1.000000 -60.708740 114.000000 230.000000 0.802972 -0.469603 0.367027
-6.75000000 9.85999966 -0.57999998 197 135 89 97.000000 1.000000 4.000000 1.000000 -60.708740 114.000000 230.000000 0.810385 -0.398000 0.429968
-6.75000000 9.81000042 -0.52999997 197 135 89 97.000000 1.000000 4.000000 1.000000 -60.708740 114.000000 230.000000 -0.358224 0.695184 -0.623212
-6.76000023 9.85000038 -0.56999999 197 135 89 97.000000 1.000000 4.000000 1.000000 -60.708740 114.000000 230.000000 0.301171 -0.321942 0.897580
-6.78999996 9.81000042 -0.52999997 197 135 89 97.000000 1.000000 4.000000 1.000000 -60.708740 114.000000 230.000000 -0.335847 0.772929 -0.538319
-6.76999998 9.81000042 -0.52999997 197 135 89 97.000000 1.000000 4.000000 1.000000 -60.708740 114.000000 230.000000 -0.295476 0.898308 -0.325172
-6.78000021 9.81000042 -0.60000002 197 135 89 97.000000 1.000000 4.000000 1.000000 -60.708740 114.000000 230.000000 0.633342 -0.545519 0.548896
-6.78000021 9.81000042 -0.60000002 197 135 89 97.000000 1.000000 4.000000 1.000000 -60.708740 114.000000 230.000000 0.633342 -0.545519 0.548896
-6.78999996 9.81999969 -0.58999997 197 135 89 97.000000 1.000000 4.000000 1.000000 -60.708740 114.000000 230.000000 0.439927 -0.363694 0.821091
-6.78999996 9.80000019 -0.56999999 197 135 89 97.000000 1.000000 4.000000 1.000000 -60.708740 114.000000 230.000000 0.568677 -0.636176 0.521428
-6.78999996 9.80000019 -0.60000002 197 135 89 97.000000 1.000000 4.000000 1.000000 -60.708740 114.000000 230.000000 0.677788 -0.427989 0.597853
-6.73999977 9.84000015 -0.61000001 197 135 89 97.000000 1.000000 4.000000 1.000000 -60.708740 114.000000 230.000000 -0.449674 0.749456 -0.485911
-6.75000000 9.85000038 -0.62000000 197 135 89 97.000000 1.000000 4.000000 1.000000 -60.708740 114.000000 230.000000 0.660375 -0.529309 0.532669
-6.75000000 9.85000038 -0.68000001 197 135 89 97.000000 1.000000 4.000000 1.000000 -60.708740 114.000000 230.000000 -0.326325 0.706226 -0.628297
-6.75000000 9.85000038 -0.64999998 197 135 89 97.000000 1.000000 4.000000 1.000000 -60.708740 114.000000 230.000000 -0.311529 0.695694 -0.647270
-6.71999979 9.85000038 -0.64999998 197 135 89 97.000000 1.000000 4.000000 1.000000 -60.708740 114.000000 230.000000 0.467536 -0.457693 0.756259
-6.73000002 9.82999992 -0.66000003 197 135 89 97.000000 1.000000 4.000000 1.000000 -60.708740 114.000000 230.000000 -0.387730 0.661616 -0.641817
-6.75000000 9.81999969 -0.61000001 197 135 89 97.000000 1.000000 4.000000 1.000000 -60.708740 114.000000 230.000000 -0.411939 0.819106 -0.399215
-6.73000002 9.81999969 -0.66000003 197 135 89 97.000000 1.000000 4.000000 1.000000 -60.708740 114.000000 230.000000 0.504225 -0.245173 0.828038
-6.76000023 9.82999992 -0.63000000 197 135 89 97.000000 1.000000 4.000000 1.000000 -60.708740 114.000000 230.000000 0.468561 -0.531925 0.705342
-6.76000023 9.85999966 -0.62000000 197 135 89 97.000000 1.000000 4.000000 1.000000 -60.708740 114.000000 230.000000 -0.482076 0.788411 -0.382113
-6.76000023 9.85000038 -0.64999998 197 135 89 97.000000 1.000000 4.000000 1.000000 -60.708740 114.000000 230.000000 -0.460770 0.762485 -0.454211
-6.78000021 9.82999992 -0.69000000 197 135 89 97.000000 1.000000 4.000000 1.000000 -60.708740 114.000000 230.000000 0.538898 -0.332991 0.773761
-6.78999996 9.82999992 -0.69000000 197 135 89 97.000000 1.000000 4.000000 1.000000 -60.708740 114.000000 230.000000 0.492375 -0.417129 0.763918
-6.76000023 9.81999969 -0.63999999 197 135 89 97.000000 1.000000 4.000000 1.000000 -60.708740 114.000000 230.000000 -0.379471 0.847954 -0.370102
-6.76000023 9.80000019 -0.61000001 197 135 89 97.000000 1.000000 4.000000 1.000000 -60.708740 114.000000 230.000000 0.494934 -0.300103 0.815462
-6.78999996 9.81000042 -0.66000003 197 135 89 97.000000 1.000000 4.000000 1.000000 -60.708740 114.000000 230.000000 0.692674 -0.596790 0.405024
-6.78999996 9.77999973 -0.68000001 197 135 89 97.000000 1.000000 4.000000 1.000000 -60.708740 114.000000 230.000000 -0.020459 0.852462 -0.522389
-6.78999996 9.77000046 -0.69000000 197 135 89 97.000000 1.000000 4.000000 1.000000 -60.708740 114.000000 230.000000 -0.270309 0.814052 -0.514056
-6.82999992 9.84000015 -0.15000001 197 135 89 97.000000 1.000000 4.000000 1.000000 -60.708740 114.000000 230.000000 -0.473791 0.776627 -0.415178
-6.84999990 9.84000015 -0.14000000 197 135 89 97.000000 1.000000 4.000000 1.000000 -60.708740 114.000000 230.000000 0.355769 -0.647598 0.673829
-6.86999989 9.81999969 -0.18000001 197 135 89 97.000000 1.000000 4.000000 1.000000 -60.708740 114.000000 230.000000 -0.225154 0.856794 -0.463908
-6.88999987 9.81000042 -0.14000000 197 135 89 97.000000 1.000000 4.000000 1.000000 -60.708740 114.000000 230.000000 -0.142373 0.774811 -0.615952
-6.90000010 9.80000019 -0.15000001 197 135 89 97.000000 1.000000 4.000000 1.000000 -60.708740 114.000000 230.000000 -0.196876 0.874840 -0.442601
-6.94999981 9.78999996 -0.12000000 197 135 89 97.000000 1.000000 4.000000 1.000000 -60.708740 114.000000 230.000000 -0.309566 0.899076 -0.309566
-6.94999981 9.78999996 -0.12000000 197 135 89 97.000000 1.000000 4.000000 1.000000 -60.708740 114.000000 230.000000 -0.309566 0.899076 -0.309566
-6.94000006 9.80000019 -0.16000000 197 135 89 97.000000 1.000000 4.000000 1.000000 -60.708740 114.000000 230.000000 0.389944 -0.487025 0.781505
-6.96000004 9.76000023 -0.17000000 197 135 89 97.000000 1.000000 4.000000 1.000000 -60.708740 114.000000 230.000000 0.100564 -0.587354 0.803058
-6.80000019 9.82999992 -0.20999999 197 135 89 97.000000 1.000000 4.000000 1.000000 -60.708740 114.000000 230.000000 -0.529577 0.730849 -0.430591
-6.82000017 9.82999992 -0.23999999 197 135 89 97.000000 1.000000 4.000000 1.000000 -60.708740 114.000000 230.000000 -0.348644 0.788868 -0.506097
-6.82000017 9.84000015 -0.27000001 197 135 89 97.000000 1.000000 4.000000 1.000000 -60.708740 114.000000 230.000000 0.332208 -0.781571 0.528001
-6.82999992 9.81000042 -0.22000000 197 135 89 97.000000 1.000000 4.000000 1.000000 -60.708740 114.000000 230.000000 -0.502422 0.791355 -0.348324
-6.82000017 9.81000042 -0.23000000 197 135 89 97.000000 1.000000 4.000000 1.000000 -60.708740 114.000000 230.000000 -0.625846 0.649211 -0.432251
-6.82000017 9.81000042 -0.23000000 197 135 89 97.000000 1.000000 4.000000 1.000000 -60.708740 114.000000 230.000000 -0.625846 0.649211 -0.432251
-6.82999992 9.78999996 -0.23000000 197 135 89 97.000000 1.000000 4.000000 1.000000 -60.708740 114.000000 230.000000 0.143889 -0.562206 0.814383
-6.80999994 9.81000042 -0.25000000 197 135 89 97.000000 1.000000 4.000000 1.000000 -60.708740 114.000000 230.000000 -0.421538 0.806211 -0.415126
-6.82999992 9.80000019 -0.23000000 197 135 89 97.000000 1.000000 4.000000 1.000000 -60.708740 114.000000 230.000000 0.353873 -0.305686 0.883929
-6.82999992 9.81999969 -0.23000000 197 135 89 97.000000 1.000000 4.000000 1.000000 -60.708740 114.000000 230.000000 0.618665 -0.628725 0.471125
-6.80999994 9.81000042 -0.25999999 197 135 89 97.000000 1.000000 4.000000 1.000000 -60.708740 114.000000 230.000000 -0.326496 0.866056 -0.378612
-6.84000015 9.80000019 -0.22000000 197 135 89 97.000000 1.000000 4.000000 1.000000 -60.708740 114.000000 230.000000 -0.556774 0.706355 -0.437109
-6.84000015 9.80000019 -0.22000000 197 135 89 97.000000 1.000000 4.000000 1.000000 -60.708740 114.000000 230.000000 -0.556774 0.706355 -0.437109
-6.80000019 9.82999992 -0.34999999 197 135 89 97.000000 1.000000 4.000000 1.000000 -60.708740 114.000000 230.000000 0.401332 -0.596217 0.695311
-6.82000017 9.81000042 -0.31000000 197 135 89 97.000000 1.000000 4.000000 1.000000 -60.708740 114.000000 230.000000 -0.157810 0.848047 -0.505878
-6.80999994 9.80000019 -0.30000001 197 135 89 97.000000 1.000000 4.000000 1.000000 -60.708740 114.000000 230.000000 0.720949 -0.340132 0.603774
-6.80000019 9.81000042 -0.30000001 197 135 89 97.000000 1.000000 4.000000 1.000000 -60.708740 114.000000 230.000000 0.156896 -0.554365 0.817352
-6.82000017 9.81999969 -0.34999999 197 135 89 97.000000 1.000000 4.000000 1.000000 -60.708740 114.000000 230.000000 -0.500133 0.716138 -0.486841
-6.82999992 9.81000042 -0.34999999 197 135 89 97.000000 1.000000 4.000000 1.000000 -60.708740 114.000000 230.000000 0.152241 -0.637602 0.755174
-6.86000013 9.80000019 -0.28000000 197 135 89 97.000000 1.000000 4.000000 1.000000 -60.708740 114.000000 230.000000 0.686172 -0.555950 0.469135
-6.84999990 9.81000042 -0.28999999 197 135 89 97.000000 1.000000 4.000000 1.000000 -60.708740 114.000000 230.000000 0.766501 -0.416754 0.488665
-6.84999990 9.81000042 -0.28000000 197 135 89 97.000000 1.000000 4.000000 1.000000 -60.708740 114.000000 230.000000 0.584888 -0.722509 0.368627
-6.84999990 9.81000042 -0.28000000 197 135 89 97.000000 1.000000 4.000000 1.000000 -60.708740 114.000000 230.000000 0.584888 -0.722509 0.368627
-6.84000015 9.78999996 -0.30000001 197 135 89 97.000000 1.000000 4.000000 1.000000 -60.708740 114.000000 230.000000 0.715033 -0.532542 0.452909
-6.84999990 9.80000019 -0.34000000 197 135 89 97.000000 1.000000 4.000000 1.000000 -60.708740 114.000000 230.000000 -0.373075 0.675480 -0.636036
-6.86000013 9.80000019 -0.34000000 197 135 89 97.000000 1.000000 4.000000 1.000000 -60.708740 114.000000 230.000000 0.559075 -0.488561 0.669883
-6.84999990 9.80000019 -0.34000000 197 135 89 97.000000 1.000000 4.000000 1.000000 -60.708740 114.000000 230.000000 -0.373075 0.675480 -0.636036
-6.86000013 9.77000046 -0.25000000 197 135 89 97.000000 1.000000 4.000000 1.000000 -60.708740 114.000000 230.000000 -0.094404 0.874996 -0.474837
-6.82999992 9.77999973 -0.31999999 197 135 89 97.000000 1.000000 4.000000 1.000000 -60.708740 114.000000 230.000000 -0.403411 0.827388 -0.390755
-6.86999989 9.77999973 -0.34999999 197 135 89 97.000000 1.000000 4.000000 1.000000 -60.708740 114.000000 230.000000 -0.165424 0.836064 -0.523099
-6.88000011 9.80000019 -0.20999999 197 135 89 97.000000 1.000000 4.000000 1.000000 -60.708740 114.000000 230.000000 -0.509168 0.766192 -0.392043
-6.88000011 9.80000019 -0.22000000 197 135 89 97.000000 1.000000 4.000000 1.000000 -60.708740 114.000000 230.000000 0.492965 -0.577089 0.651118
-6.88000011 9.78999996 -0.22000000 197 135 89 97.000000 1.000000 4.000000 1.000000 -60.708740 114.000000 230.000000 -0.424179 0.683677 -0.593851
-6.88999987 9.80000019 -0.19000000 197 135 89 97.000000 1.000000 4.000000 1.000000 -60.708740 114.000000 230.000000 -0.501450 0.682576 -0.531637
-6.88000011 9.78999996 -0.25000000 197 135 89 97.000000 1.000000 4.000000 1.000000 -60.708740 114.000000 230.000000 -0.330983 0.863634 -0.380245
-6.88000011 9.80000019 -0.25000000 197 135 89 97.000000 1.000000 4.000000 1.000000 -60.708740 114.000000 230.000000 0.426779 -0.569592 0.702442
-6.92999983 9.78999996 -0.25999999 197 135 89 97.000000 1.000000 4.000000 1.000000 -60.708740 114.000000 230.000000 0.329851 -0.498760 0.801522
-6.94999981 9.78999996 -0.25000000 197 135 89 97.000000 1.000000 4.000000 1.000000 -60.708740 114.000000 230.000000 -0.565722 0.701761 -0.433001
-6.94999981 9.78999996 -0.27000001 197 135 89 97.000000 1.000000 4.000000 1.000000 -60.708740 114.000000 230.000000 -0.067201 0.802121 -0.593369
-6.96000004 9.78999996 -0.25000000 197 135 89 97.000000 1.000000 4.000000 1.000000 -60.708740 114.000000 230.000000 -0.189827 0.899865 -0.392695
-6.94000006 9.80000019 -0.25000000 197 135 89 97.000000 1.000000 4.000000 1.000000 -60.708740 114.000000 230.000000 -0.439245 0.772353 -0.458840
-6.90000010 9.78999996 -0.28999999 197 135 89 97.000000 1.000000 4.000000 1.000000 -60.708740 114.000000 230.000000 -0.416163 0.785367 -0.458265
-6.90999985 9.78999996 -0.31000000 197 135 89 97.000000 1.000000 4.000000 1.000000 -60.708740 114.000000 230.000000 -0.465977 0.794902 -0.388583
-6.92000008 9.78999996 -0.30000001 197 135 89 97.000000 1.000000 4.000000 1.000000 -60.708740 114.000000 230.000000 -0.411521 0.834079 -0.367373
-6.88000011 9.80000019 -0.34000000 197 135 89 97.000000 1.000000 4.000000 1.000000 -60.708740 114.000000 230.000000 -0.365823 0.809922 -0.458476
-6.88000011 9.78999996 -0.34999999 197 135 89 97.000000 1.000000 4.000000 1.000000 -60.708740 114.000000 230.000000 -0.289321 0.730495 -0.618603
-6.88999987 9.78999996 -0.34000000 197 135 89 97.000000 1.000000 4.000000 1.000000 -60.708740 114.000000 230.000000 -0.231711 0.874523 -0.426050
-6.88000011 9.81000042 -0.33000001 197 135 89 97.000000 1.000000 4.000000 1.000000 -60.708740 114.000000 230.000000 -0.226015 0.749746 -0.621931
-6.94999981 9.78999996 -0.31000000 197 135 89 97.000000 1.000000 4.000000 1.000000 -60.708740 114.000000 230.000000 -0.201187 0.778638 -0.594345
-6.94000006 9.78999996 -0.28000000 197 135 89 97.000000 1.000000 4.000000 1.000000 -60.708740 114.000000 230.000000 -0.547164 0.644811 -0.533695
-6.96000004 9.78999996 -0.34999999 197 135 89 97.000000 1.000000 4.000000 1.000000 -60.708740 114.000000 230.000000 -0.032332 -0.645226 0.763307
-6.90999985 9.77999973 -0.19000000 197 135 89 97.000000 1.000000 4.000000 1.000000 -60.708740 114.000000 230.000000 -0.254971 0.870522 -0.420928
-6.94999981 9.75000000 -0.23999999 197 135 89 97.000000 1.000000 4.000000 1.000000 -60.708740 114.000000 230.000000 0.332914 -0.605741 0.722666
-6.92000008 9.77999973 -0.31000000 197 135 89 97.000000 1.000000 4.000000 1.000000 -60.708740 114.000000 230.000000 -0.332174 0.888302 -0.317143
-6.88999987 9.77999973 -0.34999999 197 135 89 97.000000 1.000000 4.000000 1.000000 -60.708740 114.000000 230.000000 0.290096 -0.623465 0.726041
-6.88999987 9.77999973 -0.31999999 197 135 89 97.000000 1.000000 4.000000 1.000000 -60.708740 114.000000 230.000000 -0.253882 0.802143 -0.540473
-6.92999983 9.77999973 -0.30000001 197 135 89 97.000000 1.000000 4.000000 1.000000 -60.708740 114.000000 230.000000 -0.375707 0.810567 -0.449249
-6.96000004 9.77999973 -0.31000000 197 135 89 97.000000 1.000000 4.000000 1.000000 -60.708740 114.000000 230.000000 0.308232 -0.547790 0.777766
-6.94000006 9.77000046 -0.30000001 197 135 89 97.000000 1.000000 4.000000 1.000000 -60.708740 114.000000 230.000000 -0.202756 0.744469 -0.636126
-6.92999983 9.77000046 -0.31000000 197 135 89 97.000000 1.000000 4.000000 1.000000 -60.708740 114.000000 230.000000 0.114255 -0.731526 0.672173
-6.92999983 9.77000046 -0.31000000 197 135 89 97.000000 1.000000 4.000000 1.000000 -60.708740 114.000000 230.000000 0.114255 -0.731526 0.672173
-6.96000004 9.77000046 -0.31999999 197 135 89 97.000000 1.000000 4.000000 1.000000 -60.708740 114.000000 230.000000 -0.166331 0.911266 -0.376733
-6.94999981 9.77999973 -0.31999999 197 135 89 97.000000 1.000000 4.000000 1.000000 -60.708740 114.000000 230.000000 0.329802 -0.709967 0.622236
-6.92999983 9.77999973 -0.34999999 197 135 89 97.000000 1.000000 4.000000 1.000000 -60.708740 114.000000 230.000000 0.080034 -0.731944 0.676648
-6.94999981 9.77999973 -0.31999999 197 135 89 97.000000 1.000000 4.000000 1.000000 -60.708740 114.000000 230.000000 0.329802 -0.709967 0.622236
-7.00000000 9.80000019 -0.12000000 197 135 89 97.000000 1.000000 4.000000 1.000000 -60.708740 114.000000 230.000000 0.017584 0.861627 -0.507237
-6.96999979 9.78999996 -0.14000000 197 135 89 97.000000 1.000000 4.000000 1.000000 -60.708740 114.000000 230.000000 -0.195321 0.885552 -0.421482
-7.01999998 9.81000042 -0.11000000 197 135 89 97.000000 1.000000 4.000000 1.000000 -60.708740 114.000000 230.000000 0.343132 -0.606579 0.717162
-7.03999996 9.77999973 -0.09000000 197 135 89 97.000000 1.000000 4.000000 1.000000 -60.708740 114.000000 230.000000 -0.191082 0.921439 -0.338286
-7.00000000 9.77999973 -0.14000000 197 135 89 97.000000 1.000000 4.000000 1.000000 -60.708740 114.000000 230.000000 0.148470 -0.598377 0.787338
-6.96999979 9.77999973 -0.15000001 197 135 89 97.000000 1.000000 4.000000 1.000000 -60.708740 114.000000 230.000000 0.584083 -0.493188 0.644680
-7.07000017 9.80000019 -0.04000000 197 135 89 97.000000 1.000000 4.000000 1.000000 -60.708740 114.000000 230.000000 0.099694 0.825004 -0.556264
-7.07000017 9.80000019 -0.10000000 197 135 89 97.000000 1.000000 4.000000 1.000000 -60.708740 114.000000 230.000000 -0.286664 0.674220 -0.680626
-7.07000017 9.81000042 -0.07000000 197 135 89 97.000000 1.000000 4.000000 1.000000 -60.708740 114.000000 230.000000 0.070092 0.891952 -0.446663
-7.05999994 9.80000019 -0.10000000 197 135 89 97.000000 1.000000 4.000000 1.000000 -60.708740 114.000000 230.000000 0.029133 -0.575730 0.817121
-7.13000011 9.81999969 -0.06000000 197 135 89 97.000000 1.000000 4.000000 1.000000 -60.708740 114.000000 230.000000 -0.009678 0.783925 -0.620780
-7.09999990 9.80000019 -0.03000000 197 135 89 97.000000 1.000000 4.000000 1.000000 -60.708740 114.000000 230.000000 -0.407183 0.815962 -0.410376
-7.07000017 9.81000042 -0.12000000 197 135 89 97.000000 1.000000 4.000000 1.000000 -60.708740 114.000000 230.000000 -0.082486 0.788684 -0.609240
-7.13000011 9.82999992 -0.18000001 197 135 89 97.000000 1.000000 4.000000 1.000000 -60.708740 114.000000 230.000000 0.067087 -0.595217 0.800760
-7.09000015 9.78999996 -0.17000000 197 135 89 97.000000 1.000000 4.000000 1.000000 -60.708740 114.000000 230.000000 -0.094637 0.874333 -0.476010
-7.11000013 9.80000019 -0.16000000 197 135 89 97.000000 1.000000 4.000000 1.000000 -60.708740 114.000000 230.000000 0.162014 0.770700 -0.616257
-7.11000013 9.81000042 -0.17000000 197 135 89 97.000000 1.000000 4.000000 1.000000 -60.708740 114.000000 230.000000 -0.252968 0.817878 -0.516800
-7.09999990 9.81000042 -0.18000001 197 135 89 97.000000 1.000000 4.000000 1.000000 -60.708740 114.000000 230.000000 -0.243274 0.839985 -0.485019
-7.11000013 9.81000042 -0.18000001 197 135 89 97.000000 1.000000 4.000000 1.000000 -60.708740 114.000000 230.000000 -0.204473 0.831525 -0.516485
-7.09999990 9.81000042 -0.18000001 197 135 89 97.000000 1.000000 4.000000 1.000000 -60.708740 114.000000 230.000000 -0.243274 0.839985 -0.485019
-7.09999990 9.81999969 -0.17000000 197 135 89 97.000000 1.000000 4.000000 1.000000 -60.708740 114.000000 230.000000 -0.144930 -0.796368 0.587191
-7.05000019 9.77000046 -0.10000000 197 135 89 97.000000 1.000000 4.000000 1.000000 -60.708740 114.000000 230.000000 0.322504 -0.666076 0.672558
-7.05000019 9.77999973 -0.09000000 197 135 89 97.000000 1.000000 4.000000 1.000000 -60.708740 114.000000 230.000000 -0.295352 0.829798 -0.473500
-7.07999992 9.77999973 -0.15000001 197 135 89 97.000000 1.000000 4.000000 1.000000 -60.708740 114.000000 230.000000 0.240543 -0.494876 0.835007
-7.00000000 9.80000019 -0.22000000 197 135 89 97.000000 1.000000 4.000000 1.000000 -60.708740 114.000000 230.000000 -0.406960 0.886433 -0.220498
-7.00000000 9.78999996 -0.20999999 197 135 89 97.000000 1.000000 4.000000 1.000000 -60.708740 114.000000 230.000000 -0.358305 0.626625 -0.692069
-6.98999977 9.78999996 -0.23000000 197 135 89 97.000000 1.000000 4.000000 1.000000 -60.708740 114.000000 230.000000 -0.172593 0.701062 -0.691898
-7.00000000 9.78999996 -0.23000000 197 135 89 97.000000 1.000000 4.000000 1.000000 -60.708740 114.000000 230.000000 -0.371726 0.908505 -0.190887
-6.96999979 9.78999996 -0.27000001 197 135 89 97.000000 1.000000 4.000000 1.000000 -60.708740 114.000000 230.000000 -0.276471 0.877757 -0.391289
-7.01000023 9.78999996 -0.20999999 197 135 89 97.000000 1.000000 4.000000 1.000000 -60.708740 114.000000 230.000000 0.107707 0.733294 -0.671326
-7.01000023 9.78999996 -0.20999999 197 135 89 97.000000 1.000000 4.000000 1.000000 -60.708740 114.000000 230.000000 0.107707 0.733294 -0.671326
-7.03999996 9.78999996 -0.25999999 197 135 89 97.000000 1.000000 4.000000 1.000000 -60.708740 114.000000 230.000000 0.023723 0.785661 -0.618202
-7.03999996 9.78999996 -0.25999999 197 135 89 97.000000 1.000000 4.000000 1.000000 -60.708740 114.000000 230.000000 0.023723 0.785661 -0.618202
-7.03999996 9.78999996 -0.23000000 197 135 89 97.000000 1.000000 4.000000 1.000000 -60.708740 114.000000 230.000000 -0.222905 0.957022 -0.185531
-7.03999996 9.78999996 -0.23000000 197 135 89 97.000000 1.000000 4.000000 1.000000 -60.708740 114.000000 230.000000 -0.222905 0.957022 -0.185531
-7.03999996 9.78999996 -0.25999999 197 135 89 97.000000 1.000000 4.000000 1.000000 -60.708740 114.000000 230.000000 0.023723 0.785661 -0.618202
-7.01000023 9.80000019 -0.28000000 197 135 89 97.000000 1.000000 4.000000 1.000000 -60.708740 114.000000 230.000000 0.376684 -0.633290 0.676057
-7.01999998 9.78999996 -0.28000000 197 135 89 97.000000 1.000000 4.000000 1.000000 -60.708740 114.000000 230.000000 0.470026 -0.573733 0.670750
-7.00000000 9.77000046 -0.27000001 197 135 89 97.000000 1.000000 4.000000 1.000000 -60.708740 114.000000 230.000000 -0.533320 0.540050 -0.651088
-6.96999979 9.75000000 -0.23000000 197 135 89 97.000000 1.000000 4.000000 1.000000 -60.708740 114.000000 230.000000 0.148780 -0.626681 0.764941
-7.00000000 9.77999973 -0.23000000 197 135 89 97.000000 1.000000 4.000000 1.000000 -60.708740 114.000000 230.000000 -0.174287 0.900241 -0.398987
-7.00000000 9.77999973 -0.23000000 197 135 89 97.000000 1.000000 4.000000 1.000000 -60.708740 114.000000 230.000000 -0.174287 0.900241 -0.398987
-6.96999979 9.75000000 -0.23999999 197 135 89 97.000000 1.000000 4.000000 1.000000 -60.708740 114.000000 230.000000 -0.023550 0.815934 -0.577665
-7.00000000 9.77999973 -0.27000001 197 135 89 97.000000 1.000000 4.000000 1.000000 -60.708740 114.000000 230.000000 0.339061 -0.488693 0.803876
-6.98000002 9.77999973 -0.23999999 197 135 89 97.000000 1.000000 4.000000 1.000000 -60.708740 114.000000 230.000000 -0.267472 0.899948 -0.344315
-7.01999998 9.77000046 -0.19000000 197 135 89 97.000000 1.000000 4.000000 1.000000 -60.708740 114.000000 230.000000 -0.268623 0.713678 -0.646920
-7.01000023 9.77999973 -0.22000000 197 135 89 97.000000 1.000000 4.000000 1.000000 -60.708740 114.000000 230.000000 -0.434829 0.868154 -0.239231
-7.03000021 9.75000000 -0.20999999 197 135 89 97.000000 1.000000 4.000000 1.000000 -60.708740 114.000000 230.000000 -0.098121 0.771786 -0.628266
-7.01000023 9.75000000 -0.20999999 197 135 89 97.000000 1.000000 4.000000 1.000000 -60.708740 114.000000 230.000000 -0.019730 0.906275 -0.422227
-7.03000021 9.77999973 -0.20000000 197 135 89 97.000000 1.000000 4.000000 1.000000 -60.708740 114.000000 230.000000 0.582177 -0.629426 0.514678
-7.01999998 9.77999973 -0.22000000 197 135 89 97.000000 1.000000 4.000000 1.000000 -60.708740 114.000000 230.000000 -0.353803 0.767381 -0.534743
-7.03999996 9.77000046 -0.19000000 197 135 89 97.000000 1.000000 4.000000 1.000000 -60.708740 114.000000 230.000000 0.113845 -0.749604 0.652022
-7.03000021 9.77000046 -0.20000000 197 135 89 97.000000 1.000000 4.000000 1.000000 -60.708740 114.000000 230.000000 0.026145 0.840757 -0.540781
-7.03999996 9.77000046 -0.19000000 197 135 89 97.000000 1.000000 4.000000 1.000000 -60.708740 114.000000 230.000000 0.113845 -0.749604 0.652022
-7.01999998 9.77999973 -0.31000000 197 135 89 97.000000 1.000000 4.000000 1.000000 -60.708740 114.000000 230.000000 -0.297148 0.925565 -0.234590
-7.01999998 9.77999973 -0.34999999 197 135 89 97.000000 1.000000 4.000000 1.000000 -60.708740 114.000000 230.000000 -0.141574 0.800268 -0.582690
-7.07000017 9.80000019 -0.20000000 197 135 89 97.000000 1.000000 4.000000 1.000000 -60.708740 114.000000 230.000000 0.042241 0.881603 -0.470097
-7.07999992 9.80000019 -0.19000000 197 135 89 97.000000 1.000000 4.000000 1.000000 -60.708740 114.000000 230.000000 0.057233 0.850119 -0.523472
-7.07999992 9.80000019 -0.20000000 197 135 89 97.000000 1.000000 4.000000 1.000000 -60.708740 114.000000 230.000000 0.206183 -0.717766 0.665057
-7.05999994 9.78999996 -0.23000000 197 135 89 97.000000 1.000000 4.000000 1.000000 -60.708740 114.000000 230.000000 -0.411512 0.864328 -0.289129
-7.05000019 9.78999996 -0.25999999 197 135 89 97.000000 1.000000 4.000000 1.000000 -60.708740 114.000000 230.000000 -0.050939 0.933873 -0.353958
-7.05999994 9.78999996 -0.23000000 197 135 89 97.000000 1.000000 4.000000 1.000000 -60.708740 114.000000 230.000000 -0.411512 0.864328 -0.289129
-7.13000011 9.82999992 -0.25000000 197 135 89 97.000000 1.000000 4.000000 1.000000 -60.708740 114.000000 230.000000 0.188396 -0.529016 0.827435
-7.13000011 9.82999992 -0.25000000 197 135 89 97.000000 1.000000 4.000000 1.000000 -60.708740 114.000000 230.000000 0.188396 -0.529016 0.827435
-7.09000015 9.80000019 -0.20000000 197 135 89 97.000000 1.000000 4.000000 1.000000 -60.708740 114.000000 230.000000 0.026301 0.818102 -0.574471
-7.09000015 9.81000042 -0.19000000 197 135 89 97.000000 1.000000 4.000000 1.000000 -60.708740 114.000000 230.000000 -0.469991 0.715782 -0.516492
-7.11000013 9.78999996 -0.22000000 197 135 89 97.000000 1.000000 4.000000 1.000000 -60.708740 114.000000 230.000000 -0.441033 0.700660 -0.560861
-7.09000015 9.80000019 -0.19000000 197 135 89 97.000000 1.000000 4.000000 1.000000 -60.708740 114.000000 230.000000 -0.123896 -0.712030 0.691132
-7.09999990 9.80000019 -0.19000000 197 135 89 97.000000 1.000000 4.000000 1.000000 -60.708740 114.000000 230.000000 -0.304419 0.832078 -0.463653
-7.11000013 9.80000019 -0.19000000 197 135 89 97.000000 1.000000 4.000000 1.000000 -60.708740 114.000000 230.000000 0.014072 0.930052 -0.367159
-7.11999989 9.81000042 -0.23999999 197 135 89 97.000000 1.000000 4.000000 1.000000 -60.708740 114.000000 230.000000 -0.092139 0.984808 -0.147183
-7.11000013 9.78999996 -0.27000001 197 135 89 97.000000 1.000000 4.000000 1.000000 -60.708740 114.000000 230.000000 -0.425264 0.803989 -0.415635
-7.11999989 9.81000042 -0.23999999 197 135 89 97.000000 1.000000 4.000000 1.000000 -60.708740 114.000000 230.000000 -0.092139 0.984808 -0.147183
-7.11999989 9.81000042 -0.23999999 197 135 89 97.000000 1.000000 4.000000 1.000000 -60.708740 114.000000 230.000000 -0.092139 0.984808 -0.147183
-7.07000017 9.78999996 -0.28000000 197 135 89 97.000000 1.000000 4.000000 1.000000 -60.708740 114.000000 230.000000 -0.278162 0.935129 -0.219455
-7.05999994 9.80000019 -0.31999999 197 135 89 97.000000 1.000000 4.000000 1.000000 -60.708740 114.000000 230.000000 0.178039 0.869596 -0.460548
-7.05999994 9.80000019 -0.31999999 197 135 89 97.000000 1.000000 4.000000 1.000000 -60.708740 114.000000 230.000000 0.178039 0.869596 -0.460548
-7.07999992 9.78999996 -0.31999999 197 135 89 97.000000 1.000000 4.000000 1.000000 -60.708740 114.000000 230.000000 -0.165544 0.896817 -0.410261
-7.07999992 9.81000042 -0.34999999 197 135 89 97.000000 1.000000 4.000000 1.000000 -60.708740 114.000000 230.000000 0.085601 0.773310 -0.628223
-7.13000011 9.84000015 -0.33000001 197 135 89 97.000000 1.000000 4.000000 1.000000 -60.708740 114.000000 230.000000 0.049131 0.979026 -0.197723
-7.13000011 9.80000019 -0.31999999 197 135 89 97.000000 1.000000 4.000000 1.000000 -60.708740 114.000000 230.000000 0.176297 0.688324 -0.703654
-7.09999990 9.78999996 -0.31999999 197 135 89 97.000000 1.000000 4.000000 1.000000 -60.708740 114.000000 230.000000 0.188412 -0.605064 0.773562
-7.09000015 9.78999996 -0.34999999 197 135 89 97.000000 1.000000 4.000000 1.000000 -60.708740 114.000000 230.000000 -0.329489 0.719032 -0.611907
-7.09000015 9.78999996 -0.34999999 197 135 89 97.000000 1.000000 4.000000 1.000000 -60.708740 114.000000 230.000000 -0.329489 0.719032 -0.611907
-7.09000015 9.80000019 -0.34999999 197 135 89 97.000000 1.000000 4.000000 1.000000 -60.708740 114.000000 230.000000 -0.092295 0.907797 -0.409129
-7.05000019 9.77999973 -0.22000000 197 135 89 97.000000 1.000000 4.000000 1.000000 -60.708740 114.000000 230.000000 -0.558798 0.498387 -0.662838
-7.05999994 9.77000046 -0.19000000 197 135 89 97.000000 1.000000 4.000000 1.000000 -60.708740 114.000000 230.000000 -0.003890 0.911599 -0.411062
-7.05000019 9.77999973 -0.20999999 197 135 89 97.000000 1.000000 4.000000 1.000000 -60.708740 114.000000 230.000000 -0.292859 0.819066 -0.493319
-7.05000019 9.77999973 -0.20999999 197 135 89 97.000000 1.000000 4.000000 1.000000 -60.708740 114.000000 230.000000 -0.292859 0.819066 -0.493319
-7.09000015 9.77000046 -0.23999999 197 135 89 97.000000 1.000000 4.000000 1.000000 -60.708740 114.000000 230.000000 0.556548 -0.610681 0.563315
-7.09999990 9.77999973 -0.25999999 197 135 89 97.000000 1.000000 4.000000 1.000000 -60.708740 114.000000 230.000000 0.185814 0.823324 -0.536294
-7.07000017 9.77000046 -0.34000000 197 135 89 97.000000 1.000000 4.000000 1.000000 -60.708740 114.000000 230.000000 0.202830 -0.809795 0.550538
-7.05999994 9.77000046 -0.34999999 197 135 89 97.000000 1.000000 4.000000 1.000000 -60.708740 114.000000 230.000000 -0.003738 0.945644 -0.325182
-7.05000019 9.77000046 -0.34000000 197 135 89 97.000000 1.000000 4.000000 1.000000 -60.708740 114.000000 230.000000 -0.290736 0.838005 -0.461758
-7.05999994 9.77000046 -0.34999999 197 135 89 97.000000 1.000000 4.000000 1.000000 -60.708740 114.000000 230.000000 -0.003738 0.945644 -0.325182
-7.09000015 9.77999973 -0.33000001 197 135 89 97.000000 1.000000 4.000000 1.000000 -60.708740 114.000000 230.000000 0.143840 0.898642 -0.414429
-7.09000015 9.77999973 -0.33000001 197 135 89 97.000000 1.000000 4.000000 1.000000 -60.708740 114.000000 230.000000 0.143840 0.898642 -0.414429
-6.80000019 9.82999992 -0.41999999 197 135 89 97.000000 1.000000 4.000000 1.000000 -60.708740 114.000000 230.000000 -0.696037 0.569787 -0.436892
-6.82999992 9.81000042 -0.36000001 197 135 89 97.000000 1.000000 4.000000 1.000000 -60.708740 114.000000 230.000000 0.329794 -0.770592 0.545366
-6.80000019 9.81999969 -0.38999999 197 135 89 97.000000 1.000000 4.000000 1.000000 -60.708740 114.000000 230.000000 0.351232 -0.765590 0.538988
-6.82000017 9.81000042 -0.41999999 197 135 89 97.000000 1.000000 4.000000 1.000000 -60.708740 114.000000 230.000000 -0.194931 0.861566 -0.468728
-6.80000019 9.81000042 -0.41999999 197 135 89 97.000000 1.000000 4.000000 1.000000 -60.708740 114.000000 230.000000 0.564159 -0.709749 0.421879
-6.82000017 9.81000042 -0.41999999 197 135 89 97.000000 1.000000 4.000000 1.000000 -60.708740 114.000000 230.000000 -0.194931 0.861566 -0.468728
-6.80999994 9.81000042 -0.41999999 197 135 89 97.000000 1.000000 4.000000 1.000000 -60.708740 114.000000 230.000000 0.258025 -0.832787 0.489784
-6.82999992 9.81000042 -0.41999999 197 135 89 97.000000 1.000000 4.000000 1.000000 -60.708740 114.000000 230.000000 0.149104 -0.646117 0.748532
-6.80999994 9.81000042 -0.41999999 197 135 89 97.000000 1.000000 4.000000 1.000000 -60.708740 114.000000 230.000000 0.258025 -0.832787 0.489784
-6.82000017 9.81000042 -0.41999999 197 135 89 97.000000 1.000000 4.000000 1.000000 -60.708740 114.000000 230.000000 -0.194931 0.861566 -0.468728
-6.86999989 9.80000019 -0.37000000 197 135 89 97.000000 1.000000 4.000000 1.000000 -60.708740 114.000000 230.000000 -0.125138 0.901274 -0.414783
-6.84999990 9.81000042 -0.36000001 197 135 89 97.000000 1.000000 4.000000 1.000000 -60.708740 114.000000 230.000000 -0.272001 0.828436 -0.489601
-6.84999990 9.78999996 -0.37000000 197 135 89 97.000000 1.000000 4.000000 1.000000 -60.708740 114.000000 230.000000 0.652613 -0.652613 0.384959
-6.80000019 9.82999992 -0.44999999 197 135 89 97.000000 1.000000 4.000000 1.000000 -60.708740 114.000000 230.000000 -0.163760 0.857157 -0.488329
-6.80999994 9.82999992 -0.44999999 197 135 89 97.000000 1.000000 4.000000 1.000000 -60.708740 114.000000 230.000000 -0.519728 0.715663 -0.466593
-6.80999994 9.81999969 -0.44999999 197 135 89 97.000000 1.000000 4.000000 1.000000 -60.708740 114.000000 230.000000 -0.523384 0.712799 -0.466891
-6.80000019 9.81999969 -0.47000000 197 135 89 97.000000 1.000000 4.000000 1.000000 -60.708740 114.000000 230.000000 -0.749665 0.523289 -0.405180
-6.80999994 9.81000042 -0.46000001 197 135 89 97.000000 1.000000 4.000000 1.000000 -60.708740 114.000000 230.000000 0.398003 -0.606087 0.688660
-6.80000019 9.81999969 -0.47000000 197 135 89 97.000000 1.000000 4.000000 1.000000 -60.708740 114.000000 230.000000 -0.749665 0.523289 -0.405180
-6.80000019 9.81999969 -0.47000000 197 135 89 97.000000 1.000000 4.000000 1.000000 -60.708740 114.000000 230.000000 -0.749665 0.523289 -0.405180
-6.80000019 9.81000042 -0.46000001 197 135 89 97.000000 1.000000 4.000000 1.000000 -60.708740 114.000000 230.000000 -0.328198 0.732382 -0.596576
-6.80000019 9.81000042 -0.46000001 197 135 89 97.000000 1.000000 4.000000 1.000000 -60.708740 114.000000 230.000000 -0.328198 0.732382 -0.596576
-6.80999994 9.81000042 -0.49000001 197 135 89 97.000000 1.000000 4.000000 1.000000 -60.708740 114.000000 230.000000 -0.379580 0.718079 -0.583337
-6.84000015 9.80000019 -0.51999998 197 135 89 97.000000 1.000000 4.000000 1.000000 -60.708740 114.000000 230.000000 -0.386836 0.844149 -0.371175
-6.84000015 9.80000019 -0.51999998 197 135 89 97.000000 1.000000 4.000000 1.000000 -60.708740 114.000000 230.000000 -0.386836 0.844149 -0.371175
-6.84999990 9.78999996 -0.49000001 197 135 89 97.000000 1.000000 4.000000 1.000000 -60.708740 114.000000 230.000000 -0.068409 0.921509 -0.382285
-6.84000015 9.80000019 -0.49000001 197 135 89 97.000000 1.000000 4.000000 1.000000 -60.708740 114.000000 230.000000 -0.309940 0.868749 -0.386280
-6.84000015 9.77999973 -0.41999999 197 135 89 97.000000 1.000000 4.000000 1.000000 -60.708740 114.000000 230.000000 -0.158520 0.842969 -0.514077
-6.80000019 9.77999973 -0.44999999 197 135 89 97.000000 1.000000 4.000000 1.000000 -60.708740 114.000000 230.000000 -0.289446 0.886334 -0.361432
-6.82000017 9.77999973 -0.44000000 197 135 89 97.000000 1.000000 4.000000 1.000000 -60.708740 114.000000 230.000000 0.677467 -0.377469 0.631313
-6.82000017 9.77999973 -0.50000000 197 135 89 97.000000 1.000000 4.000000 1.000000 -60.708740 114.000000 230.000000 0.219057 -0.619886 0.753495
-6.92000008 9.78999996 -0.37000000 197 135 89 97.000000 1.000000 4.000000 1.000000 -60.708740 114.000000 230.000000 -0.301568 0.662804 -0.685381
-6.88000011 9.80000019 -0.38000000 197 135 89 97.000000 1.000000 4.000000 1.000000 -60.708740 114.000000 230.000000 -0.103908 0.869694 -0.482531
-6.90999985 9.78999996 -0.41000000 197 135 89 97.000000 1.000000 4.000000 1.000000 -60.708740 114.000000 230.000000 0.285214 -0.524731 0.802066
-6.90999985 9.78999996 -0.41000000 197 135 89 97.000000 1.000000 4.000000 1.000000 -60.708740 114.000000 230.000000 0.285214 -0.524731 0.802066
-6.90999985 9.78999996 -0.41000000 197 135 89 97.000000 1.000000 4.000000 1.000000 -60.708740 114.000000 230.000000 0.285214 -0.524731 0.802066
-6.94999981 9.78999996 -0.43000001 197 135 89 97.000000 1.000000 4.000000 1.000000 -60.708740 114.000000 230.000000 0.135529 0.855439 -0.499856
-6.88000011 9.78999996 -0.44000000 197 135 89 97.000000 1.000000 4.000000 1.000000 -60.708740 114.000000 230.000000 -0.273903 0.761546 -0.587388
-6.92000008 9.78999996 -0.51999998 197 135 89 97.000000 1.000000 4.000000 1.000000 -60.708740 114.000000 230.000000 -0.054689 0.839965 -0.539877
-6.94999981 9.80000019 -0.49000001 197 135 89 97.000000 1.000000 4.000000 1.000000 -60.708740 114.000000 230.000000 0.612060 -0.678408 0.406381
-6.88000011 9.77000046 -0.36000001 197 135 89 97.000000 1.000000 4.000000 1.000000 -60.708740 114.000000 230.000000 -0.492619 0.613672 -0.617035
-6.92000008 9.77999973 -0.41999999 197 135 89 97.000000 1.000000 4.000000 1.000000 -60.708740 114.000000 230.000000 0.061269 0.899978 -0.431608
-6.88999987 9.77999973 -0.40000001 197 135 89 97.000000 1.000000 4.000000 1.000000 -60.708740 114.000000 230.000000 0.474508 -0.714259 0.514467
-6.94999981 9.75000000 -0.38999999 197 135 89 97.000000 1.000000 4.000000 1.000000 -60.708740 114.000000 230.000000 0.363178 -0.505221 0.782850
-6.94999981 9.75000000 -0.38999999 197 135 89 97.000000 1.000000 4.000000 1.000000 -60.708740 114.000000 230.000000 0.363178 -0.505221 0.782850
-6.88000011 9.77999973 -0.44000000 197 135 89 97.000000 1.000000 4.000000 1.000000 -60.708740 114.000000 230.000000 -0.108937 0.914244 -0.390243
-6.90000010 9.77000046 -0.46000001 197 135 89 97.000000 1.000000 4.000000 1.000000 -60.708740 114.000000 230.000000 -0.052607 0.786264 -0.615646
-6.92000008 9.77999973 -0.46000001 197 135 89 97.000000 1.000000 4.000000 1.000000 -60.708740 114.000000 230.000000 0.067369 0.781188 -0.620650
-6.88999987 9.77999973 -0.50000000 197 135 89 97.000000 1.000000 4.000000 1.000000 -60.708740 114.000000 230.000000 0.560861 -0.441033 0.700660
-6.88999987 9.77999973 -0.50000000 197 135 89 97.000000 1.000000 4.000000 1.000000 -60.708740 114.000000 230.000000 0.560861 -0.441033 0.700660
-6.94999981 9.77999973 -0.44000000 197 135 89 97.000000 1.000000 4.000000 1.000000 -60.708740 114.000000 230.000000 -0.237313 0.674219 -0.699365
-6.96000004 9.77999973 -0.47999999 197 135 89 97.000000 1.000000 4.000000 1.000000 -60.708740 114.000000 230.000000 -0.412631 0.888405 -0.201176
-6.94999981 9.77999973 -0.44000000 197 135 89 97.000000 1.000000 4.000000 1.000000 -60.708740 114.000000 230.000000 -0.237313 0.674219 -0.699365
-6.96000004 9.76000023 -0.44999999 197 135 89 97.000000 1.000000 4.000000 1.000000 -60.708740 114.000000 230.000000 -0.054908 0.914683 -0.400425
-6.94999981 9.77000046 -0.44000000 197 135 89 97.000000 1.000000 4.000000 1.000000 -60.708740 114.000000 230.000000 -0.329042 0.711573 -0.620803
-6.96000004 9.76000023 -0.44999999 197 135 89 97.000000 1.000000 4.000000 1.000000 -60.708740 114.000000 230.000000 -0.054908 0.914683 -0.400425
-6.94000006 9.75000000 -0.44000000 197 135 89 97.000000 1.000000 4.000000 1.000000 -60.708740 114.000000 230.000000 -0.058931 -0.691358 0.720105
-6.94999981 9.76000023 -0.50999999 197 135 89 97.000000 1.000000 4.000000 1.000000 -60.708740 114.000000 230.000000 0.559615 -0.764860 0.319093
-6.94999981 9.76000023 -0.50999999 197 135 89 97.000000 1.000000 4.000000 1.000000 -60.708740 114.000000 230.000000 0.559615 -0.764860 0.319093
-6.82000017 9.81000042 -0.54000002 197 135 89 97.000000 1.000000 4.000000 1.000000 -60.708740 114.000000 230.000000 -0.198714 0.826712 -0.526365
-6.80999994 9.80000019 -0.55000001 197 135 89 97.000000 1.000000 4.000000 1.000000 -60.708740 114.000000 230.000000 0.467824 -0.585199 0.662331
-6.82999992 9.81000042 -0.54000002 197 135 89 97.000000 1.000000 4.000000 1.000000 -60.708740 114.000000 230.000000 -0.368323 0.826751 -0.425231
-6.80999994 9.81000042 -0.57999998 197 135 89 97.000000 1.000000 4.000000 1.000000 -60.708740 114.000000 230.000000 0.101437 -0.645374 0.757102
-6.80000019 9.78999996 -0.56999999 197 135 89 97.000000 1.000000 4.000000 1.000000 -60.708740 114.000000 230.000000 -0.626727 0.710938 -0.319031
-6.82999992 9.78999996 -0.57999998 197 135 89 97.000000 1.000000 4.000000 1.000000 -60.708740 114.000000 230.000000 0.661332 -0.654768 0.365948
-6.82000017 9.81999969 -0.60000002 197 135 89 97.000000 1.000000 4.000000 1.000000 -60.708740 114.000000 230.000000 -0.292061 0.829328 -0.476356
-6.80999994 9.81000042 -0.57999998 197 135 89 97.000000 1.000000 4.000000 1.000000 -60.708740 114.000000 230.000000 0.101437 -0.645374 0.757102
-6.82999992 9.78999996 -0.57999998 197 135 89 97.000000 1.000000 4.000000 1.000000 -60.708740 114.000000 230.000000 0.661332 -0.654768 0.365948
-6.86999989 9.78999996 -0.54000002 197 135 89 97.000000 1.000000 4.000000 1.000000 -60.708740 114.000000 230.000000 -0.065319 0.923804 -0.377253
-6.86999989 9.78999996 -0.54000002 197 135 89 97.000000 1.000000 4.000000 1.000000 -60.708740 114.000000 230.000000 -0.065319 0.923804 -0.377253
-6.84000015 9.81000042 -0.54000002 197 135 89 97.000000 1.000000 4.000000 1.000000 -60.708740 114.000000 230.000000 -0.333325 0.661773 -0.671529
-6.82000017 9.78999996 -0.61000001 197 135 89 97.000000 1.000000 4.000000 1.000000 -60.708740 114.000000 230.000000 -0.452793 0.656634 -0.603167
-6.82000017 9.78999996 -0.66000003 197 135 89 97.000000 1.000000 4.000000 1.000000 -60.708740 114.000000 230.000000 0.009742 -0.697264 0.716748
-6.80999994 9.80000019 -0.66000003 197 135 89 97.000000 1.000000 4.000000 1.000000 -60.708740 114.000000 230.000000 -0.435900 0.646334 -0.626293
-6.80000019 9.80000019 -0.64999998 197 135 89 97.000000 1.000000 4.000000 1.000000 -60.708740 114.000000 230.000000 -0.664081 0.556483 -0.499322
-6.80000019 9.78999996 -0.67000002 197 135 89 97.000000 1.000000 4.000000 1.000000 -60.708740 114.000000 230.000000 -0.298618 0.865227 -0.402752
-6.82999992 9.80000019 -0.68000001 197 135 89 97.000000 1.000000 4.000000 1.000000 -60.708740 114.000000 230.000000 -0.354891 0.842670 -0.404919
-6.82000017 9.78999996 -0.69000000 197 135 89 97.000000 1.000000 4.000000 1.000000 -60.708740 114.000000 230.000000 -0.305975 0.751322 -0.584717
-6.84000015 9.78999996 -0.62000000 197 135 89 97.000000 1.000000 4.000000 1.000000 -60.708740 114.000000 230.000000 -0.231524 0.858001 -0.458509
-6.86000013 9.78999996 -0.64999998 197 135 89 97.000000 1.000000 4.000000 1.000000 -60.708740 114.000000 230.000000 0.106749 0.872498 -0.476814
-6.84999990 9.78999996 -0.68000001 197 135 89 97.000000 1.000000 4.000000 1.000000 -60.708740 114.000000 230.000000 -0.061677 0.750166 -0.658367
-6.84999990 9.80000019 -0.67000002 197 135 89 97.000000 1.000000 4.000000 1.000000 -60.708740 114.000000 230.000000 -0.361969 0.689543 -0.627304
-6.80000019 9.77999973 -0.60000002 197 135 89 97.000000 1.000000 4.000000 1.000000 -60.708740 114.000000 230.000000 -0.582236 0.609239 -0.538358
-6.80999994 9.77999973 -0.58999997 197 135 89 97.000000 1.000000 4.000000 1.000000 -60.708740 114.000000 230.000000 -0.501183 0.765650 -0.403232
-6.80000019 9.77999973 -0.60000002 197 135 89 97.000000 1.000000 4.000000 1.000000 -60.708740 114.000000 230.000000 -0.582236 0.609239 -0.538358
-6.86000013 9.77999973 -0.54000002 197 135 89 97.000000 1.000000 4.000000 1.000000 -60.708740 114.000000 230.000000 0.052785 -0.640554 0.766097
-6.86000013 9.77999973 -0.55000001 197 135 89 97.000000 1.000000 4.000000 1.000000 -60.708740 114.000000 230.000000 -0.252487 0.869343 -0.424844
-6.86000013 9.77999973 -0.55000001 197 135 89 97.000000 1.000000 4.000000 1.000000 -60.708740 114.000000 230.000000 -0.252487 0.869343 -0.424844
-6.80999994 9.77999973 -0.63999999 197 135 89 97.000000 1.000000 4.000000 1.000000 -60.708740 114.000000 230.000000 -0.643337 0.688941 -0.333884
-6.82999992 9.77000046 -0.63999999 197 135 89 97.000000 1.000000 4.000000 1.000000 -60.708740 114.000000 230.000000 -0.009720 -0.656801 0.754002
-6.82000017 9.77999973 -0.67000002 197 135 89 97.000000 1.000000 4.000000 1.000000 -60.708740 114.000000 230.000000 -0.029076 0.829348 -0.557975
-6.84000015 9.77999973 -0.63000000 197 135 89 97.000000 1.000000 4.000000 1.000000 -60.708740 114.000000 230.000000 -0.631995 0.530876 -0.564582
-6.84000015 9.77000046 -0.69000000 197 135 89 97.000000 1.000000 4.000000 1.000000 -60.708740 114.000000 230.000000 -0.553515 0.661190 -0.506408
-6.90000010 9.78999996 -0.52999997 197 135 89 97.000000 1.000000 4.000000 1.000000 -60.708740 114.000000 230.000000 -0.309501 0.844518 -0.437034
-6.90000010 9.78999996 -0.56999999 197 135 89 97.000000 1.000000 4.000000 1.000000 -60.708740 114.000000 230.000000 0.053346 0.938113 -0.342196
-6.92999983 9.78999996 -0.67000002 197 135 89 97.000000 1.000000 4.000000 1.000000 -60.708740 114.000000 230.000000 -0.282872 0.887531 -0.363693
-6.92000008 9.78999996 -0.68000001 197 135 89 97.000000 1.000000 4.000000 1.000000 -60.708740 114.000000 230.000000 0.150161 0.864521 -0.479641
-6.88000011 9.80000019 -0.68000001 197 135 89 97.000000 1.000000 4.000000 1.000000 -60.708740 114.000000 230.000000 0.579999 -0.610436 0.539416
-6.88000011 9.78999996 -0.61000001 197 135 89 97.000000 1.000000 4.000000 1.000000 -60.708740 114.000000 230.000000 -0.039765 0.867978 -0.495008
-6.90000010 9.77000046 -0.55000001 197 135 89 97.000000 1.000000 4.000000 1.000000 -60.708740 114.000000 230.000000 -0.038221 -0.723373 0.689399
-6.90000010 9.77999973 -0.54000002 197 135 89 97.000000 1.000000 4.000000 1.000000 -60.708740 114.000000 230.000000 -0.040753 0.796799 -0.602869
-6.90999985 9.77999973 -0.60000002 197 135 89 97.000000 1.000000 4.000000 1.000000 -60.708740 114.000000 230.000000 -0.171338 0.897003 -0.407467
-6.90999985 9.77999973 -0.60000002 197 135 89 97.000000 1.000000 4.000000 1.000000 -60.708740 114.000000 230.000000 -0.171338 0.897003 -0.407467
-6.90000010 9.77999973 -0.60000002 197 135 89 97.000000 1.000000 4.000000 1.000000 -60.708740 114.000000 230.000000 0.095259 0.728364 -0.678536
-6.90000010 9.77000046 -0.57999998 197 135 89 97.000000 1.000000 4.000000 1.000000 -60.708740 114.000000 230.000000 -0.272824 0.890031 -0.365256
-6.88999987 9.77000046 -0.58999997 197 135 89 97.000000 1.000000 4.000000 1.000000 -60.708740 114.000000 230.000000 -0.554767 0.544649 -0.628960
-6.90000010 9.77000046 -0.60000002 197 135 89 97.000000 1.000000 4.000000 1.000000 -60.708740 114.000000 230.000000 0.061947 0.885152 -0.461160
-6.88000011 9.77000046 -0.60000002 197 135 89 97.000000 1.000000 4.000000 1.000000 -60.708740 114.000000 230.000000 -0.057716 0.829144 -0.556047
-6.90000010 9.75000000 -0.57999998 197 135 89 97.000000 1.000000 4.000000 1.000000 -60.708740 114.000000 230.000000 0.133551 0.697765 -0.703767
-6.90000010 9.77000046 -0.57999998 197 135 89 97.000000 1.000000 4.000000 1.000000 -60.708740 114.000000 230.000000 -0.272824 0.890031 -0.365256
-6.88000011 9.77000046 -0.60000002 197 135 89 97.000000 1.000000 4.000000 1.000000 -60.708740 114.000000 230.000000 -0.057716 0.829144 -0.556047
-6.96000004 9.73999977 -0.60000002 197 135 89 97.000000 1.000000 4.000000 1.000000 -60.708740 114.000000 230.000000 -0.223624 0.901805 -0.369784
-6.94999981 9.76000023 -0.58999997 197 135 89 97.000000 1.000000 4.000000 1.000000 -60.708740 114.000000 230.000000 -0.104429 -0.633931 0.766307
-6.96000004 9.77000046 -0.57999998 197 135 89 97.000000 1.000000 4.000000 1.000000 -60.708740 114.000000 230.000000 0.028444 0.876347 -0.480840
-6.94999981 9.76000023 -0.60000002 197 135 89 97.000000 1.000000 4.000000 1.000000 -60.708740 114.000000 230.000000 -0.276610 0.782410 -0.557961
-6.92000008 9.73999977 -0.62000000 197 135 89 97.000000 1.000000 4.000000 1.000000 -60.708740 114.000000 230.000000 0.105216 0.893631 -0.436294
-6.88999987 9.76000023 -0.63999999 197 135 89 97.000000 1.000000 4.000000 1.000000 -60.708740 114.000000 230.000000 -0.304864 0.878190 -0.368567
-6.88999987 9.77000046 -0.63000000 197 135 89 97.000000 1.000000 4.000000 1.000000 -60.708740 114.000000 230.000000 -0.310657 0.838307 -0.448034
-6.92000008 9.77999973 -0.61000001 197 135 89 97.000000 1.000000 4.000000 1.000000 -60.708740 114.000000 230.000000 -0.003822 0.928733 -0.370729
-6.88999987 9.77999973 -0.67000002 197 135 89 97.000000 1.000000 4.000000 1.000000 -60.708740 114.000000 230.000000 -0.137950 0.861101 -0.489361
-6.94000006 9.77999973 -0.63999999 197 135 89 97.000000 1.000000 4.000000 1.000000 -60.708740 114.000000 230.000000 -0.464282 0.662063 -0.588315
-6.98999977 9.78999996 -0.38999999 197 135 89 97.000000 1.000000 4.000000 1.000000 -60.708740 114.000000 230.000000 -0.546480 0.587085 -0.597236
-6.98000002 9.78999996 -0.41000000 197 135 89 97.000000 1.000000 4.000000 1.000000 -60.708740 114.000000 230.000000 -0.424517 0.674233 -0.604313
-6.98000002 9.78999996 -0.41000000 197 135 89 97.000000 1.000000 4.000000 1.000000 -60.708740 114.000000 230.000000 -0.424517 0.674233 -0.604313
-7.03999996 9.78999996 -0.38000000 197 135 89 97.000000 1.000000 4.000000 1.000000 -60.708740 114.000000 230.000000 0.437580 -0.738107 0.513538
-7.03999996 9.78999996 -0.38000000 197 135 89 97.000000 1.000000 4.000000 1.000000 -60.708740 114.000000 230.000000 0.437580 -0.738107 0.513538
-7.01000023 9.80000019 -0.41999999 197 135 89 97.000000 1.000000 4.000000 1.000000 -60.708740 114.000000 230.000000 -0.442581 0.751894 -0.488649
-7.01999998 9.78999996 -0.49000001 197 135 89 97.000000 1.000000 4.000000 1.000000 -60.708740 114.000000 230.000000 0.171681 0.873081 -0.456350
-7.01000023 9.78999996 -0.44000000 197 135 89 97.000000 1.000000 4.000000 1.000000 -60.708740 114.000000 230.000000 0.488738 -0.562636 0.666766
-6.98000002 9.80000019 -0.44999999 197 135 89 97.000000 1.000000 4.000000 1.000000 -60.708740 114.000000 230.000000 -0.500409 0.638569 -0.584653
-7.00000000 9.78999996 -0.44999999 197 135 89 97.000000 1.000000 4.000000 1.000000 -60.708740 114.000000 230.000000 -0.130244 0.726072 -0.675172
