//X Y Z R G B PointSourceId ScanDirectionFlag NumberOfReturns ReturnNumber GpsTime Intensity Classification Nx Ny Nz
10.50000000 -1.90999997 0.36000001 227 96 94 0.000000 0.000000 0.000000 0.000000 -60.708740 0.000000 150.000000 -0.090344 0.995910 -0.001063
10.51000023 -1.95000005 0.37000000 227 96 94 0.000000 0.000000 0.000000 0.000000 -60.708740 0.000000 150.000000 0.298517 0.924117 -0.238528
10.56999969 -1.97000003 0.44000000 227 96 94 0.000000 0.000000 0.000000 0.000000 -60.708740 0.000000 150.000000 0.368133 0.889778 -0.269765
10.56999969 -1.97000003 0.44000000 227 96 94 0.000000 0.000000 0.000000 0.000000 -60.708740 0.000000 150.000000 0.368133 0.889778 -0.269765
10.51000023 -2.04999995 0.46000001 227 96 94 0.000000 0.000000 0.000000 0.000000 -60.708740 0.000000 150.000000 0.801683 -0.589259 0.100392
10.52000046 -2.03999996 0.43000001 227 96 94 0.000000 0.000000 0.000000 0.000000 -60.708740 0.000000 150.000000 0.597931 0.700056 0.390384
10.53999996 -1.98000002 0.38999999 227 96 94 0.000000 0.000000 0.000000 0.000000 -60.708740 0.000000 150.000000 0.466325 0.873458 -0.140042
10.44999981 -1.85000002 0.37000000 227 96 94 0.000000 0.000000 0.000000 0.000000 -60.708740 0.000000 150.000000 -0.519682 0.848958 -0.095919
10.43999958 -1.86000001 0.41999999 227 96 94 0.000000 0.000000 0.000000 0.000000 -60.708740 0.000000 150.000000 -0.004916 0.999984 0.002950
10.42000008 -1.88000000 0.34999999 227 96 94 0.000000 0.000000 0.000000 0.000000 -60.708740 0.000000 150.000000 -0.632256 0.759009 0.155423
10.43000031 -1.87000000 0.34999999 227 96 94 0.000000 0.000000 0.000000 0.000000 -60.708740 0.000000 150.000000 -0.429695 0.854770 0.291084
10.47000027 -1.91999996 0.61000001 227 96 94 0.000000 0.000000 0.000000 0.000000 -60.708740 0.000000 150.000000 -0.161153 0.973260 -0.163690
10.47000027 -1.91999996 0.62000000 227 96 94 0.000000 0.000000 0.000000 0.000000 -60.708740 0.000000 150.000000 -0.467212 0.868517 0.165502
10.47999954 -1.91999996 0.63000000 227 96 94 0.000000 0.000000 0.000000 0.000000 -60.708740 0.000000 150.000000 -0.154194 0.926551 0.343115
10.47000027 -1.88999999 0.61000001 227 96 94 0.000000 0.000000 0.000000 0.000000 -60.708740 0.000000 150.000000 -0.397568 0.895620 0.199512
10.47000027 -1.91999996 0.58999997 227 96 94 0.000000 0.000000 0.000000 0.000000 -60.708740 0.000000 150.000000 -0.285732 0.940017 -0.186347
10.47999954 -1.89999998 0.56999999 227 96 94 0.000000 0.000000 0.000000 0.000000 -60.708740 0.000000 150.000000 0.032510 0.927177 0.373211
10.47999954 -1.90999997 0.57999998 227 96 94 0.000000 0.000000 0.000000 0.000000 -60.708740 0.000000 150.000000 -0.185745 0.857399 0.479965
10.48999977 -1.95000005 0.63999999 227 96 94 0.000000 0.000000 0.000000 0.000000 -60.708740 0.000000 150.000000 -0.388954 0.763262 0.515893
10.43000031 -1.89999998 0.57999998 227 96 94 0.000000 0.000000 0.000000 0.000000 -60.708740 0.000000 150.000000 -0.305152 0.949217 0.076613
10.43999958 -1.92999995 0.56999999 227 96 94 0.000000 0.000000 0.000000 0.000000 -60.708740 0.000000 150.000000 -0.634997 0.735342 -0.236752
10.48999977 -1.91999996 0.52999997 227 96 94 0.000000 0.000000 0.000000 0.000000 -60.708740 0.000000 150.000000 -0.483837 0.870342 -0.091689
10.47000027 -1.89999998 0.51999998 227 96 94 0.000000 0.000000 0.000000 0.000000 -60.708740 0.000000 150.000000 -0.175567 0.829815 0.529701
10.44999981 -1.91999996 0.54000002 227 96 94 0.000000 0.000000 0.000000 0.000000 -60.708740 0.000000 150.000000 -0.565893 0.769934 0.294902
10.43000031 -1.91999996 0.50999999 227 96 94 0.000000 0.000000 0.000000 0.000000 -60.708740 0.000000 150.000000 -0.314897 0.930695 -0.186139
10.44999981 -1.91999996 0.50000000 227 96 94 0.000000 0.000000 0.000000 0.000000 -60.708740 0.000000 150.000000 -0.414995 0.899391 -0.137387
10.43999958 -1.91999996 0.50999999 227 96 94 0.000000 0.000000 0.000000 0.000000 -60.708740 0.000000 150.000000 -0.472424 0.856363 -0.208467
10.43000031 -1.99000001 0.60000002 227 96 94 0.000000 0.000000 0.000000 0.000000 -60.708740 0.000000 150.000000 0.944284 -0.286682 -0.161683
10.44999981 -2.04999995 0.51999998 227 96 94 0.000000 0.000000 0.000000 0.000000 -60.708740 0.000000 150.000000 0.887816 0.185144 -0.421312
10.40999985 -1.94000006 0.56999999 227 96 94 0.000000 0.000000 0.000000 0.000000 -60.708740 0.000000 150.000000 0.861566 -0.468728 -0.194931
10.39999962 -1.94000006 0.63999999 227 96 94 0.000000 0.000000 0.000000 0.000000 -60.708740 0.000000 150.000000 -0.726510 0.658641 -0.195896
10.40999985 -1.96000004 0.63000000 227 96 94 0.000000 0.000000 0.000000 0.000000 -60.708740 0.000000 150.000000 -0.701550 0.712619 -0.001384
10.40999985 -1.94000006 0.51999998 227 96 94 0.000000 0.000000 0.000000 0.000000 -60.708740 0.000000 150.000000 0.912990 -0.407374 -0.022268
10.40999985 -1.96000004 0.54000002 227 96 94 0.000000 0.000000 0.000000 0.000000 -60.708740 0.000000 150.000000 0.720620 -0.651541 0.237067
10.40999985 -1.92999995 0.56000000 227 96 94 0.000000 0.000000 0.000000 0.000000 -60.708740 0.000000 150.000000 0.732883 -0.656382 -0.179013
10.39999962 -1.96000004 0.52999997 227 96 94 0.000000 0.000000 0.000000 0.000000 -60.708740 0.000000 150.000000 0.817025 -0.455313 -0.353780
10.40999985 -1.92999995 0.55000001 227 96 94 0.000000 0.000000 0.000000 0.000000 -60.708740 0.000000 150.000000 0.802739 -0.565116 0.190403
10.40999985 -1.98000002 0.62000000 227 96 94 0.000000 0.000000 0.000000 0.000000 -60.708740 0.000000 150.000000 0.780395 -0.376464 -0.499259
10.39000034 -1.97000003 0.54000002 227 96 94 0.000000 0.000000 0.000000 0.000000 -60.708740 0.000000 150.000000 0.751545 -0.657065 -0.058692
10.39999962 -1.97000003 0.52999997 227 96 94 0.000000 0.000000 0.000000 0.000000 -60.708740 0.000000 150.000000 0.882204 -0.457386 0.111869
10.40999985 -2.04999995 0.51999998 227 96 94 0.000000 0.000000 0.000000 0.000000 -60.708740 0.000000 150.000000 0.960203 0.205285 0.189392
10.40999985 -2.04999995 0.50999999 227 96 94 0.000000 0.000000 0.000000 0.000000 -60.708740 0.000000 150.000000 0.954533 0.213461 -0.208091
10.39999962 -2.02999997 0.50999999 227 96 94 0.000000 0.000000 0.000000 0.000000 -60.708740 0.000000 150.000000 0.955880 -0.086663 -0.280685
10.47000027 -1.89999998 0.41999999 227 96 94 0.000000 0.000000 0.000000 0.000000 -60.708740 0.000000 150.000000 -0.317372 0.946976 -0.050111
10.43000031 -1.90999997 0.46000001 227 96 94 0.000000 0.000000 0.000000 0.000000 -60.708740 0.000000 150.000000 -0.239377 0.921674 0.305313
10.42000008 -1.89999998 0.47999999 227 96 94 0.000000 0.000000 0.000000 0.000000 -60.708740 0.000000 150.000000 -0.331013 0.812487 0.479890
10.44999981 -1.89999998 0.47000000 227 96 94 0.000000 0.000000 0.000000 0.000000 -60.708740 0.000000 150.000000 -0.387746 0.848680 0.359716
10.44999981 -1.89999998 0.47000000 227 96 94 0.000000 0.000000 0.000000 0.000000 -60.708740 0.000000 150.000000 -0.387746 0.848680 0.359716
10.44999981 -1.90999997 0.41999999 227 96 94 0.000000 0.000000 0.000000 0.000000 -60.708740 0.000000 150.000000 -0.321846 0.910198 0.260681
10.44999981 -1.90999997 0.44000000 227 96 94 0.000000 0.000000 0.000000 0.000000 -60.708740 0.000000 150.000000 -0.162825 0.980620 0.108958
10.44999981 -1.89999998 0.41000000 227 96 94 0.000000 0.000000 0.000000 0.000000 -60.708740 0.000000 150.000000 -0.222088 0.973016 -0.062577
10.42000008 -1.92999995 0.46000001 227 96 94 0.000000 0.000000 0.000000 0.000000 -60.708740 0.000000 150.000000 -0.559241 0.806100 -0.193525
10.48999977 -1.88999999 0.38000000 227 96 94 0.000000 0.000000 0.000000 0.000000 -60.708740 0.000000 150.000000 -0.144034 0.987158 -0.069089
10.44999981 -1.89999998 0.38999999 227 96 94 0.000000 0.000000 0.000000 0.000000 -60.708740 0.000000 150.000000 -0.236435 0.900215 0.365666
10.42000008 -1.90999997 0.37000000 227 96 94 0.000000 0.000000 0.000000 0.000000 -60.708740 0.000000 150.000000 -0.421183 0.865174 0.272173
10.44999981 -1.89999998 0.38000000 227 96 94 0.000000 0.000000 0.000000 0.000000 -60.708740 0.000000 150.000000 -0.138866 0.986302 0.089016
10.43999958 -1.89999998 0.37000000 227 96 94 0.000000 0.000000 0.000000 0.000000 -60.708740 0.000000 150.000000 -0.500579 0.860770 -0.092175
10.44999981 -1.91999996 0.38000000 227 96 94 0.000000 0.000000 0.000000 0.000000 -60.708740 0.000000 150.000000 -0.169055 0.926307 0.336712
10.43999958 -1.89999998 0.38000000 227 96 94 0.000000 0.000000 0.000000 0.000000 -60.708740 0.000000 150.000000 -0.406617 0.900265 -0.155513
10.42000008 -1.90999997 0.33000001 227 96 94 0.000000 0.000000 0.000000 0.000000 -60.708740 0.000000 150.000000 -0.421056 0.897401 -0.131846
10.43999958 -2.04999995 0.46000001 227 96 94 0.000000 0.000000 0.000000 0.000000 -60.708740 0.000000 150.000000 0.971552 0.229684 0.057728
10.43000031 -2.04999995 0.46000001 227 96 94 0.000000 0.000000 0.000000 0.000000 -60.708740 0.000000 150.000000 0.871538 0.162045 -0.462777
10.40999985 -1.95000005 0.46000001 227 96 94 0.000000 0.000000 0.000000 0.000000 -60.708740 0.000000 150.000000 0.717629 -0.654817 0.237116
10.39000034 -1.96000004 0.41999999 227 96 94 0.000000 0.000000 0.000000 0.000000 -60.708740 0.000000 150.000000 -0.628406 0.768051 0.123304
10.39000034 -1.96000004 0.41000000 227 96 94 0.000000 0.000000 0.000000 0.000000 -60.708740 0.000000 150.000000 0.734214 -0.678906 0.004148
10.38000011 -1.96000004 0.41999999 227 96 94 0.000000 0.000000 0.000000 0.000000 -60.708740 0.000000 150.000000 0.926115 -0.364751 0.096273
10.39000034 -1.91999996 0.36000001 227 96 94 0.000000 0.000000 0.000000 0.000000 -60.708740 0.000000 150.000000 0.743258 -0.620171 -0.250909
10.40999985 -1.90999997 0.34999999 227 96 94 0.000000 0.000000 0.000000 0.000000 -60.708740 0.000000 150.000000 0.834322 -0.523876 -0.171640
10.39999962 -1.95000005 0.31999999 227 96 94 0.000000 0.000000 0.000000 0.000000 -60.708740 0.000000 150.000000 0.792031 -0.459733 -0.401661
10.39999962 -1.94000006 0.31999999 227 96 94 0.000000 0.000000 0.000000 0.000000 -60.708740 0.000000 150.000000 -0.607400 0.667308 0.431004
10.38000011 -1.98000002 0.47999999 227 96 94 0.000000 0.000000 0.000000 0.000000 -60.708740 0.000000 150.000000 -0.735627 0.586228 0.339395
10.36999989 -1.98000002 0.40000001 227 96 94 0.000000 0.000000 0.000000 0.000000 -60.708740 0.000000 150.000000 0.975570 -0.219533 -0.008218
10.38000011 -2.00999999 0.43000001 227 96 94 0.000000 0.000000 0.000000 0.000000 -60.708740 0.000000 150.000000 0.783108 -0.586177 -0.207700
10.40999985 -2.00999999 0.44000000 227 96 94 0.000000 0.000000 0.000000 0.000000 -60.708740 0.000000 150.000000 0.999936 0.008937 0.006951
10.36999989 -1.98000002 0.33000001 227 96 94 0.000000 0.000000 0.000000 0.000000 -60.708740 0.000000 150.000000 0.934930 -0.143730 -0.324419
10.35999966 -2.00999999 0.38999999 227 96 94 0.000000 0.000000 0.000000 0.000000 -60.708740 0.000000 150.000000 0.850756 -0.520612 -0.071954
10.35999966 -1.98000002 0.31999999 227 96 94 0.000000 0.000000 0.000000 0.000000 -60.708740 0.000000 150.000000 0.751583 -0.659209 -0.023793
10.35999966 -2.03999996 0.38999999 227 96 94 0.000000 0.000000 0.000000 0.000000 -60.708740 0.000000 150.000000 0.981559 0.168233 -0.090773
10.35999966 -2.01999998 0.38999999 227 96 94 0.000000 0.000000 0.000000 0.000000 -60.708740 0.000000 150.000000 0.917078 -0.395315 -0.051910
10.35999966 -2.03999996 0.34000000 227 96 94 0.000000 0.000000 0.000000 0.000000 -60.708740 0.000000 150.000000 0.941600 -0.180072 -0.284542
10.53999996 -1.91999996 0.30000001 227 96 94 0.000000 0.000000 0.000000 0.000000 -60.708740 0.000000 150.000000 0.594047 0.796463 -0.112942
10.56999969 -1.92999995 0.27000001 227 96 94 0.000000 0.000000 0.000000 0.000000 -60.708740 0.000000 150.000000 0.583216 0.807862 0.084962
10.56999969 -1.94000006 0.23999999 227 96 94 0.000000 0.000000 0.000000 0.000000 -60.708740 0.000000 150.000000 0.405898 0.912266 0.054924
10.55000019 -1.96000004 0.25000000 227 96 94 0.000000 0.000000 0.000000 0.000000 -60.708740 0.000000 150.000000 0.707003 0.691928 0.146225
10.52999973 -1.91999996 0.30000001 227 96 94 0.000000 0.000000 0.000000 0.000000 -60.708740 0.000000 150.000000 0.397976 0.914123 -0.077422
10.53999996 -1.91999996 0.22000000 227 96 94 0.000000 0.000000 0.000000 0.000000 -60.708740 0.000000 150.000000 0.171640 0.984917 0.021887
10.55000019 -1.91999996 0.19000000 227 96 94 0.000000 0.000000 0.000000 0.000000 -60.708740 0.000000 150.000000 0.387370 0.878743 -0.278846
10.53999996 -1.91999996 0.17000000 227 96 94 0.000000 0.000000 0.000000 0.000000 -60.708740 0.000000 150.000000 0.784355 0.619961 -0.020898
10.56999969 -1.96000004 0.20999999 227 96 94 0.000000 0.000000 0.000000 0.000000 -60.708740 0.000000 150.000000 0.733135 0.562562 0.382149
10.56999969 -1.94000006 0.23000000 227 96 94 0.000000 0.000000 0.000000 0.000000 -60.708740 0.000000 150.000000 0.457502 0.879149 -0.133378
10.50000000 -1.89999998 0.19000000 227 96 94 0.000000 0.000000 0.000000 0.000000 -60.708740 0.000000 150.000000 0.168724 0.939642 -0.297668
10.50000000 -1.91999996 0.15000001 227 96 94 0.000000 0.000000 0.000000 0.000000 -60.708740 0.000000 150.000000 0.561683 0.826496 -0.037631
10.56000042 -2.00000000 0.27000001 227 96 94 0.000000 0.000000 0.000000 0.000000 -60.708740 0.000000 150.000000 0.996140 0.086667 0.013910
10.56000042 -1.98000002 0.16000000 227 96 94 0.000000 0.000000 0.000000 0.000000 -60.708740 0.000000 150.000000 0.898631 0.432166 -0.075458
10.52999973 -2.02999997 0.15000001 227 96 94 0.000000 0.000000 0.000000 0.000000 -60.708740 0.000000 150.000000 0.781781 -0.546132 -0.300930
10.53999996 -1.90999997 0.07000000 227 96 94 0.000000 0.000000 0.000000 0.000000 -60.708740 0.000000 150.000000 0.779815 0.604847 -0.161393
10.52999973 -1.89999998 0.11000000 227 96 94 0.000000 0.000000 0.000000 0.000000 -60.708740 0.000000 150.000000 0.253271 0.952783 -0.167507
10.50000000 -1.90999997 0.13000000 227 96 94 0.000000 0.000000 0.000000 0.000000 -60.708740 0.000000 150.000000 0.228192 0.956804 -0.180151
10.52000046 -1.89999998 0.11000000 227 96 94 0.000000 0.000000 0.000000 0.000000 -60.708740 0.000000 150.000000 0.266581 0.960457 -0.080357
10.51000023 -1.91999996 0.09000000 227 96 94 0.000000 0.000000 0.000000 0.000000 -60.708740 0.000000 150.000000 0.550435 0.808021 0.210055
10.52000046 -1.91999996 0.04000000 227 96 94 0.000000 0.000000 0.000000 0.000000 -60.708740 0.000000 150.000000 0.611826 0.687685 0.390843
10.50000000 -1.89999998 -0.01000000 227 96 94 0.000000 0.000000 0.000000 0.000000 -60.708740 0.000000 150.000000 0.471995 0.862612 -0.181992
10.51000023 -1.89999998 -0.02000000 227 96 94 0.000000 0.000000 0.000000 0.000000 -60.708740 0.000000 150.000000 0.758601 0.644592 0.095008
10.51000023 -1.94000006 0.00000000 227 96 94 0.000000 0.000000 0.000000 0.000000 -60.708740 0.000000 150.000000 0.817196 0.576280 -0.009582
10.51000023 -1.94000006 -0.02000000 227 96 94 0.000000 0.000000 0.000000 0.000000 -60.708740 0.000000 150.000000 0.815181 0.501046 0.290575
10.52999973 -1.92999995 0.02000000 227 96 94 0.000000 0.000000 0.000000 0.000000 -60.708740 0.000000 150.000000 0.649796 0.741102 -0.168917
10.50000000 -2.01999998 0.01000000 227 96 94 0.000000 0.000000 0.000000 0.000000 -60.708740 0.000000 150.000000 0.908870 -0.169789 -0.380955
10.50000000 -2.02999997 0.03000000 227 96 94 0.000000 0.000000 0.000000 0.000000 -60.708740 0.000000 150.000000 0.802443 -0.596689 -0.006858
10.51000023 -2.00999999 -0.01000000 227 96 94 0.000000 0.000000 0.000000 0.000000 -60.708740 0.000000 150.000000 0.950663 -0.148834 -0.272193
10.50000000 -2.01999998 -0.02000000 227 96 94 0.000000 0.000000 0.000000 0.000000 -60.708740 0.000000 150.000000 0.843089 -0.500443 -0.196871
10.55000019 -2.02999997 0.06000000 227 96 94 0.000000 0.000000 0.000000 0.000000 -60.708740 0.000000 150.000000 0.900864 -0.432361 0.038819
10.47000027 -1.88000000 0.23999999 227 96 94 0.000000 0.000000 0.000000 0.000000 -60.708740 0.000000 150.000000 -0.122002 0.979716 0.158973
10.47000027 -1.87000000 0.23999999 227 96 94 0.000000 0.000000 0.000000 0.000000 -60.708740 0.000000 150.000000 -0.487038 0.833376 0.261300
10.42000008 -1.88000000 0.23999999 227 96 94 0.000000 0.000000 0.000000 0.000000 -60.708740 0.000000 150.000000 -0.420212 0.906208 -0.046989
10.43000031 -1.88000000 0.25000000 227 96 94 0.000000 0.000000 0.000000 0.000000 -60.708740 0.000000 150.000000 -0.090184 0.894906 0.437047
10.48999977 -1.88000000 0.18000001 227 96 94 0.000000 0.000000 0.000000 0.000000 -60.708740 0.000000 150.000000 0.044548 0.996351 -0.072798
10.44999981 -1.87000000 0.20000000 227 96 94 0.000000 0.000000 0.000000 0.000000 -60.708740 0.000000 150.000000 -0.229199 0.971952 0.052704
10.42000008 -1.87000000 0.22000000 227 96 94 0.000000 0.000000 0.000000 0.000000 -60.708740 0.000000 150.000000 -0.368340 0.915911 0.159473
10.40999985 -1.88000000 0.23000000 227 96 94 0.000000 0.000000 0.000000 0.000000 -60.708740 0.000000 150.000000 -0.230190 0.965769 0.119596
10.43000031 -1.88000000 0.04000000 227 96 94 0.000000 0.000000 0.000000 0.000000 -60.708740 0.000000 150.000000 -0.561309 0.825786 0.054865
10.47999954 -1.88000000 0.03000000 227 96 94 0.000000 0.000000 0.000000 0.000000 -60.708740 0.000000 150.000000 0.354209 0.923722 0.145851
10.46000004 -1.86000001 0.04000000 227 96 94 0.000000 0.000000 0.000000 0.000000 -60.708740 0.000000 150.000000 -0.325394 0.941929 -0.082995
10.39000034 -1.88000000 0.09000000 227 96 94 0.000000 0.000000 0.000000 0.000000 -60.708740 0.000000 150.000000 -0.407664 0.899723 0.155914
10.39999962 -1.88000000 0.10000000 227 96 94 0.000000 0.000000 0.000000 0.000000 -60.708740 0.000000 150.000000 -0.575726 0.732298 0.363702
10.42000008 -1.89999998 0.23999999 227 96 94 0.000000 0.000000 0.000000 0.000000 -60.708740 0.000000 150.000000 -0.290855 0.915977 0.276385
10.48999977 -1.88999999 0.30000001 227 96 94 0.000000 0.000000 0.000000 0.000000 -60.708740 0.000000 150.000000 0.278891 0.934776 0.220030
10.47999954 -1.88999999 0.31000000 227 96 94 0.000000 0.000000 0.000000 0.000000 -60.708740 0.000000 150.000000 0.029840 0.993549 0.109412
10.48999977 -1.88999999 0.15000001 227 96 94 0.000000 0.000000 0.000000 0.000000 -60.708740 0.000000 150.000000 -0.156876 0.986578 -0.045320
10.47000027 -1.88999999 0.20000000 227 96 94 0.000000 0.000000 0.000000 0.000000 -60.708740 0.000000 150.000000 -0.157251 0.974958 0.157251
10.43000031 -1.89999998 0.22000000 227 96 94 0.000000 0.000000 0.000000 0.000000 -60.708740 0.000000 150.000000 0.641647 -0.729501 -0.236892
10.40999985 -1.90999997 0.27000001 227 96 94 0.000000 0.000000 0.000000 0.000000 -60.708740 0.000000 150.000000 0.790160 -0.601112 -0.119632
10.39000034 -1.92999995 0.28999999 227 96 94 0.000000 0.000000 0.000000 0.000000 -60.708740 0.000000 150.000000 -0.578895 0.792734 -0.190928
10.39999962 -1.94000006 0.27000001 227 96 94 0.000000 0.000000 0.000000 0.000000 -60.708740 0.000000 150.000000 -0.578717 0.807273 -0.115743
10.38000011 -1.94000006 0.25999999 227 96 94 0.000000 0.000000 0.000000 0.000000 -60.708740 0.000000 150.000000 0.910346 -0.385309 -0.151019
10.35999966 -1.92999995 0.30000001 227 96 94 0.000000 0.000000 0.000000 0.000000 -60.708740 0.000000 150.000000 0.666405 -0.569046 -0.481759
10.38000011 -1.90999997 0.23000000 227 96 94 0.000000 0.000000 0.000000 0.000000 -60.708740 0.000000 150.000000 0.906961 -0.402315 -0.124760
10.38000011 -1.90999997 0.18000001 227 96 94 0.000000 0.000000 0.000000 0.000000 -60.708740 0.000000 150.000000 0.799726 -0.595111 -0.079252
10.35999966 -1.96000004 0.19000000 227 96 94 0.000000 0.000000 0.000000 0.000000 -60.708740 0.000000 150.000000 0.858681 -0.488788 0.154122
10.35999966 -1.96000004 0.15000001 227 96 94 0.000000 0.000000 0.000000 0.000000 -60.708740 0.000000 150.000000 0.783628 -0.591158 0.190943
10.35999966 -1.96000004 0.16000000 227 96 94 0.000000 0.000000 0.000000 0.000000 -60.708740 0.000000 150.000000 0.871833 -0.448498 -0.196866
10.36999989 -1.97000003 0.25000000 227 96 94 0.000000 0.000000 0.000000 0.000000 -60.708740 0.000000 150.000000 0.768247 -0.360672 -0.528878
10.39999962 -2.02999997 0.28999999 227 96 94 0.000000 0.000000 0.000000 0.000000 -60.708740 0.000000 150.000000 0.978679 0.059131 0.196701
10.36999989 -2.01999998 0.27000001 227 96 94 0.000000 0.000000 0.000000 0.000000 -60.708740 0.000000 150.000000 0.993211 0.110357 0.036786
10.38000011 -2.03999996 0.19000000 227 96 94 0.000000 0.000000 0.000000 0.000000 -60.708740 0.000000 150.000000 0.830715 0.461509 -0.311323
10.39000034 -2.04999995 0.22000000 227 96 94 0.000000 0.000000 0.000000 0.000000 -60.708740 0.000000 150.000000 0.975451 0.151904 -0.159437
10.36999989 -2.03999996 0.16000000 227 96 94 0.000000 0.000000 0.000000 0.000000 -60.708740 0.000000 150.000000 0.845076 0.517005 -0.136208
10.32999992 -1.97000003 0.20999999 227 96 94 0.000000 0.000000 0.000000 0.000000 -60.708740 0.000000 150.000000 0.741752 -0.565688 -0.360280
10.35999966 -1.97000003 0.22000000 227 96 94 0.000000 0.000000 0.000000 0.000000 -60.708740 0.000000 150.000000 0.954516 -0.158863 -0.252313
10.35000038 -1.97000003 0.18000001 227 96 94 0.000000 0.000000 0.000000 0.000000 -60.708740 0.000000 150.000000 0.978785 -0.202385 -0.031955
10.35999966 -1.97000003 0.16000000 227 96 94 0.000000 0.000000 0.000000 0.000000 -60.708740 0.000000 150.000000 0.933483 -0.135307 -0.332118
10.35999966 -2.00999999 0.15000001 227 96 94 0.000000 0.000000 0.000000 0.000000 -60.708740 0.000000 150.000000 0.870607 0.200225 -0.449393
10.47000027 -1.89999998 0.06000000 227 96 94 0.000000 0.000000 0.000000 0.000000 -60.708740 0.000000 150.000000 -0.001241 0.946931 0.321435
10.47000027 -1.89999998 -0.02000000 227 96 94 0.000000 0.000000 0.000000 0.000000 -60.708740 0.000000 150.000000 -0.134106 0.969398 -0.205630
10.42000008 -1.88999999 0.05000000 227 96 94 0.000000 0.000000 0.000000 0.000000 -60.708740 0.000000 150.000000 -0.317710 0.948148 0.008721
10.42000008 -1.88999999 0.00000000 227 96 94 0.000000 0.000000 0.000000 0.000000 -60.708740 0.000000 150.000000 -0.382997 0.915014 -0.126737
10.47999954 -2.01999998 0.14000000 227 96 94 0.000000 0.000000 0.000000 0.000000 -60.708740 0.000000 150.000000 -0.366288 0.903317 -0.223275
10.39000034 -1.89999998 0.07000000 227 96 94 0.000000 0.000000 0.000000 0.000000 -60.708740 0.000000 150.000000 -0.622565 0.764952 -0.165109
10.40999985 -1.88999999 0.07000000 227 96 94 0.000000 0.000000 0.000000 0.000000 -60.708740 0.000000 150.000000 -0.248404 0.968656 0.001189
10.35000038 -1.95000005 0.11000000 227 96 94 0.000000 0.000000 0.000000 0.000000 -60.708740 0.000000 150.000000 0.809907 -0.497311 -0.311017
10.34000015 -1.94000006 0.13000000 227 96 94 0.000000 0.000000 0.000000 0.000000 -60.708740 0.000000 150.000000 0.969075 -0.193815 -0.152742
10.35000038 -1.92999995 0.14000000 227 96 94 0.000000 0.000000 0.000000 0.000000 -60.708740 0.000000 150.000000 -0.816287 0.484720 0.314200
10.35000038 -1.96000004 0.11000000 227 96 94 0.000000 0.000000 0.000000 0.000000 -60.708740 0.000000 150.000000 0.954203 -0.191914 0.229492
10.34000015 -1.94000006 0.07000000 227 96 94 0.000000 0.000000 0.000000 0.000000 -60.708740 0.000000 150.000000 0.834883 -0.440154 -0.330507
10.35000038 -1.96000004 0.09000000 227 96 94 0.000000 0.000000 0.000000 0.000000 -60.708740 0.000000 150.000000 0.986127 -0.149627 -0.071868
10.35999966 -1.94000006 0.07000000 227 96 94 0.000000 0.000000 0.000000 0.000000 -60.708740 0.000000 150.000000 0.748959 -0.613358 -0.250704
10.36999989 -1.91999996 0.06000000 227 96 94 0.000000 0.000000 0.000000 0.000000 -60.708740 0.000000 150.000000 0.848133 -0.529572 0.014975
10.35000038 -1.92999995 0.06000000 227 96 94 0.000000 0.000000 0.000000 0.000000 -60.708740 0.000000 150.000000 0.816831 -0.530710 -0.226128
10.35000038 -1.92999995 -0.01000000 227 96 94 0.000000 0.000000 0.000000 0.000000 -60.708740 0.000000 150.000000 0.926037 -0.261117 -0.272532
10.35000038 -1.92999995 0.02000000 227 96 94 0.000000 0.000000 0.000000 0.000000 -60.708740 0.000000 150.000000 0.933663 -0.302847 -0.191199
10.34000015 -1.95000005 0.00000000 227 96 94 0.000000 0.000000 0.000000 0.000000 -60.708740 0.000000 150.000000 0.990578 -0.116200 -0.072481
10.35000038 -1.95000005 0.02000000 227 96 94 0.000000 0.000000 0.000000 0.000000 -60.708740 0.000000 150.000000 0.953111 -0.260668 0.153728
10.38000011 -2.04999995 0.10000000 227 96 94 0.000000 0.000000 0.000000 0.000000 -60.708740 0.000000 150.000000 0.864976 0.385629 -0.321101
10.39000034 -2.01999998 0.10000000 227 96 94 0.000000 0.000000 0.000000 0.000000 -60.708740 0.000000 150.000000 0.973985 -0.108776 -0.198798
10.36999989 -2.02999997 0.10000000 227 96 94 0.000000 0.000000 0.000000 0.000000 -60.708740 0.000000 150.000000 0.983643 0.161351 -0.080078
10.35000038 -1.99000001 0.11000000 227 96 94 0.000000 0.000000 0.000000 0.000000 -60.708740 0.000000 150.000000 0.987597 0.035641 -0.152911
10.35999966 -1.98000002 0.13000000 227 96 94 0.000000 0.000000 0.000000 0.000000 -60.708740 0.000000 150.000000 0.998283 -0.045425 -0.036973
10.35000038 -2.02999997 0.13000000 227 96 94 0.000000 0.000000 0.000000 0.000000 -60.708740 0.000000 150.000000 0.961290 0.267236 -0.067126
10.36999989 -2.04999995 0.04000000 227 96 94 0.000000 0.000000 0.000000 0.000000 -60.708740 0.000000 150.000000 0.826170 0.562351 0.034713
10.36999989 -2.04999995 0.06000000 227 96 94 0.000000 0.000000 0.000000 0.000000 -60.708740 0.000000 150.000000 0.991572 0.055655 -0.116990
10.39000034 -2.01999998 0.06000000 227 96 94 0.000000 0.000000 0.000000 0.000000 -60.708740 0.000000 150.000000 0.981241 0.175006 0.080865
10.39999962 -2.03999996 0.05000000 227 96 94 0.000000 0.000000 0.000000 0.000000 -60.708740 0.000000 150.000000 0.784598 0.576407 -0.228388
10.38000011 -2.02999997 0.02000000 227 96 94 0.000000 0.000000 0.000000 0.000000 -60.708740 0.000000 150.000000 0.899144 0.066856 -0.432517
10.32999992 -1.99000001 0.01000000 227 96 94 0.000000 0.000000 0.000000 0.000000 -60.708740 0.000000 150.000000 0.985226 -0.152941 -0.077063
10.32999992 -1.99000001 0.02000000 227 96 94 0.000000 0.000000 0.000000 0.000000 -60.708740 0.000000 150.000000 0.953360 -0.136573 0.269169
10.34000015 -2.00000000 -0.02000000 227 96 94 0.000000 0.000000 0.000000 0.000000 -60.708740 0.000000 150.000000 0.873927 0.274143 -0.401370
10.32999992 -1.98000002 0.01000000 227 96 94 0.000000 0.000000 0.000000 0.000000 -60.708740 0.000000 150.000000 0.991904 -0.110465 -0.062635
10.34000015 -1.97000003 0.01000000 227 96 94 0.000000 0.000000 0.000000 0.000000 -60.708740 0.000000 150.000000 0.972305 -0.223618 -0.067950
10.34000015 -2.00000000 0.00000000 227 96 94 0.000000 0.000000 0.000000 0.000000 -60.708740 0.000000 150.000000 0.874639 0.264356 -0.406352
10.34000015 -1.98000002 0.02000000 227 96 94 0.000000 0.000000 0.000000 0.000000 -60.708740 0.000000 150.000000 0.979187 0.015208 0.202389
10.35000038 -2.01999998 0.00000000 227 96 94 0.000000 0.000000 0.000000 0.000000 -60.708740 0.000000 150.000000 0.866524 0.498826 0.017574
10.52000046 -2.05999994 0.44999999 227 96 94 0.000000 0.000000 0.000000 0.000000 -60.708740 0.000000 150.000000 -0.633471 0.773310 -0.026569
10.55000019 -2.10999990 0.34000000 227 96 94 0.000000 0.000000 0.000000 0.000000 -60.708740 0.000000 150.000000 0.706067 -0.559869 -0.433608
10.56000042 -2.20000005 0.33000001 227 96 94 0.000000 0.000000 0.000000 0.000000 -60.708740 0.000000 150.000000 -0.528030 0.823240 0.208473
10.43999958 -2.06999993 0.58999997 227 96 94 0.000000 0.000000 0.000000 0.000000 -60.708740 0.000000 150.000000 0.983589 -0.154924 0.092474
10.48999977 -2.07999992 0.55000001 227 96 94 0.000000 0.000000 0.000000 0.000000 -60.708740 0.000000 150.000000 0.809727 0.585192 -0.043504
10.47999954 -2.07999992 0.50000000 227 96 94 0.000000 0.000000 0.000000 0.000000 -60.708740 0.000000 150.000000 0.834449 0.550323 -0.028964
10.40999985 -2.05999994 0.51999998 227 96 94 0.000000 0.000000 0.000000 0.000000 -60.708740 0.000000 150.000000 0.951885 0.292988 -0.089850
10.43000031 -2.07999992 0.37000000 227 96 94 0.000000 0.000000 0.000000 0.000000 -60.708740 0.000000 150.000000 0.811690 0.485748 -0.324359
10.48999977 -2.06999993 0.36000001 227 96 94 0.000000 0.000000 0.000000 0.000000 -60.708740 0.000000 150.000000 0.425141 0.899069 -0.104543
10.40999985 -2.05999994 0.33000001 227 96 94 0.000000 0.000000 0.000000 0.000000 -60.708740 0.000000 150.000000 0.996201 0.053465 0.068741
10.40999985 -2.06999993 0.33000001 227 96 94 0.000000 0.000000 0.000000 0.000000 -60.708740 0.000000 150.000000 0.978329 0.122446 -0.166971
10.50000000 -2.17000008 0.25000000 227 96 94 0.000000 0.000000 0.000000 0.000000 -60.708740 0.000000 150.000000 -0.059238 0.933326 0.354111
10.51000023 -2.05999994 -0.02000000 227 96 94 0.000000 0.000000 0.000000 0.000000 -60.708740 0.000000 150.000000 -0.496736 0.867597 -0.023010
10.47000027 -2.07999992 0.25000000 227 96 94 0.000000 0.000000 0.000000 0.000000 -60.708740 0.000000 150.000000 0.613401 0.761729 0.208587
10.42000008 -2.05999994 0.28000000 227 96 94 0.000000 0.000000 0.000000 0.000000 -60.708740 0.000000 150.000000 0.899865 0.392695 -0.189827
10.42000008 -2.07999992 0.16000000 227 96 94 0.000000 0.000000 0.000000 0.000000 -60.708740 0.000000 150.000000 0.393873 0.903760 -0.167575
10.40999985 -2.06999993 0.25000000 227 96 94 0.000000 0.000000 0.000000 0.000000 -60.708740 0.000000 150.000000 0.876773 0.399905 -0.267106
10.38000011 -2.05999994 0.20000000 227 96 94 0.000000 0.000000 0.000000 0.000000 -60.708740 0.000000 150.000000 0.971999 0.233038 -0.030186
10.46000004 -2.07999992 0.11000000 227 96 94 0.000000 0.000000 0.000000 0.000000 -60.708740 0.000000 150.000000 0.000978 0.999999 0.000978
10.47999954 -2.06999993 0.00000000 227 96 94 0.000000 0.000000 0.000000 0.000000 -60.708740 0.000000 150.000000 -0.213345 0.970784 -0.109829
10.46000004 -2.05999994 0.04000000 227 96 94 0.000000 0.000000 0.000000 0.000000 -60.708740 0.000000 150.000000 -0.208625 0.954293 0.214009
10.43000031 -2.06999993 0.06000000 227 96 94 0.000000 0.000000 0.000000 0.000000 -60.708740 0.000000 150.000000 0.170287 0.981865 -0.083332
10.38000011 -2.06999993 0.07000000 227 96 94 0.000000 0.000000 0.000000 0.000000 -60.708740 0.000000 150.000000 0.728060 0.591244 -0.346928
10.31999969 -1.98000002 -0.01000000 227 96 94 0.000000 0.000000 0.000000 0.000000 -60.708740 0.000000 150.000000 0.844322 -0.430713 -0.318759
10.31999969 -1.96000004 0.03000000 227 96 94 0.000000 0.000000 0.000000 0.000000 -60.708740 0.000000 150.000000 0.957026 -0.286225 -0.046653
10.69999981 -2.42000008 0.34999999 227 96 94 0.000000 0.000000 0.000000 0.000000 -60.708740 0.000000 150.000000 -0.285242 0.957865 0.033631
10.68000031 -2.40000010 0.30000001 227 96 94 0.000000 0.000000 0.000000 0.000000 -60.708740 0.000000 150.000000 -0.375247 0.824909 0.422746
10.51000023 -1.96000004 -0.10000000 227 96 94 0.000000 0.000000 0.000000 0.000000 -60.708740 0.000000 150.000000 0.930796 0.258476 0.258476
10.50000000 -1.91999996 -0.11000000 227 96 94 0.000000 0.000000 0.000000 0.000000 -60.708740 0.000000 150.000000 0.764218 0.594741 -0.249509
10.52000046 -1.91999996 -0.15000001 227 96 94 0.000000 0.000000 0.000000 0.000000 -60.708740 0.000000 150.000000 0.830480 0.556846 0.015050
10.51000023 -1.90999997 -0.18000001 227 96 94 0.000000 0.000000 0.000000 0.000000 -60.708740 0.000000 150.000000 0.843988 0.535582 0.028913
10.51000023 -1.94000006 -0.13000000 227 96 94 0.000000 0.000000 0.000000 0.000000 -60.708740 0.000000 150.000000 0.868119 0.408974 -0.281264
10.51000023 -1.94000006 -0.12000000 227 96 94 0.000000 0.000000 0.000000 0.000000 -60.708740 0.000000 150.000000 0.805690 0.586612 -0.082154
10.50000000 -1.92999995 -0.16000000 227 96 94 0.000000 0.000000 0.000000 0.000000 -60.708740 0.000000 150.000000 0.703169 0.655334 0.275846
10.52999973 -1.92999995 -0.17000000 227 96 94 0.000000 0.000000 0.000000 0.000000 -60.708740 0.000000 150.000000 0.843598 0.419460 -0.335256
10.52000046 -1.92999995 -0.16000000 227 96 94 0.000000 0.000000 0.000000 0.000000 -60.708740 0.000000 150.000000 0.804990 0.566363 -0.176705
10.51000023 -2.03999996 -0.06000000 227 96 94 0.000000 0.000000 0.000000 0.000000 -60.708740 0.000000 150.000000 0.811198 -0.436799 -0.388799
10.50000000 -2.00000000 -0.09000000 227 96 94 0.000000 0.000000 0.000000 0.000000 -60.708740 0.000000 150.000000 0.983271 0.087642 -0.159677
10.52999973 -1.97000003 -0.07000000 227 96 94 0.000000 0.000000 0.000000 0.000000 -60.708740 0.000000 150.000000 0.787478 0.611198 -0.079470
10.50000000 -2.02999997 -0.06000000 227 96 94 0.000000 0.000000 0.000000 0.000000 -60.708740 0.000000 150.000000 0.861760 -0.420931 -0.283172
10.50000000 -1.99000001 -0.08000000 227 96 94 0.000000 0.000000 0.000000 0.000000 -60.708740 0.000000 150.000000 0.984778 0.003408 -0.173784
10.53999996 -1.97000003 -0.17000000 227 96 94 0.000000 0.000000 0.000000 0.000000 -60.708740 0.000000 150.000000 0.948097 0.042109 -0.315182
10.51000023 -1.97000003 -0.18000001 227 96 94 0.000000 0.000000 0.000000 0.000000 -60.708740 0.000000 150.000000 0.926688 0.329458 0.180851
10.52999973 -2.00000000 -0.18000001 227 96 94 0.000000 0.000000 0.000000 0.000000 -60.708740 0.000000 150.000000 0.937190 -0.111923 -0.330376
10.51000023 -1.99000001 -0.18000001 227 96 94 0.000000 0.000000 0.000000 0.000000 -60.708740 0.000000 150.000000 0.983741 -0.017299 0.178757
10.50000000 -2.04999995 -0.12000000 227 96 94 0.000000 0.000000 0.000000 0.000000 -60.708740 0.000000 150.000000 0.802743 -0.508246 -0.311914
10.52000046 -2.01999998 -0.15000001 227 96 94 0.000000 0.000000 0.000000 0.000000 -60.708740 0.000000 150.000000 0.839993 -0.538890 0.063316
10.51000023 -2.03999996 -0.15000001 227 96 94 0.000000 0.000000 0.000000 0.000000 -60.708740 0.000000 150.000000 -0.410064 0.896386 0.168342
10.50000000 -2.01999998 -0.18000001 227 96 94 0.000000 0.000000 0.000000 0.000000 -60.708740 0.000000 150.000000 0.708972 -0.703243 -0.052994
10.51000023 -1.96000004 -0.20000000 227 96 94 0.000000 0.000000 0.000000 0.000000 -60.708740 0.000000 150.000000 0.918954 0.337662 -0.203737
10.50000000 -1.92999995 -0.25000000 227 96 94 0.000000 0.000000 0.000000 0.000000 -60.708740 0.000000 150.000000 0.734511 0.669484 -0.110842
10.51000023 -1.96000004 -0.25000000 227 96 94 0.000000 0.000000 0.000000 0.000000 -60.708740 0.000000 150.000000 0.886893 0.364661 -0.283626
10.50000000 -1.92999995 -0.23999999 227 96 94 0.000000 0.000000 0.000000 0.000000 -60.708740 0.000000 150.000000 0.708495 0.702723 0.064933
10.50000000 -1.96000004 -0.28000000 227 96 94 0.000000 0.000000 0.000000 0.000000 -60.708740 0.000000 150.000000 0.907376 0.411946 0.083484
10.50000000 -1.90999997 -0.31000000 227 96 94 0.000000 0.000000 0.000000 0.000000 -60.708740 0.000000 150.000000 0.939319 0.298437 0.169160
10.51000023 -1.90999997 -0.34000000 227 96 94 0.000000 0.000000 0.000000 0.000000 -60.708740 0.000000 150.000000 0.659344 0.715725 0.230222
10.53999996 -1.96000004 -0.30000001 227 96 94 0.000000 0.000000 0.000000 0.000000 -60.708740 0.000000 150.000000 0.979264 -0.142012 -0.144482
10.50000000 -1.95000005 -0.31999999 227 96 94 0.000000 0.000000 0.000000 0.000000 -60.708740 0.000000 150.000000 0.876671 0.462088 0.133876
10.50000000 -1.97000003 -0.22000000 227 96 94 0.000000 0.000000 0.000000 0.000000 -60.708740 0.000000 150.000000 0.982196 0.075738 0.171914
10.51000023 -1.99000001 -0.20999999 227 96 94 0.000000 0.000000 0.000000 0.000000 -60.708740 0.000000 150.000000 0.976799 0.214077 -0.005849
10.50000000 -2.01999998 -0.23000000 227 96 94 0.000000 0.000000 0.000000 0.000000 -60.708740 0.000000 150.000000 0.715229 -0.668685 0.203243
10.50000000 -2.02999997 -0.27000001 227 96 94 0.000000 0.000000 0.000000 0.000000 -60.708740 0.000000 150.000000 0.856867 -0.478355 0.192236
10.52000046 -2.01999998 -0.23999999 227 96 94 0.000000 0.000000 0.000000 0.000000 -60.708740 0.000000 150.000000 0.726630 -0.627617 -0.279473
10.51000023 -1.99000001 -0.34000000 227 96 94 0.000000 0.000000 0.000000 0.000000 -60.708740 0.000000 150.000000 0.752337 -0.648872 -0.113811
10.50000000 -2.01999998 -0.31999999 227 96 94 0.000000 0.000000 0.000000 0.000000 -60.708740 0.000000 150.000000 0.802412 -0.568817 0.180505
10.42000008 -1.87000000 -0.12000000 227 96 94 0.000000 0.000000 0.000000 0.000000 -60.708740 0.000000 150.000000 -0.421696 0.898397 -0.122701
10.42000008 -1.88000000 -0.18000001 227 96 94 0.000000 0.000000 0.000000 0.000000 -60.708740 0.000000 150.000000 -0.232788 0.972510 0.005908
10.40999985 -1.88000000 -0.10000000 227 96 94 0.000000 0.000000 0.000000 0.000000 -60.708740 0.000000 150.000000 -0.144236 0.956722 0.252744
10.36999989 -1.88000000 -0.05000000 227 96 94 0.000000 0.000000 0.000000 0.000000 -60.708740 0.000000 150.000000 -0.384675 0.793492 0.471589
10.35000038 -1.88000000 -0.18000001 227 96 94 0.000000 0.000000 0.000000 0.000000 -60.708740 0.000000 150.000000 -0.502687 0.840831 0.200773
10.43000031 -1.88000000 -0.23000000 227 96 94 0.000000 0.000000 0.000000 0.000000 -60.708740 0.000000 150.000000 -0.179951 0.967076 0.179951
10.40999985 -1.87000000 -0.25999999 227 96 94 0.000000 0.000000 0.000000 0.000000 -60.708740 0.000000 150.000000 -0.397512 0.893301 -0.209757
10.39000034 -1.86000001 -0.31000000 227 96 94 0.000000 0.000000 0.000000 0.000000 -60.708740 0.000000 150.000000 0.012601 0.984029 0.177561
10.39999962 -1.88000000 -0.28000000 227 96 94 0.000000 0.000000 0.000000 0.000000 -60.708740 0.000000 150.000000 -0.251141 0.873730 0.416563
10.44999981 -1.89999998 -0.09000000 227 96 94 0.000000 0.000000 0.000000 0.000000 -60.708740 0.000000 150.000000 -0.244259 0.951394 -0.187580
10.48999977 -1.94000006 -0.04000000 227 96 94 0.000000 0.000000 0.000000 0.000000 -60.708740 0.000000 150.000000 0.164574 0.986312 -0.010215
10.44999981 -1.88999999 -0.05000000 227 96 94 0.000000 0.000000 0.000000 0.000000 -60.708740 0.000000 150.000000 0.222787 0.974241 -0.034923
10.42000008 -1.88999999 -0.04000000 227 96 94 0.000000 0.000000 0.000000 0.000000 -60.708740 0.000000 150.000000 -0.288478 0.880537 0.376078
10.48999977 -1.89999998 -0.09000000 227 96 94 0.000000 0.000000 0.000000 0.000000 -60.708740 0.000000 150.000000 0.286323 0.953102 0.098056
10.42000008 -1.88999999 -0.09000000 227 96 94 0.000000 0.000000 0.000000 0.000000 -60.708740 0.000000 150.000000 -0.078268 0.902136 0.424292
10.43000031 -1.88999999 -0.10000000 227 96 94 0.000000 0.000000 0.000000 0.000000 -60.708740 0.000000 150.000000 0.095914 0.962979 0.251935
10.42000008 -1.88999999 -0.09000000 227 96 94 0.000000 0.000000 0.000000 0.000000 -60.708740 0.000000 150.000000 -0.078268 0.902136 0.424292
10.47999954 -1.88999999 -0.08000000 227 96 94 0.000000 0.000000 0.000000 0.000000 -60.708740 0.000000 150.000000 0.298809 0.911002 0.284233
10.47000027 -1.89999998 -0.07000000 227 96 94 0.000000 0.000000 0.000000 0.000000 -60.708740 0.000000 150.000000 0.327377 0.919229 0.218728
10.47999954 -1.89999998 -0.07000000 227 96 94 0.000000 0.000000 0.000000 0.000000 -60.708740 0.000000 150.000000 0.485321 0.860675 0.153954
10.46000004 -1.89999998 -0.11000000 227 96 94 0.000000 0.000000 0.000000 0.000000 -60.708740 0.000000 150.000000 -0.003158 0.996874 -0.078950
10.48999977 -1.91999996 -0.16000000 227 96 94 0.000000 0.000000 0.000000 0.000000 -60.708740 0.000000 150.000000 0.640053 0.758856 0.120288
10.48999977 -1.88999999 -0.15000001 227 96 94 0.000000 0.000000 0.000000 0.000000 -60.708740 0.000000 150.000000 0.484484 0.842115 0.236893
10.47999954 -1.90999997 -0.17000000 227 96 94 0.000000 0.000000 0.000000 0.000000 -60.708740 0.000000 150.000000 0.725909 0.685977 -0.049915
10.47999954 -1.89999998 -0.15000001 227 96 94 0.000000 0.000000 0.000000 0.000000 -60.708740 0.000000 150.000000 0.481107 0.833815 -0.270719
10.47999954 -1.88999999 -0.17000000 227 96 94 0.000000 0.000000 0.000000 0.000000 -60.708740 0.000000 150.000000 0.323194 0.940078 0.108625
10.47999954 -1.88999999 -0.17000000 227 96 94 0.000000 0.000000 0.000000 0.000000 -60.708740 0.000000 150.000000 0.323194 0.940078 0.108625
10.48999977 -1.92999995 -0.17000000 227 96 94 0.000000 0.000000 0.000000 0.000000 -60.708740 0.000000 150.000000 0.768453 0.612624 -0.184857
10.48999977 -1.95000005 -0.18000001 227 96 94 0.000000 0.000000 0.000000 0.000000 -60.708740 0.000000 150.000000 0.905318 0.295884 -0.304717
10.42000008 -1.88999999 -0.11000000 227 96 94 0.000000 0.000000 0.000000 0.000000 -60.708740 0.000000 150.000000 -0.174261 0.984401 0.024235
10.42000008 -1.89999998 -0.14000000 227 96 94 0.000000 0.000000 0.000000 0.000000 -60.708740 0.000000 150.000000 -0.542465 0.840077 -0.001353
10.43000031 -1.88999999 -0.13000000 227 96 94 0.000000 0.000000 0.000000 0.000000 -60.708740 0.000000 150.000000 -0.296724 0.954730 0.021106
10.44999981 -1.88999999 -0.15000001 227 96 94 0.000000 0.000000 0.000000 0.000000 -60.708740 0.000000 150.000000 -0.105220 0.983260 -0.148759
10.47000027 -2.03999996 -0.06000000 227 96 94 0.000000 0.000000 0.000000 0.000000 -60.708740 0.000000 150.000000 -0.555722 0.830084 -0.046194
10.43999958 -2.04999995 -0.09000000 227 96 94 0.000000 0.000000 0.000000 0.000000 -60.708740 0.000000 150.000000 0.055990 0.938812 0.339848
10.47999954 -2.01999998 -0.09000000 227 96 94 0.000000 0.000000 0.000000 0.000000 -60.708740 0.000000 150.000000 0.878344 -0.473168 0.067992
10.43999958 -2.04999995 -0.16000000 227 96 94 0.000000 0.000000 0.000000 0.000000 -60.708740 0.000000 150.000000 0.257510 0.950495 0.173920
10.48999977 -2.02999997 -0.11000000 227 96 94 0.000000 0.000000 0.000000 0.000000 -60.708740 0.000000 150.000000 -0.681731 0.709306 0.179242
10.39999962 -1.88999999 -0.06000000 227 96 94 0.000000 0.000000 0.000000 0.000000 -60.708740 0.000000 150.000000 -0.333314 0.938856 -0.086316
10.36999989 -1.90999997 -0.03000000 227 96 94 0.000000 0.000000 0.000000 0.000000 -60.708740 0.000000 150.000000 -0.722662 0.561339 0.403308
10.39999962 -1.88999999 -0.09000000 227 96 94 0.000000 0.000000 0.000000 0.000000 -60.708740 0.000000 150.000000 -0.599021 0.776735 0.194567
10.38000011 -1.90999997 -0.08000000 227 96 94 0.000000 0.000000 0.000000 0.000000 -60.708740 0.000000 150.000000 -0.458254 0.864265 0.207483
10.39000034 -1.88999999 -0.07000000 227 96 94 0.000000 0.000000 0.000000 0.000000 -60.708740 0.000000 150.000000 -0.371477 0.928044 0.027181
10.34000015 -1.96000004 -0.09000000 227 96 94 0.000000 0.000000 0.000000 0.000000 -60.708740 0.000000 150.000000 0.968128 -0.179666 -0.174496
10.35000038 -1.92999995 -0.10000000 227 96 94 0.000000 0.000000 0.000000 0.000000 -60.708740 0.000000 150.000000 0.963135 -0.268013 0.023252
10.34000015 -1.94000006 -0.10000000 227 96 94 0.000000 0.000000 0.000000 0.000000 -60.708740 0.000000 150.000000 0.928807 -0.236810 -0.285023
10.39999962 -1.88999999 -0.11000000 227 96 94 0.000000 0.000000 0.000000 0.000000 -60.708740 0.000000 150.000000 -0.403907 0.872862 0.273809
10.40999985 -1.89999998 -0.14000000 227 96 94 0.000000 0.000000 0.000000 0.000000 -60.708740 0.000000 150.000000 -0.011722 0.996381 0.084186
10.39999962 -1.88999999 -0.11000000 227 96 94 0.000000 0.000000 0.000000 0.000000 -60.708740 0.000000 150.000000 -0.403907 0.872862 0.273809
10.36999989 -1.88999999 -0.16000000 227 96 94 0.000000 0.000000 0.000000 0.000000 -60.708740 0.000000 150.000000 0.740653 -0.596057 -0.310078
10.34000015 -1.91999996 -0.13000000 227 96 94 0.000000 0.000000 0.000000 0.000000 -60.708740 0.000000 150.000000 0.766108 -0.472079 -0.436142
10.34000015 -1.90999997 -0.14000000 227 96 94 0.000000 0.000000 0.000000 0.000000 -60.708740 0.000000 150.000000 0.865512 -0.439553 -0.240168
10.35000038 -1.88999999 -0.13000000 227 96 94 0.000000 0.000000 0.000000 0.000000 -60.708740 0.000000 150.000000 0.819667 -0.541916 0.185670
10.32999992 -1.89999998 -0.18000001 227 96 94 0.000000 0.000000 0.000000 0.000000 -60.708740 0.000000 150.000000 0.899265 -0.258409 -0.352913
10.35000038 -1.94000006 -0.12000000 227 96 94 0.000000 0.000000 0.000000 0.000000 -60.708740 0.000000 150.000000 0.741660 -0.381472 -0.551743
10.34000015 -1.92999995 -0.16000000 227 96 94 0.000000 0.000000 0.000000 0.000000 -60.708740 0.000000 150.000000 -0.695648 0.704663 -0.139731
10.38000011 -2.04999995 -0.07000000 227 96 94 0.000000 0.000000 0.000000 0.000000 -60.708740 0.000000 150.000000 0.599873 0.794505 -0.094411
10.34000015 -2.00999999 -0.03000000 227 96 94 0.000000 0.000000 0.000000 0.000000 -60.708740 0.000000 150.000000 0.893631 0.105216 -0.436294
10.34000015 -1.97000003 -0.08000000 227 96 94 0.000000 0.000000 0.000000 0.000000 -60.708740 0.000000 150.000000 0.997609 0.056670 -0.039562
10.34000015 -2.00000000 -0.07000000 227 96 94 0.000000 0.000000 0.000000 0.000000 -60.708740 0.000000 150.000000 0.962527 0.187778 0.195657
10.38000011 -2.04999995 -0.14000000 227 96 94 0.000000 0.000000 0.000000 0.000000 -60.708740 0.000000 150.000000 0.454851 0.885909 -0.090970
10.39999962 -2.02999997 -0.12000000 227 96 94 0.000000 0.000000 0.000000 0.000000 -60.708740 0.000000 150.000000 0.944187 0.320840 -0.074644
10.35000038 -1.98000002 -0.11000000 227 96 94 0.000000 0.000000 0.000000 0.000000 -60.708740 0.000000 150.000000 0.983703 -0.163354 -0.075119
10.35000038 -1.97000003 -0.11000000 227 96 94 0.000000 0.000000 0.000000 0.000000 -60.708740 0.000000 150.000000 0.996895 0.067897 -0.039876
10.34000015 -2.00000000 -0.16000000 227 96 94 0.000000 0.000000 0.000000 0.000000 -60.708740 0.000000 150.000000 0.920124 0.292309 0.260630
10.32999992 -1.99000001 -0.15000001 227 96 94 0.000000 0.000000 0.000000 0.000000 -60.708740 0.000000 150.000000 0.937477 0.311577 0.155102
10.35999966 -2.01999998 -0.11000000 227 96 94 0.000000 0.000000 0.000000 0.000000 -60.708740 0.000000 150.000000 0.960256 0.194700 0.199998
10.48999977 -1.90999997 -0.20000000 227 96 94 0.000000 0.000000 0.000000 0.000000 -60.708740 0.000000 150.000000 0.654680 0.699499 0.286523
10.48999977 -1.91999996 -0.23000000 227 96 94 0.000000 0.000000 0.000000 0.000000 -60.708740 0.000000 150.000000 0.584826 0.756927 -0.291616
10.46000004 -1.88999999 -0.25999999 227 96 94 0.000000 0.000000 0.000000 0.000000 -60.708740 0.000000 150.000000 0.219642 0.974432 0.047326
10.44999981 -1.88999999 -0.22000000 227 96 94 0.000000 0.000000 0.000000 0.000000 -60.708740 0.000000 150.000000 0.385780 0.922518 0.011612
10.42000008 -1.88999999 -0.27000001 227 96 94 0.000000 0.000000 0.000000 0.000000 -60.708740 0.000000 150.000000 0.156988 0.975839 -0.151965
10.46000004 -1.89999998 -0.28999999 227 96 94 0.000000 0.000000 0.000000 0.000000 -60.708740 0.000000 150.000000 0.303066 0.909199 -0.285497
10.48999977 -1.94000006 -0.31000000 227 96 94 0.000000 0.000000 0.000000 0.000000 -60.708740 0.000000 150.000000 0.875977 0.457600 0.152533
10.47999954 -1.90999997 -0.31999999 227 96 94 0.000000 0.000000 0.000000 0.000000 -60.708740 0.000000 150.000000 0.788418 0.559573 0.255491
10.47000027 -1.90999997 -0.33000001 227 96 94 0.000000 0.000000 0.000000 0.000000 -60.708740 0.000000 150.000000 0.571731 0.818966 -0.049166
10.46000004 -1.89999998 -0.34999999 227 96 94 0.000000 0.000000 0.000000 0.000000 -60.708740 0.000000 150.000000 0.379023 0.924605 0.038033
10.46000004 -1.89999998 -0.30000001 227 96 94 0.000000 0.000000 0.000000 0.000000 -60.708740 0.000000 150.000000 0.430470 0.862460 0.266192
10.47000027 -1.89999998 -0.34999999 227 96 94 0.000000 0.000000 0.000000 0.000000 -60.708740 0.000000 150.000000 0.557715 0.827348 -0.066699
10.47999954 -2.04999995 -0.20999999 227 96 94 0.000000 0.000000 0.000000 0.000000 -60.708740 0.000000 150.000000 -0.623246 0.750693 -0.219146
10.47000027 -2.04999995 -0.19000000 227 96 94 0.000000 0.000000 0.000000 0.000000 -60.708740 0.000000 150.000000 0.729462 -0.680350 -0.070779
10.48999977 -2.02999997 -0.25999999 227 96 94 0.000000 0.000000 0.000000 0.000000 -60.708740 0.000000 150.000000 0.834251 -0.425767 -0.350354
10.47999954 -2.03999996 -0.34000000 227 96 94 0.000000 0.000000 0.000000 0.000000 -60.708740 0.000000 150.000000 -0.420899 0.903494 -0.080889
10.46000004 -2.02999997 -0.33000001 227 96 94 0.000000 0.000000 0.000000 0.000000 -60.708740 0.000000 150.000000 -0.184875 0.982514 0.022092
10.47000027 -2.03999996 -0.31999999 227 96 94 0.000000 0.000000 0.000000 0.000000 -60.708740 0.000000 150.000000 -0.391463 0.738702 0.548703
