//X Y Z R G B PointSourceId ScanDirectionFlag NumberOfReturns ReturnNumber GpsTime Intensity Classification Nx Ny Nz
1.58000004 1.28999996 -0.68000001 59 212 120 97.000000 1.000000 4.000000 1.000000 -60.708740 114.000000 133.000000 0.969168 0.186626 0.160884
1.57000005 1.25000000 -0.63999999 59 212 120 97.000000 1.000000 4.000000 1.000000 -60.708740 114.000000 133.000000 0.729586 0.346106 0.589843
1.59000003 1.29999995 -0.69000000 59 212 120 97.000000 1.000000 4.000000 1.000000 -60.708740 114.000000 133.000000 0.746388 0.289285 0.599348
1.54999995 1.24000001 -0.62000000 59 212 120 97.000000 1.000000 4.000000 1.000000 -60.708740 114.000000 133.000000 0.778473 0.029456 0.626986
1.57000005 1.21000004 -0.60000002 59 212 120 97.000000 1.000000 4.000000 1.000000 -60.708740 114.000000 133.000000 0.932149 0.295765 0.208857
1.55999994 1.20000005 -0.62000000 59 212 120 97.000000 1.000000 4.000000 1.000000 -60.708740 114.000000 133.000000 0.474264 0.564760 0.675366
1.59000003 1.22000003 -0.63000000 59 212 120 97.000000 1.000000 4.000000 1.000000 -60.708740 114.000000 133.000000 0.754523 0.484933 0.442193
1.46000004 1.21000004 -0.58999997 59 212 120 97.000000 1.000000 4.000000 1.000000 -60.708740 114.000000 133.000000 0.866799 -0.039711 0.497074
1.58000004 0.97000003 -0.41000000 59 212 120 97.000000 1.000000 4.000000 1.000000 -60.708740 114.000000 133.000000 0.559663 0.721453 0.407778
1.55999994 0.99000001 -0.44999999 59 212 120 97.000000 1.000000 4.000000 1.000000 -60.708740 114.000000 133.000000 0.473843 0.827271 0.301821
1.47000003 1.00000000 -0.50000000 59 212 120 97.000000 1.000000 4.000000 1.000000 -60.708740 114.000000 133.000000 0.885319 0.327282 0.330298
1.52999997 1.00000000 -0.67000002 59 212 120 97.000000 1.000000 4.000000 1.000000 -60.708740 114.000000 133.000000 0.630137 0.545668 0.552426
1.45000005 0.98000002 -0.63000000 59 212 120 97.000000 1.000000 4.000000 1.000000 -60.708740 114.000000 133.000000 0.478774 0.653484 0.586288
1.36000001 1.13999999 -0.37000000 59 212 120 97.000000 1.000000 4.000000 1.000000 -60.708740 114.000000 133.000000 0.843962 0.246602 0.476356
1.35000002 1.21000004 -0.43000001 59 212 120 97.000000 1.000000 4.000000 1.000000 -60.708740 114.000000 133.000000 0.704065 0.196519 0.682402
1.38000000 1.15999997 -0.50000000 59 212 120 97.000000 1.000000 4.000000 1.000000 -60.708740 114.000000 133.000000 0.800612 -0.170375 0.574450
1.33000004 1.27999997 -0.50000000 59 212 120 97.000000 1.000000 4.000000 1.000000 -60.708740 114.000000 133.000000 0.977922 -0.125184 0.167325
1.33000004 1.26999998 -0.50000000 59 212 120 97.000000 1.000000 4.000000 1.000000 -60.708740 114.000000 133.000000 0.970239 -0.068327 0.232311
1.33000004 1.25000000 -0.47000000 59 212 120 97.000000 1.000000 4.000000 1.000000 -60.708740 114.000000 133.000000 0.825355 -0.296000 0.480805
1.34000003 1.24000001 -0.47999999 59 212 120 97.000000 1.000000 4.000000 1.000000 -60.708740 114.000000 133.000000 0.828381 0.225087 0.512953
1.26999998 1.26999998 -0.44999999 59 212 120 97.000000 1.000000 4.000000 1.000000 -60.708740 114.000000 133.000000 0.791161 -0.082443 0.606026
1.34000003 1.21000004 -0.38000000 59 212 120 97.000000 1.000000 4.000000 1.000000 -60.708740 114.000000 133.000000 0.684371 -0.077010 0.725056
1.32000005 1.19000006 -0.47000000 59 212 120 97.000000 1.000000 4.000000 1.000000 -60.708740 114.000000 133.000000 0.720681 0.035397 0.692363
1.32000005 1.21000004 -0.47999999 59 212 120 97.000000 1.000000 4.000000 1.000000 -60.708740 114.000000 133.000000 0.748668 0.202218 0.631351
1.38999999 1.24000001 -0.58999997 59 212 120 97.000000 1.000000 4.000000 1.000000 -60.708740 114.000000 133.000000 0.942620 0.208398 0.260842
1.37000000 1.27999997 -0.56000000 59 212 120 97.000000 1.000000 4.000000 1.000000 -60.708740 114.000000 133.000000 0.936687 0.199029 0.288104
1.36000001 1.28999996 -0.56999999 59 212 120 97.000000 1.000000 4.000000 1.000000 -60.708740 114.000000 133.000000 0.971560 0.120337 0.203939
1.35000002 1.24000001 -0.60000002 59 212 120 97.000000 1.000000 4.000000 1.000000 -60.708740 114.000000 133.000000 0.724227 0.223681 0.652274
1.38000000 1.25999999 -0.67000002 59 212 120 97.000000 1.000000 4.000000 1.000000 -60.708740 114.000000 133.000000 0.961620 0.177591 0.209162
1.38000000 1.25999999 -0.64999998 59 212 120 97.000000 1.000000 4.000000 1.000000 -60.708740 114.000000 133.000000 0.807298 0.418896 0.415686
1.38999999 1.21000004 -0.55000001 59 212 120 97.000000 1.000000 4.000000 1.000000 -60.708740 114.000000 133.000000 0.640105 0.226932 0.734008
1.35000002 1.21000004 -0.58999997 59 212 120 97.000000 1.000000 4.000000 1.000000 -60.708740 114.000000 133.000000 0.926553 0.349356 0.139466
1.38000000 1.22000003 -0.57999998 59 212 120 97.000000 1.000000 4.000000 1.000000 -60.708740 114.000000 133.000000 0.793758 0.119285 0.596423
1.37000000 1.15999997 -0.57999998 59 212 120 97.000000 1.000000 4.000000 1.000000 -60.708740 114.000000 133.000000 0.851701 -0.068981 0.519467
1.39999998 1.22000003 -0.68000001 59 212 120 97.000000 1.000000 4.000000 1.000000 -60.708740 114.000000 133.000000 0.869122 0.316183 0.380336
1.34000003 1.28999996 -0.67000002 59 212 120 97.000000 1.000000 4.000000 1.000000 -60.708740 114.000000 133.000000 0.946027 -0.192482 0.260738
1.32000005 1.26999998 -0.66000003 59 212 120 97.000000 1.000000 4.000000 1.000000 -60.708740 114.000000 133.000000 0.918594 0.123310 0.375473
1.30999994 1.24000001 -0.69000000 59 212 120 97.000000 1.000000 4.000000 1.000000 -60.708740 114.000000 133.000000 0.978664 0.132386 0.157131
1.33000004 1.22000003 -0.62000000 59 212 120 97.000000 1.000000 4.000000 1.000000 -60.708740 114.000000 133.000000 0.850780 0.001344 0.525521
1.33000004 1.10000002 -0.49000001 59 212 120 97.000000 1.000000 4.000000 1.000000 -60.708740 114.000000 133.000000 0.616741 0.088520 0.782173
1.34000003 1.03999996 -0.36000001 59 212 120 97.000000 1.000000 4.000000 1.000000 -60.708740 114.000000 133.000000 0.563205 0.613944 0.553057
1.33000004 1.00999999 -0.36000001 59 212 120 97.000000 1.000000 4.000000 1.000000 -60.708740 114.000000 133.000000 0.660480 0.569727 0.489058
1.37000000 1.09000003 -0.52999997 59 212 120 97.000000 1.000000 4.000000 1.000000 -60.708740 114.000000 133.000000 0.831198 0.430583 0.351721
1.38999999 1.11000001 -0.61000001 59 212 120 97.000000 1.000000 4.000000 1.000000 -60.708740 114.000000 133.000000 0.503699 0.645206 0.574453
1.38999999 1.11000001 -0.63999999 59 212 120 97.000000 1.000000 4.000000 1.000000 -60.708740 114.000000 133.000000 0.660481 0.647304 0.380477
1.37000000 1.10000002 -0.62000000 59 212 120 97.000000 1.000000 4.000000 1.000000 -60.708740 114.000000 133.000000 0.815741 0.144129 0.560172
1.37000000 1.09000003 -0.62000000 59 212 120 97.000000 1.000000 4.000000 1.000000 -60.708740 114.000000 133.000000 0.799704 -0.018018 0.600124
1.35000002 1.09000003 -0.69000000 59 212 120 97.000000 1.000000 4.000000 1.000000 -60.708740 114.000000 133.000000 0.533109 0.667648 0.519655
1.39999998 1.00000000 -0.56999999 59 212 120 97.000000 1.000000 4.000000 1.000000 -60.708740 114.000000 133.000000 0.681515 0.416205 0.601922
1.38999999 1.01999998 -0.62000000 59 212 120 97.000000 1.000000 4.000000 1.000000 -60.708740 114.000000 133.000000 0.743465 0.199391 0.638360
1.32000005 1.10000002 -0.66000003 59 212 120 97.000000 1.000000 4.000000 1.000000 -60.708740 114.000000 133.000000 0.604900 0.390630 0.693905
1.34000003 1.11000001 -0.63000000 59 212 120 97.000000 1.000000 4.000000 1.000000 -60.708740 114.000000 133.000000 0.880149 0.420037 0.221150
1.27999997 1.01999998 -0.60000002 59 212 120 97.000000 1.000000 4.000000 1.000000 -60.708740 114.000000 133.000000 0.753421 0.120369 0.646427
1.24000001 1.32000005 -0.31000000 59 212 120 97.000000 1.000000 4.000000 1.000000 -60.708740 114.000000 133.000000 0.724525 -0.240461 0.645943
1.25000000 1.36000001 -0.28999999 59 212 120 97.000000 1.000000 4.000000 1.000000 -60.708740 114.000000 133.000000 0.984645 -0.159960 0.069909
1.10000002 1.42999995 -0.20000000 59 212 120 97.000000 1.000000 4.000000 1.000000 -60.708740 114.000000 133.000000 0.660375 -0.529309 0.532669
1.10000002 1.41999996 -0.20000000 59 212 120 97.000000 1.000000 4.000000 1.000000 -60.708740 114.000000 133.000000 0.643364 -0.340413 0.685712
1.10000002 1.41999996 -0.20000000 59 212 120 97.000000 1.000000 4.000000 1.000000 -60.708740 114.000000 133.000000 0.643364 -0.340413 0.685712
1.16999996 1.32000005 -0.27000001 59 212 120 97.000000 1.000000 4.000000 1.000000 -60.708740 114.000000 133.000000 0.806272 0.037860 0.590332
1.14999998 1.34000003 -0.27000001 59 212 120 97.000000 1.000000 4.000000 1.000000 -60.708740 114.000000 133.000000 0.763421 0.064697 0.642653
1.16999996 1.32000005 -0.27000001 59 212 120 97.000000 1.000000 4.000000 1.000000 -60.708740 114.000000 133.000000 0.806272 0.037860 0.590332
1.17999995 1.38000000 -0.57999998 59 212 120 97.000000 1.000000 4.000000 1.000000 -60.708740 114.000000 133.000000 0.727221 -0.114045 0.676863
1.22000003 1.30999994 -0.58999997 59 212 120 97.000000 1.000000 4.000000 1.000000 -60.708740 114.000000 133.000000 0.961777 0.018378 0.273218
1.21000004 1.32000005 -0.54000002 59 212 120 97.000000 1.000000 4.000000 1.000000 -60.708740 114.000000 133.000000 0.827602 -0.288336 0.481599
1.14999998 1.32000005 -0.60000002 59 212 120 97.000000 1.000000 4.000000 1.000000 -60.708740 114.000000 133.000000 0.898266 0.107568 0.426083
1.21000004 1.24000001 -0.23999999 59 212 120 97.000000 1.000000 4.000000 1.000000 -60.708740 114.000000 133.000000 0.779472 0.020916 0.626088
1.23000002 1.28999996 -0.33000001 59 212 120 97.000000 1.000000 4.000000 1.000000 -60.708740 114.000000 133.000000 0.884454 0.195079 0.423893
1.23000002 1.27999997 -0.33000001 59 212 120 97.000000 1.000000 4.000000 1.000000 -60.708740 114.000000 133.000000 0.981784 0.005755 0.189911
1.24000001 1.28999996 -0.34000000 59 212 120 97.000000 1.000000 4.000000 1.000000 -60.708740 114.000000 133.000000 0.796622 0.200302 0.570326
1.23000002 1.28999996 -0.34000000 59 212 120 97.000000 1.000000 4.000000 1.000000 -60.708740 114.000000 133.000000 0.920189 -0.035442 0.389866
1.24000001 1.27999997 -0.34000000 59 212 120 97.000000 1.000000 4.000000 1.000000 -60.708740 114.000000 133.000000 0.763175 0.073576 0.641990
1.21000004 1.28999996 -0.31000000 59 212 120 97.000000 1.000000 4.000000 1.000000 -60.708740 114.000000 133.000000 0.759618 0.049881 0.648454
1.22000003 1.29999995 -0.28000000 59 212 120 97.000000 1.000000 4.000000 1.000000 -60.708740 114.000000 133.000000 0.857831 0.151037 0.491237
1.22000003 1.28999996 -0.31999999 59 212 120 97.000000 1.000000 4.000000 1.000000 -60.708740 114.000000 133.000000 0.794737 -0.015204 0.606764
1.20000005 1.23000002 -0.31000000 59 212 120 97.000000 1.000000 4.000000 1.000000 -60.708740 114.000000 133.000000 0.857405 -0.228339 0.461214
1.22000003 1.22000003 -0.34999999 59 212 120 97.000000 1.000000 4.000000 1.000000 -60.708740 114.000000 133.000000 0.758179 -0.055685 0.649664
1.17999995 1.20000005 -0.33000001 59 212 120 97.000000 1.000000 4.000000 1.000000 -60.708740 114.000000 133.000000 0.828852 0.421531 0.367853
1.15999997 1.26999998 -0.20999999 59 212 120 97.000000 1.000000 4.000000 1.000000 -60.708740 114.000000 133.000000 0.755341 -0.512845 0.407982
1.16999996 1.26999998 -0.23000000 59 212 120 97.000000 1.000000 4.000000 1.000000 -60.708740 114.000000 133.000000 0.965116 0.160201 0.207090
1.15999997 1.25999999 -0.20999999 59 212 120 97.000000 1.000000 4.000000 1.000000 -60.708740 114.000000 133.000000 0.652703 -0.073809 0.754010
1.13000000 1.26999998 -0.19000000 59 212 120 97.000000 1.000000 4.000000 1.000000 -60.708740 114.000000 133.000000 0.941408 0.037245 0.335208
1.15999997 1.23000002 -0.28999999 59 212 120 97.000000 1.000000 4.000000 1.000000 -60.708740 114.000000 133.000000 0.839679 0.287136 0.460970
1.15999997 1.28999996 -0.28000000 59 212 120 97.000000 1.000000 4.000000 1.000000 -60.708740 114.000000 133.000000 0.749546 -0.168762 0.640079
1.16999996 1.28999996 -0.28999999 59 212 120 97.000000 1.000000 4.000000 1.000000 -60.708740 114.000000 133.000000 0.719404 -0.169541 0.673582
1.15999997 1.25999999 -0.31000000 59 212 120 97.000000 1.000000 4.000000 1.000000 -60.708740 114.000000 133.000000 0.833600 -0.054824 0.549642
1.15999997 0.99000001 -0.07000000 59 212 120 97.000000 1.000000 4.000000 1.000000 -60.708740 114.000000 133.000000 0.598119 0.513877 0.614967
1.19000006 1.09000003 -0.25999999 59 212 120 97.000000 1.000000 4.000000 1.000000 -60.708740 114.000000 133.000000 0.673727 0.230857 0.701995
1.19000006 0.97000003 -0.25999999 59 212 120 97.000000 1.000000 4.000000 1.000000 -60.708740 114.000000 133.000000 0.740898 0.264946 0.617150
1.19000006 1.01999998 -0.27000001 59 212 120 97.000000 1.000000 4.000000 1.000000 -60.708740 114.000000 133.000000 0.664317 0.038244 0.746472
1.25999999 1.03999996 -0.33000001 59 212 120 97.000000 1.000000 4.000000 1.000000 -60.708740 114.000000 133.000000 0.791606 0.157720 0.590325
1.19000006 1.02999997 -0.31000000 59 212 120 97.000000 1.000000 4.000000 1.000000 -60.708740 114.000000 133.000000 0.584083 0.644680 0.493188
1.24000001 1.29999995 -0.38999999 59 212 120 97.000000 1.000000 4.000000 1.000000 -60.708740 114.000000 133.000000 0.937099 0.169754 0.305006
1.22000003 1.26999998 -0.38999999 59 212 120 97.000000 1.000000 4.000000 1.000000 -60.708740 114.000000 133.000000 0.743639 -0.335367 0.578386
1.23000002 1.24000001 -0.47999999 59 212 120 97.000000 1.000000 4.000000 1.000000 -60.708740 114.000000 133.000000 0.820622 0.202491 0.534394
1.22000003 1.25999999 -0.47000000 59 212 120 97.000000 1.000000 4.000000 1.000000 -60.708740 114.000000 133.000000 0.942127 0.024157 0.334385
1.25000000 1.21000004 -0.43000001 59 212 120 97.000000 1.000000 4.000000 1.000000 -60.708740 114.000000 133.000000 0.790022 0.067388 0.609364
1.25999999 1.22000003 -0.37000000 59 212 120 97.000000 1.000000 4.000000 1.000000 -60.708740 114.000000 133.000000 0.899009 0.248662 0.360486
1.24000001 1.22000003 -0.40000001 59 212 120 97.000000 1.000000 4.000000 1.000000 -60.708740 114.000000 133.000000 0.941887 0.293913 0.162677
1.24000001 1.20000005 -0.44999999 59 212 120 97.000000 1.000000 4.000000 1.000000 -60.708740 114.000000 133.000000 0.636108 0.354847 0.685165
1.23000002 1.25999999 -0.55000001 59 212 120 97.000000 1.000000 4.000000 1.000000 -60.708740 114.000000 133.000000 0.859769 -0.051226 0.508108
1.22000003 1.28999996 -0.56000000 59 212 120 97.000000 1.000000 4.000000 1.000000 -60.708740 114.000000 133.000000 0.899076 0.309566 0.309566
1.22000003 1.20000005 -0.60000002 59 212 120 97.000000 1.000000 4.000000 1.000000 -60.708740 114.000000 133.000000 0.613622 0.040908 0.788539
1.22000003 1.21000004 -0.58999997 59 212 120 97.000000 1.000000 4.000000 1.000000 -60.708740 114.000000 133.000000 0.765075 0.368731 0.527918
1.25999999 0.97000003 -0.47999999 59 212 120 97.000000 1.000000 4.000000 1.000000 -60.708740 114.000000 133.000000 0.653159 0.262217 0.710370
1.24000001 0.97000003 -0.46000001 59 212 120 97.000000 1.000000 4.000000 1.000000 -60.708740 114.000000 133.000000 0.721124 0.152691 0.675770
1.25000000 0.98000002 -0.56999999 59 212 120 97.000000 1.000000 4.000000 1.000000 -60.708740 114.000000 133.000000 0.595811 0.743560 0.303526
1.51999998 1.50999999 -0.70999998 59 212 120 97.000000 1.000000 4.000000 1.000000 -60.708740 114.000000 133.000000 0.783493 -0.085446 0.615498
1.55999994 1.49000001 -0.80000001 59 212 120 97.000000 1.000000 4.000000 1.000000 -60.708740 114.000000 133.000000 0.912671 -0.404586 0.057798
1.52999997 1.50999999 -0.82999998 59 212 120 97.000000 1.000000 4.000000 1.000000 -60.708740 114.000000 133.000000 0.891520 -0.375299 0.253660
1.51999998 1.46000004 -0.75000000 59 212 120 97.000000 1.000000 4.000000 1.000000 -60.708740 114.000000 133.000000 0.980131 0.027062 0.196497
1.54999995 1.38999999 -0.81999999 59 212 120 97.000000 1.000000 4.000000 1.000000 -60.708740 114.000000 133.000000 0.977694 0.120198 0.172243
1.58000004 1.35000002 -0.72000003 59 212 120 97.000000 1.000000 4.000000 1.000000 -60.708740 114.000000 133.000000 0.990998 0.098062 0.091140
1.58000004 1.35000002 -0.73000002 59 212 120 97.000000 1.000000 4.000000 1.000000 -60.708740 114.000000 133.000000 0.742560 0.401605 0.536020
1.57000005 1.33000004 -0.70999998 59 212 120 97.000000 1.000000 4.000000 1.000000 -60.708740 114.000000 133.000000 0.612349 0.205145 0.763508
1.52999997 1.38000000 -0.70999998 59 212 120 97.000000 1.000000 4.000000 1.000000 -60.708740 114.000000 133.000000 0.679545 -0.058903 0.731265
1.52999997 1.38000000 -0.77999997 59 212 120 97.000000 1.000000 4.000000 1.000000 -60.708740 114.000000 133.000000 0.778086 0.181198 0.601456
1.54999995 1.37000000 -0.82999998 59 212 120 97.000000 1.000000 4.000000 1.000000 -60.708740 114.000000 133.000000 0.976869 -0.128503 0.170921
1.52999997 1.38000000 -0.77999997 59 212 120 97.000000 1.000000 4.000000 1.000000 -60.708740 114.000000 133.000000 0.778086 0.181198 0.601456
1.50999999 1.46000004 -0.79000002 59 212 120 97.000000 1.000000 4.000000 1.000000 -60.708740 114.000000 133.000000 0.865747 -0.304927 0.396865
1.52999997 1.39999998 -0.91000003 59 212 120 97.000000 1.000000 4.000000 1.000000 -60.708740 114.000000 133.000000 0.898460 -0.217676 0.381297
1.55999994 1.32000005 -0.97000003 59 212 120 97.000000 1.000000 4.000000 1.000000 -60.708740 114.000000 133.000000 0.974486 -0.025048 0.223046
1.54999995 1.37000000 -0.99000001 59 212 120 97.000000 1.000000 4.000000 1.000000 -60.708740 114.000000 133.000000 0.961380 0.003637 0.275200
1.49000001 1.39999998 -0.86000001 59 212 120 97.000000 1.000000 4.000000 1.000000 -60.708740 114.000000 133.000000 0.913864 0.001289 0.406019
1.49000001 1.40999997 -0.93000001 59 212 120 97.000000 1.000000 4.000000 1.000000 -60.708740 114.000000 133.000000 0.905961 -0.155023 0.393958
1.48000002 1.47000003 -0.95999998 59 212 120 97.000000 1.000000 4.000000 1.000000 -60.708740 114.000000 133.000000 0.868652 0.039671 0.493832
1.50000000 1.45000005 -0.97000003 59 212 120 97.000000 1.000000 4.000000 1.000000 -60.708740 114.000000 133.000000 0.907259 0.057968 0.416557
1.50000000 1.45000005 -0.97000003 59 212 120 97.000000 1.000000 4.000000 1.000000 -60.708740 114.000000 133.000000 0.907259 0.057968 0.416557
1.41999996 1.45000005 -0.85000002 59 212 120 97.000000 1.000000 4.000000 1.000000 -60.708740 114.000000 133.000000 0.900054 -0.092918 0.425757
1.36000001 1.37000000 -0.75999999 59 212 120 97.000000 1.000000 4.000000 1.000000 -60.708740 114.000000 133.000000 0.852863 0.284288 0.437956
1.37000000 1.35000002 -0.69999999 59 212 120 97.000000 1.000000 4.000000 1.000000 -60.708740 114.000000 133.000000 0.990176 0.089174 0.107703
1.38000000 1.36000001 -0.73000002 59 212 120 97.000000 1.000000 4.000000 1.000000 -60.708740 114.000000 133.000000 0.971217 0.146767 0.187607
1.40999997 1.30999994 -0.85000002 59 212 120 97.000000 1.000000 4.000000 1.000000 -60.708740 114.000000 133.000000 0.892600 0.287599 0.347205
1.36000001 1.38000000 -0.81999999 59 212 120 97.000000 1.000000 4.000000 1.000000 -60.708740 114.000000 133.000000 0.979580 0.027112 0.199217
1.35000002 1.38999999 -0.94999999 59 212 120 97.000000 1.000000 4.000000 1.000000 -60.708740 114.000000 133.000000 0.783099 0.280017 0.555289
1.35000002 1.38999999 -0.94999999 59 212 120 97.000000 1.000000 4.000000 1.000000 -60.708740 114.000000 133.000000 0.783099 0.280017 0.555289
1.37000000 1.30999994 -0.94000000 59 212 120 97.000000 1.000000 4.000000 1.000000 -60.708740 114.000000 133.000000 0.856617 -0.065894 0.511727
1.35000002 1.30999994 -0.97000003 59 212 120 97.000000 1.000000 4.000000 1.000000 -60.708740 114.000000 133.000000 0.988244 0.068839 0.136511
1.34000003 1.38999999 -0.88999999 59 212 120 97.000000 1.000000 4.000000 1.000000 -60.708740 114.000000 133.000000 0.909843 -0.130378 0.393938
1.34000003 1.34000003 -0.88000000 59 212 120 97.000000 1.000000 4.000000 1.000000 -60.708740 114.000000 133.000000 0.819728 0.445539 0.359919
1.33000004 1.34000003 -0.94000000 59 212 120 97.000000 1.000000 4.000000 1.000000 -60.708740 114.000000 133.000000 0.946790 0.293277 0.132577
1.32000005 1.36000001 -0.98000002 59 212 120 97.000000 1.000000 4.000000 1.000000 -60.708740 114.000000 133.000000 0.988671 -0.054348 0.139917
1.57000005 1.50999999 -1.13999999 59 212 120 97.000000 1.000000 4.000000 1.000000 -60.708740 114.000000 133.000000 0.986801 0.142656 0.076633
1.51999998 1.53999996 -1.13000000 59 212 120 97.000000 1.000000 4.000000 1.000000 -60.708740 114.000000 133.000000 0.918410 -0.307098 0.249427
1.50000000 1.57000005 -1.15999997 59 212 120 97.000000 1.000000 4.000000 1.000000 -60.708740 114.000000 133.000000 0.951242 0.184851 0.246918
1.45000005 1.59000003 -1.12000000 59 212 120 97.000000 1.000000 4.000000 1.000000 -60.708740 114.000000 133.000000 0.823148 -0.017865 0.567546
1.50000000 1.48000002 -1.07000005 59 212 120 97.000000 1.000000 4.000000 1.000000 -60.708740 114.000000 133.000000 0.933270 0.141155 0.330276
1.50999999 1.48000002 -1.08000004 59 212 120 97.000000 1.000000 4.000000 1.000000 -60.708740 114.000000 133.000000 0.966654 0.035530 0.253609
1.45000005 1.50000000 -1.07000005 59 212 120 97.000000 1.000000 4.000000 1.000000 -60.708740 114.000000 133.000000 0.887196 0.245205 0.390842
1.50999999 1.50999999 -1.14999998 59 212 120 97.000000 1.000000 4.000000 1.000000 -60.708740 114.000000 133.000000 0.860095 -0.263357 0.436898
1.53999996 1.41999996 -1.11000001 59 212 120 97.000000 1.000000 4.000000 1.000000 -60.708740 114.000000 133.000000 0.910424 0.193555 0.365603
1.54999995 1.38999999 -1.11000001 59 212 120 97.000000 1.000000 4.000000 1.000000 -60.708740 114.000000 133.000000 0.907366 0.367851 0.203400
1.58000004 1.39999998 -1.13999999 59 212 120 97.000000 1.000000 4.000000 1.000000 -60.708740 114.000000 133.000000 0.891443 0.279229 0.356876
1.57000005 1.35000002 -1.16999996 59 212 120 97.000000 1.000000 4.000000 1.000000 -60.708740 114.000000 133.000000 0.702406 0.468827 0.535563
1.57000005 1.35000002 -1.12000000 59 212 120 97.000000 1.000000 4.000000 1.000000 -60.708740 114.000000 133.000000 0.831350 0.228124 0.506771
1.57000005 1.37000000 -1.13000000 59 212 120 97.000000 1.000000 4.000000 1.000000 -60.708740 114.000000 133.000000 0.715181 0.368228 0.594075
1.57000005 1.47000003 -1.21000004 59 212 120 97.000000 1.000000 4.000000 1.000000 -60.708740 114.000000 133.000000 0.942721 -0.045014 0.330531
1.40999997 1.62000000 -1.09000003 59 212 120 97.000000 1.000000 4.000000 1.000000 -60.708740 114.000000 133.000000 0.895679 0.011872 0.444542
1.38000000 1.63000000 -1.04999995 59 212 120 97.000000 1.000000 4.000000 1.000000 -60.708740 114.000000 133.000000 0.842507 -0.072215 0.533824
1.35000002 1.34000003 -1.04999995 59 212 120 97.000000 1.000000 4.000000 1.000000 -60.708740 114.000000 133.000000 0.937601 -0.034726 0.345974
1.34000003 1.34000003 -1.09000003 59 212 120 97.000000 1.000000 4.000000 1.000000 -60.708740 114.000000 133.000000 0.900780 0.143274 0.409961
1.47000003 1.13999999 -0.83999997 59 212 120 97.000000 1.000000 4.000000 1.000000 -60.708740 114.000000 133.000000 0.527122 0.684422 0.503695
1.44000006 1.11000001 -0.79000002 59 212 120 97.000000 1.000000 4.000000 1.000000 -60.708740 114.000000 133.000000 0.806521 0.134667 0.575664
1.46000004 1.05999994 -0.81999999 59 212 120 97.000000 1.000000 4.000000 1.000000 -60.708740 114.000000 133.000000 0.558419 0.548296 0.622527
1.49000001 1.00999999 -0.74000001 59 212 120 97.000000 1.000000 4.000000 1.000000 -60.708740 114.000000 133.000000 0.702918 0.269372 0.658289
1.46000004 1.00000000 -0.73000002 59 212 120 97.000000 1.000000 4.000000 1.000000 -60.708740 114.000000 133.000000 0.636531 0.545357 0.545357
1.46000004 1.00000000 -0.73000002 59 212 120 97.000000 1.000000 4.000000 1.000000 -60.708740 114.000000 133.000000 0.636531 0.545357 0.545357
1.44000006 1.00999999 -0.70999998 59 212 120 97.000000 1.000000 4.000000 1.000000 -60.708740 114.000000 133.000000 0.510358 0.738284 0.440989
1.45000005 0.98000002 -0.76999998 59 212 120 97.000000 1.000000 4.000000 1.000000 -60.708740 114.000000 133.000000 0.744307 0.457146 0.486852
1.42999995 1.00000000 -0.75999999 59 212 120 97.000000 1.000000 4.000000 1.000000 -60.708740 114.000000 133.000000 0.452909 0.715033 0.532542
1.57000005 1.09000003 -0.87000000 59 212 120 97.000000 1.000000 4.000000 1.000000 -60.708740 114.000000 133.000000 0.476524 0.786669 0.392527
1.59000003 1.07000005 -0.88000000 59 212 120 97.000000 1.000000 4.000000 1.000000 -60.708740 114.000000 133.000000 0.584375 0.641633 0.496803
1.54999995 1.10000002 -1.00999999 59 212 120 97.000000 1.000000 4.000000 1.000000 -60.708740 114.000000 133.000000 0.749651 0.459676 0.476152
1.53999996 1.12000000 -0.99000001 59 212 120 97.000000 1.000000 4.000000 1.000000 -60.708740 114.000000 133.000000 0.423215 0.685442 0.592501
1.51999998 0.99000001 -0.94000000 59 212 120 97.000000 1.000000 4.000000 1.000000 -60.708740 114.000000 133.000000 0.774772 0.201780 0.599177
1.51999998 0.98000002 -0.93000001 59 212 120 97.000000 1.000000 4.000000 1.000000 -60.708740 114.000000 133.000000 0.602804 0.391410 0.695289
1.58000004 0.98000002 -1.01999998 59 212 120 97.000000 1.000000 4.000000 1.000000 -60.708740 114.000000 133.000000 0.646890 0.452990 0.613459
1.46000004 1.11000001 -0.92000002 59 212 120 97.000000 1.000000 4.000000 1.000000 -60.708740 114.000000 133.000000 0.847631 0.069108 0.526067
1.46000004 1.09000003 -0.94000000 59 212 120 97.000000 1.000000 4.000000 1.000000 -60.708740 114.000000 133.000000 0.799726 0.079252 0.595111
1.50000000 0.98000002 -0.93000001 59 212 120 97.000000 1.000000 4.000000 1.000000 -60.708740 114.000000 133.000000 0.392527 0.786669 0.476524
1.47000003 1.03999996 -0.88999999 59 212 120 97.000000 1.000000 4.000000 1.000000 -60.708740 114.000000 133.000000 0.707717 0.497900 0.501230
1.50000000 1.01999998 -0.98000002 59 212 120 97.000000 1.000000 4.000000 1.000000 -60.708740 114.000000 133.000000 0.613520 0.475688 0.630329
1.46000004 1.02999997 -0.97000003 59 212 120 97.000000 1.000000 4.000000 1.000000 -60.708740 114.000000 133.000000 0.517417 0.611799 0.598316
1.37000000 1.26999998 -0.74000001 59 212 120 97.000000 1.000000 4.000000 1.000000 -60.708740 114.000000 133.000000 0.911293 0.360212 0.199480
1.35000002 1.25000000 -0.72000003 59 212 120 97.000000 1.000000 4.000000 1.000000 -60.708740 114.000000 133.000000 0.823067 0.222243 0.522655
1.37000000 1.27999997 -0.75999999 59 212 120 97.000000 1.000000 4.000000 1.000000 -60.708740 114.000000 133.000000 0.930432 0.278141 0.238608
1.36000001 1.27999997 -0.79000002 59 212 120 97.000000 1.000000 4.000000 1.000000 -60.708740 114.000000 133.000000 0.986157 -0.079319 0.145615
1.33000004 1.13999999 -0.75999999 59 212 120 97.000000 1.000000 4.000000 1.000000 -60.708740 114.000000 133.000000 0.788518 0.556509 0.261794
1.37000000 1.28999996 -0.86000001 59 212 120 97.000000 1.000000 4.000000 1.000000 -60.708740 114.000000 133.000000 0.643503 0.358593 0.676251
1.40999997 1.26999998 -1.00999999 59 212 120 97.000000 1.000000 4.000000 1.000000 -60.708740 114.000000 133.000000 0.694746 0.348190 0.629358
1.29999995 1.21000004 -1.00000000 59 212 120 97.000000 1.000000 4.000000 1.000000 -60.708740 114.000000 133.000000 0.903886 0.409068 0.125110
1.37000000 1.12000000 -0.70999998 59 212 120 97.000000 1.000000 4.000000 1.000000 -60.708740 114.000000 133.000000 0.470796 0.454392 0.756227
1.39999998 1.09000003 -0.82999998 59 212 120 97.000000 1.000000 4.000000 1.000000 -60.708740 114.000000 133.000000 0.513877 0.598119 0.614967
1.39999998 1.09000003 -0.81999999 59 212 120 97.000000 1.000000 4.000000 1.000000 -60.708740 114.000000 133.000000 0.682681 0.565841 0.462354
1.39999998 1.01999998 -0.73000002 59 212 120 97.000000 1.000000 4.000000 1.000000 -60.708740 114.000000 133.000000 0.849614 0.077752 0.521643
1.41999996 1.02999997 -0.81000000 59 212 120 97.000000 1.000000 4.000000 1.000000 -60.708740 114.000000 133.000000 0.446549 0.657280 0.607106
1.38999999 1.04999995 -0.81000000 59 212 120 97.000000 1.000000 4.000000 1.000000 -60.708740 114.000000 133.000000 0.769239 0.329215 0.547621
1.39999998 0.99000001 -0.81999999 59 212 120 97.000000 1.000000 4.000000 1.000000 -60.708740 114.000000 133.000000 0.426271 0.738980 0.521730
1.38000000 1.00999999 -0.77999997 59 212 120 97.000000 1.000000 4.000000 1.000000 -60.708740 114.000000 133.000000 0.736429 0.488195 0.468336
1.30999994 1.02999997 -0.75999999 59 212 120 97.000000 1.000000 4.000000 1.000000 -60.708740 114.000000 133.000000 0.513845 0.746963 0.421911
1.30999994 1.00000000 -0.69999999 59 212 120 97.000000 1.000000 4.000000 1.000000 -60.708740 114.000000 133.000000 0.429490 0.701444 0.568783
1.33000004 1.00000000 -0.73000002 59 212 120 97.000000 1.000000 4.000000 1.000000 -60.708740 114.000000 133.000000 0.496803 0.641633 0.584375
1.34000003 0.97000003 -0.73000002 59 212 120 97.000000 1.000000 4.000000 1.000000 -60.708740 114.000000 133.000000 0.838307 0.310657 0.448034
1.33000004 1.00000000 -0.73000002 59 212 120 97.000000 1.000000 4.000000 1.000000 -60.708740 114.000000 133.000000 0.496803 0.641633 0.584375
1.26999998 1.02999997 -0.69999999 59 212 120 97.000000 1.000000 4.000000 1.000000 -60.708740 114.000000 133.000000 0.640203 0.716836 0.276198
1.26999998 1.04999995 -0.73000002 59 212 120 97.000000 1.000000 4.000000 1.000000 -60.708740 114.000000 133.000000 0.644475 0.587263 0.489667
1.29999995 1.04999995 -0.76999998 59 212 120 97.000000 1.000000 4.000000 1.000000 -60.708740 114.000000 133.000000 0.700990 0.412639 0.581672
1.33000004 1.02999997 -0.81000000 59 212 120 97.000000 1.000000 4.000000 1.000000 -60.708740 114.000000 133.000000 0.708687 0.590298 0.386407
1.26999998 1.01999998 -0.77999997 59 212 120 97.000000 1.000000 4.000000 1.000000 -60.708740 114.000000 133.000000 0.801766 0.503287 0.322294
1.27999997 1.03999996 -0.79000002 59 212 120 97.000000 1.000000 4.000000 1.000000 -60.708740 114.000000 133.000000 0.506723 0.594263 0.624566
1.38999999 1.10000002 -0.91000003 59 212 120 97.000000 1.000000 4.000000 1.000000 -60.708740 114.000000 133.000000 0.468224 0.599126 0.649472
1.37000000 1.11000001 -0.94000000 59 212 120 97.000000 1.000000 4.000000 1.000000 -60.708740 114.000000 133.000000 0.847425 0.308295 0.432233
1.39999998 1.05999994 -0.98000002 59 212 120 97.000000 1.000000 4.000000 1.000000 -60.708740 114.000000 133.000000 0.745246 0.542146 0.388183
1.41999996 1.02999997 -0.86000001 59 212 120 97.000000 1.000000 4.000000 1.000000 -60.708740 114.000000 133.000000 0.856020 0.086596 0.509637
1.34000003 1.08000004 -0.89999998 59 212 120 97.000000 1.000000 4.000000 1.000000 -60.708740 114.000000 133.000000 0.852238 0.492305 0.176992
1.28999996 1.11000001 -0.93000001 59 212 120 97.000000 1.000000 4.000000 1.000000 -60.708740 114.000000 133.000000 0.800042 0.518047 0.302590
1.51999998 1.19000006 -1.03999996 59 212 120 97.000000 1.000000 4.000000 1.000000 -60.708740 114.000000 133.000000 0.736548 0.364191 0.569967
1.53999996 1.14999998 -1.10000002 59 212 120 97.000000 1.000000 4.000000 1.000000 -60.708740 114.000000 133.000000 0.550706 0.641648 0.533864
1.55999994 1.13999999 -1.04999995 59 212 120 97.000000 1.000000 4.000000 1.000000 -60.708740 114.000000 133.000000 0.916500 0.299708 0.264960
1.45000005 1.25999999 -1.14999998 59 212 120 97.000000 1.000000 4.000000 1.000000 -60.708740 114.000000 133.000000 0.954686 -0.070670 0.289104
1.50000000 1.17999995 -1.11000001 59 212 120 97.000000 1.000000 4.000000 1.000000 -60.708740 114.000000 133.000000 0.915682 0.051982 0.398528
1.50999999 1.19000006 -1.13000000 59 212 120 97.000000 1.000000 4.000000 1.000000 -60.708740 114.000000 133.000000 0.766738 0.088750 0.635796
1.42999995 1.13999999 -1.14999998 59 212 120 97.000000 1.000000 4.000000 1.000000 -60.708740 114.000000 133.000000 0.805494 0.342933 0.483297
1.58000004 1.12000000 -1.09000003 59 212 120 97.000000 1.000000 4.000000 1.000000 -60.708740 114.000000 133.000000 0.724851 0.452825 0.519173
1.51999998 1.05999994 -1.08000004 59 212 120 97.000000 1.000000 4.000000 1.000000 -60.708740 114.000000 133.000000 0.364659 0.763353 0.533213
1.54999995 1.13000000 -1.02999997 59 212 120 97.000000 1.000000 4.000000 1.000000 -60.708740 114.000000 133.000000 0.716369 0.301036 0.629439
1.45000005 1.05999994 -1.02999997 59 212 120 97.000000 1.000000 4.000000 1.000000 -60.708740 114.000000 133.000000 0.834486 0.389637 0.389637
1.44000006 1.05999994 -1.07000005 59 212 120 97.000000 1.000000 4.000000 1.000000 -60.708740 114.000000 133.000000 0.677729 0.483614 0.553897
1.49000001 1.07000005 -1.17999995 59 212 120 97.000000 1.000000 4.000000 1.000000 -60.708740 114.000000 133.000000 0.618309 0.493636 0.611570
1.50999999 1.09000003 -1.16999996 59 212 120 97.000000 1.000000 4.000000 1.000000 -60.708740 114.000000 133.000000 0.881645 0.369236 0.293882
1.49000001 1.02999997 -1.02999997 59 212 120 97.000000 1.000000 4.000000 1.000000 -60.708740 114.000000 133.000000 0.784134 0.331934 0.524360
1.40999997 1.20000005 -1.09000003 59 212 120 97.000000 1.000000 4.000000 1.000000 -60.708740 114.000000 133.000000 0.618119 0.597908 0.510327
1.41999996 1.10000002 -1.02999997 59 212 120 97.000000 1.000000 4.000000 1.000000 -60.708740 114.000000 133.000000 0.617798 0.450373 0.644586
1.24000001 1.27999997 -0.76999998 59 212 120 97.000000 1.000000 4.000000 1.000000 -60.708740 114.000000 133.000000 0.905269 0.058186 0.420835
1.19000006 1.27999997 -0.76999998 59 212 120 97.000000 1.000000 4.000000 1.000000 -60.708740 114.000000 133.000000 0.695446 0.223480 0.682943
1.25999999 1.02999997 -0.69999999 59 212 120 97.000000 1.000000 4.000000 1.000000 -60.708740 114.000000 133.000000 0.615208 0.671588 0.412902
1.24000001 1.05999994 -0.70999998 59 212 120 97.000000 1.000000 4.000000 1.000000 -60.708740 114.000000 133.000000 0.754906 0.529902 0.386421
1.48000002 0.82999998 -0.06000000 59 212 120 97.000000 1.000000 4.000000 1.000000 -60.708740 114.000000 133.000000 0.468276 0.807098 0.359598
1.59000003 0.94999999 -0.31000000 59 212 120 97.000000 1.000000 4.000000 1.000000 -60.708740 114.000000 133.000000 0.593979 0.657559 0.463471
1.45000005 0.85000002 -0.20000000 59 212 120 97.000000 1.000000 4.000000 1.000000 -60.708740 114.000000 133.000000 0.240686 0.893342 0.379486
1.47000003 0.87000000 -0.23999999 59 212 120 97.000000 1.000000 4.000000 1.000000 -60.708740 114.000000 133.000000 0.124946 0.812881 0.568870
1.42999995 0.82999998 -0.20999999 59 212 120 97.000000 1.000000 4.000000 1.000000 -60.708740 114.000000 133.000000 0.180062 0.849715 0.495543
1.42999995 0.85000002 -0.23000000 59 212 120 97.000000 1.000000 4.000000 1.000000 -60.708740 114.000000 133.000000 0.747021 0.479875 0.460086
1.45000005 0.88000000 -0.23000000 59 212 120 97.000000 1.000000 4.000000 1.000000 -60.708740 114.000000 133.000000 0.711394 0.426173 0.558834
1.44000006 0.83999997 -0.30000001 59 212 120 97.000000 1.000000 4.000000 1.000000 -60.708740 114.000000 133.000000 0.427918 0.809358 0.402275
1.46000004 0.75999999 -0.09000000 59 212 120 97.000000 1.000000 4.000000 1.000000 -60.708740 114.000000 133.000000 -0.006946 0.712624 0.701511
1.42999995 0.75000000 -0.05000000 59 212 120 97.000000 1.000000 4.000000 1.000000 -60.708740 114.000000 133.000000 0.239542 0.866268 0.438407
1.38999999 0.89999998 -0.05000000 59 212 120 97.000000 1.000000 4.000000 1.000000 -60.708740 114.000000 133.000000 0.145598 0.906102 0.397215
1.38999999 0.86000001 -0.10000000 59 212 120 97.000000 1.000000 4.000000 1.000000 -60.708740 114.000000 133.000000 0.510720 0.524116 0.681518
1.39999998 0.83999997 -0.04000000 59 212 120 97.000000 1.000000 4.000000 1.000000 -60.708740 114.000000 133.000000 0.278692 0.791990 0.543214
1.38999999 0.82999998 -0.06000000 59 212 120 97.000000 1.000000 4.000000 1.000000 -60.708740 114.000000 133.000000 0.467946 0.739124 0.484482
1.40999997 0.81000000 -0.05000000 59 212 120 97.000000 1.000000 4.000000 1.000000 -60.708740 114.000000 133.000000 0.462868 0.791875 0.398356
1.41999996 0.81000000 -0.09000000 59 212 120 97.000000 1.000000 4.000000 1.000000 -60.708740 114.000000 133.000000 0.475495 0.599829 0.643514
1.38000000 0.85000002 -0.09000000 59 212 120 97.000000 1.000000 4.000000 1.000000 -60.708740 114.000000 133.000000 0.496102 0.522828 0.693206
1.38000000 0.85000002 -0.08000000 59 212 120 97.000000 1.000000 4.000000 1.000000 -60.708740 114.000000 133.000000 0.411666 0.795887 0.443953
1.39999998 0.87000000 -0.16000000 59 212 120 97.000000 1.000000 4.000000 1.000000 -60.708740 114.000000 133.000000 0.574720 0.507304 0.642136
1.41999996 0.89999998 -0.31000000 59 212 120 97.000000 1.000000 4.000000 1.000000 -60.708740 114.000000 133.000000 0.293169 0.894390 0.337814
1.39999998 0.85000002 -0.27000001 59 212 120 97.000000 1.000000 4.000000 1.000000 -60.708740 114.000000 133.000000 0.157101 0.806450 0.570051
1.39999998 0.86000001 -0.25000000 59 212 120 97.000000 1.000000 4.000000 1.000000 -60.708740 114.000000 133.000000 0.562676 0.404269 0.721084
1.32000005 0.82999998 -0.23000000 59 212 120 97.000000 1.000000 4.000000 1.000000 -60.708740 114.000000 133.000000 0.602211 0.649180 0.464658
1.34000003 0.86000001 -0.33000001 59 212 120 97.000000 1.000000 4.000000 1.000000 -60.708740 114.000000 133.000000 0.594021 0.503151 0.627677
1.34000003 0.83999997 -0.33000001 59 212 120 97.000000 1.000000 4.000000 1.000000 -60.708740 114.000000 133.000000 0.301828 0.862585 0.406013
1.37000000 0.68000001 -0.05000000 59 212 120 97.000000 1.000000 4.000000 1.000000 -60.708740 114.000000 133.000000 0.413230 0.642249 0.645568
1.37000000 0.64999998 -0.04000000 59 212 120 97.000000 1.000000 4.000000 1.000000 -60.708740 114.000000 133.000000 0.160932 0.792630 0.588080
1.29999995 0.74000001 -0.10000000 59 212 120 97.000000 1.000000 4.000000 1.000000 -60.708740 114.000000 133.000000 0.525504 0.593092 0.609990
1.29999995 0.73000002 -0.11000000 59 212 120 97.000000 1.000000 4.000000 1.000000 -60.708740 114.000000 133.000000 0.360389 0.525231 0.770877
1.32000005 0.66000003 -0.04000000 59 212 120 97.000000 1.000000 4.000000 1.000000 -60.708740 114.000000 133.000000 0.325735 0.633643 0.701707
1.38000000 0.80000001 -0.28000000 59 212 120 97.000000 1.000000 4.000000 1.000000 -60.708740 114.000000 133.000000 0.233708 0.660343 0.713672
1.55999994 0.94999999 -0.38999999 59 212 120 97.000000 1.000000 4.000000 1.000000 -60.708740 114.000000 133.000000 0.384376 0.839351 0.384376
1.58000004 0.93000001 -0.47000000 59 212 120 97.000000 1.000000 4.000000 1.000000 -60.708740 114.000000 133.000000 0.370471 0.886430 0.277478
1.54999995 0.93000001 -0.50000000 59 212 120 97.000000 1.000000 4.000000 1.000000 -60.708740 114.000000 133.000000 0.552716 0.623707 0.552716
1.57000005 0.91000003 -0.47999999 59 212 120 97.000000 1.000000 4.000000 1.000000 -60.708740 114.000000 133.000000 0.606058 0.792316 0.070205
1.46000004 0.92000002 -0.47000000 59 212 120 97.000000 1.000000 4.000000 1.000000 -60.708740 114.000000 133.000000 0.441694 0.396721 0.804686
1.58000004 0.93000001 -0.56000000 59 212 120 97.000000 1.000000 4.000000 1.000000 -60.708740 114.000000 133.000000 0.278825 0.626162 0.728133
1.59000003 0.93000001 -0.58999997 59 212 120 97.000000 1.000000 4.000000 1.000000 -60.708740 114.000000 133.000000 0.085868 0.749527 0.656381
1.55999994 0.92000002 -0.52999997 59 212 120 97.000000 1.000000 4.000000 1.000000 -60.708740 114.000000 133.000000 0.347265 0.534626 0.770443
1.59000003 0.93000001 -0.63999999 59 212 120 97.000000 1.000000 4.000000 1.000000 -60.708740 114.000000 133.000000 0.662697 0.562034 0.494925
1.59000003 0.88999999 -0.63999999 59 212 120 97.000000 1.000000 4.000000 1.000000 -60.708740 114.000000 133.000000 0.508900 0.780313 0.363500
1.55999994 0.88999999 -0.66000003 59 212 120 97.000000 1.000000 4.000000 1.000000 -60.708740 114.000000 133.000000 0.458108 0.840124 0.290394
1.53999996 0.92000002 -0.66000003 59 212 120 97.000000 1.000000 4.000000 1.000000 -60.708740 114.000000 133.000000 0.517258 0.554326 0.652049
1.59000003 0.88000000 -0.64999998 59 212 120 97.000000 1.000000 4.000000 1.000000 -60.708740 114.000000 133.000000 0.432815 0.892592 0.126297
1.50000000 0.91000003 -0.55000001 59 212 120 97.000000 1.000000 4.000000 1.000000 -60.708740 114.000000 133.000000 0.549748 0.376830 0.745504
1.45000005 0.92000002 -0.58999997 59 212 120 97.000000 1.000000 4.000000 1.000000 -60.708740 114.000000 133.000000 0.259747 0.587185 0.766646
1.39999998 0.89999998 -0.44999999 59 212 120 97.000000 1.000000 4.000000 1.000000 -60.708740 114.000000 133.000000 0.412043 0.750214 0.517106
1.40999997 0.89999998 -0.50000000 59 212 120 97.000000 1.000000 4.000000 1.000000 -60.708740 114.000000 133.000000 0.677467 0.377469 0.631313
1.37000000 0.94999999 -0.50999999 59 212 120 97.000000 1.000000 4.000000 1.000000 -60.708740 114.000000 133.000000 0.433423 0.736655 0.519119
1.38000000 0.87000000 -0.40000001 59 212 120 97.000000 1.000000 4.000000 1.000000 -60.708740 114.000000 133.000000 0.555785 0.630115 0.542271
1.27999997 0.91000003 -0.36000001 59 212 120 97.000000 1.000000 4.000000 1.000000 -60.708740 114.000000 133.000000 0.388799 0.436799 0.811198
1.26999998 0.89999998 -0.43000001 59 212 120 97.000000 1.000000 4.000000 1.000000 -60.708740 114.000000 133.000000 0.392971 0.718529 0.573837
1.34000003 0.95999998 -0.46000001 59 212 120 97.000000 1.000000 4.000000 1.000000 -60.708740 114.000000 133.000000 0.562277 0.685744 0.462168
1.34000003 0.94000000 -0.50999999 59 212 120 97.000000 1.000000 4.000000 1.000000 -60.708740 114.000000 133.000000 0.612566 0.307087 0.728327
1.27999997 0.94999999 -0.51999998 59 212 120 97.000000 1.000000 4.000000 1.000000 -60.708740 114.000000 133.000000 0.568936 0.207025 0.795897
1.27999997 0.92000002 -0.51999998 59 212 120 97.000000 1.000000 4.000000 1.000000 -60.708740 114.000000 133.000000 0.832867 0.224645 0.505833
1.41999996 0.95999998 -0.56000000 59 212 120 97.000000 1.000000 4.000000 1.000000 -60.708740 114.000000 133.000000 0.822079 0.418195 0.386393
1.39999998 0.89999998 -0.54000002 59 212 120 97.000000 1.000000 4.000000 1.000000 -60.708740 114.000000 133.000000 0.678459 0.474083 0.561194
1.40999997 0.91000003 -0.57999998 59 212 120 97.000000 1.000000 4.000000 1.000000 -60.708740 114.000000 133.000000 0.520076 0.746481 0.415076
1.38000000 0.93000001 -0.54000002 59 212 120 97.000000 1.000000 4.000000 1.000000 -60.708740 114.000000 133.000000 0.573778 0.415038 0.706061
1.40999997 0.94999999 -0.63999999 59 212 120 97.000000 1.000000 4.000000 1.000000 -60.708740 114.000000 133.000000 0.493953 0.678139 0.544186
1.29999995 0.94999999 -0.58999997 59 212 120 97.000000 1.000000 4.000000 1.000000 -60.708740 114.000000 133.000000 0.814838 0.321188 0.482574
1.27999997 0.94999999 -0.56999999 59 212 120 97.000000 1.000000 4.000000 1.000000 -60.708740 114.000000 133.000000 0.667613 0.577260 0.470174
1.22000003 0.91000003 -0.10000000 59 212 120 97.000000 1.000000 4.000000 1.000000 -60.708740 114.000000 133.000000 0.470881 0.707153 0.527453
1.25999999 0.95999998 -0.14000000 59 212 120 97.000000 1.000000 4.000000 1.000000 -60.708740 114.000000 133.000000 0.809733 0.260550 0.525781
1.23000002 0.87000000 -0.07000000 59 212 120 97.000000 1.000000 4.000000 1.000000 -60.708740 114.000000 133.000000 0.542818 0.469328 0.696477
1.22000003 0.87000000 -0.06000000 59 212 120 97.000000 1.000000 4.000000 1.000000 -60.708740 114.000000 133.000000 0.427607 0.761829 0.486588
1.21000004 0.87000000 -0.09000000 59 212 120 97.000000 1.000000 4.000000 1.000000 -60.708740 114.000000 133.000000 0.473412 0.389394 0.790097
1.20000005 0.86000001 -0.07000000 59 212 120 97.000000 1.000000 4.000000 1.000000 -60.708740 114.000000 133.000000 0.417513 0.505928 0.754798
1.19000006 0.82999998 -0.04000000 59 212 120 97.000000 1.000000 4.000000 1.000000 -60.708740 114.000000 133.000000 0.295238 0.585689 0.754853
1.20000005 0.88000000 -0.12000000 59 212 120 97.000000 1.000000 4.000000 1.000000 -60.708740 114.000000 133.000000 0.404241 0.757748 0.512257
1.20000005 0.88000000 -0.12000000 59 212 120 97.000000 1.000000 4.000000 1.000000 -60.708740 114.000000 133.000000 0.404241 0.757748 0.512257
1.20000005 0.88000000 -0.18000001 59 212 120 97.000000 1.000000 4.000000 1.000000 -60.708740 114.000000 133.000000 0.448124 0.735849 0.507653
1.21000004 0.85000002 -0.16000000 59 212 120 97.000000 1.000000 4.000000 1.000000 -60.708740 114.000000 133.000000 0.336584 0.606502 0.720323
1.20000005 0.88000000 -0.18000001 59 212 120 97.000000 1.000000 4.000000 1.000000 -60.708740 114.000000 133.000000 0.448124 0.735849 0.507653
1.14999998 0.91000003 -0.08000000 59 212 120 97.000000 1.000000 4.000000 1.000000 -60.708740 114.000000 133.000000 0.842695 0.336140 0.420566
1.11000001 0.82999998 -0.06000000 59 212 120 97.000000 1.000000 4.000000 1.000000 -60.708740 114.000000 133.000000 0.651249 0.220206 0.726212
1.23000002 0.94000000 -0.30000001 59 212 120 97.000000 1.000000 4.000000 1.000000 -60.708740 114.000000 133.000000 0.431963 0.665456 0.608750
1.24000001 0.92000002 -0.31999999 59 212 120 97.000000 1.000000 4.000000 1.000000 -60.708740 114.000000 133.000000 0.433255 0.372949 0.820487
1.22000003 0.83999997 -0.20999999 59 212 120 97.000000 1.000000 4.000000 1.000000 -60.708740 114.000000 133.000000 0.782399 0.296772 0.547520
1.24000001 0.86000001 -0.25000000 59 212 120 97.000000 1.000000 4.000000 1.000000 -60.708740 114.000000 133.000000 0.771244 0.409265 0.487530
1.24000001 0.87000000 -0.34000000 59 212 120 97.000000 1.000000 4.000000 1.000000 -60.708740 114.000000 133.000000 0.620170 0.532299 0.576235
1.13999999 0.94000000 -0.20000000 59 212 120 97.000000 1.000000 4.000000 1.000000 -60.708740 114.000000 133.000000 0.475130 0.585938 0.656452
1.16999996 0.88000000 -0.20000000 59 212 120 97.000000 1.000000 4.000000 1.000000 -60.708740 114.000000 133.000000 0.651548 0.434921 0.621554
1.25000000 0.69999999 -0.04000000 59 212 120 97.000000 1.000000 4.000000 1.000000 -60.708740 114.000000 133.000000 0.606486 0.599728 0.522017
1.25000000 0.70999998 -0.04000000 59 212 120 97.000000 1.000000 4.000000 1.000000 -60.708740 114.000000 133.000000 0.349444 0.838353 0.418393
1.12000000 0.75999999 -0.04000000 59 212 120 97.000000 1.000000 4.000000 1.000000 -60.708740 114.000000 133.000000 0.630104 0.226712 0.742678
1.11000001 0.79000002 -0.05000000 59 212 120 97.000000 1.000000 4.000000 1.000000 -60.708740 114.000000 133.000000 0.675693 0.410064 0.612606
1.11000001 0.77999997 -0.09000000 59 212 120 97.000000 1.000000 4.000000 1.000000 -60.708740 114.000000 133.000000 0.708772 0.485300 0.511983
1.16999996 0.80000001 -0.11000000 59 212 120 97.000000 1.000000 4.000000 1.000000 -60.708740 114.000000 133.000000 0.591894 0.671925 0.445171
1.14999998 0.79000002 -0.11000000 59 212 120 97.000000 1.000000 4.000000 1.000000 -60.708740 114.000000 133.000000 0.899005 0.318428 0.300656
1.10000002 0.74000001 -0.12000000 59 212 120 97.000000 1.000000 4.000000 1.000000 -60.708740 114.000000 133.000000 0.707106 0.564691 0.425588
1.12000000 0.69000000 -0.08000000 59 212 120 97.000000 1.000000 4.000000 1.000000 -60.708740 114.000000 133.000000 0.635917 0.384854 0.668952
1.13000000 0.70999998 -0.09000000 59 212 120 97.000000 1.000000 4.000000 1.000000 -60.708740 114.000000 133.000000 0.712082 0.687995 0.140008
1.13000000 0.70999998 -0.09000000 59 212 120 97.000000 1.000000 4.000000 1.000000 -60.708740 114.000000 133.000000 0.712082 0.687995 0.140008
1.09000003 0.79000002 -0.12000000 59 212 120 97.000000 1.000000 4.000000 1.000000 -60.708740 114.000000 133.000000 0.605283 0.365795 0.706984
1.09000003 0.73000002 -0.08000000 59 212 120 97.000000 1.000000 4.000000 1.000000 -60.708740 114.000000 133.000000 0.456852 0.719334 0.523303
1.07000005 0.75999999 -0.03000000 59 212 120 97.000000 1.000000 4.000000 1.000000 -60.708740 114.000000 133.000000 0.513109 0.301550 0.803608
1.22000003 0.94000000 -0.43000001 59 212 120 97.000000 1.000000 4.000000 1.000000 -60.708740 114.000000 133.000000 0.592578 0.541931 0.595955
1.25999999 0.91000003 -0.41000000 59 212 120 97.000000 1.000000 4.000000 1.000000 -60.708740 114.000000 133.000000 0.419084 0.697369 0.581417
