//X Y Z R G B PointSourceId ScanDirectionFlag NumberOfReturns ReturnNumber GpsTime Intensity Classification Nx Ny Nz
14.93000031 15.97000027 -0.77999997 190 7 157 97.000000 1.000000 4.000000 1.000000 -60.708740 114.000000 141.000000 0.993015 0.093980 0.071334
14.89000034 16.02000046 -0.89999998 190 7 157 97.000000 1.000000 4.000000 1.000000 -60.708740 114.000000 141.000000 0.678119 0.732598 0.058780
14.88000011 16.04999924 -0.88999999 190 7 157 97.000000 1.000000 4.000000 1.000000 -60.708740 114.000000 141.000000 0.454869 0.826319 0.332101
14.92000008 16.00000000 -0.94999999 190 7 157 97.000000 1.000000 4.000000 1.000000 -60.708740 114.000000 141.000000 0.744734 0.667359 0.001382
14.86999989 16.04999924 -0.99000001 190 7 157 97.000000 1.000000 4.000000 1.000000 -60.708740 114.000000 141.000000 0.418403 0.859796 -0.292729
14.89999962 16.01000023 -0.97000003 190 7 157 97.000000 1.000000 4.000000 1.000000 -60.708740 114.000000 141.000000 0.464464 0.823440 -0.325912
14.89000034 16.03000069 -0.94999999 190 7 157 97.000000 1.000000 4.000000 1.000000 -60.708740 114.000000 141.000000 0.645588 0.763222 0.026608
14.89999962 15.98999977 -0.88999999 190 7 157 97.000000 1.000000 4.000000 1.000000 -60.708740 114.000000 141.000000 0.800265 0.568569 -0.190539
14.93000031 15.97999954 -0.87000000 190 7 157 97.000000 1.000000 4.000000 1.000000 -60.708740 114.000000 141.000000 0.831087 0.534800 -0.152588
14.92000008 15.97999954 -0.87000000 190 7 157 97.000000 1.000000 4.000000 1.000000 -60.708740 114.000000 141.000000 0.803763 0.577099 -0.144647
14.93999958 15.90999985 -1.00999999 190 7 157 97.000000 1.000000 4.000000 1.000000 -60.708740 114.000000 141.000000 0.870525 0.447911 -0.203867
14.92000008 15.97999954 -1.00000000 190 7 157 97.000000 1.000000 4.000000 1.000000 -60.708740 114.000000 141.000000 0.769061 0.598159 -0.225281
15.00000000 15.84000015 -0.75999999 190 7 157 97.000000 1.000000 4.000000 1.000000 -60.708740 114.000000 141.000000 0.760549 -0.645096 0.073601
14.96000004 15.85999966 -0.72000003 190 7 157 97.000000 1.000000 4.000000 1.000000 -60.708740 114.000000 141.000000 0.908886 -0.413375 0.055206
15.00000000 15.85999966 -0.70999998 190 7 157 97.000000 1.000000 4.000000 1.000000 -60.708740 114.000000 141.000000 0.922811 -0.385251 0.001280
15.00000000 15.84000015 -0.76999998 190 7 157 97.000000 1.000000 4.000000 1.000000 -60.708740 114.000000 141.000000 0.751630 -0.659251 0.020995
15.00000000 15.85999966 -0.73000002 190 7 157 97.000000 1.000000 4.000000 1.000000 -60.708740 114.000000 141.000000 0.921125 -0.370378 0.119788
14.97000027 15.88000011 -0.77999997 190 7 157 97.000000 1.000000 4.000000 1.000000 -60.708740 114.000000 141.000000 0.987713 0.150981 0.040338
15.02000046 15.81999969 -0.81999999 190 7 157 97.000000 1.000000 4.000000 1.000000 -60.708740 114.000000 141.000000 0.959658 -0.167643 0.225724
14.97999954 15.81999969 -0.79000002 190 7 157 97.000000 1.000000 4.000000 1.000000 -60.708740 114.000000 141.000000 0.964317 -0.254034 -0.074567
14.93999958 15.77000046 -0.75000000 190 7 157 97.000000 1.000000 4.000000 1.000000 -60.708740 114.000000 141.000000 0.827502 -0.545299 0.133753
15.00000000 15.88000011 -0.94000000 190 7 157 97.000000 1.000000 4.000000 1.000000 -60.708740 114.000000 141.000000 0.976791 -0.027298 -0.212449
14.96000004 15.89000034 -0.93000001 190 7 157 97.000000 1.000000 4.000000 1.000000 -60.708740 114.000000 141.000000 0.893409 -0.200323 0.402107
14.97000027 15.88000011 -0.94000000 190 7 157 97.000000 1.000000 4.000000 1.000000 -60.708740 114.000000 141.000000 0.978111 -0.054139 0.200916
14.97000027 15.89000034 -0.94000000 190 7 157 97.000000 1.000000 4.000000 1.000000 -60.708740 114.000000 141.000000 0.931023 -0.189005 0.312208
14.98999977 15.84000015 -0.94999999 190 7 157 97.000000 1.000000 4.000000 1.000000 -60.708740 114.000000 141.000000 0.967647 -0.250148 -0.032946
14.96000004 15.88000011 -1.00000000 190 7 157 97.000000 1.000000 4.000000 1.000000 -60.708740 114.000000 141.000000 0.917915 -0.167791 0.359552
14.96000004 15.86999989 -1.00999999 190 7 157 97.000000 1.000000 4.000000 1.000000 -60.708740 114.000000 141.000000 0.997737 -0.054422 0.039483
14.94999981 15.84000015 -1.00000000 190 7 157 97.000000 1.000000 4.000000 1.000000 -60.708740 114.000000 141.000000 0.949101 -0.109868 0.295188
14.97000027 15.84000015 -1.01999998 190 7 157 97.000000 1.000000 4.000000 1.000000 -60.708740 114.000000 141.000000 0.908830 -0.203083 0.364396
14.94999981 15.81000042 -1.00000000 190 7 157 97.000000 1.000000 4.000000 1.000000 -60.708740 114.000000 141.000000 0.775048 -0.600087 -0.197983
14.94999981 15.81999969 -1.00000000 190 7 157 97.000000 1.000000 4.000000 1.000000 -60.708740 114.000000 141.000000 0.888920 -0.457197 -0.028156
14.89000034 15.89000034 -0.94999999 190 7 157 97.000000 1.000000 4.000000 1.000000 -60.708740 114.000000 141.000000 0.927723 -0.090214 -0.362203
14.85000038 16.04999924 -0.69999999 190 7 157 97.000000 1.000000 4.000000 1.000000 -60.708740 114.000000 141.000000 0.273078 0.953794 -0.125326
14.82999992 16.04000092 -0.81000000 190 7 157 97.000000 1.000000 4.000000 1.000000 -60.708740 114.000000 141.000000 0.127507 0.973346 0.190629
14.85000038 16.04999924 -0.81999999 190 7 157 97.000000 1.000000 4.000000 1.000000 -60.708740 114.000000 141.000000 0.292607 0.933823 -0.205805
14.81999969 15.93000031 -0.74000001 190 7 157 97.000000 1.000000 4.000000 1.000000 -60.708740 114.000000 141.000000 0.639705 0.767362 -0.043971
14.81999969 15.93999958 -0.75000000 190 7 157 97.000000 1.000000 4.000000 1.000000 -60.708740 114.000000 141.000000 0.697754 0.675703 0.237835
14.81999969 15.92000008 -0.81999999 190 7 157 97.000000 1.000000 4.000000 1.000000 -60.708740 114.000000 141.000000 0.835590 0.535186 0.123953
14.77999973 15.93999958 -0.81999999 190 7 157 97.000000 1.000000 4.000000 1.000000 -60.708740 114.000000 141.000000 0.819871 -0.517245 0.245498
14.85000038 16.03000069 -0.98000002 190 7 157 97.000000 1.000000 4.000000 1.000000 -60.708740 114.000000 141.000000 0.433228 0.893267 -0.119949
14.84000015 15.90999985 -0.88000000 190 7 157 97.000000 1.000000 4.000000 1.000000 -60.708740 114.000000 141.000000 0.865227 0.402752 0.298618
14.81000042 15.98999977 -0.94999999 190 7 157 97.000000 1.000000 4.000000 1.000000 -60.708740 114.000000 141.000000 0.198148 0.947009 -0.252809
14.81000042 15.93000031 -0.98000002 190 7 157 97.000000 1.000000 4.000000 1.000000 -60.708740 114.000000 141.000000 0.354281 0.934942 0.019185
14.81999969 15.89999962 -0.88999999 190 7 157 97.000000 1.000000 4.000000 1.000000 -60.708740 114.000000 141.000000 0.918162 0.388089 0.079781
14.85000038 15.89000034 -1.00000000 190 7 157 97.000000 1.000000 4.000000 1.000000 -60.708740 114.000000 141.000000 0.912987 0.298504 -0.278119
14.84000015 15.89000034 -1.00000000 190 7 157 97.000000 1.000000 4.000000 1.000000 -60.708740 114.000000 141.000000 0.883001 0.403530 -0.239735
14.81999969 15.89999962 -0.98000002 190 7 157 97.000000 1.000000 4.000000 1.000000 -60.708740 114.000000 141.000000 0.662481 0.706752 -0.248233
14.82999992 15.89999962 -0.92000002 190 7 157 97.000000 1.000000 4.000000 1.000000 -60.708740 114.000000 141.000000 0.874326 0.442341 -0.199719
15.00000000 15.90999985 -1.08000004 190 7 157 97.000000 1.000000 4.000000 1.000000 -60.708740 114.000000 141.000000 0.923038 0.073897 0.377545
14.90999985 16.01000023 -1.02999997 190 7 157 97.000000 1.000000 4.000000 1.000000 -60.708740 114.000000 141.000000 0.741741 0.666260 -0.076932
14.90999985 16.03000069 -1.09000003 190 7 157 97.000000 1.000000 4.000000 1.000000 -60.708740 114.000000 141.000000 0.708247 0.693273 0.133264
14.92000008 16.00000000 -1.08000004 190 7 157 97.000000 1.000000 4.000000 1.000000 -60.708740 114.000000 141.000000 0.787555 0.594807 0.161125
14.93000031 15.98999977 -1.05999994 190 7 157 97.000000 1.000000 4.000000 1.000000 -60.708740 114.000000 141.000000 0.873804 0.453790 0.174761
14.93999958 15.97999954 -1.11000001 190 7 157 97.000000 1.000000 4.000000 1.000000 -60.708740 114.000000 141.000000 0.690301 0.702546 -0.172958
14.97999954 15.82999992 -1.15999997 190 7 157 97.000000 1.000000 4.000000 1.000000 -60.708740 114.000000 141.000000 0.991045 -0.131020 -0.025756
14.97000027 15.81999969 -1.10000002 190 7 157 97.000000 1.000000 4.000000 1.000000 -60.708740 114.000000 141.000000 0.773610 -0.629010 0.076638
14.89000034 15.89000034 -1.11000001 190 7 157 97.000000 1.000000 4.000000 1.000000 -60.708740 114.000000 141.000000 0.903354 0.428733 -0.011800
14.86999989 15.89000034 -1.16999996 190 7 157 97.000000 1.000000 4.000000 1.000000 -60.708740 114.000000 141.000000 0.905810 0.389427 -0.166897
14.86999989 15.88000011 -1.16999996 190 7 157 97.000000 1.000000 4.000000 1.000000 -60.708740 114.000000 141.000000 0.971394 0.151900 -0.182535
14.82999992 16.04000092 -1.03999996 190 7 157 97.000000 1.000000 4.000000 1.000000 -60.708740 114.000000 141.000000 0.342195 0.937430 0.064243
14.82999992 15.90999985 -1.10000002 190 7 157 97.000000 1.000000 4.000000 1.000000 -60.708740 114.000000 141.000000 0.661519 0.747617 0.058834
14.81999969 15.98999977 -1.23000002 190 7 157 97.000000 1.000000 4.000000 1.000000 -60.708740 114.000000 141.000000 -0.182540 0.942896 0.278614
14.94999981 15.67000008 -0.28999999 190 7 157 97.000000 1.000000 4.000000 1.000000 -60.708740 114.000000 141.000000 -0.202905 0.923715 -0.324932
15.00000000 15.68999958 -0.38999999 190 7 157 97.000000 1.000000 4.000000 1.000000 -60.708740 114.000000 141.000000 -0.533178 0.827552 0.175723
15.00000000 15.65999985 -0.68000001 190 7 157 97.000000 1.000000 4.000000 1.000000 -60.708740 114.000000 141.000000 0.423672 -0.800627 0.423672
14.75000000 16.00000000 0.63000000 190 7 157 97.000000 1.000000 4.000000 1.000000 -60.708740 114.000000 141.000000 -0.106544 0.994040 -0.023066
14.75000000 16.00000000 0.55000001 190 7 157 97.000000 1.000000 4.000000 1.000000 -60.708740 114.000000 141.000000 0.714543 -0.697359 -0.055846
14.72999954 15.98999977 0.63000000 190 7 157 97.000000 1.000000 4.000000 1.000000 -60.708740 114.000000 141.000000 -0.114169 0.965948 0.232187
14.76000023 15.98999977 0.64999998 190 7 157 97.000000 1.000000 4.000000 1.000000 -60.708740 114.000000 141.000000 0.739714 -0.672594 0.020975
14.72999954 15.97999954 0.52999997 190 7 157 97.000000 1.000000 4.000000 1.000000 -60.708740 114.000000 141.000000 -0.392971 0.908480 -0.142258
14.69999981 15.97000027 0.50999999 190 7 157 97.000000 1.000000 4.000000 1.000000 -60.708740 114.000000 141.000000 0.132117 0.979144 0.154342
14.73999977 16.01000023 0.47000000 190 7 157 97.000000 1.000000 4.000000 1.000000 -60.708740 114.000000 141.000000 -0.256844 0.966452 -0.001195
14.72999954 15.97999954 0.44999999 190 7 157 97.000000 1.000000 4.000000 1.000000 -60.708740 114.000000 141.000000 0.081536 0.986701 -0.140620
14.71000004 15.97999954 0.44000000 190 7 157 97.000000 1.000000 4.000000 1.000000 -60.708740 114.000000 141.000000 0.088793 0.995981 -0.011768
14.72000027 15.92000008 0.36000001 190 7 157 97.000000 1.000000 4.000000 1.000000 -60.708740 114.000000 141.000000 0.189217 0.981344 -0.034083
14.72999954 15.89000034 0.54000002 190 7 157 97.000000 1.000000 4.000000 1.000000 -60.708740 114.000000 141.000000 -0.351199 0.936105 -0.019156
14.75000000 15.89999962 0.40000001 190 7 157 97.000000 1.000000 4.000000 1.000000 -60.708740 114.000000 141.000000 -0.154339 0.910459 -0.383724
14.75000000 15.88000011 0.47999999 190 7 157 97.000000 1.000000 4.000000 1.000000 -60.708740 114.000000 141.000000 0.167989 0.979730 0.109131
14.77000046 15.86999989 0.41000000 190 7 157 97.000000 1.000000 4.000000 1.000000 -60.708740 114.000000 141.000000 -0.082069 0.996558 0.011724
14.82999992 15.90999985 0.16000000 190 7 157 97.000000 1.000000 4.000000 1.000000 -60.708740 114.000000 141.000000 0.843320 -0.537396 0.004061
14.81000042 15.90999985 0.16000000 190 7 157 97.000000 1.000000 4.000000 1.000000 -60.708740 114.000000 141.000000 -0.356989 0.776977 -0.518523
14.73999977 16.01000023 0.23999999 190 7 157 97.000000 1.000000 4.000000 1.000000 -60.708740 114.000000 141.000000 -0.200142 0.948972 -0.243710
14.75000000 16.02000046 0.27000001 190 7 157 97.000000 1.000000 4.000000 1.000000 -60.708740 114.000000 141.000000 -0.438562 0.892536 -0.105087
14.73999977 15.90999985 0.28000000 190 7 157 97.000000 1.000000 4.000000 1.000000 -60.708740 114.000000 141.000000 0.035192 0.926728 -0.374080
14.80000019 16.02000046 0.10000000 190 7 157 97.000000 1.000000 4.000000 1.000000 -60.708740 114.000000 141.000000 0.810309 0.578378 -0.094222
14.81999969 15.90999985 0.12000000 190 7 157 97.000000 1.000000 4.000000 1.000000 -60.708740 114.000000 141.000000 -0.687475 0.726206 0.001383
14.78999996 15.97999954 0.08000000 190 7 157 97.000000 1.000000 4.000000 1.000000 -60.708740 114.000000 141.000000 -0.614082 0.788330 -0.037941
14.81000042 15.92000008 0.05000000 190 7 157 97.000000 1.000000 4.000000 1.000000 -60.708740 114.000000 141.000000 0.806883 -0.586172 0.073092
14.73999977 16.04000092 0.11000000 190 7 157 97.000000 1.000000 4.000000 1.000000 -60.708740 114.000000 141.000000 -0.665479 0.718221 -0.203212
14.77000046 16.03000069 0.12000000 190 7 157 97.000000 1.000000 4.000000 1.000000 -60.708740 114.000000 141.000000 0.795875 0.599434 0.085221
14.75000000 16.03000069 0.14000000 190 7 157 97.000000 1.000000 4.000000 1.000000 -60.708740 114.000000 141.000000 0.146082 0.980839 0.128896
14.73999977 16.04000092 0.06000000 190 7 157 97.000000 1.000000 4.000000 1.000000 -60.708740 114.000000 141.000000 -0.549567 0.834733 -0.034607
14.76000023 15.92000008 0.03000000 190 7 157 97.000000 1.000000 4.000000 1.000000 -60.708740 114.000000 141.000000 0.256839 0.962187 0.090724
14.77000046 15.92000008 0.01000000 190 7 157 97.000000 1.000000 4.000000 1.000000 -60.708740 114.000000 141.000000 0.061077 0.989903 0.127915
14.77000046 15.90999985 -0.02000000 190 7 157 97.000000 1.000000 4.000000 1.000000 -60.708740 114.000000 141.000000 0.253031 0.966895 -0.033004
14.72000027 15.96000004 -0.02000000 190 7 157 97.000000 1.000000 4.000000 1.000000 -60.708740 114.000000 141.000000 0.782126 0.596123 0.181429
14.77999973 15.88000011 0.25999999 190 7 157 97.000000 1.000000 4.000000 1.000000 -60.708740 114.000000 141.000000 -0.499612 0.861936 -0.086335
14.75000000 15.89000034 0.31000000 190 7 157 97.000000 1.000000 4.000000 1.000000 -60.708740 114.000000 141.000000 0.134181 0.989729 -0.049314
14.76000023 15.89000034 0.28000000 190 7 157 97.000000 1.000000 4.000000 1.000000 -60.708740 114.000000 141.000000 -0.116362 0.984878 0.128358
14.68999958 15.93000031 0.44999999 190 7 157 97.000000 1.000000 4.000000 1.000000 -60.708740 114.000000 141.000000 0.381098 0.912667 0.147658
14.68999958 15.96000004 0.03000000 190 7 157 97.000000 1.000000 4.000000 1.000000 -60.708740 114.000000 141.000000 0.942772 0.325590 -0.071917
15.11999989 15.77999973 -0.63999999 190 7 157 97.000000 1.000000 4.000000 1.000000 -60.708740 114.000000 141.000000 -0.686267 0.657202 -0.311646
15.11999989 15.77999973 -0.63999999 190 7 157 97.000000 1.000000 4.000000 1.000000 -60.708740 114.000000 141.000000 -0.686267 0.657202 -0.311646
15.10999966 15.81999969 -0.63000000 190 7 157 97.000000 1.000000 4.000000 1.000000 -60.708740 114.000000 141.000000 0.842494 -0.490316 0.223147
15.06000042 15.85000038 -0.61000001 190 7 157 97.000000 1.000000 4.000000 1.000000 -60.708740 114.000000 141.000000 0.906166 -0.234932 0.351668
15.07999992 15.80000019 -0.63000000 190 7 157 97.000000 1.000000 4.000000 1.000000 -60.708740 114.000000 141.000000 0.963636 -0.245079 0.106500
15.03999996 15.75000000 -0.63000000 190 7 157 97.000000 1.000000 4.000000 1.000000 -60.708740 114.000000 141.000000 -0.637018 0.698613 -0.325803
15.11999989 15.76000023 -0.85000002 190 7 157 97.000000 1.000000 4.000000 1.000000 -60.708740 114.000000 141.000000 0.929344 -0.292807 0.224910
15.09000015 15.77999973 -0.85000002 190 7 157 97.000000 1.000000 4.000000 1.000000 -60.708740 114.000000 141.000000 0.721768 -0.690325 0.050024
15.10999966 15.76000023 -0.97000003 190 7 157 97.000000 1.000000 4.000000 1.000000 -60.708740 114.000000 141.000000 0.929562 -0.121485 0.348074
15.05000019 16.01000023 -1.14999998 190 7 157 97.000000 1.000000 4.000000 1.000000 -60.708740 114.000000 141.000000 0.788570 0.583388 0.194463
15.05000019 15.76000023 -1.02999997 190 7 157 97.000000 1.000000 4.000000 1.000000 -60.708740 114.000000 141.000000 0.705546 -0.702613 0.092410
15.06000042 15.72000027 -0.91000003 190 7 157 97.000000 1.000000 4.000000 1.000000 -60.708740 114.000000 141.000000 -0.726123 0.620330 -0.296540
15.06999969 15.68999958 -0.88999999 190 7 157 97.000000 1.000000 4.000000 1.000000 -60.708740 114.000000 141.000000 0.872872 -0.367124 0.321424
15.07999992 15.72999954 -0.97000003 190 7 157 97.000000 1.000000 4.000000 1.000000 -60.708740 114.000000 141.000000 0.846060 -0.490141 -0.209630
15.06999969 15.72999954 -0.94999999 190 7 157 97.000000 1.000000 4.000000 1.000000 -60.708740 114.000000 141.000000 0.707188 -0.704308 0.061933
15.03999996 15.72999954 -1.02999997 190 7 157 97.000000 1.000000 4.000000 1.000000 -60.708740 114.000000 141.000000 0.943714 -0.316336 0.096621
14.86999989 15.94999981 -0.31999999 190 7 157 97.000000 1.000000 4.000000 1.000000 -60.708740 114.000000 141.000000 0.937190 -0.128847 -0.324151
14.82999992 16.01000023 -0.13000000 190 7 157 97.000000 1.000000 4.000000 1.000000 -60.708740 114.000000 141.000000 0.824815 0.522942 0.214970
14.85000038 15.93000031 -0.06000000 190 7 157 97.000000 1.000000 4.000000 1.000000 -60.708740 114.000000 141.000000 0.815796 -0.423064 0.394328
14.76000023 16.00000000 -0.05000000 190 7 157 97.000000 1.000000 4.000000 1.000000 -60.708740 114.000000 141.000000 -0.140146 0.989988 -0.016817
14.73999977 16.03000069 -0.11000000 190 7 157 97.000000 1.000000 4.000000 1.000000 -60.708740 114.000000 141.000000 -0.524260 0.823837 -0.215512
14.72999954 15.93000031 -0.03000000 190 7 157 97.000000 1.000000 4.000000 1.000000 -60.708740 114.000000 141.000000 0.380012 0.876602 0.295229
14.72000027 15.90999985 -0.09000000 190 7 157 97.000000 1.000000 4.000000 1.000000 -60.708740 114.000000 141.000000 0.542639 0.836034 0.081182
14.73999977 15.97999954 -0.17000000 190 7 157 97.000000 1.000000 4.000000 1.000000 -60.708740 114.000000 141.000000 0.957334 0.187739 0.219694
14.73999977 15.97999954 -0.16000000 190 7 157 97.000000 1.000000 4.000000 1.000000 -60.708740 114.000000 141.000000 0.915492 -0.214142 0.340615
14.77000046 15.92000008 -0.11000000 190 7 157 97.000000 1.000000 4.000000 1.000000 -60.708740 114.000000 141.000000 0.175811 0.983845 0.033765
14.72999954 15.92000008 -0.17000000 190 7 157 97.000000 1.000000 4.000000 1.000000 -60.708740 114.000000 141.000000 0.510738 0.855946 0.080643
14.80000019 16.01000023 -0.25000000 190 7 157 97.000000 1.000000 4.000000 1.000000 -60.708740 114.000000 141.000000 0.281216 0.956649 -0.075761
14.85000038 16.01000023 -0.20000000 190 7 157 97.000000 1.000000 4.000000 1.000000 -60.708740 114.000000 141.000000 0.859887 0.508178 -0.048464
14.81999969 16.03000069 -0.22000000 190 7 157 97.000000 1.000000 4.000000 1.000000 -60.708740 114.000000 141.000000 0.379077 0.925357 -0.003829
14.81999969 16.03000069 -0.22000000 190 7 157 97.000000 1.000000 4.000000 1.000000 -60.708740 114.000000 141.000000 0.379077 0.925357 -0.003829
14.81000042 16.03000069 -0.30000001 190 7 157 97.000000 1.000000 4.000000 1.000000 -60.708740 114.000000 141.000000 0.370471 0.886430 -0.277478
14.81000042 16.03000069 -0.28999999 190 7 157 97.000000 1.000000 4.000000 1.000000 -60.708740 114.000000 141.000000 0.106960 0.984271 -0.140610
14.85000038 16.01000023 -0.28999999 190 7 157 97.000000 1.000000 4.000000 1.000000 -60.708740 114.000000 141.000000 0.865712 0.367505 0.339827
14.76000023 16.01000023 -0.19000000 190 7 157 97.000000 1.000000 4.000000 1.000000 -60.708740 114.000000 141.000000 -0.025657 0.991692 -0.126053
14.72999954 15.90999985 -0.22000000 190 7 157 97.000000 1.000000 4.000000 1.000000 -60.708740 114.000000 141.000000 0.540711 0.829483 0.139966
14.73999977 15.98999977 -0.30000001 190 7 157 97.000000 1.000000 4.000000 1.000000 -60.708740 114.000000 141.000000 0.706002 -0.509056 0.492365
14.77000046 15.92000008 -0.31000000 190 7 157 97.000000 1.000000 4.000000 1.000000 -60.708740 114.000000 141.000000 0.259455 0.928650 -0.265126
14.78999996 15.89000034 -0.17000000 190 7 157 97.000000 1.000000 4.000000 1.000000 -60.708740 114.000000 141.000000 -0.489097 0.796987 -0.354395
14.78999996 15.89000034 -0.11000000 190 7 157 97.000000 1.000000 4.000000 1.000000 -60.708740 114.000000 141.000000 -0.568237 0.799797 -0.193475
14.76000023 15.88000011 -0.06000000 190 7 157 97.000000 1.000000 4.000000 1.000000 -60.708740 114.000000 141.000000 0.222025 0.892513 -0.392588
14.76000023 15.89999962 -0.27000001 190 7 157 97.000000 1.000000 4.000000 1.000000 -60.708740 114.000000 141.000000 0.155586 0.986158 -0.057321
14.88000011 16.00000000 -0.44999999 190 7 157 97.000000 1.000000 4.000000 1.000000 -60.708740 114.000000 141.000000 0.655374 0.732116 0.185715
14.90999985 16.01000023 -0.56000000 190 7 157 97.000000 1.000000 4.000000 1.000000 -60.708740 114.000000 141.000000 0.630542 0.768703 0.107295
14.89999962 16.01000023 -0.57999998 190 7 157 97.000000 1.000000 4.000000 1.000000 -60.708740 114.000000 141.000000 0.698512 0.712914 -0.061930
14.89000034 16.03000069 -0.64999998 190 7 157 97.000000 1.000000 4.000000 1.000000 -60.708740 114.000000 141.000000 0.634380 0.720669 0.279639
14.85999966 16.04999924 -0.63000000 190 7 157 97.000000 1.000000 4.000000 1.000000 -60.708740 114.000000 141.000000 0.604821 0.775451 -0.181294
14.89999962 16.00000000 -0.63000000 190 7 157 97.000000 1.000000 4.000000 1.000000 -60.708740 114.000000 141.000000 0.776970 0.568937 0.269497
14.92000008 15.97000027 -0.63999999 190 7 157 97.000000 1.000000 4.000000 1.000000 -60.708740 114.000000 141.000000 0.998690 0.015556 0.048742
15.00000000 15.85999966 -0.49000001 190 7 157 97.000000 1.000000 4.000000 1.000000 -60.708740 114.000000 141.000000 0.915682 -0.398528 0.051982
15.00000000 15.88000011 -0.63000000 190 7 157 97.000000 1.000000 4.000000 1.000000 -60.708740 114.000000 141.000000 0.990755 0.128242 0.044261
14.97999954 15.80000019 -0.66000003 190 7 157 97.000000 1.000000 4.000000 1.000000 -60.708740 114.000000 141.000000 0.845851 -0.530921 0.051559
14.92000008 15.86999989 -0.63000000 190 7 157 97.000000 1.000000 4.000000 1.000000 -60.708740 114.000000 141.000000 0.747194 -0.660142 0.076896
14.86999989 15.89999962 -0.62000000 190 7 157 97.000000 1.000000 4.000000 1.000000 -60.708740 114.000000 141.000000 0.979720 -0.119238 -0.161033
14.84000015 16.02000046 -0.41000000 190 7 157 97.000000 1.000000 4.000000 1.000000 -60.708740 114.000000 141.000000 0.621917 0.781310 -0.052657
14.85000038 16.01000023 -0.38999999 190 7 157 97.000000 1.000000 4.000000 1.000000 -60.708740 114.000000 141.000000 0.605068 0.755943 0.249885
14.84000015 16.03000069 -0.38999999 190 7 157 97.000000 1.000000 4.000000 1.000000 -60.708740 114.000000 141.000000 0.820411 0.553369 0.143906
14.82999992 16.02000046 -0.41999999 190 7 157 97.000000 1.000000 4.000000 1.000000 -60.708740 114.000000 141.000000 0.297202 0.951307 0.081763
14.78999996 16.05999947 -0.44000000 190 7 157 97.000000 1.000000 4.000000 1.000000 -60.708740 114.000000 141.000000 -0.046255 0.997176 0.059164
14.81000042 16.04999924 -0.50999999 190 7 157 97.000000 1.000000 4.000000 1.000000 -60.708740 114.000000 141.000000 0.440836 0.874250 0.203348
14.78999996 15.97000027 -0.41000000 190 7 157 97.000000 1.000000 4.000000 1.000000 -60.708740 114.000000 141.000000 0.640576 0.742451 -0.196032
14.80000019 15.90999985 -0.36000001 190 7 157 97.000000 1.000000 4.000000 1.000000 -60.708740 114.000000 141.000000 -0.293906 0.953590 0.065455
14.75000000 15.90999985 -0.38999999 190 7 157 97.000000 1.000000 4.000000 1.000000 -60.708740 114.000000 141.000000 0.466666 0.824914 0.318967
14.77000046 15.90999985 -0.41000000 190 7 157 97.000000 1.000000 4.000000 1.000000 -60.708740 114.000000 141.000000 0.275482 0.959783 -0.054090
14.76000023 15.90999985 -0.40000001 190 7 157 97.000000 1.000000 4.000000 1.000000 -60.708740 114.000000 141.000000 0.435661 0.892471 0.117022
14.76000023 15.96000004 -0.37000000 190 7 157 97.000000 1.000000 4.000000 1.000000 -60.708740 114.000000 141.000000 0.926295 -0.177972 0.332121
14.72999954 15.93999958 -0.41000000 190 7 157 97.000000 1.000000 4.000000 1.000000 -60.708740 114.000000 141.000000 0.975427 0.161943 0.149390
14.75000000 15.98999977 -0.51999998 190 7 157 97.000000 1.000000 4.000000 1.000000 -60.708740 114.000000 141.000000 -0.497221 0.735093 -0.460879
14.77999973 16.03000069 -0.54000002 190 7 157 97.000000 1.000000 4.000000 1.000000 -60.708740 114.000000 141.000000 -0.139083 0.963184 0.230072
14.84000015 16.04000092 -0.54000002 190 7 157 97.000000 1.000000 4.000000 1.000000 -60.708740 114.000000 141.000000 0.745764 0.661775 0.076749
14.85000038 16.04999924 -0.69000000 190 7 157 97.000000 1.000000 4.000000 1.000000 -60.708740 114.000000 141.000000 0.229689 0.966234 0.116769
14.84000015 16.05999947 -0.69000000 190 7 157 97.000000 1.000000 4.000000 1.000000 -60.708740 114.000000 141.000000 0.373693 0.921227 0.108138
14.82999992 15.93000031 -0.66000003 190 7 157 97.000000 1.000000 4.000000 1.000000 -60.708740 114.000000 141.000000 0.926142 0.361455 0.107754
14.82999992 15.94999981 -0.63999999 190 7 157 97.000000 1.000000 4.000000 1.000000 -60.708740 114.000000 141.000000 0.773602 0.632691 -0.035228
14.80000019 15.96000004 -0.64999998 190 7 157 97.000000 1.000000 4.000000 1.000000 -60.708740 114.000000 141.000000 0.404259 0.868013 -0.288321
14.77000046 15.93000031 -0.54000002 190 7 157 97.000000 1.000000 4.000000 1.000000 -60.708740 114.000000 141.000000 0.997883 0.064007 -0.011542
14.89000034 16.10000038 -1.02999997 190 7 157 97.000000 1.000000 4.000000 1.000000 -60.708740 114.000000 141.000000 0.573356 0.802097 0.167041
14.89000034 16.03000069 -0.81999999 190 7 157 97.000000 1.000000 4.000000 1.000000 -60.708740 114.000000 141.000000 0.299782 0.945054 0.130399
14.90999985 16.00000000 -0.83999997 190 7 157 97.000000 1.000000 4.000000 1.000000 -60.708740 114.000000 141.000000 0.813176 0.569076 0.122050
14.89999962 16.04000092 -0.82999998 190 7 157 97.000000 1.000000 4.000000 1.000000 -60.708740 114.000000 141.000000 0.653637 0.743794 -0.139743
14.89999962 16.02000046 -0.81999999 190 7 157 97.000000 1.000000 4.000000 1.000000 -60.708740 114.000000 141.000000 0.783059 0.607725 -0.132243
14.92000008 16.01000023 -0.79000002 190 7 157 97.000000 1.000000 4.000000 1.000000 -60.708740 114.000000 141.000000 0.772129 0.607000 0.188063
14.89999962 16.02000046 -0.89999998 190 7 157 97.000000 1.000000 4.000000 1.000000 -60.708740 114.000000 141.000000 0.710507 0.616206 -0.339808
14.85999966 16.05999947 -0.86000001 190 7 157 97.000000 1.000000 4.000000 1.000000 -60.708740 114.000000 141.000000 0.357777 0.924143 0.133994
14.89000034 16.02000046 -0.95999998 190 7 157 97.000000 1.000000 4.000000 1.000000 -60.708740 114.000000 141.000000 0.694986 0.701069 -0.159679
14.89999962 16.02000046 -1.01999998 190 7 157 97.000000 1.000000 4.000000 1.000000 -60.708740 114.000000 141.000000 0.825618 0.562093 -0.049060
14.92000008 16.00000000 -1.00000000 190 7 157 97.000000 1.000000 4.000000 1.000000 -60.708740 114.000000 141.000000 0.888920 0.457197 -0.028156
14.93000031 15.98999977 -1.00000000 190 7 157 97.000000 1.000000 4.000000 1.000000 -60.708740 114.000000 141.000000 0.628439 0.759300 0.168902
14.90999985 15.98999977 -0.98000002 190 7 157 97.000000 1.000000 4.000000 1.000000 -60.708740 114.000000 141.000000 0.682369 0.721022 0.120418
14.98999977 15.82999992 -0.75999999 190 7 157 97.000000 1.000000 4.000000 1.000000 -60.708740 114.000000 141.000000 -0.686778 0.726264 0.029615
14.97000027 15.85000038 -0.76999998 190 7 157 97.000000 1.000000 4.000000 1.000000 -60.708740 114.000000 141.000000 0.931607 -0.360916 0.042997
14.98999977 15.85000038 -0.80000001 190 7 157 97.000000 1.000000 4.000000 1.000000 -60.708740 114.000000 141.000000 0.992219 -0.083351 -0.092485
15.00000000 15.85999966 -0.79000002 190 7 157 97.000000 1.000000 4.000000 1.000000 -60.708740 114.000000 141.000000 0.848558 -0.308707 0.429708
14.97999954 15.80000019 -0.82999998 190 7 157 97.000000 1.000000 4.000000 1.000000 -60.708740 114.000000 141.000000 -0.563410 0.801600 -0.200018
14.93000031 15.82999992 -0.70999998 190 7 157 97.000000 1.000000 4.000000 1.000000 -60.708740 114.000000 141.000000 -0.704203 0.701238 -0.111190
14.98999977 15.85000038 -0.86000001 190 7 157 97.000000 1.000000 4.000000 1.000000 -60.708740 114.000000 141.000000 0.976071 -0.008222 0.217296
14.97000027 15.82999992 -0.88000000 190 7 157 97.000000 1.000000 4.000000 1.000000 -60.708740 114.000000 141.000000 0.905333 -0.301778 0.298834
14.96000004 15.88000011 -0.93000001 190 7 157 97.000000 1.000000 4.000000 1.000000 -60.708740 114.000000 141.000000 0.977023 -0.117938 0.177528
14.89000034 15.89000034 -0.95999998 190 7 157 97.000000 1.000000 4.000000 1.000000 -60.708740 114.000000 141.000000 0.953712 -0.001227 -0.300720
14.84000015 16.05999947 -0.69999999 190 7 157 97.000000 1.000000 4.000000 1.000000 -60.708740 114.000000 141.000000 0.437835 0.898432 -0.033474
14.84000015 16.05999947 -0.73000002 190 7 157 97.000000 1.000000 4.000000 1.000000 -60.708740 114.000000 141.000000 0.206570 0.965294 0.159800
14.80000019 16.01000023 -0.76999998 190 7 157 97.000000 1.000000 4.000000 1.000000 -60.708740 114.000000 141.000000 0.009010 0.922925 -0.384874
14.85000038 16.04999924 -0.81000000 190 7 157 97.000000 1.000000 4.000000 1.000000 -60.708740 114.000000 141.000000 0.135165 0.959279 0.248021
14.81999969 16.00000000 -0.80000001 190 7 157 97.000000 1.000000 4.000000 1.000000 -60.708740 114.000000 141.000000 0.515897 0.815149 -0.263404
14.85000038 16.03000069 -0.89999998 190 7 157 97.000000 1.000000 4.000000 1.000000 -60.708740 114.000000 141.000000 0.323060 0.907783 0.267511
14.77999973 16.02000046 -0.88000000 190 7 157 97.000000 1.000000 4.000000 1.000000 -60.708740 114.000000 141.000000 0.116327 0.967690 -0.223706
14.81999969 15.90999985 -0.91000003 190 7 157 97.000000 1.000000 4.000000 1.000000 -60.708740 114.000000 141.000000 0.673418 0.716370 -0.182544
14.88000011 16.04000092 -1.08000004 190 7 157 97.000000 1.000000 4.000000 1.000000 -60.708740 114.000000 141.000000 0.609810 0.788572 -0.079290
14.88000011 16.02000046 -1.04999995 190 7 157 97.000000 1.000000 4.000000 1.000000 -60.708740 114.000000 141.000000 0.292807 0.929344 0.224910
14.92000008 16.01000023 -1.09000003 190 7 157 97.000000 1.000000 4.000000 1.000000 -60.708740 114.000000 141.000000 0.843168 0.521683 0.130055
14.94999981 15.85000038 -1.03999996 190 7 157 97.000000 1.000000 4.000000 1.000000 -60.708740 114.000000 141.000000 0.932835 -0.354926 0.062013
14.97999954 15.82999992 -1.17999995 190 7 157 97.000000 1.000000 4.000000 1.000000 -60.708740 114.000000 141.000000 0.988727 0.113768 0.097348
14.97999954 15.81999969 -1.10000002 190 7 157 97.000000 1.000000 4.000000 1.000000 -60.708740 114.000000 141.000000 0.801945 -0.333214 0.495835
14.85999966 15.89999962 -1.17999995 190 7 157 97.000000 1.000000 4.000000 1.000000 -60.708740 114.000000 141.000000 0.706122 0.703210 0.082988
14.88000011 15.89000034 -1.16999996 190 7 157 97.000000 1.000000 4.000000 1.000000 -60.708740 114.000000 141.000000 0.887928 0.288989 -0.357867
14.97999954 15.81999969 -1.21000004 190 7 157 97.000000 1.000000 4.000000 1.000000 -60.708740 114.000000 141.000000 0.997549 0.068614 -0.013723
14.84000015 15.90999985 -1.05999994 190 7 157 97.000000 1.000000 4.000000 1.000000 -60.708740 114.000000 141.000000 0.367278 0.881164 -0.297752
14.82999992 15.90999985 -1.05999994 190 7 157 97.000000 1.000000 4.000000 1.000000 -60.708740 114.000000 141.000000 0.606615 0.794343 -0.032222
14.85000038 16.04999924 -1.21000004 190 7 157 97.000000 1.000000 4.000000 1.000000 -60.708740 114.000000 141.000000 0.408530 0.831256 -0.376983
14.85000038 15.89000034 -1.13000000 190 7 157 97.000000 1.000000 4.000000 1.000000 -60.708740 114.000000 141.000000 0.685658 0.718379 0.117499
14.85000038 15.89000034 -1.13000000 190 7 157 97.000000 1.000000 4.000000 1.000000 -60.708740 114.000000 141.000000 0.685658 0.718379 0.117499
14.96000004 15.68000031 -0.25999999 190 7 157 97.000000 1.000000 4.000000 1.000000 -60.708740 114.000000 141.000000 -0.200577 0.979424 -0.022286
14.90999985 15.71000004 -0.75000000 190 7 157 97.000000 1.000000 4.000000 1.000000 -60.708740 114.000000 141.000000 -0.458306 0.888714 0.011956
14.72999954 16.02000046 0.58999997 190 7 157 97.000000 1.000000 4.000000 1.000000 -60.708740 114.000000 141.000000 0.083177 0.994800 -0.058779
14.72000027 15.98999977 0.58999997 190 7 157 97.000000 1.000000 4.000000 1.000000 -60.708740 114.000000 141.000000 -0.059576 0.998158 0.011497
14.73999977 15.98999977 0.61000001 190 7 157 97.000000 1.000000 4.000000 1.000000 -60.708740 114.000000 141.000000 -0.141209 0.915760 -0.376091
14.72999954 15.98999977 0.64999998 190 7 157 97.000000 1.000000 4.000000 1.000000 -60.708740 114.000000 141.000000 0.172722 0.984858 -0.014870
14.71000004 15.92000008 0.54000002 190 7 157 97.000000 1.000000 4.000000 1.000000 -60.708740 114.000000 141.000000 0.062007 0.993244 -0.098084
14.73999977 16.00000000 0.33000001 190 7 157 97.000000 1.000000 4.000000 1.000000 -60.708740 114.000000 141.000000 -0.220022 0.845187 -0.487083
14.72999954 15.97999954 0.46000001 190 7 157 97.000000 1.000000 4.000000 1.000000 -60.708740 114.000000 141.000000 -0.159912 0.970983 0.177822
14.72000027 15.97999954 0.44000000 190 7 157 97.000000 1.000000 4.000000 1.000000 -60.708740 114.000000 141.000000 0.324797 0.883751 -0.336883
14.76000023 15.97999954 0.38999999 190 7 157 97.000000 1.000000 4.000000 1.000000 -60.708740 114.000000 141.000000 -0.281378 0.919167 -0.275606
14.71000004 15.89000034 0.54000002 190 7 157 97.000000 1.000000 4.000000 1.000000 -60.708740 114.000000 141.000000 0.233129 0.964717 -0.122361
14.77999973 15.88000011 0.54000002 190 7 157 97.000000 1.000000 4.000000 1.000000 -60.708740 114.000000 141.000000 -0.221879 0.957934 -0.182021
14.75000000 15.89000034 0.50999999 190 7 157 97.000000 1.000000 4.000000 1.000000 -60.708740 114.000000 141.000000 0.071360 0.967743 -0.241623
14.69999981 15.89999962 0.50000000 190 7 157 97.000000 1.000000 4.000000 1.000000 -60.708740 114.000000 141.000000 0.245797 0.961078 0.126150
14.81000042 15.88000011 0.43000001 190 7 157 97.000000 1.000000 4.000000 1.000000 -60.708740 114.000000 141.000000 -0.263103 0.932820 0.246219
14.73999977 15.89000034 0.34000000 190 7 157 97.000000 1.000000 4.000000 1.000000 -60.708740 114.000000 141.000000 0.303720 0.941124 -0.148455
14.78999996 15.88000011 0.44000000 190 7 157 97.000000 1.000000 4.000000 1.000000 -60.708740 114.000000 141.000000 -0.391720 0.919289 0.038249
14.77000046 15.86999989 0.47999999 190 7 157 97.000000 1.000000 4.000000 1.000000 -60.708740 114.000000 141.000000 -0.073082 0.972367 0.221724
14.77000046 15.98999977 0.30000001 190 7 157 97.000000 1.000000 4.000000 1.000000 -60.708740 114.000000 141.000000 0.736494 -0.665076 -0.123493
14.76000023 15.98999977 0.30000001 190 7 157 97.000000 1.000000 4.000000 1.000000 -60.708740 114.000000 141.000000 -0.066889 0.962952 -0.261246
14.76000023 15.90999985 0.22000000 190 7 157 97.000000 1.000000 4.000000 1.000000 -60.708740 114.000000 141.000000 -0.241796 0.957933 -0.154591
14.81999969 16.02000046 0.07000000 190 7 157 97.000000 1.000000 4.000000 1.000000 -60.708740 114.000000 141.000000 0.900223 0.359795 0.245248
14.81000042 16.01000023 0.12000000 190 7 157 97.000000 1.000000 4.000000 1.000000 -60.708740 114.000000 141.000000 0.996566 0.076659 0.031311
14.78999996 16.02000046 0.04000000 190 7 157 97.000000 1.000000 4.000000 1.000000 -60.708740 114.000000 141.000000 0.875414 0.445799 -0.186853
14.81000042 15.93000031 0.08000000 190 7 157 97.000000 1.000000 4.000000 1.000000 -60.708740 114.000000 141.000000 0.822291 -0.473250 0.316024
14.81000042 15.90999985 0.02000000 190 7 157 97.000000 1.000000 4.000000 1.000000 -60.708740 114.000000 141.000000 -0.369573 0.923249 0.105008
14.84000015 15.93999958 -0.02000000 190 7 157 97.000000 1.000000 4.000000 1.000000 -60.708740 114.000000 141.000000 -0.666296 0.710193 -0.227324
14.81000042 15.90999985 0.05000000 190 7 157 97.000000 1.000000 4.000000 1.000000 -60.708740 114.000000 141.000000 0.715694 -0.679225 -0.162589
14.69999981 15.94999981 0.14000000 190 7 157 97.000000 1.000000 4.000000 1.000000 -60.708740 114.000000 141.000000 0.795875 0.599434 -0.085221
14.73999977 15.98999977 0.04000000 190 7 157 97.000000 1.000000 4.000000 1.000000 -60.708740 114.000000 141.000000 0.846549 0.466903 -0.255649
14.72999954 15.89999962 0.18000001 190 7 157 97.000000 1.000000 4.000000 1.000000 -60.708740 114.000000 141.000000 0.123583 0.992004 0.025607
14.76000023 15.86999989 0.27000001 190 7 157 97.000000 1.000000 4.000000 1.000000 -60.708740 114.000000 141.000000 -0.240289 0.934458 -0.262772
14.77999973 15.88000011 0.27000001 190 7 157 97.000000 1.000000 4.000000 1.000000 -60.708740 114.000000 141.000000 -0.311253 0.928126 0.204216
14.78999996 15.88000011 0.22000000 190 7 157 97.000000 1.000000 4.000000 1.000000 -60.708740 114.000000 141.000000 -0.628855 0.733401 -0.258195
14.77000046 15.86999989 0.25999999 190 7 157 97.000000 1.000000 4.000000 1.000000 -60.708740 114.000000 141.000000 -0.050648 0.882920 -0.466784
14.72000027 15.89999962 0.20999999 190 7 157 97.000000 1.000000 4.000000 1.000000 -60.708740 114.000000 141.000000 0.070184 0.958330 0.276908
14.72000027 15.89999962 0.03000000 190 7 157 97.000000 1.000000 4.000000 1.000000 -60.708740 114.000000 141.000000 0.668659 0.738585 -0.085950
14.67000008 15.96000004 0.54000002 190 7 157 97.000000 1.000000 4.000000 1.000000 -60.708740 114.000000 141.000000 0.693833 0.719269 -0.035328
14.68999958 15.97000027 0.13000000 190 7 157 97.000000 1.000000 4.000000 1.000000 -60.708740 114.000000 141.000000 0.977044 0.204610 -0.059325
15.02999973 15.89999962 -0.47000000 190 7 157 97.000000 1.000000 4.000000 1.000000 -60.708740 114.000000 141.000000 0.844691 -0.529529 -0.078081
15.02999973 15.86999989 -0.63000000 190 7 157 97.000000 1.000000 4.000000 1.000000 -60.708740 114.000000 141.000000 0.966968 -0.116548 0.226693
15.07999992 15.76000023 -0.61000001 190 7 157 97.000000 1.000000 4.000000 1.000000 -60.708740 114.000000 141.000000 0.778179 -0.610248 -0.148439
15.07999992 15.78999996 -0.69999999 190 7 157 97.000000 1.000000 4.000000 1.000000 -60.708740 114.000000 141.000000 0.866779 -0.435651 -0.242698
14.85999966 15.97999954 -0.25000000 190 7 157 97.000000 1.000000 4.000000 1.000000 -60.708740 114.000000 141.000000 0.940613 0.320694 -0.111371
14.86999989 16.01000023 -0.34000000 190 7 157 97.000000 1.000000 4.000000 1.000000 -60.708740 114.000000 141.000000 0.741051 0.671273 0.015351
14.81000042 16.03000069 -0.03000000 190 7 157 97.000000 1.000000 4.000000 1.000000 -60.708740 114.000000 141.000000 0.592178 0.795970 0.125524
14.77999973 15.97999954 -0.18000001 190 7 157 97.000000 1.000000 4.000000 1.000000 -60.708740 114.000000 141.000000 0.966293 0.124807 -0.225168
14.85000038 15.98999977 -0.15000001 190 7 157 97.000000 1.000000 4.000000 1.000000 -60.708740 114.000000 141.000000 0.986258 0.162266 0.031072
14.75000000 16.03000069 -0.16000000 190 7 157 97.000000 1.000000 4.000000 1.000000 -60.708740 114.000000 141.000000 -0.278795 0.954186 0.108638
14.76000023 15.92000008 -0.17000000 190 7 157 97.000000 1.000000 4.000000 1.000000 -60.708740 114.000000 141.000000 0.328180 0.944608 0.003743
14.72999954 15.92000008 -0.16000000 190 7 157 97.000000 1.000000 4.000000 1.000000 -60.708740 114.000000 141.000000 0.361861 0.896530 -0.255519
14.80000019 16.03000069 -0.20000000 190 7 157 97.000000 1.000000 4.000000 1.000000 -60.708740 114.000000 141.000000 0.360417 0.911812 0.196722
14.77999973 16.03000069 -0.20999999 190 7 157 97.000000 1.000000 4.000000 1.000000 -60.708740 114.000000 141.000000 0.477387 0.820853 -0.313531
14.82999992 16.02000046 -0.22000000 190 7 157 97.000000 1.000000 4.000000 1.000000 -60.708740 114.000000 141.000000 0.609608 0.776003 -0.161856
14.85000038 16.02000046 -0.28000000 190 7 157 97.000000 1.000000 4.000000 1.000000 -60.708740 114.000000 141.000000 0.830141 0.537150 0.149455
14.85000038 15.98999977 -0.20000000 190 7 157 97.000000 1.000000 4.000000 1.000000 -60.708740 114.000000 141.000000 0.888748 0.402368 -0.219608
14.85000038 15.97000027 -0.20999999 190 7 157 97.000000 1.000000 4.000000 1.000000 -60.708740 114.000000 141.000000 0.984525 0.166249 0.055416
14.85000038 15.93000031 -0.23000000 190 7 157 97.000000 1.000000 4.000000 1.000000 -60.708740 114.000000 141.000000 0.814789 -0.330662 0.476216
14.80000019 15.96000004 -0.34000000 190 7 157 97.000000 1.000000 4.000000 1.000000 -60.708740 114.000000 141.000000 0.948410 -0.189138 0.254451
14.76000023 16.01000023 -0.28000000 190 7 157 97.000000 1.000000 4.000000 1.000000 -60.708740 114.000000 141.000000 -0.527016 0.814480 -0.242644
14.72999954 15.89999962 -0.09000000 190 7 157 97.000000 1.000000 4.000000 1.000000 -60.708740 114.000000 141.000000 0.610731 0.782268 0.122738
14.76000023 15.88000011 -0.22000000 190 7 157 97.000000 1.000000 4.000000 1.000000 -60.708740 114.000000 141.000000 -0.165311 0.986241 0.001125
14.88000011 15.97999954 -0.38999999 190 7 157 97.000000 1.000000 4.000000 1.000000 -60.708740 114.000000 141.000000 0.891228 0.276176 0.359776
14.85999966 16.03000069 -0.47999999 190 7 157 97.000000 1.000000 4.000000 1.000000 -60.708740 114.000000 141.000000 0.589187 0.757526 -0.281094
14.88000011 15.93999958 -0.40000001 190 7 157 97.000000 1.000000 4.000000 1.000000 -60.708740 114.000000 141.000000 0.924375 0.223616 0.309074
14.89000034 15.94999981 -0.52999997 190 7 157 97.000000 1.000000 4.000000 1.000000 -60.708740 114.000000 141.000000 0.981784 -0.189911 0.005755
14.89999962 16.00000000 -0.60000002 190 7 157 97.000000 1.000000 4.000000 1.000000 -60.708740 114.000000 141.000000 0.837662 0.543991 -0.048945
14.89000034 16.02000046 -0.64999998 190 7 157 97.000000 1.000000 4.000000 1.000000 -60.708740 114.000000 141.000000 0.458234 0.888082 0.036497
14.89000034 16.03000069 -0.67000002 190 7 157 97.000000 1.000000 4.000000 1.000000 -60.708740 114.000000 141.000000 0.535711 0.842234 0.060461
14.90999985 16.01000023 -0.62000000 190 7 157 97.000000 1.000000 4.000000 1.000000 -60.708740 114.000000 141.000000 0.937573 0.247318 -0.244523
14.96000004 15.81999969 -0.62000000 190 7 157 97.000000 1.000000 4.000000 1.000000 -60.708740 114.000000 141.000000 0.803281 -0.526613 0.278240
14.84000015 16.02000046 -0.41000000 190 7 157 97.000000 1.000000 4.000000 1.000000 -60.708740 114.000000 141.000000 0.621917 0.781310 -0.052657
14.84000015 16.01000023 -0.40000001 190 7 157 97.000000 1.000000 4.000000 1.000000 -60.708740 114.000000 141.000000 0.684918 0.727459 0.041123
14.84000015 16.02000046 -0.37000000 190 7 157 97.000000 1.000000 4.000000 1.000000 -60.708740 114.000000 141.000000 0.871910 0.458669 0.171451
14.85000038 16.01000023 -0.43000001 190 7 157 97.000000 1.000000 4.000000 1.000000 -60.708740 114.000000 141.000000 0.649788 0.694934 0.307964
14.85000038 16.02000046 -0.44999999 190 7 157 97.000000 1.000000 4.000000 1.000000 -60.708740 114.000000 141.000000 0.621660 0.782362 0.038061
14.85000038 16.04000092 -0.47999999 190 7 157 97.000000 1.000000 4.000000 1.000000 -60.708740 114.000000 141.000000 0.535167 0.844497 -0.020531
14.77999973 15.92000008 -0.46000001 190 7 157 97.000000 1.000000 4.000000 1.000000 -60.708740 114.000000 141.000000 0.298955 0.952841 -0.052158
14.77999973 15.93999958 -0.47999999 190 7 157 97.000000 1.000000 4.000000 1.000000 -60.708740 114.000000 141.000000 0.788791 0.611277 0.064420
14.76000023 16.02000046 -0.38999999 190 7 157 97.000000 1.000000 4.000000 1.000000 -60.708740 114.000000 141.000000 0.001184 0.970072 -0.242814
14.75000000 15.96000004 -0.38999999 190 7 157 97.000000 1.000000 4.000000 1.000000 -60.708740 114.000000 141.000000 0.981649 0.093433 0.166237
14.76000023 15.96000004 -0.40000001 190 7 157 97.000000 1.000000 4.000000 1.000000 -60.708740 114.000000 141.000000 0.991390 -0.053496 0.119513
14.85000038 16.04999924 -0.57999998 190 7 157 97.000000 1.000000 4.000000 1.000000 -60.708740 114.000000 141.000000 0.531046 0.824559 -0.195171
14.81000042 16.05999947 -0.60000002 190 7 157 97.000000 1.000000 4.000000 1.000000 -60.708740 114.000000 141.000000 0.260910 0.954905 -0.141713
14.82999992 16.05999947 -0.63000000 190 7 157 97.000000 1.000000 4.000000 1.000000 -60.708740 114.000000 141.000000 0.537009 0.840227 -0.075096
14.78999996 15.89000034 -0.36000001 190 7 157 97.000000 1.000000 4.000000 1.000000 -60.708740 114.000000 141.000000 0.088375 0.943108 -0.320525
14.85000038 15.89999962 -0.36000001 190 7 157 97.000000 1.000000 4.000000 1.000000 -60.708740 114.000000 141.000000 -0.485019 0.839985 -0.243274
14.80000019 15.89999962 -0.49000001 190 7 157 97.000000 1.000000 4.000000 1.000000 -60.708740 114.000000 141.000000 -0.065688 0.997835 0.003128
14.89999962 16.07999992 -1.13000000 190 7 157 97.000000 1.000000 4.000000 1.000000 -60.708740 114.000000 141.000000 0.521768 0.847694 0.095777
14.90999985 16.09000015 -1.07000005 190 7 157 97.000000 1.000000 4.000000 1.000000 -60.708740 114.000000 141.000000 0.421405 0.779354 -0.463708
14.85999966 15.92000008 -0.74000001 190 7 157 97.000000 1.000000 4.000000 1.000000 -60.708740 114.000000 141.000000 0.944944 0.261951 0.196120
14.89999962 15.93000031 -0.79000002 190 7 157 97.000000 1.000000 4.000000 1.000000 -60.708740 114.000000 141.000000 0.912640 0.354995 0.202649
14.88000011 16.03000069 -0.75999999 190 7 157 97.000000 1.000000 4.000000 1.000000 -60.708740 114.000000 141.000000 0.484437 0.854099 0.189303
14.92000008 16.01000023 -0.74000001 190 7 157 97.000000 1.000000 4.000000 1.000000 -60.708740 114.000000 141.000000 0.896139 0.440613 -0.052874
14.89000034 16.02000046 -0.92000002 190 7 157 97.000000 1.000000 4.000000 1.000000 -60.708740 114.000000 141.000000 0.540911 0.813664 -0.212993
14.88000011 16.03000069 -0.93000001 190 7 157 97.000000 1.000000 4.000000 1.000000 -60.708740 114.000000 141.000000 0.471198 0.871788 0.134010
14.88000011 16.03000069 -0.97000003 190 7 157 97.000000 1.000000 4.000000 1.000000 -60.708740 114.000000 141.000000 0.419223 0.846239 0.328833
14.90999985 16.00000000 -0.98000002 190 7 157 97.000000 1.000000 4.000000 1.000000 -60.708740 114.000000 141.000000 0.794319 0.566049 0.220558
14.90999985 15.98999977 -0.88999999 190 7 157 97.000000 1.000000 4.000000 1.000000 -60.708740 114.000000 141.000000 0.920694 0.346498 -0.179613
14.92000008 15.93000031 -0.89999998 190 7 157 97.000000 1.000000 4.000000 1.000000 -60.708740 114.000000 141.000000 0.998649 -0.011384 0.050709
14.93999958 15.98999977 -1.00000000 190 7 157 97.000000 1.000000 4.000000 1.000000 -60.708740 114.000000 141.000000 0.676427 0.698400 0.233846
14.92000008 15.98999977 -0.95999998 190 7 157 97.000000 1.000000 4.000000 1.000000 -60.708740 114.000000 141.000000 0.891151 0.391634 -0.229069
15.00000000 15.85000038 -0.80000001 190 7 157 97.000000 1.000000 4.000000 1.000000 -60.708740 114.000000 141.000000 0.848543 -0.523809 -0.074830
15.00000000 15.86999989 -0.92000002 190 7 157 97.000000 1.000000 4.000000 1.000000 -60.708740 114.000000 141.000000 0.934544 -0.037589 0.353856
14.81999969 15.90999985 -0.86000001 190 7 157 97.000000 1.000000 4.000000 1.000000 -60.708740 114.000000 141.000000 0.879719 0.343711 -0.328570
14.81999969 15.89999962 -0.99000001 190 7 157 97.000000 1.000000 4.000000 1.000000 -60.708740 114.000000 141.000000 0.589395 0.741184 0.321341
14.93000031 15.90999985 -1.03999996 190 7 157 97.000000 1.000000 4.000000 1.000000 -60.708740 114.000000 141.000000 0.981470 -0.168633 0.090989
14.92000008 16.01000023 -1.03999996 190 7 157 97.000000 1.000000 4.000000 1.000000 -60.708740 114.000000 141.000000 0.673154 0.739501 -0.001382
14.89999962 16.02000046 -1.04999995 190 7 157 97.000000 1.000000 4.000000 1.000000 -60.708740 114.000000 141.000000 0.744341 0.658512 0.110985
