//X Y Z R G B PointSourceId ScanDirectionFlag NumberOfReturns ReturnNumber GpsTime Intensity Classification Nx Ny Nz
8.14000034 11.60999966 -0.23000000 152 73 143 97.000000 1.000000 4.000000 1.000000 -60.708740 114.000000 98.000000 0.261626 -0.651686 -0.711939
8.13000011 11.56000042 -0.19000000 152 73 143 97.000000 1.000000 4.000000 1.000000 -60.708740 114.000000 98.000000 -0.221955 0.777618 0.588258
8.09000015 11.60999966 -0.20999999 152 73 143 97.000000 1.000000 4.000000 1.000000 -60.708740 114.000000 98.000000 0.284974 0.094991 0.953817
8.10000038 11.60000038 -0.20999999 152 73 143 97.000000 1.000000 4.000000 1.000000 -60.708740 114.000000 98.000000 0.087785 0.056671 0.994526
8.10000038 11.60000038 -0.25999999 152 73 143 97.000000 1.000000 4.000000 1.000000 -60.708740 114.000000 98.000000 0.209330 0.222836 0.952116
8.10000038 11.61999989 -0.23000000 152 73 143 97.000000 1.000000 4.000000 1.000000 -60.708740 114.000000 98.000000 -0.111736 0.382109 0.917337
8.05000019 11.68000031 -0.22000000 152 73 143 97.000000 1.000000 4.000000 1.000000 -60.708740 114.000000 98.000000 -0.031120 0.287551 0.957260
8.03999996 11.67000008 -0.25000000 152 73 143 97.000000 1.000000 4.000000 1.000000 -60.708740 114.000000 98.000000 0.445866 0.199973 0.872476
8.03999996 11.65999985 -0.20999999 152 73 143 97.000000 1.000000 4.000000 1.000000 -60.708740 114.000000 98.000000 -0.199666 -0.001154 0.979863
8.02999973 11.65999985 -0.20999999 152 73 143 97.000000 1.000000 4.000000 1.000000 -60.708740 114.000000 98.000000 -0.176425 0.221526 0.959062
8.03999996 11.64999962 -0.20000000 152 73 143 97.000000 1.000000 4.000000 1.000000 -60.708740 114.000000 98.000000 -0.190148 0.211424 0.958720
8.02999973 11.63000011 -0.20000000 152 73 143 97.000000 1.000000 4.000000 1.000000 -60.708740 114.000000 98.000000 0.194515 0.081965 0.977469
8.03999996 11.64999962 -0.25000000 152 73 143 97.000000 1.000000 4.000000 1.000000 -60.708740 114.000000 98.000000 0.048512 0.057136 0.997187
8.01000023 11.64999962 -0.20999999 152 73 143 97.000000 1.000000 4.000000 1.000000 -60.708740 114.000000 98.000000 0.373569 -0.040634 0.926712
7.98999977 11.64000034 -0.22000000 152 73 143 97.000000 1.000000 4.000000 1.000000 -60.708740 114.000000 98.000000 0.114459 0.381990 0.917051
8.02000046 11.68999958 -0.28999999 152 73 143 97.000000 1.000000 4.000000 1.000000 -60.708740 114.000000 98.000000 0.390303 -0.027413 0.920278
8.02999973 11.71000004 -0.28999999 152 73 143 97.000000 1.000000 4.000000 1.000000 -60.708740 114.000000 98.000000 0.039557 -0.209774 0.976949
8.02000046 11.71000004 -0.28999999 152 73 143 97.000000 1.000000 4.000000 1.000000 -60.708740 114.000000 98.000000 -0.026602 -0.174647 0.984272
8.02000046 11.69999981 -0.28999999 152 73 143 97.000000 1.000000 4.000000 1.000000 -60.708740 114.000000 98.000000 -0.081382 0.005285 0.996669
8.02000046 11.68999958 -0.28999999 152 73 143 97.000000 1.000000 4.000000 1.000000 -60.708740 114.000000 98.000000 0.390303 -0.027413 0.920278
8.02000046 11.71000004 -0.28999999 152 73 143 97.000000 1.000000 4.000000 1.000000 -60.708740 114.000000 98.000000 -0.026602 -0.174647 0.984272
8.02999973 11.69999981 -0.28999999 152 73 143 97.000000 1.000000 4.000000 1.000000 -60.708740 114.000000 98.000000 -0.024099 -0.166398 0.985764
8.02999973 11.65999985 -0.28000000 152 73 143 97.000000 1.000000 4.000000 1.000000 -60.708740 114.000000 98.000000 -0.173488 -0.070592 0.982303
8.02999973 11.64999962 -0.31999999 152 73 143 97.000000 1.000000 4.000000 1.000000 -60.708740 114.000000 98.000000 0.243130 0.111917 0.963516
8.05000019 11.65999985 -0.31999999 152 73 143 97.000000 1.000000 4.000000 1.000000 -60.708740 114.000000 98.000000 -0.086055 0.268439 0.959445
8.01000023 11.67000008 -0.28000000 152 73 143 97.000000 1.000000 4.000000 1.000000 -60.708740 114.000000 98.000000 0.044014 -0.059043 0.997285
7.98999977 11.68000031 -0.28000000 152 73 143 97.000000 1.000000 4.000000 1.000000 -60.708740 114.000000 98.000000 -0.113210 -0.182878 0.976596
8.01000023 11.68999958 -0.28999999 152 73 143 97.000000 1.000000 4.000000 1.000000 -60.708740 114.000000 98.000000 -0.005991 0.255196 0.966871
8.01000023 11.64999962 -0.28000000 152 73 143 97.000000 1.000000 4.000000 1.000000 -60.708740 114.000000 98.000000 0.104289 -0.297024 0.949158
8.01000023 11.63000011 -0.28999999 152 73 143 97.000000 1.000000 4.000000 1.000000 -60.708740 114.000000 98.000000 0.468555 0.115359 0.875870
8.03999996 11.60000038 -0.20999999 152 73 143 97.000000 1.000000 4.000000 1.000000 -60.708740 114.000000 98.000000 -0.115666 0.253425 0.960415
8.02999973 11.61999989 -0.20000000 152 73 143 97.000000 1.000000 4.000000 1.000000 -60.708740 114.000000 98.000000 0.149594 -0.012372 0.988670
8.06000042 11.61999989 -0.22000000 152 73 143 97.000000 1.000000 4.000000 1.000000 -60.708740 114.000000 98.000000 0.386910 0.328334 0.861683
8.03999996 11.61999989 -0.25999999 152 73 143 97.000000 1.000000 4.000000 1.000000 -60.708740 114.000000 98.000000 0.051860 -0.034926 0.998043
8.03999996 11.61999989 -0.25999999 152 73 143 97.000000 1.000000 4.000000 1.000000 -60.708740 114.000000 98.000000 0.051860 -0.034926 0.998043
8.06000042 11.57999992 -0.20000000 152 73 143 97.000000 1.000000 4.000000 1.000000 -60.708740 114.000000 98.000000 0.324868 0.105615 0.939844
7.98999977 11.57999992 -0.19000000 152 73 143 97.000000 1.000000 4.000000 1.000000 -60.708740 114.000000 98.000000 -0.200909 0.250111 0.947143
8.00000000 11.56999969 -0.23000000 152 73 143 97.000000 1.000000 4.000000 1.000000 -60.708740 114.000000 98.000000 0.130172 0.296578 0.946096
8.03999996 11.60999966 -0.31000000 152 73 143 97.000000 1.000000 4.000000 1.000000 -60.708740 114.000000 98.000000 0.379346 0.163389 0.910714
8.03999996 11.61999989 -0.31999999 152 73 143 97.000000 1.000000 4.000000 1.000000 -60.708740 114.000000 98.000000 0.376383 0.029954 0.925980
8.06000042 11.61999989 -0.31000000 152 73 143 97.000000 1.000000 4.000000 1.000000 -60.708740 114.000000 98.000000 -0.235744 0.134152 0.962511
8.11999989 11.48999977 -0.04000000 152 73 143 97.000000 1.000000 4.000000 1.000000 -60.708740 114.000000 98.000000 -0.456522 0.880129 -0.130231
8.13000011 11.48999977 -0.09000000 152 73 143 97.000000 1.000000 4.000000 1.000000 -60.708740 114.000000 98.000000 -0.159149 0.662362 0.732085
8.09000015 11.46000004 -0.03000000 152 73 143 97.000000 1.000000 4.000000 1.000000 -60.708740 114.000000 98.000000 0.651249 -0.726212 -0.220206
8.06999969 11.47000027 -0.10000000 152 73 143 97.000000 1.000000 4.000000 1.000000 -60.708740 114.000000 98.000000 -0.081096 0.843683 0.530681
8.09000015 11.47999954 -0.10000000 152 73 143 97.000000 1.000000 4.000000 1.000000 -60.708740 114.000000 98.000000 0.281621 -0.587107 -0.758943
8.06999969 11.47999954 -0.10000000 152 73 143 97.000000 1.000000 4.000000 1.000000 -60.708740 114.000000 98.000000 -0.233805 0.670031 0.704552
8.11999989 11.50000000 -0.11000000 152 73 143 97.000000 1.000000 4.000000 1.000000 -60.708740 114.000000 98.000000 0.020823 0.598314 0.800991
8.13000011 11.50000000 -0.11000000 152 73 143 97.000000 1.000000 4.000000 1.000000 -60.708740 114.000000 98.000000 0.246101 -0.597226 -0.763384
8.07999992 11.48999977 -0.11000000 152 73 143 97.000000 1.000000 4.000000 1.000000 -60.708740 114.000000 98.000000 -0.014696 0.883107 0.468942
8.07999992 11.46000004 -0.13000000 152 73 143 97.000000 1.000000 4.000000 1.000000 -60.708740 114.000000 98.000000 -0.120891 0.537454 0.834583
8.09000015 11.50000000 -0.16000000 152 73 143 97.000000 1.000000 4.000000 1.000000 -60.708740 114.000000 98.000000 -0.295395 0.589193 0.752059
8.06999969 11.48999977 -0.15000001 152 73 143 97.000000 1.000000 4.000000 1.000000 -60.708740 114.000000 98.000000 -0.552285 0.663077 0.505282
8.10999966 11.43000031 -0.08000000 152 73 143 97.000000 1.000000 4.000000 1.000000 -60.708740 114.000000 98.000000 -0.390864 0.707513 0.588770
8.13000011 11.40999985 -0.05000000 152 73 143 97.000000 1.000000 4.000000 1.000000 -60.708740 114.000000 98.000000 -0.475495 0.872456 0.112805
8.11999989 11.40999985 -0.04000000 152 73 143 97.000000 1.000000 4.000000 1.000000 -60.708740 114.000000 98.000000 -0.111619 0.993736 0.005418
8.10999966 11.38000011 -0.08000000 152 73 143 97.000000 1.000000 4.000000 1.000000 -60.708740 114.000000 98.000000 -0.492152 0.839554 0.230077
8.10999966 11.40999985 -0.10000000 152 73 143 97.000000 1.000000 4.000000 1.000000 -60.708740 114.000000 98.000000 -0.202282 0.881476 0.426711
8.09000015 11.42000008 -0.09000000 152 73 143 97.000000 1.000000 4.000000 1.000000 -60.708740 114.000000 98.000000 -0.504878 0.763036 0.403576
8.07999992 11.44999981 -0.10000000 152 73 143 97.000000 1.000000 4.000000 1.000000 -60.708740 114.000000 98.000000 0.480317 -0.805847 -0.346275
8.06999969 11.43999958 -0.10000000 152 73 143 97.000000 1.000000 4.000000 1.000000 -60.708740 114.000000 98.000000 -0.110151 0.612439 0.782806
8.07999992 11.44999981 -0.08000000 152 73 143 97.000000 1.000000 4.000000 1.000000 -60.708740 114.000000 98.000000 -0.100720 0.953565 0.283846
8.09000015 11.42000008 -0.08000000 152 73 143 97.000000 1.000000 4.000000 1.000000 -60.708740 114.000000 98.000000 -0.279171 0.879767 0.384804
8.06999969 11.38000011 -0.07000000 152 73 143 97.000000 1.000000 4.000000 1.000000 -60.708740 114.000000 98.000000 -0.391756 0.835431 0.385463
8.07999992 11.39000034 -0.09000000 152 73 143 97.000000 1.000000 4.000000 1.000000 -60.708740 114.000000 98.000000 -0.391286 0.698371 0.599311
8.06999969 11.43999958 -0.12000000 152 73 143 97.000000 1.000000 4.000000 1.000000 -60.708740 114.000000 98.000000 -0.435900 0.646334 0.626293
8.05000019 11.52000046 -0.10000000 152 73 143 97.000000 1.000000 4.000000 1.000000 -60.708740 114.000000 98.000000 -0.311426 0.541402 0.780960
8.05000019 11.47000027 -0.10000000 152 73 143 97.000000 1.000000 4.000000 1.000000 -60.708740 114.000000 98.000000 -0.331042 0.898117 0.289476
8.06000042 11.46000004 -0.09000000 152 73 143 97.000000 1.000000 4.000000 1.000000 -60.708740 114.000000 98.000000 0.535236 -0.445754 -0.717514
8.03999996 11.51000023 -0.11000000 152 73 143 97.000000 1.000000 4.000000 1.000000 -60.708740 114.000000 98.000000 -0.428728 0.497718 0.753969
8.03999996 11.53999996 -0.16000000 152 73 143 97.000000 1.000000 4.000000 1.000000 -60.708740 114.000000 98.000000 -0.029560 0.348293 0.936920
8.02999973 11.47999954 -0.17000000 152 73 143 97.000000 1.000000 4.000000 1.000000 -60.708740 114.000000 98.000000 -0.147955 0.493673 0.856969
7.98999977 11.52000046 -0.14000000 152 73 143 97.000000 1.000000 4.000000 1.000000 -60.708740 114.000000 98.000000 -0.366458 0.685260 0.629387
7.98000002 11.51000023 -0.18000001 152 73 143 97.000000 1.000000 4.000000 1.000000 -60.708740 114.000000 98.000000 -0.326496 0.378612 0.866056
8.01000023 11.47999954 -0.16000000 152 73 143 97.000000 1.000000 4.000000 1.000000 -60.708740 114.000000 98.000000 -0.216977 0.552444 0.804814
8.02999973 11.42000008 -0.04000000 152 73 143 97.000000 1.000000 4.000000 1.000000 -60.708740 114.000000 98.000000 0.723767 -0.665374 -0.182863
8.03999996 11.42000008 -0.09000000 152 73 143 97.000000 1.000000 4.000000 1.000000 -60.708740 114.000000 98.000000 -0.464710 0.464710 0.753717
8.03999996 11.43999958 -0.10000000 152 73 143 97.000000 1.000000 4.000000 1.000000 -60.708740 114.000000 98.000000 -0.472076 0.613194 0.633354
8.02000046 11.39999962 -0.09000000 152 73 143 97.000000 1.000000 4.000000 1.000000 -60.708740 114.000000 98.000000 0.643213 -0.639889 -0.420498
8.02999973 11.40999985 -0.08000000 152 73 143 97.000000 1.000000 4.000000 1.000000 -60.708740 114.000000 98.000000 -0.457144 0.716470 0.526963
8.00000000 11.44999981 -0.10000000 152 73 143 97.000000 1.000000 4.000000 1.000000 -60.708740 114.000000 98.000000 -0.227696 0.377535 0.897564
8.14000034 11.51000023 -0.23000000 152 73 143 97.000000 1.000000 4.000000 1.000000 -60.708740 114.000000 98.000000 -0.158944 0.646374 0.746282
8.14000034 11.53999996 -0.23000000 152 73 143 97.000000 1.000000 4.000000 1.000000 -60.708740 114.000000 98.000000 -0.207811 0.577252 0.789680
8.01000023 11.52999973 -0.20000000 152 73 143 97.000000 1.000000 4.000000 1.000000 -60.708740 114.000000 98.000000 -0.126178 0.324263 0.937514
8.00000000 11.52000046 -0.20000000 152 73 143 97.000000 1.000000 4.000000 1.000000 -60.708740 114.000000 98.000000 0.079470 0.611198 0.787478
7.98999977 11.52000046 -0.20000000 152 73 143 97.000000 1.000000 4.000000 1.000000 -60.708740 114.000000 98.000000 -0.049933 0.700495 0.711908
8.14999962 11.35000038 -0.04000000 152 73 143 97.000000 1.000000 4.000000 1.000000 -60.708740 114.000000 98.000000 -0.071384 0.917218 0.391939
8.14999962 11.35000038 -0.05000000 152 73 143 97.000000 1.000000 4.000000 1.000000 -60.708740 114.000000 98.000000 -0.375247 0.824909 0.422746
8.15999985 11.36999989 -0.07000000 152 73 143 97.000000 1.000000 4.000000 1.000000 -60.708740 114.000000 98.000000 -0.436415 0.715190 0.545934
8.14999962 11.36999989 -0.08000000 152 73 143 97.000000 1.000000 4.000000 1.000000 -60.708740 114.000000 98.000000 0.001249 0.942782 0.333408
8.13000011 11.34000015 -0.03000000 152 73 143 97.000000 1.000000 4.000000 1.000000 -60.708740 114.000000 98.000000 0.768552 -0.638815 -0.035255
8.13000011 11.34000015 -0.03000000 152 73 143 97.000000 1.000000 4.000000 1.000000 -60.708740 114.000000 98.000000 0.768552 -0.638815 -0.035255
8.14000034 11.36999989 -0.03000000 152 73 143 97.000000 1.000000 4.000000 1.000000 -60.708740 114.000000 98.000000 0.646684 -0.685778 -0.333930
8.14000034 11.36999989 -0.04000000 152 73 143 97.000000 1.000000 4.000000 1.000000 -60.708740 114.000000 98.000000 -0.308310 0.910318 0.276164
8.11999989 11.35999966 -0.08000000 152 73 143 97.000000 1.000000 4.000000 1.000000 -60.708740 114.000000 98.000000 0.743004 -0.637964 -0.202356
8.07999992 11.34000015 -0.04000000 152 73 143 97.000000 1.000000 4.000000 1.000000 -60.708740 114.000000 98.000000 -0.579131 0.723504 0.375697
8.10000038 11.36999989 -0.07000000 152 73 143 97.000000 1.000000 4.000000 1.000000 -60.708740 114.000000 98.000000 0.406668 -0.625770 -0.665607
8.10000038 11.36999989 -0.07000000 152 73 143 97.000000 1.000000 4.000000 1.000000 -60.708740 114.000000 98.000000 0.406668 -0.625770 -0.665607
8.11999989 11.34000015 -0.13000000 152 73 143 97.000000 1.000000 4.000000 1.000000 -60.708740 114.000000 98.000000 -0.499646 0.755203 0.424290
8.11999989 11.27000046 -0.06000000 152 73 143 97.000000 1.000000 4.000000 1.000000 -60.708740 114.000000 98.000000 -0.424095 0.794976 0.433770
8.11999989 11.27000046 -0.06000000 152 73 143 97.000000 1.000000 4.000000 1.000000 -60.708740 114.000000 98.000000 -0.424095 0.794976 0.433770
8.13000011 11.27000046 -0.05000000 152 73 143 97.000000 1.000000 4.000000 1.000000 -60.708740 114.000000 98.000000 -0.433929 0.900830 -0.014508
8.06000042 11.35999966 -0.05000000 152 73 143 97.000000 1.000000 4.000000 1.000000 -60.708740 114.000000 98.000000 -0.323702 0.945917 0.021412
8.06000042 11.35999966 -0.08000000 152 73 143 97.000000 1.000000 4.000000 1.000000 -60.708740 114.000000 98.000000 -0.447614 0.762419 0.467289
8.03999996 11.36999989 -0.07000000 152 73 143 97.000000 1.000000 4.000000 1.000000 -60.708740 114.000000 98.000000 -0.026395 0.812698 0.582087
8.02000046 11.30000019 -0.04000000 152 73 143 97.000000 1.000000 4.000000 1.000000 -60.708740 114.000000 98.000000 0.511881 -0.701960 -0.495207
8.03999996 11.31000042 -0.04000000 152 73 143 97.000000 1.000000 4.000000 1.000000 -60.708740 114.000000 98.000000 -0.343255 0.939235 -0.003772
8.02000046 11.31000042 -0.04000000 152 73 143 97.000000 1.000000 4.000000 1.000000 -60.708740 114.000000 98.000000 -0.595313 0.748530 0.292070
8.03999996 11.32999992 -0.07000000 152 73 143 97.000000 1.000000 4.000000 1.000000 -60.708740 114.000000 98.000000 -0.156120 0.738161 0.656312
8.01000023 11.27999973 -0.03000000 152 73 143 97.000000 1.000000 4.000000 1.000000 -60.708740 114.000000 98.000000 -0.163073 0.986423 0.019386
7.88999987 11.56000042 -0.18000001 152 73 143 97.000000 1.000000 4.000000 1.000000 -60.708740 114.000000 98.000000 0.078050 0.219285 0.972534
7.94000006 11.67000008 -0.22000000 152 73 143 97.000000 1.000000 4.000000 1.000000 -60.708740 114.000000 98.000000 0.316255 0.068978 0.946163
7.94000006 11.64999962 -0.22000000 152 73 143 97.000000 1.000000 4.000000 1.000000 -60.708740 114.000000 98.000000 -0.181772 -0.146180 0.972415
7.94000006 11.64000034 -0.23000000 152 73 143 97.000000 1.000000 4.000000 1.000000 -60.708740 114.000000 98.000000 0.074763 -0.005265 0.997187
7.90000010 11.69999981 -0.20000000 152 73 143 97.000000 1.000000 4.000000 1.000000 -60.708740 114.000000 98.000000 0.227411 -0.195116 0.954051
7.90000010 11.69999981 -0.20000000 152 73 143 97.000000 1.000000 4.000000 1.000000 -60.708740 114.000000 98.000000 0.227411 -0.195116 0.954051
7.90999985 11.69999981 -0.23000000 152 73 143 97.000000 1.000000 4.000000 1.000000 -60.708740 114.000000 98.000000 0.173156 -0.033702 0.984318
7.90999985 11.68999958 -0.23000000 152 73 143 97.000000 1.000000 4.000000 1.000000 -60.708740 114.000000 98.000000 0.387578 0.019444 0.921632
7.90999985 11.68999958 -0.23000000 152 73 143 97.000000 1.000000 4.000000 1.000000 -60.708740 114.000000 98.000000 0.387578 0.019444 0.921632
7.90000010 11.68999958 -0.23999999 152 73 143 97.000000 1.000000 4.000000 1.000000 -60.708740 114.000000 98.000000 0.114092 -0.432422 0.894424
7.90999985 11.68000031 -0.23000000 152 73 143 97.000000 1.000000 4.000000 1.000000 -60.708740 114.000000 98.000000 0.185046 -0.008045 0.982697
7.90000010 11.63000011 -0.25999999 152 73 143 97.000000 1.000000 4.000000 1.000000 -60.708740 114.000000 98.000000 0.381348 0.317024 0.868371
7.94999981 11.59000015 -0.20000000 152 73 143 97.000000 1.000000 4.000000 1.000000 -60.708740 114.000000 98.000000 0.195626 0.389803 0.899880
7.94999981 11.59000015 -0.20000000 152 73 143 97.000000 1.000000 4.000000 1.000000 -60.708740 114.000000 98.000000 0.195626 0.389803 0.899880
7.96000004 11.60000038 -0.20999999 152 73 143 97.000000 1.000000 4.000000 1.000000 -60.708740 114.000000 98.000000 -0.011248 0.323697 0.946094
7.96000004 11.60000038 -0.20999999 152 73 143 97.000000 1.000000 4.000000 1.000000 -60.708740 114.000000 98.000000 -0.011248 0.323697 0.946094
7.94999981 11.60000038 -0.25000000 152 73 143 97.000000 1.000000 4.000000 1.000000 -60.708740 114.000000 98.000000 0.059684 0.370042 0.927096
7.94000006 11.59000015 -0.23999999 152 73 143 97.000000 1.000000 4.000000 1.000000 -60.708740 114.000000 98.000000 0.075869 0.089458 0.993097
7.96999979 11.56999969 -0.19000000 152 73 143 97.000000 1.000000 4.000000 1.000000 -60.708740 114.000000 98.000000 -0.074870 0.518443 0.851828
7.92000008 11.61999989 -0.22000000 152 73 143 97.000000 1.000000 4.000000 1.000000 -60.708740 114.000000 98.000000 0.160364 -0.092842 0.982682
7.90000010 11.59000015 -0.20000000 152 73 143 97.000000 1.000000 4.000000 1.000000 -60.708740 114.000000 98.000000 -0.098894 0.073886 0.992351
7.92000008 11.59000015 -0.23999999 152 73 143 97.000000 1.000000 4.000000 1.000000 -60.708740 114.000000 98.000000 -0.115063 0.334360 0.935395
7.92999983 11.55000019 -0.22000000 152 73 143 97.000000 1.000000 4.000000 1.000000 -60.708740 114.000000 98.000000 -0.019350 -0.160491 0.986848
7.90999985 11.56000042 -0.19000000 152 73 143 97.000000 1.000000 4.000000 1.000000 -60.708740 114.000000 98.000000 0.128447 0.204753 0.970349
7.90999985 11.56999969 -0.19000000 152 73 143 97.000000 1.000000 4.000000 1.000000 -60.708740 114.000000 98.000000 0.028563 0.493738 0.869142
7.92999983 11.55000019 -0.22000000 152 73 143 97.000000 1.000000 4.000000 1.000000 -60.708740 114.000000 98.000000 -0.019350 -0.160491 0.986848
7.90000010 11.55000019 -0.19000000 152 73 143 97.000000 1.000000 4.000000 1.000000 -60.708740 114.000000 98.000000 0.057847 -0.019984 0.998125
7.86999989 11.67000008 -0.27000001 152 73 143 97.000000 1.000000 4.000000 1.000000 -60.708740 114.000000 98.000000 0.045495 -0.162148 0.985717
7.88999987 11.63000011 -0.20999999 152 73 143 97.000000 1.000000 4.000000 1.000000 -60.708740 114.000000 98.000000 0.136852 0.172007 0.975543
7.86000013 11.63000011 -0.20000000 152 73 143 97.000000 1.000000 4.000000 1.000000 -60.708740 114.000000 98.000000 0.324259 -0.333308 0.885303
7.86000013 11.65999985 -0.20999999 152 73 143 97.000000 1.000000 4.000000 1.000000 -60.708740 114.000000 98.000000 0.528379 -0.086876 0.844552
7.88000011 11.65999985 -0.25999999 152 73 143 97.000000 1.000000 4.000000 1.000000 -60.708740 114.000000 98.000000 -0.051022 0.015619 0.998575
7.86000013 11.63000011 -0.25000000 152 73 143 97.000000 1.000000 4.000000 1.000000 -60.708740 114.000000 98.000000 -0.079256 -0.302732 0.949774
7.88000011 11.64999962 -0.23000000 152 73 143 97.000000 1.000000 4.000000 1.000000 -60.708740 114.000000 98.000000 -0.086806 -0.143883 0.985780
7.84999990 11.68999958 -0.20999999 152 73 143 97.000000 1.000000 4.000000 1.000000 -60.708740 114.000000 98.000000 0.250809 -0.616769 0.746117
7.84000015 11.68000031 -0.20999999 152 73 143 97.000000 1.000000 4.000000 1.000000 -60.708740 114.000000 98.000000 0.211031 -0.096150 0.972739
7.82000017 11.69999981 -0.20000000 152 73 143 97.000000 1.000000 4.000000 1.000000 -60.708740 114.000000 98.000000 0.445255 -0.206991 0.871150
7.84000015 11.67000008 -0.22000000 152 73 143 97.000000 1.000000 4.000000 1.000000 -60.708740 114.000000 98.000000 0.373802 -0.105431 0.921497
7.84999990 11.68999958 -0.20999999 152 73 143 97.000000 1.000000 4.000000 1.000000 -60.708740 114.000000 98.000000 0.250809 -0.616769 0.746117
7.84999990 11.71000004 -0.22000000 152 73 143 97.000000 1.000000 4.000000 1.000000 -60.708740 114.000000 98.000000 0.235408 -0.578388 0.781057
7.80999994 11.67000008 -0.20999999 152 73 143 97.000000 1.000000 4.000000 1.000000 -60.708740 114.000000 98.000000 0.315089 -0.542210 0.778927
7.84000015 11.71000004 -0.20999999 152 73 143 97.000000 1.000000 4.000000 1.000000 -60.708740 114.000000 98.000000 0.363930 -0.093350 0.926737
7.80999994 11.68000031 -0.19000000 152 73 143 97.000000 1.000000 4.000000 1.000000 -60.708740 114.000000 98.000000 0.674517 -0.185915 0.714466
7.84000015 11.68000031 -0.25000000 152 73 143 97.000000 1.000000 4.000000 1.000000 -60.708740 114.000000 98.000000 0.200469 -0.051618 0.978339
7.84000015 11.64999962 -0.20999999 152 73 143 97.000000 1.000000 4.000000 1.000000 -60.708740 114.000000 98.000000 0.209048 -0.101394 0.972635
7.80999994 11.63000011 -0.20000000 152 73 143 97.000000 1.000000 4.000000 1.000000 -60.708740 114.000000 98.000000 -0.070452 -0.362892 0.929164
7.82999992 11.64999962 -0.20999999 152 73 143 97.000000 1.000000 4.000000 1.000000 -60.708740 114.000000 98.000000 0.296532 0.078989 0.951751
7.82000017 11.64000034 -0.27000001 152 73 143 97.000000 1.000000 4.000000 1.000000 -60.708740 114.000000 98.000000 0.154842 -0.347347 0.924864
7.84000015 11.65999985 -0.23999999 152 73 143 97.000000 1.000000 4.000000 1.000000 -60.708740 114.000000 98.000000 0.161910 -0.028707 0.986388
7.84999990 11.64999962 -0.25000000 152 73 143 97.000000 1.000000 4.000000 1.000000 -60.708740 114.000000 98.000000 0.550938 -0.156771 0.819689
7.82999992 11.64999962 -0.23999999 152 73 143 97.000000 1.000000 4.000000 1.000000 -60.708740 114.000000 98.000000 0.084756 0.077976 0.993346
7.84999990 11.64000034 -0.25000000 152 73 143 97.000000 1.000000 4.000000 1.000000 -60.708740 114.000000 98.000000 0.003586 -0.254609 0.967037
7.84999990 11.64999962 -0.28000000 152 73 143 97.000000 1.000000 4.000000 1.000000 -60.708740 114.000000 98.000000 0.297954 0.060102 0.952686
7.88999987 11.61999989 -0.20999999 152 73 143 97.000000 1.000000 4.000000 1.000000 -60.708740 114.000000 98.000000 -0.182201 0.024371 0.982959
7.86999989 11.60000038 -0.22000000 152 73 143 97.000000 1.000000 4.000000 1.000000 -60.708740 114.000000 98.000000 0.245376 0.092811 0.964975
7.88999987 11.59000015 -0.19000000 152 73 143 97.000000 1.000000 4.000000 1.000000 -60.708740 114.000000 98.000000 0.015282 -0.029545 0.999447
7.88000011 11.56000042 -0.22000000 152 73 143 97.000000 1.000000 4.000000 1.000000 -60.708740 114.000000 98.000000 0.083066 -0.323035 0.942735
7.82999992 11.60000038 -0.20000000 152 73 143 97.000000 1.000000 4.000000 1.000000 -60.708740 114.000000 98.000000 -0.115973 -0.067747 0.990939
7.84999990 11.60999966 -0.20999999 152 73 143 97.000000 1.000000 4.000000 1.000000 -60.708740 114.000000 98.000000 0.319080 -0.082725 0.944110
7.84999990 11.60999966 -0.20999999 152 73 143 97.000000 1.000000 4.000000 1.000000 -60.708740 114.000000 98.000000 0.319080 -0.082725 0.944110
7.80999994 11.60000038 -0.22000000 152 73 143 97.000000 1.000000 4.000000 1.000000 -60.708740 114.000000 98.000000 0.300050 -0.065676 0.951660
7.84000015 11.60999966 -0.20000000 152 73 143 97.000000 1.000000 4.000000 1.000000 -60.708740 114.000000 98.000000 0.187874 -0.193129 0.963018
7.80999994 11.56000042 -0.22000000 152 73 143 97.000000 1.000000 4.000000 1.000000 -60.708740 114.000000 98.000000 0.437862 0.070003 0.896313
7.82000017 11.57999992 -0.23999999 152 73 143 97.000000 1.000000 4.000000 1.000000 -60.708740 114.000000 98.000000 0.416557 0.057968 0.907259
7.82999992 11.56999969 -0.23000000 152 73 143 97.000000 1.000000 4.000000 1.000000 -60.708740 114.000000 98.000000 0.487253 0.183279 0.853811
7.82000017 11.57999992 -0.23000000 152 73 143 97.000000 1.000000 4.000000 1.000000 -60.708740 114.000000 98.000000 0.462029 -0.155953 0.873045
7.80999994 11.56999969 -0.23000000 152 73 143 97.000000 1.000000 4.000000 1.000000 -60.708740 114.000000 98.000000 0.420452 0.006509 0.907291
7.80999994 11.56999969 -0.23000000 152 73 143 97.000000 1.000000 4.000000 1.000000 -60.708740 114.000000 98.000000 0.420452 0.006509 0.907291
7.80999994 11.57999992 -0.31000000 152 73 143 97.000000 1.000000 4.000000 1.000000 -60.708740 114.000000 98.000000 0.514253 -0.221266 0.828604
7.80999994 11.56000042 -0.30000001 152 73 143 97.000000 1.000000 4.000000 1.000000 -60.708740 114.000000 98.000000 0.258582 0.198383 0.945399
7.94999981 11.50000000 -0.19000000 152 73 143 97.000000 1.000000 4.000000 1.000000 -60.708740 114.000000 98.000000 0.188508 0.608436 0.770890
7.96000004 11.50000000 -0.19000000 152 73 143 97.000000 1.000000 4.000000 1.000000 -60.708740 114.000000 98.000000 -0.072795 0.566660 0.820730
7.96000004 11.52999973 -0.20000000 152 73 143 97.000000 1.000000 4.000000 1.000000 -60.708740 114.000000 98.000000 0.028649 0.503410 0.863573
7.96000004 11.50000000 -0.19000000 152 73 143 97.000000 1.000000 4.000000 1.000000 -60.708740 114.000000 98.000000 -0.072795 0.566660 0.820730
7.94999981 11.51000023 -0.19000000 152 73 143 97.000000 1.000000 4.000000 1.000000 -60.708740 114.000000 98.000000 0.144633 0.433898 0.889277
7.96999979 11.52999973 -0.20000000 152 73 143 97.000000 1.000000 4.000000 1.000000 -60.708740 114.000000 98.000000 -0.206542 0.299275 0.931545
7.94999981 11.52000046 -0.19000000 152 73 143 97.000000 1.000000 4.000000 1.000000 -60.708740 114.000000 98.000000 -0.076000 0.134462 0.988000
7.96999979 11.51000023 -0.20000000 152 73 143 97.000000 1.000000 4.000000 1.000000 -60.708740 114.000000 98.000000 -0.246691 0.598658 0.762071
7.96999979 11.50000000 -0.19000000 152 73 143 97.000000 1.000000 4.000000 1.000000 -60.708740 114.000000 98.000000 -0.259238 0.564040 0.783999
7.94000006 11.52000046 -0.20999999 152 73 143 97.000000 1.000000 4.000000 1.000000 -60.708740 114.000000 98.000000 -0.279325 0.553915 0.784319
7.88000011 11.52999973 -0.23999999 152 73 143 97.000000 1.000000 4.000000 1.000000 -60.708740 114.000000 98.000000 0.058689 0.335178 0.940325
7.80999994 11.53999996 -0.20999999 152 73 143 97.000000 1.000000 4.000000 1.000000 -60.708740 114.000000 98.000000 0.070423 0.007358 0.997490
7.82000017 11.53999996 -0.20999999 152 73 143 97.000000 1.000000 4.000000 1.000000 -60.708740 114.000000 98.000000 0.314723 0.008708 0.949144
7.82000017 11.50000000 -0.22000000 152 73 143 97.000000 1.000000 4.000000 1.000000 -60.708740 114.000000 98.000000 -0.100421 0.036416 0.994278
7.82999992 11.53999996 -0.22000000 152 73 143 97.000000 1.000000 4.000000 1.000000 -60.708740 114.000000 98.000000 0.485410 0.122433 0.865672
7.80000019 11.67000008 -0.19000000 152 73 143 97.000000 1.000000 4.000000 1.000000 -60.708740 114.000000 98.000000 0.481878 -0.612842 0.626274
7.80000019 11.65999985 -0.20999999 152 73 143 97.000000 1.000000 4.000000 1.000000 -60.708740 114.000000 98.000000 0.219312 -0.629938 0.745037
7.80000019 11.64000034 -0.23000000 152 73 143 97.000000 1.000000 4.000000 1.000000 -60.708740 114.000000 98.000000 0.570051 -0.157101 0.806450
7.80000019 11.64000034 -0.23000000 152 73 143 97.000000 1.000000 4.000000 1.000000 -60.708740 114.000000 98.000000 0.570051 -0.157101 0.806450
7.73000002 11.63000011 -0.20999999 152 73 143 97.000000 1.000000 4.000000 1.000000 -60.708740 114.000000 98.000000 0.240197 0.050503 0.969410
7.78999996 11.67000008 -0.31000000 152 73 143 97.000000 1.000000 4.000000 1.000000 -60.708740 114.000000 98.000000 0.658857 -0.073850 0.748635
7.76999998 11.68999958 -0.28999999 152 73 143 97.000000 1.000000 4.000000 1.000000 -60.708740 114.000000 98.000000 0.484633 -0.110079 0.867764
7.76999998 11.65999985 -0.30000001 152 73 143 97.000000 1.000000 4.000000 1.000000 -60.708740 114.000000 98.000000 0.206644 -0.177688 0.962146
7.76000023 11.67000008 -0.28999999 152 73 143 97.000000 1.000000 4.000000 1.000000 -60.708740 114.000000 98.000000 0.393130 -0.474021 0.787878
7.73999977 11.69999981 -0.28999999 152 73 143 97.000000 1.000000 4.000000 1.000000 -60.708740 114.000000 98.000000 0.083406 -0.130395 0.987948
7.76000023 11.68000031 -0.28000000 152 73 143 97.000000 1.000000 4.000000 1.000000 -60.708740 114.000000 98.000000 0.525683 -0.321162 0.787726
7.75000000 11.68999958 -0.33000001 152 73 143 97.000000 1.000000 4.000000 1.000000 -60.708740 114.000000 98.000000 0.439233 -0.243012 0.864881
7.75000000 11.65999985 -0.28999999 152 73 143 97.000000 1.000000 4.000000 1.000000 -60.708740 114.000000 98.000000 0.601587 -0.037862 0.797909
7.80000019 11.60999966 -0.22000000 152 73 143 97.000000 1.000000 4.000000 1.000000 -60.708740 114.000000 98.000000 -0.009061 -0.023155 0.999691
7.76999998 11.60000038 -0.20999999 152 73 143 97.000000 1.000000 4.000000 1.000000 -60.708740 114.000000 98.000000 0.123215 -0.142734 0.982062
7.78000021 11.60999966 -0.20000000 152 73 143 97.000000 1.000000 4.000000 1.000000 -60.708740 114.000000 98.000000 0.164630 -0.172288 0.971192
7.75000000 11.60000038 -0.20999999 152 73 143 97.000000 1.000000 4.000000 1.000000 -60.708740 114.000000 98.000000 0.171558 0.179297 0.968721
7.73000002 11.59000015 -0.22000000 152 73 143 97.000000 1.000000 4.000000 1.000000 -60.708740 114.000000 98.000000 0.022349 -0.071305 0.997204
7.73999977 11.60000038 -0.27000001 152 73 143 97.000000 1.000000 4.000000 1.000000 -60.708740 114.000000 98.000000 0.169805 0.144648 0.974804
7.76000023 11.55000019 -0.20999999 152 73 143 97.000000 1.000000 4.000000 1.000000 -60.708740 114.000000 98.000000 0.082660 0.051800 0.995231
7.76000023 11.56000042 -0.22000000 152 73 143 97.000000 1.000000 4.000000 1.000000 -60.708740 114.000000 98.000000 0.504738 -0.251597 0.825795
7.76000023 11.56999969 -0.20000000 152 73 143 97.000000 1.000000 4.000000 1.000000 -60.708740 114.000000 98.000000 0.488005 -0.223479 0.843747
7.80000019 11.57999992 -0.30000001 152 73 143 97.000000 1.000000 4.000000 1.000000 -60.708740 114.000000 98.000000 0.500875 -0.014851 0.865392
7.78999996 11.56999969 -0.30000001 152 73 143 97.000000 1.000000 4.000000 1.000000 -60.708740 114.000000 98.000000 0.434129 -0.001304 0.900850
7.75000000 11.56000042 -0.28999999 152 73 143 97.000000 1.000000 4.000000 1.000000 -60.708740 114.000000 98.000000 0.249763 0.222165 0.942476
7.80000019 11.60999966 -0.28000000 152 73 143 97.000000 1.000000 4.000000 1.000000 -60.708740 114.000000 98.000000 -0.050265 -0.162485 0.985430
7.69000006 11.60999966 -0.20000000 152 73 143 97.000000 1.000000 4.000000 1.000000 -60.708740 114.000000 98.000000 0.603124 -0.295963 0.740707
7.71000004 11.59000015 -0.22000000 152 73 143 97.000000 1.000000 4.000000 1.000000 -60.708740 114.000000 98.000000 0.024146 -0.051441 0.998384
7.71000004 11.61999989 -0.20999999 152 73 143 97.000000 1.000000 4.000000 1.000000 -60.708740 114.000000 98.000000 0.339046 -0.452587 0.824750
7.69999981 11.55000019 -0.20999999 152 73 143 97.000000 1.000000 4.000000 1.000000 -60.708740 114.000000 98.000000 0.366969 0.131555 0.920884
7.71000004 11.55000019 -0.22000000 152 73 143 97.000000 1.000000 4.000000 1.000000 -60.708740 114.000000 98.000000 0.527406 0.127103 0.840052
7.71000004 11.56999969 -0.23000000 152 73 143 97.000000 1.000000 4.000000 1.000000 -60.708740 114.000000 98.000000 0.512730 -0.414443 0.751894
7.71000004 11.56999969 -0.23999999 152 73 143 97.000000 1.000000 4.000000 1.000000 -60.708740 114.000000 98.000000 0.561211 -0.381231 0.734646
7.67000008 11.60000038 -0.20999999 152 73 143 97.000000 1.000000 4.000000 1.000000 -60.708740 114.000000 98.000000 0.381139 -0.631931 0.674830
7.80000019 11.53999996 -0.20999999 152 73 143 97.000000 1.000000 4.000000 1.000000 -60.708740 114.000000 98.000000 -0.049702 -0.144482 0.988258
7.76999998 11.52999973 -0.20999999 152 73 143 97.000000 1.000000 4.000000 1.000000 -60.708740 114.000000 98.000000 0.196990 0.015153 0.980288
7.78000021 11.52000046 -0.20999999 152 73 143 97.000000 1.000000 4.000000 1.000000 -60.708740 114.000000 98.000000 0.238880 0.089738 0.966894
7.80000019 11.50000000 -0.23000000 152 73 143 97.000000 1.000000 4.000000 1.000000 -60.708740 114.000000 98.000000 -0.206979 0.279213 0.937657
7.78999996 11.50000000 -0.23999999 152 73 143 97.000000 1.000000 4.000000 1.000000 -60.708740 114.000000 98.000000 -0.193555 0.365603 0.910424
7.76000023 11.52000046 -0.20999999 152 73 143 97.000000 1.000000 4.000000 1.000000 -60.708740 114.000000 98.000000 0.192908 0.024552 0.980910
7.76000023 11.52999973 -0.20999999 152 73 143 97.000000 1.000000 4.000000 1.000000 -60.708740 114.000000 98.000000 0.216862 0.064936 0.974040
7.73000002 11.52000046 -0.23000000 152 73 143 97.000000 1.000000 4.000000 1.000000 -60.708740 114.000000 98.000000 0.433177 0.232327 0.870851
7.73000002 11.51000023 -0.23000000 152 73 143 97.000000 1.000000 4.000000 1.000000 -60.708740 114.000000 98.000000 0.418448 0.104265 0.902236
7.73999977 11.52999973 -0.23999999 152 73 143 97.000000 1.000000 4.000000 1.000000 -60.708740 114.000000 98.000000 0.397378 0.155248 0.904427
7.73000002 11.48999977 -0.23999999 152 73 143 97.000000 1.000000 4.000000 1.000000 -60.708740 114.000000 98.000000 0.016337 -0.322963 0.946270
7.71000004 11.53999996 -0.22000000 152 73 143 97.000000 1.000000 4.000000 1.000000 -60.708740 114.000000 98.000000 0.537325 0.189199 0.821880
7.71000004 11.52999973 -0.20999999 152 73 143 97.000000 1.000000 4.000000 1.000000 -60.708740 114.000000 98.000000 0.116859 -0.426605 0.896857
7.69000006 11.52999973 -0.19000000 152 73 143 97.000000 1.000000 4.000000 1.000000 -60.708740 114.000000 98.000000 0.588092 -0.187884 0.786669
7.71000004 11.53999996 -0.20999999 152 73 143 97.000000 1.000000 4.000000 1.000000 -60.708740 114.000000 98.000000 0.192477 -0.022164 0.981051
7.69999981 11.52000046 -0.20999999 152 73 143 97.000000 1.000000 4.000000 1.000000 -60.708740 114.000000 98.000000 0.078641 -0.029086 0.996479
7.69000006 11.51000023 -0.22000000 152 73 143 97.000000 1.000000 4.000000 1.000000 -60.708740 114.000000 98.000000 0.047914 0.164779 0.985166
7.71999979 11.53999996 -0.23000000 152 73 143 97.000000 1.000000 4.000000 1.000000 -60.708740 114.000000 98.000000 0.565378 -0.180375 0.804868
7.69999981 11.48999977 -0.22000000 152 73 143 97.000000 1.000000 4.000000 1.000000 -60.708740 114.000000 98.000000 0.288528 -0.354307 0.889504
7.67000008 11.51000023 -0.20999999 152 73 143 97.000000 1.000000 4.000000 1.000000 -60.708740 114.000000 98.000000 0.461729 -0.178496 0.868876
7.67999983 11.50000000 -0.20999999 152 73 143 97.000000 1.000000 4.000000 1.000000 -60.708740 114.000000 98.000000 0.094569 -0.078618 0.992409
7.67000008 11.48999977 -0.22000000 152 73 143 97.000000 1.000000 4.000000 1.000000 -60.708740 114.000000 98.000000 0.363114 0.101998 0.926145
8.03999996 11.40999985 -0.01000000 152 73 143 97.000000 1.000000 4.000000 1.000000 -60.708740 114.000000 98.000000 0.735885 -0.635466 -0.233789
7.98000002 11.39000034 0.00000000 152 73 143 97.000000 1.000000 4.000000 1.000000 -60.708740 114.000000 98.000000 0.700029 -0.580875 -0.415384
8.22999954 11.31000042 0.05000000 152 73 143 97.000000 1.000000 4.000000 1.000000 -60.708740 114.000000 98.000000 -0.413988 0.857216 0.306259
8.25000000 11.35000038 0.01000000 152 73 143 97.000000 1.000000 4.000000 1.000000 -60.708740 114.000000 98.000000 0.770340 -0.624318 -0.129632
8.27000046 11.26000023 0.09000000 152 73 143 97.000000 1.000000 4.000000 1.000000 -60.708740 114.000000 98.000000 -0.570098 0.813378 -0.115778
8.31000042 11.25000000 0.06000000 152 73 143 97.000000 1.000000 4.000000 1.000000 -60.708740 114.000000 98.000000 -0.360649 0.894943 0.262695
8.22999954 11.27000046 0.06000000 152 73 143 97.000000 1.000000 4.000000 1.000000 -60.708740 114.000000 98.000000 0.737952 -0.663412 -0.123737
8.21000004 11.32999992 0.02000000 152 73 143 97.000000 1.000000 4.000000 1.000000 -60.708740 114.000000 98.000000 -0.306850 0.946890 0.096138
8.21000004 11.26000023 0.08000000 152 73 143 97.000000 1.000000 4.000000 1.000000 -60.708740 114.000000 98.000000 0.799260 -0.592530 0.100453
8.21000004 11.26000023 0.08000000 152 73 143 97.000000 1.000000 4.000000 1.000000 -60.708740 114.000000 98.000000 0.799260 -0.592530 0.100453
8.21000004 11.22000027 0.09000000 152 73 143 97.000000 1.000000 4.000000 1.000000 -60.708740 114.000000 98.000000 -0.227973 0.877621 -0.421675
8.22000027 11.22000027 0.08000000 152 73 143 97.000000 1.000000 4.000000 1.000000 -60.708740 114.000000 98.000000 -0.569421 0.784709 -0.244929
8.18999958 11.27000046 0.03000000 152 73 143 97.000000 1.000000 4.000000 1.000000 -60.708740 114.000000 98.000000 -0.167872 0.985237 0.033574
8.18999958 11.21000004 0.01000000 152 73 143 97.000000 1.000000 4.000000 1.000000 -60.708740 114.000000 98.000000 -0.665076 0.736494 0.123493
8.18000031 11.27999973 -0.01000000 152 73 143 97.000000 1.000000 4.000000 1.000000 -60.708740 114.000000 98.000000 -0.616049 0.672506 0.410146
8.15999985 11.14000034 0.15000001 152 73 143 97.000000 1.000000 4.000000 1.000000 -60.708740 114.000000 98.000000 -0.673163 0.729632 -0.120367
8.15999985 11.14000034 0.16000000 152 73 143 97.000000 1.000000 4.000000 1.000000 -60.708740 114.000000 98.000000 -0.295541 0.954534 -0.038986
8.26000023 11.14999962 0.09000000 152 73 143 97.000000 1.000000 4.000000 1.000000 -60.708740 114.000000 98.000000 0.727224 -0.684362 -0.052863
8.27999973 11.18000031 0.06000000 152 73 143 97.000000 1.000000 4.000000 1.000000 -60.708740 114.000000 98.000000 0.774572 -0.611504 0.161558
8.18999958 11.14999962 0.13000000 152 73 143 97.000000 1.000000 4.000000 1.000000 -60.708740 114.000000 98.000000 0.747581 -0.664052 -0.012529
8.17000008 11.18999958 0.12000000 152 73 143 97.000000 1.000000 4.000000 1.000000 -60.708740 114.000000 98.000000 -0.279349 0.908249 -0.311525
8.15999985 11.18000031 0.12000000 152 73 143 97.000000 1.000000 4.000000 1.000000 -60.708740 114.000000 98.000000 -0.500708 0.860991 -0.089362
8.11999989 11.31000042 -0.01000000 152 73 143 97.000000 1.000000 4.000000 1.000000 -60.708740 114.000000 98.000000 -0.251789 0.909643 0.330382
8.07999992 11.34000015 -0.01000000 152 73 143 97.000000 1.000000 4.000000 1.000000 -60.708740 114.000000 98.000000 0.636920 -0.722689 -0.268427
8.14000034 11.28999996 -0.01000000 152 73 143 97.000000 1.000000 4.000000 1.000000 -60.708740 114.000000 98.000000 -0.321653 0.899739 0.294972
8.10999966 11.27000046 0.01000000 152 73 143 97.000000 1.000000 4.000000 1.000000 -60.708740 114.000000 98.000000 0.585187 -0.782822 -0.211532
8.14000034 11.28999996 -0.01000000 152 73 143 97.000000 1.000000 4.000000 1.000000 -60.708740 114.000000 98.000000 -0.321653 0.899739 0.294972
8.14000034 11.28999996 -0.02000000 152 73 143 97.000000 1.000000 4.000000 1.000000 -60.708740 114.000000 98.000000 -0.256154 0.961541 0.099115
8.00000000 11.35999966 0.01000000 152 73 143 97.000000 1.000000 4.000000 1.000000 -60.708740 114.000000 98.000000 -0.113067 0.993451 0.016466
8.02999973 11.27999973 0.01000000 152 73 143 97.000000 1.000000 4.000000 1.000000 -60.708740 114.000000 98.000000 -0.319395 0.914829 0.247134
8.06000042 11.28999996 -0.01000000 152 73 143 97.000000 1.000000 4.000000 1.000000 -60.708740 114.000000 98.000000 -0.078968 0.968928 0.234398
8.01000023 11.27000046 -0.01000000 152 73 143 97.000000 1.000000 4.000000 1.000000 -60.708740 114.000000 98.000000 -0.204317 0.938192 0.279373
8.11999989 11.10999966 0.19000000 152 73 143 97.000000 1.000000 4.000000 1.000000 -60.708740 114.000000 98.000000 -0.253326 0.946207 -0.201292
8.06000042 11.11999989 0.23999999 152 73 143 97.000000 1.000000 4.000000 1.000000 -60.708740 114.000000 98.000000 -0.202063 0.935064 -0.291249
8.10999966 11.07999992 0.08000000 152 73 143 97.000000 1.000000 4.000000 1.000000 -60.708740 114.000000 98.000000 -0.446042 0.875892 0.184011
8.07999992 11.11999989 0.12000000 152 73 143 97.000000 1.000000 4.000000 1.000000 -60.708740 114.000000 98.000000 -0.306597 0.928267 0.210520
8.03999996 11.10999966 0.12000000 152 73 143 97.000000 1.000000 4.000000 1.000000 -60.708740 114.000000 98.000000 -0.314335 0.914033 -0.256393
8.02999973 11.06000042 0.09000000 152 73 143 97.000000 1.000000 4.000000 1.000000 -60.708740 114.000000 98.000000 -0.229492 0.954203 0.191914
8.01000023 11.05000019 0.09000000 152 73 143 97.000000 1.000000 4.000000 1.000000 -60.708740 114.000000 98.000000 -0.653348 0.738634 -0.166002
7.96999979 11.14999962 0.09000000 152 73 143 97.000000 1.000000 4.000000 1.000000 -60.708740 114.000000 98.000000 -0.182760 0.982189 0.043627
7.96999979 11.14999962 0.05000000 152 73 143 97.000000 1.000000 4.000000 1.000000 -60.708740 114.000000 98.000000 -0.530477 0.836126 0.139599
7.96999979 11.18000031 0.10000000 152 73 143 97.000000 1.000000 4.000000 1.000000 -60.708740 114.000000 98.000000 -0.597877 0.742137 -0.302946
7.96999979 11.18000031 0.05000000 152 73 143 97.000000 1.000000 4.000000 1.000000 -60.708740 114.000000 98.000000 -0.250130 0.967251 -0.043126
8.57999992 11.88000011 -0.28999999 152 73 143 97.000000 1.000000 4.000000 1.000000 -60.708740 114.000000 98.000000 -0.006838 0.581225 0.813714
8.56000042 11.89999962 -0.30000001 152 73 143 97.000000 1.000000 4.000000 1.000000 -60.708740 114.000000 98.000000 -0.109806 0.483433 0.868467
8.53999996 11.88000011 -0.30000001 152 73 143 97.000000 1.000000 4.000000 1.000000 -60.708740 114.000000 98.000000 -0.321590 0.240832 0.915740
8.50000000 11.89000034 -0.28000000 152 73 143 97.000000 1.000000 4.000000 1.000000 -60.708740 114.000000 98.000000 0.190696 0.509023 0.839363
8.47999954 11.84000015 -0.27000001 152 73 143 97.000000 1.000000 4.000000 1.000000 -60.708740 114.000000 98.000000 0.158810 0.040572 0.986475
8.47999954 11.84000015 -0.27000001 152 73 143 97.000000 1.000000 4.000000 1.000000 -60.708740 114.000000 98.000000 0.158810 0.040572 0.986475
8.53999996 11.85999966 -0.28999999 152 73 143 97.000000 1.000000 4.000000 1.000000 -60.708740 114.000000 98.000000 -0.147384 -0.016876 0.988935
8.53999996 11.85000038 -0.33000001 152 73 143 97.000000 1.000000 4.000000 1.000000 -60.708740 114.000000 98.000000 -0.167151 0.012508 0.985852
8.47999954 11.76000023 -0.23000000 152 73 143 97.000000 1.000000 4.000000 1.000000 -60.708740 114.000000 98.000000 -0.004155 0.738239 0.674526
8.47999954 11.75000000 -0.22000000 152 73 143 97.000000 1.000000 4.000000 1.000000 -60.708740 114.000000 98.000000 -0.132720 0.886229 0.443828
8.47999954 11.73999977 -0.20999999 152 73 143 97.000000 1.000000 4.000000 1.000000 -60.708740 114.000000 98.000000 0.076399 0.621286 0.779851
8.44999981 11.90999985 -0.28000000 152 73 143 97.000000 1.000000 4.000000 1.000000 -60.708740 114.000000 98.000000 -0.047432 -0.316641 0.947359
8.43000031 11.73999977 -0.18000001 152 73 143 97.000000 1.000000 4.000000 1.000000 -60.708740 114.000000 98.000000 -0.172105 0.747820 0.641206
8.47000027 11.76000023 -0.18000001 152 73 143 97.000000 1.000000 4.000000 1.000000 -60.708740 114.000000 98.000000 -0.120116 0.513747 0.849492
8.40999985 11.73999977 -0.13000000 152 73 143 97.000000 1.000000 4.000000 1.000000 -60.708740 114.000000 98.000000 -0.130234 0.908836 0.396303
8.42000008 11.72999954 -0.18000001 152 73 143 97.000000 1.000000 4.000000 1.000000 -60.708740 114.000000 98.000000 -0.469431 0.417453 0.778054
8.36999989 11.77000046 -0.17000000 152 73 143 97.000000 1.000000 4.000000 1.000000 -60.708740 114.000000 98.000000 0.065829 0.508428 0.858585
8.39000034 11.76000023 -0.16000000 152 73 143 97.000000 1.000000 4.000000 1.000000 -60.708740 114.000000 98.000000 0.025136 0.422027 0.906235
8.44999981 11.85999966 -0.25999999 152 73 143 97.000000 1.000000 4.000000 1.000000 -60.708740 114.000000 98.000000 0.272193 0.148834 0.950663
8.46000004 11.84000015 -0.25999999 152 73 143 97.000000 1.000000 4.000000 1.000000 -60.708740 114.000000 98.000000 0.205866 0.082593 0.975089
8.43999958 11.81000042 -0.19000000 152 73 143 97.000000 1.000000 4.000000 1.000000 -60.708740 114.000000 98.000000 -0.312702 0.440272 0.841652
8.43999958 11.81000042 -0.23999999 152 73 143 97.000000 1.000000 4.000000 1.000000 -60.708740 114.000000 98.000000 -0.318509 0.492818 0.809742
8.39999962 11.84000015 -0.27000001 152 73 143 97.000000 1.000000 4.000000 1.000000 -60.708740 114.000000 98.000000 -0.040634 -0.163698 0.985673
8.42000008 11.81999969 -0.20999999 152 73 143 97.000000 1.000000 4.000000 1.000000 -60.708740 114.000000 98.000000 0.153957 0.563511 0.811636
8.42000008 11.81999969 -0.27000001 152 73 143 97.000000 1.000000 4.000000 1.000000 -60.708740 114.000000 98.000000 -0.042883 -0.089064 0.995102
8.47000027 11.80000019 -0.31000000 152 73 143 97.000000 1.000000 4.000000 1.000000 -60.708740 114.000000 98.000000 -0.285581 0.152942 0.946072
8.43000031 11.82999992 -0.31000000 152 73 143 97.000000 1.000000 4.000000 1.000000 -60.708740 114.000000 98.000000 -0.177084 0.154152 0.972049
8.43000031 11.81000042 -0.28999999 152 73 143 97.000000 1.000000 4.000000 1.000000 -60.708740 114.000000 98.000000 0.366505 0.433142 0.823445
8.43999958 11.73999977 -0.20000000 152 73 143 97.000000 1.000000 4.000000 1.000000 -60.708740 114.000000 98.000000 0.087807 0.368791 0.925355
8.43999958 11.73999977 -0.20000000 152 73 143 97.000000 1.000000 4.000000 1.000000 -60.708740 114.000000 98.000000 0.087807 0.368791 0.925355
8.43999958 11.75000000 -0.23999999 152 73 143 97.000000 1.000000 4.000000 1.000000 -60.708740 114.000000 98.000000 -0.127318 0.261198 0.956852
8.43000031 11.72999954 -0.19000000 152 73 143 97.000000 1.000000 4.000000 1.000000 -60.708740 114.000000 98.000000 -0.111739 0.448369 0.886837
8.43000031 11.72000027 -0.23000000 152 73 143 97.000000 1.000000 4.000000 1.000000 -60.708740 114.000000 98.000000 -0.538726 0.555614 0.633299
8.43999958 11.78999996 -0.28999999 152 73 143 97.000000 1.000000 4.000000 1.000000 -60.708740 114.000000 98.000000 -0.110654 0.629992 0.768678
8.43000031 11.77000046 -0.28999999 152 73 143 97.000000 1.000000 4.000000 1.000000 -60.708740 114.000000 98.000000 -0.268139 0.485130 0.832316
8.36999989 11.81000042 -0.25000000 152 73 143 97.000000 1.000000 4.000000 1.000000 -60.708740 114.000000 98.000000 0.294030 0.251001 0.922250
8.38000011 11.75000000 -0.23000000 152 73 143 97.000000 1.000000 4.000000 1.000000 -60.708740 114.000000 98.000000 -0.191380 0.097542 0.976657
8.38000011 11.77999973 -0.23000000 152 73 143 97.000000 1.000000 4.000000 1.000000 -60.708740 114.000000 98.000000 0.075361 0.428871 0.900217
8.36999989 11.72999954 -0.25000000 152 73 143 97.000000 1.000000 4.000000 1.000000 -60.708740 114.000000 98.000000 -0.201314 0.585501 0.785278
8.39000034 11.75000000 -0.23000000 152 73 143 97.000000 1.000000 4.000000 1.000000 -60.708740 114.000000 98.000000 -0.101791 0.511823 0.853039
8.36999989 11.78999996 -0.22000000 152 73 143 97.000000 1.000000 4.000000 1.000000 -60.708740 114.000000 98.000000 -0.009526 0.543001 0.839678
