//X Y Z R G B PointSourceId ScanDirectionFlag NumberOfReturns ReturnNumber GpsTime Intensity Classification Nx Ny Nz
-10.10000038 -6.23999977 -1.22000003 111 154 123 0.000000 0.000000 0.000000 0.000000 0.000000 0.000000 207.000000 -0.006978 0.999892 -0.012960
-10.10000038 -6.23999977 -1.24000001 111 154 123 0.000000 0.000000 0.000000 0.000000 0.000000 0.000000 207.000000 0.170075 0.961120 -0.217537
-9.85000038 -6.21999979 -1.45000005 111 154 123 0.000000 0.000000 0.000000 0.000000 0.000000 0.000000 207.000000 0.680148 -0.111135 -0.724602
-9.85999966 -6.23999977 -1.30999994 111 154 123 0.000000 0.000000 0.000000 0.000000 0.000000 0.000000 207.000000 0.805010 -0.280891 -0.522551
-9.85999966 -6.23999977 -1.30999994 111 154 123 0.000000 0.000000 0.000000 0.000000 0.000000 0.000000 207.000000 0.805010 -0.280891 -0.522551
-9.97000027 -6.26999998 -1.34000003 111 154 123 0.000000 0.000000 0.000000 0.000000 0.000000 0.000000 207.000000 0.865291 -0.465926 -0.184891
-9.93000031 -6.25000000 -1.32000005 111 154 123 0.000000 0.000000 0.000000 0.000000 0.000000 0.000000 207.000000 0.900798 -0.354147 -0.251283
-9.89999962 -6.26000023 -1.33000004 111 154 123 0.000000 0.000000 0.000000 0.000000 0.000000 0.000000 207.000000 0.763852 -0.459620 -0.453077
-9.97000027 -6.25000000 -1.45000005 111 154 123 0.000000 0.000000 0.000000 0.000000 0.000000 0.000000 207.000000 0.909186 -0.352364 -0.221859
-9.92000008 -6.19999981 -1.47000003 111 154 123 0.000000 0.000000 0.000000 0.000000 0.000000 0.000000 207.000000 -0.719980 0.149430 0.677717
-9.93999958 -6.15000010 -1.47000003 111 154 123 0.000000 0.000000 0.000000 0.000000 0.000000 0.000000 207.000000 -0.605177 -0.168358 0.778085
-9.94999981 -6.19999981 -1.50999999 111 154 123 0.000000 0.000000 0.000000 0.000000 0.000000 0.000000 207.000000 0.980732 0.081022 -0.177765
-9.97999954 -6.19000006 -1.47000003 111 154 123 0.000000 0.000000 0.000000 0.000000 0.000000 0.000000 207.000000 0.976801 0.107982 -0.184934
-10.14000034 -6.21999979 -1.32000005 111 154 123 0.000000 0.000000 0.000000 0.000000 0.000000 0.000000 207.000000 0.567676 0.523879 -0.635056
-10.14000034 -6.26000023 -1.33000004 111 154 123 0.000000 0.000000 0.000000 0.000000 0.000000 0.000000 207.000000 0.181665 0.958711 -0.218793
-10.14999962 -6.19000006 -1.30999994 111 154 123 0.000000 0.000000 0.000000 0.000000 0.000000 0.000000 207.000000 -0.298130 0.935989 0.187198
-10.15999985 -6.17999983 -1.30999994 111 154 123 0.000000 0.000000 0.000000 0.000000 0.000000 0.000000 207.000000 -0.403817 0.883628 0.236926
-10.15999985 -6.17999983 -1.37000000 111 154 123 0.000000 0.000000 0.000000 0.000000 0.000000 0.000000 207.000000 -0.103037 0.994578 -0.014100
-10.18999958 -6.19999981 -1.38999999 111 154 123 0.000000 0.000000 0.000000 0.000000 0.000000 0.000000 207.000000 -0.385365 0.908666 0.160687
-9.50000000 -6.09999990 0.12000000 111 154 123 0.000000 0.000000 0.000000 0.000000 0.000000 0.000000 207.000000 0.673002 0.739608 0.006938
-9.50000000 -6.09999990 0.12000000 111 154 123 0.000000 0.000000 0.000000 0.000000 0.000000 0.000000 207.000000 0.673002 0.739608 0.006938
-9.53999996 -6.09000015 0.12000000 111 154 123 0.000000 0.000000 0.000000 0.000000 0.000000 0.000000 207.000000 0.680786 0.483408 -0.550316
-9.51000023 -6.09000015 0.11000000 111 154 123 0.000000 0.000000 0.000000 0.000000 0.000000 0.000000 207.000000 0.614658 0.741719 -0.268417
-9.50000000 -6.09999990 0.10000000 111 154 123 0.000000 0.000000 0.000000 0.000000 0.000000 0.000000 207.000000 0.693206 0.496102 -0.522828
-9.50000000 -6.09000015 0.13000000 111 154 123 0.000000 0.000000 0.000000 0.000000 0.000000 0.000000 207.000000 0.640559 0.499333 -0.583396
-9.48999977 -6.11000013 0.08000000 111 154 123 0.000000 0.000000 0.000000 0.000000 0.000000 0.000000 207.000000 0.492016 0.843240 -0.216487
-9.52000046 -6.09000015 0.08000000 111 154 123 0.000000 0.000000 0.000000 0.000000 0.000000 0.000000 207.000000 0.564460 0.725734 -0.393312
-9.47999954 -6.13999987 0.00000000 111 154 123 0.000000 0.000000 0.000000 0.000000 0.000000 0.000000 207.000000 -0.501226 0.856562 -0.122779
-9.52999973 -6.07999992 -0.05000000 111 154 123 0.000000 0.000000 0.000000 0.000000 0.000000 0.000000 207.000000 0.143658 0.919134 -0.366817
-9.55000019 -6.09999990 0.05000000 111 154 123 0.000000 0.000000 0.000000 0.000000 0.000000 0.000000 207.000000 0.471666 0.729841 -0.494836
-9.56999969 -6.05999994 0.02000000 111 154 123 0.000000 0.000000 0.000000 0.000000 0.000000 0.000000 207.000000 0.924288 0.024700 -0.380895
-9.60000038 -6.05999994 0.02000000 111 154 123 0.000000 0.000000 0.000000 0.000000 0.000000 0.000000 207.000000 0.811811 0.012363 -0.583790
-9.63000011 -6.03999996 0.05000000 111 154 123 0.000000 0.000000 0.000000 0.000000 0.000000 0.000000 207.000000 0.933860 -0.147162 -0.325957
-9.63000011 -6.07999992 -0.04000000 111 154 123 0.000000 0.000000 0.000000 0.000000 0.000000 0.000000 207.000000 0.960055 -0.126701 -0.249484
-9.71000004 -6.09000015 -0.02000000 111 154 123 0.000000 0.000000 0.000000 0.000000 0.000000 0.000000 207.000000 0.890830 0.370311 -0.263233
-9.59000015 -6.11000013 -0.16000000 111 154 123 0.000000 0.000000 0.000000 0.000000 0.000000 0.000000 207.000000 0.358655 0.761128 -0.540417
-9.60999966 -6.07000017 -0.23000000 111 154 123 0.000000 0.000000 0.000000 0.000000 0.000000 0.000000 207.000000 -0.324168 0.921095 0.215636
-9.60000038 -6.07999992 -0.20999999 111 154 123 0.000000 0.000000 0.000000 0.000000 0.000000 0.000000 207.000000 0.102171 0.978623 -0.178491
-9.68999958 -6.07000017 -0.08000000 111 154 123 0.000000 0.000000 0.000000 0.000000 0.000000 0.000000 207.000000 0.809287 -0.315163 -0.495708
-9.68999958 -6.05000019 -0.33000001 111 154 123 0.000000 0.000000 0.000000 0.000000 0.000000 0.000000 207.000000 0.784345 -0.587875 -0.198005
-9.65999985 -6.07000017 -0.27000001 111 154 123 0.000000 0.000000 0.000000 0.000000 0.000000 0.000000 207.000000 0.701102 -0.605870 -0.376001
-9.71000004 -6.07000017 -0.40000001 111 154 123 0.000000 0.000000 0.000000 0.000000 0.000000 0.000000 207.000000 -0.584819 0.807879 0.072924
-9.65999985 -6.13999987 -0.47000000 111 154 123 0.000000 0.000000 0.000000 0.000000 0.000000 0.000000 207.000000 0.898195 -0.177332 -0.402242
-9.65999985 -6.13999987 -0.47000000 111 154 123 0.000000 0.000000 0.000000 0.000000 0.000000 0.000000 207.000000 0.898195 -0.177332 -0.402242
-9.69999981 -6.11999989 -0.52999997 111 154 123 0.000000 0.000000 0.000000 0.000000 0.000000 0.000000 207.000000 0.742401 -0.047023 -0.668303
-9.72000027 -6.13000011 0.10000000 111 154 123 0.000000 0.000000 0.000000 0.000000 0.000000 0.000000 207.000000 0.719565 0.554148 -0.418506
-9.72000027 -6.03999996 -0.03000000 111 154 123 0.000000 0.000000 0.000000 0.000000 0.000000 0.000000 207.000000 0.690722 -0.275970 -0.668389
-9.75000000 -6.03000021 -0.10000000 111 154 123 0.000000 0.000000 0.000000 0.000000 0.000000 0.000000 207.000000 0.744029 0.089167 -0.662171
-9.75000000 -6.09000015 -0.13000000 111 154 123 0.000000 0.000000 0.000000 0.000000 0.000000 0.000000 207.000000 0.832392 0.380657 -0.402770
-9.72999954 -6.09000015 -0.22000000 111 154 123 0.000000 0.000000 0.000000 0.000000 0.000000 0.000000 207.000000 0.732085 0.159149 -0.662362
-9.80000019 -6.13999987 -0.19000000 111 154 123 0.000000 0.000000 0.000000 0.000000 0.000000 0.000000 207.000000 -0.606512 -0.379686 0.698557
-9.72000027 -6.07000017 -0.30000001 111 154 123 0.000000 0.000000 0.000000 0.000000 0.000000 0.000000 207.000000 0.759635 -0.129839 -0.637257
-9.72000027 -6.07000017 -0.41000000 111 154 123 0.000000 0.000000 0.000000 0.000000 0.000000 0.000000 207.000000 -0.653246 0.748048 0.117021
-9.75000000 -6.07999992 -0.38999999 111 154 123 0.000000 0.000000 0.000000 0.000000 0.000000 0.000000 207.000000 -0.708062 0.098628 0.699229
-9.80000019 -6.07000017 -0.27000001 111 154 123 0.000000 0.000000 0.000000 0.000000 0.000000 0.000000 207.000000 0.684741 -0.044131 -0.727449
-9.81000042 -6.11000013 -0.25999999 111 154 123 0.000000 0.000000 0.000000 0.000000 0.000000 0.000000 207.000000 0.989656 0.103745 -0.099082
-9.85999966 -6.13000011 -0.36000001 111 154 123 0.000000 0.000000 0.000000 0.000000 0.000000 0.000000 207.000000 0.738415 -0.152515 -0.656873
-9.85999966 -6.13000011 -0.36000001 111 154 123 0.000000 0.000000 0.000000 0.000000 0.000000 0.000000 207.000000 0.738415 -0.152515 -0.656873
-9.75000000 -6.09000015 -0.43000001 111 154 123 0.000000 0.000000 0.000000 0.000000 0.000000 0.000000 207.000000 0.964430 -0.257098 -0.061453
-9.75000000 -6.07000017 -0.50000000 111 154 123 0.000000 0.000000 0.000000 0.000000 0.000000 0.000000 207.000000 -0.104359 0.994160 -0.027463
-9.73999977 -6.09000015 -0.47000000 111 154 123 0.000000 0.000000 0.000000 0.000000 0.000000 0.000000 207.000000 0.812624 -0.561204 -0.157137
-9.73999977 -6.09000015 -0.47000000 111 154 123 0.000000 0.000000 0.000000 0.000000 0.000000 0.000000 207.000000 0.812624 -0.561204 -0.157137
-9.73999977 -6.09000015 -0.47000000 111 154 123 0.000000 0.000000 0.000000 0.000000 0.000000 0.000000 207.000000 0.812624 -0.561204 -0.157137
-9.75000000 -6.07999992 -0.56999999 111 154 123 0.000000 0.000000 0.000000 0.000000 0.000000 0.000000 207.000000 0.046016 0.963857 -0.262418
-9.76000023 -6.07999992 -0.56000000 111 154 123 0.000000 0.000000 0.000000 0.000000 0.000000 0.000000 207.000000 0.101531 0.994568 0.022926
-9.84000015 -6.09000015 -0.47999999 111 154 123 0.000000 0.000000 0.000000 0.000000 0.000000 0.000000 207.000000 0.919884 0.011644 -0.392018
-9.88000011 -6.13000011 -0.44000000 111 154 123 0.000000 0.000000 0.000000 0.000000 0.000000 0.000000 207.000000 0.923739 0.134337 -0.358693
-9.80000019 -6.07000017 -0.56999999 111 154 123 0.000000 0.000000 0.000000 0.000000 0.000000 0.000000 207.000000 -0.064728 0.975805 0.208839
-9.81000042 -6.13999987 -0.50999999 111 154 123 0.000000 0.000000 0.000000 0.000000 0.000000 0.000000 207.000000 0.770335 0.009681 -0.637566
-9.89999962 -6.13999987 -0.47000000 111 154 123 0.000000 0.000000 0.000000 0.000000 0.000000 0.000000 207.000000 0.995992 0.044727 -0.077454
-9.96000004 -6.11000013 -0.56000000 111 154 123 0.000000 0.000000 0.000000 0.000000 0.000000 0.000000 207.000000 0.758230 0.029541 -0.651318
-9.92000008 -6.11000013 -0.58999997 111 154 123 0.000000 0.000000 0.000000 0.000000 0.000000 0.000000 207.000000 0.877048 -0.091506 -0.471607
-9.52000046 -6.19000006 -0.06000000 111 154 123 0.000000 0.000000 0.000000 0.000000 0.000000 0.000000 207.000000 -0.248467 0.958372 0.140666
-9.52999973 -6.19000006 -0.03000000 111 154 123 0.000000 0.000000 0.000000 0.000000 0.000000 0.000000 207.000000 0.218804 0.971491 0.091273
-9.52999973 -6.19000006 -0.05000000 111 154 123 0.000000 0.000000 0.000000 0.000000 0.000000 0.000000 207.000000 0.174246 0.981788 -0.075707
-9.53999996 -6.19000006 -0.09000000 111 154 123 0.000000 0.000000 0.000000 0.000000 0.000000 0.000000 207.000000 -0.300096 0.947880 0.107083
-9.65999985 -6.23999977 0.04000000 111 154 123 0.000000 0.000000 0.000000 0.000000 0.000000 0.000000 207.000000 0.755828 0.414804 -0.506618
-9.59000015 -6.19000006 -0.14000000 111 154 123 0.000000 0.000000 0.000000 0.000000 0.000000 0.000000 207.000000 0.071655 0.995448 -0.062836
-9.57999992 -6.19999981 -0.23999999 111 154 123 0.000000 0.000000 0.000000 0.000000 0.000000 0.000000 207.000000 -0.128304 0.987585 -0.090636
-9.64000034 -6.21999979 -0.23999999 111 154 123 0.000000 0.000000 0.000000 0.000000 0.000000 0.000000 207.000000 -0.031266 0.999511 0.001009
-9.64999962 -6.23000002 -0.22000000 111 154 123 0.000000 0.000000 0.000000 0.000000 0.000000 0.000000 207.000000 0.027841 0.999165 0.029903
-9.64999962 -6.23000002 -0.22000000 111 154 123 0.000000 0.000000 0.000000 0.000000 0.000000 0.000000 207.000000 0.027841 0.999165 0.029903
-9.60000038 -6.17000008 -0.31999999 111 154 123 0.000000 0.000000 0.000000 0.000000 0.000000 0.000000 207.000000 -0.423731 0.903324 0.066762
-9.69999981 -6.23999977 -0.30000001 111 154 123 0.000000 0.000000 0.000000 0.000000 0.000000 0.000000 207.000000 0.189206 0.815855 -0.546426
-9.68999958 -6.23000002 -0.33000001 111 154 123 0.000000 0.000000 0.000000 0.000000 0.000000 0.000000 207.000000 -0.160313 0.938582 -0.305553
-9.67000008 -6.23999977 -0.33000001 111 154 123 0.000000 0.000000 0.000000 0.000000 0.000000 0.000000 207.000000 -0.200287 0.931403 -0.303931
-9.68999958 -6.23999977 -0.38999999 111 154 123 0.000000 0.000000 0.000000 0.000000 0.000000 0.000000 207.000000 0.132270 0.973763 0.185179
-9.69999981 -6.25000000 -0.40000001 111 154 123 0.000000 0.000000 0.000000 0.000000 0.000000 0.000000 207.000000 -0.168990 0.985586 0.007939
-9.71000004 -6.26999998 -0.37000000 111 154 123 0.000000 0.000000 0.000000 0.000000 0.000000 0.000000 207.000000 0.327500 0.852120 -0.408210
-9.71000004 -6.23999977 -0.44000000 111 154 123 0.000000 0.000000 0.000000 0.000000 0.000000 0.000000 207.000000 -0.217842 0.972197 0.085892
-9.69999981 -6.25000000 -0.44999999 111 154 123 0.000000 0.000000 0.000000 0.000000 0.000000 0.000000 207.000000 -0.206908 0.930382 -0.302620
-9.77999973 -6.21000004 -0.19000000 111 154 123 0.000000 0.000000 0.000000 0.000000 0.000000 0.000000 207.000000 0.494045 0.853887 -0.163698
-9.85000038 -6.15999985 -0.23999999 111 154 123 0.000000 0.000000 0.000000 0.000000 0.000000 0.000000 207.000000 0.640183 0.178762 -0.747135
-9.85000038 -6.19000006 -0.22000000 111 154 123 0.000000 0.000000 0.000000 0.000000 0.000000 0.000000 207.000000 0.493290 0.520044 -0.697294
-9.73999977 -6.25000000 -0.41999999 111 154 123 0.000000 0.000000 0.000000 0.000000 0.000000 0.000000 207.000000 0.207387 0.975576 -0.072401
-9.73999977 -6.23999977 -0.38999999 111 154 123 0.000000 0.000000 0.000000 0.000000 0.000000 0.000000 207.000000 0.084505 0.995407 0.044996
-9.75000000 -6.25000000 -0.41999999 111 154 123 0.000000 0.000000 0.000000 0.000000 0.000000 0.000000 207.000000 0.055116 0.993219 -0.102359
-9.81999969 -6.21999979 -0.28999999 111 154 123 0.000000 0.000000 0.000000 0.000000 0.000000 0.000000 207.000000 0.680964 0.731719 -0.029607
-9.85000038 -6.15000010 -0.28999999 111 154 123 0.000000 0.000000 0.000000 0.000000 0.000000 0.000000 207.000000 -0.672752 -0.123810 0.729436
-9.85999966 -6.19000006 -0.30000001 111 154 123 0.000000 0.000000 0.000000 0.000000 0.000000 0.000000 207.000000 0.655846 0.578687 -0.484755
-9.81999969 -6.21000004 -0.34000000 111 154 123 0.000000 0.000000 0.000000 0.000000 0.000000 0.000000 207.000000 0.433665 0.874781 -0.216087
-9.81999969 -6.21999979 -0.34000000 111 154 123 0.000000 0.000000 0.000000 0.000000 0.000000 0.000000 207.000000 0.624762 0.780605 -0.018089
-9.86999989 -6.15000010 -0.37000000 111 154 123 0.000000 0.000000 0.000000 0.000000 0.000000 0.000000 207.000000 0.911293 0.199480 -0.360212
-9.86999989 -6.19999981 -0.41000000 111 154 123 0.000000 0.000000 0.000000 0.000000 0.000000 0.000000 207.000000 0.577369 0.440931 -0.687186
-9.85999966 -6.19000006 -0.38999999 111 154 123 0.000000 0.000000 0.000000 0.000000 0.000000 0.000000 207.000000 0.575663 0.629684 -0.521642
-9.77000046 -6.26000023 -0.43000001 111 154 123 0.000000 0.000000 0.000000 0.000000 0.000000 0.000000 207.000000 0.142011 0.887929 -0.437510
-9.75000000 -6.26000023 -0.50000000 111 154 123 0.000000 0.000000 0.000000 0.000000 0.000000 0.000000 207.000000 -0.134147 0.986514 0.093784
-9.78999996 -6.25000000 -0.44000000 111 154 123 0.000000 0.000000 0.000000 0.000000 0.000000 0.000000 207.000000 0.480228 0.857869 -0.182873
-9.77999973 -6.25000000 -0.44999999 111 154 123 0.000000 0.000000 0.000000 0.000000 0.000000 0.000000 207.000000 0.142033 0.989755 -0.014539
-9.73999977 -6.26000023 -0.44999999 111 154 123 0.000000 0.000000 0.000000 0.000000 0.000000 0.000000 207.000000 0.176632 0.943405 -0.280694
-9.75000000 -6.25000000 -0.50000000 111 154 123 0.000000 0.000000 0.000000 0.000000 0.000000 0.000000 207.000000 -0.129925 0.990823 0.037283
-9.76000023 -6.26999998 -0.50000000 111 154 123 0.000000 0.000000 0.000000 0.000000 0.000000 0.000000 207.000000 -0.139466 0.926553 -0.349356
-9.72000027 -6.26000023 -0.43000001 111 154 123 0.000000 0.000000 0.000000 0.000000 0.000000 0.000000 207.000000 -0.003802 0.931498 -0.363728
-9.76000023 -6.25000000 -0.50000000 111 154 123 0.000000 0.000000 0.000000 0.000000 0.000000 0.000000 207.000000 0.042712 0.995522 0.084329
-9.81999969 -6.23999977 -0.47000000 111 154 123 0.000000 0.000000 0.000000 0.000000 0.000000 0.000000 207.000000 0.540067 0.839008 -0.066275
-9.80000019 -6.26000023 -0.49000001 111 154 123 0.000000 0.000000 0.000000 0.000000 0.000000 0.000000 207.000000 0.512755 0.823796 -0.241749
-9.80000019 -6.25000000 -0.52999997 111 154 123 0.000000 0.000000 0.000000 0.000000 0.000000 0.000000 207.000000 0.414325 0.908277 -0.058033
-9.81999969 -6.25000000 -0.50999999 111 154 123 0.000000 0.000000 0.000000 0.000000 0.000000 0.000000 207.000000 0.394014 0.914822 -0.088619
-9.81000042 -6.26000023 -0.58999997 111 154 123 0.000000 0.000000 0.000000 0.000000 0.000000 0.000000 207.000000 -0.232659 0.932045 -0.277780
-9.81999969 -6.26000023 -0.57999998 111 154 123 0.000000 0.000000 0.000000 0.000000 0.000000 0.000000 207.000000 0.152215 0.974934 0.162279
-9.84000015 -6.23000002 -0.55000001 111 154 123 0.000000 0.000000 0.000000 0.000000 0.000000 0.000000 207.000000 0.302490 0.895549 -0.326331
-9.89000034 -6.17999983 -0.44000000 111 154 123 0.000000 0.000000 0.000000 0.000000 0.000000 0.000000 207.000000 0.858681 0.488788 -0.154122
-9.96000004 -6.15000010 -0.56999999 111 154 123 0.000000 0.000000 0.000000 0.000000 0.000000 0.000000 207.000000 0.887206 0.056048 -0.457957
-9.96000004 -6.17999983 -0.58999997 111 154 123 0.000000 0.000000 0.000000 0.000000 0.000000 0.000000 207.000000 0.763652 0.565134 -0.312185
-9.82999992 -6.09000015 -0.68000001 111 154 123 0.000000 0.000000 0.000000 0.000000 0.000000 0.000000 207.000000 -0.259254 0.948787 0.180527
-9.85000038 -6.07000017 -0.60000002 111 154 123 0.000000 0.000000 0.000000 0.000000 0.000000 0.000000 207.000000 -0.675541 0.528028 0.514618
-9.78999996 -6.13999987 -0.85000002 111 154 123 0.000000 0.000000 0.000000 0.000000 0.000000 0.000000 207.000000 0.961918 -0.134070 -0.238201
-9.77999973 -6.13999987 -0.88000000 111 154 123 0.000000 0.000000 0.000000 0.000000 0.000000 0.000000 207.000000 -0.674783 0.038195 0.737027
-9.81999969 -6.11999989 -0.87000000 111 154 123 0.000000 0.000000 0.000000 0.000000 0.000000 0.000000 207.000000 -0.616279 -0.253762 0.745524
-9.92000008 -6.13999987 -0.63000000 111 154 123 0.000000 0.000000 0.000000 0.000000 0.000000 0.000000 207.000000 0.828093 -0.291626 -0.478766
-9.90999985 -6.13999987 -0.70999998 111 154 123 0.000000 0.000000 0.000000 0.000000 0.000000 0.000000 207.000000 0.857827 -0.095314 -0.505023
-10.00000000 -6.13999987 -0.75000000 111 154 123 0.000000 0.000000 0.000000 0.000000 0.000000 0.000000 207.000000 0.913275 0.083025 -0.398792
-9.90999985 -6.09999990 -0.80000001 111 154 123 0.000000 0.000000 0.000000 0.000000 0.000000 0.000000 207.000000 -0.672851 0.738287 0.046943
-9.89999962 -6.13000011 -0.82999998 111 154 123 0.000000 0.000000 0.000000 0.000000 0.000000 0.000000 207.000000 -0.122391 0.898939 -0.420630
-9.97000027 -6.11999989 -0.91000003 111 154 123 0.000000 0.000000 0.000000 0.000000 0.000000 0.000000 207.000000 -0.283626 0.886893 0.364661
-9.78999996 -6.13000011 -0.94000000 111 154 123 0.000000 0.000000 0.000000 0.000000 0.000000 0.000000 207.000000 0.892121 -0.067356 -0.446748
-9.85000038 -6.13999987 -1.10000002 111 154 123 0.000000 0.000000 0.000000 0.000000 0.000000 0.000000 207.000000 0.751689 0.101500 -0.651660
-9.96000004 -6.09000015 -1.03999996 111 154 123 0.000000 0.000000 0.000000 0.000000 0.000000 0.000000 207.000000 0.148342 0.986997 0.061906
-9.98999977 -6.13000011 -0.97000003 111 154 123 0.000000 0.000000 0.000000 0.000000 0.000000 0.000000 207.000000 -0.492818 0.868952 0.045301
-9.98999977 -6.13000011 -0.97000003 111 154 123 0.000000 0.000000 0.000000 0.000000 0.000000 0.000000 207.000000 -0.492818 0.868952 0.045301
-10.01000023 -6.13999987 -1.00000000 111 154 123 0.000000 0.000000 0.000000 0.000000 0.000000 0.000000 207.000000 -0.532395 0.781806 0.324553
-10.02000046 -6.09999990 -1.03999996 111 154 123 0.000000 0.000000 0.000000 0.000000 0.000000 0.000000 207.000000 -0.271132 0.961962 0.033427
-10.02000046 -6.13000011 -1.03999996 111 154 123 0.000000 0.000000 0.000000 0.000000 0.000000 0.000000 207.000000 -0.446465 0.894270 0.030837
-10.05000019 -6.13999987 -1.03999996 111 154 123 0.000000 0.000000 0.000000 0.000000 0.000000 0.000000 207.000000 -0.603203 0.714362 0.354729
-10.03999996 -6.13999987 -1.08000004 111 154 123 0.000000 0.000000 0.000000 0.000000 0.000000 0.000000 207.000000 0.645798 -0.750684 0.139349
-10.05000019 -6.11000013 -1.21000004 111 154 123 0.000000 0.000000 0.000000 0.000000 0.000000 0.000000 207.000000 0.055762 0.996065 0.068883
-10.06999969 -6.13999987 -1.19000006 111 154 123 0.000000 0.000000 0.000000 0.000000 0.000000 0.000000 207.000000 -0.351181 0.936056 0.021709
-10.07999992 -6.09000015 -1.39999998 111 154 123 0.000000 0.000000 0.000000 0.000000 0.000000 0.000000 207.000000 0.612544 0.787556 0.067423
-9.64000034 -6.21000004 -0.61000001 111 154 123 0.000000 0.000000 0.000000 0.000000 0.000000 0.000000 207.000000 -0.697174 0.652091 0.297869
-9.71000004 -6.17000008 -0.66000003 111 154 123 0.000000 0.000000 0.000000 0.000000 0.000000 0.000000 207.000000 0.754798 -0.505928 -0.417513
-9.68999958 -6.21000004 -0.68000001 111 154 123 0.000000 0.000000 0.000000 0.000000 0.000000 0.000000 207.000000 -0.481875 0.854844 0.192452
-9.72999954 -6.21000004 -0.63000000 111 154 123 0.000000 0.000000 0.000000 0.000000 0.000000 0.000000 207.000000 -0.494753 0.665820 0.558484
-9.72000027 -6.17999983 -0.64999998 111 154 123 0.000000 0.000000 0.000000 0.000000 0.000000 0.000000 207.000000 0.738702 -0.548703 -0.391463
-9.72000027 -6.17999983 -0.63999999 111 154 123 0.000000 0.000000 0.000000 0.000000 0.000000 0.000000 207.000000 0.769934 -0.294902 -0.565893
-9.75000000 -6.21000004 -0.72000003 111 154 123 0.000000 0.000000 0.000000 0.000000 0.000000 0.000000 207.000000 0.721254 -0.655544 -0.223730
-9.76000023 -6.17000008 -0.72000003 111 154 123 0.000000 0.000000 0.000000 0.000000 0.000000 0.000000 207.000000 0.810930 -0.574226 -0.112507
-9.73999977 -6.19999981 -0.69999999 111 154 123 0.000000 0.000000 0.000000 0.000000 0.000000 0.000000 207.000000 -0.528597 0.843750 0.093113
-9.76000023 -6.23000002 -0.63000000 111 154 123 0.000000 0.000000 0.000000 0.000000 0.000000 0.000000 207.000000 -0.524415 0.806190 0.273948
-9.72999954 -6.23000002 -0.62000000 111 154 123 0.000000 0.000000 0.000000 0.000000 0.000000 0.000000 207.000000 -0.307896 0.852517 0.422391
-9.77999973 -6.26000023 -0.69000000 111 154 123 0.000000 0.000000 0.000000 0.000000 0.000000 0.000000 207.000000 -0.386886 0.819944 0.421913
-9.77999973 -6.23999977 -0.69999999 111 154 123 0.000000 0.000000 0.000000 0.000000 0.000000 0.000000 207.000000 -0.488259 0.780241 0.390932
-9.84000015 -6.26000023 -0.63000000 111 154 123 0.000000 0.000000 0.000000 0.000000 0.000000 0.000000 207.000000 0.588100 0.798454 -0.128878
-9.80000019 -6.26000023 -0.67000002 111 154 123 0.000000 0.000000 0.000000 0.000000 0.000000 0.000000 207.000000 -0.067411 0.974397 -0.214490
-9.81999969 -6.26000023 -0.60000002 111 154 123 0.000000 0.000000 0.000000 0.000000 0.000000 0.000000 207.000000 -0.006296 0.938109 -0.346282
-9.80000019 -6.26000023 -0.64999998 111 154 123 0.000000 0.000000 0.000000 0.000000 0.000000 0.000000 207.000000 0.262181 0.959610 -0.102031
-9.88000011 -6.26000023 -0.62000000 111 154 123 0.000000 0.000000 0.000000 0.000000 0.000000 0.000000 207.000000 0.631882 0.775054 -0.004130
-9.82999992 -6.25000000 -0.67000002 111 154 123 0.000000 0.000000 0.000000 0.000000 0.000000 0.000000 207.000000 0.242130 0.964679 0.103770
-9.86999989 -6.26000023 -0.72000003 111 154 123 0.000000 0.000000 0.000000 0.000000 0.000000 0.000000 207.000000 0.440033 0.897454 -0.030762
-9.82999992 -6.26000023 -0.73000002 111 154 123 0.000000 0.000000 0.000000 0.000000 0.000000 0.000000 207.000000 -0.025017 0.999686 0.001001
-9.81999969 -6.26000023 -0.74000001 111 154 123 0.000000 0.000000 0.000000 0.000000 0.000000 0.000000 207.000000 -0.062808 0.971673 0.227832
-9.77999973 -6.23999977 -0.81000000 111 154 123 0.000000 0.000000 0.000000 0.000000 0.000000 0.000000 207.000000 -0.413027 0.814891 0.406648
-9.75000000 -6.23999977 -0.92000002 111 154 123 0.000000 0.000000 0.000000 0.000000 0.000000 0.000000 207.000000 0.644775 -0.550500 -0.530298
-9.81000042 -6.21999979 -0.88999999 111 154 123 0.000000 0.000000 0.000000 0.000000 0.000000 0.000000 207.000000 -0.544074 0.824310 0.156514
-9.86999989 -6.26999998 -0.81000000 111 154 123 0.000000 0.000000 0.000000 0.000000 0.000000 0.000000 207.000000 0.169045 0.957036 -0.235598
-9.81000042 -6.23999977 -0.77999997 111 154 123 0.000000 0.000000 0.000000 0.000000 0.000000 0.000000 207.000000 -0.383487 0.852366 0.355541
-9.81999969 -6.26000023 -0.82999998 111 154 123 0.000000 0.000000 0.000000 0.000000 0.000000 0.000000 207.000000 -0.244477 0.958087 0.149329
-9.84000015 -6.25000000 -0.88999999 111 154 123 0.000000 0.000000 0.000000 0.000000 0.000000 0.000000 207.000000 -0.468238 0.698191 0.541556
-9.92000008 -6.21000004 -0.66000003 111 154 123 0.000000 0.000000 0.000000 0.000000 0.000000 0.000000 207.000000 0.499273 0.746437 -0.439953
-9.93999958 -6.19999981 -0.63000000 111 154 123 0.000000 0.000000 0.000000 0.000000 0.000000 0.000000 207.000000 0.636036 0.675480 -0.373075
-9.97000027 -6.21000004 -0.64999998 111 154 123 0.000000 0.000000 0.000000 0.000000 0.000000 0.000000 207.000000 0.603859 0.542965 -0.583561
-9.93999958 -6.23000002 -0.69999999 111 154 123 0.000000 0.000000 0.000000 0.000000 0.000000 0.000000 207.000000 0.292691 0.789475 -0.539501
-9.94999981 -6.23000002 -0.69999999 111 154 123 0.000000 0.000000 0.000000 0.000000 0.000000 0.000000 207.000000 0.570140 0.607360 -0.553222
-9.97999954 -6.19999981 -0.69000000 111 154 123 0.000000 0.000000 0.000000 0.000000 0.000000 0.000000 207.000000 0.732695 0.607090 -0.307571
-9.90999985 -6.25000000 -0.83999997 111 154 123 0.000000 0.000000 0.000000 0.000000 0.000000 0.000000 207.000000 0.239858 0.867410 -0.435968
-9.96000004 -6.23000002 -0.88999999 111 154 123 0.000000 0.000000 0.000000 0.000000 0.000000 0.000000 207.000000 0.245235 0.940762 -0.234151
-10.00000000 -6.21999979 -0.88000000 111 154 123 0.000000 0.000000 0.000000 0.000000 0.000000 0.000000 207.000000 0.565591 0.812017 -0.143996
-10.01000023 -6.19999981 -0.88000000 111 154 123 0.000000 0.000000 0.000000 0.000000 0.000000 0.000000 207.000000 0.676744 0.466201 -0.569802
-9.81000042 -6.19000006 -0.97000003 111 154 123 0.000000 0.000000 0.000000 0.000000 0.000000 0.000000 207.000000 0.777874 -0.184917 -0.600598
-9.84000015 -6.23999977 -1.03999996 111 154 123 0.000000 0.000000 0.000000 0.000000 0.000000 0.000000 207.000000 0.776536 -0.293781 -0.557391
-9.86999989 -6.15999985 -1.16999996 111 154 123 0.000000 0.000000 0.000000 0.000000 0.000000 0.000000 207.000000 0.814839 -0.189674 -0.547778
-9.88000011 -6.17000008 -1.26999998 111 154 123 0.000000 0.000000 0.000000 0.000000 0.000000 0.000000 207.000000 -0.691199 0.026747 0.722169
-10.02999973 -6.15999985 -0.94999999 111 154 123 0.000000 0.000000 0.000000 0.000000 0.000000 0.000000 207.000000 0.773448 -0.546057 -0.321870
-10.01000023 -6.15000010 -1.02999997 111 154 123 0.000000 0.000000 0.000000 0.000000 0.000000 0.000000 207.000000 -0.226913 0.864074 0.449318
-10.05000019 -6.15000010 -1.08000004 111 154 123 0.000000 0.000000 0.000000 0.000000 0.000000 0.000000 207.000000 -0.609519 0.769192 -0.191914
-10.00000000 -6.23999977 -1.00999999 111 154 123 0.000000 0.000000 0.000000 0.000000 0.000000 0.000000 207.000000 -0.216098 0.927948 -0.303667
-9.98999977 -6.23999977 -1.04999995 111 154 123 0.000000 0.000000 0.000000 0.000000 0.000000 0.000000 207.000000 -0.097885 0.954049 -0.283213
-10.05000019 -6.23999977 -1.11000001 111 154 123 0.000000 0.000000 0.000000 0.000000 0.000000 0.000000 207.000000 0.299013 0.954113 0.016129
-10.03999996 -6.23999977 -1.09000003 111 154 123 0.000000 0.000000 0.000000 0.000000 0.000000 0.000000 207.000000 0.218971 0.975196 0.032307
-10.02999973 -6.23999977 -1.03999996 111 154 123 0.000000 0.000000 0.000000 0.000000 0.000000 0.000000 207.000000 0.169304 0.983855 -0.058013
-10.05000019 -6.15000010 -1.17999995 111 154 123 0.000000 0.000000 0.000000 0.000000 0.000000 0.000000 207.000000 -0.086461 0.993741 -0.070741
-10.05000019 -6.23999977 -1.16999996 111 154 123 0.000000 0.000000 0.000000 0.000000 0.000000 0.000000 207.000000 0.042795 0.969612 -0.240875
-10.06000042 -6.21000004 -0.95999998 111 154 123 0.000000 0.000000 0.000000 0.000000 0.000000 0.000000 207.000000 0.756124 0.351347 -0.552116
-10.06000042 -6.15999985 -1.03999996 111 154 123 0.000000 0.000000 0.000000 0.000000 0.000000 0.000000 207.000000 0.698239 -0.340168 -0.629880
-10.10000038 -6.19999981 -1.13999999 111 154 123 0.000000 0.000000 0.000000 0.000000 0.000000 0.000000 207.000000 0.890486 -0.244476 -0.383753
-10.06000042 -6.15999985 -1.12000000 111 154 123 0.000000 0.000000 0.000000 0.000000 0.000000 0.000000 207.000000 -0.745638 0.529321 0.404775
-10.06999969 -6.15999985 -1.15999997 111 154 123 0.000000 0.000000 0.000000 0.000000 0.000000 0.000000 207.000000 -0.501450 0.808331 0.308463
-10.10000038 -6.17999983 -1.17999995 111 154 123 0.000000 0.000000 0.000000 0.000000 0.000000 0.000000 207.000000 0.893300 -0.445968 0.055917
-10.10999966 -6.17000008 -1.25000000 111 154 123 0.000000 0.000000 0.000000 0.000000 0.000000 0.000000 207.000000 -0.483186 0.839057 0.250030
-10.10999966 -6.17000008 -1.22000003 111 154 123 0.000000 0.000000 0.000000 0.000000 0.000000 0.000000 207.000000 0.814367 -0.547461 -0.192597
-10.11999989 -6.19000006 -1.22000003 111 154 123 0.000000 0.000000 0.000000 0.000000 0.000000 0.000000 207.000000 0.786498 -0.568459 -0.241401
-10.10999966 -6.23999977 -1.25999999 111 154 123 0.000000 0.000000 0.000000 0.000000 0.000000 0.000000 207.000000 0.212312 0.970023 -0.118233
-10.09000015 -6.23999977 -1.23000002 111 154 123 0.000000 0.000000 0.000000 0.000000 0.000000 0.000000 207.000000 0.129697 0.932452 -0.337212
-10.14999962 -6.19000006 -1.27999997 111 154 123 0.000000 0.000000 0.000000 0.000000 0.000000 0.000000 207.000000 0.923046 -0.330368 -0.197087
-9.85999966 -6.23999977 -1.30999994 111 154 123 0.000000 0.000000 0.000000 0.000000 0.000000 0.000000 207.000000 0.805010 -0.280891 -0.522551
-9.88000011 -6.23000002 -1.34000003 111 154 123 0.000000 0.000000 0.000000 0.000000 0.000000 0.000000 207.000000 0.791765 -0.135179 -0.595680
-9.84000015 -6.25000000 -1.42999995 111 154 123 0.000000 0.000000 0.000000 0.000000 0.000000 0.000000 207.000000 0.768561 -0.256187 -0.586244
-9.89999962 -6.15000010 -1.37000000 111 154 123 0.000000 0.000000 0.000000 0.000000 0.000000 0.000000 207.000000 0.763997 -0.006908 -0.645183
-9.89000034 -6.26000023 -1.46000004 111 154 123 0.000000 0.000000 0.000000 0.000000 0.000000 0.000000 207.000000 0.646701 -0.376831 -0.663156
-10.11999989 -6.21000004 -1.32000005 111 154 123 0.000000 0.000000 0.000000 0.000000 0.000000 0.000000 207.000000 0.769876 0.208283 -0.603249
-10.11999989 -6.17999983 -1.28999996 111 154 123 0.000000 0.000000 0.000000 0.000000 0.000000 0.000000 207.000000 -0.391199 0.906159 0.160747
-9.50000000 -6.11000013 0.07000000 111 154 123 0.000000 0.000000 0.000000 0.000000 0.000000 0.000000 207.000000 0.498826 0.866524 0.017574
-9.51000023 -6.11000013 0.05000000 111 154 123 0.000000 0.000000 0.000000 0.000000 0.000000 0.000000 207.000000 0.293557 0.954378 0.054645
-9.48999977 -6.09000015 0.01000000 111 154 123 0.000000 0.000000 0.000000 0.000000 0.000000 0.000000 207.000000 -0.124277 0.958896 -0.255095
-9.55000019 -6.09999990 -0.02000000 111 154 123 0.000000 0.000000 0.000000 0.000000 0.000000 0.000000 207.000000 0.625285 0.712534 -0.318298
-9.68999958 -6.09000015 -0.06000000 111 154 123 0.000000 0.000000 0.000000 0.000000 0.000000 0.000000 207.000000 0.926838 0.054209 -0.371528
-9.71000004 -6.07000017 -0.07000000 111 154 123 0.000000 0.000000 0.000000 0.000000 0.000000 0.000000 207.000000 0.736232 0.076963 -0.672338
-9.55000019 -6.11999989 -0.14000000 111 154 123 0.000000 0.000000 0.000000 0.000000 0.000000 0.000000 207.000000 -0.242126 0.886805 0.393640
-9.68999958 -6.05999994 -0.25000000 111 154 123 0.000000 0.000000 0.000000 0.000000 0.000000 0.000000 207.000000 0.645943 -0.240461 -0.724525
-9.69999981 -6.05000019 -0.34999999 111 154 123 0.000000 0.000000 0.000000 0.000000 0.000000 0.000000 207.000000 0.692111 -0.669836 -0.268889
-9.71000004 -6.05999994 -0.27000001 111 154 123 0.000000 0.000000 0.000000 0.000000 0.000000 0.000000 207.000000 0.684002 -0.687161 -0.244850
-9.65999985 -6.11999989 -0.34000000 111 154 123 0.000000 0.000000 0.000000 0.000000 0.000000 0.000000 207.000000 -0.100676 0.911597 -0.398565
-9.69999981 -6.05999994 -0.44000000 111 154 123 0.000000 0.000000 0.000000 0.000000 0.000000 0.000000 207.000000 0.043198 0.831916 -0.553217
-9.72000027 -6.07000017 -0.08000000 111 154 123 0.000000 0.000000 0.000000 0.000000 0.000000 0.000000 207.000000 0.824310 0.156514 -0.544074
-9.72000027 -6.13999987 -0.23999999 111 154 123 0.000000 0.000000 0.000000 0.000000 0.000000 0.000000 207.000000 0.700056 0.326476 -0.635086
-9.80000019 -6.13000011 -0.17000000 111 154 123 0.000000 0.000000 0.000000 0.000000 0.000000 0.000000 207.000000 0.962998 0.246228 -0.109578
-9.77000046 -6.07999992 -0.34999999 111 154 123 0.000000 0.000000 0.000000 0.000000 0.000000 0.000000 207.000000 0.946331 -0.278333 -0.164284
-9.75000000 -6.09000015 -0.47999999 111 154 123 0.000000 0.000000 0.000000 0.000000 0.000000 0.000000 207.000000 -0.402627 0.889320 0.216799
-9.77999973 -6.09000015 -0.52999997 111 154 123 0.000000 0.000000 0.000000 0.000000 0.000000 0.000000 207.000000 -0.500631 0.863970 0.054085
-9.85000038 -6.11999989 -0.50000000 111 154 123 0.000000 0.000000 0.000000 0.000000 0.000000 0.000000 207.000000 0.920675 -0.236254 -0.310710
-9.86999989 -6.11000013 -0.52999997 111 154 123 0.000000 0.000000 0.000000 0.000000 0.000000 0.000000 207.000000 0.889372 0.179039 -0.420669
-9.84000015 -6.07999992 -0.58999997 111 154 123 0.000000 0.000000 0.000000 0.000000 0.000000 0.000000 207.000000 0.893342 -0.379486 -0.240686
-9.52000046 -6.19000006 -0.06000000 111 154 123 0.000000 0.000000 0.000000 0.000000 0.000000 0.000000 207.000000 -0.248467 0.958372 0.140666
-9.52000046 -6.19000006 -0.04000000 111 154 123 0.000000 0.000000 0.000000 0.000000 0.000000 0.000000 207.000000 -0.148842 0.980389 -0.129160
-9.59000015 -6.23000002 0.06000000 111 154 123 0.000000 0.000000 0.000000 0.000000 0.000000 0.000000 207.000000 0.541762 0.840478 0.009505
-9.55000019 -6.19000006 -0.15000001 111 154 123 0.000000 0.000000 0.000000 0.000000 0.000000 0.000000 207.000000 -0.273078 0.953794 0.125326
-9.56000042 -6.19000006 -0.16000000 111 154 123 0.000000 0.000000 0.000000 0.000000 0.000000 0.000000 207.000000 -0.360417 0.911812 -0.196722
-9.57999992 -6.21999979 -0.09000000 111 154 123 0.000000 0.000000 0.000000 0.000000 0.000000 0.000000 207.000000 0.209770 0.975247 -0.069923
-9.60999966 -6.21999979 -0.27000001 111 154 123 0.000000 0.000000 0.000000 0.000000 0.000000 0.000000 207.000000 0.062325 0.996108 0.062325
-9.61999989 -6.17000008 -0.34000000 111 154 123 0.000000 0.000000 0.000000 0.000000 0.000000 0.000000 207.000000 -0.152532 0.963427 -0.220324
-9.65999985 -6.23999977 -0.25999999 111 154 123 0.000000 0.000000 0.000000 0.000000 0.000000 0.000000 207.000000 0.057018 0.976583 0.207448
-9.68000031 -6.19999981 -0.46000001 111 154 123 0.000000 0.000000 0.000000 0.000000 0.000000 0.000000 207.000000 -0.605463 0.793512 -0.061259
-9.78999996 -6.19999981 -0.20000000 111 154 123 0.000000 0.000000 0.000000 0.000000 0.000000 0.000000 207.000000 0.608179 0.777202 -0.161477
-9.78999996 -6.23999977 -0.41999999 111 154 123 0.000000 0.000000 0.000000 0.000000 0.000000 0.000000 207.000000 0.469413 0.831220 -0.297867
-9.72999954 -6.25000000 -0.41000000 111 154 123 0.000000 0.000000 0.000000 0.000000 0.000000 0.000000 207.000000 -0.069043 0.997410 -0.020182
-9.72999954 -6.23999977 -0.34000000 111 154 123 0.000000 0.000000 0.000000 0.000000 0.000000 0.000000 207.000000 0.280694 0.943405 -0.176632
-9.72999954 -6.25000000 -0.34000000 111 154 123 0.000000 0.000000 0.000000 0.000000 0.000000 0.000000 207.000000 0.276506 0.933382 -0.228784
-9.86999989 -6.19999981 -0.41000000 111 154 123 0.000000 0.000000 0.000000 0.000000 0.000000 0.000000 207.000000 0.577369 0.440931 -0.687186
-9.73999977 -6.26000023 -0.47999999 111 154 123 0.000000 0.000000 0.000000 0.000000 0.000000 0.000000 207.000000 -0.310700 0.945322 0.099160
-9.78999996 -6.26000023 -0.49000001 111 154 123 0.000000 0.000000 0.000000 0.000000 0.000000 0.000000 207.000000 0.257600 0.963146 -0.077407
-9.77999973 -6.26000023 -0.57999998 111 154 123 0.000000 0.000000 0.000000 0.000000 0.000000 0.000000 207.000000 -0.288192 0.949574 0.123511
-9.78999996 -6.25000000 -0.56000000 111 154 123 0.000000 0.000000 0.000000 0.000000 0.000000 0.000000 207.000000 -0.003929 0.899854 -0.436174
-9.84000015 -6.23000002 -0.55000001 111 154 123 0.000000 0.000000 0.000000 0.000000 0.000000 0.000000 207.000000 0.302490 0.895549 -0.326331
-9.81000042 -6.26000023 -0.58999997 111 154 123 0.000000 0.000000 0.000000 0.000000 0.000000 0.000000 207.000000 -0.232659 0.932045 -0.277780
-9.89999962 -6.17000008 -0.40000001 111 154 123 0.000000 0.000000 0.000000 0.000000 0.000000 0.000000 207.000000 0.807569 0.573448 -0.137805
-9.90999985 -6.19000006 -0.56000000 111 154 123 0.000000 0.000000 0.000000 0.000000 0.000000 0.000000 207.000000 0.633855 0.708047 -0.311283
-9.73999977 -6.13999987 -0.75000000 111 154 123 0.000000 0.000000 0.000000 0.000000 0.000000 0.000000 207.000000 0.971776 -0.205981 -0.114996
-9.77999973 -6.09000015 -0.75000000 111 154 123 0.000000 0.000000 0.000000 0.000000 0.000000 0.000000 207.000000 0.804274 0.219907 -0.552073
-9.85999966 -6.09000015 -0.62000000 111 154 123 0.000000 0.000000 0.000000 0.000000 0.000000 0.000000 207.000000 0.955770 -0.171959 -0.238609
-9.86999989 -6.11000013 -0.64999998 111 154 123 0.000000 0.000000 0.000000 0.000000 0.000000 0.000000 207.000000 0.904847 -0.425734 0.001302
-9.81999969 -6.11000013 -0.64999998 111 154 123 0.000000 0.000000 0.000000 0.000000 0.000000 0.000000 207.000000 -0.102996 0.982705 0.153889
-9.80000019 -6.09999990 -0.63999999 111 154 123 0.000000 0.000000 0.000000 0.000000 0.000000 0.000000 207.000000 0.102437 0.990987 -0.086323
-9.85999966 -6.09999990 -0.73000002 111 154 123 0.000000 0.000000 0.000000 0.000000 0.000000 0.000000 207.000000 -0.569417 0.819335 0.066740
-9.76000023 -6.11000013 -0.79000002 111 154 123 0.000000 0.000000 0.000000 0.000000 0.000000 0.000000 207.000000 0.855822 -0.004031 -0.517255
-9.89000034 -6.09999990 -0.69000000 111 154 123 0.000000 0.000000 0.000000 0.000000 0.000000 0.000000 207.000000 -0.576691 0.812544 0.084850
-9.81999969 -6.09999990 -1.00000000 111 154 123 0.000000 0.000000 0.000000 0.000000 0.000000 0.000000 207.000000 0.959574 0.115878 -0.256494
-9.81999969 -6.11999989 -0.94999999 111 154 123 0.000000 0.000000 0.000000 0.000000 0.000000 0.000000 207.000000 0.697468 0.052990 -0.714654
-10.00000000 -6.13000011 -1.03999996 111 154 123 0.000000 0.000000 0.000000 0.000000 0.000000 0.000000 207.000000 -0.328598 0.937114 -0.117646
-9.89999962 -6.11000013 -1.26999998 111 154 123 0.000000 0.000000 0.000000 0.000000 0.000000 0.000000 207.000000 0.840012 0.168002 -0.515901
-10.05000019 -6.13999987 -1.16999996 111 154 123 0.000000 0.000000 0.000000 0.000000 0.000000 0.000000 207.000000 -0.179278 0.904994 -0.385806
-10.06999969 -6.13000011 -1.12000000 111 154 123 0.000000 0.000000 0.000000 0.000000 0.000000 0.000000 207.000000 -0.476650 0.837609 -0.266863
-10.06000042 -6.11999989 -1.10000002 111 154 123 0.000000 0.000000 0.000000 0.000000 0.000000 0.000000 207.000000 -0.538441 0.821989 -0.185513
-10.07999992 -6.13999987 -1.39999998 111 154 123 0.000000 0.000000 0.000000 0.000000 0.000000 0.000000 207.000000 0.771065 0.635244 -0.043859
-9.73999977 -6.19000006 -0.63000000 111 154 123 0.000000 0.000000 0.000000 0.000000 0.000000 0.000000 207.000000 -0.525047 0.827669 0.198217
-9.72999954 -6.17000008 -0.66000003 111 154 123 0.000000 0.000000 0.000000 0.000000 0.000000 0.000000 207.000000 0.771894 -0.328978 -0.544017
-9.72999954 -6.17999983 -0.64999998 111 154 123 0.000000 0.000000 0.000000 0.000000 0.000000 0.000000 207.000000 0.755680 -0.368902 -0.541164
-9.72999954 -6.17999983 -0.64999998 111 154 123 0.000000 0.000000 0.000000 0.000000 0.000000 0.000000 207.000000 0.755680 -0.368902 -0.541164
-9.73999977 -6.17000008 -0.73000002 111 154 123 0.000000 0.000000 0.000000 0.000000 0.000000 0.000000 207.000000 0.795893 -0.576756 -0.184136
-9.73999977 -6.19999981 -0.69999999 111 154 123 0.000000 0.000000 0.000000 0.000000 0.000000 0.000000 207.000000 -0.528597 0.843750 0.093113
-9.75000000 -6.21999979 -0.69000000 111 154 123 0.000000 0.000000 0.000000 0.000000 0.000000 0.000000 207.000000 -0.621180 0.723907 0.300157
-9.81000042 -6.26999998 -0.60000002 111 154 123 0.000000 0.000000 0.000000 0.000000 0.000000 0.000000 207.000000 -0.233955 0.920033 -0.314333
-9.82999992 -6.23000002 -0.63000000 111 154 123 0.000000 0.000000 0.000000 0.000000 0.000000 0.000000 207.000000 -0.073562 0.995838 -0.053799
-9.80000019 -6.26000023 -0.73000002 111 154 123 0.000000 0.000000 0.000000 0.000000 0.000000 0.000000 207.000000 -0.293883 0.943946 0.150327
-9.86999989 -6.26000023 -0.75999999 111 154 123 0.000000 0.000000 0.000000 0.000000 0.000000 0.000000 207.000000 0.226196 0.959019 0.170639
-9.82999992 -6.23999977 -0.82999998 111 154 123 0.000000 0.000000 0.000000 0.000000 0.000000 0.000000 207.000000 -0.515749 0.660226 0.545989
-9.96000004 -6.15999985 -0.62000000 111 154 123 0.000000 0.000000 0.000000 0.000000 0.000000 0.000000 207.000000 0.724708 0.553023 -0.411053
-9.93000031 -6.17999983 -0.63000000 111 154 123 0.000000 0.000000 0.000000 0.000000 0.000000 0.000000 207.000000 0.739506 0.247553 -0.625978
-9.93000031 -6.25000000 -0.81999999 111 154 123 0.000000 0.000000 0.000000 0.000000 0.000000 0.000000 207.000000 -0.009556 0.825872 -0.563777
-9.89000034 -6.25000000 -0.76999998 111 154 123 0.000000 0.000000 0.000000 0.000000 0.000000 0.000000 207.000000 0.360238 0.869171 -0.338777
-9.93000031 -6.23999977 -0.87000000 111 154 123 0.000000 0.000000 0.000000 0.000000 0.000000 0.000000 207.000000 0.003966 0.887167 -0.461432
-10.02999973 -6.17999983 -0.83999997 111 154 123 0.000000 0.000000 0.000000 0.000000 0.000000 0.000000 207.000000 0.698089 0.426150 -0.575385
-9.77999973 -6.19999981 -1.00999999 111 154 123 0.000000 0.000000 0.000000 0.000000 0.000000 0.000000 207.000000 0.722800 -0.500144 -0.476882
-9.92000008 -6.15000010 -1.09000003 111 154 123 0.000000 0.000000 0.000000 0.000000 0.000000 0.000000 207.000000 -0.621843 -0.188856 0.760030
-9.97999954 -6.25000000 -0.98000002 111 154 123 0.000000 0.000000 0.000000 0.000000 0.000000 0.000000 207.000000 0.010154 0.987213 0.159082
-10.02999973 -6.23999977 -1.09000003 111 154 123 0.000000 0.000000 0.000000 0.000000 0.000000 0.000000 207.000000 0.236064 0.965949 -0.105910
-10.01000023 -6.23000002 -1.03999996 111 154 123 0.000000 0.000000 0.000000 0.000000 0.000000 0.000000 207.000000 0.168741 0.976199 -0.136243
-10.00000000 -6.23999977 -1.04999995 111 154 123 0.000000 0.000000 0.000000 0.000000 0.000000 0.000000 207.000000 0.088156 0.946037 -0.311837
-9.89000034 -6.15999985 -1.27999997 111 154 123 0.000000 0.000000 0.000000 0.000000 0.000000 0.000000 207.000000 0.768822 -0.132864 -0.625508
-10.07999992 -6.17000008 -1.05999994 111 154 123 0.000000 0.000000 0.000000 0.000000 0.000000 0.000000 207.000000 0.809733 -0.260550 -0.525781
-10.06999969 -6.15999985 -1.15999997 111 154 123 0.000000 0.000000 0.000000 0.000000 0.000000 0.000000 207.000000 -0.501450 0.808331 0.308463
-10.10000038 -6.19000006 -1.19000006 111 154 123 0.000000 0.000000 0.000000 0.000000 0.000000 0.000000 207.000000 0.907987 -0.393979 -0.142623
-10.07999992 -6.15000010 -1.17999995 111 154 123 0.000000 0.000000 0.000000 0.000000 0.000000 0.000000 207.000000 -0.600449 0.775516 0.195031
-10.09000015 -6.17999983 -1.13999999 111 154 123 0.000000 0.000000 0.000000 0.000000 0.000000 0.000000 207.000000 0.646684 -0.333930 -0.685778
-10.09000015 -6.15000010 -1.19000006 111 154 123 0.000000 0.000000 0.000000 0.000000 0.000000 0.000000 207.000000 -0.694456 0.717365 0.055843
-10.10999966 -6.17999983 -1.22000003 111 154 123 0.000000 0.000000 0.000000 0.000000 0.000000 0.000000 207.000000 0.758300 -0.486426 -0.434016
-10.09000015 -6.15999985 -1.20000005 111 154 123 0.000000 0.000000 0.000000 0.000000 0.000000 0.000000 207.000000 -0.643443 0.744315 0.178819
-10.07999992 -6.23999977 -1.21000004 111 154 123 0.000000 0.000000 0.000000 0.000000 0.000000 0.000000 207.000000 0.250700 0.966986 0.045694
-10.14999962 -6.19999981 -1.27999997 111 154 123 0.000000 0.000000 0.000000 0.000000 0.000000 0.000000 207.000000 0.856153 -0.366923 -0.363826
-9.97000027 -6.17999983 -1.45000005 111 154 123 0.000000 0.000000 0.000000 0.000000 0.000000 0.000000 207.000000 0.865709 -0.036926 -0.499184
-10.11999989 -6.17999983 -1.32000005 111 154 123 0.000000 0.000000 0.000000 0.000000 0.000000 0.000000 207.000000 -0.056204 0.997878 0.032874
-10.13000011 -6.25000000 -1.32000005 111 154 123 0.000000 0.000000 0.000000 0.000000 0.000000 0.000000 207.000000 0.097847 0.967036 -0.235088
-10.09000015 -6.28999996 -1.30999994 111 154 123 0.000000 0.000000 0.000000 0.000000 0.000000 0.000000 207.000000 -0.406857 0.786159 0.465211
-10.15999985 -6.23000002 -1.40999997 111 154 123 0.000000 0.000000 0.000000 0.000000 0.000000 0.000000 207.000000 0.858072 0.098514 -0.503992
-9.52999973 -6.05000019 0.14000000 111 154 123 0.000000 0.000000 0.000000 0.000000 0.000000 0.000000 207.000000 0.913770 -0.074455 -0.399351
-9.52000046 -6.09000015 0.01000000 111 154 123 0.000000 0.000000 0.000000 0.000000 0.000000 0.000000 207.000000 0.328679 0.736695 -0.590975
-9.52999973 -6.11999989 -0.08000000 111 154 123 0.000000 0.000000 0.000000 0.000000 0.000000 0.000000 207.000000 -0.040374 0.998991 -0.019669
-9.57999992 -6.05999994 -0.07000000 111 154 123 0.000000 0.000000 0.000000 0.000000 0.000000 0.000000 207.000000 -0.650785 0.149484 0.744401
-9.64999962 -6.11000013 -0.13000000 111 154 123 0.000000 0.000000 0.000000 0.000000 0.000000 0.000000 207.000000 0.872333 0.025697 -0.488236
-9.78999996 -6.07999992 -0.25000000 111 154 123 0.000000 0.000000 0.000000 0.000000 0.000000 0.000000 207.000000 0.984289 -0.017228 -0.175725
-9.75000000 -6.07999992 -0.31999999 111 154 123 0.000000 0.000000 0.000000 0.000000 0.000000 0.000000 207.000000 0.975413 0.044611 -0.215821
-9.93000031 -6.11999989 -0.52999997 111 154 123 0.000000 0.000000 0.000000 0.000000 0.000000 0.000000 207.000000 0.944931 -0.071684 -0.319322
-9.52999973 -6.19000006 -0.05000000 111 154 123 0.000000 0.000000 0.000000 0.000000 0.000000 0.000000 207.000000 0.174246 0.981788 -0.075707
-9.67000008 -6.23999977 -0.07000000 111 154 123 0.000000 0.000000 0.000000 0.000000 0.000000 0.000000 207.000000 0.774446 0.491943 -0.397776
-9.68000031 -6.23999977 -0.44000000 111 154 123 0.000000 0.000000 0.000000 0.000000 0.000000 0.000000 207.000000 0.124705 0.992120 -0.012139
-9.68999958 -6.23000002 -0.33000001 111 154 123 0.000000 0.000000 0.000000 0.000000 0.000000 0.000000 207.000000 -0.160313 0.938582 -0.305553
-9.68999958 -6.23999977 -0.28999999 111 154 123 0.000000 0.000000 0.000000 0.000000 0.000000 0.000000 207.000000 0.050192 0.993794 0.099268
-9.77000046 -6.19999981 -0.19000000 111 154 123 0.000000 0.000000 0.000000 0.000000 0.000000 0.000000 207.000000 0.445995 0.847235 -0.288585
-9.82999992 -6.21999979 -0.38000000 111 154 123 0.000000 0.000000 0.000000 0.000000 0.000000 0.000000 207.000000 0.512940 0.854899 -0.077718
-9.81000042 -6.15999985 -0.34000000 111 154 123 0.000000 0.000000 0.000000 0.000000 0.000000 0.000000 207.000000 0.738783 0.233713 -0.632122
