//X Y Z R G B PointSourceId ScanDirectionFlag NumberOfReturns ReturnNumber GpsTime Intensity Classification Nx Ny Nz
13.69999981 13.72000027 -0.38000000 162 19 165 0.000000 0.000000 0.000000 0.000000 0.000000 0.000000 86.000000 -0.213767 0.865531 0.452946
13.67000008 13.69999981 -0.31999999 162 19 165 0.000000 0.000000 0.000000 0.000000 0.000000 0.000000 86.000000 -0.137209 0.873808 0.466512
13.77999973 13.75000000 -0.47000000 162 19 165 0.000000 0.000000 0.000000 0.000000 0.000000 0.000000 86.000000 -0.174911 0.768089 0.615992
13.80000019 13.75000000 -0.47000000 162 19 165 0.000000 0.000000 0.000000 0.000000 0.000000 0.000000 86.000000 -0.174001 0.978602 0.109830
13.81999969 13.72999954 -0.47999999 162 19 165 0.000000 0.000000 0.000000 0.000000 0.000000 0.000000 86.000000 -0.570316 0.806826 0.154180
13.80000019 13.68999958 -0.49000001 162 19 165 0.000000 0.000000 0.000000 0.000000 0.000000 0.000000 86.000000 -0.571215 0.806860 0.150634
13.77999973 13.68999958 -0.47000000 162 19 165 0.000000 0.000000 0.000000 0.000000 0.000000 0.000000 86.000000 -0.619491 0.782590 0.061520
13.81000042 13.68999958 -0.49000001 162 19 165 0.000000 0.000000 0.000000 0.000000 0.000000 0.000000 86.000000 0.565508 -0.612775 -0.552004
13.68000031 13.60999966 -0.37000000 162 19 165 0.000000 0.000000 0.000000 0.000000 0.000000 0.000000 86.000000 -0.281911 0.923009 0.261877
13.67000008 13.42000008 0.07000000 162 19 165 0.000000 0.000000 0.000000 0.000000 0.000000 0.000000 86.000000 0.166004 0.417176 0.893536
13.65999985 13.40999985 0.05000000 162 19 165 0.000000 0.000000 0.000000 0.000000 0.000000 0.000000 86.000000 0.422666 0.711073 0.561897
13.71000004 13.43999958 -0.07000000 162 19 165 0.000000 0.000000 0.000000 0.000000 0.000000 0.000000 86.000000 0.031816 0.836911 0.546413
13.65999985 13.34000015 0.07000000 162 19 165 0.000000 0.000000 0.000000 0.000000 0.000000 0.000000 86.000000 0.365690 0.547723 0.752509
13.81000042 13.43999958 -0.28999999 162 19 165 0.000000 0.000000 0.000000 0.000000 0.000000 0.000000 86.000000 -0.053955 0.499434 0.864670
13.64999962 13.38000011 0.10000000 162 19 165 0.000000 0.000000 0.000000 0.000000 0.000000 0.000000 86.000000 -0.148003 0.438260 0.886579
13.52999973 13.61999989 -0.23999999 162 19 165 0.000000 0.000000 0.000000 0.000000 0.000000 0.000000 86.000000 -0.296828 0.935078 0.193705
13.64999962 13.46000004 -0.05000000 162 19 165 0.000000 0.000000 0.000000 0.000000 0.000000 0.000000 86.000000 0.173657 0.879960 0.442169
13.56000042 13.53999996 -0.25000000 162 19 165 0.000000 0.000000 0.000000 0.000000 0.000000 0.000000 86.000000 -0.206571 0.722221 0.660095
13.53999996 13.60999966 -0.20999999 162 19 165 0.000000 0.000000 0.000000 0.000000 0.000000 0.000000 86.000000 -0.206063 0.852830 0.479811
13.55000019 13.52999973 -0.20000000 162 19 165 0.000000 0.000000 0.000000 0.000000 0.000000 0.000000 86.000000 -0.456324 0.886295 0.079059
13.48999977 13.52000046 -0.22000000 162 19 165 0.000000 0.000000 0.000000 0.000000 0.000000 0.000000 86.000000 -0.479120 0.640508 0.600161
13.48999977 13.52999973 -0.18000001 162 19 165 0.000000 0.000000 0.000000 0.000000 0.000000 0.000000 86.000000 -0.361097 0.930973 -0.053836
13.56000042 13.52999973 -0.17000000 162 19 165 0.000000 0.000000 0.000000 0.000000 0.000000 0.000000 86.000000 -0.428458 0.777088 0.461040
13.53999996 13.52999973 -0.22000000 162 19 165 0.000000 0.000000 0.000000 0.000000 0.000000 0.000000 86.000000 0.079980 0.917736 0.389055
13.47999954 13.47999954 -0.07000000 162 19 165 0.000000 0.000000 0.000000 0.000000 0.000000 0.000000 86.000000 -0.443877 0.845996 0.295403
13.47000027 13.57999992 -0.20999999 162 19 165 0.000000 0.000000 0.000000 0.000000 0.000000 0.000000 86.000000 0.588998 -0.735030 -0.335875
13.44999981 13.53999996 -0.20999999 162 19 165 0.000000 0.000000 0.000000 0.000000 0.000000 0.000000 86.000000 -0.021546 0.941667 0.335857
13.46000004 13.44999981 -0.11000000 162 19 165 0.000000 0.000000 0.000000 0.000000 0.000000 0.000000 86.000000 -0.336588 0.933451 0.124006
13.47000027 13.44999981 -0.11000000 162 19 165 0.000000 0.000000 0.000000 0.000000 0.000000 0.000000 86.000000 -0.183541 0.900361 0.394540
13.44999981 13.51000023 -0.17000000 162 19 165 0.000000 0.000000 0.000000 0.000000 0.000000 0.000000 86.000000 -0.342578 0.807846 0.479609
13.64000034 13.71000004 -0.36000001 162 19 165 0.000000 0.000000 0.000000 0.000000 0.000000 0.000000 86.000000 -0.527741 0.848006 0.048736
13.64000034 13.67000008 -0.31999999 162 19 165 0.000000 0.000000 0.000000 0.000000 0.000000 0.000000 86.000000 -0.363681 0.835995 0.410913
13.61999989 13.65999985 -0.27000001 162 19 165 0.000000 0.000000 0.000000 0.000000 0.000000 0.000000 86.000000 -0.198347 0.776476 0.598117
13.63000011 13.65999985 -0.28999999 162 19 165 0.000000 0.000000 0.000000 0.000000 0.000000 0.000000 86.000000 -0.408877 0.889564 0.203706
13.63000011 13.65999985 -0.27000001 162 19 165 0.000000 0.000000 0.000000 0.000000 0.000000 0.000000 86.000000 -0.208270 0.861548 0.462988
13.59000015 13.64999962 -0.27000001 162 19 165 0.000000 0.000000 0.000000 0.000000 0.000000 0.000000 86.000000 -0.415165 0.809491 0.415165
13.64999962 13.64000034 -0.36000001 162 19 165 0.000000 0.000000 0.000000 0.000000 0.000000 0.000000 86.000000 -0.019649 0.913040 0.407397
13.55000019 13.63000011 -0.25999999 162 19 165 0.000000 0.000000 0.000000 0.000000 0.000000 0.000000 86.000000 -0.101341 0.857827 0.503848
13.64000034 13.60000038 -0.34999999 162 19 165 0.000000 0.000000 0.000000 0.000000 0.000000 0.000000 86.000000 0.717283 -0.661025 -0.220342
13.63000011 13.36999989 0.06000000 162 19 165 0.000000 0.000000 0.000000 0.000000 0.000000 0.000000 86.000000 -0.079348 0.460774 0.883963
13.61999989 13.43000031 -0.02000000 162 19 165 0.000000 0.000000 0.000000 0.000000 0.000000 0.000000 86.000000 -0.126800 0.681738 0.720524
14.38000011 14.19999981 -1.25000000 162 19 165 0.000000 0.000000 0.000000 0.000000 0.000000 0.000000 86.000000 -0.533990 0.840354 -0.093055
14.60000038 13.81999969 -0.63000000 162 19 165 0.000000 0.000000 0.000000 0.000000 0.000000 0.000000 86.000000 0.045752 0.359479 0.932031
14.35000038 14.13000011 -0.87000000 162 19 165 0.000000 0.000000 0.000000 0.000000 0.000000 0.000000 86.000000 -0.204096 0.865547 0.457354
14.35000038 14.06999969 -1.24000001 162 19 165 0.000000 0.000000 0.000000 0.000000 0.000000 0.000000 86.000000 0.352913 -0.899265 -0.258409
14.43999958 13.85999966 -1.11000001 162 19 165 0.000000 0.000000 0.000000 0.000000 0.000000 0.000000 86.000000 -0.402935 0.671559 0.621814
14.40999985 13.85000038 -1.17999995 162 19 165 0.000000 0.000000 0.000000 0.000000 0.000000 0.000000 86.000000 -0.489862 0.836911 -0.244163
14.39999962 13.81999969 -1.16999996 162 19 165 0.000000 0.000000 0.000000 0.000000 0.000000 0.000000 86.000000 0.564955 -0.789070 -0.241234
14.40999985 13.85000038 -1.19000006 162 19 165 0.000000 0.000000 0.000000 0.000000 0.000000 0.000000 86.000000 -0.472411 0.809620 -0.348343
14.36999989 14.13000011 -1.34000003 162 19 165 0.000000 0.000000 0.000000 0.000000 0.000000 0.000000 86.000000 -0.403907 0.914383 0.027629
14.60999966 13.72999954 -0.68000001 162 19 165 0.000000 0.000000 0.000000 0.000000 0.000000 0.000000 86.000000 0.531493 -0.066260 0.844467
14.61999989 13.76000023 -0.70999998 162 19 165 0.000000 0.000000 0.000000 0.000000 0.000000 0.000000 86.000000 0.310105 0.023854 0.950403
14.56000042 13.73999977 -0.68000001 162 19 165 0.000000 0.000000 0.000000 0.000000 0.000000 0.000000 86.000000 0.699311 0.329374 0.634410
14.60000038 13.72999954 -0.68000001 162 19 165 0.000000 0.000000 0.000000 0.000000 0.000000 0.000000 86.000000 0.247796 0.270452 0.930297
14.52000046 13.61999989 -0.74000001 162 19 165 0.000000 0.000000 0.000000 0.000000 0.000000 0.000000 86.000000 0.825507 -0.001360 0.564391
14.60000038 13.69999981 -0.69000000 162 19 165 0.000000 0.000000 0.000000 0.000000 0.000000 0.000000 86.000000 0.685607 -0.021031 0.727668
14.52000046 13.64999962 -0.75000000 162 19 165 0.000000 0.000000 0.000000 0.000000 0.000000 0.000000 86.000000 0.704945 0.258216 0.660589
14.56000042 13.68999958 -0.73000002 162 19 165 0.000000 0.000000 0.000000 0.000000 0.000000 0.000000 86.000000 0.555458 0.134076 0.820664
14.60999966 13.68000031 -0.77999997 162 19 165 0.000000 0.000000 0.000000 0.000000 0.000000 0.000000 86.000000 0.526742 -0.025995 0.849628
14.52999973 13.46000004 -0.75000000 162 19 165 0.000000 0.000000 0.000000 0.000000 0.000000 0.000000 86.000000 0.936171 -0.123287 0.329218
14.60999966 13.47000027 -0.81000000 162 19 165 0.000000 0.000000 0.000000 0.000000 0.000000 0.000000 86.000000 0.557354 -0.527044 0.641546
14.52000046 13.53999996 -0.76999998 162 19 165 0.000000 0.000000 0.000000 0.000000 0.000000 0.000000 86.000000 0.671906 -0.101447 0.733656
14.55000019 13.52000046 -0.80000001 162 19 165 0.000000 0.000000 0.000000 0.000000 0.000000 0.000000 86.000000 0.799219 0.134933 0.585698
14.52000046 13.52999973 -0.76999998 162 19 165 0.000000 0.000000 0.000000 0.000000 0.000000 0.000000 86.000000 0.555643 0.121684 0.822468
14.55000019 13.47999954 -0.79000002 162 19 165 0.000000 0.000000 0.000000 0.000000 0.000000 0.000000 86.000000 -0.739124 0.467946 -0.484482
14.39000034 13.61999989 -0.62000000 162 19 165 0.000000 0.000000 0.000000 0.000000 0.000000 0.000000 86.000000 0.186935 0.166307 0.968193
14.36999989 13.64000034 -0.69000000 162 19 165 0.000000 0.000000 0.000000 0.000000 0.000000 0.000000 86.000000 0.577089 0.492965 0.651118
14.36999989 13.64000034 -0.69000000 162 19 165 0.000000 0.000000 0.000000 0.000000 0.000000 0.000000 86.000000 0.577089 0.492965 0.651118
14.35999966 13.64000034 -0.69000000 162 19 165 0.000000 0.000000 0.000000 0.000000 0.000000 0.000000 86.000000 0.442761 0.465635 0.766255
14.50000000 13.57999992 -0.75000000 162 19 165 0.000000 0.000000 0.000000 0.000000 0.000000 0.000000 86.000000 0.453962 0.346403 0.820928
14.43999958 13.53999996 -0.69999999 162 19 165 0.000000 0.000000 0.000000 0.000000 0.000000 0.000000 86.000000 0.350697 0.115989 0.929278
14.47999954 13.55000019 -0.69999999 162 19 165 0.000000 0.000000 0.000000 0.000000 0.000000 0.000000 86.000000 0.692485 0.241344 0.679866
14.48999977 13.52000046 -0.74000001 162 19 165 0.000000 0.000000 0.000000 0.000000 0.000000 0.000000 86.000000 0.728894 -0.162822 0.664983
14.40999985 13.53999996 -0.61000001 162 19 165 0.000000 0.000000 0.000000 0.000000 0.000000 0.000000 86.000000 0.328424 0.091746 0.940064
14.42000008 13.55000019 -0.63000000 162 19 165 0.000000 0.000000 0.000000 0.000000 0.000000 0.000000 86.000000 0.758116 0.215497 0.615485
14.35999966 13.60000038 -0.64999998 162 19 165 0.000000 0.000000 0.000000 0.000000 0.000000 0.000000 86.000000 0.718260 0.332378 0.611251
14.38000011 13.59000015 -0.69000000 162 19 165 0.000000 0.000000 0.000000 0.000000 0.000000 0.000000 86.000000 0.504318 0.605519 0.615639
14.42000008 13.57999992 -0.69999999 162 19 165 0.000000 0.000000 0.000000 0.000000 0.000000 0.000000 86.000000 0.293841 0.397370 0.869342
14.39999962 13.56000042 -0.75999999 162 19 165 0.000000 0.000000 0.000000 0.000000 0.000000 0.000000 86.000000 0.678605 -0.015328 0.734343
14.43000031 13.47999954 -0.67000002 162 19 165 0.000000 0.000000 0.000000 0.000000 0.000000 0.000000 86.000000 0.832817 0.090305 0.546133
14.39999962 13.56000042 -0.76999998 162 19 165 0.000000 0.000000 0.000000 0.000000 0.000000 0.000000 86.000000 0.516405 0.414764 0.749197
14.48999977 13.46000004 -0.76999998 162 19 165 0.000000 0.000000 0.000000 0.000000 0.000000 0.000000 86.000000 0.554339 -0.262251 0.789894
14.48999977 13.44999981 -0.77999997 162 19 165 0.000000 0.000000 0.000000 0.000000 0.000000 0.000000 86.000000 0.813815 -0.414102 0.407707
14.39000034 13.68999958 -1.07000005 162 19 165 0.000000 0.000000 0.000000 0.000000 0.000000 0.000000 86.000000 0.758027 -0.648710 0.067604
14.52999973 13.43000031 -0.75000000 162 19 165 0.000000 0.000000 0.000000 0.000000 0.000000 0.000000 86.000000 0.855591 -0.466274 0.224838
14.52999973 13.43999958 -0.75999999 162 19 165 0.000000 0.000000 0.000000 0.000000 0.000000 0.000000 86.000000 0.944664 -0.269318 0.187292
14.28999996 14.15999985 -0.81999999 162 19 165 0.000000 0.000000 0.000000 0.000000 0.000000 0.000000 86.000000 -0.085017 0.805496 0.586471
14.32999992 14.18000031 -0.88999999 162 19 165 0.000000 0.000000 0.000000 0.000000 0.000000 0.000000 86.000000 -0.156132 0.898120 0.411101
14.31000042 14.19999981 -0.91000003 162 19 165 0.000000 0.000000 0.000000 0.000000 0.000000 0.000000 86.000000 -0.079533 0.880445 0.467431
14.25000000 14.14999962 -0.92000002 162 19 165 0.000000 0.000000 0.000000 0.000000 0.000000 0.000000 86.000000 0.658199 -0.661482 -0.359465
14.25000000 14.14000034 -0.99000001 162 19 165 0.000000 0.000000 0.000000 0.000000 0.000000 0.000000 86.000000 -0.405573 0.822278 0.399211
14.25000000 14.14000034 -1.03999996 162 19 165 0.000000 0.000000 0.000000 0.000000 0.000000 0.000000 86.000000 -0.667818 0.743739 -0.029525
14.22999954 14.14000034 -1.02999997 162 19 165 0.000000 0.000000 0.000000 0.000000 0.000000 0.000000 86.000000 -0.604025 0.763225 0.229436
14.23999977 14.14999962 -1.11000001 162 19 165 0.000000 0.000000 0.000000 0.000000 0.000000 0.000000 86.000000 -0.384272 0.898582 0.211861
14.26000023 14.14000034 -1.19000006 162 19 165 0.000000 0.000000 0.000000 0.000000 0.000000 0.000000 86.000000 -0.724010 0.686437 -0.067921
14.27000046 14.15999985 -1.15999997 162 19 165 0.000000 0.000000 0.000000 0.000000 0.000000 0.000000 86.000000 -0.347938 0.884153 0.311788
14.32999992 14.18999958 -1.22000003 162 19 165 0.000000 0.000000 0.000000 0.000000 0.000000 0.000000 86.000000 -0.446927 0.761249 0.469846
14.31999969 14.18999958 -1.25999999 162 19 165 0.000000 0.000000 0.000000 0.000000 0.000000 0.000000 86.000000 -0.466285 0.881070 -0.079338
14.32999992 14.18999958 -1.27999997 162 19 165 0.000000 0.000000 0.000000 0.000000 0.000000 0.000000 86.000000 -0.364569 0.921818 -0.131688
14.30000019 14.18000031 -1.22000003 162 19 165 0.000000 0.000000 0.000000 0.000000 0.000000 0.000000 86.000000 -0.582188 0.763032 -0.280783
14.25000000 14.18000031 -1.23000002 162 19 165 0.000000 0.000000 0.000000 0.000000 0.000000 0.000000 86.000000 -0.255884 0.966536 -0.018191
14.19999981 14.09000015 -0.75999999 162 19 165 0.000000 0.000000 0.000000 0.000000 0.000000 0.000000 86.000000 -0.280783 0.939169 0.197793
14.18000031 14.06000042 -0.75999999 162 19 165 0.000000 0.000000 0.000000 0.000000 0.000000 0.000000 86.000000 -0.168060 0.974241 0.150369
14.18999958 14.00000000 -0.69999999 162 19 165 0.000000 0.000000 0.000000 0.000000 0.000000 0.000000 86.000000 -0.294729 0.934471 0.199745
14.18999958 14.02000046 -0.75999999 162 19 165 0.000000 0.000000 0.000000 0.000000 0.000000 0.000000 86.000000 0.140084 0.827233 0.544116
14.18000031 13.98999977 -0.70999998 162 19 165 0.000000 0.000000 0.000000 0.000000 0.000000 0.000000 86.000000 0.106258 0.879816 0.463285
14.32999992 14.11999989 -0.86000001 162 19 165 0.000000 0.000000 0.000000 0.000000 0.000000 0.000000 86.000000 -0.265950 0.689558 0.673633
14.21000004 14.10999966 -0.79000002 162 19 165 0.000000 0.000000 0.000000 0.000000 0.000000 0.000000 86.000000 -0.173391 0.973269 0.150610
14.18999958 14.10999966 -0.81999999 162 19 165 0.000000 0.000000 0.000000 0.000000 0.000000 0.000000 86.000000 -0.591950 0.716572 0.368944
14.21000004 14.13000011 -0.83999997 162 19 165 0.000000 0.000000 0.000000 0.000000 0.000000 0.000000 86.000000 -0.512307 0.848007 0.135740
14.22999954 14.11999989 -0.88000000 162 19 165 0.000000 0.000000 0.000000 0.000000 0.000000 0.000000 86.000000 0.046653 0.957026 0.286225
14.22000027 14.10999966 -0.91000003 162 19 165 0.000000 0.000000 0.000000 0.000000 0.000000 0.000000 86.000000 -0.636781 0.736914 0.226863
14.22999954 14.13000011 -0.89999998 162 19 165 0.000000 0.000000 0.000000 0.000000 0.000000 0.000000 86.000000 -0.442748 0.850014 0.285395
14.22000027 14.10999966 -0.91000003 162 19 165 0.000000 0.000000 0.000000 0.000000 0.000000 0.000000 86.000000 -0.636781 0.736914 0.226863
14.22000027 14.11999989 -0.93000001 162 19 165 0.000000 0.000000 0.000000 0.000000 0.000000 0.000000 86.000000 -0.342615 0.933050 -0.109691
14.19999981 14.10999966 -0.88000000 162 19 165 0.000000 0.000000 0.000000 0.000000 0.000000 0.000000 86.000000 -0.347083 0.848252 0.400002
14.21000004 14.11999989 -0.88000000 162 19 165 0.000000 0.000000 0.000000 0.000000 0.000000 0.000000 86.000000 -0.284528 0.834928 0.471104
14.21000004 14.11999989 -0.93000001 162 19 165 0.000000 0.000000 0.000000 0.000000 0.000000 0.000000 86.000000 -0.416746 0.812735 0.407166
14.22999954 14.03999996 -0.93000001 162 19 165 0.000000 0.000000 0.000000 0.000000 0.000000 0.000000 86.000000 -0.582662 0.811213 -0.049378
14.22000027 14.02999973 -0.91000003 162 19 165 0.000000 0.000000 0.000000 0.000000 0.000000 0.000000 86.000000 -0.137406 0.922982 0.359477
14.23999977 14.03999996 -0.91000003 162 19 165 0.000000 0.000000 0.000000 0.000000 0.000000 0.000000 86.000000 -0.642878 0.760031 0.095187
14.25000000 13.80000019 -0.88000000 162 19 165 0.000000 0.000000 0.000000 0.000000 0.000000 0.000000 86.000000 -0.060140 0.984640 0.163910
14.25000000 13.81000042 -0.89999998 162 19 165 0.000000 0.000000 0.000000 0.000000 0.000000 0.000000 86.000000 -0.525194 0.850895 0.012214
14.25000000 13.80000019 -0.83999997 162 19 165 0.000000 0.000000 0.000000 0.000000 0.000000 0.000000 86.000000 0.061727 0.890239 0.451292
14.27999973 13.81999969 -0.92000002 162 19 165 0.000000 0.000000 0.000000 0.000000 0.000000 0.000000 86.000000 0.683808 -0.670996 -0.286655
14.31000042 13.81000042 -0.87000000 162 19 165 0.000000 0.000000 0.000000 0.000000 0.000000 0.000000 86.000000 -0.180437 0.845517 0.502538
14.26000023 13.81999969 -0.93000001 162 19 165 0.000000 0.000000 0.000000 0.000000 0.000000 0.000000 86.000000 -0.374187 0.863863 0.337230
14.14000034 14.05000019 -0.69000000 162 19 165 0.000000 0.000000 0.000000 0.000000 0.000000 0.000000 86.000000 -0.387713 0.602193 0.697884
14.15999985 14.02000046 -0.66000003 162 19 165 0.000000 0.000000 0.000000 0.000000 0.000000 0.000000 86.000000 -0.295076 0.582177 0.757628
14.14999962 14.02999973 -0.72000003 162 19 165 0.000000 0.000000 0.000000 0.000000 0.000000 0.000000 86.000000 -0.546759 0.817880 0.179241
14.17000008 14.09000015 -0.79000002 162 19 165 0.000000 0.000000 0.000000 0.000000 0.000000 0.000000 86.000000 -0.525580 0.739766 0.420134
14.14999962 14.10000038 -0.80000001 162 19 165 0.000000 0.000000 0.000000 0.000000 0.000000 0.000000 86.000000 0.001258 0.937307 0.348502
14.17000008 14.13000011 -0.83999997 162 19 165 0.000000 0.000000 0.000000 0.000000 0.000000 0.000000 86.000000 -0.582766 0.783720 0.214866
14.15999985 14.05000019 -0.79000002 162 19 165 0.000000 0.000000 0.000000 0.000000 0.000000 0.000000 86.000000 0.409590 -0.648380 -0.641747
14.17000008 14.07999992 -0.81999999 162 19 165 0.000000 0.000000 0.000000 0.000000 0.000000 0.000000 86.000000 -0.148277 0.985747 0.079477
14.17000008 14.05000019 -0.87000000 162 19 165 0.000000 0.000000 0.000000 0.000000 0.000000 0.000000 86.000000 -0.701855 0.692720 0.165948
14.14000034 14.02999973 -0.76999998 162 19 165 0.000000 0.000000 0.000000 0.000000 0.000000 0.000000 86.000000 0.580357 -0.600661 -0.549901
14.13000011 14.01000023 -0.76999998 162 19 165 0.000000 0.000000 0.000000 0.000000 0.000000 0.000000 86.000000 -0.224342 0.787519 0.574007
14.15999985 13.81000042 -0.82999998 162 19 165 0.000000 0.000000 0.000000 0.000000 0.000000 0.000000 86.000000 -0.292209 0.848797 0.440633
14.05000019 13.80000019 -0.81999999 162 19 165 0.000000 0.000000 0.000000 0.000000 0.000000 0.000000 86.000000 -0.407276 0.905524 -0.118964
14.02000046 13.78999996 -0.91000003 162 19 165 0.000000 0.000000 0.000000 0.000000 0.000000 0.000000 86.000000 -0.712534 0.625285 -0.318298
14.01000023 13.78999996 -0.85000002 162 19 165 0.000000 0.000000 0.000000 0.000000 0.000000 0.000000 86.000000 -0.265128 0.963990 0.020770
14.28999996 14.10999966 -0.97000003 162 19 165 0.000000 0.000000 0.000000 0.000000 0.000000 0.000000 86.000000 -0.265424 0.962317 0.059123
14.25000000 14.13000011 -0.97000003 162 19 165 0.000000 0.000000 0.000000 0.000000 0.000000 0.000000 86.000000 -0.120731 0.977049 0.175495
14.23999977 14.10999966 -1.00000000 162 19 165 0.000000 0.000000 0.000000 0.000000 0.000000 0.000000 86.000000 -0.679742 0.673314 0.290859
14.22000027 14.06000042 -0.94999999 162 19 165 0.000000 0.000000 0.000000 0.000000 0.000000 0.000000 86.000000 -0.260528 0.965056 0.028132
14.22000027 14.06999969 -0.98000002 162 19 165 0.000000 0.000000 0.000000 0.000000 0.000000 0.000000 86.000000 0.342706 -0.773905 -0.532563
14.22000027 14.06999969 -0.98000002 162 19 165 0.000000 0.000000 0.000000 0.000000 0.000000 0.000000 86.000000 0.342706 -0.773905 -0.532563
14.23999977 14.11999989 -1.05999994 162 19 165 0.000000 0.000000 0.000000 0.000000 0.000000 0.000000 86.000000 -0.437081 0.884328 -0.164087
14.25000000 14.10000038 -1.05999994 162 19 165 0.000000 0.000000 0.000000 0.000000 0.000000 0.000000 86.000000 -0.257324 0.956718 0.135920
14.23999977 14.03999996 -1.00999999 162 19 165 0.000000 0.000000 0.000000 0.000000 0.000000 0.000000 86.000000 -0.515126 0.856721 0.025961
14.32999992 14.11999989 -1.21000004 162 19 165 0.000000 0.000000 0.000000 0.000000 0.000000 0.000000 86.000000 -0.667179 0.730432 -0.146086
14.34000015 14.13000011 -1.22000003 162 19 165 0.000000 0.000000 0.000000 0.000000 0.000000 0.000000 86.000000 0.853776 -0.509396 -0.107619
14.32999992 14.11999989 -1.24000001 162 19 165 0.000000 0.000000 0.000000 0.000000 0.000000 0.000000 86.000000 -0.673154 0.739501 -0.001382
14.31999969 13.82999992 -0.94999999 162 19 165 0.000000 0.000000 0.000000 0.000000 0.000000 0.000000 86.000000 -0.222961 0.952651 0.206746
14.18999958 13.80000019 -1.09000003 162 19 165 0.000000 0.000000 0.000000 0.000000 0.000000 0.000000 86.000000 0.439245 -0.772353 0.458840
14.19999981 13.85999966 -1.13999999 162 19 165 0.000000 0.000000 0.000000 0.000000 0.000000 0.000000 86.000000 -0.614703 0.774014 -0.151797
14.18000031 13.85000038 -1.13000000 162 19 165 0.000000 0.000000 0.000000 0.000000 0.000000 0.000000 86.000000 0.619245 -0.545003 0.565251
14.19999981 13.85999966 -1.23000002 162 19 165 0.000000 0.000000 0.000000 0.000000 0.000000 0.000000 86.000000 -0.509211 0.793348 -0.333621
14.18999958 13.78999996 -1.23000002 162 19 165 0.000000 0.000000 0.000000 0.000000 0.000000 0.000000 86.000000 0.675065 -0.344888 0.652181
14.11999989 13.78999996 -1.09000003 162 19 165 0.000000 0.000000 0.000000 0.000000 0.000000 0.000000 86.000000 0.725387 -0.681246 0.098582
14.09000015 13.82999992 -1.02999997 162 19 165 0.000000 0.000000 0.000000 0.000000 0.000000 0.000000 86.000000 0.778613 -0.611233 0.141973
14.15999985 13.78999996 -1.08000004 162 19 165 0.000000 0.000000 0.000000 0.000000 0.000000 0.000000 86.000000 0.931337 -0.309512 0.191869
14.06999969 13.81000042 -0.94999999 162 19 165 0.000000 0.000000 0.000000 0.000000 0.000000 0.000000 86.000000 -0.384831 0.919543 0.079667
14.06999969 13.80000019 -0.98000002 162 19 165 0.000000 0.000000 0.000000 0.000000 0.000000 0.000000 86.000000 -0.616279 0.745524 0.253762
14.06000042 13.80000019 -0.95999998 162 19 165 0.000000 0.000000 0.000000 0.000000 0.000000 0.000000 86.000000 -0.414048 0.863238 -0.288764
14.07999992 13.81999969 -1.01999998 162 19 165 0.000000 0.000000 0.000000 0.000000 0.000000 0.000000 86.000000 -0.560297 0.823966 -0.084546
14.05000019 13.81000042 -0.94000000 162 19 165 0.000000 0.000000 0.000000 0.000000 0.000000 0.000000 86.000000 -0.262762 0.959147 0.104846
14.06999969 13.81000042 -1.02999997 162 19 165 0.000000 0.000000 0.000000 0.000000 0.000000 0.000000 86.000000 -0.642304 0.703476 -0.304249
14.14000034 13.84000015 -1.13000000 162 19 165 0.000000 0.000000 0.000000 0.000000 0.000000 0.000000 86.000000 0.586325 -0.773949 0.239221
14.15999985 13.82999992 -1.17999995 162 19 165 0.000000 0.000000 0.000000 0.000000 0.000000 0.000000 86.000000 -0.701550 0.712619 0.001384
14.13000011 13.82999992 -1.16999996 162 19 165 0.000000 0.000000 0.000000 0.000000 0.000000 0.000000 86.000000 0.897283 -0.441437 -0.003930
14.11999989 13.81999969 -1.13999999 162 19 165 0.000000 0.000000 0.000000 0.000000 0.000000 0.000000 86.000000 0.743743 -0.667534 -0.035282
14.11999989 13.81000042 -1.12000000 162 19 165 0.000000 0.000000 0.000000 0.000000 0.000000 0.000000 86.000000 -0.502038 0.854192 -0.135332
14.11999989 13.80000019 -1.25000000 162 19 165 0.000000 0.000000 0.000000 0.000000 0.000000 0.000000 86.000000 0.788822 -0.372633 0.488779
14.10000038 13.80000019 -1.23000002 162 19 165 0.000000 0.000000 0.000000 0.000000 0.000000 0.000000 86.000000 0.798401 -0.565470 0.206879
14.17000008 13.82999992 -1.21000004 162 19 165 0.000000 0.000000 0.000000 0.000000 0.000000 0.000000 86.000000 -0.784370 0.528771 -0.324291
13.94999981 13.82999992 -0.74000001 162 19 165 0.000000 0.000000 0.000000 0.000000 0.000000 0.000000 86.000000 -0.513624 0.719739 0.467082
14.26000023 14.18000031 -1.35000002 162 19 165 0.000000 0.000000 0.000000 0.000000 0.000000 0.000000 86.000000 -0.677729 0.553897 -0.483614
14.27000046 14.18000031 -1.36000001 162 19 165 0.000000 0.000000 0.000000 0.000000 0.000000 0.000000 86.000000 -0.556125 0.656933 -0.509081
14.28999996 14.18000031 -1.32000005 162 19 165 0.000000 0.000000 0.000000 0.000000 0.000000 0.000000 86.000000 -0.404232 0.901308 0.155693
14.34000015 14.17000008 -1.37000000 162 19 165 0.000000 0.000000 0.000000 0.000000 0.000000 0.000000 86.000000 0.858004 -0.501580 0.110664
14.22000027 14.18000031 -1.30999994 162 19 165 0.000000 0.000000 0.000000 0.000000 0.000000 0.000000 86.000000 -0.630765 0.731940 0.257681
14.27999973 14.06000042 -1.34000003 162 19 165 0.000000 0.000000 0.000000 0.000000 0.000000 0.000000 86.000000 0.870643 -0.431562 0.236081
14.18000031 13.89000034 -1.36000001 162 19 165 0.000000 0.000000 0.000000 0.000000 0.000000 0.000000 86.000000 -0.705390 0.586448 -0.398124
14.22000027 13.82999992 -1.34000003 162 19 165 0.000000 0.000000 0.000000 0.000000 0.000000 0.000000 86.000000 0.866499 -0.464987 0.181566
14.21000004 13.78999996 -1.28999996 162 19 165 0.000000 0.000000 0.000000 0.000000 0.000000 0.000000 86.000000 0.868881 -0.271431 0.413970
14.18999958 13.85000038 -1.33000004 162 19 165 0.000000 0.000000 0.000000 0.000000 0.000000 0.000000 86.000000 0.638387 -0.641721 0.425036
14.19999981 13.85999966 -1.28999996 162 19 165 0.000000 0.000000 0.000000 0.000000 0.000000 0.000000 86.000000 -0.566387 0.739404 -0.363989
14.18999958 13.81000042 -1.32000005 162 19 165 0.000000 0.000000 0.000000 0.000000 0.000000 0.000000 86.000000 0.887476 -0.328862 0.322855
14.18000031 13.81000042 -1.37000000 162 19 165 0.000000 0.000000 0.000000 0.000000 0.000000 0.000000 86.000000 0.531157 -0.393873 0.750157
14.19999981 13.81999969 -1.38000000 162 19 165 0.000000 0.000000 0.000000 0.000000 0.000000 0.000000 86.000000 0.849895 -0.431914 0.301875
14.22000027 13.85999966 -1.38000000 162 19 165 0.000000 0.000000 0.000000 0.000000 0.000000 0.000000 86.000000 0.860994 -0.406708 0.305415
14.18999958 13.73999977 -0.75000000 162 19 165 0.000000 0.000000 0.000000 0.000000 0.000000 0.000000 86.000000 -0.056637 0.960312 0.273116
14.21000004 13.77999973 -0.75999999 162 19 165 0.000000 0.000000 0.000000 0.000000 0.000000 0.000000 86.000000 0.038622 0.960571 0.275339
14.21000004 13.77999973 -0.92000002 162 19 165 0.000000 0.000000 0.000000 0.000000 0.000000 0.000000 86.000000 -0.155914 0.899723 0.407664
14.22000027 13.69999981 -0.82999998 162 19 165 0.000000 0.000000 0.000000 0.000000 0.000000 0.000000 86.000000 -0.049003 0.958692 0.280194
14.19999981 13.65999985 -0.80000001 162 19 165 0.000000 0.000000 0.000000 0.000000 0.000000 0.000000 86.000000 -0.320502 0.819413 0.475228
14.31999969 13.51000023 -0.63999999 162 19 165 0.000000 0.000000 0.000000 0.000000 0.000000 0.000000 86.000000 0.634662 0.202289 0.745844
14.32999992 13.44999981 -0.64999998 162 19 165 0.000000 0.000000 0.000000 0.000000 0.000000 0.000000 86.000000 0.321317 0.042245 0.946029
14.26000023 13.47000027 -0.64999998 162 19 165 0.000000 0.000000 0.000000 0.000000 0.000000 0.000000 86.000000 0.662125 0.363101 0.655553
14.14999962 13.69999981 -0.69000000 162 19 165 0.000000 0.000000 0.000000 0.000000 0.000000 0.000000 86.000000 0.125810 0.605367 0.785941
14.06999969 13.68000031 -0.60000002 162 19 165 0.000000 0.000000 0.000000 0.000000 0.000000 0.000000 86.000000 -0.171933 0.971740 0.161744
14.06000042 13.68999958 -0.66000003 162 19 165 0.000000 0.000000 0.000000 0.000000 0.000000 0.000000 86.000000 -0.276042 0.901935 0.332136
14.06999969 13.68999958 -0.64999998 162 19 165 0.000000 0.000000 0.000000 0.000000 0.000000 0.000000 86.000000 -0.218522 0.910265 0.351661
14.05000019 13.68999958 -0.66000003 162 19 165 0.000000 0.000000 0.000000 0.000000 0.000000 0.000000 86.000000 -0.284494 0.803186 0.523407
14.05000019 13.61999989 -0.60000002 162 19 165 0.000000 0.000000 0.000000 0.000000 0.000000 0.000000 86.000000 0.219658 0.624702 0.749331
14.03999996 13.68000031 -0.69999999 162 19 165 0.000000 0.000000 0.000000 0.000000 0.000000 0.000000 86.000000 -0.352536 0.823638 0.444227
14.10999966 13.77999973 -0.80000001 162 19 165 0.000000 0.000000 0.000000 0.000000 0.000000 0.000000 86.000000 -0.108765 0.966093 0.234166
14.15999985 13.77999973 -0.81000000 162 19 165 0.000000 0.000000 0.000000 0.000000 0.000000 0.000000 86.000000 -0.398551 0.630074 0.666456
14.02000046 13.77000046 -0.81999999 162 19 165 0.000000 0.000000 0.000000 0.000000 0.000000 0.000000 86.000000 0.636664 -0.609786 -0.472038
14.34000015 13.72000027 -1.11000001 162 19 165 0.000000 0.000000 0.000000 0.000000 0.000000 0.000000 86.000000 0.886168 -0.394680 0.242765
14.30000019 13.77999973 -1.08000004 162 19 165 0.000000 0.000000 0.000000 0.000000 0.000000 0.000000 86.000000 -0.633968 0.695899 0.337356
14.22000027 13.71000004 -1.15999997 162 19 165 0.000000 0.000000 0.000000 0.000000 0.000000 0.000000 86.000000 0.792807 -0.141839 0.592739
14.22999954 13.63000011 -1.15999997 162 19 165 0.000000 0.000000 0.000000 0.000000 0.000000 0.000000 86.000000 0.414098 -0.134264 0.900275
14.21000004 13.65999985 -1.22000003 162 19 165 0.000000 0.000000 0.000000 0.000000 0.000000 0.000000 86.000000 0.906333 -0.253305 0.338228
14.19999981 13.64000034 -1.20000005 162 19 165 0.000000 0.000000 0.000000 0.000000 0.000000 0.000000 86.000000 0.623239 -0.351697 0.698486
14.18000031 13.56999969 -1.17999995 162 19 165 0.000000 0.000000 0.000000 0.000000 0.000000 0.000000 86.000000 0.407730 -0.080455 0.909551
14.11999989 13.76000023 -1.04999995 162 19 165 0.000000 0.000000 0.000000 0.000000 0.000000 0.000000 86.000000 0.774720 -0.626462 -0.085757
14.11999989 13.76000023 -1.04999995 162 19 165 0.000000 0.000000 0.000000 0.000000 0.000000 0.000000 86.000000 0.774720 -0.626462 -0.085757
14.10999966 13.76000023 -1.11000001 162 19 165 0.000000 0.000000 0.000000 0.000000 0.000000 0.000000 86.000000 0.540002 -0.476472 0.693810
14.06000042 13.73999977 -0.94000000 162 19 165 0.000000 0.000000 0.000000 0.000000 0.000000 0.000000 86.000000 -0.651685 0.594725 -0.470754
14.01000023 13.72000027 -0.94000000 162 19 165 0.000000 0.000000 0.000000 0.000000 0.000000 0.000000 86.000000 -0.426793 0.855127 -0.294287
14.14000034 13.73999977 -1.17999995 162 19 165 0.000000 0.000000 0.000000 0.000000 0.000000 0.000000 86.000000 0.823227 -0.043328 0.566056
14.10999966 13.76000023 -1.13000000 162 19 165 0.000000 0.000000 0.000000 0.000000 0.000000 0.000000 86.000000 0.821002 -0.306110 0.481926
14.15999985 13.76000023 -1.23000002 162 19 165 0.000000 0.000000 0.000000 0.000000 0.000000 0.000000 86.000000 0.913080 -0.289797 0.286885
14.10000038 13.68999958 -1.15999997 162 19 165 0.000000 0.000000 0.000000 0.000000 0.000000 0.000000 86.000000 0.933345 -0.115144 0.340014
14.13000011 13.67000008 -1.22000003 162 19 165 0.000000 0.000000 0.000000 0.000000 0.000000 0.000000 86.000000 0.824854 -0.285346 0.488051
14.05000019 13.64999962 -1.27999997 162 19 165 0.000000 0.000000 0.000000 0.000000 0.000000 0.000000 86.000000 0.818080 -0.409837 0.403459
14.05000019 13.63000011 -1.27999997 162 19 165 0.000000 0.000000 0.000000 0.000000 0.000000 0.000000 86.000000 0.716238 -0.227253 0.659817
14.09000015 13.44999981 -1.22000003 162 19 165 0.000000 0.000000 0.000000 0.000000 0.000000 0.000000 99.000000 0.523181 0.017666 0.852038
14.14999962 13.48999977 -1.25000000 162 19 165 0.000000 0.000000 0.000000 0.000000 0.000000 0.000000 99.000000 0.567828 0.150527 0.809267
14.06999969 13.44999981 -1.21000004 162 19 165 0.000000 0.000000 0.000000 0.000000 0.000000 0.000000 99.000000 0.583391 0.221286 0.781465
14.14000034 13.39000034 -1.21000004 162 19 165 0.000000 0.000000 0.000000 0.000000 0.000000 0.000000 99.000000 0.246402 0.197394 0.948853
14.10000038 13.39999962 -1.23000002 162 19 165 0.000000 0.000000 0.000000 0.000000 0.000000 0.000000 99.000000 0.368631 0.706133 0.604555
13.94999981 13.77000046 -0.67000002 162 19 165 0.000000 0.000000 0.000000 0.000000 0.000000 0.000000 86.000000 -0.268551 0.848620 0.455769
13.92000008 13.73999977 -0.68000001 162 19 165 0.000000 0.000000 0.000000 0.000000 0.000000 0.000000 86.000000 -0.556739 0.830273 -0.026248
13.94999981 13.76000023 -0.67000002 162 19 165 0.000000 0.000000 0.000000 0.000000 0.000000 0.000000 86.000000 -0.287230 0.691598 0.662715
13.93000031 13.68999958 -0.68000001 162 19 165 0.000000 0.000000 0.000000 0.000000 0.000000 0.000000 86.000000 -0.476858 0.841784 0.252995
13.93000031 13.68999958 -0.68000001 162 19 165 0.000000 0.000000 0.000000 0.000000 0.000000 0.000000 86.000000 -0.476858 0.841784 0.252995
13.89000034 13.72999954 -0.62000000 162 19 165 0.000000 0.000000 0.000000 0.000000 0.000000 0.000000 86.000000 -0.261782 0.951813 0.159754
13.90999985 13.69999981 -0.62000000 162 19 165 0.000000 0.000000 0.000000 0.000000 0.000000 0.000000 86.000000 -0.379728 0.802717 0.459840
13.90999985 13.69999981 -0.63000000 162 19 165 0.000000 0.000000 0.000000 0.000000 0.000000 0.000000 86.000000 -0.636072 0.769832 -0.052650
13.90999985 13.65999985 -0.60000002 162 19 165 0.000000 0.000000 0.000000 0.000000 0.000000 0.000000 86.000000 -0.433142 0.897911 0.078378
13.97000027 13.76000023 -0.83999997 162 19 165 0.000000 0.000000 0.000000 0.000000 0.000000 0.000000 86.000000 0.764603 -0.643950 -0.026656
13.97999954 13.76000023 -0.82999998 162 19 165 0.000000 0.000000 0.000000 0.000000 0.000000 0.000000 86.000000 0.677056 -0.724883 0.127041
13.98999977 13.77999973 -0.83999997 162 19 165 0.000000 0.000000 0.000000 0.000000 0.000000 0.000000 86.000000 -0.389905 0.866965 0.310395
13.93000031 13.75000000 -0.76999998 162 19 165 0.000000 0.000000 0.000000 0.000000 0.000000 0.000000 86.000000 0.721585 -0.672973 0.162547
13.94999981 13.72000027 -0.81999999 162 19 165 0.000000 0.000000 0.000000 0.000000 0.000000 0.000000 86.000000 -0.602806 0.793622 0.082398
13.98999977 13.77999973 -0.88999999 162 19 165 0.000000 0.000000 0.000000 0.000000 0.000000 0.000000 86.000000 0.845076 -0.482683 0.229922
13.97000027 13.73999977 -0.86000001 162 19 165 0.000000 0.000000 0.000000 0.000000 0.000000 0.000000 86.000000 0.600976 -0.768690 -0.218960
13.98999977 13.68000031 -0.77999997 162 19 165 0.000000 0.000000 0.000000 0.000000 0.000000 0.000000 86.000000 -0.366095 0.907280 0.206923
14.21000004 13.75000000 -1.33000004 162 19 165 0.000000 0.000000 0.000000 0.000000 0.000000 0.000000 86.000000 0.885953 -0.332420 0.323395
14.43999958 13.81999969 -0.55000001 162 19 165 0.000000 0.000000 0.000000 0.000000 0.000000 0.000000 86.000000 0.169147 0.641540 0.748209
14.36999989 13.82999992 -0.44999999 162 19 165 0.000000 0.000000 0.000000 0.000000 0.000000 0.000000 86.000000 0.530246 0.709766 0.463758
14.31000042 13.78999996 -0.46000001 162 19 165 0.000000 0.000000 0.000000 0.000000 0.000000 0.000000 86.000000 0.172506 0.719029 0.673231
14.34000015 13.75000000 -0.51999998 162 19 165 0.000000 0.000000 0.000000 0.000000 0.000000 0.000000 86.000000 0.330122 0.635851 0.697648
14.28999996 13.61999989 -0.52999997 162 19 165 0.000000 0.000000 0.000000 0.000000 0.000000 0.000000 86.000000 0.212690 0.438765 0.873068
14.30000019 13.57999992 -0.55000001 162 19 165 0.000000 0.000000 0.000000 0.000000 0.000000 0.000000 86.000000 0.441189 0.355798 0.823869
14.13000011 13.68999958 -0.34000000 162 19 165 0.000000 0.000000 0.000000 0.000000 0.000000 0.000000 86.000000 0.395841 0.637652 0.660840
14.03999996 13.61999989 -0.54000002 162 19 165 0.000000 0.000000 0.000000 0.000000 0.000000 0.000000 86.000000 -0.324331 0.750317 0.576050
14.09000015 13.63000011 -0.54000002 162 19 165 0.000000 0.000000 0.000000 0.000000 0.000000 0.000000 86.000000 0.254921 0.548940 0.796041
14.03999996 13.63000011 -0.50999999 162 19 165 0.000000 0.000000 0.000000 0.000000 0.000000 0.000000 86.000000 0.334360 0.847563 0.412118
14.14999962 13.46000004 -0.44999999 162 19 165 0.000000 0.000000 0.000000 0.000000 0.000000 0.000000 86.000000 0.516828 0.313277 0.796710
14.25000000 13.42000008 -0.52999997 162 19 165 0.000000 0.000000 0.000000 0.000000 0.000000 0.000000 86.000000 0.696237 0.255340 0.670862
14.22999954 13.39999962 -0.51999998 162 19 165 0.000000 0.000000 0.000000 0.000000 0.000000 0.000000 86.000000 0.609944 0.310605 0.729036
14.14000034 13.43000031 -0.41999999 162 19 165 0.000000 0.000000 0.000000 0.000000 0.000000 0.000000 86.000000 0.650875 0.009715 0.759123
14.09000015 13.35999966 -0.40000001 162 19 165 0.000000 0.000000 0.000000 0.000000 0.000000 0.000000 86.000000 0.713319 0.487185 0.503813
14.17000008 13.34000015 -0.47000000 162 19 165 0.000000 0.000000 0.000000 0.000000 0.000000 0.000000 86.000000 0.437081 0.164087 0.884328
13.77999973 13.52000046 -0.14000000 162 19 165 0.000000 0.000000 0.000000 0.000000 0.000000 0.000000 86.000000 -0.174528 0.872638 0.456118
13.78999996 13.47999954 -0.20000000 162 19 165 0.000000 0.000000 0.000000 0.000000 0.000000 0.000000 86.000000 0.218766 0.609752 0.761803
13.72000027 13.50000000 -0.10000000 162 19 165 0.000000 0.000000 0.000000 0.000000 0.000000 0.000000 86.000000 0.178852 0.935852 0.303632
13.97000027 13.61999989 -0.49000001 162 19 165 0.000000 0.000000 0.000000 0.000000 0.000000 0.000000 86.000000 -0.067883 0.674493 0.735154
14.00000000 13.61999989 -0.50000000 162 19 165 0.000000 0.000000 0.000000 0.000000 0.000000 0.000000 86.000000 -0.297613 0.771883 0.561804
13.94999981 13.68000031 -0.50999999 162 19 165 0.000000 0.000000 0.000000 0.000000 0.000000 0.000000 86.000000 -0.089238 0.907485 0.410496
13.96000004 13.63000011 -0.52999997 162 19 165 0.000000 0.000000 0.000000 0.000000 0.000000 0.000000 86.000000 -0.318105 0.718562 0.618448
13.86999989 13.77000046 -0.55000001 162 19 165 0.000000 0.000000 0.000000 0.000000 0.000000 0.000000 86.000000 -0.212135 0.876724 0.431687
13.84000015 13.73999977 -0.57999998 162 19 165 0.000000 0.000000 0.000000 0.000000 0.000000 0.000000 86.000000 0.677385 -0.667684 -0.308784
13.85000038 13.75000000 -0.55000001 162 19 165 0.000000 0.000000 0.000000 0.000000 0.000000 0.000000 86.000000 -0.483113 0.874530 0.042426
13.86999989 13.76000023 -0.54000002 162 19 165 0.000000 0.000000 0.000000 0.000000 0.000000 0.000000 86.000000 -0.265126 0.868099 0.419657
13.98999977 13.52999973 -0.41000000 162 19 165 0.000000 0.000000 0.000000 0.000000 0.000000 0.000000 86.000000 0.357256 0.832549 0.423357
13.85000038 13.50000000 -0.30000001 162 19 165 0.000000 0.000000 0.000000 0.000000 0.000000 0.000000 86.000000 -0.058580 0.767253 0.638663
14.00000000 13.59000015 -0.43000001 162 19 165 0.000000 0.000000 0.000000 0.000000 0.000000 0.000000 86.000000 0.179242 0.681731 0.709306
13.71000004 13.72000027 -0.38999999 162 19 165 0.000000 0.000000 0.000000 0.000000 0.000000 0.000000 86.000000 -0.033793 0.885379 0.463641
13.65999985 13.68000031 -0.28000000 162 19 165 0.000000 0.000000 0.000000 0.000000 0.000000 0.000000 86.000000 -0.658458 0.677968 0.326790
13.77999973 13.75000000 -0.47000000 162 19 165 0.000000 0.000000 0.000000 0.000000 0.000000 0.000000 86.000000 -0.174911 0.768089 0.615992
13.76000023 13.76000023 -0.52999997 162 19 165 0.000000 0.000000 0.000000 0.000000 0.000000 0.000000 86.000000 -0.092542 0.852807 0.513962
13.73999977 13.68000031 -0.47000000 162 19 165 0.000000 0.000000 0.000000 0.000000 0.000000 0.000000 86.000000 -0.212413 0.874906 0.435225
13.81999969 13.50000000 -0.25999999 162 19 165 0.000000 0.000000 0.000000 0.000000 0.000000 0.000000 86.000000 0.146110 0.751640 0.643187
13.68000031 13.43000031 0.06000000 162 19 165 0.000000 0.000000 0.000000 0.000000 0.000000 0.000000 86.000000 -0.101360 0.659573 0.744774
13.64000034 13.46000004 0.01000000 162 19 165 0.000000 0.000000 0.000000 0.000000 0.000000 0.000000 86.000000 -0.142111 0.617807 0.773381
13.56000042 13.55000019 -0.22000000 162 19 165 0.000000 0.000000 0.000000 0.000000 0.000000 0.000000 86.000000 -0.023609 0.806886 0.590235
13.53999996 13.60000038 -0.19000000 162 19 165 0.000000 0.000000 0.000000 0.000000 0.000000 0.000000 86.000000 -0.377346 0.909903 0.172298
13.55000019 13.52999973 -0.20999999 162 19 165 0.000000 0.000000 0.000000 0.000000 0.000000 0.000000 86.000000 -0.145550 0.908625 0.391429
13.64000034 13.67000008 -0.33000001 162 19 165 0.000000 0.000000 0.000000 0.000000 0.000000 0.000000 86.000000 -0.500202 0.825411 0.261716
13.63000011 13.67000008 -0.37000000 162 19 165 0.000000 0.000000 0.000000 0.000000 0.000000 0.000000 86.000000 -0.584083 0.644680 0.493188
13.56000042 13.65999985 -0.30000001 162 19 165 0.000000 0.000000 0.000000 0.000000 0.000000 0.000000 86.000000 0.723671 -0.641328 -0.254948
13.55000019 13.63000011 -0.25999999 162 19 165 0.000000 0.000000 0.000000 0.000000 0.000000 0.000000 86.000000 -0.101341 0.857827 0.503848
13.63000011 13.56999969 -0.31000000 162 19 165 0.000000 0.000000 0.000000 0.000000 0.000000 0.000000 86.000000 -0.191617 0.941544 0.277087
14.68000031 13.81000042 -0.68000001 162 19 165 0.000000 0.000000 0.000000 0.000000 0.000000 0.000000 86.000000 0.200702 0.580658 0.789021
14.64999962 13.84000015 -0.63999999 162 19 165 0.000000 0.000000 0.000000 0.000000 0.000000 0.000000 86.000000 0.127260 0.453274 0.882240
14.39999962 13.92000008 -1.10000002 162 19 165 0.000000 0.000000 0.000000 0.000000 0.000000 0.000000 86.000000 -0.575823 0.812503 0.090920
14.39999962 13.90999985 -1.03999996 162 19 165 0.000000 0.000000 0.000000 0.000000 0.000000 0.000000 86.000000 -0.493876 0.840349 0.223384
14.44999981 13.93999958 -1.22000003 162 19 165 0.000000 0.000000 0.000000 0.000000 0.000000 0.000000 86.000000 -0.385983 0.898685 0.208285
14.35000038 13.78999996 -1.12000000 162 19 165 0.000000 0.000000 0.000000 0.000000 0.000000 0.000000 86.000000 0.826809 -0.547779 0.127766
14.40999985 13.93000031 -1.13000000 162 19 165 0.000000 0.000000 0.000000 0.000000 0.000000 0.000000 86.000000 -0.485044 0.855873 -0.179481
14.42000008 13.93000031 -1.13000000 162 19 165 0.000000 0.000000 0.000000 0.000000 0.000000 0.000000 86.000000 -0.562521 0.826590 0.017880
14.60000038 13.73999977 -0.73000002 162 19 165 0.000000 0.000000 0.000000 0.000000 0.000000 0.000000 86.000000 0.547265 0.275998 0.790143
14.56000042 13.69999981 -0.74000001 162 19 165 0.000000 0.000000 0.000000 0.000000 0.000000 0.000000 86.000000 0.426958 -0.038814 0.903438
14.52999973 13.53999996 -0.79000002 162 19 165 0.000000 0.000000 0.000000 0.000000 0.000000 0.000000 86.000000 0.943325 -0.085757 0.320599
14.56999969 13.44999981 -0.82999998 162 19 165 0.000000 0.000000 0.000000 0.000000 0.000000 0.000000 86.000000 -0.636502 0.552085 -0.538579
14.35999966 13.65999985 -0.69000000 162 19 165 0.000000 0.000000 0.000000 0.000000 0.000000 0.000000 86.000000 0.333930 0.685778 0.646684
14.46000004 13.60000038 -0.64999998 162 19 165 0.000000 0.000000 0.000000 0.000000 0.000000 0.000000 86.000000 0.733949 0.182338 0.654272
14.50000000 13.57999992 -0.75000000 162 19 165 0.000000 0.000000 0.000000 0.000000 0.000000 0.000000 86.000000 0.453962 0.346403 0.820928
14.47999954 13.44999981 -0.75999999 162 19 165 0.000000 0.000000 0.000000 0.000000 0.000000 0.000000 86.000000 0.537737 -0.172256 0.825329
14.39000034 13.57999992 -0.62000000 162 19 165 0.000000 0.000000 0.000000 0.000000 0.000000 0.000000 86.000000 0.334225 0.077942 0.939265
14.48999977 13.44999981 -0.76999998 162 19 165 0.000000 0.000000 0.000000 0.000000 0.000000 0.000000 86.000000 0.719790 -0.251531 0.647020
14.35999966 13.64000034 -1.07000005 162 19 165 0.000000 0.000000 0.000000 0.000000 0.000000 0.000000 86.000000 0.791288 -0.448235 0.415871
14.39000034 13.76000023 -1.10000002 162 19 165 0.000000 0.000000 0.000000 0.000000 0.000000 0.000000 86.000000 0.806858 -0.584575 0.085160
14.56000042 13.40999985 -0.77999997 162 19 165 0.000000 0.000000 0.000000 0.000000 0.000000 0.000000 86.000000 0.759509 -0.107658 0.641527
14.31999969 14.18999958 -0.88999999 162 19 165 0.000000 0.000000 0.000000 0.000000 0.000000 0.000000 86.000000 -0.247266 0.748096 0.615801
14.34000015 14.14000034 -0.89999998 162 19 165 0.000000 0.000000 0.000000 0.000000 0.000000 0.000000 86.000000 -0.120414 0.985965 0.115645
14.21000004 14.14000034 -0.82999998 162 19 165 0.000000 0.000000 0.000000 0.000000 0.000000 0.000000 86.000000 -0.670794 0.711259 0.210109
14.26000023 14.14999962 -1.04999995 162 19 165 0.000000 0.000000 0.000000 0.000000 0.000000 0.000000 86.000000 -0.298330 0.951816 0.071031
14.22999954 14.14000034 -1.02999997 162 19 165 0.000000 0.000000 0.000000 0.000000 0.000000 0.000000 86.000000 -0.604025 0.763225 0.229436
14.34000015 14.18000031 -1.17999995 162 19 165 0.000000 0.000000 0.000000 0.000000 0.000000 0.000000 86.000000 -0.697482 0.703482 -0.136497
14.27000046 14.15999985 -1.19000006 162 19 165 0.000000 0.000000 0.000000 0.000000 0.000000 0.000000 86.000000 0.740025 -0.667044 -0.086117
14.27999973 14.17000008 -1.14999998 162 19 165 0.000000 0.000000 0.000000 0.000000 0.000000 0.000000 86.000000 -0.408585 0.911663 0.043920
14.27000046 14.15999985 -1.15999997 162 19 165 0.000000 0.000000 0.000000 0.000000 0.000000 0.000000 86.000000 -0.347938 0.884153 0.311788
14.26000023 14.14999962 -1.14999998 162 19 165 0.000000 0.000000 0.000000 0.000000 0.000000 0.000000 86.000000 -0.478234 0.751041 0.455226
14.26000023 14.14999962 -1.20000005 162 19 165 0.000000 0.000000 0.000000 0.000000 0.000000 0.000000 86.000000 -0.484455 0.823103 0.296317
14.27999973 14.17000008 -1.20000005 162 19 165 0.000000 0.000000 0.000000 0.000000 0.000000 0.000000 86.000000 -0.622322 0.706815 0.336346
14.31999969 14.19999981 -1.25000000 162 19 165 0.000000 0.000000 0.000000 0.000000 0.000000 0.000000 86.000000 -0.624332 0.723840 -0.293709
14.31999969 14.19999981 -1.25000000 162 19 165 0.000000 0.000000 0.000000 0.000000 0.000000 0.000000 86.000000 -0.624332 0.723840 -0.293709
14.31999969 14.18999958 -1.26999998 162 19 165 0.000000 0.000000 0.000000 0.000000 0.000000 0.000000 86.000000 -0.397537 0.917090 0.030176
14.27999973 14.14000034 -1.24000001 162 19 165 0.000000 0.000000 0.000000 0.000000 0.000000 0.000000 86.000000 0.794206 -0.503370 0.340374
14.18999958 14.06000042 -0.75000000 162 19 165 0.000000 0.000000 0.000000 0.000000 0.000000 0.000000 86.000000 -0.038110 0.760793 0.647874
14.19999981 14.10000038 -0.76999998 162 19 165 0.000000 0.000000 0.000000 0.000000 0.000000 0.000000 86.000000 -0.324534 0.938591 0.117155
14.23999977 14.10999966 -0.79000002 162 19 165 0.000000 0.000000 0.000000 0.000000 0.000000 0.000000 86.000000 -0.382443 0.920295 0.082435
14.25000000 14.13000011 -0.81000000 162 19 165 0.000000 0.000000 0.000000 0.000000 0.000000 0.000000 86.000000 0.524421 -0.612105 -0.591870
14.22999954 14.03999996 -0.93000001 162 19 165 0.000000 0.000000 0.000000 0.000000 0.000000 0.000000 86.000000 -0.582662 0.811213 -0.049378
14.23999977 14.02999973 -0.91000003 162 19 165 0.000000 0.000000 0.000000 0.000000 0.000000 0.000000 86.000000 -0.291524 0.865413 0.407522
14.21000004 13.94999981 -0.73000002 162 19 165 0.000000 0.000000 0.000000 0.000000 0.000000 0.000000 86.000000 -0.362844 0.922975 0.128306
14.27999973 13.82999992 -0.93000001 162 19 165 0.000000 0.000000 0.000000 0.000000 0.000000 0.000000 86.000000 -0.551790 0.833847 0.015061
