//X Y Z R G B PointSourceId ScanDirectionFlag NumberOfReturns ReturnNumber GpsTime Intensity Classification Nx Ny Nz
16.05999947 10.31999969 0.04000000 68 204 119 97.000000 1.000000 4.000000 1.000000 0.000000 114.000000 102.000000 -0.470691 0.165695 0.866600
16.04999924 10.27000046 0.06000000 68 204 119 97.000000 1.000000 4.000000 1.000000 0.000000 114.000000 102.000000 -0.427608 0.526667 0.734693
16.05999947 10.34000015 -0.03000000 68 204 119 97.000000 1.000000 4.000000 1.000000 0.000000 114.000000 102.000000 -0.306433 0.485578 0.818726
16.05999947 10.34000015 -0.03000000 68 204 119 97.000000 1.000000 4.000000 1.000000 0.000000 114.000000 102.000000 -0.306433 0.485578 0.818726
16.02000046 10.31000042 -0.02000000 68 204 119 97.000000 1.000000 4.000000 1.000000 0.000000 114.000000 102.000000 0.708778 -0.314833 -0.631280
16.02000046 10.34000015 -0.06000000 68 204 119 97.000000 1.000000 4.000000 1.000000 0.000000 114.000000 102.000000 -0.464415 0.830317 0.308046
16.02000046 10.34000015 -0.06000000 68 204 119 97.000000 1.000000 4.000000 1.000000 0.000000 114.000000 102.000000 -0.464415 0.830317 0.308046
16.04999924 10.30000019 -0.03000000 68 204 119 97.000000 1.000000 4.000000 1.000000 0.000000 114.000000 102.000000 0.595437 -0.113207 -0.795386
16.04999924 10.27999973 -0.06000000 68 204 119 97.000000 1.000000 4.000000 1.000000 0.000000 114.000000 102.000000 0.538247 -0.544997 -0.642860
15.97999954 10.35000038 -0.07000000 68 204 119 97.000000 1.000000 4.000000 1.000000 0.000000 114.000000 102.000000 -0.250953 0.445631 0.859323
15.97999954 10.35000038 -0.07000000 68 204 119 97.000000 1.000000 4.000000 1.000000 0.000000 114.000000 102.000000 -0.250953 0.445631 0.859323
16.00000000 10.30000019 -0.03000000 68 204 119 97.000000 1.000000 4.000000 1.000000 0.000000 114.000000 102.000000 -0.725003 0.456238 0.515963
15.97999954 10.27999973 -0.03000000 68 204 119 97.000000 1.000000 4.000000 1.000000 0.000000 114.000000 102.000000 -0.112415 0.465314 0.877978
15.98999977 10.27999973 -0.03000000 68 204 119 97.000000 1.000000 4.000000 1.000000 0.000000 114.000000 102.000000 -0.117303 0.379509 0.917722
16.04000092 10.19999981 0.04000000 68 204 119 97.000000 1.000000 4.000000 1.000000 0.000000 114.000000 102.000000 -0.247821 -0.090232 0.964595
15.98999977 10.22999954 0.01000000 68 204 119 97.000000 1.000000 4.000000 1.000000 0.000000 114.000000 102.000000 -0.416980 0.046927 0.907703
16.01000023 10.25000000 -0.02000000 68 204 119 97.000000 1.000000 4.000000 1.000000 0.000000 114.000000 102.000000 -0.473057 0.509574 0.718715
15.97999954 10.26000023 -0.07000000 68 204 119 97.000000 1.000000 4.000000 1.000000 0.000000 114.000000 102.000000 -0.232123 0.524199 0.819350
15.94999981 10.22999954 -0.02000000 68 204 119 97.000000 1.000000 4.000000 1.000000 0.000000 114.000000 102.000000 0.678598 -0.248345 -0.691252
15.93999958 10.22999954 -0.03000000 68 204 119 97.000000 1.000000 4.000000 1.000000 0.000000 114.000000 102.000000 -0.378405 0.511577 0.771426
15.93999958 10.18999958 -0.06000000 68 204 119 97.000000 1.000000 4.000000 1.000000 0.000000 114.000000 102.000000 -0.153903 0.266318 0.951519
16.04000092 10.27000046 -0.08000000 68 204 119 97.000000 1.000000 4.000000 1.000000 0.000000 114.000000 102.000000 -0.225699 0.596157 0.770491
16.00000000 10.32999992 -0.09000000 68 204 119 97.000000 1.000000 4.000000 1.000000 0.000000 114.000000 102.000000 -0.182544 0.716370 0.673418
15.97999954 10.18000031 0.01000000 68 204 119 97.000000 1.000000 4.000000 1.000000 0.000000 114.000000 102.000000 -0.347646 0.326392 0.878982
15.98999977 10.14000034 -0.03000000 68 204 119 97.000000 1.000000 4.000000 1.000000 0.000000 114.000000 102.000000 0.044824 0.077623 0.995975
16.02000046 10.17000008 0.00000000 68 204 119 97.000000 1.000000 4.000000 1.000000 0.000000 114.000000 102.000000 -0.235408 0.186982 0.953740
16.03000069 10.11999989 0.00000000 68 204 119 97.000000 1.000000 4.000000 1.000000 0.000000 114.000000 102.000000 -0.012960 0.008972 0.999876
16.00000000 10.14999962 -0.03000000 68 204 119 97.000000 1.000000 4.000000 1.000000 0.000000 114.000000 102.000000 -0.210640 -0.032131 0.977036
15.96000004 10.18000031 0.01000000 68 204 119 97.000000 1.000000 4.000000 1.000000 0.000000 114.000000 102.000000 -0.339026 -0.029425 0.940317
15.78999996 10.34000015 -0.52999997 68 204 119 97.000000 1.000000 4.000000 1.000000 0.000000 114.000000 166.000000 -0.363311 0.805045 -0.468943
16.07999992 10.69999981 -0.67000002 68 204 119 0.000000 0.000000 0.000000 0.000000 0.000000 0.000000 102.000000 0.104274 -0.762225 0.638859
16.14999962 10.65999985 -0.69999999 68 204 119 0.000000 0.000000 0.000000 0.000000 0.000000 0.000000 102.000000 -0.434477 0.735142 -0.520381
16.19000053 10.64000034 -0.74000001 68 204 119 0.000000 0.000000 0.000000 0.000000 0.000000 0.000000 102.000000 0.698851 -0.525389 0.485359
16.09000015 10.68000031 -0.68000001 68 204 119 0.000000 0.000000 0.000000 0.000000 0.000000 0.000000 102.000000 0.680786 -0.483408 0.550316
16.06999969 10.68999958 -0.66000003 68 204 119 0.000000 0.000000 0.000000 0.000000 0.000000 0.000000 102.000000 0.694276 -0.490176 0.526981
16.09000015 10.67000008 -0.74000001 68 204 119 0.000000 0.000000 0.000000 0.000000 0.000000 0.000000 102.000000 -0.507486 0.710481 -0.487519
16.10000038 10.67000008 -0.75000000 68 204 119 0.000000 0.000000 0.000000 0.000000 0.000000 0.000000 102.000000 -0.318864 0.681431 -0.658770
16.09000015 10.61999989 -0.75999999 68 204 119 0.000000 0.000000 0.000000 0.000000 0.000000 0.000000 102.000000 -0.296327 0.732008 -0.613477
16.11000061 10.56999969 -0.74000001 68 204 119 0.000000 0.000000 0.000000 0.000000 0.000000 0.000000 102.000000 0.415870 -0.293104 0.860896
16.14999962 10.60999966 -0.77999997 68 204 119 0.000000 0.000000 0.000000 0.000000 0.000000 0.000000 102.000000 0.611890 -0.471072 0.635360
16.11000061 10.61999989 -0.76999998 68 204 119 0.000000 0.000000 0.000000 0.000000 0.000000 0.000000 102.000000 -0.216004 0.756793 -0.616934
16.09000015 10.61999989 -0.76999998 68 204 119 0.000000 0.000000 0.000000 0.000000 0.000000 0.000000 102.000000 0.595819 -0.448950 0.665915
16.12999916 10.61999989 -0.76999998 68 204 119 0.000000 0.000000 0.000000 0.000000 0.000000 0.000000 102.000000 0.055963 -0.707432 0.704562
16.05999947 10.68000031 -0.64999998 68 204 119 0.000000 0.000000 0.000000 0.000000 0.000000 0.000000 102.000000 0.581297 -0.464032 0.668407
16.03000069 10.64999962 -0.69000000 68 204 119 0.000000 0.000000 0.000000 0.000000 0.000000 0.000000 102.000000 -0.250298 0.860115 -0.444469
16.04000092 10.64000034 -0.74000001 68 204 119 0.000000 0.000000 0.000000 0.000000 0.000000 0.000000 102.000000 -0.359394 0.752939 -0.551288
16.04000092 10.61999989 -0.74000001 68 204 119 0.000000 0.000000 0.000000 0.000000 0.000000 0.000000 102.000000 0.630209 -0.414042 0.656814
16.01000023 10.64999962 -0.72000003 68 204 119 0.000000 0.000000 0.000000 0.000000 0.000000 0.000000 102.000000 0.262443 -0.557887 0.787328
16.03000069 10.56999969 -0.61000001 68 204 119 0.000000 0.000000 0.000000 0.000000 0.000000 0.000000 102.000000 0.569846 -0.683481 0.456211
15.93999958 10.57999992 -0.68000001 68 204 119 0.000000 0.000000 0.000000 0.000000 0.000000 0.000000 102.000000 -0.372788 0.835233 -0.404246
15.93000031 10.60000038 -0.63999999 68 204 119 0.000000 0.000000 0.000000 0.000000 0.000000 0.000000 102.000000 0.630318 -0.251179 0.734581
15.93000031 10.56000042 -0.62000000 68 204 119 0.000000 0.000000 0.000000 0.000000 0.000000 0.000000 102.000000 -0.511411 0.819190 -0.259591
15.92000008 10.56000042 -0.62000000 68 204 119 0.000000 0.000000 0.000000 0.000000 0.000000 0.000000 102.000000 -0.613730 0.743771 -0.264840
15.92000008 10.57999992 -0.70999998 68 204 119 0.000000 0.000000 0.000000 0.000000 0.000000 0.000000 102.000000 0.606254 -0.303931 0.734902
16.04999924 10.52000046 -0.70999998 68 204 119 0.000000 0.000000 0.000000 0.000000 0.000000 0.000000 102.000000 0.226156 -0.609840 0.759571
16.02000046 10.50000000 -0.75999999 68 204 119 0.000000 0.000000 0.000000 0.000000 0.000000 0.000000 102.000000 0.087850 -0.374378 0.923105
16.03000069 10.51000023 -0.75999999 68 204 119 0.000000 0.000000 0.000000 0.000000 0.000000 0.000000 102.000000 0.058735 -0.666146 0.743505
16.01000023 10.52000046 -0.70999998 68 204 119 0.000000 0.000000 0.000000 0.000000 0.000000 0.000000 102.000000 0.481787 -0.240129 0.842745
16.00000000 10.47000027 -0.75999999 68 204 119 0.000000 0.000000 0.000000 0.000000 0.000000 0.000000 102.000000 0.460891 -0.204343 0.863611
15.93999958 10.51000023 -0.69999999 68 204 119 0.000000 0.000000 0.000000 0.000000 0.000000 0.000000 102.000000 0.145110 -0.508619 0.848675
15.93999958 10.51000023 -0.69000000 68 204 119 0.000000 0.000000 0.000000 0.000000 0.000000 0.000000 102.000000 0.375172 -0.191180 0.907026
15.94999981 10.48999977 -0.75999999 68 204 119 0.000000 0.000000 0.000000 0.000000 0.000000 0.000000 102.000000 0.472541 -0.330305 0.817070
15.96000004 10.46000004 -0.74000001 68 204 119 0.000000 0.000000 0.000000 0.000000 0.000000 0.000000 102.000000 -0.391820 0.682792 -0.616662
16.01000023 10.47000027 -0.76999998 68 204 119 0.000000 0.000000 0.000000 0.000000 0.000000 0.000000 102.000000 0.475554 -0.288451 0.831050
15.93000031 10.47000027 -0.76999998 68 204 119 0.000000 0.000000 0.000000 0.000000 0.000000 0.000000 102.000000 0.575119 -0.416008 0.704397
15.85000038 10.56999969 -0.63000000 68 204 119 0.000000 0.000000 0.000000 0.000000 0.000000 0.000000 102.000000 -0.320884 0.783850 -0.531613
15.85000038 10.55000019 -0.67000002 68 204 119 0.000000 0.000000 0.000000 0.000000 0.000000 0.000000 102.000000 0.132616 -0.627320 0.767387
15.81999969 10.56000042 -0.63000000 68 204 119 0.000000 0.000000 0.000000 0.000000 0.000000 0.000000 102.000000 0.717327 -0.497635 0.487649
15.84000015 10.52999973 -0.61000001 68 204 119 0.000000 0.000000 0.000000 0.000000 0.000000 0.000000 102.000000 -0.199463 0.876158 -0.438818
15.82999992 10.52999973 -0.66000003 68 204 119 0.000000 0.000000 0.000000 0.000000 0.000000 0.000000 102.000000 0.168444 -0.608524 0.775451
15.89000034 10.48999977 -0.68000001 68 204 119 0.000000 0.000000 0.000000 0.000000 0.000000 0.000000 102.000000 -0.379457 0.824010 -0.420737
15.85999966 10.47999954 -0.68000001 68 204 119 0.000000 0.000000 0.000000 0.000000 0.000000 0.000000 102.000000 -0.568256 0.534532 -0.625588
15.84000015 10.50000000 -0.63999999 68 204 119 0.000000 0.000000 0.000000 0.000000 0.000000 0.000000 102.000000 0.685712 -0.643364 0.340413
15.88000011 10.47999954 -0.69999999 68 204 119 0.000000 0.000000 0.000000 0.000000 0.000000 0.000000 102.000000 -0.358395 0.763819 -0.536781
15.84000015 10.50000000 -0.72000003 68 204 119 0.000000 0.000000 0.000000 0.000000 0.000000 0.000000 102.000000 0.702312 -0.272325 0.657721
15.82999992 10.50000000 -0.70999998 68 204 119 0.000000 0.000000 0.000000 0.000000 0.000000 0.000000 102.000000 -0.272001 0.828436 -0.489601
15.82999992 10.48999977 -0.72000003 68 204 119 0.000000 0.000000 0.000000 0.000000 0.000000 0.000000 102.000000 0.416650 -0.589286 0.692203
15.81000042 10.43999958 -0.70999998 68 204 119 0.000000 0.000000 0.000000 0.000000 0.000000 0.000000 102.000000 0.303214 -0.604823 0.736376
15.84000015 10.47000027 -0.72000003 68 204 119 0.000000 0.000000 0.000000 0.000000 0.000000 0.000000 102.000000 0.639978 -0.333831 0.692088
16.46999931 10.69999981 -0.07000000 68 204 119 0.000000 0.000000 0.000000 0.000000 0.000000 0.000000 125.000000 -0.189100 0.656470 0.730266
16.44000053 10.81000042 -0.11000000 68 204 119 0.000000 0.000000 0.000000 0.000000 0.000000 0.000000 125.000000 0.740729 -0.353271 -0.571420
16.40999985 10.85000038 -0.16000000 68 204 119 0.000000 0.000000 0.000000 0.000000 0.000000 0.000000 125.000000 -0.419906 0.815862 0.397553
16.43000031 10.81000042 -0.13000000 68 204 119 0.000000 0.000000 0.000000 0.000000 0.000000 0.000000 125.000000 0.657803 -0.499661 -0.563591
16.46999931 10.81000042 -0.16000000 68 204 119 0.000000 0.000000 0.000000 0.000000 0.000000 0.000000 125.000000 -0.515261 0.765576 0.385226
16.48999977 10.73999977 -0.12000000 68 204 119 0.000000 0.000000 0.000000 0.000000 0.000000 0.000000 125.000000 0.605284 -0.618773 -0.500751
16.45000076 10.73999977 -0.09000000 68 204 119 0.000000 0.000000 0.000000 0.000000 0.000000 0.000000 125.000000 0.314306 -0.540861 -0.780180
16.43000031 10.73999977 -0.09000000 68 204 119 0.000000 0.000000 0.000000 0.000000 0.000000 0.000000 125.000000 -0.404068 0.449144 0.796868
16.40999985 10.69999981 -0.11000000 68 204 119 0.000000 0.000000 0.000000 0.000000 0.000000 0.000000 125.000000 0.603457 -0.427241 -0.673279
16.43000031 10.72000027 -0.08000000 68 204 119 0.000000 0.000000 0.000000 0.000000 0.000000 0.000000 125.000000 0.660651 -0.265852 -0.702042
16.42000008 10.72000027 -0.09000000 68 204 119 0.000000 0.000000 0.000000 0.000000 0.000000 0.000000 125.000000 0.782815 -0.331376 -0.526679
16.42000008 10.71000004 -0.10000000 68 204 119 0.000000 0.000000 0.000000 0.000000 0.000000 0.000000 125.000000 0.769802 -0.436385 -0.465804
16.44000053 10.72999954 -0.08000000 68 204 119 0.000000 0.000000 0.000000 0.000000 0.000000 0.000000 125.000000 -0.414195 0.851660 0.321118
16.43000031 10.72999954 -0.11000000 68 204 119 0.000000 0.000000 0.000000 0.000000 0.000000 0.000000 125.000000 -0.688560 0.561852 0.458484
16.42000008 10.72000027 -0.09000000 68 204 119 0.000000 0.000000 0.000000 0.000000 0.000000 0.000000 125.000000 0.782815 -0.331376 -0.526679
16.40999985 10.76000023 -0.20999999 68 204 119 0.000000 0.000000 0.000000 0.000000 0.000000 0.000000 125.000000 0.728382 -0.633168 -0.261836
16.40999985 10.77999973 -0.18000001 68 204 119 0.000000 0.000000 0.000000 0.000000 0.000000 0.000000 125.000000 -0.630140 0.760097 -0.158668
16.32999992 10.40999985 0.11000000 68 204 119 0.000000 0.000000 0.000000 0.000000 0.000000 0.000000 102.000000 -0.273258 0.067361 0.959579
16.37999916 10.85999966 -0.18000001 68 204 119 0.000000 0.000000 0.000000 0.000000 0.000000 0.000000 125.000000 0.607318 -0.549800 -0.573484
16.36000061 10.84000015 -0.20000000 68 204 119 0.000000 0.000000 0.000000 0.000000 0.000000 0.000000 125.000000 -0.573539 0.733673 0.364385
16.35000038 10.72000027 -0.15000001 68 204 119 0.000000 0.000000 0.000000 0.000000 0.000000 0.000000 125.000000 0.842494 -0.490316 -0.223147
16.37000084 10.76000023 -0.17000000 68 204 119 0.000000 0.000000 0.000000 0.000000 0.000000 0.000000 125.000000 -0.688042 0.720179 0.089109
16.34000015 10.73999977 -0.23000000 68 204 119 0.000000 0.000000 0.000000 0.000000 0.000000 0.000000 125.000000 0.486374 -0.786923 -0.379727
16.35000038 10.77000046 -0.20999999 68 204 119 0.000000 0.000000 0.000000 0.000000 0.000000 0.000000 125.000000 -0.684462 0.727331 -0.050013
16.34000015 10.75000000 -0.20999999 68 204 119 0.000000 0.000000 0.000000 0.000000 0.000000 0.000000 125.000000 0.877417 -0.478714 -0.031191
16.34000015 10.73999977 -0.20999999 68 204 119 0.000000 0.000000 0.000000 0.000000 0.000000 0.000000 125.000000 0.803481 -0.571331 0.167329
16.28000069 10.72999954 -0.15000001 68 204 119 0.000000 0.000000 0.000000 0.000000 0.000000 0.000000 125.000000 -0.503675 0.767738 0.396094
16.30999947 10.72000027 -0.19000000 68 204 119 0.000000 0.000000 0.000000 0.000000 0.000000 0.000000 125.000000 -0.341187 0.939851 -0.016489
16.27000046 10.75000000 -0.23999999 68 204 119 0.000000 0.000000 0.000000 0.000000 0.000000 0.000000 125.000000 -0.372823 0.879983 0.294334
16.26000023 10.75000000 -0.23999999 68 204 119 0.000000 0.000000 0.000000 0.000000 0.000000 0.000000 125.000000 -0.441694 0.804686 0.396721
16.26000023 10.76000023 -0.18000001 68 204 119 0.000000 0.000000 0.000000 0.000000 0.000000 0.000000 125.000000 -0.446800 0.889398 -0.096643
16.29999924 10.75000000 -0.22000000 68 204 119 0.000000 0.000000 0.000000 0.000000 0.000000 0.000000 125.000000 -0.513701 0.817886 0.259178
16.23999977 10.69999981 -0.22000000 68 204 119 0.000000 0.000000 0.000000 0.000000 0.000000 0.000000 125.000000 0.846477 -0.494655 -0.196960
16.29000092 10.69999981 -0.17000000 68 204 119 0.000000 0.000000 0.000000 0.000000 0.000000 0.000000 125.000000 0.717719 -0.532073 -0.449196
16.17000008 10.72000027 -0.22000000 68 204 119 0.000000 0.000000 0.000000 0.000000 0.000000 0.000000 125.000000 -0.472660 0.781269 0.407689
16.19000053 10.71000004 -0.23999999 68 204 119 0.000000 0.000000 0.000000 0.000000 0.000000 0.000000 125.000000 -0.271288 0.961386 -0.046257
16.17000008 10.72000027 -0.22000000 68 204 119 0.000000 0.000000 0.000000 0.000000 0.000000 0.000000 125.000000 -0.472660 0.781269 0.407689
16.17000008 10.69999981 -0.17000000 68 204 119 0.000000 0.000000 0.000000 0.000000 0.000000 0.000000 125.000000 -0.593629 0.791006 0.148033
16.12000084 10.76000023 -0.25000000 68 204 119 0.000000 0.000000 0.000000 0.000000 0.000000 0.000000 125.000000 -0.579271 0.773931 -0.255884
16.34000015 10.81000042 -0.25999999 68 204 119 0.000000 0.000000 0.000000 0.000000 0.000000 0.000000 125.000000 0.717283 -0.661025 -0.220342
16.25000000 10.81000042 -0.33000001 68 204 119 0.000000 0.000000 0.000000 0.000000 0.000000 0.000000 125.000000 0.742678 -0.630104 0.226712
16.21999931 10.78999996 -0.33000001 68 204 119 0.000000 0.000000 0.000000 0.000000 0.000000 0.000000 125.000000 -0.502469 0.855790 0.123083
16.20999908 10.77000046 -0.28999999 68 204 119 0.000000 0.000000 0.000000 0.000000 0.000000 0.000000 125.000000 -0.413970 0.868881 0.271431
16.19000053 10.72000027 -0.25999999 68 204 119 0.000000 0.000000 0.000000 0.000000 0.000000 0.000000 125.000000 0.775619 -0.609307 0.164800
16.36000061 10.68000031 -0.12000000 68 204 119 0.000000 0.000000 0.000000 0.000000 0.000000 0.000000 125.000000 -0.221100 0.793176 0.567438
16.25000000 10.65999985 -0.15000001 68 204 119 0.000000 0.000000 0.000000 0.000000 0.000000 0.000000 125.000000 -0.524375 0.500920 0.688556
16.29000092 10.65999985 -0.14000000 68 204 119 0.000000 0.000000 0.000000 0.000000 0.000000 0.000000 125.000000 -0.477951 0.732638 0.484566
16.25000000 10.56999969 -0.15000001 68 204 119 0.000000 0.000000 0.000000 0.000000 0.000000 0.000000 125.000000 -0.520975 0.852630 0.040075
16.37999916 10.48999977 0.05000000 68 204 119 0.000000 0.000000 0.000000 0.000000 0.000000 0.000000 102.000000 -0.190897 0.074170 0.978804
16.34000015 10.43999958 0.08000000 68 204 119 0.000000 0.000000 0.000000 0.000000 0.000000 0.000000 102.000000 -0.186455 0.063756 0.980393
16.36000061 10.46000004 0.00000000 68 204 119 0.000000 0.000000 0.000000 0.000000 0.000000 0.000000 102.000000 -0.579564 0.284225 0.763755
16.35000038 10.44999981 0.00000000 68 204 119 0.000000 0.000000 0.000000 0.000000 0.000000 0.000000 102.000000 0.066487 0.544627 0.836039
16.37999916 10.43000031 0.03000000 68 204 119 0.000000 0.000000 0.000000 0.000000 0.000000 0.000000 102.000000 0.003122 -0.063479 0.997978
16.30999947 10.44999981 0.02000000 68 204 119 0.000000 0.000000 0.000000 0.000000 0.000000 0.000000 102.000000 -0.458627 0.501676 0.733473
16.29000092 10.43999958 0.00000000 68 204 119 0.000000 0.000000 0.000000 0.000000 0.000000 0.000000 102.000000 -0.196002 0.717645 0.668258
16.29000092 10.43999958 0.00000000 68 204 119 0.000000 0.000000 0.000000 0.000000 0.000000 0.000000 102.000000 -0.196002 0.717645 0.668258
16.29000092 10.35999966 0.06000000 68 204 119 0.000000 0.000000 0.000000 0.000000 0.000000 0.000000 102.000000 -0.444221 0.447475 0.776166
16.29999924 10.43000031 0.01000000 68 204 119 0.000000 0.000000 0.000000 0.000000 0.000000 0.000000 102.000000 -0.289516 0.625419 0.724590
16.28000069 10.39000034 0.04000000 68 204 119 0.000000 0.000000 0.000000 0.000000 0.000000 0.000000 102.000000 -0.255866 0.069323 0.964224
16.29999924 10.39000034 0.04000000 68 204 119 0.000000 0.000000 0.000000 0.000000 0.000000 0.000000 102.000000 0.032030 0.202855 0.978685
16.26000023 10.39000034 0.05000000 68 204 119 0.000000 0.000000 0.000000 0.000000 0.000000 0.000000 102.000000 -0.067945 0.288448 0.955082
16.29000092 10.35999966 0.03000000 68 204 119 0.000000 0.000000 0.000000 0.000000 0.000000 0.000000 102.000000 -0.114123 0.512833 0.850869
16.27000046 10.39999962 0.05000000 68 204 119 0.000000 0.000000 0.000000 0.000000 0.000000 0.000000 102.000000 -0.467990 0.153081 0.870374
16.14999962 10.68999958 -0.23000000 68 204 119 0.000000 0.000000 0.000000 0.000000 0.000000 0.000000 125.000000 0.831715 -0.537302 0.139846
16.12999916 10.38000011 -0.04000000 68 204 119 0.000000 0.000000 0.000000 0.000000 0.000000 0.000000 102.000000 0.485917 -0.519313 -0.702993
16.12999916 10.43000031 -0.06000000 68 204 119 0.000000 0.000000 0.000000 0.000000 0.000000 0.000000 102.000000 -0.502033 0.241037 0.830580
16.11000061 10.38000011 -0.03000000 68 204 119 0.000000 0.000000 0.000000 0.000000 0.000000 0.000000 102.000000 -0.537385 0.146560 0.830504
16.15999985 10.35999966 -0.03000000 68 204 119 0.000000 0.000000 0.000000 0.000000 0.000000 0.000000 102.000000 -0.366299 0.508301 0.779394
16.17000008 10.35999966 -0.03000000 68 204 119 0.000000 0.000000 0.000000 0.000000 0.000000 0.000000 102.000000 -0.332426 0.150350 0.931068
16.19000053 10.39999962 -0.03000000 68 204 119 0.000000 0.000000 0.000000 0.000000 0.000000 0.000000 102.000000 -0.384138 0.605058 0.697383
16.14999962 10.39000034 -0.05000000 68 204 119 0.000000 0.000000 0.000000 0.000000 0.000000 0.000000 102.000000 -0.193147 0.690695 0.696875
16.12000084 10.38000011 -0.06000000 68 204 119 0.000000 0.000000 0.000000 0.000000 0.000000 0.000000 102.000000 0.644475 -0.587263 -0.489667
16.12000084 10.36999989 -0.05000000 68 204 119 0.000000 0.000000 0.000000 0.000000 0.000000 0.000000 102.000000 -0.596499 0.525528 0.606638
16.09000015 10.48999977 -0.15000001 68 204 119 0.000000 0.000000 0.000000 0.000000 0.000000 0.000000 102.000000 -0.252483 0.896241 0.364698
16.17000008 10.51000023 -0.23999999 68 204 119 0.000000 0.000000 0.000000 0.000000 0.000000 0.000000 102.000000 -0.765976 0.604391 0.219072
16.06999969 10.39000034 -0.09000000 68 204 119 0.000000 0.000000 0.000000 0.000000 0.000000 0.000000 102.000000 0.744307 -0.457146 -0.486852
16.14999962 10.57999992 -0.30000001 68 204 119 0.000000 0.000000 0.000000 0.000000 0.000000 0.000000 102.000000 -0.361405 0.918278 0.161718
16.15999985 10.53999996 -0.30000001 68 204 119 0.000000 0.000000 0.000000 0.000000 0.000000 0.000000 102.000000 0.765280 -0.626958 -0.145839
16.12000084 10.53999996 -0.31999999 68 204 119 0.000000 0.000000 0.000000 0.000000 0.000000 0.000000 102.000000 -0.424406 0.905311 -0.017081
16.13999939 10.57999992 -0.40000001 68 204 119 0.000000 0.000000 0.000000 0.000000 0.000000 0.000000 102.000000 0.869887 -0.446134 0.210384
16.12999916 10.61999989 -0.44999999 68 204 119 0.000000 0.000000 0.000000 0.000000 0.000000 0.000000 102.000000 -0.210324 0.796775 -0.566493
16.10000038 10.60000038 -0.44999999 68 204 119 0.000000 0.000000 0.000000 0.000000 0.000000 0.000000 102.000000 -0.489142 0.749358 -0.446321
16.04999924 10.72999954 -0.23000000 68 204 119 0.000000 0.000000 0.000000 0.000000 0.000000 0.000000 125.000000 -0.383037 0.922711 0.043437
16.04000092 10.71000004 -0.37000000 68 204 119 0.000000 0.000000 0.000000 0.000000 0.000000 0.000000 102.000000 -0.319922 0.922796 -0.214703
16.01000023 10.72000027 -0.36000001 68 204 119 0.000000 0.000000 0.000000 0.000000 0.000000 0.000000 102.000000 0.787280 -0.609742 -0.091680
16.02000046 10.71000004 -0.38000000 68 204 119 0.000000 0.000000 0.000000 0.000000 0.000000 0.000000 102.000000 0.855490 -0.493269 0.157552
16.04999924 10.61999989 -0.10000000 68 204 119 0.000000 0.000000 0.000000 0.000000 0.000000 0.000000 102.000000 -0.400224 0.857623 0.322961
16.05999947 10.68999958 -0.22000000 68 204 119 0.000000 0.000000 0.000000 0.000000 0.000000 0.000000 125.000000 0.859319 -0.510092 -0.037123
16.05999947 10.57999992 -0.14000000 68 204 119 0.000000 0.000000 0.000000 0.000000 0.000000 0.000000 102.000000 -0.322809 0.803046 0.500910
15.98999977 10.60999966 -0.17000000 68 204 119 0.000000 0.000000 0.000000 0.000000 0.000000 0.000000 102.000000 -0.632208 0.655439 0.413175
16.03000069 10.52999973 -0.23000000 68 204 119 0.000000 0.000000 0.000000 0.000000 0.000000 0.000000 102.000000 -0.394361 0.913762 0.097560
15.97999954 10.60000038 -0.17000000 68 204 119 0.000000 0.000000 0.000000 0.000000 0.000000 0.000000 102.000000 -0.591640 0.786318 -0.177948
15.97000027 10.57999992 -0.13000000 68 204 119 0.000000 0.000000 0.000000 0.000000 0.000000 0.000000 102.000000 0.523754 -0.638272 -0.564172
15.93000031 10.56999969 -0.16000000 68 204 119 0.000000 0.000000 0.000000 0.000000 0.000000 0.000000 102.000000 -0.664608 0.523273 0.533369
16.02000046 10.35999966 0.01000000 68 204 119 0.000000 0.000000 0.000000 0.000000 0.000000 0.000000 102.000000 -0.122014 0.577729 0.807057
16.04999924 10.47999954 -0.15000001 68 204 119 0.000000 0.000000 0.000000 0.000000 0.000000 0.000000 102.000000 -0.327828 0.883776 0.333871
15.97999954 10.47999954 -0.13000000 68 204 119 0.000000 0.000000 0.000000 0.000000 0.000000 0.000000 102.000000 0.708163 -0.690043 -0.149484
16.01000023 10.44999981 -0.16000000 68 204 119 0.000000 0.000000 0.000000 0.000000 0.000000 0.000000 102.000000 -0.518834 0.854788 0.012192
16.01000023 10.51000023 -0.20999999 68 204 119 0.000000 0.000000 0.000000 0.000000 0.000000 0.000000 102.000000 0.750317 -0.576050 -0.324331
15.97999954 10.43999958 -0.19000000 68 204 119 0.000000 0.000000 0.000000 0.000000 0.000000 0.000000 102.000000 0.836146 -0.543708 -0.072400
16.01000023 10.46000004 -0.23000000 68 204 119 0.000000 0.000000 0.000000 0.000000 0.000000 0.000000 102.000000 0.697710 -0.714832 -0.047085
16.04000092 10.39000034 -0.11000000 68 204 119 0.000000 0.000000 0.000000 0.000000 0.000000 0.000000 102.000000 -0.391380 0.658905 0.642391
15.97999954 10.43000031 -0.20000000 68 204 119 0.000000 0.000000 0.000000 0.000000 0.000000 0.000000 102.000000 -0.629358 0.694746 0.348190
15.97000027 10.39000034 -0.16000000 68 204 119 0.000000 0.000000 0.000000 0.000000 0.000000 0.000000 102.000000 0.743191 -0.395384 -0.539757
16.04000092 10.65999985 -0.25999999 68 204 119 0.000000 0.000000 0.000000 0.000000 0.000000 0.000000 125.000000 -0.696392 0.647919 -0.308610
16.05999947 10.68000031 -0.34000000 68 204 119 0.000000 0.000000 0.000000 0.000000 0.000000 0.000000 102.000000 -0.278141 0.930432 -0.238608
15.97999954 10.68000031 -0.38999999 68 204 119 0.000000 0.000000 0.000000 0.000000 0.000000 0.000000 102.000000 0.761017 -0.583075 0.284388
15.97999954 10.64000034 -0.41999999 68 204 119 0.000000 0.000000 0.000000 0.000000 0.000000 0.000000 102.000000 0.801353 -0.597169 -0.034963
15.89999962 10.56000042 -0.30000001 68 204 119 0.000000 0.000000 0.000000 0.000000 0.000000 0.000000 102.000000 -0.316888 0.934059 0.164671
15.89999962 10.56000042 -0.30000001 68 204 119 0.000000 0.000000 0.000000 0.000000 0.000000 0.000000 102.000000 -0.316888 0.934059 0.164671
15.90999985 10.59000015 -0.25999999 68 204 119 0.000000 0.000000 0.000000 0.000000 0.000000 0.000000 102.000000 0.683576 -0.673971 0.280154
15.89999962 10.56000042 -0.28000000 68 204 119 0.000000 0.000000 0.000000 0.000000 0.000000 0.000000 102.000000 -0.403911 0.907052 0.118797
15.89999962 10.56000042 -0.34000000 68 204 119 0.000000 0.000000 0.000000 0.000000 0.000000 0.000000 102.000000 0.781072 -0.619371 -0.079407
15.93000031 10.57999992 -0.41000000 68 204 119 0.000000 0.000000 0.000000 0.000000 0.000000 0.000000 102.000000 0.601796 -0.715958 0.353902
15.90999985 10.53999996 -0.38000000 68 204 119 0.000000 0.000000 0.000000 0.000000 0.000000 0.000000 102.000000 0.682976 -0.710479 -0.169598
15.98999977 10.64000034 -0.44000000 68 204 119 0.000000 0.000000 0.000000 0.000000 0.000000 0.000000 102.000000 -0.379186 0.921652 -0.082314
16.01000023 10.59000015 -0.43000001 68 204 119 0.000000 0.000000 0.000000 0.000000 0.000000 0.000000 102.000000 -0.524721 0.850788 -0.028771
16.02000046 10.57999992 -0.43000001 68 204 119 0.000000 0.000000 0.000000 0.000000 0.000000 0.000000 102.000000 -0.618211 0.783829 -0.058537
15.92000008 10.63000011 -0.50000000 68 204 119 0.000000 0.000000 0.000000 0.000000 0.000000 0.000000 102.000000 -0.360706 0.774790 -0.519222
15.93000031 10.64000034 -0.50999999 68 204 119 0.000000 0.000000 0.000000 0.000000 0.000000 0.000000 102.000000 0.854770 -0.429695 0.291084
15.92000008 10.60000038 -0.46000001 68 204 119 0.000000 0.000000 0.000000 0.000000 0.000000 0.000000 102.000000 -0.476715 0.859869 -0.182667
15.96000004 10.35999966 -0.47999999 68 204 119 97.000000 1.000000 4.000000 1.000000 0.000000 114.000000 166.000000 0.391397 -0.655631 0.645722
15.89999962 10.35999966 -0.49000001 68 204 119 97.000000 1.000000 4.000000 1.000000 0.000000 114.000000 166.000000 0.704241 -0.659729 0.262302
15.94999981 10.36999989 -0.46000001 68 204 119 0.000000 0.000000 0.000000 0.000000 0.000000 0.000000 166.000000 0.572731 -0.565973 0.593004
15.82999992 10.61999989 -0.25999999 68 204 119 0.000000 0.000000 0.000000 0.000000 0.000000 0.000000 102.000000 0.807313 -0.507138 -0.301755
15.85000038 10.59000015 -0.28000000 68 204 119 0.000000 0.000000 0.000000 0.000000 0.000000 0.000000 102.000000 0.659524 -0.688549 -0.301543
15.85999966 10.60000038 -0.25999999 68 204 119 0.000000 0.000000 0.000000 0.000000 0.000000 0.000000 102.000000 -0.532247 0.760120 -0.372735
15.88000011 10.57999992 -0.30000001 68 204 119 0.000000 0.000000 0.000000 0.000000 0.000000 0.000000 102.000000 -0.471658 0.865440 0.168974
15.86999989 10.52999973 -0.34000000 68 204 119 0.000000 0.000000 0.000000 0.000000 0.000000 0.000000 102.000000 -0.634637 0.729596 0.254805
15.86999989 10.55000019 -0.41000000 68 204 119 0.000000 0.000000 0.000000 0.000000 0.000000 0.000000 102.000000 -0.423187 0.763044 -0.488544
15.82999992 10.60999966 -0.34999999 68 204 119 0.000000 0.000000 0.000000 0.000000 0.000000 0.000000 102.000000 0.750940 -0.630666 -0.195830
15.89000034 10.61999989 -0.46000001 68 204 119 0.000000 0.000000 0.000000 0.000000 0.000000 0.000000 102.000000 0.778475 -0.589660 0.215125
15.86999989 10.67000008 -0.50999999 68 204 119 0.000000 0.000000 0.000000 0.000000 0.000000 0.000000 102.000000 0.759572 -0.570081 0.313143
15.88000011 10.60999966 -0.44999999 68 204 119 0.000000 0.000000 0.000000 0.000000 0.000000 0.000000 102.000000 0.797443 -0.551837 0.244052
15.82999992 10.57999992 -0.49000001 68 204 119 0.000000 0.000000 0.000000 0.000000 0.000000 0.000000 102.000000 -0.269741 0.930677 -0.247145
15.84000015 10.56000042 -0.50999999 68 204 119 0.000000 0.000000 0.000000 0.000000 0.000000 0.000000 102.000000 -0.416088 0.765275 -0.491147
15.81999969 10.56000042 -0.58999997 68 204 119 0.000000 0.000000 0.000000 0.000000 0.000000 0.000000 102.000000 0.719164 -0.547226 0.428192
15.85000038 10.51000023 -0.38999999 68 204 119 0.000000 0.000000 0.000000 0.000000 0.000000 0.000000 102.000000 -0.668431 0.733934 0.120586
15.85999966 10.52000046 -0.40000001 68 204 119 0.000000 0.000000 0.000000 0.000000 0.000000 0.000000 102.000000 -0.576625 0.797589 -0.177074
15.81000042 10.39000034 -0.51999998 68 204 119 0.000000 0.000000 0.000000 0.000000 0.000000 0.000000 166.000000 0.841978 -0.437330 0.315936
15.78999996 10.51000023 -0.58999997 68 204 119 0.000000 0.000000 0.000000 0.000000 0.000000 0.000000 102.000000 -0.629562 0.518165 -0.578927
15.80000019 10.39999962 -0.50000000 68 204 119 0.000000 0.000000 0.000000 0.000000 0.000000 0.000000 166.000000 -0.399830 0.758861 -0.514067
15.77999973 10.39000034 -0.50000000 68 204 119 0.000000 0.000000 0.000000 0.000000 0.000000 0.000000 166.000000 0.560557 -0.377518 0.737059
15.80000019 10.39999962 -0.50999999 68 204 119 0.000000 0.000000 0.000000 0.000000 0.000000 0.000000 166.000000 -0.562613 0.582888 -0.586267
16.23999977 10.25000000 0.10000000 68 204 119 97.000000 1.000000 4.000000 1.000000 0.000000 114.000000 102.000000 -0.342929 0.345977 0.873326
16.30999947 10.21000004 0.10000000 68 204 119 97.000000 1.000000 4.000000 1.000000 0.000000 114.000000 102.000000 -0.143805 -0.364399 0.920073
16.29000092 10.19999981 0.10000000 68 204 119 97.000000 1.000000 4.000000 1.000000 0.000000 114.000000 102.000000 0.347265 -0.233932 0.908120
16.29999924 10.25000000 0.10000000 68 204 119 97.000000 1.000000 4.000000 1.000000 0.000000 114.000000 102.000000 -0.053868 -0.028518 0.998141
16.30999947 10.30000019 0.10000000 68 204 119 97.000000 1.000000 4.000000 1.000000 0.000000 114.000000 102.000000 0.106899 0.296942 0.948893
16.28000069 10.25000000 0.10000000 68 204 119 97.000000 1.000000 4.000000 1.000000 0.000000 114.000000 102.000000 -0.146333 -0.156339 0.976803
16.29999924 10.27999973 0.10000000 68 204 119 97.000000 1.000000 4.000000 1.000000 0.000000 114.000000 102.000000 -0.192564 -0.005765 0.981268
16.29000092 10.30000019 0.10000000 68 204 119 97.000000 1.000000 4.000000 1.000000 0.000000 114.000000 102.000000 -0.252794 0.115378 0.960616
16.29999924 10.27999973 0.10000000 68 204 119 97.000000 1.000000 4.000000 1.000000 0.000000 114.000000 102.000000 -0.192564 -0.005765 0.981268
16.27000046 10.17000008 0.10000000 68 204 119 97.000000 1.000000 4.000000 1.000000 0.000000 114.000000 102.000000 -0.165522 0.050478 0.984913
16.20999908 10.23999977 0.10000000 68 204 119 97.000000 1.000000 4.000000 1.000000 0.000000 114.000000 102.000000 0.116899 -0.009833 0.993095
16.21999931 10.22000027 0.10000000 68 204 119 97.000000 1.000000 4.000000 1.000000 0.000000 114.000000 102.000000 0.176123 -0.017267 0.984217
16.17000008 10.21000004 0.10000000 68 204 119 97.000000 1.000000 4.000000 1.000000 0.000000 114.000000 102.000000 0.106345 0.287525 0.951851
16.11000061 10.23999977 0.11000000 68 204 119 97.000000 1.000000 4.000000 1.000000 0.000000 114.000000 102.000000 -0.156176 -0.042804 0.986801
16.18000031 10.17000008 0.10000000 68 204 119 97.000000 1.000000 4.000000 1.000000 0.000000 114.000000 102.000000 -0.080787 0.026929 0.996368
16.35000038 10.31999969 0.06000000 68 204 119 97.000000 1.000000 4.000000 1.000000 0.000000 114.000000 102.000000 -0.083297 0.172630 0.981458
16.32999992 10.35000038 0.07000000 68 204 119 97.000000 1.000000 4.000000 1.000000 0.000000 114.000000 102.000000 -0.440875 0.249981 0.862055
16.30999947 10.31000042 0.06000000 68 204 119 97.000000 1.000000 4.000000 1.000000 0.000000 114.000000 102.000000 -0.342543 0.367120 0.864805
16.25000000 10.34000015 0.04000000 68 204 119 97.000000 1.000000 4.000000 1.000000 0.000000 114.000000 102.000000 -0.562949 0.312750 0.765033
16.29999924 10.35000038 0.04000000 68 204 119 97.000000 1.000000 4.000000 1.000000 0.000000 114.000000 102.000000 -0.011168 0.306512 0.951801
16.31999969 10.30000019 0.07000000 68 204 119 97.000000 1.000000 4.000000 1.000000 0.000000 114.000000 102.000000 -0.413419 0.237305 0.879074
16.28000069 10.35000038 0.04000000 68 204 119 97.000000 1.000000 4.000000 1.000000 0.000000 114.000000 102.000000 -0.116172 0.353983 0.928009
16.27000046 10.32999992 0.06000000 68 204 119 97.000000 1.000000 4.000000 1.000000 0.000000 114.000000 102.000000 -0.240297 -0.125994 0.962488
16.25000000 10.26000023 0.09000000 68 204 119 97.000000 1.000000 4.000000 1.000000 0.000000 114.000000 102.000000 -0.261836 0.451705 0.852880
16.23999977 10.22000027 0.09000000 68 204 119 97.000000 1.000000 4.000000 1.000000 0.000000 114.000000 102.000000 -0.026511 0.316874 0.948097
16.28000069 10.18999958 0.09000000 68 204 119 97.000000 1.000000 4.000000 1.000000 0.000000 114.000000 102.000000 0.364171 0.156073 0.918161
16.20999908 10.31999969 0.02000000 68 204 119 97.000000 1.000000 4.000000 1.000000 0.000000 114.000000 102.000000 -0.472185 0.050640 0.880044
16.20000076 10.27999973 0.07000000 68 204 119 97.000000 1.000000 4.000000 1.000000 0.000000 114.000000 102.000000 -0.224837 0.418405 0.879992
16.19000053 10.27999973 0.04000000 68 204 119 97.000000 1.000000 4.000000 1.000000 0.000000 114.000000 102.000000 0.024048 0.049141 0.998502
16.19000053 10.27999973 0.04000000 68 204 119 97.000000 1.000000 4.000000 1.000000 0.000000 114.000000 102.000000 0.024048 0.049141 0.998502
16.17000008 10.35000038 -0.02000000 68 204 119 97.000000 1.000000 4.000000 1.000000 0.000000 114.000000 102.000000 -0.588875 0.288852 0.754845
16.18000031 10.35000038 -0.02000000 68 204 119 97.000000 1.000000 4.000000 1.000000 0.000000 114.000000 102.000000 -0.297576 0.635364 0.712573
16.17000008 10.34000015 0.00000000 68 204 119 97.000000 1.000000 4.000000 1.000000 0.000000 114.000000 102.000000 -0.493797 0.386943 0.778742
16.20000076 10.22999954 0.07000000 68 204 119 97.000000 1.000000 4.000000 1.000000 0.000000 114.000000 102.000000 -0.191967 0.066404 0.979152
16.14999962 10.18999958 0.08000000 68 204 119 97.000000 1.000000 4.000000 1.000000 0.000000 114.000000 102.000000 -0.360410 -0.062049 0.930728
16.17000008 10.21000004 0.09000000 68 204 119 97.000000 1.000000 4.000000 1.000000 0.000000 114.000000 102.000000 -0.257638 -0.066609 0.963943
16.21999931 10.22000027 0.09000000 68 204 119 97.000000 1.000000 4.000000 1.000000 0.000000 114.000000 102.000000 -0.070333 0.118759 0.990429
16.11000061 10.31999969 0.01000000 68 204 119 97.000000 1.000000 4.000000 1.000000 0.000000 114.000000 102.000000 -0.290526 0.054553 0.955311
16.12999916 10.28999996 0.04000000 68 204 119 97.000000 1.000000 4.000000 1.000000 0.000000 114.000000 102.000000 -0.469932 0.011981 0.882621
16.11000061 10.31000042 0.01000000 68 204 119 97.000000 1.000000 4.000000 1.000000 0.000000 114.000000 102.000000 -0.406907 0.250751 0.878379
16.11000061 10.30000019 0.03000000 68 204 119 97.000000 1.000000 4.000000 1.000000 0.000000 114.000000 102.000000 -0.545749 0.498730 0.673370
16.13999939 10.35000038 0.00000000 68 204 119 97.000000 1.000000 4.000000 1.000000 0.000000 114.000000 102.000000 -0.589980 0.204876 0.780992
16.06999969 10.28999996 -0.05000000 68 204 119 97.000000 1.000000 4.000000 1.000000 0.000000 114.000000 102.000000 -0.429519 0.419867 0.799516
16.07999992 10.23999977 0.03000000 68 204 119 97.000000 1.000000 4.000000 1.000000 0.000000 114.000000 102.000000 -0.283049 0.663645 0.692430
16.12999916 10.26000023 -0.01000000 68 204 119 97.000000 1.000000 4.000000 1.000000 0.000000 114.000000 102.000000 0.057488 0.055318 0.996812
16.03000069 10.28999996 0.05000000 68 204 119 97.000000 1.000000 4.000000 1.000000 0.000000 114.000000 102.000000 -0.124735 0.227609 0.965730
16.03000069 10.27000046 0.01000000 68 204 119 97.000000 1.000000 4.000000 1.000000 0.000000 114.000000 102.000000 0.711923 -0.358416 -0.603907
16.04000092 10.31000042 0.04000000 68 204 119 97.000000 1.000000 4.000000 1.000000 0.000000 114.000000 102.000000 -0.330105 0.379236 0.864413
16.04000092 10.34000015 0.04000000 68 204 119 97.000000 1.000000 4.000000 1.000000 0.000000 114.000000 102.000000 -0.242987 0.369635 0.896843
16.04000092 10.31999969 -0.04000000 68 204 119 97.000000 1.000000 4.000000 1.000000 0.000000 114.000000 102.000000 -0.455466 0.237568 0.857970
16.04999924 10.35000038 -0.04000000 68 204 119 97.000000 1.000000 4.000000 1.000000 0.000000 114.000000 102.000000 -0.392588 0.222025 0.892513
16.02000046 10.27999973 -0.02000000 68 204 119 97.000000 1.000000 4.000000 1.000000 0.000000 114.000000 102.000000 -0.438810 0.675733 0.592309
16.02000046 10.28999996 -0.04000000 68 204 119 97.000000 1.000000 4.000000 1.000000 0.000000 114.000000 102.000000 -0.404068 0.449144 0.796868
15.97999954 10.18999958 0.01000000 68 204 119 97.000000 1.000000 4.000000 1.000000 0.000000 114.000000 102.000000 -0.354906 0.268778 0.895433
16.02000046 10.25000000 -0.03000000 68 204 119 97.000000 1.000000 4.000000 1.000000 0.000000 114.000000 102.000000 -0.158567 0.360635 0.919129
16.00000000 10.26000023 -0.05000000 68 204 119 97.000000 1.000000 4.000000 1.000000 0.000000 114.000000 102.000000 0.711934 -0.539344 -0.449730
15.94999981 10.31999969 -0.05000000 68 204 119 97.000000 1.000000 4.000000 1.000000 0.000000 114.000000 102.000000 0.617604 -0.664215 -0.421169
15.94999981 10.31999969 -0.06000000 68 204 119 97.000000 1.000000 4.000000 1.000000 0.000000 114.000000 102.000000 0.806833 -0.441111 -0.392990
15.93999958 10.23999977 0.01000000 68 204 119 97.000000 1.000000 4.000000 1.000000 0.000000 114.000000 102.000000 0.716703 -0.378852 -0.585499
16.00000000 10.32999992 -0.09000000 68 204 119 97.000000 1.000000 4.000000 1.000000 0.000000 114.000000 102.000000 -0.182544 0.716370 0.673418
15.97000027 10.35000038 -0.08000000 68 204 119 97.000000 1.000000 4.000000 1.000000 0.000000 114.000000 102.000000 -0.533643 0.313814 0.785332
16.02000046 10.34000015 -0.08000000 68 204 119 97.000000 1.000000 4.000000 1.000000 0.000000 114.000000 102.000000 -0.602588 0.764524 0.228890
15.98999977 10.34000015 -0.10000000 68 204 119 97.000000 1.000000 4.000000 1.000000 0.000000 114.000000 102.000000 -0.450862 0.793453 0.408846
15.98999977 10.28999996 -0.08000000 68 204 119 97.000000 1.000000 4.000000 1.000000 0.000000 114.000000 102.000000 0.632660 -0.678672 -0.373023
16.01000023 10.11999989 -0.01000000 68 204 119 97.000000 1.000000 4.000000 1.000000 0.000000 114.000000 102.000000 0.093270 0.207681 0.973740
15.93000031 10.35000038 -0.47999999 68 204 119 97.000000 1.000000 4.000000 1.000000 0.000000 114.000000 166.000000 -0.440931 0.687186 -0.577369
16.18000031 10.61999989 -0.73000002 68 204 119 0.000000 0.000000 0.000000 0.000000 0.000000 0.000000 102.000000 0.616448 -0.318741 0.719998
16.15999985 10.64000034 -0.73000002 68 204 119 0.000000 0.000000 0.000000 0.000000 0.000000 0.000000 102.000000 0.190180 -0.446701 0.874237
16.15999985 10.64000034 -0.74000001 68 204 119 0.000000 0.000000 0.000000 0.000000 0.000000 0.000000 102.000000 0.619181 -0.598935 0.507830
16.06999969 10.68000031 -0.67000002 68 204 119 0.000000 0.000000 0.000000 0.000000 0.000000 0.000000 102.000000 0.590407 -0.712107 0.379900
16.13999939 10.64000034 -0.75000000 68 204 119 0.000000 0.000000 0.000000 0.000000 0.000000 0.000000 102.000000 -0.210614 0.791724 -0.573424
16.12000084 10.60999966 -0.70999998 68 204 119 0.000000 0.000000 0.000000 0.000000 0.000000 0.000000 102.000000 0.199435 -0.712708 0.672512
16.02000046 10.59000015 -0.74000001 68 204 119 0.000000 0.000000 0.000000 0.000000 0.000000 0.000000 102.000000 0.657541 -0.355826 0.664100
15.96000004 10.56999969 -0.72000003 68 204 119 0.000000 0.000000 0.000000 0.000000 0.000000 0.000000 102.000000 -0.384079 0.641231 -0.664309
15.93999958 10.50000000 -0.75000000 68 204 119 0.000000 0.000000 0.000000 0.000000 0.000000 0.000000 102.000000 0.243450 -0.623546 0.742915
16.02000046 10.47999954 -0.76999998 68 204 119 0.000000 0.000000 0.000000 0.000000 0.000000 0.000000 102.000000 0.688436 -0.279527 0.669268
15.86999989 10.57999992 -0.68000001 68 204 119 0.000000 0.000000 0.000000 0.000000 0.000000 0.000000 102.000000 0.504942 -0.276702 0.817600
15.85000038 10.55000019 -0.67000002 68 204 119 0.000000 0.000000 0.000000 0.000000 0.000000 0.000000 102.000000 0.132616 -0.627320 0.767387
15.81999969 10.55000019 -0.62000000 68 204 119 0.000000 0.000000 0.000000 0.000000 0.000000 0.000000 102.000000 0.803548 -0.474461 0.359440
15.81999969 10.55000019 -0.63999999 68 204 119 0.000000 0.000000 0.000000 0.000000 0.000000 0.000000 102.000000 0.705763 -0.562950 0.430100
15.81000042 10.51000023 -0.69999999 68 204 119 0.000000 0.000000 0.000000 0.000000 0.000000 0.000000 102.000000 0.607012 -0.586722 0.535997
16.45000076 10.75000000 -0.07000000 68 204 119 0.000000 0.000000 0.000000 0.000000 0.000000 0.000000 125.000000 -0.347696 0.644789 0.680701
16.53000069 10.75000000 -0.05000000 68 204 119 0.000000 0.000000 0.000000 0.000000 0.000000 0.000000 125.000000 -0.370874 0.298213 0.879501
16.45999908 10.75000000 -0.06000000 68 204 119 0.000000 0.000000 0.000000 0.000000 0.000000 0.000000 125.000000 -0.543604 0.722052 0.427944
16.45000076 10.75000000 -0.07000000 68 204 119 0.000000 0.000000 0.000000 0.000000 0.000000 0.000000 125.000000 -0.347696 0.644789 0.680701
16.50000000 10.84000015 -0.16000000 68 204 119 0.000000 0.000000 0.000000 0.000000 0.000000 0.000000 125.000000 0.630314 -0.650271 -0.424090
16.45999908 10.76000023 -0.11000000 68 204 119 0.000000 0.000000 0.000000 0.000000 0.000000 0.000000 125.000000 0.570049 -0.492697 -0.657490
16.42000008 10.77000046 -0.20000000 68 204 119 0.000000 0.000000 0.000000 0.000000 0.000000 0.000000 125.000000 0.855873 -0.514633 0.051325
16.36000061 10.78999996 -0.20999999 68 204 119 0.000000 0.000000 0.000000 0.000000 0.000000 0.000000 125.000000 0.715109 -0.698116 -0.035401
16.39999962 10.72000027 -0.10000000 68 204 119 0.000000 0.000000 0.000000 0.000000 0.000000 0.000000 125.000000 -0.184767 0.771134 0.609272
16.25000000 10.72000027 -0.23000000 68 204 119 0.000000 0.000000 0.000000 0.000000 0.000000 0.000000 125.000000 -0.503849 0.814634 -0.287241
16.19000053 10.71000004 -0.23999999 68 204 119 0.000000 0.000000 0.000000 0.000000 0.000000 0.000000 125.000000 -0.271288 0.961386 -0.046257
16.35000038 10.78999996 -0.27000001 68 204 119 0.000000 0.000000 0.000000 0.000000 0.000000 0.000000 125.000000 0.841323 -0.534871 -0.078032
16.28000069 10.78999996 -0.31000000 68 204 119 0.000000 0.000000 0.000000 0.000000 0.000000 0.000000 125.000000 -0.613713 0.766759 -0.188246
16.31999969 10.78999996 -0.27000001 68 204 119 0.000000 0.000000 0.000000 0.000000 0.000000 0.000000 125.000000 -0.448776 0.881679 0.145744
16.26000023 10.78999996 -0.36000001 68 204 119 0.000000 0.000000 0.000000 0.000000 0.000000 0.000000 125.000000 -0.621150 0.614416 -0.486483
16.28000069 10.67000008 -0.12000000 68 204 119 0.000000 0.000000 0.000000 0.000000 0.000000 0.000000 125.000000 -0.514347 0.786743 0.341296
16.37999916 10.42000008 0.03000000 68 204 119 0.000000 0.000000 0.000000 0.000000 0.000000 0.000000 102.000000 0.046176 0.383924 0.922209
16.38999939 10.43000031 0.04000000 68 204 119 0.000000 0.000000 0.000000 0.000000 0.000000 0.000000 102.000000 -0.542532 0.172829 0.822064
16.27000046 10.46000004 -0.04000000 68 204 119 0.000000 0.000000 0.000000 0.000000 0.000000 0.000000 102.000000 0.633269 -0.340240 -0.695131
16.29999924 10.40999985 0.03000000 68 204 119 0.000000 0.000000 0.000000 0.000000 0.000000 0.000000 102.000000 -0.057571 0.537801 0.841104
16.12999916 10.65999985 -0.18000001 68 204 119 0.000000 0.000000 0.000000 0.000000 0.000000 0.000000 125.000000 0.658459 -0.527104 -0.537208
16.19000053 10.36999989 -0.03000000 68 204 119 0.000000 0.000000 0.000000 0.000000 0.000000 0.000000 102.000000 -0.171952 0.368063 0.913763
16.15999985 10.35999966 -0.03000000 68 204 119 0.000000 0.000000 0.000000 0.000000 0.000000 0.000000 102.000000 -0.366299 0.508301 0.779394
16.12999916 10.39000034 -0.05000000 68 204 119 0.000000 0.000000 0.000000 0.000000 0.000000 0.000000 102.000000 0.711780 -0.286311 -0.641401
16.13999939 10.38000011 -0.04000000 68 204 119 0.000000 0.000000 0.000000 0.000000 0.000000 0.000000 102.000000 -0.154023 0.575716 0.803012
16.20000076 10.36999989 -0.02000000 68 204 119 0.000000 0.000000 0.000000 0.000000 0.000000 0.000000 102.000000 -0.538895 0.420239 0.730063
16.19000053 10.35999966 0.00000000 68 204 119 97.000000 1.000000 4.000000 1.000000 0.000000 114.000000 102.000000 -0.337478 0.640719 0.689629
16.07999992 10.48999977 -0.18000001 68 204 119 0.000000 0.000000 0.000000 0.000000 0.000000 0.000000 102.000000 -0.573711 0.804394 -0.154288
16.09000015 10.44999981 -0.14000000 68 204 119 0.000000 0.000000 0.000000 0.000000 0.000000 0.000000 102.000000 0.744251 -0.593150 -0.307024
16.09000015 10.56000042 -0.38999999 68 204 119 0.000000 0.000000 0.000000 0.000000 0.000000 0.000000 102.000000 0.687585 -0.699946 0.193142
16.12999916 10.56999969 -0.28000000 68 204 119 0.000000 0.000000 0.000000 0.000000 0.000000 0.000000 102.000000 -0.627039 0.755819 0.188572
16.05999947 10.61999989 -0.15000001 68 204 119 0.000000 0.000000 0.000000 0.000000 0.000000 0.000000 102.000000 -0.451981 0.678806 0.578736
16.05999947 10.63000011 -0.14000000 68 204 119 0.000000 0.000000 0.000000 0.000000 0.000000 0.000000 102.000000 -0.576061 0.676246 0.459179
16.02000046 10.67000008 -0.23000000 68 204 119 0.000000 0.000000 0.000000 0.000000 0.000000 0.000000 125.000000 -0.501756 0.864958 0.009416
16.04999924 10.57999992 -0.11000000 68 204 119 0.000000 0.000000 0.000000 0.000000 0.000000 0.000000 102.000000 0.803096 -0.386320 -0.453645
