//X Y Z R G B PointSourceId ScanDirectionFlag NumberOfReturns ReturnNumber GpsTime Intensity Classification Nx Ny Nz
-14.25000000 1.00000000 -0.04000000 3 17 245 0.000000 0.000000 0.000000 0.000000 0.000000 0.000000 230.000000 0.398437 -0.672880 -0.623282
-14.26000023 1.01999998 -0.05000000 3 17 245 0.000000 0.000000 0.000000 0.000000 0.000000 0.000000 230.000000 -0.104464 0.860037 0.499423
-14.18999958 1.05999994 -0.05000000 3 17 245 0.000000 0.000000 0.000000 0.000000 0.000000 0.000000 230.000000 -0.177292 0.983797 0.026652
-14.22000027 0.91000003 -0.02000000 3 17 245 0.000000 0.000000 0.000000 0.000000 0.000000 0.000000 230.000000 0.048643 -0.013454 0.998726
-14.18999958 0.93000001 -0.04000000 3 17 245 0.000000 0.000000 0.000000 0.000000 0.000000 0.000000 230.000000 0.337037 0.399163 0.852687
-14.25000000 0.98000002 0.00000000 3 17 245 0.000000 0.000000 0.000000 0.000000 0.000000 0.000000 230.000000 0.428895 -0.464772 -0.774620
-14.26000023 0.94999999 -0.07000000 3 17 245 0.000000 0.000000 0.000000 0.000000 0.000000 0.000000 230.000000 -0.187550 0.923651 0.334206
-14.26000023 0.94999999 -0.07000000 3 17 245 0.000000 0.000000 0.000000 0.000000 0.000000 0.000000 230.000000 -0.187550 0.923651 0.334206
-14.26000023 0.98000002 -0.04000000 3 17 245 0.000000 0.000000 0.000000 0.000000 0.000000 0.000000 230.000000 -0.635166 0.696896 0.333016
-14.27000046 1.07000005 0.08000000 3 17 245 0.000000 0.000000 0.000000 0.000000 0.000000 0.000000 230.000000 -0.234422 0.452207 0.860555
-14.34000015 0.99000001 -0.05000000 3 17 245 0.000000 0.000000 0.000000 0.000000 0.000000 0.000000 230.000000 -0.489717 0.869838 -0.059654
-14.28999996 0.98000002 -0.04000000 3 17 245 0.000000 0.000000 0.000000 0.000000 0.000000 0.000000 230.000000 -0.313529 0.948266 0.049909
-14.28999996 0.93000001 0.00000000 3 17 245 0.000000 0.000000 0.000000 0.000000 0.000000 0.000000 230.000000 0.040153 0.348426 0.936476
-14.30000019 0.91000003 -0.03000000 3 17 245 0.000000 0.000000 0.000000 0.000000 0.000000 0.000000 230.000000 0.251297 0.674867 0.693833
-14.27999973 0.91000003 0.00000000 3 17 245 0.000000 0.000000 0.000000 0.000000 0.000000 0.000000 230.000000 0.218321 0.596125 0.772639
-14.27000046 0.93000001 -0.07000000 3 17 245 0.000000 0.000000 0.000000 0.000000 0.000000 0.000000 230.000000 0.019307 0.928037 0.371987
-14.30000019 0.91000003 -0.06000000 3 17 245 0.000000 0.000000 0.000000 0.000000 0.000000 0.000000 230.000000 -0.270668 0.961682 -0.043656
-14.31999969 0.94999999 -0.06000000 3 17 245 0.000000 0.000000 0.000000 0.000000 0.000000 0.000000 230.000000 -0.292411 0.956196 0.013572
-14.31999969 0.91000003 -0.01000000 3 17 245 0.000000 0.000000 0.000000 0.000000 0.000000 0.000000 230.000000 -0.460361 0.671291 0.580892
-14.35000038 0.91000003 -0.04000000 3 17 245 0.000000 0.000000 0.000000 0.000000 0.000000 0.000000 230.000000 -0.158423 0.879321 0.449107
-14.34000015 0.91000003 -0.04000000 3 17 245 0.000000 0.000000 0.000000 0.000000 0.000000 0.000000 230.000000 -0.110442 0.901708 0.418001
-14.34000015 0.91000003 -0.04000000 3 17 245 0.000000 0.000000 0.000000 0.000000 0.000000 0.000000 230.000000 -0.110442 0.901708 0.418001
-14.35000038 0.91000003 -0.05000000 3 17 245 0.000000 0.000000 0.000000 0.000000 0.000000 0.000000 230.000000 -0.473723 0.848436 0.236100
-14.31000042 0.93000001 -0.06000000 3 17 245 0.000000 0.000000 0.000000 0.000000 0.000000 0.000000 230.000000 -0.434136 0.887023 -0.157212
-14.31999969 0.91000003 -0.07000000 3 17 245 0.000000 0.000000 0.000000 0.000000 0.000000 0.000000 230.000000 -0.329259 0.841093 0.429129
-14.31000042 0.94000000 -0.05000000 3 17 245 0.000000 0.000000 0.000000 0.000000 0.000000 0.000000 230.000000 -0.395451 0.833441 0.385998
-14.19999981 1.03999996 -0.12000000 3 17 245 0.000000 0.000000 0.000000 0.000000 0.000000 0.000000 230.000000 -0.138810 0.848934 -0.509945
-14.19999981 1.02999997 -0.13000000 3 17 245 0.000000 0.000000 0.000000 0.000000 0.000000 0.000000 230.000000 0.050107 0.897861 -0.437419
-14.23999977 0.99000001 -0.08000000 3 17 245 0.000000 0.000000 0.000000 0.000000 0.000000 0.000000 230.000000 -0.553915 0.815110 0.169627
-14.19999981 0.97000003 -0.14000000 3 17 245 0.000000 0.000000 0.000000 0.000000 0.000000 0.000000 230.000000 -0.643958 0.613851 -0.456625
-14.18999958 0.98000002 -0.13000000 3 17 245 0.000000 0.000000 0.000000 0.000000 0.000000 0.000000 230.000000 0.293027 -0.622883 0.725363
-14.18999958 0.93000001 -0.12000000 3 17 245 0.000000 0.000000 0.000000 0.000000 0.000000 0.000000 230.000000 -0.639704 0.545183 -0.541807
-14.19999981 0.93000001 -0.13000000 3 17 245 0.000000 0.000000 0.000000 0.000000 0.000000 0.000000 230.000000 0.507733 -0.422289 0.750919
-14.25000000 0.98000002 -0.09000000 3 17 245 0.000000 0.000000 0.000000 0.000000 0.000000 0.000000 230.000000 -0.359858 0.932535 -0.029666
-14.25000000 0.94999999 -0.08000000 3 17 245 0.000000 0.000000 0.000000 0.000000 0.000000 0.000000 230.000000 -0.179780 0.980949 -0.073601
-14.23999977 0.95999998 -0.12000000 3 17 245 0.000000 0.000000 0.000000 0.000000 0.000000 0.000000 230.000000 -0.526161 0.715380 -0.459768
-14.26000023 0.98000002 -0.08000000 3 17 245 0.000000 0.000000 0.000000 0.000000 0.000000 0.000000 230.000000 -0.070929 0.969359 0.235185
-14.26000023 0.94999999 -0.12000000 3 17 245 0.000000 0.000000 0.000000 0.000000 0.000000 0.000000 230.000000 -0.101245 0.755666 -0.647085
-14.27000046 0.95999998 -0.09000000 3 17 245 0.000000 0.000000 0.000000 0.000000 0.000000 0.000000 230.000000 -0.481341 0.808590 -0.338369
-14.27999973 0.95999998 -0.10000000 3 17 245 0.000000 0.000000 0.000000 0.000000 0.000000 0.000000 230.000000 -0.367214 0.924178 0.105113
-14.27999973 0.95999998 -0.11000000 3 17 245 0.000000 0.000000 0.000000 0.000000 0.000000 0.000000 230.000000 -0.505061 0.830510 -0.234876
-14.28999996 0.94999999 -0.09000000 3 17 245 0.000000 0.000000 0.000000 0.000000 0.000000 0.000000 230.000000 -0.291867 0.955769 -0.036327
-14.30000019 0.92000002 -0.13000000 3 17 245 0.000000 0.000000 0.000000 0.000000 0.000000 0.000000 230.000000 -0.377468 0.832325 -0.405897
-14.31000042 0.97000003 -0.11000000 3 17 245 0.000000 0.000000 0.000000 0.000000 0.000000 0.000000 230.000000 -0.034328 0.858197 -0.512172
-14.34000015 0.98000002 -0.09000000 3 17 245 0.000000 0.000000 0.000000 0.000000 0.000000 0.000000 230.000000 -0.310801 0.935166 0.169905
-14.31000042 0.93000001 -0.12000000 3 17 245 0.000000 0.000000 0.000000 0.000000 0.000000 0.000000 230.000000 -0.456696 0.637367 -0.620638
-14.31000042 0.93000001 -0.10000000 3 17 245 0.000000 0.000000 0.000000 0.000000 0.000000 0.000000 230.000000 -0.025296 0.895997 -0.443339
-14.34000015 0.93000001 -0.08000000 3 17 245 0.000000 0.000000 0.000000 0.000000 0.000000 0.000000 230.000000 -0.363694 0.821091 -0.439927
-14.32999992 0.92000002 -0.10000000 3 17 245 0.000000 0.000000 0.000000 0.000000 0.000000 0.000000 230.000000 -0.282936 0.959044 0.013473
-14.34000015 0.92000002 -0.11000000 3 17 245 0.000000 0.000000 0.000000 0.000000 0.000000 0.000000 230.000000 -0.145841 0.966682 -0.210373
-14.22000027 0.87000000 -0.03000000 3 17 245 0.000000 0.000000 0.000000 0.000000 0.000000 0.000000 230.000000 -0.015304 -0.638603 0.769384
-14.19999981 0.85000002 -0.05000000 3 17 245 0.000000 0.000000 0.000000 0.000000 0.000000 0.000000 230.000000 -0.613621 0.705256 -0.355082
-14.22999954 0.88999999 -0.02000000 3 17 245 0.000000 0.000000 0.000000 0.000000 0.000000 0.000000 230.000000 -0.250818 0.090396 0.963804
-14.26000023 0.88000000 0.00000000 3 17 245 0.000000 0.000000 0.000000 0.000000 0.000000 0.000000 230.000000 -0.048869 -0.271910 0.961081
-14.25000000 0.86000001 -0.03000000 3 17 245 0.000000 0.000000 0.000000 0.000000 0.000000 0.000000 230.000000 0.281989 -0.106238 0.953517
-14.23999977 0.88000000 -0.02000000 3 17 245 0.000000 0.000000 0.000000 0.000000 0.000000 0.000000 230.000000 0.016637 0.359615 0.932952
-14.22999954 0.88999999 -0.06000000 3 17 245 0.000000 0.000000 0.000000 0.000000 0.000000 0.000000 230.000000 0.070409 0.223580 0.972139
-14.23999977 0.85000002 -0.03000000 3 17 245 0.000000 0.000000 0.000000 0.000000 0.000000 0.000000 230.000000 0.374792 -0.340860 0.862175
-14.25000000 0.85000002 0.00000000 3 17 245 0.000000 0.000000 0.000000 0.000000 0.000000 0.000000 230.000000 -0.009132 -0.416143 0.909253
-14.25000000 0.83999997 -0.03000000 3 17 245 0.000000 0.000000 0.000000 0.000000 0.000000 0.000000 230.000000 0.385218 -0.505497 0.772062
-14.23999977 0.85000002 -0.03000000 3 17 245 0.000000 0.000000 0.000000 0.000000 0.000000 0.000000 230.000000 0.374792 -0.340860 0.862175
-14.27999973 0.89999998 0.00000000 3 17 245 0.000000 0.000000 0.000000 0.000000 0.000000 0.000000 230.000000 0.383574 0.166833 0.908316
-14.27000046 0.86000001 -0.01000000 3 17 245 0.000000 0.000000 0.000000 0.000000 0.000000 0.000000 230.000000 0.249427 -0.307098 0.918410
-14.27000046 0.88999999 0.00000000 3 17 245 0.000000 0.000000 0.000000 0.000000 0.000000 0.000000 230.000000 0.044555 -0.070636 0.996507
-14.30000019 0.89999998 0.00000000 3 17 245 0.000000 0.000000 0.000000 0.000000 0.000000 0.000000 230.000000 -0.354900 0.221631 0.908254
-14.28999996 0.89999998 0.00000000 3 17 245 0.000000 0.000000 0.000000 0.000000 0.000000 0.000000 230.000000 -0.172262 0.267209 0.948117
-14.28999996 0.86000001 -0.01000000 3 17 245 0.000000 0.000000 0.000000 0.000000 0.000000 0.000000 230.000000 0.136963 -0.122418 0.982983
-14.30000019 0.88999999 0.00000000 3 17 245 0.000000 0.000000 0.000000 0.000000 0.000000 0.000000 230.000000 -0.114249 -0.007617 0.993423
-14.28999996 0.88999999 -0.01000000 3 17 245 0.000000 0.000000 0.000000 0.000000 0.000000 0.000000 230.000000 0.271969 0.539221 0.797041
-14.28999996 0.88999999 -0.04000000 3 17 245 0.000000 0.000000 0.000000 0.000000 0.000000 0.000000 230.000000 0.273457 0.465032 0.842001
-14.28999996 0.87000000 -0.06000000 3 17 245 0.000000 0.000000 0.000000 0.000000 0.000000 0.000000 230.000000 -0.125093 -0.058530 0.990417
-14.28999996 0.88999999 -0.04000000 3 17 245 0.000000 0.000000 0.000000 0.000000 0.000000 0.000000 230.000000 0.273457 0.465032 0.842001
-14.30000019 0.85000002 -0.02000000 3 17 245 0.000000 0.000000 0.000000 0.000000 0.000000 0.000000 230.000000 -0.173395 -0.282619 0.943430
-14.32999992 0.88000000 -0.01000000 3 17 245 0.000000 0.000000 0.000000 0.000000 0.000000 0.000000 230.000000 0.260317 0.522193 0.812127
-14.31999969 0.89999998 -0.04000000 3 17 245 0.000000 0.000000 0.000000 0.000000 0.000000 0.000000 230.000000 -0.304987 0.403073 0.862853
-14.32999992 0.89999998 -0.07000000 3 17 245 0.000000 0.000000 0.000000 0.000000 0.000000 0.000000 230.000000 -0.299125 0.876116 0.378081
-14.38000011 0.99000001 -0.03000000 3 17 245 0.000000 0.000000 0.000000 0.000000 0.000000 0.000000 230.000000 -0.020740 0.808861 0.587634
-14.39000034 0.99000001 -0.03000000 3 17 245 0.000000 0.000000 0.000000 0.000000 0.000000 0.000000 230.000000 -0.352994 0.872551 0.337712
-14.35999966 1.01999998 -0.05000000 3 17 245 0.000000 0.000000 0.000000 0.000000 0.000000 0.000000 230.000000 -0.060119 0.920496 0.386100
-14.38000011 0.92000002 -0.07000000 3 17 245 0.000000 0.000000 0.000000 0.000000 0.000000 0.000000 230.000000 -0.317350 0.885873 -0.338406
-14.38000011 0.91000003 -0.05000000 3 17 245 0.000000 0.000000 0.000000 0.000000 0.000000 0.000000 230.000000 -0.210379 0.803127 0.557429
-14.42000008 0.98000002 -0.07000000 3 17 245 0.000000 0.000000 0.000000 0.000000 0.000000 0.000000 230.000000 -0.604433 0.785615 0.132173
-14.47000027 0.94999999 0.01000000 3 17 245 0.000000 0.000000 0.000000 0.000000 0.000000 0.000000 230.000000 -0.101642 0.851786 0.513935
-14.43999958 0.94000000 0.02000000 3 17 245 0.000000 0.000000 0.000000 0.000000 0.000000 0.000000 230.000000 0.483993 -0.561030 -0.671562
-14.48999977 0.91000003 0.01000000 3 17 245 0.000000 0.000000 0.000000 0.000000 0.000000 0.000000 230.000000 -0.080236 0.865704 0.494085
-14.46000004 0.95999998 -0.01000000 3 17 245 0.000000 0.000000 0.000000 0.000000 0.000000 0.000000 230.000000 -0.220836 0.932576 0.285540
-14.47000027 0.91000003 0.00000000 3 17 245 0.000000 0.000000 0.000000 0.000000 0.000000 0.000000 230.000000 -0.180783 0.587924 0.788456
-14.50000000 0.91000003 -0.01000000 3 17 245 0.000000 0.000000 0.000000 0.000000 0.000000 0.000000 230.000000 0.067160 0.804493 0.590152
-14.50000000 0.92000002 0.00000000 3 17 245 0.000000 0.000000 0.000000 0.000000 0.000000 0.000000 230.000000 -0.178691 0.618544 0.765162
-14.39000034 0.99000001 -0.11000000 3 17 245 0.000000 0.000000 0.000000 0.000000 0.000000 0.000000 230.000000 0.001292 0.913437 -0.406977
-14.36999989 0.92000002 -0.08000000 3 17 245 0.000000 0.000000 0.000000 0.000000 0.000000 0.000000 230.000000 -0.498879 0.857493 0.125804
-14.38000011 0.91000003 -0.09000000 3 17 245 0.000000 0.000000 0.000000 0.000000 0.000000 0.000000 230.000000 -0.451947 0.892036 -0.003953
-14.35999966 0.92000002 -0.10000000 3 17 245 0.000000 0.000000 0.000000 0.000000 0.000000 0.000000 230.000000 0.045406 0.937950 -0.343785
-14.36999989 0.92000002 -0.09000000 3 17 245 0.000000 0.000000 0.000000 0.000000 0.000000 0.000000 230.000000 -0.329165 0.939520 -0.094618
-14.36999989 0.92000002 -0.08000000 3 17 245 0.000000 0.000000 0.000000 0.000000 0.000000 0.000000 230.000000 -0.498879 0.857493 0.125804
-14.36999989 0.95999998 -0.09000000 3 17 245 0.000000 0.000000 0.000000 0.000000 0.000000 0.000000 230.000000 -0.398030 0.907171 -0.136427
-14.38000011 0.89999998 0.03000000 3 17 245 0.000000 0.000000 0.000000 0.000000 0.000000 0.000000 230.000000 -0.276051 0.722839 0.633482
-14.39000034 0.87000000 0.02000000 3 17 245 0.000000 0.000000 0.000000 0.000000 0.000000 0.000000 230.000000 -0.059164 -0.046255 0.997176
-14.36999989 0.88000000 0.03000000 3 17 245 0.000000 0.000000 0.000000 0.000000 0.000000 0.000000 230.000000 0.109805 0.082065 0.990560
-14.43000031 0.89999998 0.02000000 3 17 245 0.000000 0.000000 0.000000 0.000000 0.000000 0.000000 230.000000 0.112534 0.565594 0.816969
-14.42000008 0.88000000 0.03000000 3 17 245 0.000000 0.000000 0.000000 0.000000 0.000000 0.000000 230.000000 0.174325 0.446800 0.877485
-14.42000008 0.87000000 0.02000000 3 17 245 0.000000 0.000000 0.000000 0.000000 0.000000 0.000000 230.000000 0.098951 0.134716 0.985931
-14.40999985 0.86000001 0.01000000 3 17 245 0.000000 0.000000 0.000000 0.000000 0.000000 0.000000 230.000000 -0.345617 0.260316 0.901546
-14.43000031 0.86000001 0.04000000 3 17 245 0.000000 0.000000 0.000000 0.000000 0.000000 0.000000 230.000000 0.034733 0.214389 0.976131
-14.39999962 0.86000001 0.01000000 3 17 245 0.000000 0.000000 0.000000 0.000000 0.000000 0.000000 230.000000 -0.032813 0.136908 0.990040
-14.42000008 0.85000002 0.01000000 3 17 245 0.000000 0.000000 0.000000 0.000000 0.000000 0.000000 230.000000 0.205356 0.469172 0.858899
-14.39000034 0.86000001 -0.02000000 3 17 245 0.000000 0.000000 0.000000 0.000000 0.000000 0.000000 230.000000 0.132671 0.630558 0.764719
-14.36999989 0.87000000 -0.02000000 3 17 245 0.000000 0.000000 0.000000 0.000000 0.000000 0.000000 230.000000 -0.121310 0.458125 0.880571
-14.38000011 0.83999997 0.00000000 3 17 245 0.000000 0.000000 0.000000 0.000000 0.000000 0.000000 230.000000 0.395315 -0.051910 0.917078
-14.36999989 0.85000002 0.00000000 3 17 245 0.000000 0.000000 0.000000 0.000000 0.000000 0.000000 230.000000 0.294532 -0.106982 0.949634
-14.43000031 0.86000001 0.00000000 3 17 245 0.000000 0.000000 0.000000 0.000000 0.000000 0.000000 230.000000 -0.214608 0.588241 0.779690
-14.42000008 0.88999999 -0.01000000 3 17 245 0.000000 0.000000 0.000000 0.000000 0.000000 0.000000 230.000000 0.543353 -0.664472 -0.513073
-14.39999962 0.86000001 -0.04000000 3 17 245 0.000000 0.000000 0.000000 0.000000 0.000000 0.000000 230.000000 -0.346106 0.729586 0.589843
-14.38000011 0.77999997 0.05000000 3 17 245 0.000000 0.000000 0.000000 0.000000 0.000000 0.000000 230.000000 0.055326 -0.312654 0.948255
-14.39000034 0.77999997 0.06000000 3 17 245 0.000000 0.000000 0.000000 0.000000 0.000000 0.000000 230.000000 0.241194 -0.269404 0.932334
-14.38000011 0.79000002 0.05000000 3 17 245 0.000000 0.000000 0.000000 0.000000 0.000000 0.000000 230.000000 -0.067394 -0.067394 0.995448
-14.39000034 0.77999997 0.06000000 3 17 245 0.000000 0.000000 0.000000 0.000000 0.000000 0.000000 230.000000 0.241194 -0.269404 0.932334
-14.43000031 0.81000000 0.05000000 3 17 245 0.000000 0.000000 0.000000 0.000000 0.000000 0.000000 230.000000 0.060722 -0.414259 0.908131
-14.46000004 0.89999998 0.01000000 3 17 245 0.000000 0.000000 0.000000 0.000000 0.000000 0.000000 230.000000 -0.148189 0.435934 0.887694
-14.43999958 0.89999998 0.01000000 3 17 245 0.000000 0.000000 0.000000 0.000000 0.000000 0.000000 230.000000 0.037328 0.529505 0.847485
-14.43999958 0.87000000 0.04000000 3 17 245 0.000000 0.000000 0.000000 0.000000 0.000000 0.000000 230.000000 -0.172732 0.214926 0.961234
-14.47999954 0.86000001 0.03000000 3 17 245 0.000000 0.000000 0.000000 0.000000 0.000000 0.000000 230.000000 0.011785 0.425578 0.904845
-14.46000004 0.86000001 0.03000000 3 17 245 0.000000 0.000000 0.000000 0.000000 0.000000 0.000000 230.000000 0.056145 0.258266 0.964441
-14.47999954 0.88000000 0.01000000 3 17 245 0.000000 0.000000 0.000000 0.000000 0.000000 0.000000 230.000000 -0.351403 0.707710 0.612913
-14.47999954 0.86000001 0.04000000 3 17 245 0.000000 0.000000 0.000000 0.000000 0.000000 0.000000 230.000000 -0.105908 0.124948 0.986495
-14.44999981 0.88000000 0.04000000 3 17 245 0.000000 0.000000 0.000000 0.000000 0.000000 0.000000 230.000000 -0.230185 0.235698 0.944172
-14.47000027 0.81999999 0.06000000 3 17 245 0.000000 0.000000 0.000000 0.000000 0.000000 0.000000 230.000000 0.363033 0.279371 0.888909
-14.47999954 0.82999998 0.06000000 3 17 245 0.000000 0.000000 0.000000 0.000000 0.000000 0.000000 230.000000 0.352609 -0.016548 0.935624
-14.43999958 0.82999998 0.05000000 3 17 245 0.000000 0.000000 0.000000 0.000000 0.000000 0.000000 230.000000 0.161491 0.508178 0.845976
-14.43999958 0.83999997 0.03000000 3 17 245 0.000000 0.000000 0.000000 0.000000 0.000000 0.000000 230.000000 -0.110498 -0.089562 0.989833
-14.43999958 0.82999998 0.03000000 3 17 245 0.000000 0.000000 0.000000 0.000000 0.000000 0.000000 230.000000 0.377530 0.169532 0.910346
-14.48999977 0.86000001 0.06000000 3 17 245 0.000000 0.000000 0.000000 0.000000 0.000000 0.000000 230.000000 0.136211 0.445911 0.884653
-14.48999977 0.86000001 0.03000000 3 17 245 0.000000 0.000000 0.000000 0.000000 0.000000 0.000000 230.000000 -0.155732 0.410046 0.898671
-14.48999977 0.86000001 0.03000000 3 17 245 0.000000 0.000000 0.000000 0.000000 0.000000 0.000000 230.000000 -0.155732 0.410046 0.898671
-14.50000000 0.83999997 0.07000000 3 17 245 0.000000 0.000000 0.000000 0.000000 0.000000 0.000000 230.000000 -0.330684 0.405204 0.852325
-14.48999977 0.81999999 0.06000000 3 17 245 0.000000 0.000000 0.000000 0.000000 0.000000 0.000000 230.000000 0.103226 -0.064658 0.992554
-14.48999977 0.83999997 0.07000000 3 17 245 0.000000 0.000000 0.000000 0.000000 0.000000 0.000000 230.000000 0.086102 0.332485 0.939170
-14.50000000 0.82999998 0.08000000 3 17 245 0.000000 0.000000 0.000000 0.000000 0.000000 0.000000 230.000000 -0.062803 0.298635 0.952299
-14.52000046 0.81999999 0.06000000 3 17 245 0.000000 0.000000 0.000000 0.000000 0.000000 0.000000 230.000000 -0.293899 0.429309 0.854001
-14.51000023 0.83999997 0.03000000 3 17 245 0.000000 0.000000 0.000000 0.000000 0.000000 0.000000 230.000000 -0.270072 0.434862 0.859044
-14.51000023 0.85000002 0.03000000 3 17 245 0.000000 0.000000 0.000000 0.000000 0.000000 0.000000 230.000000 -0.203616 0.137024 0.969415
-14.44999981 0.80000001 0.06000000 3 17 245 0.000000 0.000000 0.000000 0.000000 0.000000 0.000000 230.000000 0.223797 0.039920 0.973818
-14.47000027 0.80000001 0.05000000 3 17 245 0.000000 0.000000 0.000000 0.000000 0.000000 0.000000 230.000000 0.167508 0.085562 0.982151
-14.46000004 0.81000000 0.06000000 3 17 245 0.000000 0.000000 0.000000 0.000000 0.000000 0.000000 230.000000 0.232792 0.367489 0.900422
-14.47000027 0.80000001 0.06000000 3 17 245 0.000000 0.000000 0.000000 0.000000 0.000000 0.000000 230.000000 -0.211856 0.193202 0.958014
-14.46000004 0.80000001 0.06000000 3 17 245 0.000000 0.000000 0.000000 0.000000 0.000000 0.000000 230.000000 0.299700 0.175400 0.937771
-14.47000027 0.73000002 0.05000000 3 17 245 0.000000 0.000000 0.000000 0.000000 0.000000 0.000000 230.000000 0.100667 -0.195120 0.975599
-14.43999958 0.75999999 0.05000000 3 17 245 0.000000 0.000000 0.000000 0.000000 0.000000 0.000000 230.000000 -0.169997 -0.278795 0.945185
-14.52000046 0.80000001 0.06000000 3 17 245 0.000000 0.000000 0.000000 0.000000 0.000000 0.000000 230.000000 -0.265167 0.215188 0.939884
-14.50000000 0.77999997 0.08000000 3 17 245 0.000000 0.000000 0.000000 0.000000 0.000000 0.000000 230.000000 0.146978 0.222418 0.963809
-14.48999977 0.81000000 0.07000000 3 17 245 0.000000 0.000000 0.000000 0.000000 0.000000 0.000000 230.000000 0.395581 0.263219 0.879904
-14.51000023 0.79000002 0.07000000 3 17 245 0.000000 0.000000 0.000000 0.000000 0.000000 0.000000 230.000000 0.073985 0.244526 0.966816
-14.48999977 0.80000001 0.08000000 3 17 245 0.000000 0.000000 0.000000 0.000000 0.000000 0.000000 230.000000 0.003326 -0.140800 0.990032
-14.51000023 0.80000001 0.01000000 3 17 245 0.000000 0.000000 0.000000 0.000000 0.000000 0.000000 230.000000 -0.032623 -0.129367 0.991060
-14.50000000 0.75000000 0.08000000 3 17 245 0.000000 0.000000 0.000000 0.000000 0.000000 0.000000 230.000000 -0.073601 -0.179780 0.980949
-14.50000000 0.73000002 0.06000000 3 17 245 0.000000 0.000000 0.000000 0.000000 0.000000 0.000000 230.000000 -0.216599 0.687197 -0.693430
-14.52000046 0.73000002 0.06000000 3 17 245 0.000000 0.000000 0.000000 0.000000 0.000000 0.000000 230.000000 -0.170049 -0.344315 0.923326
-14.51000023 0.73000002 0.07000000 3 17 245 0.000000 0.000000 0.000000 0.000000 0.000000 0.000000 230.000000 0.110591 -0.421364 0.900123
-14.50000000 0.75999999 0.06000000 3 17 245 0.000000 0.000000 0.000000 0.000000 0.000000 0.000000 230.000000 -0.023622 -0.292169 0.956075
-14.48999977 0.74000001 0.08000000 3 17 245 0.000000 0.000000 0.000000 0.000000 0.000000 0.000000 230.000000 0.138230 -0.578186 0.804110
-14.50000000 0.75000000 0.08000000 3 17 245 0.000000 0.000000 0.000000 0.000000 0.000000 0.000000 230.000000 -0.073601 -0.179780 0.980949
-14.50000000 0.75999999 0.06000000 3 17 245 0.000000 0.000000 0.000000 0.000000 0.000000 0.000000 230.000000 -0.023622 -0.292169 0.956075
-14.65999985 0.94000000 0.12000000 3 17 245 0.000000 0.000000 0.000000 0.000000 0.000000 0.000000 230.000000 -0.017556 0.868359 0.495626
-14.67000008 0.92000002 0.15000001 3 17 245 0.000000 0.000000 0.000000 0.000000 0.000000 0.000000 230.000000 -0.216799 0.402627 0.889320
-14.56999969 0.81999999 0.10000000 3 17 245 0.000000 0.000000 0.000000 0.000000 0.000000 0.000000 230.000000 0.101642 0.513935 0.851786
-14.56999969 0.80000001 0.10000000 3 17 245 0.000000 0.000000 0.000000 0.000000 0.000000 0.000000 230.000000 -0.158272 0.019357 0.987206
-14.60999966 0.75000000 0.14000000 3 17 245 0.000000 0.000000 0.000000 0.000000 0.000000 0.000000 230.000000 0.250700 -0.045694 0.966986
-14.60000038 0.75000000 0.14000000 3 17 245 0.000000 0.000000 0.000000 0.000000 0.000000 0.000000 230.000000 0.354140 -0.344942 0.869253
-14.60999966 0.75999999 0.10000000 3 17 245 0.000000 0.000000 0.000000 0.000000 0.000000 0.000000 230.000000 0.158971 -0.024017 0.986991
-14.60000038 0.76999998 0.10000000 3 17 245 0.000000 0.000000 0.000000 0.000000 0.000000 0.000000 230.000000 0.195439 0.164376 0.966842
-14.65999985 0.88000000 0.14000000 3 17 245 0.000000 0.000000 0.000000 0.000000 0.000000 0.000000 230.000000 -0.096941 0.322695 0.941526
-14.65999985 0.82999998 0.16000000 3 17 245 0.000000 0.000000 0.000000 0.000000 0.000000 0.000000 230.000000 0.141134 0.136225 0.980573
-14.68000031 0.83999997 0.13000000 3 17 245 0.000000 0.000000 0.000000 0.000000 0.000000 0.000000 230.000000 0.368370 -0.597578 -0.712182
-14.64999962 0.74000001 0.14000000 3 17 245 0.000000 0.000000 0.000000 0.000000 0.000000 0.000000 230.000000 -0.266779 0.187430 0.945357
-14.68999958 0.80000001 0.11000000 3 17 245 0.000000 0.000000 0.000000 0.000000 0.000000 0.000000 230.000000 0.126224 0.121415 0.984544
-14.68000031 0.80000001 0.10000000 3 17 245 0.000000 0.000000 0.000000 0.000000 0.000000 0.000000 230.000000 0.182114 0.073569 0.980521
-14.68999958 0.76999998 0.11000000 3 17 245 0.000000 0.000000 0.000000 0.000000 0.000000 0.000000 230.000000 -0.292968 0.362078 0.884912
-14.68000031 0.75000000 0.11000000 3 17 245 0.000000 0.000000 0.000000 0.000000 0.000000 0.000000 230.000000 -0.266523 0.171820 0.948390
-14.75000000 0.87000000 0.13000000 3 17 245 0.000000 0.000000 0.000000 0.000000 0.000000 0.000000 230.000000 -0.052192 0.811097 0.582579
-14.73999977 0.87000000 0.12000000 3 17 245 0.000000 0.000000 0.000000 0.000000 0.000000 0.000000 230.000000 -0.253658 0.527547 0.810772
-14.73999977 0.87000000 0.12000000 3 17 245 0.000000 0.000000 0.000000 0.000000 0.000000 0.000000 230.000000 -0.253658 0.527547 0.810772
-14.76000023 0.83999997 0.12000000 3 17 245 0.000000 0.000000 0.000000 0.000000 0.000000 0.000000 230.000000 -0.150269 0.369352 0.917060
-14.77000046 0.82999998 0.12000000 3 17 245 0.000000 0.000000 0.000000 0.000000 0.000000 0.000000 230.000000 -0.394684 0.542076 0.741875
-14.77999973 0.83999997 0.10000000 3 17 245 0.000000 0.000000 0.000000 0.000000 0.000000 0.000000 230.000000 -0.148696 0.392273 0.907751
-14.69999981 0.80000001 0.11000000 3 17 245 0.000000 0.000000 0.000000 0.000000 0.000000 0.000000 230.000000 -0.368228 0.594075 0.715181
-14.71000004 0.74000001 0.15000001 3 17 245 0.000000 0.000000 0.000000 0.000000 0.000000 0.000000 230.000000 0.038301 0.165972 0.985386
-14.69999981 0.76999998 0.11000000 3 17 245 0.000000 0.000000 0.000000 0.000000 0.000000 0.000000 230.000000 0.170014 0.564205 0.807941
-14.77999973 0.77999997 0.13000000 3 17 245 0.000000 0.000000 0.000000 0.000000 0.000000 0.000000 230.000000 -0.406477 0.381171 0.830352
-14.77000046 0.79000002 0.12000000 3 17 245 0.000000 0.000000 0.000000 0.000000 0.000000 0.000000 230.000000 -0.072461 0.555535 0.828330
-14.77999973 0.79000002 0.12000000 3 17 245 0.000000 0.000000 0.000000 0.000000 0.000000 0.000000 230.000000 0.277779 -0.528879 -0.801951
-14.73999977 0.73000002 0.14000000 3 17 245 0.000000 0.000000 0.000000 0.000000 0.000000 0.000000 230.000000 0.211501 0.287138 0.934248
-14.73999977 0.74000001 0.14000000 3 17 245 0.000000 0.000000 0.000000 0.000000 0.000000 0.000000 230.000000 0.326993 0.140922 0.934461
-14.77999973 0.75000000 0.15000001 3 17 245 0.000000 0.000000 0.000000 0.000000 0.000000 0.000000 230.000000 0.292920 0.543089 0.786925
-14.77999973 0.75999999 0.12000000 3 17 245 0.000000 0.000000 0.000000 0.000000 0.000000 0.000000 230.000000 -0.009115 0.027344 0.999584
-14.78999996 0.83999997 0.13000000 3 17 245 0.000000 0.000000 0.000000 0.000000 0.000000 0.000000 230.000000 -0.009512 0.544916 0.838437
-14.81000042 0.80000001 0.14000000 3 17 245 0.000000 0.000000 0.000000 0.000000 0.000000 0.000000 230.000000 0.149386 0.725806 0.671483
-14.78999996 0.80000001 0.13000000 3 17 245 0.000000 0.000000 0.000000 0.000000 0.000000 0.000000 230.000000 -0.165749 0.752712 0.637144
-14.81000042 0.81000000 0.13000000 3 17 245 0.000000 0.000000 0.000000 0.000000 0.000000 0.000000 230.000000 -0.037488 0.553990 0.831679
-14.78999996 0.81000000 0.13000000 3 17 245 0.000000 0.000000 0.000000 0.000000 0.000000 0.000000 230.000000 0.262389 0.694934 0.669491
-14.78999996 0.81000000 0.13000000 3 17 245 0.000000 0.000000 0.000000 0.000000 0.000000 0.000000 230.000000 0.262389 0.694934 0.669491
-14.80000019 0.77999997 0.10000000 3 17 245 0.000000 0.000000 0.000000 0.000000 0.000000 0.000000 230.000000 -0.149833 0.823342 0.547411
-14.81000042 0.75999999 0.14000000 3 17 245 0.000000 0.000000 0.000000 0.000000 0.000000 0.000000 230.000000 -0.188596 0.113657 0.975455
-14.81999969 0.74000001 0.16000000 3 17 245 0.000000 0.000000 0.000000 0.000000 0.000000 0.000000 230.000000 -0.093211 0.165842 0.981737
-14.81999969 0.76999998 0.16000000 3 17 245 0.000000 0.000000 0.000000 0.000000 0.000000 0.000000 230.000000 0.281186 0.134596 0.950168
-14.81999969 0.75999999 0.15000001 3 17 245 0.000000 0.000000 0.000000 0.000000 0.000000 0.000000 230.000000 0.190946 0.332387 0.923612
-14.81000042 0.73000002 0.10000000 3 17 245 0.000000 0.000000 0.000000 0.000000 0.000000 0.000000 230.000000 0.248440 -0.013202 0.968557
-14.78999996 0.76999998 0.13000000 3 17 245 0.000000 0.000000 0.000000 0.000000 0.000000 0.000000 230.000000 -0.431414 0.322393 0.842582
-14.78999996 0.76999998 0.13000000 3 17 245 0.000000 0.000000 0.000000 0.000000 0.000000 0.000000 230.000000 -0.431414 0.322393 0.842582
-14.80000019 0.76999998 0.11000000 3 17 245 0.000000 0.000000 0.000000 0.000000 0.000000 0.000000 230.000000 -0.098181 0.751748 0.652101
-14.78999996 0.75000000 0.12000000 3 17 245 0.000000 0.000000 0.000000 0.000000 0.000000 0.000000 230.000000 -0.221553 0.138632 0.965244
-14.82999992 0.77999997 0.15000001 3 17 245 0.000000 0.000000 0.000000 0.000000 0.000000 0.000000 230.000000 -0.111356 0.193934 0.974674
-14.85000038 0.77999997 0.11000000 3 17 245 0.000000 0.000000 0.000000 0.000000 0.000000 0.000000 230.000000 -0.133235 0.684142 0.717076
-14.85000038 0.79000002 0.10000000 3 17 245 0.000000 0.000000 0.000000 0.000000 0.000000 0.000000 230.000000 -0.234279 0.503775 0.831459
-14.85000038 0.75999999 0.14000000 3 17 245 0.000000 0.000000 0.000000 0.000000 0.000000 0.000000 230.000000 0.022048 0.380005 0.924722
-14.85000038 0.75000000 0.14000000 3 17 245 0.000000 0.000000 0.000000 0.000000 0.000000 0.000000 230.000000 -0.019641 0.181392 0.983215
-14.82999992 0.75000000 0.16000000 3 17 245 0.000000 0.000000 0.000000 0.000000 0.000000 0.000000 230.000000 0.155268 -0.052534 0.986475
-14.86999989 0.77999997 0.10000000 3 17 245 0.000000 0.000000 0.000000 0.000000 0.000000 0.000000 230.000000 -0.466593 0.715663 0.519728
-14.88000011 0.75000000 0.10000000 3 17 245 0.000000 0.000000 0.000000 0.000000 0.000000 0.000000 230.000000 -0.146201 0.649613 0.746075
-14.93999958 0.74000001 0.16000000 3 17 245 0.000000 0.000000 0.000000 0.000000 0.000000 0.000000 230.000000 -0.079248 0.606609 0.791041
-14.93000031 0.73000002 0.17000000 3 17 245 0.000000 0.000000 0.000000 0.000000 0.000000 0.000000 230.000000 0.132944 0.135383 0.981834
-15.01000023 0.81999999 0.15000001 3 17 245 0.000000 0.000000 0.000000 0.000000 0.000000 0.000000 230.000000 -0.443872 0.466802 0.764901
-15.01000023 0.82999998 0.16000000 3 17 245 0.000000 0.000000 0.000000 0.000000 0.000000 0.000000 230.000000 0.085315 0.790969 0.605879
-14.98999977 0.81999999 0.16000000 3 17 245 0.000000 0.000000 0.000000 0.000000 0.000000 0.000000 230.000000 -0.135865 0.439058 0.888127
-14.97000027 0.79000002 0.15000001 3 17 245 0.000000 0.000000 0.000000 0.000000 0.000000 0.000000 230.000000 -0.152533 0.457600 0.875977
-14.98999977 0.77999997 0.15000001 3 17 245 0.000000 0.000000 0.000000 0.000000 0.000000 0.000000 230.000000 -0.220037 0.694442 0.685079
-14.96000004 0.79000002 0.16000000 3 17 245 0.000000 0.000000 0.000000 0.000000 0.000000 0.000000 230.000000 0.145535 0.518927 0.842338
-14.96000004 0.73000002 0.15000001 3 17 245 0.000000 0.000000 0.000000 0.000000 0.000000 0.000000 230.000000 -0.296990 0.551100 0.779798
-14.96000004 0.73000002 0.16000000 3 17 245 0.000000 0.000000 0.000000 0.000000 0.000000 0.000000 230.000000 -0.305493 0.225923 0.925004
-15.01000023 0.77999997 0.14000000 3 17 245 0.000000 0.000000 0.000000 0.000000 0.000000 0.000000 230.000000 0.500751 -0.618773 -0.605284
-15.00000000 0.79000002 0.13000000 3 17 245 0.000000 0.000000 0.000000 0.000000 0.000000 0.000000 230.000000 -0.067559 0.763275 0.642531
-15.10999966 0.73000002 0.18000001 3 17 245 0.000000 0.000000 0.000000 0.000000 0.000000 0.000000 230.000000 -0.030217 0.400705 0.915709
-15.03999996 0.77999997 0.18000001 3 17 245 0.000000 0.000000 0.000000 0.000000 0.000000 0.000000 230.000000 -0.011042 0.285867 0.958206
-15.05000019 0.80000001 0.16000000 3 17 245 0.000000 0.000000 0.000000 0.000000 0.000000 0.000000 230.000000 -0.417849 0.509612 0.752129
-15.03999996 0.79000002 0.13000000 3 17 245 0.000000 0.000000 0.000000 0.000000 0.000000 0.000000 230.000000 -0.249662 0.431235 0.867009
-15.07999992 0.74000001 0.17000000 3 17 245 0.000000 0.000000 0.000000 0.000000 0.000000 0.000000 230.000000 -0.180926 0.448637 0.875209
-15.07999992 0.73000002 0.11000000 3 17 245 0.000000 0.000000 0.000000 0.000000 0.000000 0.000000 230.000000 -0.206964 0.493994 0.844473
-15.09000015 0.79000002 0.13000000 3 17 245 0.000000 0.000000 0.000000 0.000000 0.000000 0.000000 230.000000 -0.380802 0.497474 0.779429
-15.14999962 0.73000002 0.13000000 3 17 245 0.000000 0.000000 0.000000 0.000000 0.000000 0.000000 230.000000 0.111739 0.886837 0.448369
-15.14999962 0.75999999 0.13000000 3 17 245 0.000000 0.000000 0.000000 0.000000 0.000000 0.000000 230.000000 0.146530 0.708479 0.690352
-14.53999996 0.94999999 0.05000000 3 17 245 0.000000 0.000000 0.000000 0.000000 0.000000 0.000000 230.000000 0.004040 0.855100 0.518447
-14.56999969 0.92000002 -0.01000000 3 17 245 0.000000 0.000000 0.000000 0.000000 0.000000 0.000000 230.000000 -0.405006 0.811614 0.421015
-14.63000011 0.91000003 0.07000000 3 17 245 0.000000 0.000000 0.000000 0.000000 0.000000 0.000000 230.000000 0.218438 0.769956 0.599543
-14.64999962 0.91000003 0.08000000 3 17 245 0.000000 0.000000 0.000000 0.000000 0.000000 0.000000 230.000000 -0.050929 0.874060 0.483142
-14.53999996 0.88999999 0.07000000 3 17 245 0.000000 0.000000 0.000000 0.000000 0.000000 0.000000 230.000000 0.272852 0.652610 0.706861
-14.56000042 0.88000000 0.03000000 3 17 245 0.000000 0.000000 0.000000 0.000000 0.000000 0.000000 230.000000 0.054695 0.548356 0.834455
-14.52999973 0.86000001 0.04000000 3 17 245 0.000000 0.000000 0.000000 0.000000 0.000000 0.000000 230.000000 -0.295347 0.525939 0.797595
-14.55000019 0.85000002 0.07000000 3 17 245 0.000000 0.000000 0.000000 0.000000 0.000000 0.000000 230.000000 -0.176253 0.432622 0.884179
-14.53999996 0.83999997 0.02000000 3 17 245 0.000000 0.000000 0.000000 0.000000 0.000000 0.000000 230.000000 -0.372965 0.329989 0.867182
-14.53999996 0.83999997 0.02000000 3 17 245 0.000000 0.000000 0.000000 0.000000 0.000000 0.000000 230.000000 -0.372965 0.329989 0.867182
-14.52999973 0.85000002 0.04000000 3 17 245 0.000000 0.000000 0.000000 0.000000 0.000000 0.000000 230.000000 0.046572 0.594143 0.803010
-14.56000042 0.85000002 0.03000000 3 17 245 0.000000 0.000000 0.000000 0.000000 0.000000 0.000000 230.000000 -0.269251 0.847758 0.456958
-14.56000042 0.81999999 0.03000000 3 17 245 0.000000 0.000000 0.000000 0.000000 0.000000 0.000000 230.000000 -0.079834 0.738825 0.669152
-14.59000015 0.89999998 0.06000000 3 17 245 0.000000 0.000000 0.000000 0.000000 0.000000 0.000000 230.000000 0.095259 0.678536 0.728364
-14.59000015 0.89999998 0.06000000 3 17 245 0.000000 0.000000 0.000000 0.000000 0.000000 0.000000 230.000000 0.095259 0.678536 0.728364
-14.59000015 0.88999999 0.01000000 3 17 245 0.000000 0.000000 0.000000 0.000000 0.000000 0.000000 230.000000 -0.129587 0.887170 0.442873
-14.60999966 0.83999997 0.06000000 3 17 245 0.000000 0.000000 0.000000 0.000000 0.000000 0.000000 230.000000 -0.171502 0.263330 0.949339
-14.59000015 0.83999997 0.06000000 3 17 245 0.000000 0.000000 0.000000 0.000000 0.000000 0.000000 230.000000 0.241716 0.418874 0.875282
-14.59000015 0.83999997 0.06000000 3 17 245 0.000000 0.000000 0.000000 0.000000 0.000000 0.000000 230.000000 0.241716 0.418874 0.875282
-14.59000015 0.89999998 0.00000000 3 17 245 0.000000 0.000000 0.000000 0.000000 0.000000 0.000000 230.000000 -0.192262 0.903486 0.383078
-14.53999996 0.81000000 0.05000000 3 17 245 0.000000 0.000000 0.000000 0.000000 0.000000 0.000000 230.000000 0.108294 0.230603 0.967003
-14.52999973 0.75000000 0.07000000 3 17 245 0.000000 0.000000 0.000000 0.000000 0.000000 0.000000 230.000000 -0.098851 0.045538 0.994060
-14.52999973 0.76999998 0.06000000 3 17 245 0.000000 0.000000 0.000000 0.000000 0.000000 0.000000 230.000000 0.013375 0.042183 0.999020
-14.55000019 0.74000001 0.06000000 3 17 245 0.000000 0.000000 0.000000 0.000000 0.000000 0.000000 230.000000 0.129768 -0.217136 0.967477
-14.56999969 0.81000000 0.05000000 3 17 245 0.000000 0.000000 0.000000 0.000000 0.000000 0.000000 230.000000 -0.207573 0.582741 0.785701
-14.57999992 0.81000000 0.05000000 3 17 245 0.000000 0.000000 0.000000 0.000000 0.000000 0.000000 230.000000 0.183394 0.001139 0.983039
-14.56999969 0.79000002 0.05000000 3 17 245 0.000000 0.000000 0.000000 0.000000 0.000000 0.000000 230.000000 -0.104376 -0.050504 0.993255
-14.59000015 0.80000001 0.07000000 3 17 245 0.000000 0.000000 0.000000 0.000000 0.000000 0.000000 230.000000 0.148112 0.497128 0.854943
-14.60999966 0.75000000 0.08000000 3 17 245 0.000000 0.000000 0.000000 0.000000 0.000000 0.000000 230.000000 0.049508 0.139313 0.989010
-14.64999962 0.89999998 0.07000000 3 17 245 0.000000 0.000000 0.000000 0.000000 0.000000 0.000000 230.000000 -0.314306 0.780180 0.540861
-14.63000011 0.88999999 0.08000000 3 17 245 0.000000 0.000000 0.000000 0.000000 0.000000 0.000000 230.000000 0.125444 0.483030 0.866571
-14.63000011 0.88999999 0.08000000 3 17 245 0.000000 0.000000 0.000000 0.000000 0.000000 0.000000 230.000000 0.125444 0.483030 0.866571
-14.61999989 0.86000001 0.09000000 3 17 245 0.000000 0.000000 0.000000 0.000000 0.000000 0.000000 230.000000 -0.077129 0.251618 0.964748
-14.61999989 0.85000002 0.09000000 3 17 245 0.000000 0.000000 0.000000 0.000000 0.000000 0.000000 230.000000 -0.280931 0.235757 0.930321
-14.64000034 0.81999999 0.09000000 3 17 245 0.000000 0.000000 0.000000 0.000000 0.000000 0.000000 230.000000 0.090807 0.560696 0.823027
-14.61999989 0.85000002 0.09000000 3 17 245 0.000000 0.000000 0.000000 0.000000 0.000000 0.000000 230.000000 -0.280931 0.235757 0.930321
-14.63000011 0.85000002 0.09000000 3 17 245 0.000000 0.000000 0.000000 0.000000 0.000000 0.000000 230.000000 -0.003957 0.455107 0.890428
-14.68999958 0.82999998 0.04000000 3 17 245 0.000000 0.000000 0.000000 0.000000 0.000000 0.000000 230.000000 -0.210987 0.900696 0.379777
-14.64999962 0.80000001 0.07000000 3 17 245 0.000000 0.000000 0.000000 0.000000 0.000000 0.000000 230.000000 0.260713 0.227253 0.938288
-14.63000011 0.75999999 0.05000000 3 17 245 0.000000 0.000000 0.000000 0.000000 0.000000 0.000000 230.000000 0.271360 0.061845 0.960489
-14.63000011 0.75000000 0.08000000 3 17 245 0.000000 0.000000 0.000000 0.000000 0.000000 0.000000 230.000000 0.464918 -0.165728 0.869704
-14.64999962 0.74000001 0.08000000 3 17 245 0.000000 0.000000 0.000000 0.000000 0.000000 0.000000 230.000000 0.405372 0.203418 0.891232
-14.67000008 0.79000002 0.05000000 3 17 245 0.000000 0.000000 0.000000 0.000000 0.000000 0.000000 230.000000 -0.155300 0.522105 0.838623
-14.67000008 0.81000000 0.04000000 3 17 245 0.000000 0.000000 0.000000 0.000000 0.000000 0.000000 230.000000 0.035141 0.370937 0.927993
-14.69999981 0.81999999 0.04000000 3 17 245 0.000000 0.000000 0.000000 0.000000 0.000000 0.000000 230.000000 0.163115 -0.815573 -0.555188
-14.89000034 0.76999998 0.09000000 3 17 245 0.000000 0.000000 0.000000 0.000000 0.000000 0.000000 230.000000 -0.409129 0.460876 0.787532
-14.39999962 0.67000002 0.11000000 3 17 245 0.000000 0.000000 0.000000 0.000000 0.000000 0.000000 230.000000 0.487495 -0.267735 0.831063
-14.43000031 0.69999999 0.13000000 3 17 245 0.000000 0.000000 0.000000 0.000000 0.000000 0.000000 230.000000 0.234279 -0.503775 0.831459
-14.38000011 0.69000000 0.10000000 3 17 245 0.000000 0.000000 0.000000 0.000000 0.000000 0.000000 230.000000 0.282178 -0.484848 0.827827
-14.40999985 0.70999998 0.11000000 3 17 245 0.000000 0.000000 0.000000 0.000000 0.000000 0.000000 230.000000 0.189053 -0.388209 0.901972
-14.47999954 0.70999998 0.13000000 3 17 245 0.000000 0.000000 0.000000 0.000000 0.000000 0.000000 230.000000 -0.010443 -0.196105 0.980527
-14.42000008 0.70999998 0.04000000 3 17 245 0.000000 0.000000 0.000000 0.000000 0.000000 0.000000 230.000000 -0.651295 0.573880 -0.496465
-14.40999985 0.70999998 0.03000000 3 17 245 0.000000 0.000000 0.000000 0.000000 0.000000 0.000000 230.000000 0.367860 -0.415224 0.832027
-14.52000046 0.72000003 0.05000000 3 17 245 0.000000 0.000000 0.000000 0.000000 0.000000 0.000000 230.000000 0.166878 -0.246980 0.954543
-14.50000000 0.72000003 0.05000000 3 17 245 0.000000 0.000000 0.000000 0.000000 0.000000 0.000000 230.000000 0.105216 -0.436294 0.893631
-14.67000008 0.72000003 0.15000001 3 17 245 0.000000 0.000000 0.000000 0.000000 0.000000 0.000000 230.000000 -0.059943 0.019981 0.998002
-14.64999962 0.69999999 0.14000000 3 17 245 0.000000 0.000000 0.000000 0.000000 0.000000 0.000000 230.000000 0.057980 -0.567075 0.821623
-14.67000008 0.69000000 0.17000000 3 17 245 0.000000 0.000000 0.000000 0.000000 0.000000 0.000000 230.000000 0.239465 0.089958 0.966729
-14.65999985 0.57999998 0.19000000 3 17 245 0.000000 0.000000 0.000000 0.000000 0.000000 0.000000 230.000000 0.165044 -0.290532 0.942524
-14.69999981 0.72000003 0.13000000 3 17 245 0.000000 0.000000 0.000000 0.000000 0.000000 0.000000 230.000000 0.144129 -0.192597 0.970636
-14.71000004 0.68000001 0.16000000 3 17 245 0.000000 0.000000 0.000000 0.000000 0.000000 0.000000 230.000000 -0.062611 -0.219753 0.973544
-14.72999954 0.67000002 0.14000000 3 17 245 0.000000 0.000000 0.000000 0.000000 0.000000 0.000000 230.000000 0.362849 -0.501538 0.785366
-14.72999954 0.68000001 0.16000000 3 17 245 0.000000 0.000000 0.000000 0.000000 0.000000 0.000000 230.000000 0.304170 -0.082243 0.949061
-14.75000000 0.69000000 0.13000000 3 17 245 0.000000 0.000000 0.000000 0.000000 0.000000 0.000000 230.000000 -0.140432 -0.210004 0.967563
-14.73999977 0.68000001 0.16000000 3 17 245 0.000000 0.000000 0.000000 0.000000 0.000000 0.000000 230.000000 0.196906 0.079496 0.977194
-14.73999977 0.67000002 0.16000000 3 17 245 0.000000 0.000000 0.000000 0.000000 0.000000 0.000000 230.000000 0.376714 -0.260573 0.888925
-14.76000023 0.64999998 0.17000000 3 17 245 0.000000 0.000000 0.000000 0.000000 0.000000 0.000000 230.000000 -0.134980 -0.323133 0.936678
-14.75000000 0.68000001 0.17000000 3 17 245 0.000000 0.000000 0.000000 0.000000 0.000000 0.000000 230.000000 0.321153 0.055460 0.945402
-14.73999977 0.68000001 0.16000000 3 17 245 0.000000 0.000000 0.000000 0.000000 0.000000 0.000000 230.000000 0.196906 0.079496 0.977194
-14.77000046 0.67000002 0.17000000 3 17 245 0.000000 0.000000 0.000000 0.000000 0.000000 0.000000 230.000000 -0.071100 -0.235753 0.969208
-14.75000000 0.66000003 0.16000000 3 17 245 0.000000 0.000000 0.000000 0.000000 0.000000 0.000000 230.000000 0.467943 -0.245403 0.849004
-14.71000004 0.62000000 0.14000000 3 17 245 0.000000 0.000000 0.000000 0.000000 0.000000 0.000000 230.000000 -0.353992 0.729191 -0.585637
-14.72000027 0.62000000 0.14000000 3 17 245 0.000000 0.000000 0.000000 0.000000 0.000000 0.000000 230.000000 0.251637 -0.653623 0.713762
-14.69999981 0.56000000 0.17000000 3 17 245 0.000000 0.000000 0.000000 0.000000 0.000000 0.000000 230.000000 0.021018 0.738444 -0.673988
-14.76000023 0.63999999 0.15000001 3 17 245 0.000000 0.000000 0.000000 0.000000 0.000000 0.000000 230.000000 0.132669 -0.132669 0.982241
-14.75000000 0.63999999 0.16000000 3 17 245 0.000000 0.000000 0.000000 0.000000 0.000000 0.000000 230.000000 -0.035504 -0.147743 0.988388
-14.76000023 0.63000000 0.15000001 3 17 245 0.000000 0.000000 0.000000 0.000000 0.000000 0.000000 230.000000 0.248544 -0.300264 0.920906
-14.77999973 0.63000000 0.17000000 3 17 245 0.000000 0.000000 0.000000 0.000000 0.000000 0.000000 230.000000 0.510480 -0.242131 0.825096
-14.75000000 0.63999999 0.17000000 3 17 245 0.000000 0.000000 0.000000 0.000000 0.000000 0.000000 230.000000 -0.178116 -0.165302 0.970026
-14.77999973 0.63000000 0.17000000 3 17 245 0.000000 0.000000 0.000000 0.000000 0.000000 0.000000 230.000000 0.510480 -0.242131 0.825096
-14.76000023 0.63000000 0.16000000 3 17 245 0.000000 0.000000 0.000000 0.000000 0.000000 0.000000 230.000000 0.149530 -0.284241 0.947021
-14.73999977 0.56999999 0.15000001 3 17 245 0.000000 0.000000 0.000000 0.000000 0.000000 0.000000 230.000000 -0.489052 0.616777 -0.616777
-14.77999973 0.56000000 0.14000000 3 17 245 0.000000 0.000000 0.000000 0.000000 0.000000 0.000000 230.000000 -0.549901 0.580357 -0.600661
-14.73999977 0.60000002 0.16000000 3 17 245 0.000000 0.000000 0.000000 0.000000 0.000000 0.000000 230.000000 0.418052 -0.169246 0.892518
-14.77000046 0.57999998 0.17000000 3 17 245 0.000000 0.000000 0.000000 0.000000 0.000000 0.000000 230.000000 0.278122 -0.131742 0.951469
-14.80000019 0.72000003 0.17000000 3 17 245 0.000000 0.000000 0.000000 0.000000 0.000000 0.000000 230.000000 -0.164774 -0.085394 0.982628
-14.81000042 0.69999999 0.13000000 3 17 245 0.000000 0.000000 0.000000 0.000000 0.000000 0.000000 230.000000 0.101108 0.247010 0.963724
-14.81000042 0.69999999 0.13000000 3 17 245 0.000000 0.000000 0.000000 0.000000 0.000000 0.000000 230.000000 0.101108 0.247010 0.963724
-14.81000042 0.64999998 0.16000000 3 17 245 0.000000 0.000000 0.000000 0.000000 0.000000 0.000000 230.000000 0.069266 0.195645 0.978226
-14.81999969 0.64999998 0.16000000 3 17 245 0.000000 0.000000 0.000000 0.000000 0.000000 0.000000 230.000000 -0.112277 0.138837 0.983930
-14.81999969 0.67000002 0.16000000 3 17 245 0.000000 0.000000 0.000000 0.000000 0.000000 0.000000 230.000000 0.136518 -0.171587 0.975664
-14.81000042 0.66000003 0.12000000 3 17 245 0.000000 0.000000 0.000000 0.000000 0.000000 0.000000 230.000000 0.399102 -0.216487 0.890983
-14.84000015 0.69999999 0.16000000 3 17 245 0.000000 0.000000 0.000000 0.000000 0.000000 0.000000 230.000000 0.273587 -0.008512 0.961810
-14.85999966 0.70999998 0.11000000 3 17 245 0.000000 0.000000 0.000000 0.000000 0.000000 0.000000 230.000000 -0.340613 0.127217 0.931557
-14.85000038 0.68000001 0.15000001 3 17 245 0.000000 0.000000 0.000000 0.000000 0.000000 0.000000 230.000000 0.023583 0.289203 0.956977
-14.85000038 0.68000001 0.15000001 3 17 245 0.000000 0.000000 0.000000 0.000000 0.000000 0.000000 230.000000 0.023583 0.289203 0.956977
-14.82999992 0.67000002 0.16000000 3 17 245 0.000000 0.000000 0.000000 0.000000 0.000000 0.000000 230.000000 -0.012206 -0.134261 0.990871
-14.85000038 0.67000002 0.16000000 3 17 245 0.000000 0.000000 0.000000 0.000000 0.000000 0.000000 230.000000 -0.006263 0.331962 0.943272
-14.82999992 0.66000003 0.12000000 3 17 245 0.000000 0.000000 0.000000 0.000000 0.000000 0.000000 230.000000 0.106743 0.137926 0.984674
-14.82999992 0.68000001 0.12000000 3 17 245 0.000000 0.000000 0.000000 0.000000 0.000000 0.000000 230.000000 0.055227 -0.104818 0.992957
-14.81999969 0.63999999 0.15000001 3 17 245 0.000000 0.000000 0.000000 0.000000 0.000000 0.000000 230.000000 0.036784 -0.480913 0.875997
-14.78999996 0.62000000 0.16000000 3 17 245 0.000000 0.000000 0.000000 0.000000 0.000000 0.000000 230.000000 -0.103377 -0.195544 0.975231
-14.78999996 0.56999999 0.17000000 3 17 245 0.000000 0.000000 0.000000 0.000000 0.000000 0.000000 230.000000 -0.091519 -0.389297 0.916555
-14.88000011 0.70999998 0.15000001 3 17 245 0.000000 0.000000 0.000000 0.000000 0.000000 0.000000 230.000000 -0.023682 0.619922 0.784306
-14.86999989 0.69999999 0.16000000 3 17 245 0.000000 0.000000 0.000000 0.000000 0.000000 0.000000 230.000000 -0.105012 -0.116811 0.987587
-14.86999989 0.70999998 0.16000000 3 17 245 0.000000 0.000000 0.000000 0.000000 0.000000 0.000000 230.000000 -0.031249 0.074352 0.996742
-14.86999989 0.72000003 0.14000000 3 17 245 0.000000 0.000000 0.000000 0.000000 0.000000 0.000000 230.000000 0.305799 0.375783 0.874799
-14.89000034 0.69000000 0.16000000 3 17 245 0.000000 0.000000 0.000000 0.000000 0.000000 0.000000 230.000000 -0.168211 -0.178483 0.969458
-14.88000011 0.68000001 0.16000000 3 17 245 0.000000 0.000000 0.000000 0.000000 0.000000 0.000000 230.000000 -0.045538 -0.098851 0.994060
-14.89000034 0.64999998 0.16000000 3 17 245 0.000000 0.000000 0.000000 0.000000 0.000000 0.000000 230.000000 0.485162 0.082970 0.870479
