//X Y Z R G B PointSourceId ScanDirectionFlag NumberOfReturns ReturnNumber GpsTime Intensity Classification Nx Ny Nz
-9.64999962 -6.23999977 -0.01000000 237 142 66 0.000000 0.000000 0.000000 0.000000 0.000000 0.000000 207.000000 0.070055 0.974620 0.212622
-9.65999985 -6.23000002 -0.06000000 237 142 66 0.000000 0.000000 0.000000 0.000000 0.000000 0.000000 207.000000 -0.007910 0.986455 0.163844
-9.65999985 -6.23000002 -0.06000000 237 142 66 0.000000 0.000000 0.000000 0.000000 0.000000 0.000000 207.000000 -0.007910 0.986455 0.163844
-9.67000008 -6.23000002 -0.01000000 237 142 66 0.000000 0.000000 0.000000 0.000000 0.000000 0.000000 207.000000 -0.119537 0.984068 -0.131612
-9.68000031 -6.23000002 -0.01000000 237 142 66 0.000000 0.000000 0.000000 0.000000 0.000000 0.000000 207.000000 0.028754 0.953885 -0.298792
-9.68000031 -6.23000002 -0.04000000 237 142 66 0.000000 0.000000 0.000000 0.000000 0.000000 0.000000 207.000000 0.179385 0.983762 0.005713
-9.56000042 -6.17999983 -0.15000001 237 142 66 0.000000 0.000000 0.000000 0.000000 0.000000 0.000000 207.000000 -0.646232 0.762186 0.038180
-9.57999992 -6.19000006 -0.13000000 237 142 66 0.000000 0.000000 0.000000 0.000000 0.000000 0.000000 207.000000 -0.470089 0.857575 -0.208762
-9.57999992 -6.19000006 -0.15000001 237 142 66 0.000000 0.000000 0.000000 0.000000 0.000000 0.000000 207.000000 -0.263412 0.941938 0.208247
-9.71000004 -6.21999979 -0.12000000 237 142 66 0.000000 0.000000 0.000000 0.000000 0.000000 0.000000 207.000000 0.067022 0.986513 0.149329
-9.71000004 -6.21999979 -0.08000000 237 142 66 0.000000 0.000000 0.000000 0.000000 0.000000 0.000000 207.000000 0.057210 0.986577 0.152949
-9.69999981 -6.23999977 -0.17000000 237 142 66 0.000000 0.000000 0.000000 0.000000 0.000000 0.000000 207.000000 -0.105706 0.993635 0.038944
-9.60000038 -6.17999983 -0.31999999 237 142 66 0.000000 0.000000 0.000000 0.000000 0.000000 0.000000 207.000000 0.824976 -0.565033 0.012313
-9.63000011 -6.21000004 -0.28999999 237 142 66 0.000000 0.000000 0.000000 0.000000 0.000000 0.000000 207.000000 -0.619822 0.784741 0.001374
-9.69999981 -6.23999977 -0.38000000 237 142 66 0.000000 0.000000 0.000000 0.000000 0.000000 0.000000 207.000000 -0.088131 0.961772 0.259283
-9.65999985 -6.19999981 -0.46000001 237 142 66 0.000000 0.000000 0.000000 0.000000 0.000000 0.000000 207.000000 0.248887 0.967068 -0.053244
-9.71000004 -6.17000008 -0.50000000 237 142 66 0.000000 0.000000 0.000000 0.000000 0.000000 0.000000 207.000000 0.016013 0.957057 -0.289457
-9.68000031 -6.17999983 -0.49000001 237 142 66 0.000000 0.000000 0.000000 0.000000 0.000000 0.000000 207.000000 0.140706 0.966869 0.212995
-9.67000008 -6.19000006 -0.49000001 237 142 66 0.000000 0.000000 0.000000 0.000000 0.000000 0.000000 207.000000 0.208343 0.975922 0.064574
-9.72000027 -6.19999981 0.02000000 237 142 66 0.000000 0.000000 0.000000 0.000000 0.000000 0.000000 207.000000 0.205991 0.941475 -0.266820
-9.75000000 -6.17999983 -0.01000000 237 142 66 0.000000 0.000000 0.000000 0.000000 0.000000 0.000000 207.000000 0.610803 0.785735 0.097670
-9.75000000 -6.19999981 -0.03000000 237 142 66 0.000000 0.000000 0.000000 0.000000 0.000000 0.000000 207.000000 0.663206 0.744474 0.076914
-9.73999977 -6.19999981 -0.06000000 237 142 66 0.000000 0.000000 0.000000 0.000000 0.000000 0.000000 207.000000 0.302931 0.938949 -0.163117
-9.72000027 -6.21000004 -0.07000000 237 142 66 0.000000 0.000000 0.000000 0.000000 0.000000 0.000000 207.000000 0.086359 0.957688 -0.274546
-9.73999977 -6.19000006 -0.06000000 237 142 66 0.000000 0.000000 0.000000 0.000000 0.000000 0.000000 207.000000 0.626077 0.710201 0.321936
-9.72000027 -6.21000004 -0.07000000 237 142 66 0.000000 0.000000 0.000000 0.000000 0.000000 0.000000 207.000000 0.086359 0.957688 -0.274546
-9.77000046 -6.15999985 -0.03000000 237 142 66 0.000000 0.000000 0.000000 0.000000 0.000000 0.000000 207.000000 0.902418 0.414018 0.119293
-9.77999973 -6.17999983 -0.06000000 237 142 66 0.000000 0.000000 0.000000 0.000000 0.000000 0.000000 207.000000 0.506761 0.852345 -0.129231
-9.77999973 -6.17999983 -0.05000000 237 142 66 0.000000 0.000000 0.000000 0.000000 0.000000 0.000000 207.000000 0.536675 0.843735 -0.009511
-9.77000046 -6.15000010 -0.05000000 237 142 66 0.000000 0.000000 0.000000 0.000000 0.000000 0.000000 207.000000 0.884653 0.445911 0.136211
-9.72999954 -6.21999979 -0.14000000 237 142 66 0.000000 0.000000 0.000000 0.000000 0.000000 0.000000 207.000000 0.271132 0.961962 0.033427
-9.77999973 -6.21999979 -0.25000000 237 142 66 0.000000 0.000000 0.000000 0.000000 0.000000 0.000000 207.000000 0.236162 0.943267 -0.233400
-9.75000000 -6.21999979 -0.20999999 237 142 66 0.000000 0.000000 0.000000 0.000000 0.000000 0.000000 207.000000 0.321317 0.946029 -0.042245
-9.77000046 -6.21999979 -0.17000000 237 142 66 0.000000 0.000000 0.000000 0.000000 0.000000 0.000000 207.000000 0.586850 0.797819 0.138170
-9.73999977 -6.21999979 -0.17000000 237 142 66 0.000000 0.000000 0.000000 0.000000 0.000000 0.000000 207.000000 0.291998 0.947994 -0.126666
-9.73999977 -6.23000002 -0.08000000 237 142 66 0.000000 0.000000 0.000000 0.000000 0.000000 0.000000 207.000000 0.227338 0.948832 0.219171
-9.72999954 -6.25000000 -0.25000000 237 142 66 0.000000 0.000000 0.000000 0.000000 0.000000 0.000000 207.000000 0.322761 0.929160 0.180243
-9.81999969 -6.17999983 -0.22000000 237 142 66 0.000000 0.000000 0.000000 0.000000 0.000000 0.000000 207.000000 0.815475 0.484237 0.317041
-9.82999992 -6.17000008 -0.22000000 237 142 66 0.000000 0.000000 0.000000 0.000000 0.000000 0.000000 207.000000 0.949929 0.305472 0.065735
-9.72999954 -6.25000000 -0.30000001 237 142 66 0.000000 0.000000 0.000000 0.000000 0.000000 0.000000 207.000000 0.284566 0.892434 0.350120
-9.80000019 -6.21000004 -0.31000000 237 142 66 0.000000 0.000000 0.000000 0.000000 0.000000 0.000000 207.000000 0.485175 0.873858 -0.031258
-9.80000019 -6.21000004 -0.33000001 237 142 66 0.000000 0.000000 0.000000 0.000000 0.000000 0.000000 207.000000 0.349047 0.924765 -0.151578
-9.85999966 -6.15999985 -0.27000001 237 142 66 0.000000 0.000000 0.000000 0.000000 0.000000 0.000000 207.000000 0.933129 0.356285 0.048288
-9.84000015 -6.21999979 -0.38000000 237 142 66 0.000000 0.000000 0.000000 0.000000 0.000000 0.000000 207.000000 0.689441 0.660513 0.297311
-9.84000015 -6.19999981 -0.38000000 237 142 66 0.000000 0.000000 0.000000 0.000000 0.000000 0.000000 207.000000 0.804009 0.592798 0.046466
-9.73999977 -6.19999981 -0.57999998 237 142 66 0.000000 0.000000 0.000000 0.000000 0.000000 0.000000 207.000000 0.630000 0.775924 0.032272
-9.72999954 -6.28000021 -0.54000002 237 142 66 0.000000 0.000000 0.000000 0.000000 0.000000 0.000000 207.000000 0.190654 0.870507 -0.453728
-9.82999992 -6.23000002 -0.46000001 237 142 66 0.000000 0.000000 0.000000 0.000000 0.000000 0.000000 207.000000 0.430392 0.898149 0.089953
-9.80000019 -6.26000023 -0.51999998 237 142 66 0.000000 0.000000 0.000000 0.000000 0.000000 0.000000 207.000000 0.448769 0.836556 0.314295
-9.81000042 -6.25000000 -0.51999998 237 142 66 0.000000 0.000000 0.000000 0.000000 0.000000 0.000000 207.000000 0.438131 0.880657 0.180234
-9.86999989 -6.23000002 -0.57999998 237 142 66 0.000000 0.000000 0.000000 0.000000 0.000000 0.000000 207.000000 0.867103 0.440314 0.232931
-9.85999966 -6.23000002 -0.57999998 237 142 66 0.000000 0.000000 0.000000 0.000000 0.000000 0.000000 207.000000 0.774232 0.606252 0.181723
-9.72000027 -6.11999989 -0.64999998 237 142 66 0.000000 0.000000 0.000000 0.000000 0.000000 0.000000 207.000000 0.488069 0.839969 -0.237150
-9.78999996 -6.07000017 -0.60000002 237 142 66 0.000000 0.000000 0.000000 0.000000 0.000000 0.000000 207.000000 0.981970 0.176251 -0.068342
-9.77000046 -6.09000015 -0.66000003 237 142 66 0.000000 0.000000 0.000000 0.000000 0.000000 0.000000 207.000000 0.884609 0.267927 -0.381684
-9.76000023 -6.09000015 -0.68000001 237 142 66 0.000000 0.000000 0.000000 0.000000 0.000000 0.000000 207.000000 0.920240 0.215436 -0.326721
-9.77000046 -6.09000015 -0.66000003 237 142 66 0.000000 0.000000 0.000000 0.000000 0.000000 0.000000 207.000000 0.884609 0.267927 -0.381684
-9.72000027 -6.13999987 -0.69999999 237 142 66 0.000000 0.000000 0.000000 0.000000 0.000000 0.000000 207.000000 0.477667 0.818182 -0.320021
-9.77999973 -6.07999992 -0.75999999 237 142 66 0.000000 0.000000 0.000000 0.000000 0.000000 0.000000 207.000000 0.973768 0.165882 0.155752
-9.78999996 -6.07999992 -0.73000002 237 142 66 0.000000 0.000000 0.000000 0.000000 0.000000 0.000000 207.000000 0.941040 -0.291764 -0.171223
-9.78999996 -6.07999992 -0.74000001 237 142 66 0.000000 0.000000 0.000000 0.000000 0.000000 0.000000 207.000000 0.932007 -0.354987 0.073125
-9.81000042 -6.07999992 -0.63000000 237 142 66 0.000000 0.000000 0.000000 0.000000 0.000000 0.000000 207.000000 0.977343 0.207460 0.041972
-9.81000042 -6.09999990 -0.63000000 237 142 66 0.000000 0.000000 0.000000 0.000000 0.000000 0.000000 207.000000 0.999238 -0.035870 -0.015373
-9.81000042 -6.09000015 -0.63999999 237 142 66 0.000000 0.000000 0.000000 0.000000 0.000000 0.000000 207.000000 0.994279 0.056912 0.090389
-9.81999969 -6.09999990 -0.74000001 237 142 66 0.000000 0.000000 0.000000 0.000000 0.000000 0.000000 207.000000 0.995539 0.020582 -0.092079
-9.75000000 -6.13999987 -0.82999998 237 142 66 0.000000 0.000000 0.000000 0.000000 0.000000 0.000000 207.000000 0.672411 0.739793 -0.023864
-9.75000000 -6.13999987 -0.81000000 237 142 66 0.000000 0.000000 0.000000 0.000000 0.000000 0.000000 207.000000 0.722019 0.690812 0.038300
-9.77999973 -6.09000015 -0.79000002 237 142 66 0.000000 0.000000 0.000000 0.000000 0.000000 0.000000 207.000000 0.917391 0.068703 -0.392013
-9.78999996 -6.09999990 -0.79000002 237 142 66 0.000000 0.000000 0.000000 0.000000 0.000000 0.000000 207.000000 0.878517 0.073790 -0.471977
-9.77999973 -6.05999994 -0.85000002 237 142 66 0.000000 0.000000 0.000000 0.000000 0.000000 0.000000 207.000000 0.864362 -0.441986 0.239849
-9.78999996 -6.05999994 -0.82999998 237 142 66 0.000000 0.000000 0.000000 0.000000 0.000000 0.000000 207.000000 0.805010 -0.522551 -0.280891
-9.76000023 -6.13999987 -0.82999998 237 142 66 0.000000 0.000000 0.000000 0.000000 0.000000 0.000000 207.000000 0.602994 0.788757 0.119419
-9.78999996 -6.11000013 -0.82999998 237 142 66 0.000000 0.000000 0.000000 0.000000 0.000000 0.000000 207.000000 0.999139 0.023715 0.034026
-9.78999996 -6.11000013 -0.91000003 237 142 66 0.000000 0.000000 0.000000 0.000000 0.000000 0.000000 207.000000 0.961686 -0.077494 -0.262971
-9.76000023 -6.13000011 -0.86000001 237 142 66 0.000000 0.000000 0.000000 0.000000 0.000000 0.000000 207.000000 0.656152 0.685314 0.315925
-9.84000015 -6.07999992 -0.81999999 237 142 66 0.000000 0.000000 0.000000 0.000000 0.000000 0.000000 207.000000 0.942483 0.142390 0.302408
-9.86999989 -6.11999989 -0.81000000 237 142 66 0.000000 0.000000 0.000000 0.000000 0.000000 0.000000 207.000000 0.971852 0.106866 -0.209960
-9.81999969 -6.09999990 -0.88000000 237 142 66 0.000000 0.000000 0.000000 0.000000 0.000000 0.000000 207.000000 0.993791 0.081974 -0.075236
-9.80000019 -6.13000011 -0.87000000 237 142 66 0.000000 0.000000 0.000000 0.000000 0.000000 0.000000 207.000000 0.807539 0.500959 0.311321
-9.90999985 -6.07000017 -0.81999999 237 142 66 0.000000 0.000000 0.000000 0.000000 0.000000 0.000000 207.000000 0.937301 -0.348500 -0.003774
-9.93999958 -6.11999989 -0.88000000 237 142 66 0.000000 0.000000 0.000000 0.000000 0.000000 0.000000 207.000000 0.955747 0.133145 0.262336
-10.02999973 -6.13999987 -0.88999999 237 142 66 0.000000 0.000000 0.000000 0.000000 0.000000 0.000000 207.000000 0.858829 0.405515 -0.313002
-9.85999966 -6.09000015 -1.05999994 237 142 66 0.000000 0.000000 0.000000 0.000000 0.000000 0.000000 207.000000 0.951833 -0.294770 -0.084405
-9.85000038 -6.07000017 -1.04999995 237 142 66 0.000000 0.000000 0.000000 0.000000 0.000000 0.000000 207.000000 0.897739 -0.438805 -0.038915
-9.84000015 -6.11000013 -1.12000000 237 142 66 0.000000 0.000000 0.000000 0.000000 0.000000 0.000000 207.000000 0.988689 -0.037719 0.145160
-9.86999989 -6.11000013 -1.16999996 237 142 66 0.000000 0.000000 0.000000 0.000000 0.000000 0.000000 207.000000 0.976910 -0.118225 0.177959
-9.86999989 -6.11000013 -1.17999995 237 142 66 0.000000 0.000000 0.000000 0.000000 0.000000 0.000000 207.000000 0.945149 -0.050151 -0.322765
-9.88000011 -6.13000011 -1.26999998 237 142 66 0.000000 0.000000 0.000000 0.000000 0.000000 0.000000 207.000000 0.983720 -0.129469 0.124629
-9.89000034 -6.09000015 -0.97000003 237 142 66 0.000000 0.000000 0.000000 0.000000 0.000000 0.000000 207.000000 0.987915 -0.151899 0.030837
-9.89000034 -6.09000015 -0.97000003 237 142 66 0.000000 0.000000 0.000000 0.000000 0.000000 0.000000 207.000000 0.987915 -0.151899 0.030837
-9.92000008 -6.07000017 -0.98000002 237 142 66 0.000000 0.000000 0.000000 0.000000 0.000000 0.000000 207.000000 0.870893 -0.486307 0.071065
-9.92000008 -6.07000017 -0.98000002 237 142 66 0.000000 0.000000 0.000000 0.000000 0.000000 0.000000 207.000000 0.870893 -0.486307 0.071065
-9.92000008 -6.05999994 -1.00999999 237 142 66 0.000000 0.000000 0.000000 0.000000 0.000000 0.000000 207.000000 0.966201 -0.172954 0.191160
-9.89000034 -6.11000013 -1.00999999 237 142 66 0.000000 0.000000 0.000000 0.000000 0.000000 0.000000 207.000000 0.964318 -0.154864 0.214727
-9.94999981 -6.11000013 -0.95999998 237 142 66 0.000000 0.000000 0.000000 0.000000 0.000000 0.000000 207.000000 0.959071 0.064785 0.275654
-9.94999981 -6.11000013 -0.94000000 237 142 66 0.000000 0.000000 0.000000 0.000000 0.000000 0.000000 207.000000 0.936279 -0.117541 -0.331008
-9.89000034 -6.07999992 -1.03999996 237 142 66 0.000000 0.000000 0.000000 0.000000 0.000000 0.000000 207.000000 0.891697 -0.439529 0.108127
-9.93999958 -6.13999987 -1.04999995 237 142 66 0.000000 0.000000 0.000000 0.000000 0.000000 0.000000 207.000000 0.849480 0.511436 0.129680
-9.93999958 -6.13999987 -1.08000004 237 142 66 0.000000 0.000000 0.000000 0.000000 0.000000 0.000000 207.000000 0.986792 0.150646 -0.059558
-9.98999977 -6.11000013 -0.97000003 237 142 66 0.000000 0.000000 0.000000 0.000000 0.000000 0.000000 207.000000 0.965756 -0.259223 -0.010851
-9.97999954 -6.11999989 -0.99000001 237 142 66 0.000000 0.000000 0.000000 0.000000 0.000000 0.000000 207.000000 0.942627 0.230481 -0.241522
-9.98999977 -6.07999992 -1.07000005 237 142 66 0.000000 0.000000 0.000000 0.000000 0.000000 0.000000 207.000000 0.988167 0.056765 -0.142491
-10.01000023 -6.09999990 -1.09000003 237 142 66 0.000000 0.000000 0.000000 0.000000 0.000000 0.000000 207.000000 0.939425 0.137311 -0.314048
-9.98999977 -6.11999989 -1.02999997 237 142 66 0.000000 0.000000 0.000000 0.000000 0.000000 0.000000 207.000000 0.972060 0.218370 -0.086100
-10.01000023 -6.13000011 -1.02999997 237 142 66 0.000000 0.000000 0.000000 0.000000 0.000000 0.000000 207.000000 0.950627 0.276765 0.140388
-9.97999954 -6.11999989 -1.09000003 237 142 66 0.000000 0.000000 0.000000 0.000000 0.000000 0.000000 207.000000 0.991904 0.062635 0.110465
-10.05000019 -6.11999989 -1.08000004 237 142 66 0.000000 0.000000 0.000000 0.000000 0.000000 0.000000 207.000000 0.874399 0.146458 -0.462576
-9.89999962 -6.09999990 -1.25999999 237 142 66 0.000000 0.000000 0.000000 0.000000 0.000000 0.000000 207.000000 0.976937 -0.054341 -0.206497
-9.93000031 -6.11000013 -1.20000005 237 142 66 0.000000 0.000000 0.000000 0.000000 0.000000 0.000000 207.000000 0.903158 0.411548 0.122200
-10.01000023 -6.07999992 -1.17999995 237 142 66 0.000000 0.000000 0.000000 0.000000 0.000000 0.000000 207.000000 0.954965 -0.247089 0.164281
-10.01000023 -6.07999992 -1.27999997 237 142 66 0.000000 0.000000 0.000000 0.000000 0.000000 0.000000 207.000000 0.991841 -0.118749 0.046369
-10.01000023 -6.09999990 -1.25999999 237 142 66 0.000000 0.000000 0.000000 0.000000 0.000000 0.000000 207.000000 0.931917 0.126894 -0.339747
-10.00000000 -6.11000013 -1.27999997 237 142 66 0.000000 0.000000 0.000000 0.000000 0.000000 0.000000 207.000000 0.989640 -0.106075 -0.096749
-10.03999996 -6.09999990 -1.26999998 237 142 66 0.000000 0.000000 0.000000 0.000000 0.000000 0.000000 207.000000 0.981417 -0.138107 0.133218
-10.02000046 -6.09999990 -1.25999999 237 142 66 0.000000 0.000000 0.000000 0.000000 0.000000 0.000000 207.000000 0.970121 -0.027856 0.241016
-10.13000011 -6.13999987 -1.25000000 237 142 66 0.000000 0.000000 0.000000 0.000000 0.000000 0.000000 207.000000 0.869823 0.456325 -0.187551
-9.89999962 -6.11999989 -1.28999996 237 142 66 0.000000 0.000000 0.000000 0.000000 0.000000 0.000000 207.000000 0.923356 0.320116 0.211988
-9.89000034 -6.13000011 -1.37000000 237 142 66 0.000000 0.000000 0.000000 0.000000 0.000000 0.000000 207.000000 0.997824 -0.030751 0.058321
-9.89000034 -6.13000011 -1.37000000 237 142 66 0.000000 0.000000 0.000000 0.000000 0.000000 0.000000 207.000000 0.997824 -0.030751 0.058321
-9.94999981 -6.09000015 -1.39999998 237 142 66 0.000000 0.000000 0.000000 0.000000 0.000000 0.000000 207.000000 0.886710 0.064613 -0.457790
-9.94999981 -6.11000013 -1.41999996 237 142 66 0.000000 0.000000 0.000000 0.000000 0.000000 0.000000 207.000000 0.987156 -0.010177 0.159438
-9.94999981 -6.11999989 -1.41999996 237 142 66 0.000000 0.000000 0.000000 0.000000 0.000000 0.000000 207.000000 0.955647 -0.021071 0.293759
-9.94999981 -6.13000011 -1.41999996 237 142 66 0.000000 0.000000 0.000000 0.000000 0.000000 0.000000 207.000000 0.961120 0.241258 0.134322
-10.01000023 -6.07000017 -1.28999996 237 142 66 0.000000 0.000000 0.000000 0.000000 0.000000 0.000000 207.000000 0.968370 -0.244861 -0.047988
-10.00000000 -6.09000015 -1.34000003 237 142 66 0.000000 0.000000 0.000000 0.000000 0.000000 0.000000 207.000000 0.896606 -0.432317 0.095916
-9.98999977 -6.07999992 -1.40999997 237 142 66 0.000000 0.000000 0.000000 0.000000 0.000000 0.000000 207.000000 0.990130 0.107951 0.089379
-9.97999954 -6.09999990 -1.38999999 237 142 66 0.000000 0.000000 0.000000 0.000000 0.000000 0.000000 207.000000 0.968367 -0.089407 0.232962
-9.96000004 -6.13000011 -1.50999999 237 142 66 0.000000 0.000000 0.000000 0.000000 0.000000 0.000000 207.000000 0.997896 0.047925 0.043665
-9.93999958 -6.13999987 -1.46000004 237 142 66 0.000000 0.000000 0.000000 0.000000 0.000000 0.000000 207.000000 0.966505 -0.092470 -0.239410
-10.06999969 -6.09000015 -1.35000002 237 142 66 0.000000 0.000000 0.000000 0.000000 0.000000 0.000000 207.000000 0.954965 0.247089 0.164281
-10.07999992 -6.09999990 -1.39999998 237 142 66 0.000000 0.000000 0.000000 0.000000 0.000000 0.000000 207.000000 0.994050 -0.057026 0.092808
-10.06999969 -6.09999990 -1.42999995 237 142 66 0.000000 0.000000 0.000000 0.000000 0.000000 0.000000 207.000000 0.969361 0.241421 -0.045343
-10.06999969 -6.11999989 -1.39999998 237 142 66 0.000000 0.000000 0.000000 0.000000 0.000000 0.000000 207.000000 0.999298 0.001012 0.037461
-10.06000042 -6.11000013 -1.41999996 237 142 66 0.000000 0.000000 0.000000 0.000000 0.000000 0.000000 207.000000 0.964982 0.226067 0.133056
-10.10000038 -6.07000017 -1.38999999 237 142 66 0.000000 0.000000 0.000000 0.000000 0.000000 0.000000 207.000000 0.986576 -0.066867 0.148984
-9.71000004 -6.19999981 -0.64999998 237 142 66 0.000000 0.000000 0.000000 0.000000 0.000000 0.000000 207.000000 0.061179 0.989260 0.132748
-9.72999954 -6.19999981 -0.69000000 237 142 66 0.000000 0.000000 0.000000 0.000000 0.000000 0.000000 207.000000 0.276948 0.927419 -0.251383
-9.78999996 -6.19999981 -0.72000003 237 142 66 0.000000 0.000000 0.000000 0.000000 0.000000 0.000000 207.000000 0.379559 0.925095 -0.011580
-9.73999977 -6.26999998 -0.68000001 237 142 66 0.000000 0.000000 0.000000 0.000000 0.000000 0.000000 207.000000 0.064443 0.935084 -0.348519
-9.78999996 -6.23000002 -0.66000003 237 142 66 0.000000 0.000000 0.000000 0.000000 0.000000 0.000000 207.000000 0.492817 0.864915 0.095155
-9.80000019 -6.25000000 -0.60000002 237 142 66 0.000000 0.000000 0.000000 0.000000 0.000000 0.000000 207.000000 0.594062 0.802901 -0.049388
-9.80000019 -6.26000023 -0.63000000 237 142 66 0.000000 0.000000 0.000000 0.000000 0.000000 0.000000 207.000000 0.429687 0.863929 0.262671
-9.81000042 -6.25000000 -0.62000000 237 142 66 0.000000 0.000000 0.000000 0.000000 0.000000 0.000000 207.000000 0.795508 0.605905 -0.006870
-9.81999969 -6.25000000 -0.67000002 237 142 66 0.000000 0.000000 0.000000 0.000000 0.000000 0.000000 207.000000 0.339018 0.891602 -0.300188
-9.80000019 -6.25000000 -0.63999999 237 142 66 0.000000 0.000000 0.000000 0.000000 0.000000 0.000000 207.000000 0.792405 0.558887 -0.244416
-9.80000019 -6.30000019 -0.63999999 237 142 66 0.000000 0.000000 0.000000 0.000000 0.000000 0.000000 207.000000 0.574394 0.796839 -0.187402
-9.86999989 -6.23999977 -0.68000001 237 142 66 0.000000 0.000000 0.000000 0.000000 0.000000 0.000000 207.000000 0.704328 0.709863 0.004151
-9.86999989 -6.23999977 -0.68000001 237 142 66 0.000000 0.000000 0.000000 0.000000 0.000000 0.000000 207.000000 0.704328 0.709863 0.004151
-9.81999969 -6.26000023 -0.69999999 237 142 66 0.000000 0.000000 0.000000 0.000000 0.000000 0.000000 207.000000 0.412147 0.884861 -0.217153
-9.88000011 -6.25000000 -0.70999998 237 142 66 0.000000 0.000000 0.000000 0.000000 0.000000 0.000000 207.000000 0.654939 0.744452 -0.129794
-9.88000011 -6.25000000 -0.70999998 237 142 66 0.000000 0.000000 0.000000 0.000000 0.000000 0.000000 207.000000 0.654939 0.744452 -0.129794
-9.86999989 -6.23999977 -0.69999999 237 142 66 0.000000 0.000000 0.000000 0.000000 0.000000 0.000000 207.000000 0.677537 0.671099 -0.300949
-9.86999989 -6.25000000 -0.73000002 237 142 66 0.000000 0.000000 0.000000 0.000000 0.000000 0.000000 207.000000 0.697383 0.605058 -0.384138
-9.86999989 -6.26000023 -0.74000001 237 142 66 0.000000 0.000000 0.000000 0.000000 0.000000 0.000000 207.000000 0.524484 0.850027 -0.048692
-9.88000011 -6.25000000 -0.73000002 237 142 66 0.000000 0.000000 0.000000 0.000000 0.000000 0.000000 207.000000 0.833818 0.546882 0.075285
-9.73999977 -6.19000006 -0.77999997 237 142 66 0.000000 0.000000 0.000000 0.000000 0.000000 0.000000 207.000000 0.462561 0.846748 -0.262784
-9.78999996 -6.19999981 -0.82999998 237 142 66 0.000000 0.000000 0.000000 0.000000 0.000000 0.000000 207.000000 0.666539 0.716257 0.206643
-9.77999973 -6.21000004 -0.83999997 237 142 66 0.000000 0.000000 0.000000 0.000000 0.000000 0.000000 207.000000 0.604567 0.758457 -0.243397
-9.73999977 -6.21000004 -0.88000000 237 142 66 0.000000 0.000000 0.000000 0.000000 0.000000 0.000000 207.000000 0.463791 0.863457 0.198342
-9.75000000 -6.23999977 -0.77999997 237 142 66 0.000000 0.000000 0.000000 0.000000 0.000000 0.000000 207.000000 0.290628 0.892751 -0.344283
-9.76000023 -6.23000002 -0.77999997 237 142 66 0.000000 0.000000 0.000000 0.000000 0.000000 0.000000 207.000000 0.576932 0.798013 -0.174140
-9.75000000 -6.23000002 -0.76999998 237 142 66 0.000000 0.000000 0.000000 0.000000 0.000000 0.000000 207.000000 0.391665 0.875575 -0.282785
-9.81999969 -6.17999983 -0.91000003 237 142 66 0.000000 0.000000 0.000000 0.000000 0.000000 0.000000 207.000000 0.490795 0.869605 -0.053918
-9.81000042 -6.17999983 -0.92000002 237 142 66 0.000000 0.000000 0.000000 0.000000 0.000000 0.000000 207.000000 0.697613 0.714733 0.049931
-9.85999966 -6.26999998 -0.79000002 237 142 66 0.000000 0.000000 0.000000 0.000000 0.000000 0.000000 207.000000 0.349034 0.930306 -0.112723
-9.85999966 -6.26000023 -0.79000002 237 142 66 0.000000 0.000000 0.000000 0.000000 0.000000 0.000000 207.000000 0.306028 0.951100 0.041904
-9.88000011 -6.26999998 -0.81999999 237 142 66 0.000000 0.000000 0.000000 0.000000 0.000000 0.000000 207.000000 0.377005 0.889612 -0.257794
-9.80000019 -6.23000002 -0.91000003 237 142 66 0.000000 0.000000 0.000000 0.000000 0.000000 0.000000 207.000000 0.606766 0.765053 -0.215705
-9.90999985 -6.21000004 -0.62000000 237 142 66 0.000000 0.000000 0.000000 0.000000 0.000000 0.000000 207.000000 0.930003 0.177077 -0.322085
-9.93999958 -6.19000006 -0.61000001 237 142 66 0.000000 0.000000 0.000000 0.000000 0.000000 0.000000 207.000000 0.826226 0.535323 0.175442
-9.93999958 -6.19000006 -0.61000001 237 142 66 0.000000 0.000000 0.000000 0.000000 0.000000 0.000000 207.000000 0.826226 0.535323 0.175442
-9.97999954 -6.21000004 -0.74000001 237 142 66 0.000000 0.000000 0.000000 0.000000 0.000000 0.000000 207.000000 0.815784 0.513179 0.266728
-9.89999962 -6.26000023 -0.81999999 237 142 66 0.000000 0.000000 0.000000 0.000000 0.000000 0.000000 207.000000 0.713178 0.642977 -0.279208
-9.98999977 -6.19000006 -0.76999998 237 142 66 0.000000 0.000000 0.000000 0.000000 0.000000 0.000000 207.000000 0.952732 0.111700 0.282534
-9.76000023 -6.17000008 -0.94000000 237 142 66 0.000000 0.000000 0.000000 0.000000 0.000000 0.000000 207.000000 0.415686 0.807298 -0.418896
-9.81999969 -6.15000010 -1.10000002 237 142 66 0.000000 0.000000 0.000000 0.000000 0.000000 0.000000 207.000000 0.813124 0.536447 0.225953
-9.80000019 -6.19999981 -1.08000004 237 142 66 0.000000 0.000000 0.000000 0.000000 0.000000 0.000000 207.000000 0.286789 0.953800 0.089540
-9.82999992 -6.25000000 -1.01999998 237 142 66 0.000000 0.000000 0.000000 0.000000 0.000000 0.000000 207.000000 0.597034 0.786521 -0.157906
-9.84000015 -6.17999983 -1.26999998 237 142 66 0.000000 0.000000 0.000000 0.000000 0.000000 0.000000 207.000000 0.651686 0.711939 0.261626
-9.86999989 -6.19999981 -1.23000002 237 142 66 0.000000 0.000000 0.000000 0.000000 0.000000 0.000000 207.000000 0.708102 0.616944 0.343470
-9.81999969 -6.23000002 -1.13999999 237 142 66 0.000000 0.000000 0.000000 0.000000 0.000000 0.000000 207.000000 0.812739 0.576829 -0.081993
-9.86999989 -6.28999996 -1.23000002 237 142 66 0.000000 0.000000 0.000000 0.000000 0.000000 0.000000 207.000000 0.587434 0.809262 0.004108
-9.88000011 -6.30000019 -1.25999999 237 142 66 0.000000 0.000000 0.000000 0.000000 0.000000 0.000000 207.000000 0.461080 0.884998 0.064689
-9.92000008 -6.26000023 -1.01999998 237 142 66 0.000000 0.000000 0.000000 0.000000 0.000000 0.000000 207.000000 0.876858 0.480598 -0.012048
-9.90999985 -6.26000023 -1.00000000 237 142 66 0.000000 0.000000 0.000000 0.000000 0.000000 0.000000 207.000000 0.498112 0.777185 -0.384536
-9.98999977 -6.23999977 -1.01999998 237 142 66 0.000000 0.000000 0.000000 0.000000 0.000000 0.000000 207.000000 0.931324 0.363537 0.021838
-9.89000034 -6.21999979 -1.20000005 237 142 66 0.000000 0.000000 0.000000 0.000000 0.000000 0.000000 207.000000 0.564691 0.707106 -0.425588
-9.92000008 -6.25000000 -1.25000000 237 142 66 0.000000 0.000000 0.000000 0.000000 0.000000 0.000000 207.000000 0.904368 0.426589 0.011813
-9.89000034 -6.28000021 -1.23000002 237 142 66 0.000000 0.000000 0.000000 0.000000 0.000000 0.000000 207.000000 0.826712 0.526365 -0.198714
-10.06000042 -6.15999985 -1.14999998 237 142 66 0.000000 0.000000 0.000000 0.000000 0.000000 0.000000 207.000000 0.934613 0.097886 0.341932
-9.78999996 -6.26999998 -1.38000000 237 142 66 0.000000 0.000000 0.000000 0.000000 0.000000 0.000000 207.000000 0.100423 0.967368 0.232626
-9.85999966 -6.17000008 -1.28999996 237 142 66 0.000000 0.000000 0.000000 0.000000 0.000000 0.000000 207.000000 0.901945 0.386548 0.192550
-9.85999966 -6.17000008 -1.28999996 237 142 66 0.000000 0.000000 0.000000 0.000000 0.000000 0.000000 207.000000 0.901945 0.386548 0.192550
-9.84000015 -6.21000004 -1.38999999 237 142 66 0.000000 0.000000 0.000000 0.000000 0.000000 0.000000 207.000000 0.620679 0.714672 -0.322494
-9.88000011 -6.15999985 -1.42999995 237 142 66 0.000000 0.000000 0.000000 0.000000 0.000000 0.000000 207.000000 0.879500 0.461773 0.115088
-9.85999966 -6.19999981 -1.40999997 237 142 66 0.000000 0.000000 0.000000 0.000000 0.000000 0.000000 207.000000 0.792256 0.603277 0.091582
-9.86999989 -6.19999981 -1.40999997 237 142 66 0.000000 0.000000 0.000000 0.000000 0.000000 0.000000 207.000000 0.573325 0.798397 -0.184012
-9.82999992 -6.26000023 -1.30999994 237 142 66 0.000000 0.000000 0.000000 0.000000 0.000000 0.000000 207.000000 0.370545 0.865631 0.336720
-9.85000038 -6.26000023 -1.32000005 237 142 66 0.000000 0.000000 0.000000 0.000000 0.000000 0.000000 207.000000 0.450131 0.849565 0.274995
-9.86999989 -6.25000000 -1.35000002 237 142 66 0.000000 0.000000 0.000000 0.000000 0.000000 0.000000 207.000000 0.814716 0.577502 -0.052243
-9.86999989 -6.25000000 -1.35000002 237 142 66 0.000000 0.000000 0.000000 0.000000 0.000000 0.000000 207.000000 0.814716 0.577502 -0.052243
-9.82999992 -6.26999998 -1.37000000 237 142 66 0.000000 0.000000 0.000000 0.000000 0.000000 0.000000 207.000000 0.143333 0.981279 -0.128632
-9.81000042 -6.26999998 -1.37000000 237 142 66 0.000000 0.000000 0.000000 0.000000 0.000000 0.000000 207.000000 0.261221 0.964414 -0.040855
-9.88000011 -6.26999998 -1.40999997 237 142 66 0.000000 0.000000 0.000000 0.000000 0.000000 0.000000 207.000000 0.558761 0.822902 0.103044
-9.89999962 -6.19000006 -1.38000000 237 142 66 0.000000 0.000000 0.000000 0.000000 0.000000 0.000000 207.000000 0.878039 0.477577 -0.031117
-9.89000034 -6.21000004 -1.37000000 237 142 66 0.000000 0.000000 0.000000 0.000000 0.000000 0.000000 207.000000 0.600167 0.765408 -0.232272
-9.89999962 -6.21000004 -1.38999999 237 142 66 0.000000 0.000000 0.000000 0.000000 0.000000 0.000000 207.000000 0.809053 0.582000 -0.081911
-9.89000034 -6.26000023 -1.28999996 237 142 66 0.000000 0.000000 0.000000 0.000000 0.000000 0.000000 207.000000 0.388799 0.856597 -0.339231
-9.89000034 -6.26999998 -1.38999999 237 142 66 0.000000 0.000000 0.000000 0.000000 0.000000 0.000000 207.000000 0.757752 0.652470 -0.009697
-9.89999962 -6.25000000 -1.38000000 237 142 66 0.000000 0.000000 0.000000 0.000000 0.000000 0.000000 207.000000 0.512925 0.852002 0.104884
-9.89000034 -6.26999998 -1.39999998 237 142 66 0.000000 0.000000 0.000000 0.000000 0.000000 0.000000 207.000000 0.679544 0.689048 -0.251859
-9.96000004 -6.26000023 -1.38000000 237 142 66 0.000000 0.000000 0.000000 0.000000 0.000000 0.000000 207.000000 0.589520 0.805441 0.061083
-10.18999958 -6.21999979 -1.46000004 237 142 66 0.000000 0.000000 0.000000 0.000000 0.000000 0.000000 207.000000 0.944977 0.088303 0.314992
-9.60999966 -6.05000019 0.10000000 237 142 66 0.000000 0.000000 0.000000 0.000000 0.000000 0.000000 207.000000 0.923643 0.347938 0.160694
-9.68000031 -6.11999989 0.13000000 237 142 66 0.000000 0.000000 0.000000 0.000000 0.000000 0.000000 207.000000 0.237929 0.906467 -0.348866
-9.64999962 -6.09000015 0.13000000 237 142 66 0.000000 0.000000 0.000000 0.000000 0.000000 0.000000 207.000000 0.332981 0.884434 -0.326954
-9.67000008 -6.07000017 0.11000000 237 142 66 0.000000 0.000000 0.000000 0.000000 0.000000 0.000000 207.000000 0.756671 0.594867 0.271259
-9.47000027 -6.09999990 0.06000000 237 142 66 0.000000 0.000000 0.000000 0.000000 0.000000 0.000000 207.000000 0.842001 -0.465032 -0.273457
-9.52999973 -6.07999992 0.04000000 237 142 66 0.000000 0.000000 0.000000 0.000000 0.000000 0.000000 207.000000 -0.862436 0.445567 0.240153
-9.48999977 -6.11999989 -0.02000000 237 142 66 0.000000 0.000000 0.000000 0.000000 0.000000 0.000000 207.000000 0.848958 -0.519682 -0.095919
-9.52999973 -6.13000011 -0.09000000 237 142 66 0.000000 0.000000 0.000000 0.000000 0.000000 0.000000 207.000000 0.903721 -0.427382 0.025140
-9.55000019 -6.05999994 0.08000000 237 142 66 0.000000 0.000000 0.000000 0.000000 0.000000 0.000000 207.000000 0.950555 -0.285034 -0.123294
-9.60999966 -6.09000015 0.09000000 237 142 66 0.000000 0.000000 0.000000 0.000000 0.000000 0.000000 207.000000 -0.401035 0.873198 -0.276941
-9.61999989 -6.07999992 -0.06000000 237 142 66 0.000000 0.000000 0.000000 0.000000 0.000000 0.000000 207.000000 0.897244 -0.441376 -0.011858
-9.64000034 -6.07999992 0.01000000 237 142 66 0.000000 0.000000 0.000000 0.000000 0.000000 0.000000 207.000000 -0.089625 0.994730 0.049792
-9.64999962 -6.07000017 -0.04000000 237 142 66 0.000000 0.000000 0.000000 0.000000 0.000000 0.000000 207.000000 0.223822 0.955600 0.191656
-9.61999989 -6.07999992 -0.16000000 237 142 66 0.000000 0.000000 0.000000 0.000000 0.000000 0.000000 207.000000 0.960415 -0.253425 0.115666
-9.59000015 -6.09999990 -0.20000000 237 142 66 0.000000 0.000000 0.000000 0.000000 0.000000 0.000000 207.000000 0.956285 -0.124962 -0.264392
-9.59000015 -6.09999990 -0.20000000 237 142 66 0.000000 0.000000 0.000000 0.000000 0.000000 0.000000 207.000000 0.956285 -0.124962 -0.264392
-9.60999966 -6.09000015 -0.20999999 237 142 66 0.000000 0.000000 0.000000 0.000000 0.000000 0.000000 207.000000 0.993889 -0.109948 -0.009797
-9.59000015 -6.11000013 -0.17000000 237 142 66 0.000000 0.000000 0.000000 0.000000 0.000000 0.000000 207.000000 0.892859 -0.410861 -0.184379
-9.63000011 -6.13000011 -0.38000000 237 142 66 0.000000 0.000000 0.000000 0.000000 0.000000 0.000000 207.000000 -0.319933 0.947253 0.018820
-9.64000034 -6.13999987 -0.40000001 237 142 66 0.000000 0.000000 0.000000 0.000000 0.000000 0.000000 207.000000 -0.435468 0.854009 -0.284670
-9.69999981 -6.11000013 -0.49000001 237 142 66 0.000000 0.000000 0.000000 0.000000 0.000000 0.000000 207.000000 0.694928 0.688710 0.206768
-9.72000027 -6.13000011 0.07000000 237 142 66 0.000000 0.000000 0.000000 0.000000 0.000000 0.000000 207.000000 0.710201 0.626077 0.321936
-9.72999954 -6.13000011 0.08000000 237 142 66 0.000000 0.000000 0.000000 0.000000 0.000000 0.000000 207.000000 0.838714 0.490395 0.236795
-9.80000019 -6.13000011 -0.28000000 237 142 66 0.000000 0.000000 0.000000 0.000000 0.000000 0.000000 207.000000 0.861665 0.507260 -0.014880
-9.72999954 -6.05999994 -0.54000002 237 142 66 0.000000 0.000000 0.000000 0.000000 0.000000 0.000000 207.000000 0.988754 0.071041 -0.131601
-9.88000011 -6.11999989 -0.44999999 237 142 66 0.000000 0.000000 0.000000 0.000000 0.000000 0.000000 207.000000 0.982006 0.022133 0.187548
-9.88000011 -6.11999989 -0.44000000 237 142 66 0.000000 0.000000 0.000000 0.000000 0.000000 0.000000 207.000000 0.985961 -0.166785 -0.007942
-9.85000038 -6.13999987 -0.47000000 237 142 66 0.000000 0.000000 0.000000 0.000000 0.000000 0.000000 207.000000 0.778085 0.605177 0.168358
-9.52999973 -6.21999979 0.13000000 237 142 66 0.000000 0.000000 0.000000 0.000000 0.000000 0.000000 207.000000 -0.349797 0.923966 0.154691
-9.47999954 -6.17999983 0.12000000 237 142 66 0.000000 0.000000 0.000000 0.000000 0.000000 0.000000 207.000000 0.743217 -0.648985 0.162626
-9.48999977 -6.19000006 0.10000000 237 142 66 0.000000 0.000000 0.000000 0.000000 0.000000 0.000000 207.000000 0.814392 -0.542419 -0.206272
-9.50000000 -6.19000006 0.11000000 237 142 66 0.000000 0.000000 0.000000 0.000000 0.000000 0.000000 207.000000 0.794884 -0.593573 -0.125820
-9.61999989 -6.23999977 0.11000000 237 142 66 0.000000 0.000000 0.000000 0.000000 0.000000 0.000000 207.000000 -0.143970 0.933747 -0.327703
-9.63000011 -6.21000004 0.11000000 237 142 66 0.000000 0.000000 0.000000 0.000000 0.000000 0.000000 207.000000 0.177412 0.981195 0.076034
-9.56000042 -6.23999977 0.11000000 237 142 66 0.000000 0.000000 0.000000 0.000000 0.000000 0.000000 207.000000 -0.052319 0.974592 0.217793
-9.68999958 -6.19000006 0.13000000 237 142 66 0.000000 0.000000 0.000000 0.000000 0.000000 0.000000 207.000000 0.251950 0.900241 -0.355087
-9.71000004 -6.17999983 0.12000000 237 142 66 0.000000 0.000000 0.000000 0.000000 0.000000 0.000000 207.000000 0.611504 0.774572 0.161558
-9.65999985 -6.19999981 0.10000000 237 142 66 0.000000 0.000000 0.000000 0.000000 0.000000 0.000000 207.000000 -0.025263 0.900174 -0.434796
-9.60000038 -6.23000002 0.11000000 237 142 66 0.000000 0.000000 0.000000 0.000000 0.000000 0.000000 207.000000 -0.331140 0.850393 -0.408873
-9.51000023 -6.19999981 0.08000000 237 142 66 0.000000 0.000000 0.000000 0.000000 0.000000 0.000000 207.000000 -0.705130 0.702185 0.098630
-9.53999996 -6.21999979 0.07000000 237 142 66 0.000000 0.000000 0.000000 0.000000 0.000000 0.000000 207.000000 -0.335986 0.884410 0.323932
-9.52999973 -6.21999979 0.08000000 237 142 66 0.000000 0.000000 0.000000 0.000000 0.000000 0.000000 207.000000 0.591673 -0.777054 -0.214733
-9.51000023 -6.19000006 0.06000000 237 142 66 0.000000 0.000000 0.000000 0.000000 0.000000 0.000000 207.000000 0.737692 -0.613416 0.282012
-9.50000000 -6.17000008 -0.05000000 237 142 66 0.000000 0.000000 0.000000 0.000000 0.000000 0.000000 207.000000 0.827805 -0.449380 0.335852
-9.53999996 -6.19999981 -0.05000000 237 142 66 0.000000 0.000000 0.000000 0.000000 0.000000 0.000000 207.000000 -0.500217 0.816969 -0.286958
-9.52999973 -6.17999983 -0.12000000 237 142 66 0.000000 0.000000 0.000000 0.000000 0.000000 0.000000 207.000000 -0.664997 0.723357 -0.185831
-9.61999989 -6.21999979 0.02000000 237 142 66 0.000000 0.000000 0.000000 0.000000 0.000000 0.000000 207.000000 -0.199217 0.979580 0.027112
-9.60999966 -6.21999979 0.03000000 237 142 66 0.000000 0.000000 0.000000 0.000000 0.000000 0.000000 207.000000 -0.128013 0.954159 0.270543
-9.56999969 -6.21999979 0.06000000 237 142 66 0.000000 0.000000 0.000000 0.000000 0.000000 0.000000 207.000000 -0.567150 0.818255 -0.093803
-9.57999992 -6.23000002 0.07000000 237 142 66 0.000000 0.000000 0.000000 0.000000 0.000000 0.000000 207.000000 -0.318903 0.881140 -0.349131
-9.61999989 -6.23000002 0.04000000 237 142 66 0.000000 0.000000 0.000000 0.000000 0.000000 0.000000 207.000000 -0.054726 0.998497 0.003098
-9.61999989 -6.23000002 0.05000000 237 142 66 0.000000 0.000000 0.000000 0.000000 0.000000 0.000000 207.000000 0.057605 0.996676 0.057605
-9.59000015 -6.23000002 0.08000000 237 142 66 0.000000 0.000000 0.000000 0.000000 0.000000 0.000000 207.000000 -0.351638 0.919342 -0.176525
-9.69999981 -6.21000004 0.07000000 237 142 66 0.000000 0.000000 0.000000 0.000000 0.000000 0.000000 207.000000 0.346977 0.936182 -0.056302
-9.68000031 -6.21000004 0.06000000 237 142 66 0.000000 0.000000 0.000000 0.000000 0.000000 0.000000 207.000000 0.367286 0.914671 0.168753
-9.71000004 -6.19999981 0.06000000 237 142 66 0.000000 0.000000 0.000000 0.000000 0.000000 0.000000 207.000000 0.524479 0.797017 0.299476
-9.65999985 -6.21999979 0.04000000 237 142 66 0.000000 0.000000 0.000000 0.000000 0.000000 0.000000 207.000000 0.190700 0.979888 0.058769
-9.68000031 -6.21000004 0.01000000 237 142 66 0.000000 0.000000 0.000000 0.000000 0.000000 0.000000 207.000000 0.526971 0.830241 0.181662
-9.63000011 -6.23000002 0.05000000 237 142 66 0.000000 0.000000 0.000000 0.000000 0.000000 0.000000 207.000000 -0.271332 0.948986 -0.160639
-9.63000011 -6.23999977 0.02000000 237 142 66 0.000000 0.000000 0.000000 0.000000 0.000000 0.000000 207.000000 -0.470445 0.877696 0.091280
-9.67000008 -6.23000002 0.03000000 237 142 66 0.000000 0.000000 0.000000 0.000000 0.000000 0.000000 207.000000 0.300201 0.953359 -0.031402
-9.67000008 -6.23000002 -0.04000000 237 142 66 0.000000 0.000000 0.000000 0.000000 0.000000 0.000000 207.000000 -0.111293 0.965822 -0.234100
-9.63000011 -6.23000002 -0.04000000 237 142 66 0.000000 0.000000 0.000000 0.000000 0.000000 0.000000 207.000000 -0.147597 0.981945 0.118321
-9.69999981 -6.23000002 -0.04000000 237 142 66 0.000000 0.000000 0.000000 0.000000 0.000000 0.000000 207.000000 0.498492 0.845790 0.190116
-9.67000008 -6.23000002 -0.06000000 237 142 66 0.000000 0.000000 0.000000 0.000000 0.000000 0.000000 207.000000 0.113259 0.985948 0.122796
-9.67000008 -6.23000002 -0.01000000 237 142 66 0.000000 0.000000 0.000000 0.000000 0.000000 0.000000 207.000000 -0.119537 0.984068 -0.131612
-9.55000019 -6.19999981 -0.11000000 237 142 66 0.000000 0.000000 0.000000 0.000000 0.000000 0.000000 207.000000 0.665018 -0.671522 0.326818
-9.56999969 -6.17000008 -0.19000000 237 142 66 0.000000 0.000000 0.000000 0.000000 0.000000 0.000000 207.000000 -0.623026 0.737168 0.261576
-9.60000038 -6.17999983 -0.31999999 237 142 66 0.000000 0.000000 0.000000 0.000000 0.000000 0.000000 207.000000 0.824976 -0.565033 0.012313
-9.65999985 -6.15999985 -0.41999999 237 142 66 0.000000 0.000000 0.000000 0.000000 0.000000 0.000000 207.000000 0.006465 0.916701 -0.399521
-9.69999981 -6.15000010 -0.57999998 237 142 66 0.000000 0.000000 0.000000 0.000000 0.000000 0.000000 207.000000 0.556696 0.830209 -0.029009
-9.69999981 -6.15000010 -0.57999998 237 142 66 0.000000 0.000000 0.000000 0.000000 0.000000 0.000000 207.000000 0.556696 0.830209 -0.029009
-9.72999954 -6.19000006 -0.01000000 237 142 66 0.000000 0.000000 0.000000 0.000000 0.000000 0.000000 207.000000 0.764692 0.643581 0.032390
-9.73999977 -6.19000006 0.07000000 237 142 66 0.000000 0.000000 0.000000 0.000000 0.000000 0.000000 207.000000 0.407764 0.911077 0.060559
-9.73999977 -6.21999979 -0.16000000 237 142 66 0.000000 0.000000 0.000000 0.000000 0.000000 0.000000 207.000000 0.196843 0.979441 -0.044140
-9.76000023 -6.21000004 -0.16000000 237 142 66 0.000000 0.000000 0.000000 0.000000 0.000000 0.000000 207.000000 0.453797 0.889983 -0.044702
-9.76000023 -6.19000006 -0.09000000 237 142 66 0.000000 0.000000 0.000000 0.000000 0.000000 0.000000 207.000000 0.702421 0.708215 0.070966
-9.77000046 -6.17999983 -0.13000000 237 142 66 0.000000 0.000000 0.000000 0.000000 0.000000 0.000000 207.000000 0.411111 0.869249 -0.274580
-9.75000000 -6.21999979 -0.14000000 237 142 66 0.000000 0.000000 0.000000 0.000000 0.000000 0.000000 207.000000 0.167305 0.954305 -0.247611
-9.76000023 -6.21000004 -0.18000001 237 142 66 0.000000 0.000000 0.000000 0.000000 0.000000 0.000000 207.000000 0.638260 0.767346 0.061675
-9.72000027 -6.23000002 -0.11000000 237 142 66 0.000000 0.000000 0.000000 0.000000 0.000000 0.000000 207.000000 0.401026 0.891657 0.210061
-9.75000000 -6.23999977 -0.25000000 237 142 66 0.000000 0.000000 0.000000 0.000000 0.000000 0.000000 207.000000 0.400653 0.898214 0.180800
-9.77999973 -6.21999979 -0.27000001 237 142 66 0.000000 0.000000 0.000000 0.000000 0.000000 0.000000 207.000000 0.432405 0.900955 -0.036145
-9.76000023 -6.23000002 -0.31000000 237 142 66 0.000000 0.000000 0.000000 0.000000 0.000000 0.000000 207.000000 0.193033 0.962540 0.190407
-9.81000042 -6.21000004 -0.30000001 237 142 66 0.000000 0.000000 0.000000 0.000000 0.000000 0.000000 207.000000 0.527460 0.844794 0.090054
-9.81999969 -6.19999981 -0.30000001 237 142 66 0.000000 0.000000 0.000000 0.000000 0.000000 0.000000 207.000000 0.683325 0.728785 0.044040
-9.88000011 -6.15999985 -0.31999999 237 142 66 0.000000 0.000000 0.000000 0.000000 0.000000 0.000000 207.000000 0.712579 0.701424 0.015339
-9.81999969 -6.21000004 -0.34999999 237 142 66 0.000000 0.000000 0.000000 0.000000 0.000000 0.000000 207.000000 0.432915 0.901357 0.011843
-9.88000011 -6.17999983 -0.40000001 237 142 66 0.000000 0.000000 0.000000 0.000000 0.000000 0.000000 207.000000 0.617058 0.764049 -0.188333
-9.85000038 -6.19000006 -0.34000000 237 142 66 0.000000 0.000000 0.000000 0.000000 0.000000 0.000000 207.000000 0.828093 0.478766 0.291626
-9.78999996 -6.28000021 -0.49000001 237 142 66 0.000000 0.000000 0.000000 0.000000 0.000000 0.000000 207.000000 0.309752 0.905769 0.289200
-9.80000019 -6.26000023 -0.47999999 237 142 66 0.000000 0.000000 0.000000 0.000000 0.000000 0.000000 207.000000 0.693488 0.624631 -0.359040
-9.84000015 -6.23000002 -0.46000001 237 142 66 0.000000 0.000000 0.000000 0.000000 0.000000 0.000000 207.000000 0.639367 0.760449 0.113698
-9.80000019 -6.26999998 -0.50999999 237 142 66 0.000000 0.000000 0.000000 0.000000 0.000000 0.000000 207.000000 0.369423 0.911434 0.181146
-9.84000015 -6.28000021 -0.52999997 237 142 66 0.000000 0.000000 0.000000 0.000000 0.000000 0.000000 207.000000 0.740739 0.645655 -0.185568
-9.90999985 -6.17000008 -0.44000000 237 142 66 0.000000 0.000000 0.000000 0.000000 0.000000 0.000000 207.000000 0.711792 0.694034 -0.108027
-9.72000027 -6.11999989 -0.66000003 237 142 66 0.000000 0.000000 0.000000 0.000000 0.000000 0.000000 207.000000 0.663897 0.746351 -0.046913
-9.77999973 -6.07999992 -0.70999998 237 142 66 0.000000 0.000000 0.000000 0.000000 0.000000 0.000000 207.000000 0.991552 -0.021144 -0.127978
-9.78999996 -6.07999992 -0.75000000 237 142 66 0.000000 0.000000 0.000000 0.000000 0.000000 0.000000 207.000000 0.950480 -0.212875 -0.226434
-9.77000046 -6.11999989 -0.73000002 237 142 66 0.000000 0.000000 0.000000 0.000000 0.000000 0.000000 207.000000 0.633936 0.772301 0.040945
-9.77999973 -6.07999992 -0.81999999 237 142 66 0.000000 0.000000 0.000000 0.000000 0.000000 0.000000 207.000000 0.974467 0.108830 -0.196394
-9.86999989 -6.05000019 -0.89999998 237 142 66 0.000000 0.000000 0.000000 0.000000 0.000000 0.000000 207.000000 0.802483 -0.560974 -0.203296
-9.84000015 -6.09000015 -0.81000000 237 142 66 0.000000 0.000000 0.000000 0.000000 0.000000 0.000000 207.000000 0.985589 0.125439 0.113492
-9.84000015 -6.09999990 -0.81000000 237 142 66 0.000000 0.000000 0.000000 0.000000 0.000000 0.000000 207.000000 0.895015 0.432801 0.107850
-9.93000031 -6.13000011 -0.66000003 237 142 66 0.000000 0.000000 0.000000 0.000000 0.000000 0.000000 207.000000 0.982957 -0.183805 0.003425
-9.93999958 -6.11999989 -0.64999998 237 142 66 0.000000 0.000000 0.000000 0.000000 0.000000 0.000000 207.000000 0.850580 0.520504 0.074761
-9.98999977 -6.13999987 -0.89999998 237 142 66 0.000000 0.000000 0.000000 0.000000 0.000000 0.000000 207.000000 0.977871 -0.027262 0.207427
-9.82999992 -6.11999989 -1.05999994 237 142 66 0.000000 0.000000 0.000000 0.000000 0.000000 0.000000 207.000000 0.985315 0.067261 0.156942
-9.85999966 -6.07999992 -1.11000001 237 142 66 0.000000 0.000000 0.000000 0.000000 0.000000 0.000000 207.000000 0.908469 -0.370010 0.194363
-9.88000011 -6.09999990 -1.22000003 237 142 66 0.000000 0.000000 0.000000 0.000000 0.000000 0.000000 207.000000 0.911473 -0.334738 -0.239099
-9.92000008 -6.07999992 -1.00999999 237 142 66 0.000000 0.000000 0.000000 0.000000 0.000000 0.000000 207.000000 0.996657 0.080117 0.016023
-9.89000034 -6.11000013 -0.97000003 237 142 66 0.000000 0.000000 0.000000 0.000000 0.000000 0.000000 207.000000 0.941929 0.082995 -0.325394
-9.96000004 -6.07000017 -1.05999994 237 142 66 0.000000 0.000000 0.000000 0.000000 0.000000 0.000000 207.000000 0.965969 0.033140 0.256528
-9.98999977 -6.07000017 -1.08000004 237 142 66 0.000000 0.000000 0.000000 0.000000 0.000000 0.000000 207.000000 0.966009 0.252381 -0.055946
-9.97000027 -6.07000017 -1.12000000 237 142 66 0.000000 0.000000 0.000000 0.000000 0.000000 0.000000 207.000000 0.941993 -0.217170 -0.255901
-9.89999962 -6.09999990 -1.25999999 237 142 66 0.000000 0.000000 0.000000 0.000000 0.000000 0.000000 207.000000 0.976937 -0.054341 -0.206497
-10.03999996 -6.09999990 -1.27999997 237 142 66 0.000000 0.000000 0.000000 0.000000 0.000000 0.000000 207.000000 0.972831 0.227115 0.044937
-10.03999996 -6.09999990 -1.25999999 237 142 66 0.000000 0.000000 0.000000 0.000000 0.000000 0.000000 207.000000 0.882479 -0.218024 -0.416768
-9.94999981 -6.11000013 -1.40999997 237 142 66 0.000000 0.000000 0.000000 0.000000 0.000000 0.000000 207.000000 0.954106 -0.122727 0.273167
-9.94999981 -6.11999989 -1.41999996 237 142 66 0.000000 0.000000 0.000000 0.000000 0.000000 0.000000 207.000000 0.955647 -0.021071 0.293759
-10.03999996 -6.13000011 -1.35000002 237 142 66 0.000000 0.000000 0.000000 0.000000 0.000000 0.000000 207.000000 0.989219 0.138697 0.046997
-9.97999954 -6.07999992 -1.38999999 237 142 66 0.000000 0.000000 0.000000 0.000000 0.000000 0.000000 207.000000 0.976083 0.211666 0.049590
-9.96000004 -6.11999989 -1.51999998 237 142 66 0.000000 0.000000 0.000000 0.000000 0.000000 0.000000 207.000000 0.954543 0.166878 0.246980
-9.94999981 -6.13999987 -1.48000002 237 142 66 0.000000 0.000000 0.000000 0.000000 0.000000 0.000000 207.000000 0.993247 -0.029964 -0.112087
-10.10999966 -6.11000013 -1.39999998 237 142 66 0.000000 0.000000 0.000000 0.000000 0.000000 0.000000 207.000000 0.992091 -0.001091 -0.125512
-9.88000011 -6.21999979 -0.67000002 237 142 66 0.000000 0.000000 0.000000 0.000000 0.000000 0.000000 207.000000 0.838145 0.484433 0.250675
-9.86999989 -6.25000000 -0.68000001 237 142 66 0.000000 0.000000 0.000000 0.000000 0.000000 0.000000 207.000000 0.761264 0.641449 -0.094975
-9.85999966 -6.26999998 -0.70999998 237 142 66 0.000000 0.000000 0.000000 0.000000 0.000000 0.000000 207.000000 0.548008 0.797812 0.251365
-9.88000011 -6.25000000 -0.69999999 237 142 66 0.000000 0.000000 0.000000 0.000000 0.000000 0.000000 207.000000 0.773141 0.493183 -0.398778
