//X Y Z R G B PointSourceId ScanDirectionFlag NumberOfReturns ReturnNumber GpsTime Intensity Classification Nx Ny Nz
11.28999996 4.23000002 -1.37000000 118 138 127 97.000000 1.000000 4.000000 1.000000 0.000000 114.000000 199.000000 0.720746 0.655082 0.226699
11.28999996 4.26000023 -1.46000004 118 138 127 97.000000 1.000000 4.000000 1.000000 0.000000 114.000000 199.000000 0.247332 0.931383 0.267119
11.30000019 4.26000023 -1.46000004 118 138 127 97.000000 1.000000 4.000000 1.000000 0.000000 114.000000 199.000000 -0.003975 0.883845 0.467762
11.28999996 4.26000023 -1.46000004 118 138 127 97.000000 1.000000 4.000000 1.000000 0.000000 114.000000 199.000000 0.247332 0.931383 0.267119
11.15999985 4.34000015 -1.47000003 118 138 127 97.000000 1.000000 4.000000 1.000000 0.000000 114.000000 199.000000 -0.257622 0.958561 0.121618
11.22999954 4.30999994 -1.28999996 118 138 127 97.000000 1.000000 4.000000 1.000000 0.000000 114.000000 199.000000 -0.335988 0.940507 0.050593
11.22999954 4.30000019 -1.33000004 118 138 127 97.000000 1.000000 4.000000 1.000000 0.000000 114.000000 199.000000 0.029486 0.999478 0.013218
11.23999977 4.30000019 -1.34000003 118 138 127 97.000000 1.000000 4.000000 1.000000 0.000000 114.000000 199.000000 -0.107794 0.994101 -0.011977
11.21000004 4.30000019 -1.33000004 118 138 127 97.000000 1.000000 4.000000 1.000000 0.000000 114.000000 199.000000 0.065574 0.971241 0.228891
11.18000031 4.30000019 -1.28999996 118 138 127 97.000000 1.000000 4.000000 1.000000 0.000000 114.000000 199.000000 -0.267674 0.957096 -0.110987
11.19999981 4.30000019 -1.34000003 118 138 127 97.000000 1.000000 4.000000 1.000000 0.000000 114.000000 199.000000 -0.353315 0.877979 0.322987
11.19999981 4.30000019 -1.34000003 118 138 127 97.000000 1.000000 4.000000 1.000000 0.000000 114.000000 199.000000 -0.353315 0.877979 0.322987
11.18999958 4.30000019 -1.36000001 118 138 127 97.000000 1.000000 4.000000 1.000000 0.000000 114.000000 199.000000 -0.071325 0.988027 0.136804
11.18000031 4.30000019 -1.34000003 118 138 127 97.000000 1.000000 4.000000 1.000000 0.000000 114.000000 199.000000 -0.298955 0.952841 0.052158
11.18000031 4.28999996 -1.29999995 118 138 127 97.000000 1.000000 4.000000 1.000000 0.000000 114.000000 199.000000 -0.154924 0.983589 -0.092474
11.18000031 4.28999996 -1.35000002 118 138 127 97.000000 1.000000 4.000000 1.000000 0.000000 114.000000 199.000000 0.591282 -0.766941 -0.249373
11.17000008 4.28999996 -1.33000004 118 138 127 97.000000 1.000000 4.000000 1.000000 0.000000 114.000000 199.000000 -0.585501 0.785278 -0.201314
11.17000008 4.28000021 -1.33000004 118 138 127 97.000000 1.000000 4.000000 1.000000 0.000000 114.000000 199.000000 -0.340210 0.888742 -0.307238
11.18999958 4.28000021 -1.34000003 118 138 127 97.000000 1.000000 4.000000 1.000000 0.000000 114.000000 199.000000 -0.571157 0.805016 0.160404
11.22999954 4.30000019 -1.37000000 118 138 127 97.000000 1.000000 4.000000 1.000000 0.000000 114.000000 199.000000 -0.133701 0.927639 -0.348726
11.21000004 4.30999994 -1.41999996 118 138 127 97.000000 1.000000 4.000000 1.000000 0.000000 114.000000 199.000000 -0.113954 0.966689 -0.229188
11.21000004 4.30999994 -1.41999996 118 138 127 97.000000 1.000000 4.000000 1.000000 0.000000 114.000000 199.000000 -0.113954 0.966689 -0.229188
11.22000027 4.26000023 -1.40999997 118 138 127 97.000000 1.000000 4.000000 1.000000 0.000000 114.000000 199.000000 -0.193804 0.976425 0.095050
11.22999954 4.26999998 -1.38999999 118 138 127 97.000000 1.000000 4.000000 1.000000 0.000000 114.000000 199.000000 -0.261487 0.931457 -0.253006
11.25000000 4.28000021 -1.38999999 118 138 127 97.000000 1.000000 4.000000 1.000000 0.000000 114.000000 199.000000 -0.309489 0.922763 -0.229621
11.19999981 4.32999992 -1.45000005 118 138 127 97.000000 1.000000 4.000000 1.000000 0.000000 114.000000 199.000000 -0.238324 0.923326 0.301116
11.17000008 4.32000017 -1.42999995 118 138 127 97.000000 1.000000 4.000000 1.000000 0.000000 114.000000 199.000000 -0.475148 0.876011 0.082695
11.18999958 4.28999996 -1.39999998 118 138 127 97.000000 1.000000 4.000000 1.000000 0.000000 114.000000 199.000000 -0.178429 0.973132 -0.145527
11.14000034 4.30000019 -1.32000005 118 138 127 97.000000 1.000000 4.000000 1.000000 0.000000 114.000000 199.000000 -0.626156 0.752933 0.202534
11.14999962 4.30000019 -1.36000001 118 138 127 97.000000 1.000000 4.000000 1.000000 0.000000 114.000000 199.000000 -0.449025 0.891185 -0.064539
11.14999962 4.30999994 -1.33000004 118 138 127 97.000000 1.000000 4.000000 1.000000 0.000000 114.000000 199.000000 -0.333430 0.913684 -0.232391
11.13000011 4.28000021 -1.30999994 118 138 127 97.000000 1.000000 4.000000 1.000000 0.000000 114.000000 199.000000 0.826546 -0.562491 -0.020629
11.13000011 4.28000021 -1.28999996 118 138 127 97.000000 1.000000 4.000000 1.000000 0.000000 114.000000 199.000000 -0.613401 0.761729 0.208587
11.14000034 4.28999996 -1.33000004 118 138 127 97.000000 1.000000 4.000000 1.000000 0.000000 114.000000 199.000000 0.762726 -0.630860 0.142356
11.10999966 4.32999992 -1.35000002 118 138 127 97.000000 1.000000 4.000000 1.000000 0.000000 114.000000 199.000000 0.756648 -0.649997 -0.070621
11.10999966 4.26999998 -1.28999996 118 138 127 97.000000 1.000000 4.000000 1.000000 0.000000 114.000000 199.000000 -0.544425 0.811270 -0.213169
11.10000038 4.26000023 -1.29999995 118 138 127 97.000000 1.000000 4.000000 1.000000 0.000000 114.000000 199.000000 -0.663055 0.744305 0.079799
11.11999989 4.26999998 -1.30999994 118 138 127 97.000000 1.000000 4.000000 1.000000 0.000000 114.000000 199.000000 -0.511876 0.816823 -0.266051
11.11999989 4.26999998 -1.32000005 118 138 127 97.000000 1.000000 4.000000 1.000000 0.000000 114.000000 199.000000 -0.541472 0.823457 0.169491
11.10000038 4.26000023 -1.28999996 118 138 127 97.000000 1.000000 4.000000 1.000000 0.000000 114.000000 199.000000 0.891646 -0.451857 -0.028157
11.10999966 4.26999998 -1.28999996 118 138 127 97.000000 1.000000 4.000000 1.000000 0.000000 114.000000 199.000000 -0.544425 0.811270 -0.213169
11.11999989 4.28000021 -1.32000005 118 138 127 97.000000 1.000000 4.000000 1.000000 0.000000 114.000000 199.000000 -0.625355 0.772498 -0.110357
11.10000038 4.26000023 -1.34000003 118 138 127 97.000000 1.000000 4.000000 1.000000 0.000000 114.000000 199.000000 0.888502 -0.443543 -0.117617
11.10000038 4.26000023 -1.34000003 118 138 127 97.000000 1.000000 4.000000 1.000000 0.000000 114.000000 199.000000 0.888502 -0.443543 -0.117617
11.13000011 4.30000019 -1.42999995 118 138 127 97.000000 1.000000 4.000000 1.000000 0.000000 114.000000 199.000000 -0.606770 0.788070 -0.103809
11.14000034 4.30999994 -1.44000006 118 138 127 97.000000 1.000000 4.000000 1.000000 0.000000 114.000000 199.000000 -0.435358 0.899021 -0.047175
11.14000034 4.30999994 -1.44000006 118 138 127 97.000000 1.000000 4.000000 1.000000 0.000000 114.000000 199.000000 -0.435358 0.899021 -0.047175
11.14000034 4.30999994 -1.41999996 118 138 127 97.000000 1.000000 4.000000 1.000000 0.000000 114.000000 199.000000 -0.432405 0.900955 -0.036145
11.13000011 4.30000019 -1.42999995 118 138 127 97.000000 1.000000 4.000000 1.000000 0.000000 114.000000 199.000000 -0.606770 0.788070 -0.103809
11.14000034 4.28999996 -1.38999999 118 138 127 97.000000 1.000000 4.000000 1.000000 0.000000 114.000000 199.000000 -0.464599 0.884236 -0.047686
11.14999962 4.28999996 -1.39999998 118 138 127 97.000000 1.000000 4.000000 1.000000 0.000000 114.000000 199.000000 -0.472252 0.859588 -0.195158
11.14999962 4.28999996 -1.45000005 118 138 127 97.000000 1.000000 4.000000 1.000000 0.000000 114.000000 199.000000 0.731295 -0.523297 0.437456
11.14000034 4.26000023 -1.41999996 118 138 127 97.000000 1.000000 4.000000 1.000000 0.000000 114.000000 199.000000 -0.663518 0.747685 -0.026653
11.07999992 4.26999998 -1.39999998 118 138 127 97.000000 1.000000 4.000000 1.000000 0.000000 114.000000 199.000000 0.839305 -0.429812 0.332909
11.10000038 4.28000021 -1.40999997 118 138 127 97.000000 1.000000 4.000000 1.000000 0.000000 114.000000 199.000000 0.928213 -0.372047 0.001270
11.10000038 4.26999998 -1.40999997 118 138 127 97.000000 1.000000 4.000000 1.000000 0.000000 114.000000 199.000000 0.980579 -0.138680 0.138680
11.07999992 4.26000023 -1.40999997 118 138 127 97.000000 1.000000 4.000000 1.000000 0.000000 114.000000 199.000000 0.871538 -0.462777 0.162045
11.07999992 4.26000023 -1.38000000 118 138 127 97.000000 1.000000 4.000000 1.000000 0.000000 114.000000 199.000000 0.990315 -0.138622 -0.007763
11.10999966 4.28999996 -1.40999997 118 138 127 97.000000 1.000000 4.000000 1.000000 0.000000 114.000000 199.000000 -0.543933 0.835173 -0.081376
11.07999992 4.28000021 -1.38999999 118 138 127 97.000000 1.000000 4.000000 1.000000 0.000000 114.000000 199.000000 -0.663570 0.689277 -0.290814
11.09000015 4.26999998 -1.40999997 118 138 127 97.000000 1.000000 4.000000 1.000000 0.000000 114.000000 199.000000 -0.638256 0.769539 0.020949
11.10000038 4.28999996 -1.41999996 118 138 127 97.000000 1.000000 4.000000 1.000000 0.000000 114.000000 199.000000 0.591595 -0.761975 0.263457
11.09000015 4.26999998 -1.45000005 118 138 127 97.000000 1.000000 4.000000 1.000000 0.000000 114.000000 199.000000 0.908474 -0.414651 0.052335
11.09000015 4.26000023 -1.45000005 118 138 127 97.000000 1.000000 4.000000 1.000000 0.000000 114.000000 199.000000 0.937385 -0.268819 0.221462
11.07999992 4.26000023 -1.44000006 118 138 127 97.000000 1.000000 4.000000 1.000000 0.000000 114.000000 199.000000 0.752729 -0.629583 0.192415
11.11999989 4.28999996 -1.44000006 118 138 127 97.000000 1.000000 4.000000 1.000000 0.000000 114.000000 199.000000 -0.486001 0.873725 0.020194
11.11999989 4.28999996 -1.44000006 118 138 127 97.000000 1.000000 4.000000 1.000000 0.000000 114.000000 199.000000 -0.486001 0.873725 0.020194
11.09000015 4.23000002 -1.29999995 118 138 127 97.000000 1.000000 4.000000 1.000000 0.000000 114.000000 199.000000 0.777766 -0.308232 0.547790
11.07999992 4.21999979 -1.28999996 118 138 127 97.000000 1.000000 4.000000 1.000000 0.000000 114.000000 199.000000 0.939319 -0.298437 0.169160
11.10000038 4.25000000 -1.28999996 118 138 127 97.000000 1.000000 4.000000 1.000000 0.000000 114.000000 199.000000 0.916021 -0.365561 -0.165138
11.07999992 4.23000002 -1.32000005 118 138 127 97.000000 1.000000 4.000000 1.000000 0.000000 114.000000 199.000000 0.845045 -0.385816 0.370195
11.09000015 4.25000000 -1.34000003 118 138 127 97.000000 1.000000 4.000000 1.000000 0.000000 114.000000 199.000000 0.886915 -0.404220 -0.223580
11.07999992 4.21000004 -1.33000004 118 138 127 97.000000 1.000000 4.000000 1.000000 0.000000 114.000000 199.000000 0.839218 -0.463819 0.283876
11.07999992 4.21999979 -1.36000001 118 138 127 97.000000 1.000000 4.000000 1.000000 0.000000 114.000000 199.000000 0.968946 -0.084201 0.232497
11.07999992 4.21999979 -1.33000004 118 138 127 97.000000 1.000000 4.000000 1.000000 0.000000 114.000000 199.000000 0.795229 -0.486777 0.361468
11.07999992 4.21000004 -1.36000001 118 138 127 97.000000 1.000000 4.000000 1.000000 0.000000 114.000000 199.000000 0.999815 -0.018978 -0.002996
11.10000038 4.25000000 -1.34000003 118 138 127 97.000000 1.000000 4.000000 1.000000 0.000000 114.000000 199.000000 0.868496 -0.485961 0.097759
11.09000015 4.23999977 -1.33000004 118 138 127 97.000000 1.000000 4.000000 1.000000 0.000000 114.000000 199.000000 0.970703 -0.188002 0.149634
11.07999992 4.21999979 -1.33000004 118 138 127 97.000000 1.000000 4.000000 1.000000 0.000000 114.000000 199.000000 0.795229 -0.486777 0.361468
11.07999992 4.21999979 -1.34000003 118 138 127 97.000000 1.000000 4.000000 1.000000 0.000000 114.000000 199.000000 0.855729 -0.495884 -0.147741
11.09000015 4.23000002 -1.34000003 118 138 127 97.000000 1.000000 4.000000 1.000000 0.000000 114.000000 199.000000 0.899828 -0.199154 0.388133
11.07999992 4.21000004 -1.34000003 118 138 127 97.000000 1.000000 4.000000 1.000000 0.000000 114.000000 199.000000 0.960252 -0.251464 0.121172
11.09000015 4.25000000 -1.33000004 118 138 127 97.000000 1.000000 4.000000 1.000000 0.000000 114.000000 199.000000 0.905129 -0.338873 0.256722
11.07999992 4.17000008 -1.32000005 118 138 127 97.000000 1.000000 4.000000 1.000000 0.000000 114.000000 199.000000 0.998002 -0.059943 0.019981
11.07999992 4.19000006 -1.30999994 118 138 127 97.000000 1.000000 4.000000 1.000000 0.000000 114.000000 199.000000 0.993178 0.032181 -0.112079
11.09000015 4.17000008 -1.30999994 118 138 127 97.000000 1.000000 4.000000 1.000000 0.000000 114.000000 199.000000 0.984289 0.175725 0.017228
11.07999992 4.19000006 -1.30999994 118 138 127 97.000000 1.000000 4.000000 1.000000 0.000000 114.000000 199.000000 0.993178 0.032181 -0.112079
11.07999992 4.19000006 -1.32000005 118 138 127 97.000000 1.000000 4.000000 1.000000 0.000000 114.000000 199.000000 0.947543 0.203142 0.246770
11.07999992 4.19999981 -1.28999996 118 138 127 97.000000 1.000000 4.000000 1.000000 0.000000 114.000000 199.000000 0.987728 -0.143436 -0.061806
11.07999992 4.17999983 -1.36000001 118 138 127 97.000000 1.000000 4.000000 1.000000 0.000000 114.000000 199.000000 0.970995 -0.055380 0.232596
11.09000015 4.19999981 -1.35000002 118 138 127 97.000000 1.000000 4.000000 1.000000 0.000000 114.000000 199.000000 0.953072 -0.284479 0.103566
11.09000015 4.17000008 -1.36000001 118 138 127 97.000000 1.000000 4.000000 1.000000 0.000000 114.000000 199.000000 0.994569 -0.001073 -0.104070
11.07999992 4.19000006 -1.35000002 118 138 127 97.000000 1.000000 4.000000 1.000000 0.000000 114.000000 199.000000 0.987766 -0.005606 0.155845
11.07999992 4.17000008 -1.33000004 118 138 127 97.000000 1.000000 4.000000 1.000000 0.000000 114.000000 199.000000 0.979638 -0.196404 0.041661
11.07999992 4.19999981 -1.35000002 118 138 127 97.000000 1.000000 4.000000 1.000000 0.000000 114.000000 199.000000 0.997710 -0.067624 -0.001040
11.09000015 4.19000006 -1.36000001 118 138 127 97.000000 1.000000 4.000000 1.000000 0.000000 114.000000 199.000000 0.818720 -0.150074 0.554234
11.07999992 4.17999983 -1.33000004 118 138 127 97.000000 1.000000 4.000000 1.000000 0.000000 114.000000 199.000000 0.998322 0.022045 0.053538
11.09000015 4.17000008 -1.34000003 118 138 127 97.000000 1.000000 4.000000 1.000000 0.000000 114.000000 199.000000 0.860095 0.263357 0.436898
11.13000011 4.25000000 -1.38999999 118 138 127 97.000000 1.000000 4.000000 1.000000 0.000000 114.000000 199.000000 -0.608891 0.792812 -0.026474
11.10000038 4.23999977 -1.40999997 118 138 127 97.000000 1.000000 4.000000 1.000000 0.000000 114.000000 199.000000 0.912552 -0.408351 -0.022321
11.07999992 4.21000004 -1.40999997 118 138 127 97.000000 1.000000 4.000000 1.000000 0.000000 114.000000 199.000000 0.990766 0.023563 -0.133523
11.09000015 4.21999979 -1.38999999 118 138 127 97.000000 1.000000 4.000000 1.000000 0.000000 114.000000 199.000000 0.967252 -0.251314 0.035552
11.10000038 4.23000002 -1.38000000 118 138 127 97.000000 1.000000 4.000000 1.000000 0.000000 114.000000 199.000000 0.804200 -0.586849 -0.094186
11.09000015 4.21999979 -1.38999999 118 138 127 97.000000 1.000000 4.000000 1.000000 0.000000 114.000000 199.000000 0.967252 -0.251314 0.035552
11.10000038 4.23999977 -1.38000000 118 138 127 97.000000 1.000000 4.000000 1.000000 0.000000 114.000000 199.000000 0.775551 -0.623654 -0.097857
11.09000015 4.21000004 -1.45000005 118 138 127 97.000000 1.000000 4.000000 1.000000 0.000000 114.000000 199.000000 0.981011 -0.063484 0.183266
11.09000015 4.21000004 -1.44000006 118 138 127 97.000000 1.000000 4.000000 1.000000 0.000000 114.000000 199.000000 0.994521 -0.098020 0.036345
11.09000015 4.21000004 -1.42999995 118 138 127 97.000000 1.000000 4.000000 1.000000 0.000000 114.000000 199.000000 0.979515 -0.132167 0.151930
11.07999992 4.25000000 -1.41999996 118 138 127 97.000000 1.000000 4.000000 1.000000 0.000000 114.000000 199.000000 0.979348 -0.031897 0.199650
11.09000015 4.23000002 -1.45000005 118 138 127 97.000000 1.000000 4.000000 1.000000 0.000000 114.000000 199.000000 0.960928 -0.276796 0.001209
11.09000015 4.21000004 -1.44000006 118 138 127 97.000000 1.000000 4.000000 1.000000 0.000000 114.000000 199.000000 0.994521 -0.098020 0.036345
11.07999992 4.25000000 -1.42999995 118 138 127 97.000000 1.000000 4.000000 1.000000 0.000000 114.000000 199.000000 0.963555 -0.215721 -0.158196
11.07999992 4.25000000 -1.41999996 118 138 127 97.000000 1.000000 4.000000 1.000000 0.000000 114.000000 199.000000 0.979348 -0.031897 0.199650
11.07999992 4.19000006 -1.39999998 118 138 127 97.000000 1.000000 4.000000 1.000000 0.000000 114.000000 199.000000 0.992432 0.113775 0.046186
11.07999992 4.19000006 -1.38999999 118 138 127 97.000000 1.000000 4.000000 1.000000 0.000000 114.000000 199.000000 0.997312 0.046162 -0.056897
11.09000015 4.17000008 -1.37000000 118 138 127 97.000000 1.000000 4.000000 1.000000 0.000000 114.000000 199.000000 0.988677 -0.137928 0.059112
11.07999992 4.17999983 -1.40999997 118 138 127 97.000000 1.000000 4.000000 1.000000 0.000000 114.000000 199.000000 0.993295 -0.045810 0.106145
11.07999992 4.19999981 -1.37000000 118 138 127 97.000000 1.000000 4.000000 1.000000 0.000000 114.000000 199.000000 0.989919 0.137205 -0.035152
11.07999992 4.19000006 -1.38999999 118 138 127 97.000000 1.000000 4.000000 1.000000 0.000000 114.000000 199.000000 0.997312 0.046162 -0.056897
11.07999992 4.19000006 -1.38999999 118 138 127 97.000000 1.000000 4.000000 1.000000 0.000000 114.000000 199.000000 0.997312 0.046162 -0.056897
11.10000038 4.19999981 -1.40999997 118 138 127 97.000000 1.000000 4.000000 1.000000 0.000000 114.000000 199.000000 0.984994 -0.043232 -0.167087
11.07999992 4.17999983 -1.44000006 118 138 127 97.000000 1.000000 4.000000 1.000000 0.000000 114.000000 199.000000 0.960362 -0.207396 0.186260
11.09000015 4.17000008 -1.42999995 118 138 127 97.000000 1.000000 4.000000 1.000000 0.000000 114.000000 199.000000 0.982899 0.160399 -0.090451
11.07999992 4.19999981 -1.42999995 118 138 127 97.000000 1.000000 4.000000 1.000000 0.000000 114.000000 199.000000 0.974661 -0.022611 0.222542
11.07999992 4.19999981 -1.45000005 118 138 127 97.000000 1.000000 4.000000 1.000000 0.000000 114.000000 199.000000 0.776109 -0.405138 0.483237
11.07999992 4.17000008 -1.41999996 118 138 127 97.000000 1.000000 4.000000 1.000000 0.000000 114.000000 199.000000 0.997539 0.054645 0.043930
11.07999992 4.17000008 -1.45000005 118 138 127 97.000000 1.000000 4.000000 1.000000 0.000000 114.000000 199.000000 0.968431 -0.216202 0.124092
11.09000015 4.19000006 -1.45000005 118 138 127 97.000000 1.000000 4.000000 1.000000 0.000000 114.000000 199.000000 0.960930 -0.267842 0.069817
11.07999992 4.19999981 -1.41999996 118 138 127 97.000000 1.000000 4.000000 1.000000 0.000000 114.000000 199.000000 0.992690 0.001087 0.120688
11.07999992 4.17000008 -1.45000005 118 138 127 97.000000 1.000000 4.000000 1.000000 0.000000 114.000000 199.000000 0.968431 -0.216202 0.124092
11.14999962 4.30999994 -1.47000003 118 138 127 97.000000 1.000000 4.000000 1.000000 0.000000 114.000000 199.000000 0.768560 -0.620586 0.155524
11.14999962 4.30999994 -1.46000004 118 138 127 97.000000 1.000000 4.000000 1.000000 0.000000 114.000000 199.000000 -0.558195 0.807634 0.190121
11.14999962 4.32999992 -1.51999998 118 138 127 97.000000 1.000000 4.000000 1.000000 0.000000 114.000000 199.000000 -0.513779 0.731846 -0.447698
11.14000034 4.32999992 -1.50000000 118 138 127 97.000000 1.000000 4.000000 1.000000 0.000000 114.000000 199.000000 0.780056 -0.596873 -0.187763
11.13000011 4.30999994 -1.50000000 118 138 127 97.000000 1.000000 4.000000 1.000000 0.000000 114.000000 199.000000 0.871244 -0.482774 -0.088673
11.13000011 4.32999992 -1.50999999 118 138 127 97.000000 1.000000 4.000000 1.000000 0.000000 114.000000 199.000000 0.697773 -0.709525 -0.098423
11.14000034 4.30999994 -1.50999999 118 138 127 97.000000 1.000000 4.000000 1.000000 0.000000 114.000000 199.000000 0.807321 -0.526242 -0.267025
11.14999962 4.32000017 -1.50999999 118 138 127 97.000000 1.000000 4.000000 1.000000 0.000000 114.000000 199.000000 0.865386 -0.436469 0.246174
11.11999989 4.32000017 -1.48000002 118 138 127 97.000000 1.000000 4.000000 1.000000 0.000000 114.000000 199.000000 0.797152 -0.600359 -0.064171
11.11999989 4.30000019 -1.50000000 118 138 127 97.000000 1.000000 4.000000 1.000000 0.000000 114.000000 199.000000 -0.605870 0.701102 -0.376001
11.10000038 4.28000021 -1.48000002 118 138 127 97.000000 1.000000 4.000000 1.000000 0.000000 114.000000 199.000000 0.822681 -0.550916 0.140314
11.09000015 4.26000023 -1.46000004 118 138 127 97.000000 1.000000 4.000000 1.000000 0.000000 114.000000 199.000000 0.942627 -0.241522 0.230481
11.09000015 4.26999998 -1.48000002 118 138 127 97.000000 1.000000 4.000000 1.000000 0.000000 114.000000 199.000000 0.958177 -0.285858 0.013495
11.09000015 4.28999996 -1.51999998 118 138 127 97.000000 1.000000 4.000000 1.000000 0.000000 114.000000 199.000000 0.800710 -0.556948 -0.220619
11.07999992 4.26999998 -1.50999999 118 138 127 97.000000 1.000000 4.000000 1.000000 0.000000 114.000000 199.000000 0.986286 -0.164570 0.012485
11.09000015 4.28999996 -1.51999998 118 138 127 97.000000 1.000000 4.000000 1.000000 0.000000 114.000000 199.000000 0.800710 -0.556948 -0.220619
11.10000038 4.21000004 -1.48000002 118 138 127 97.000000 1.000000 4.000000 1.000000 0.000000 114.000000 199.000000 0.998035 0.035000 -0.051970
11.09000015 4.23999977 -1.48000002 118 138 127 97.000000 1.000000 4.000000 1.000000 0.000000 114.000000 199.000000 0.834241 -0.528995 -0.155587
11.09000015 4.23999977 -1.48000002 118 138 127 97.000000 1.000000 4.000000 1.000000 0.000000 114.000000 199.000000 0.834241 -0.528995 -0.155587
11.10999966 4.23000002 -1.49000001 118 138 127 97.000000 1.000000 4.000000 1.000000 0.000000 114.000000 199.000000 0.954967 -0.144772 0.258997
11.07999992 4.25000000 -1.46000004 118 138 127 97.000000 1.000000 4.000000 1.000000 0.000000 114.000000 199.000000 0.839289 -0.536172 0.090077
11.09000015 4.25000000 -1.50999999 118 138 127 97.000000 1.000000 4.000000 1.000000 0.000000 114.000000 199.000000 0.906772 -0.411419 0.092191
11.09000015 4.21000004 -1.50000000 118 138 127 97.000000 1.000000 4.000000 1.000000 0.000000 114.000000 199.000000 0.972422 0.130246 0.193473
11.09000015 4.21000004 -1.50000000 118 138 127 97.000000 1.000000 4.000000 1.000000 0.000000 114.000000 199.000000 0.972422 0.130246 0.193473
11.09000015 4.21000004 -1.50999999 118 138 127 97.000000 1.000000 4.000000 1.000000 0.000000 114.000000 199.000000 0.982491 -0.012700 0.185877
11.09000015 4.19999981 -1.47000003 118 138 127 97.000000 1.000000 4.000000 1.000000 0.000000 114.000000 199.000000 0.963873 -0.256443 0.072006
11.07999992 4.17999983 -1.47000003 118 138 127 97.000000 1.000000 4.000000 1.000000 0.000000 114.000000 199.000000 0.991218 -0.100158 0.086343
11.10999966 4.19000006 -1.46000004 118 138 127 97.000000 1.000000 4.000000 1.000000 0.000000 114.000000 199.000000 0.907881 0.109836 0.404584
11.07999992 4.17000008 -1.46000004 118 138 127 97.000000 1.000000 4.000000 1.000000 0.000000 114.000000 199.000000 0.988549 -0.150796 -0.005585
11.10000038 4.17000008 -1.47000003 118 138 127 97.000000 1.000000 4.000000 1.000000 0.000000 114.000000 199.000000 0.997614 -0.066649 0.017985
11.09000015 4.17999983 -1.51999998 118 138 127 97.000000 1.000000 4.000000 1.000000 0.000000 114.000000 199.000000 0.903928 -0.038721 0.425928
11.10000038 4.19999981 -1.50000000 118 138 127 97.000000 1.000000 4.000000 1.000000 0.000000 114.000000 199.000000 0.973591 0.225603 0.034987
11.07999992 4.19000006 -1.51999998 118 138 127 97.000000 1.000000 4.000000 1.000000 0.000000 114.000000 199.000000 0.880835 -0.033826 0.472214
11.07999992 4.17000008 -1.52999997 118 138 127 97.000000 1.000000 4.000000 1.000000 0.000000 114.000000 199.000000 0.958253 0.124194 0.257539
11.07999992 4.17000008 -1.52999997 118 138 127 97.000000 1.000000 4.000000 1.000000 0.000000 114.000000 199.000000 0.958253 0.124194 0.257539
11.07999992 4.21999979 -1.54999995 118 138 127 97.000000 1.000000 4.000000 1.000000 0.000000 114.000000 199.000000 0.988571 0.033066 -0.147088
11.06999969 4.21999979 -1.32000005 118 138 127 97.000000 1.000000 4.000000 1.000000 0.000000 114.000000 199.000000 0.888676 -0.145002 0.435006
11.06999969 4.21000004 -1.32000005 118 138 127 97.000000 1.000000 4.000000 1.000000 0.000000 114.000000 199.000000 0.901635 -0.092795 0.422425
11.06999969 4.23999977 -1.30999994 118 138 127 97.000000 1.000000 4.000000 1.000000 0.000000 114.000000 199.000000 0.977271 -0.143533 0.156014
11.06999969 4.23000002 -1.30999994 118 138 127 97.000000 1.000000 4.000000 1.000000 0.000000 114.000000 199.000000 0.979121 -0.171192 -0.109612
11.06999969 4.21000004 -1.36000001 118 138 127 97.000000 1.000000 4.000000 1.000000 0.000000 114.000000 199.000000 0.993487 -0.089087 0.071044
11.06999969 4.19000006 -1.30999994 118 138 127 97.000000 1.000000 4.000000 1.000000 0.000000 114.000000 199.000000 0.911824 0.083141 0.402075
11.06999969 4.17999983 -1.33000004 118 138 127 97.000000 1.000000 4.000000 1.000000 0.000000 114.000000 199.000000 0.990823 -0.037283 0.129925
11.06000042 4.23000002 -1.39999998 118 138 127 97.000000 1.000000 4.000000 1.000000 0.000000 114.000000 199.000000 0.991844 0.041655 0.120462
11.06999969 4.21999979 -1.40999997 118 138 127 97.000000 1.000000 4.000000 1.000000 0.000000 114.000000 199.000000 0.944922 -0.018924 0.326749
11.06000042 4.28000021 -1.48000002 118 138 127 97.000000 1.000000 4.000000 1.000000 0.000000 114.000000 199.000000 0.701953 -0.613595 0.361612
11.06999969 4.23000002 -1.50999999 118 138 127 97.000000 1.000000 4.000000 1.000000 0.000000 114.000000 199.000000 0.869271 -0.156323 0.468968
11.06999969 4.23000002 -1.50000000 118 138 127 97.000000 1.000000 4.000000 1.000000 0.000000 114.000000 199.000000 0.827914 -0.558947 -0.046229
11.06999969 4.17000008 -1.50999999 118 138 127 97.000000 1.000000 4.000000 1.000000 0.000000 114.000000 199.000000 0.890628 0.203949 0.406432
11.27000046 4.15000010 -0.89999998 118 138 127 97.000000 1.000000 4.000000 1.000000 0.000000 114.000000 199.000000 0.867168 0.313526 0.386937
11.26000023 4.15000010 -1.00000000 118 138 127 97.000000 1.000000 4.000000 1.000000 0.000000 114.000000 199.000000 0.973269 0.150610 -0.173391
11.26000023 4.15999985 -1.00999999 118 138 127 97.000000 1.000000 4.000000 1.000000 0.000000 114.000000 199.000000 0.982448 0.063268 0.175480
11.27999973 4.13000011 -1.01999998 118 138 127 97.000000 1.000000 4.000000 1.000000 0.000000 114.000000 199.000000 0.923716 0.057151 0.378790
11.26000023 4.13999987 -1.04999995 118 138 127 97.000000 1.000000 4.000000 1.000000 0.000000 114.000000 199.000000 0.977694 0.172243 -0.120198
11.27000046 4.15999985 -1.10000002 118 138 127 97.000000 1.000000 4.000000 1.000000 0.000000 114.000000 199.000000 0.966054 0.247481 0.074119
11.28999996 4.13999987 -1.11000001 118 138 127 97.000000 1.000000 4.000000 1.000000 0.000000 114.000000 199.000000 0.961125 0.274076 0.033484
11.27000046 4.15999985 -1.10000002 118 138 127 97.000000 1.000000 4.000000 1.000000 0.000000 114.000000 199.000000 0.966054 0.247481 0.074119
11.27000046 4.15999985 -1.09000003 118 138 127 97.000000 1.000000 4.000000 1.000000 0.000000 114.000000 199.000000 0.975774 0.190183 -0.108143
11.27000046 4.15999985 -1.09000003 118 138 127 97.000000 1.000000 4.000000 1.000000 0.000000 114.000000 199.000000 0.975774 0.190183 -0.108143
11.27999973 4.11999989 -1.05999994 118 138 127 97.000000 1.000000 4.000000 1.000000 0.000000 114.000000 199.000000 0.989638 -0.139754 -0.032950
11.26000023 4.11999989 -1.02999997 118 138 127 97.000000 1.000000 4.000000 1.000000 0.000000 114.000000 199.000000 0.881718 -0.070593 0.466466
11.27000046 4.15999985 -1.14999998 118 138 127 97.000000 1.000000 4.000000 1.000000 0.000000 114.000000 199.000000 0.949832 0.312461 -0.013694
11.27000046 4.15999985 -1.15999997 118 138 127 97.000000 1.000000 4.000000 1.000000 0.000000 114.000000 199.000000 0.953712 -0.001227 0.300720
11.27999973 4.15999985 -1.15999997 118 138 127 97.000000 1.000000 4.000000 1.000000 0.000000 114.000000 199.000000 0.977080 0.168033 0.130692
11.27000046 4.13999987 -1.17999995 118 138 127 97.000000 1.000000 4.000000 1.000000 0.000000 114.000000 199.000000 0.997651 -0.041613 0.054417
11.27000046 4.11000013 -1.13000000 118 138 127 97.000000 1.000000 4.000000 1.000000 0.000000 114.000000 199.000000 0.934471 -0.294729 0.199745
11.27000046 4.11000013 -1.13999999 118 138 127 97.000000 1.000000 4.000000 1.000000 0.000000 114.000000 199.000000 0.949966 -0.274673 0.148725
11.27000046 4.11000013 -1.13999999 118 138 127 97.000000 1.000000 4.000000 1.000000 0.000000 114.000000 199.000000 0.949966 -0.274673 0.148725
11.27000046 4.11999989 -1.13999999 118 138 127 97.000000 1.000000 4.000000 1.000000 0.000000 114.000000 199.000000 0.989721 -0.142972 0.003325
11.30000019 4.13999987 -1.27999997 118 138 127 97.000000 1.000000 4.000000 1.000000 0.000000 114.000000 199.000000 0.970010 -0.229047 0.081356
11.28999996 4.15999985 -1.21000004 118 138 127 97.000000 1.000000 4.000000 1.000000 0.000000 114.000000 199.000000 0.863341 0.001339 0.504619
11.27000046 4.13999987 -1.25000000 118 138 127 97.000000 1.000000 4.000000 1.000000 0.000000 114.000000 199.000000 0.869292 -0.193999 0.454638
11.27999973 4.15999985 -1.25999999 118 138 127 97.000000 1.000000 4.000000 1.000000 0.000000 114.000000 199.000000 0.904866 -0.055290 0.422091
11.27999973 4.15000010 -1.25000000 118 138 127 97.000000 1.000000 4.000000 1.000000 0.000000 114.000000 199.000000 0.996059 0.046912 -0.075277
11.27000046 4.13000011 -1.24000001 118 138 127 97.000000 1.000000 4.000000 1.000000 0.000000 114.000000 199.000000 0.836409 -0.379613 0.395365
11.28999996 4.15000010 -1.26999998 118 138 127 97.000000 1.000000 4.000000 1.000000 0.000000 114.000000 199.000000 0.988817 0.066231 0.133624
11.26000023 4.11999989 -1.21000004 118 138 127 97.000000 1.000000 4.000000 1.000000 0.000000 114.000000 199.000000 0.874053 -0.450982 0.180686
11.27999973 4.11000013 -1.25000000 118 138 127 97.000000 1.000000 4.000000 1.000000 0.000000 114.000000 199.000000 0.838752 -0.497771 0.220724
11.27999973 4.11999989 -1.25000000 118 138 127 97.000000 1.000000 4.000000 1.000000 0.000000 114.000000 199.000000 0.696104 -0.549204 0.462400
11.26000023 4.07000017 -1.14999998 118 138 127 97.000000 1.000000 4.000000 1.000000 0.000000 114.000000 199.000000 -0.210732 0.936432 -0.280511
11.21000004 4.13999987 -0.73000002 118 138 127 97.000000 1.000000 4.000000 1.000000 0.000000 114.000000 199.000000 0.914613 0.368955 0.165394
11.23999977 4.13000011 -0.75999999 118 138 127 97.000000 1.000000 4.000000 1.000000 0.000000 114.000000 199.000000 0.880069 -0.022841 0.474297
11.22999954 4.15000010 -0.75999999 118 138 127 97.000000 1.000000 4.000000 1.000000 0.000000 114.000000 199.000000 0.855127 0.426793 0.294287
11.22000027 4.15999985 -0.74000001 118 138 127 97.000000 1.000000 4.000000 1.000000 0.000000 114.000000 199.000000 0.755581 0.393294 0.523848
11.22000027 4.11000013 -0.69999999 118 138 127 97.000000 1.000000 4.000000 1.000000 0.000000 114.000000 199.000000 0.956573 0.277548 0.089074
11.19999981 4.11000013 -0.73000002 118 138 127 97.000000 1.000000 4.000000 1.000000 0.000000 114.000000 199.000000 0.807423 -0.043531 0.588365
11.19999981 4.11000013 -0.73000002 118 138 127 97.000000 1.000000 4.000000 1.000000 0.000000 114.000000 199.000000 0.807423 -0.043531 0.588365
11.15999985 4.09999990 -0.72000003 118 138 127 97.000000 1.000000 4.000000 1.000000 0.000000 114.000000 199.000000 0.661039 -0.674033 0.329708
11.10000038 4.07000017 -0.67000002 118 138 127 97.000000 1.000000 4.000000 1.000000 0.000000 114.000000 199.000000 0.176771 0.977803 0.112491
11.10999966 4.07000017 -0.67000002 118 138 127 97.000000 1.000000 4.000000 1.000000 0.000000 114.000000 199.000000 0.162089 0.981063 -0.106028
11.09000015 4.03000021 -0.67000002 118 138 127 97.000000 1.000000 4.000000 1.000000 0.000000 114.000000 199.000000 0.316776 0.947783 0.036894
11.13000011 4.07000017 -0.72000003 118 138 127 97.000000 1.000000 4.000000 1.000000 0.000000 114.000000 199.000000 -0.005587 0.988880 0.148611
11.13000011 4.07000017 -0.73000002 118 138 127 97.000000 1.000000 4.000000 1.000000 0.000000 114.000000 199.000000 -0.145468 0.951548 -0.270917
11.13000011 4.07000017 -0.75000000 118 138 127 97.000000 1.000000 4.000000 1.000000 0.000000 114.000000 199.000000 0.148482 0.960537 -0.235207
11.09000015 4.07999992 -0.70999998 118 138 127 97.000000 1.000000 4.000000 1.000000 0.000000 114.000000 199.000000 0.421345 0.874179 -0.241411
11.09000015 4.05000019 -0.70999998 118 138 127 97.000000 1.000000 4.000000 1.000000 0.000000 114.000000 199.000000 0.521519 0.850455 -0.068880
11.07999992 4.05999994 -0.69000000 118 138 127 97.000000 1.000000 4.000000 1.000000 0.000000 114.000000 199.000000 0.380869 0.924226 -0.027298
11.07999992 4.05999994 -0.69000000 118 138 127 97.000000 1.000000 4.000000 1.000000 0.000000 114.000000 199.000000 0.380869 0.924226 -0.027298
11.11999989 4.05000019 -0.69000000 118 138 127 97.000000 1.000000 4.000000 1.000000 0.000000 114.000000 199.000000 -0.174780 0.939959 -0.293135
11.07999992 4.05999994 -0.70999998 118 138 127 97.000000 1.000000 4.000000 1.000000 0.000000 114.000000 199.000000 0.681234 0.678043 0.276003
11.09000015 4.07999992 -0.73000002 118 138 127 97.000000 1.000000 4.000000 1.000000 0.000000 114.000000 199.000000 0.343615 0.821825 0.454458
11.10000038 4.05000019 -0.73000002 118 138 127 97.000000 1.000000 4.000000 1.000000 0.000000 114.000000 199.000000 0.518523 0.776977 0.356989
11.11999989 4.07000017 -0.75000000 118 138 127 97.000000 1.000000 4.000000 1.000000 0.000000 114.000000 199.000000 0.106711 0.988547 0.106711
11.09000015 4.07999992 -0.73000002 118 138 127 97.000000 1.000000 4.000000 1.000000 0.000000 114.000000 199.000000 0.343615 0.821825 0.454458
11.22999954 4.15999985 -0.76999998 118 138 127 97.000000 1.000000 4.000000 1.000000 0.000000 114.000000 199.000000 0.855252 0.332512 0.397468
11.25000000 4.13000011 -0.77999997 118 138 127 97.000000 1.000000 4.000000 1.000000 0.000000 114.000000 199.000000 0.850180 0.411879 0.327949
11.25000000 4.13999987 -0.83999997 118 138 127 97.000000 1.000000 4.000000 1.000000 0.000000 114.000000 199.000000 0.865355 -0.017550 0.500853
11.23999977 4.11999989 -0.77999997 118 138 127 97.000000 1.000000 4.000000 1.000000 0.000000 114.000000 199.000000 0.807830 -0.305110 0.504301
11.22999954 4.09999990 -0.83999997 118 138 127 97.000000 1.000000 4.000000 1.000000 0.000000 114.000000 199.000000 0.837592 -0.353580 0.416439
11.22999954 4.11000013 -0.83999997 118 138 127 97.000000 1.000000 4.000000 1.000000 0.000000 114.000000 199.000000 0.895192 -0.050109 0.442856
11.23999977 4.15999985 -0.92000002 118 138 127 97.000000 1.000000 4.000000 1.000000 0.000000 114.000000 199.000000 0.970610 0.206810 -0.123071
11.25000000 4.13999987 -0.93000001 118 138 127 97.000000 1.000000 4.000000 1.000000 0.000000 114.000000 199.000000 0.845943 -0.229331 0.481443
11.14999962 4.09999990 -0.88999999 118 138 127 97.000000 1.000000 4.000000 1.000000 0.000000 114.000000 199.000000 0.021653 0.999114 -0.036088
11.15999985 4.09000015 -0.92000002 118 138 127 97.000000 1.000000 4.000000 1.000000 0.000000 114.000000 199.000000 -0.170197 0.934009 -0.314104
11.14999962 4.09999990 -0.92000002 118 138 127 97.000000 1.000000 4.000000 1.000000 0.000000 114.000000 199.000000 0.491902 0.868795 0.056811
11.10999966 4.09000015 -0.88000000 118 138 127 97.000000 1.000000 4.000000 1.000000 0.000000 114.000000 199.000000 0.519514 0.853977 -0.028786
11.11999989 4.07999992 -0.77999997 118 138 127 97.000000 1.000000 4.000000 1.000000 0.000000 114.000000 199.000000 0.313735 0.915181 -0.253012
11.09000015 4.03999996 -0.79000002 118 138 127 97.000000 1.000000 4.000000 1.000000 0.000000 114.000000 199.000000 0.629685 0.764296 0.139099
11.11999989 4.07999992 -0.77999997 118 138 127 97.000000 1.000000 4.000000 1.000000 0.000000 114.000000 199.000000 0.313735 0.915181 -0.253012
11.11999989 4.07999992 -0.85000002 118 138 127 97.000000 1.000000 4.000000 1.000000 0.000000 114.000000 199.000000 0.658795 0.750255 0.055733
11.07999992 4.07999992 -0.82999998 118 138 127 97.000000 1.000000 4.000000 1.000000 0.000000 114.000000 199.000000 0.849423 0.428580 0.307896
11.07999992 4.03999996 -0.85000002 118 138 127 97.000000 1.000000 4.000000 1.000000 0.000000 114.000000 199.000000 0.700590 0.547492 0.457630
11.11999989 4.07999992 -0.85000002 118 138 127 97.000000 1.000000 4.000000 1.000000 0.000000 114.000000 199.000000 0.658795 0.750255 0.055733
11.11999989 4.07999992 -0.82999998 118 138 127 97.000000 1.000000 4.000000 1.000000 0.000000 114.000000 199.000000 0.196656 0.956523 0.215385
11.11999989 4.07999992 -0.82999998 118 138 127 97.000000 1.000000 4.000000 1.000000 0.000000 114.000000 199.000000 0.196656 0.956523 0.215385
11.07999992 4.07999992 -0.81000000 118 138 127 97.000000 1.000000 4.000000 1.000000 0.000000 114.000000 199.000000 0.859910 0.496933 0.116671
11.14000034 4.05000019 -0.88000000 118 138 127 97.000000 1.000000 4.000000 1.000000 0.000000 114.000000 199.000000 0.244851 0.959764 -0.137483
11.11999989 4.07999992 -0.88000000 118 138 127 97.000000 1.000000 4.000000 1.000000 0.000000 114.000000 199.000000 0.392367 0.763569 0.512845
11.07999992 4.05999994 -0.86000001 118 138 127 97.000000 1.000000 4.000000 1.000000 0.000000 114.000000 199.000000 0.847414 0.517140 0.120231
11.07999992 4.07000017 -0.92000002 118 138 127 97.000000 1.000000 4.000000 1.000000 0.000000 114.000000 199.000000 0.664384 0.702440 0.255288
11.00000000 4.09000015 -0.64999998 118 138 127 97.000000 1.000000 4.000000 1.000000 0.000000 114.000000 199.000000 0.998497 0.013535 0.053100
11.06999969 4.09000015 -0.72000003 118 138 127 97.000000 1.000000 4.000000 1.000000 0.000000 114.000000 199.000000 0.819786 0.536892 -0.199243
11.00000000 4.13000011 -0.75999999 118 138 127 97.000000 1.000000 4.000000 1.000000 0.000000 114.000000 199.000000 0.866502 -0.426422 0.259495
11.06999969 4.07000017 -0.68000001 118 138 127 97.000000 1.000000 4.000000 1.000000 0.000000 114.000000 199.000000 0.719239 0.656560 0.227210
11.06999969 4.07000017 -0.66000003 118 138 127 97.000000 1.000000 4.000000 1.000000 0.000000 114.000000 199.000000 0.637217 0.765535 -0.088948
11.06999969 4.07000017 -0.68000001 118 138 127 97.000000 1.000000 4.000000 1.000000 0.000000 114.000000 199.000000 0.719239 0.656560 0.227210
11.02999973 4.05000019 -0.62000000 118 138 127 97.000000 1.000000 4.000000 1.000000 0.000000 114.000000 199.000000 0.784005 0.413916 0.462612
11.02999973 4.05000019 -0.62000000 118 138 127 97.000000 1.000000 4.000000 1.000000 0.000000 114.000000 199.000000 0.784005 0.413916 0.462612
11.00000000 4.07000017 -0.63999999 118 138 127 97.000000 1.000000 4.000000 1.000000 0.000000 114.000000 199.000000 0.700955 0.387587 0.598698
11.00000000 4.07999992 -0.66000003 118 138 127 97.000000 1.000000 4.000000 1.000000 0.000000 114.000000 199.000000 0.991553 0.090558 0.092851
11.06000042 4.07999992 -0.69000000 118 138 127 97.000000 1.000000 4.000000 1.000000 0.000000 114.000000 199.000000 0.853359 0.332981 0.401125
11.03999996 4.07000017 -0.69000000 118 138 127 97.000000 1.000000 4.000000 1.000000 0.000000 114.000000 199.000000 0.878773 0.469520 0.085495
11.03999996 4.05999994 -0.69000000 118 138 127 97.000000 1.000000 4.000000 1.000000 0.000000 114.000000 199.000000 0.829462 0.553449 -0.075406
11.06000042 4.05000019 -0.75000000 118 138 127 97.000000 1.000000 4.000000 1.000000 0.000000 114.000000 199.000000 0.690279 0.696456 -0.196120
11.06000042 4.07999992 -0.74000001 118 138 127 97.000000 1.000000 4.000000 1.000000 0.000000 114.000000 199.000000 0.845568 0.507933 -0.164375
10.98999977 4.13000011 -0.67000002 118 138 127 97.000000 1.000000 4.000000 1.000000 0.000000 114.000000 199.000000 0.860847 -0.494590 0.119682
10.98999977 4.11999989 -0.75000000 118 138 127 97.000000 1.000000 4.000000 1.000000 0.000000 114.000000 199.000000 0.944896 -0.295196 0.141532
10.98999977 4.07999992 -0.68000001 118 138 127 97.000000 1.000000 4.000000 1.000000 0.000000 114.000000 199.000000 0.956849 -0.016050 0.290141
11.06999969 4.09000015 -0.80000001 118 138 127 97.000000 1.000000 4.000000 1.000000 0.000000 114.000000 199.000000 0.609031 0.588786 0.531426
11.03999996 4.09000015 -0.81000000 118 138 127 97.000000 1.000000 4.000000 1.000000 0.000000 114.000000 199.000000 0.983301 0.048282 0.175463
11.01000023 4.15000010 -0.79000002 118 138 127 97.000000 1.000000 4.000000 1.000000 0.000000 114.000000 199.000000 0.931565 -0.336132 0.138569
11.00000000 4.15999985 -0.82999998 118 138 127 97.000000 1.000000 4.000000 1.000000 0.000000 114.000000 199.000000 0.863499 -0.504045 -0.017567
11.02000046 4.13999987 -0.81999999 118 138 127 97.000000 1.000000 4.000000 1.000000 0.000000 114.000000 199.000000 0.991284 -0.097635 0.088446
11.00000000 4.13999987 -0.81000000 118 138 127 97.000000 1.000000 4.000000 1.000000 0.000000 114.000000 199.000000 0.880306 -0.056307 0.471053
11.02999973 4.09000015 -0.85000002 118 138 127 97.000000 1.000000 4.000000 1.000000 0.000000 114.000000 199.000000 0.945716 0.071744 0.316978
11.02999973 4.11999989 -0.82999998 118 138 127 97.000000 1.000000 4.000000 1.000000 0.000000 114.000000 199.000000 0.970335 -0.005953 0.241691
11.02999973 4.09000015 -0.85000002 118 138 127 97.000000 1.000000 4.000000 1.000000 0.000000 114.000000 199.000000 0.945716 0.071744 0.316978
11.05000019 4.09000015 -0.87000000 118 138 127 97.000000 1.000000 4.000000 1.000000 0.000000 114.000000 199.000000 0.842464 0.423577 0.332922
11.06000042 4.11000013 -0.93000001 118 138 127 97.000000 1.000000 4.000000 1.000000 0.000000 114.000000 199.000000 0.910447 0.394574 -0.124088
11.02000046 4.13000011 -0.87000000 118 138 127 97.000000 1.000000 4.000000 1.000000 0.000000 114.000000 199.000000 0.995098 0.067671 0.072109
11.02000046 4.15000010 -0.87000000 118 138 127 97.000000 1.000000 4.000000 1.000000 0.000000 114.000000 199.000000 0.820490 -0.242593 0.517635
11.02999973 4.15000010 -0.88000000 118 138 127 97.000000 1.000000 4.000000 1.000000 0.000000 114.000000 199.000000 0.973465 -0.030008 0.226862
11.02999973 4.15000010 -0.88000000 118 138 127 97.000000 1.000000 4.000000 1.000000 0.000000 114.000000 199.000000 0.973465 -0.030008 0.226862
11.02000046 4.15000010 -0.87000000 118 138 127 97.000000 1.000000 4.000000 1.000000 0.000000 114.000000 199.000000 0.820490 -0.242593 0.517635
11.02000046 4.13000011 -0.93000001 118 138 127 97.000000 1.000000 4.000000 1.000000 0.000000 114.000000 199.000000 0.833847 0.015061 0.551790
11.02999973 4.13000011 -0.93000001 118 138 127 97.000000 1.000000 4.000000 1.000000 0.000000 114.000000 199.000000 0.952714 -0.214867 0.214867
11.02000046 4.15000010 -0.92000002 118 138 127 97.000000 1.000000 4.000000 1.000000 0.000000 114.000000 199.000000 0.966331 -0.020664 0.256473
11.02000046 4.11000013 -0.88000000 118 138 127 97.000000 1.000000 4.000000 1.000000 0.000000 114.000000 199.000000 0.767237 0.295091 0.569446
11.02000046 4.11999989 -0.87000000 118 138 127 97.000000 1.000000 4.000000 1.000000 0.000000 114.000000 199.000000 0.990501 0.134095 -0.030425
11.00000000 4.11999989 -0.88999999 118 138 127 97.000000 1.000000 4.000000 1.000000 0.000000 114.000000 199.000000 0.981399 -0.130772 -0.140549
11.02000046 4.11999989 -0.87000000 118 138 127 97.000000 1.000000 4.000000 1.000000 0.000000 114.000000 199.000000 0.990501 0.134095 -0.030425
11.01000023 4.09999990 -0.86000001 118 138 127 97.000000 1.000000 4.000000 1.000000 0.000000 114.000000 199.000000 0.767475 0.195329 0.610597
11.02000046 4.11000013 -0.93000001 118 138 127 97.000000 1.000000 4.000000 1.000000 0.000000 114.000000 199.000000 0.998892 -0.023907 -0.040538
11.03999996 4.05999994 -0.77999997 118 138 127 97.000000 1.000000 4.000000 1.000000 0.000000 114.000000 199.000000 0.717645 0.579700 0.385919
11.06999969 4.07999992 -0.80000001 118 138 127 97.000000 1.000000 4.000000 1.000000 0.000000 114.000000 199.000000 0.910353 0.263638 0.318988
11.03999996 4.07999992 -0.80000001 118 138 127 97.000000 1.000000 4.000000 1.000000 0.000000 114.000000 199.000000 0.818426 0.573871 -0.029180
11.05000019 4.07000017 -0.81000000 118 138 127 97.000000 1.000000 4.000000 1.000000 0.000000 114.000000 199.000000 0.558673 0.616059 0.555297
11.05000019 4.07000017 -0.81000000 118 138 127 97.000000 1.000000 4.000000 1.000000 0.000000 114.000000 199.000000 0.558673 0.616059 0.555297
11.02000046 4.07000017 -0.82999998 118 138 127 97.000000 1.000000 4.000000 1.000000 0.000000 114.000000 199.000000 0.956436 0.291731 -0.011078
11.05000019 4.07000017 -0.87000000 118 138 127 97.000000 1.000000 4.000000 1.000000 0.000000 114.000000 199.000000 0.840382 0.498172 -0.213502
11.05000019 4.07000017 -0.87000000 118 138 127 97.000000 1.000000 4.000000 1.000000 0.000000 114.000000 199.000000 0.840382 0.498172 -0.213502
11.05000019 4.07999992 -0.88999999 118 138 127 97.000000 1.000000 4.000000 1.000000 0.000000 114.000000 199.000000 0.801090 0.538745 0.260784
11.05000019 4.05999994 -0.88000000 118 138 127 97.000000 1.000000 4.000000 1.000000 0.000000 114.000000 199.000000 0.783136 0.530098 0.325106
11.05000019 4.05999994 -0.87000000 118 138 127 97.000000 1.000000 4.000000 1.000000 0.000000 114.000000 199.000000 0.887452 0.331856 0.319843
11.06999969 4.07000017 -0.91000003 118 138 127 97.000000 1.000000 4.000000 1.000000 0.000000 114.000000 199.000000 0.805649 0.588908 -0.064167
11.03999996 4.07999992 -0.93000001 118 138 127 97.000000 1.000000 4.000000 1.000000 0.000000 114.000000 199.000000 0.857232 0.495063 -0.141655
11.02000046 4.07999992 -0.88000000 118 138 127 97.000000 1.000000 4.000000 1.000000 0.000000 114.000000 199.000000 0.707278 0.474292 0.524218
11.25000000 4.13999987 -0.97000003 118 138 127 97.000000 1.000000 4.000000 1.000000 0.000000 114.000000 199.000000 0.999964 0.006924 0.004945
11.25000000 4.13999987 -0.94000000 118 138 127 97.000000 1.000000 4.000000 1.000000 0.000000 114.000000 199.000000 0.913582 -0.068822 0.400789
11.25000000 4.15999985 -1.00999999 118 138 127 97.000000 1.000000 4.000000 1.000000 0.000000 114.000000 199.000000 0.917518 0.207551 0.339238
11.25000000 4.15000010 -1.00999999 118 138 127 97.000000 1.000000 4.000000 1.000000 0.000000 114.000000 199.000000 0.952229 -0.123167 0.279444
11.25000000 4.11000013 -1.01999998 118 138 127 97.000000 1.000000 4.000000 1.000000 0.000000 114.000000 199.000000 0.848720 -0.249264 0.466414
11.25000000 4.09000015 -0.99000001 118 138 127 97.000000 1.000000 4.000000 1.000000 0.000000 114.000000 199.000000 0.936789 -0.290058 0.195685
11.21000004 4.11000013 -1.00000000 118 138 127 97.000000 1.000000 4.000000 1.000000 0.000000 114.000000 199.000000 0.799955 -0.452288 0.394344
11.25000000 4.09000015 -1.01999998 118 138 127 97.000000 1.000000 4.000000 1.000000 0.000000 114.000000 199.000000 -0.512575 0.777756 -0.363815
11.19999981 4.11999989 -0.99000001 118 138 127 97.000000 1.000000 4.000000 1.000000 0.000000 114.000000 199.000000 -0.542807 0.715443 -0.439889
11.17000008 4.09999990 -0.99000001 118 138 127 97.000000 1.000000 4.000000 1.000000 0.000000 114.000000 199.000000 0.018440 0.960098 0.279055
11.25000000 4.15999985 -1.05999994 118 138 127 97.000000 1.000000 4.000000 1.000000 0.000000 114.000000 199.000000 0.877911 0.056506 0.475478
11.23999977 4.13000011 -1.09000003 118 138 127 97.000000 1.000000 4.000000 1.000000 0.000000 114.000000 199.000000 0.728337 -0.476157 0.492747
11.22000027 4.09999990 -1.05999994 118 138 127 97.000000 1.000000 4.000000 1.000000 0.000000 114.000000 199.000000 -0.423805 0.849163 -0.315137
11.21000004 4.09999990 -1.05999994 118 138 127 97.000000 1.000000 4.000000 1.000000 0.000000 114.000000 199.000000 -0.104467 0.960841 -0.256654
11.21000004 4.11999989 -1.03999996 118 138 127 97.000000 1.000000 4.000000 1.000000 0.000000 114.000000 199.000000 0.727329 -0.521887 0.445675
11.22000027 4.11000013 -1.04999995 118 138 127 97.000000 1.000000 4.000000 1.000000 0.000000 114.000000 199.000000 0.837228 -0.422541 0.347143
11.22999954 4.09999990 -1.07000005 118 138 127 97.000000 1.000000 4.000000 1.000000 0.000000 114.000000 199.000000 0.737304 -0.540252 0.405599
