//X Y Z R G B PointSourceId ScanDirectionFlag NumberOfReturns ReturnNumber GpsTime Intensity Classification Nx Ny Nz
11.56999969 12.19999981 -0.04000000 21 75 207 0.000000 0.000000 0.000000 0.000000 0.000000 0.000000 251.000000 0.030609 0.427199 0.903639
11.56000042 12.22999954 -0.04000000 21 75 207 0.000000 0.000000 0.000000 0.000000 0.000000 0.000000 251.000000 0.332705 0.072327 0.940253
11.56000042 12.18000031 -0.06000000 21 75 207 0.000000 0.000000 0.000000 0.000000 0.000000 0.000000 251.000000 -0.203751 0.024733 0.978710
11.55000019 12.23999977 -0.04000000 21 75 207 0.000000 0.000000 0.000000 0.000000 0.000000 0.000000 251.000000 -0.036084 0.279961 0.959333
11.56000042 12.14999962 -0.06000000 21 75 207 0.000000 0.000000 0.000000 0.000000 0.000000 0.000000 251.000000 -0.027008 0.353672 0.934980
11.57999992 12.09000015 -0.07000000 21 75 207 0.000000 0.000000 0.000000 0.000000 0.000000 0.000000 251.000000 -0.523754 0.564172 0.638272
11.57999992 12.09000015 -0.07000000 21 75 207 0.000000 0.000000 0.000000 0.000000 0.000000 0.000000 251.000000 -0.523754 0.564172 0.638272
11.47999954 12.22999954 -0.04000000 21 75 207 0.000000 0.000000 0.000000 0.000000 0.000000 0.000000 251.000000 -0.247445 -0.296076 0.922556
11.52000046 12.22000027 -0.12000000 21 75 207 0.000000 0.000000 0.000000 0.000000 0.000000 0.000000 251.000000 -0.287535 0.135075 0.948197
11.51000023 12.19999981 -0.12000000 21 75 207 0.000000 0.000000 0.000000 0.000000 0.000000 0.000000 251.000000 -0.127915 0.061077 0.989903
11.52999973 12.14999962 -0.08000000 21 75 207 0.000000 0.000000 0.000000 0.000000 0.000000 0.000000 251.000000 -0.058393 0.244752 0.967826
11.50000000 12.22000027 -0.12000000 21 75 207 0.000000 0.000000 0.000000 0.000000 0.000000 0.000000 251.000000 -0.354281 0.019185 0.934942
11.47999954 12.23999977 -0.11000000 21 75 207 0.000000 0.000000 0.000000 0.000000 0.000000 0.000000 251.000000 0.262266 -0.308634 0.914309
11.50000000 12.19999981 -0.12000000 21 75 207 0.000000 0.000000 0.000000 0.000000 0.000000 0.000000 251.000000 -0.197432 0.277509 0.940218
11.48999977 12.22000027 -0.13000000 21 75 207 0.000000 0.000000 0.000000 0.000000 0.000000 0.000000 251.000000 -0.157623 -0.072293 0.984850
11.47999954 12.21000004 -0.14000000 21 75 207 0.000000 0.000000 0.000000 0.000000 0.000000 0.000000 251.000000 -0.306413 -0.213218 0.927712
11.47000027 12.18000031 -0.12000000 21 75 207 0.000000 0.000000 0.000000 0.000000 0.000000 0.000000 251.000000 0.033981 0.479813 0.876712
11.43000031 12.22000027 -0.11000000 21 75 207 0.000000 0.000000 0.000000 0.000000 0.000000 0.000000 251.000000 0.248662 -0.360486 0.899009
11.44999981 12.22000027 -0.13000000 21 75 207 0.000000 0.000000 0.000000 0.000000 0.000000 0.000000 251.000000 0.400735 0.027592 0.915778
11.43000031 12.23999977 -0.14000000 21 75 207 0.000000 0.000000 0.000000 0.000000 0.000000 0.000000 251.000000 0.378439 0.048788 0.924340
11.46000004 12.22000027 -0.13000000 21 75 207 0.000000 0.000000 0.000000 0.000000 0.000000 0.000000 251.000000 0.265881 -0.336391 0.903409
11.39999962 12.40999985 -0.03000000 21 75 207 0.000000 0.000000 0.000000 0.000000 0.000000 0.000000 251.000000 -0.299268 0.953366 -0.039145
11.40999985 12.40999985 0.00000000 21 75 207 0.000000 0.000000 0.000000 0.000000 0.000000 0.000000 251.000000 -0.409529 0.911102 0.046689
11.39999962 12.39999962 -0.05000000 21 75 207 0.000000 0.000000 0.000000 0.000000 0.000000 0.000000 251.000000 -0.092107 -0.738314 0.668138
11.42000008 12.36999989 -0.02000000 21 75 207 0.000000 0.000000 0.000000 0.000000 0.000000 0.000000 251.000000 -0.550330 0.791786 -0.264974
11.40999985 12.34000015 -0.01000000 21 75 207 0.000000 0.000000 0.000000 0.000000 0.000000 0.000000 251.000000 0.098396 -0.685832 0.721078
11.42000008 12.36999989 -0.04000000 21 75 207 0.000000 0.000000 0.000000 0.000000 0.000000 0.000000 251.000000 -0.474435 0.672256 -0.568316
11.36999989 12.39000034 -0.05000000 21 75 207 0.000000 0.000000 0.000000 0.000000 0.000000 0.000000 251.000000 -0.467951 0.732518 -0.494408
11.38000011 12.35999966 -0.05000000 21 75 207 0.000000 0.000000 0.000000 0.000000 0.000000 0.000000 251.000000 0.189519 0.817204 -0.544297
11.34000015 12.27999973 -0.07000000 21 75 207 0.000000 0.000000 0.000000 0.000000 0.000000 0.000000 251.000000 0.291468 -0.521491 0.801931
11.38000011 12.30000019 -0.07000000 21 75 207 0.000000 0.000000 0.000000 0.000000 0.000000 0.000000 251.000000 -0.082154 -0.370367 0.925245
11.30000019 12.39999962 -0.01000000 21 75 207 0.000000 0.000000 0.000000 0.000000 0.000000 0.000000 251.000000 -0.094464 0.792042 -0.603114
11.26000023 12.40999985 -0.07000000 21 75 207 0.000000 0.000000 0.000000 0.000000 0.000000 0.000000 251.000000 -0.180243 0.807306 -0.561934
11.38000011 12.26000023 -0.10000000 21 75 207 0.000000 0.000000 0.000000 0.000000 0.000000 0.000000 251.000000 0.475690 -0.159539 0.865024
11.35999966 12.25000000 -0.09000000 21 75 207 0.000000 0.000000 0.000000 0.000000 0.000000 0.000000 251.000000 -0.026301 -0.574471 0.818102
11.27000046 12.35000038 -0.08000000 21 75 207 0.000000 0.000000 0.000000 0.000000 0.000000 0.000000 251.000000 -0.061501 0.895181 -0.441440
11.27000046 12.35000038 -0.10000000 21 75 207 0.000000 0.000000 0.000000 0.000000 0.000000 0.000000 251.000000 0.499672 -0.624170 0.600616
11.32999992 12.30000019 -0.09000000 21 75 207 0.000000 0.000000 0.000000 0.000000 0.000000 0.000000 251.000000 0.264489 -0.603414 0.752288
11.28999996 12.31999969 -0.11000000 21 75 207 0.000000 0.000000 0.000000 0.000000 0.000000 0.000000 251.000000 0.235768 -0.427986 0.872491
11.28999996 12.27999973 -0.11000000 21 75 207 0.000000 0.000000 0.000000 0.000000 0.000000 0.000000 251.000000 -0.135075 -0.287535 0.948197
11.28999996 12.27999973 -0.10000000 21 75 207 0.000000 0.000000 0.000000 0.000000 0.000000 0.000000 251.000000 0.032786 -0.392124 0.919328
11.27000046 12.27000046 -0.10000000 21 75 207 0.000000 0.000000 0.000000 0.000000 0.000000 0.000000 251.000000 0.097857 -0.623654 0.775551
11.32999992 12.31000042 -0.08000000 21 75 207 0.000000 0.000000 0.000000 0.000000 0.000000 0.000000 251.000000 -0.322169 0.701001 -0.636243
11.38000011 12.21000004 -0.06000000 21 75 207 0.000000 0.000000 0.000000 0.000000 0.000000 0.000000 251.000000 -0.123052 -0.115884 0.985611
11.39000034 12.23999977 -0.13000000 21 75 207 0.000000 0.000000 0.000000 0.000000 0.000000 0.000000 251.000000 0.312846 -0.044692 0.948752
11.40999985 12.23999977 -0.13000000 21 75 207 0.000000 0.000000 0.000000 0.000000 0.000000 0.000000 251.000000 0.245618 -0.109307 0.963184
11.39000034 12.18999958 -0.11000000 21 75 207 0.000000 0.000000 0.000000 0.000000 0.000000 0.000000 251.000000 0.385802 -0.032695 0.922002
11.39999962 12.18000031 -0.11000000 21 75 207 0.000000 0.000000 0.000000 0.000000 0.000000 0.000000 251.000000 -0.096152 -0.098469 0.990484
11.40999985 12.15999985 -0.11000000 21 75 207 0.000000 0.000000 0.000000 0.000000 0.000000 0.000000 251.000000 0.160538 0.055075 0.985492
11.42000008 12.18000031 -0.12000000 21 75 207 0.000000 0.000000 0.000000 0.000000 0.000000 0.000000 251.000000 -0.323939 0.309011 0.894190
11.39000034 12.17000008 -0.11000000 21 75 207 0.000000 0.000000 0.000000 0.000000 0.000000 0.000000 251.000000 0.108837 -0.046003 0.992995
11.39000034 12.18999958 -0.10000000 21 75 207 0.000000 0.000000 0.000000 0.000000 0.000000 0.000000 251.000000 0.093842 -0.313246 0.945024
11.39000034 12.15999985 -0.12000000 21 75 207 0.000000 0.000000 0.000000 0.000000 0.000000 0.000000 251.000000 0.231025 -0.159738 0.959745
11.36999989 12.19999981 -0.11000000 21 75 207 0.000000 0.000000 0.000000 0.000000 0.000000 0.000000 251.000000 -0.128492 0.005491 0.991695
11.35000038 12.23999977 -0.10000000 21 75 207 0.000000 0.000000 0.000000 0.000000 0.000000 0.000000 251.000000 0.129389 -0.289457 0.948406
11.34000015 12.21000004 -0.10000000 21 75 207 0.000000 0.000000 0.000000 0.000000 0.000000 0.000000 251.000000 0.178750 0.019605 0.983699
11.34000015 12.22000027 -0.11000000 21 75 207 0.000000 0.000000 0.000000 0.000000 0.000000 0.000000 251.000000 0.196509 -0.242587 0.950019
11.34000015 12.22000027 -0.11000000 21 75 207 0.000000 0.000000 0.000000 0.000000 0.000000 0.000000 251.000000 0.196509 -0.242587 0.950019
11.36999989 12.22000027 -0.10000000 21 75 207 0.000000 0.000000 0.000000 0.000000 0.000000 0.000000 251.000000 -0.150465 0.003344 0.988610
11.35000038 12.17000008 -0.10000000 21 75 207 0.000000 0.000000 0.000000 0.000000 0.000000 0.000000 251.000000 0.096650 0.045548 0.994276
11.35000038 12.15999985 -0.12000000 21 75 207 0.000000 0.000000 0.000000 0.000000 0.000000 0.000000 251.000000 -0.187784 -0.038974 0.981437
11.38000011 12.18999958 -0.10000000 21 75 207 0.000000 0.000000 0.000000 0.000000 0.000000 0.000000 251.000000 0.234192 -0.265043 0.935364
11.35999966 12.18000031 -0.10000000 21 75 207 0.000000 0.000000 0.000000 0.000000 0.000000 0.000000 251.000000 0.083350 -0.061123 0.994644
11.38000011 12.14000034 -0.11000000 21 75 207 0.000000 0.000000 0.000000 0.000000 0.000000 0.000000 251.000000 -0.046868 0.207903 0.977026
11.35999966 12.14999962 -0.10000000 21 75 207 0.000000 0.000000 0.000000 0.000000 0.000000 0.000000 251.000000 0.387110 0.046242 0.920873
11.38000011 12.13000011 -0.11000000 21 75 207 0.000000 0.000000 0.000000 0.000000 0.000000 0.000000 251.000000 -0.121012 0.293886 0.948149
11.30000019 12.21000004 -0.09000000 21 75 207 0.000000 0.000000 0.000000 0.000000 0.000000 0.000000 251.000000 0.331179 -0.006249 0.943547
11.32999992 12.23999977 -0.10000000 21 75 207 0.000000 0.000000 0.000000 0.000000 0.000000 0.000000 251.000000 0.077801 -0.084567 0.993376
11.31000042 12.23999977 -0.09000000 21 75 207 0.000000 0.000000 0.000000 0.000000 0.000000 0.000000 251.000000 -0.017631 -0.046671 0.998755
11.31999969 12.22000027 -0.10000000 21 75 207 0.000000 0.000000 0.000000 0.000000 0.000000 0.000000 251.000000 0.204639 -0.056911 0.977182
11.31999969 12.22000027 -0.10000000 21 75 207 0.000000 0.000000 0.000000 0.000000 0.000000 0.000000 251.000000 0.204639 -0.056911 0.977182
11.32999992 12.15999985 -0.12000000 21 75 207 0.000000 0.000000 0.000000 0.000000 0.000000 0.000000 251.000000 -0.083163 0.092276 0.992255
11.27000046 12.15999985 -0.12000000 21 75 207 0.000000 0.000000 0.000000 0.000000 0.000000 0.000000 251.000000 -0.168645 -0.019503 0.985484
11.26000023 12.17000008 -0.14000000 21 75 207 0.000000 0.000000 0.000000 0.000000 0.000000 0.000000 251.000000 0.343826 0.056215 0.937349
11.28999996 12.13000011 -0.11000000 21 75 207 0.000000 0.000000 0.000000 0.000000 0.000000 0.000000 251.000000 -0.323520 0.165231 0.931683
11.56000042 12.01000023 -0.06000000 21 75 207 0.000000 0.000000 0.000000 0.000000 0.000000 0.000000 251.000000 0.322098 -0.704084 -0.632866
11.56999969 11.98999977 -0.06000000 21 75 207 0.000000 0.000000 0.000000 0.000000 0.000000 0.000000 251.000000 0.172261 0.893154 0.415454
11.59000015 11.89999962 -0.07000000 21 75 207 0.000000 0.000000 0.000000 0.000000 0.000000 0.000000 251.000000 -0.433489 0.837244 0.333333
11.59000015 11.94999981 -0.07000000 21 75 207 0.000000 0.000000 0.000000 0.000000 0.000000 0.000000 251.000000 -0.387839 0.892176 0.231523
11.59000015 11.89999962 -0.07000000 21 75 207 0.000000 0.000000 0.000000 0.000000 0.000000 0.000000 251.000000 -0.433489 0.837244 0.333333
11.57999992 12.02999973 -0.10000000 21 75 207 0.000000 0.000000 0.000000 0.000000 0.000000 0.000000 251.000000 0.199435 0.712708 0.672512
11.52000046 12.06999969 -0.09000000 21 75 207 0.000000 0.000000 0.000000 0.000000 0.000000 0.000000 251.000000 0.229505 0.747844 0.622943
11.50000000 11.85000038 -0.07000000 21 75 207 0.000000 0.000000 0.000000 0.000000 0.000000 0.000000 251.000000 0.035709 0.987189 0.155508
11.52999973 11.81999969 -0.10000000 21 75 207 0.000000 0.000000 0.000000 0.000000 0.000000 0.000000 251.000000 0.018055 0.790269 0.612494
11.51000023 11.82999992 -0.12000000 21 75 207 0.000000 0.000000 0.000000 0.000000 0.000000 0.000000 251.000000 0.009452 0.857455 0.514473
11.23999977 12.40999985 -0.04000000 21 75 207 0.000000 0.000000 0.000000 0.000000 0.000000 0.000000 251.000000 -0.126103 -0.784805 0.606777
11.25000000 12.35999966 -0.05000000 21 75 207 0.000000 0.000000 0.000000 0.000000 0.000000 0.000000 251.000000 -0.232674 0.902893 -0.361450
11.17000008 12.39999962 -0.07000000 21 75 207 0.000000 0.000000 0.000000 0.000000 0.000000 0.000000 251.000000 -0.356776 0.741248 -0.568562
11.19999981 12.35999966 -0.06000000 21 75 207 0.000000 0.000000 0.000000 0.000000 0.000000 0.000000 251.000000 -0.601922 0.681515 -0.416205
11.22999954 12.31000042 -0.07000000 21 75 207 0.000000 0.000000 0.000000 0.000000 0.000000 0.000000 251.000000 -0.116094 -0.583408 0.803839
11.22999954 12.27999973 -0.07000000 21 75 207 0.000000 0.000000 0.000000 0.000000 0.000000 0.000000 251.000000 0.232006 -0.423598 0.875636
11.22999954 12.32999992 -0.11000000 21 75 207 0.000000 0.000000 0.000000 0.000000 0.000000 0.000000 251.000000 -0.076467 -0.627605 0.774768
11.21000004 12.35999966 -0.10000000 21 75 207 0.000000 0.000000 0.000000 0.000000 0.000000 0.000000 251.000000 -0.012398 0.808614 -0.588208
11.21000004 12.36999989 -0.09000000 21 75 207 0.000000 0.000000 0.000000 0.000000 0.000000 0.000000 251.000000 -0.260713 0.938288 -0.227253
11.21000004 12.35999966 -0.14000000 21 75 207 0.000000 0.000000 0.000000 0.000000 0.000000 0.000000 251.000000 0.257991 -0.349394 0.900758
11.17000008 12.30000019 -0.11000000 21 75 207 0.000000 0.000000 0.000000 0.000000 0.000000 0.000000 251.000000 -0.310217 0.820422 -0.480285
11.18999958 12.31000042 -0.11000000 21 75 207 0.000000 0.000000 0.000000 0.000000 0.000000 0.000000 251.000000 -0.102454 -0.535357 0.838389
11.17000008 12.28999996 -0.13000000 21 75 207 0.000000 0.000000 0.000000 0.000000 0.000000 0.000000 251.000000 0.156382 -0.699924 0.696887
11.17000008 12.27999973 -0.15000001 21 75 207 0.000000 0.000000 0.000000 0.000000 0.000000 0.000000 251.000000 -0.052689 0.764697 -0.642232
11.14000034 12.32999992 -0.13000000 21 75 207 0.000000 0.000000 0.000000 0.000000 0.000000 0.000000 251.000000 -0.132544 -0.511241 0.849155
11.13000011 12.36999989 -0.16000000 21 75 207 0.000000 0.000000 0.000000 0.000000 0.000000 0.000000 251.000000 0.532372 -0.616875 0.579694
11.15999985 12.30000019 -0.12000000 21 75 207 0.000000 0.000000 0.000000 0.000000 0.000000 0.000000 251.000000 0.165370 0.754025 -0.635687
11.13000011 12.31000042 -0.08000000 21 75 207 0.000000 0.000000 0.000000 0.000000 0.000000 0.000000 251.000000 -0.452935 0.650154 -0.610041
11.14999962 12.26000023 -0.14000000 21 75 207 0.000000 0.000000 0.000000 0.000000 0.000000 0.000000 251.000000 -0.082477 -0.200653 0.976184
11.09000015 12.30000019 -0.16000000 21 75 207 0.000000 0.000000 0.000000 0.000000 0.000000 0.000000 251.000000 -0.072899 -0.573183 0.816178
11.10999966 12.27999973 -0.18000001 21 75 207 0.000000 0.000000 0.000000 0.000000 0.000000 0.000000 251.000000 0.047175 -0.435358 0.899021
11.14000034 12.26000023 -0.17000000 21 75 207 0.000000 0.000000 0.000000 0.000000 0.000000 0.000000 251.000000 -0.157914 -0.308962 0.937873
11.17000008 12.23999977 -0.07000000 21 75 207 0.000000 0.000000 0.000000 0.000000 0.000000 0.000000 251.000000 0.146280 -0.656000 0.740450
11.23999977 12.22999954 -0.11000000 21 75 207 0.000000 0.000000 0.000000 0.000000 0.000000 0.000000 251.000000 0.033177 -0.415374 0.909045
11.21000004 12.19999981 -0.13000000 21 75 207 0.000000 0.000000 0.000000 0.000000 0.000000 0.000000 251.000000 -0.153223 -0.477180 0.865345
11.22000027 12.22000027 -0.15000001 21 75 207 0.000000 0.000000 0.000000 0.000000 0.000000 0.000000 251.000000 -0.162237 -0.466249 0.869650
11.22000027 12.18000031 -0.12000000 21 75 207 0.000000 0.000000 0.000000 0.000000 0.000000 0.000000 251.000000 -0.046293 -0.007201 0.998902
11.22000027 12.18000031 -0.12000000 21 75 207 0.000000 0.000000 0.000000 0.000000 0.000000 0.000000 251.000000 -0.046293 -0.007201 0.998902
11.22000027 12.17000008 -0.12000000 21 75 207 0.000000 0.000000 0.000000 0.000000 0.000000 0.000000 251.000000 0.195909 -0.322756 0.925985
11.25000000 12.18000031 -0.14000000 21 75 207 0.000000 0.000000 0.000000 0.000000 0.000000 0.000000 251.000000 0.296167 -0.225314 0.928180
11.18999958 12.22999954 -0.13000000 21 75 207 0.000000 0.000000 0.000000 0.000000 0.000000 0.000000 251.000000 0.136498 -0.700489 0.700489
11.18000031 12.18000031 -0.15000001 21 75 207 0.000000 0.000000 0.000000 0.000000 0.000000 0.000000 251.000000 0.235002 0.207834 0.949515
11.14999962 12.23999977 -0.15000001 21 75 207 0.000000 0.000000 0.000000 0.000000 0.000000 0.000000 251.000000 -0.296457 -0.384634 0.874168
11.15999985 12.17000008 -0.15000001 21 75 207 0.000000 0.000000 0.000000 0.000000 0.000000 0.000000 251.000000 -0.157201 -0.270063 0.949923
11.10000038 12.18000031 -0.16000000 21 75 207 0.000000 0.000000 0.000000 0.000000 0.000000 0.000000 173.000000 -0.256676 -0.135578 0.956941
11.10000038 12.18999958 -0.16000000 21 75 207 0.000000 0.000000 0.000000 0.000000 0.000000 0.000000 251.000000 -0.247429 -0.187938 0.950504
11.09000015 12.18000031 -0.18000001 21 75 207 0.000000 0.000000 0.000000 0.000000 0.000000 0.000000 173.000000 -0.240875 -0.042795 0.969612
11.07999992 12.21000004 -0.18000001 21 75 207 0.000000 0.000000 0.000000 0.000000 0.000000 0.000000 251.000000 0.012302 -0.142037 0.989785
11.10999966 12.17000008 -0.18000001 21 75 207 0.000000 0.000000 0.000000 0.000000 0.000000 0.000000 173.000000 -0.187739 -0.219694 0.957334
11.10000038 12.22999954 -0.17000000 21 75 207 0.000000 0.000000 0.000000 0.000000 0.000000 0.000000 251.000000 0.334572 -0.159650 0.928748
11.10999966 12.11999989 -0.14000000 21 75 207 0.000000 0.000000 0.000000 0.000000 0.000000 0.000000 173.000000 -0.371528 0.054209 0.926838
11.07999992 12.11999989 -0.20999999 21 75 207 0.000000 0.000000 0.000000 0.000000 0.000000 0.000000 173.000000 0.372858 -0.021933 0.927629
11.02999973 12.39000034 -0.13000000 21 75 207 0.000000 0.000000 0.000000 0.000000 0.000000 0.000000 251.000000 -0.077822 0.960651 -0.266635
11.02000046 12.38000011 -0.13000000 21 75 207 0.000000 0.000000 0.000000 0.000000 0.000000 0.000000 251.000000 -0.111459 0.887439 -0.447247
11.01000023 12.35000038 -0.16000000 21 75 207 0.000000 0.000000 0.000000 0.000000 0.000000 0.000000 251.000000 -0.090745 0.886509 -0.453725
11.00000000 12.39999962 -0.18000001 21 75 207 0.000000 0.000000 0.000000 0.000000 0.000000 0.000000 251.000000 -0.570395 0.597476 -0.563625
11.02000046 12.38000011 -0.17000000 21 75 207 0.000000 0.000000 0.000000 0.000000 0.000000 0.000000 251.000000 -0.014472 0.903857 -0.427589
11.05000019 12.31000042 -0.17000000 21 75 207 0.000000 0.000000 0.000000 0.000000 0.000000 0.000000 251.000000 0.235780 -0.601161 0.763553
10.98999977 12.34000015 -0.17000000 21 75 207 0.000000 0.000000 0.000000 0.000000 0.000000 0.000000 251.000000 -0.164960 -0.615952 0.770319
11.01000023 12.18000031 -0.15000001 21 75 207 0.000000 0.000000 0.000000 0.000000 0.000000 0.000000 173.000000 0.091895 -0.331621 0.938927
11.06000042 12.17000008 -0.15000001 21 75 207 0.000000 0.000000 0.000000 0.000000 0.000000 0.000000 173.000000 0.315047 -0.456113 0.832289
11.05000019 12.23999977 -0.18000001 21 75 207 0.000000 0.000000 0.000000 0.000000 0.000000 0.000000 251.000000 -0.178800 -0.194461 0.964477
11.02999973 12.18000031 -0.17000000 21 75 207 0.000000 0.000000 0.000000 0.000000 0.000000 0.000000 173.000000 -0.298834 -0.301778 0.905333
11.06999969 12.17000008 -0.18000001 21 75 207 0.000000 0.000000 0.000000 0.000000 0.000000 0.000000 173.000000 0.323716 -0.140687 0.935636
11.02999973 12.22999954 -0.18000001 21 75 207 0.000000 0.000000 0.000000 0.000000 0.000000 0.000000 173.000000 0.424527 -0.147227 0.893365
11.02999973 12.18000031 -0.18000001 21 75 207 0.000000 0.000000 0.000000 0.000000 0.000000 0.000000 173.000000 -0.168552 -0.181419 0.968854
11.02999973 12.17000008 -0.17000000 21 75 207 0.000000 0.000000 0.000000 0.000000 0.000000 0.000000 173.000000 -0.119596 -0.230190 0.965769
11.06999969 12.10999966 -0.16000000 21 75 207 0.000000 0.000000 0.000000 0.000000 0.000000 0.000000 173.000000 0.013392 -0.269064 0.963029
11.03999996 12.11999989 -0.16000000 21 75 207 0.000000 0.000000 0.000000 0.000000 0.000000 0.000000 173.000000 0.443030 -0.105483 0.890280
11.02000046 12.11999989 -0.15000001 21 75 207 0.000000 0.000000 0.000000 0.000000 0.000000 0.000000 173.000000 -0.255747 -0.219804 0.941424
11.06000042 12.13000011 -0.17000000 21 75 207 0.000000 0.000000 0.000000 0.000000 0.000000 0.000000 173.000000 0.066890 -0.146688 0.986919
11.02999973 12.09000015 -0.20000000 21 75 207 0.000000 0.000000 0.000000 0.000000 0.000000 0.000000 173.000000 0.132860 -0.188534 0.973038
10.96000004 12.15999985 -0.15000001 21 75 207 0.000000 0.000000 0.000000 0.000000 0.000000 0.000000 173.000000 -0.034757 -0.343706 0.938434
10.93000031 12.19999981 -0.11000000 21 75 207 0.000000 0.000000 0.000000 0.000000 0.000000 0.000000 173.000000 0.308365 -0.634489 0.708755
10.94999981 12.22000027 -0.16000000 21 75 207 0.000000 0.000000 0.000000 0.000000 0.000000 0.000000 173.000000 0.523873 -0.281601 0.803901
10.93000031 12.17000008 -0.12000000 21 75 207 0.000000 0.000000 0.000000 0.000000 0.000000 0.000000 173.000000 0.485375 -0.426542 0.763199
10.90999985 12.18000031 -0.12000000 21 75 207 0.000000 0.000000 0.000000 0.000000 0.000000 0.000000 173.000000 -0.109992 -0.112357 0.987561
10.92000008 12.15999985 -0.12000000 21 75 207 0.000000 0.000000 0.000000 0.000000 0.000000 0.000000 173.000000 0.129253 -0.604668 0.785920
10.94999981 12.18000031 -0.18000001 21 75 207 0.000000 0.000000 0.000000 0.000000 0.000000 0.000000 173.000000 0.340732 -0.406078 0.847940
10.93999958 12.18999958 -0.17000000 21 75 207 0.000000 0.000000 0.000000 0.000000 0.000000 0.000000 173.000000 0.357853 -0.529493 0.769141
10.98999977 12.15999985 -0.19000000 21 75 207 0.000000 0.000000 0.000000 0.000000 0.000000 0.000000 173.000000 -0.059028 -0.085758 0.994566
10.92000008 12.14000034 -0.13000000 21 75 207 0.000000 0.000000 0.000000 0.000000 0.000000 0.000000 173.000000 0.228301 -0.010646 0.973532
10.97000027 12.13000011 -0.15000001 21 75 207 0.000000 0.000000 0.000000 0.000000 0.000000 0.000000 173.000000 0.408585 -0.043920 0.911663
10.97999954 12.14999962 -0.15000001 21 75 207 0.000000 0.000000 0.000000 0.000000 0.000000 0.000000 173.000000 0.077499 -0.327074 0.941815
10.97000027 12.11999989 -0.18000001 21 75 207 0.000000 0.000000 0.000000 0.000000 0.000000 0.000000 173.000000 -0.023133 -0.259336 0.965510
10.97000027 12.07999992 -0.19000000 21 75 207 0.000000 0.000000 0.000000 0.000000 0.000000 0.000000 173.000000 0.076148 -0.182513 0.980250
10.97000027 12.07999992 -0.19000000 21 75 207 0.000000 0.000000 0.000000 0.000000 0.000000 0.000000 173.000000 0.076148 -0.182513 0.980250
10.93999958 12.11999989 -0.19000000 21 75 207 0.000000 0.000000 0.000000 0.000000 0.000000 0.000000 173.000000 0.081414 -0.437430 0.895559
10.93000031 12.07999992 -0.18000001 21 75 207 0.000000 0.000000 0.000000 0.000000 0.000000 0.000000 173.000000 0.298994 0.049620 0.952964
10.93999958 12.10000038 -0.18000001 21 75 207 0.000000 0.000000 0.000000 0.000000 0.000000 0.000000 173.000000 0.297687 -0.107167 0.948629
10.93000031 12.10999966 -0.19000000 21 75 207 0.000000 0.000000 0.000000 0.000000 0.000000 0.000000 173.000000 -0.126384 -0.248859 0.960258
10.92000008 12.10000038 -0.19000000 21 75 207 0.000000 0.000000 0.000000 0.000000 0.000000 0.000000 173.000000 -0.025472 0.017321 0.999525
11.14000034 11.98999977 -0.22000000 21 75 207 0.000000 0.000000 0.000000 0.000000 0.000000 0.000000 173.000000 -0.314362 0.296652 0.901762
11.10000038 12.05000019 -0.23000000 21 75 207 0.000000 0.000000 0.000000 0.000000 0.000000 0.000000 173.000000 -0.323705 -0.008749 0.946118
11.09000015 11.98999977 -0.23000000 21 75 207 0.000000 0.000000 0.000000 0.000000 0.000000 0.000000 173.000000 -0.302614 0.527595 0.793769
11.10999966 12.01000023 -0.22000000 21 75 207 0.000000 0.000000 0.000000 0.000000 0.000000 0.000000 173.000000 0.075390 0.013804 0.997059
11.05000019 12.05000019 -0.22000000 21 75 207 0.000000 0.000000 0.000000 0.000000 0.000000 0.000000 173.000000 0.117454 -0.082567 0.989640
11.05000019 12.02999973 -0.23000000 21 75 207 0.000000 0.000000 0.000000 0.000000 0.000000 0.000000 173.000000 0.201907 0.212604 0.956051
11.02000046 12.02999973 -0.19000000 21 75 207 0.000000 0.000000 0.000000 0.000000 0.000000 0.000000 173.000000 0.182128 0.219351 0.958496
11.02000046 12.06999969 -0.20000000 21 75 207 0.000000 0.000000 0.000000 0.000000 0.000000 0.000000 173.000000 0.112482 -0.295101 0.948822
11.00000000 11.98999977 -0.20000000 21 75 207 0.000000 0.000000 0.000000 0.000000 0.000000 0.000000 173.000000 0.312705 0.148842 0.938116
11.06999969 11.93000031 -0.25000000 21 75 207 0.000000 0.000000 0.000000 0.000000 0.000000 0.000000 173.000000 0.263357 0.436898 0.860095
11.00000000 11.94999981 -0.23999999 21 75 207 0.000000 0.000000 0.000000 0.000000 0.000000 0.000000 173.000000 0.081651 0.188895 0.978597
10.96000004 11.98999977 -0.23000000 21 75 207 0.000000 0.000000 0.000000 0.000000 0.000000 0.000000 173.000000 -0.006918 0.640577 0.767863
10.94999981 12.02000046 -0.22000000 21 75 207 0.000000 0.000000 0.000000 0.000000 0.000000 0.000000 173.000000 -0.061501 0.441440 0.895181
11.03999996 11.93999958 -0.25999999 21 75 207 0.000000 0.000000 0.000000 0.000000 0.000000 0.000000 173.000000 -0.437330 0.315936 0.841978
11.02000046 11.92000008 -0.27000001 21 75 207 0.000000 0.000000 0.000000 0.000000 0.000000 0.000000 173.000000 -0.009702 0.769207 0.638927
10.85999966 12.14000034 -0.05000000 21 75 207 0.000000 0.000000 0.000000 0.000000 0.000000 0.000000 173.000000 0.280989 -0.371146 0.885040
10.82999992 12.14999962 -0.04000000 21 75 207 0.000000 0.000000 0.000000 0.000000 0.000000 0.000000 173.000000 0.460327 -0.533447 0.709601
10.81999969 12.15999985 -0.04000000 21 75 207 0.000000 0.000000 0.000000 0.000000 0.000000 0.000000 173.000000 0.122625 -0.367875 0.921754
10.77999973 12.19999981 -0.03000000 21 75 207 0.000000 0.000000 0.000000 0.000000 0.000000 0.000000 173.000000 0.440006 -0.559554 0.702349
10.88000011 12.17000008 -0.11000000 21 75 207 0.000000 0.000000 0.000000 0.000000 0.000000 0.000000 173.000000 -0.176918 -0.498047 0.848910
10.88000011 12.17000008 -0.11000000 21 75 207 0.000000 0.000000 0.000000 0.000000 0.000000 0.000000 173.000000 -0.176918 -0.498047 0.848910
10.82999992 12.22999954 -0.10000000 21 75 207 0.000000 0.000000 0.000000 0.000000 0.000000 0.000000 173.000000 -0.235785 0.821394 -0.519343
10.85000038 12.23999977 -0.11000000 21 75 207 0.000000 0.000000 0.000000 0.000000 0.000000 0.000000 173.000000 -0.072362 0.902478 -0.424615
10.84000015 12.22000027 -0.13000000 21 75 207 0.000000 0.000000 0.000000 0.000000 0.000000 0.000000 173.000000 0.015320 -0.742306 0.669886
10.84000015 12.18999958 -0.13000000 21 75 207 0.000000 0.000000 0.000000 0.000000 0.000000 0.000000 173.000000 0.021010 -0.668120 0.743757
10.89000034 12.13000011 -0.16000000 21 75 207 0.000000 0.000000 0.000000 0.000000 0.000000 0.000000 173.000000 -0.127011 -0.337330 0.932779
10.89999962 12.13000011 -0.16000000 21 75 207 0.000000 0.000000 0.000000 0.000000 0.000000 0.000000 173.000000 -0.047470 -0.322023 0.945541
10.89999962 12.13000011 -0.16000000 21 75 207 0.000000 0.000000 0.000000 0.000000 0.000000 0.000000 173.000000 -0.047470 -0.322023 0.945541
11.89000034 12.18999958 -0.01000000 21 75 207 0.000000 0.000000 0.000000 0.000000 0.000000 0.000000 251.000000 0.058848 0.664548 0.744925
11.89999962 12.15999985 -0.01000000 21 75 207 0.000000 0.000000 0.000000 0.000000 0.000000 0.000000 251.000000 -0.479591 0.841199 0.249755
11.89000034 12.18999958 -0.01000000 21 75 207 0.000000 0.000000 0.000000 0.000000 0.000000 0.000000 251.000000 0.058848 0.664548 0.744925
11.89000034 12.18999958 -0.01000000 21 75 207 0.000000 0.000000 0.000000 0.000000 0.000000 0.000000 251.000000 0.058848 0.664548 0.744925
11.88000011 12.18999958 -0.02000000 21 75 207 0.000000 0.000000 0.000000 0.000000 0.000000 0.000000 251.000000 -0.128958 0.795980 0.591427
11.88000011 12.14999962 0.00000000 21 75 207 0.000000 0.000000 0.000000 0.000000 0.000000 0.000000 251.000000 -0.447385 0.887714 0.108671
11.84000015 12.15999985 0.04000000 21 75 207 0.000000 0.000000 0.000000 0.000000 0.000000 0.000000 251.000000 -0.345288 0.928563 -0.136189
11.69999981 12.34000015 0.04000000 21 75 207 0.000000 0.000000 0.000000 0.000000 0.000000 0.000000 251.000000 -0.433255 0.820487 -0.372949
11.72000027 12.26000023 0.03000000 21 75 207 0.000000 0.000000 0.000000 0.000000 0.000000 0.000000 251.000000 -0.191470 0.279629 0.940822
11.69999981 12.27999973 0.03000000 21 75 207 0.000000 0.000000 0.000000 0.000000 0.000000 0.000000 251.000000 0.018640 -0.301971 0.953135
11.69999981 12.28999996 0.02000000 21 75 207 0.000000 0.000000 0.000000 0.000000 0.000000 0.000000 251.000000 0.162493 0.727420 -0.666675
11.67000008 12.27000046 0.03000000 21 75 207 0.000000 0.000000 0.000000 0.000000 0.000000 0.000000 251.000000 0.120149 -0.377019 0.918380
11.73999977 12.22999954 0.04000000 21 75 207 0.000000 0.000000 0.000000 0.000000 0.000000 0.000000 251.000000 0.017196 0.984753 0.173106
11.68000031 12.18999958 0.00000000 21 75 207 0.000000 0.000000 0.000000 0.000000 0.000000 0.000000 251.000000 0.150670 0.562402 0.813021
11.64999962 12.19999981 -0.02000000 21 75 207 0.000000 0.000000 0.000000 0.000000 0.000000 0.000000 251.000000 0.253549 0.369203 0.894093
11.72000027 11.85999966 -0.09000000 21 75 207 0.000000 0.000000 0.000000 0.000000 0.000000 0.000000 251.000000 -0.211734 0.768115 0.604292
11.68000031 11.88000011 -0.11000000 21 75 207 0.000000 0.000000 0.000000 0.000000 0.000000 0.000000 251.000000 -0.013991 0.995509 0.093632
11.56000042 12.43999958 0.03000000 21 75 207 0.000000 0.000000 0.000000 0.000000 0.000000 0.000000 251.000000 -0.175608 0.974054 0.142760
11.53999996 12.42000008 0.03000000 21 75 207 0.000000 0.000000 0.000000 0.000000 0.000000 0.000000 251.000000 -0.003038 0.999437 -0.033416
11.50000000 12.52999973 0.01000000 21 75 207 0.000000 0.000000 0.000000 0.000000 0.000000 0.000000 251.000000 -0.260779 0.807321 -0.529365
11.48999977 12.47999954 0.01000000 21 75 207 0.000000 0.000000 0.000000 0.000000 0.000000 0.000000 251.000000 -0.301705 0.927778 0.219550
11.47999954 12.43000031 -0.02000000 21 75 207 0.000000 0.000000 0.000000 0.000000 0.000000 0.000000 251.000000 -0.045613 0.967739 -0.247791
11.35000038 12.64000034 -0.04000000 21 75 207 0.000000 0.000000 0.000000 0.000000 0.000000 0.000000 251.000000 -0.029954 0.925980 -0.376383
11.35000038 12.64000034 -0.05000000 21 75 207 0.000000 0.000000 0.000000 0.000000 0.000000 0.000000 251.000000 -0.559930 0.815389 -0.147037
11.31999969 12.60999966 -0.04000000 21 75 207 0.000000 0.000000 0.000000 0.000000 0.000000 0.000000 251.000000 0.093039 0.898456 -0.429093
11.38000011 12.46000004 -0.02000000 21 75 207 0.000000 0.000000 0.000000 0.000000 0.000000 0.000000 251.000000 -0.471671 0.736469 -0.484911
11.36999989 12.42000008 -0.03000000 21 75 207 0.000000 0.000000 0.000000 0.000000 0.000000 0.000000 251.000000 -0.466829 0.883592 -0.036534
11.27999973 12.57999992 -0.07000000 21 75 207 0.000000 0.000000 0.000000 0.000000 0.000000 0.000000 251.000000 -0.201506 0.956818 -0.209512
11.31000042 12.44999981 -0.05000000 21 75 207 0.000000 0.000000 0.000000 0.000000 0.000000 0.000000 251.000000 -0.490944 0.820331 -0.293311
11.22999954 12.51000023 -0.04000000 21 75 207 0.000000 0.000000 0.000000 0.000000 0.000000 0.000000 251.000000 -0.501321 0.819917 -0.276429
11.23999977 12.52999973 -0.08000000 21 75 207 0.000000 0.000000 0.000000 0.000000 0.000000 0.000000 251.000000 -0.369505 0.642118 -0.671678
11.51000023 12.38000011 0.01000000 21 75 207 0.000000 0.000000 0.000000 0.000000 0.000000 0.000000 251.000000 -0.150269 0.917060 -0.369352
11.51000023 12.35000038 0.02000000 21 75 207 0.000000 0.000000 0.000000 0.000000 0.000000 0.000000 251.000000 -0.439646 0.786820 -0.433157
11.52999973 12.35000038 0.04000000 21 75 207 0.000000 0.000000 0.000000 0.000000 0.000000 0.000000 251.000000 -0.297061 0.947132 -0.121222
11.52999973 12.35999966 -0.03000000 21 75 207 0.000000 0.000000 0.000000 0.000000 0.000000 0.000000 251.000000 0.022945 0.875957 -0.481844
11.56999969 12.36999989 -0.01000000 21 75 207 0.000000 0.000000 0.000000 0.000000 0.000000 0.000000 251.000000 -0.191535 0.932508 -0.306176
11.57999992 12.30000019 -0.05000000 21 75 207 0.000000 0.000000 0.000000 0.000000 0.000000 0.000000 251.000000 0.046281 -0.186312 0.981400
11.56000042 12.26000023 -0.04000000 21 75 207 0.000000 0.000000 0.000000 0.000000 0.000000 0.000000 251.000000 0.267236 -0.067126 0.961290
11.52999973 12.30000019 -0.02000000 21 75 207 0.000000 0.000000 0.000000 0.000000 0.000000 0.000000 251.000000 0.351515 -0.312290 0.882560
11.51000023 12.30000019 -0.01000000 21 75 207 0.000000 0.000000 0.000000 0.000000 0.000000 0.000000 251.000000 -0.212847 0.728652 -0.650970
11.52999973 12.31999969 -0.05000000 21 75 207 0.000000 0.000000 0.000000 0.000000 0.000000 0.000000 251.000000 -0.286389 0.840590 -0.459770
11.55000019 12.31999969 -0.04000000 21 75 207 0.000000 0.000000 0.000000 0.000000 0.000000 0.000000 251.000000 0.558484 -0.494753 0.665820
11.44999981 12.40999985 0.01000000 21 75 207 0.000000 0.000000 0.000000 0.000000 0.000000 0.000000 251.000000 -0.235151 0.873206 -0.426867
11.46000004 12.38000011 -0.02000000 21 75 207 0.000000 0.000000 0.000000 0.000000 0.000000 0.000000 251.000000 -0.149149 0.745743 -0.649324
11.46000004 12.39000034 0.00000000 21 75 207 0.000000 0.000000 0.000000 0.000000 0.000000 0.000000 251.000000 -0.278630 0.958028 -0.067431
11.43000031 12.38000011 -0.03000000 21 75 207 0.000000 0.000000 0.000000 0.000000 0.000000 0.000000 251.000000 -0.346665 0.769112 -0.536927
11.44999981 12.26000023 -0.06000000 21 75 207 0.000000 0.000000 0.000000 0.000000 0.000000 0.000000 251.000000 0.125003 -0.353032 0.927223
11.47000027 12.27000046 -0.15000001 21 75 207 0.000000 0.000000 0.000000 0.000000 0.000000 0.000000 251.000000 -0.124919 0.037138 0.991472
11.50000000 12.31000042 -0.14000000 21 75 207 0.000000 0.000000 0.000000 0.000000 0.000000 0.000000 251.000000 0.223121 -0.647519 0.728654
11.56000042 12.18999958 -0.03000000 21 75 207 0.000000 0.000000 0.000000 0.000000 0.000000 0.000000 251.000000 -0.381343 0.302340 0.873595
11.56000042 12.18999958 -0.03000000 21 75 207 0.000000 0.000000 0.000000 0.000000 0.000000 0.000000 251.000000 -0.381343 0.302340 0.873595
11.52999973 12.18000031 -0.06000000 21 75 207 0.000000 0.000000 0.000000 0.000000 0.000000 0.000000 251.000000 -0.109631 0.138545 0.984269
11.44999981 12.22999954 -0.04000000 21 75 207 0.000000 0.000000 0.000000 0.000000 0.000000 0.000000 251.000000 0.171587 0.136518 0.975664
11.43000031 12.21000004 -0.04000000 21 75 207 0.000000 0.000000 0.000000 0.000000 0.000000 0.000000 251.000000 -0.133877 -0.049203 0.989776
11.52000046 12.18000031 -0.12000000 21 75 207 0.000000 0.000000 0.000000 0.000000 0.000000 0.000000 251.000000 -0.157974 0.391376 0.906570
11.51000023 12.14000034 -0.09000000 21 75 207 0.000000 0.000000 0.000000 0.000000 0.000000 0.000000 251.000000 0.087469 0.156964 0.983723
11.48999977 12.22000027 -0.13000000 21 75 207 0.000000 0.000000 0.000000 0.000000 0.000000 0.000000 251.000000 -0.157623 -0.072293 0.984850
11.43000031 12.17000008 -0.11000000 21 75 207 0.000000 0.000000 0.000000 0.000000 0.000000 0.000000 251.000000 -0.070539 0.226468 0.971461
11.38000011 12.38000011 0.01000000 21 75 207 0.000000 0.000000 0.000000 0.000000 0.000000 0.000000 251.000000 -0.322019 0.939108 0.119915
11.38000011 12.38000011 0.03000000 21 75 207 0.000000 0.000000 0.000000 0.000000 0.000000 0.000000 251.000000 -0.360870 0.875529 -0.321281
11.39999962 12.38000011 -0.02000000 21 75 207 0.000000 0.000000 0.000000 0.000000 0.000000 0.000000 251.000000 -0.468870 0.748547 -0.468870
11.38000011 12.39999962 -0.04000000 21 75 207 0.000000 0.000000 0.000000 0.000000 0.000000 0.000000 251.000000 0.043364 0.826721 -0.560939
11.35999966 12.32999992 -0.06000000 21 75 207 0.000000 0.000000 0.000000 0.000000 0.000000 0.000000 251.000000 -0.141289 -0.572590 0.807575
11.35999966 12.27999973 -0.07000000 21 75 207 0.000000 0.000000 0.000000 0.000000 0.000000 0.000000 251.000000 -0.073497 -0.370156 0.926058
11.30000019 12.32999992 -0.05000000 21 75 207 0.000000 0.000000 0.000000 0.000000 0.000000 0.000000 251.000000 -0.272681 0.818044 -0.506408
11.30000019 12.28999996 -0.07000000 21 75 207 0.000000 0.000000 0.000000 0.000000 0.000000 0.000000 251.000000 0.236805 -0.369180 0.898682
11.35000038 12.25000000 -0.10000000 21 75 207 0.000000 0.000000 0.000000 0.000000 0.000000 0.000000 251.000000 -0.217473 -0.451444 0.865392
11.39000034 12.31999969 -0.11000000 21 75 207 0.000000 0.000000 0.000000 0.000000 0.000000 0.000000 251.000000 0.398955 -0.437408 0.805921
11.35000038 12.27999973 -0.08000000 21 75 207 0.000000 0.000000 0.000000 0.000000 0.000000 0.000000 251.000000 0.313064 -0.383312 0.868943
11.35000038 12.27000046 -0.09000000 21 75 207 0.000000 0.000000 0.000000 0.000000 0.000000 0.000000 251.000000 -0.263994 -0.477041 0.838295
11.39999962 12.31999969 -0.11000000 21 75 207 0.000000 0.000000 0.000000 0.000000 0.000000 0.000000 251.000000 -0.496133 0.603769 -0.623951
11.30000019 12.27999973 -0.10000000 21 75 207 0.000000 0.000000 0.000000 0.000000 0.000000 0.000000 251.000000 -0.022915 -0.483912 0.874816
11.28999996 12.27999973 -0.10000000 21 75 207 0.000000 0.000000 0.000000 0.000000 0.000000 0.000000 251.000000 0.032786 -0.392124 0.919328
11.35000038 12.14000034 -0.04000000 21 75 207 0.000000 0.000000 0.000000 0.000000 0.000000 0.000000 251.000000 -0.409355 0.230728 0.882719
11.40999985 12.22999954 -0.11000000 21 75 207 0.000000 0.000000 0.000000 0.000000 0.000000 0.000000 251.000000 0.223149 -0.338322 0.914190
11.42000008 12.18000031 -0.12000000 21 75 207 0.000000 0.000000 0.000000 0.000000 0.000000 0.000000 251.000000 -0.323939 0.309011 0.894190
11.36999989 12.19999981 -0.09000000 21 75 207 0.000000 0.000000 0.000000 0.000000 0.000000 0.000000 251.000000 0.285113 -0.106425 0.952567
11.35999966 12.21000004 -0.10000000 21 75 207 0.000000 0.000000 0.000000 0.000000 0.000000 0.000000 251.000000 -0.152969 -0.054882 0.986706
11.38000011 12.18000031 -0.10000000 21 75 207 0.000000 0.000000 0.000000 0.000000 0.000000 0.000000 251.000000 0.213869 0.110098 0.970638
11.34000015 12.18000031 -0.10000000 21 75 207 0.000000 0.000000 0.000000 0.000000 0.000000 0.000000 251.000000 0.280783 -0.197793 0.939169
11.38000011 12.15999985 -0.11000000 21 75 207 0.000000 0.000000 0.000000 0.000000 0.000000 0.000000 251.000000 0.146126 -0.213369 0.965982
11.38000011 12.15999985 -0.11000000 21 75 207 0.000000 0.000000 0.000000 0.000000 0.000000 0.000000 251.000000 0.146126 -0.213369 0.965982
11.35000038 12.18999958 -0.10000000 21 75 207 0.000000 0.000000 0.000000 0.000000 0.000000 0.000000 251.000000 0.229689 0.116769 0.966234
11.39999962 12.14000034 -0.10000000 21 75 207 0.000000 0.000000 0.000000 0.000000 0.000000 0.000000 251.000000 -0.225932 0.150186 0.962496
11.32999992 12.22999954 -0.10000000 21 75 207 0.000000 0.000000 0.000000 0.000000 0.000000 0.000000 251.000000 0.171223 -0.156004 0.972803
11.31000042 12.18999958 -0.10000000 21 75 207 0.000000 0.000000 0.000000 0.000000 0.000000 0.000000 251.000000 -0.227097 -0.376542 0.898133
11.30000019 12.15999985 -0.11000000 21 75 207 0.000000 0.000000 0.000000 0.000000 0.000000 0.000000 251.000000 0.212287 0.196266 0.957295
11.32999992 12.18999958 -0.10000000 21 75 207 0.000000 0.000000 0.000000 0.000000 0.000000 0.000000 251.000000 0.011339 -0.046387 0.998859
11.31000042 12.18999958 -0.13000000 21 75 207 0.000000 0.000000 0.000000 0.000000 0.000000 0.000000 251.000000 -0.258848 -0.069447 0.963418
11.31000042 12.18999958 -0.13000000 21 75 207 0.000000 0.000000 0.000000 0.000000 0.000000 0.000000 251.000000 -0.258848 -0.069447 0.963418
11.26000023 12.21000004 -0.11000000 21 75 207 0.000000 0.000000 0.000000 0.000000 0.000000 0.000000 251.000000 0.290526 -0.054553 0.955311
11.31999969 12.14999962 -0.12000000 21 75 207 0.000000 0.000000 0.000000 0.000000 0.000000 0.000000 251.000000 -0.070192 -0.116219 0.990740
11.59000015 11.94999981 -0.06000000 21 75 207 0.000000 0.000000 0.000000 0.000000 0.000000 0.000000 251.000000 0.056033 0.981179 0.184791
11.56999969 12.02999973 -0.09000000 21 75 207 0.000000 0.000000 0.000000 0.000000 0.000000 0.000000 251.000000 -0.336934 0.659218 0.672240
11.57999992 12.06000042 -0.09000000 21 75 207 0.000000 0.000000 0.000000 0.000000 0.000000 0.000000 251.000000 -0.138536 0.945539 0.294556
11.18999958 12.27999973 -0.06000000 21 75 207 0.000000 0.000000 0.000000 0.000000 0.000000 0.000000 251.000000 -0.067160 0.804493 -0.590152
11.21000004 12.36999989 -0.05000000 21 75 207 0.000000 0.000000 0.000000 0.000000 0.000000 0.000000 251.000000 -0.423054 0.862907 -0.276436
11.22999954 12.35999966 -0.10000000 21 75 207 0.000000 0.000000 0.000000 0.000000 0.000000 0.000000 251.000000 0.012470 -0.622109 0.782832
11.22000027 12.36999989 -0.09000000 21 75 207 0.000000 0.000000 0.000000 0.000000 0.000000 0.000000 251.000000 0.083692 0.906890 -0.412971
11.22000027 12.35000038 -0.08000000 21 75 207 0.000000 0.000000 0.000000 0.000000 0.000000 0.000000 251.000000 -0.202090 -0.766710 0.609357
11.22999954 12.27000046 -0.11000000 21 75 207 0.000000 0.000000 0.000000 0.000000 0.000000 0.000000 251.000000 -0.175680 -0.633977 0.753134
11.21000004 12.26000023 -0.12000000 21 75 207 0.000000 0.000000 0.000000 0.000000 0.000000 0.000000 251.000000 0.129429 -0.127010 0.983421
11.18999958 12.30000019 -0.12000000 21 75 207 0.000000 0.000000 0.000000 0.000000 0.000000 0.000000 251.000000 0.179659 0.695601 -0.695601
11.18000031 12.31000042 -0.12000000 21 75 207 0.000000 0.000000 0.000000 0.000000 0.000000 0.000000 251.000000 -0.117455 -0.727032 0.676482
11.17000008 12.30000019 -0.12000000 21 75 207 0.000000 0.000000 0.000000 0.000000 0.000000 0.000000 251.000000 0.150738 -0.574597 0.804435
11.18999958 12.30000019 -0.14000000 21 75 207 0.000000 0.000000 0.000000 0.000000 0.000000 0.000000 251.000000 0.242251 -0.464696 0.851688
11.18999958 12.28999996 -0.15000001 21 75 207 0.000000 0.000000 0.000000 0.000000 0.000000 0.000000 251.000000 -0.019701 -0.413723 0.910190
11.17000008 12.30000019 -0.13000000 21 75 207 0.000000 0.000000 0.000000 0.000000 0.000000 0.000000 251.000000 0.221913 -0.472508 0.852931
11.13000011 12.38000011 -0.10000000 21 75 207 0.000000 0.000000 0.000000 0.000000 0.000000 0.000000 251.000000 -0.312667 0.905706 -0.286244
11.13000011 12.39999962 -0.13000000 21 75 207 0.000000 0.000000 0.000000 0.000000 0.000000 0.000000 251.000000 -0.063466 -0.540166 0.839162
11.14000034 12.32999992 -0.13000000 21 75 207 0.000000 0.000000 0.000000 0.000000 0.000000 0.000000 251.000000 -0.132544 -0.511241 0.849155
11.09000015 12.32999992 -0.10000000 21 75 207 0.000000 0.000000 0.000000 0.000000 0.000000 0.000000 251.000000 0.353072 -0.743567 0.567845
11.17000008 12.18999958 -0.12000000 21 75 207 0.000000 0.000000 0.000000 0.000000 0.000000 0.000000 251.000000 0.064006 0.013641 0.997856
11.21000004 12.19999981 -0.10000000 21 75 207 0.000000 0.000000 0.000000 0.000000 0.000000 0.000000 251.000000 0.154969 -0.314053 0.936673
11.17000008 12.23999977 -0.16000000 21 75 207 0.000000 0.000000 0.000000 0.000000 0.000000 0.000000 251.000000 0.389589 -0.421392 0.818932
11.21000004 12.17000008 -0.12000000 21 75 207 0.000000 0.000000 0.000000 0.000000 0.000000 0.000000 251.000000 -0.263445 0.025732 0.964331
11.18000031 12.18000031 -0.15000001 21 75 207 0.000000 0.000000 0.000000 0.000000 0.000000 0.000000 251.000000 0.235002 0.207834 0.949515
11.22999954 12.18000031 -0.12000000 21 75 207 0.000000 0.000000 0.000000 0.000000 0.000000 0.000000 251.000000 0.032148 -0.208364 0.977523
11.17000008 12.23999977 -0.16000000 21 75 207 0.000000 0.000000 0.000000 0.000000 0.000000 0.000000 251.000000 0.389589 -0.421392 0.818932
11.14000034 12.23999977 -0.15000001 21 75 207 0.000000 0.000000 0.000000 0.000000 0.000000 0.000000 251.000000 -0.227979 -0.578477 0.783192
11.14000034 12.13000011 -0.16000000 21 75 207 0.000000 0.000000 0.000000 0.000000 0.000000 0.000000 251.000000 -0.248036 -0.076803 0.965702
11.02000046 12.35999966 -0.15000001 21 75 207 0.000000 0.000000 0.000000 0.000000 0.000000 0.000000 251.000000 -0.398800 0.603991 -0.690039
11.06999969 12.38000011 -0.10000000 21 75 207 0.000000 0.000000 0.000000 0.000000 0.000000 0.000000 251.000000 -0.064244 0.800910 -0.595329
11.01000023 12.39000034 -0.16000000 21 75 207 0.000000 0.000000 0.000000 0.000000 0.000000 0.000000 251.000000 0.469087 -0.495607 0.730980
11.03999996 12.35000038 -0.19000000 21 75 207 0.000000 0.000000 0.000000 0.000000 0.000000 0.000000 251.000000 -0.071254 -0.383160 0.920929
11.00000000 12.39000034 -0.19000000 21 75 207 0.000000 0.000000 0.000000 0.000000 0.000000 0.000000 251.000000 -0.047691 -0.459197 0.887054
11.03999996 12.35999966 -0.17000000 21 75 207 0.000000 0.000000 0.000000 0.000000 0.000000 0.000000 251.000000 -0.492586 0.623718 -0.606906
11.03999996 12.31999969 -0.16000000 21 75 207 0.000000 0.000000 0.000000 0.000000 0.000000 0.000000 251.000000 0.228043 -0.381053 0.895989
10.97999954 12.35000038 -0.16000000 21 75 207 0.000000 0.000000 0.000000 0.000000 0.000000 0.000000 251.000000 0.003975 0.883845 -0.467762
10.97000027 12.34000015 -0.20000000 21 75 207 0.000000 0.000000 0.000000 0.000000 0.000000 0.000000 251.000000 -0.024062 -0.330537 0.943486
10.97999954 12.38000011 -0.17000000 21 75 207 0.000000 0.000000 0.000000 0.000000 0.000000 0.000000 251.000000 -0.261264 0.888298 -0.377713
11.06000042 12.18000031 -0.14000000 21 75 207 0.000000 0.000000 0.000000 0.000000 0.000000 0.000000 173.000000 0.446055 -0.223778 0.866578
11.01000023 12.19999981 -0.14000000 21 75 207 0.000000 0.000000 0.000000 0.000000 0.000000 0.000000 173.000000 0.361705 -0.272395 0.891611
11.02000046 12.17000008 -0.16000000 21 75 207 0.000000 0.000000 0.000000 0.000000 0.000000 0.000000 173.000000 0.321446 -0.013758 0.946828
11.02999973 12.17000008 -0.17000000 21 75 207 0.000000 0.000000 0.000000 0.000000 0.000000 0.000000 173.000000 -0.119596 -0.230190 0.965769
11.06999969 12.19999981 -0.18000001 21 75 207 0.000000 0.000000 0.000000 0.000000 0.000000 0.000000 173.000000 0.229684 -0.057728 0.971552
11.01000023 12.18000031 -0.17000000 21 75 207 0.000000 0.000000 0.000000 0.000000 0.000000 0.000000 173.000000 0.020111 -0.467916 0.883544
11.02000046 12.15999985 -0.19000000 21 75 207 0.000000 0.000000 0.000000 0.000000 0.000000 0.000000 173.000000 0.020501 -0.537116 0.843259
11.05000019 12.22000027 -0.19000000 21 75 207 0.000000 0.000000 0.000000 0.000000 0.000000 0.000000 173.000000 -0.209960 -0.106866 0.971852
11.01000023 12.10000038 -0.16000000 21 75 207 0.000000 0.000000 0.000000 0.000000 0.000000 0.000000 173.000000 -0.072542 0.077006 0.994388
11.06000042 12.09000015 -0.19000000 21 75 207 0.000000 0.000000 0.000000 0.000000 0.000000 0.000000 173.000000 0.075076 0.009517 0.997132
11.06000042 12.10000038 -0.20000000 21 75 207 0.000000 0.000000 0.000000 0.000000 0.000000 0.000000 173.000000 0.261342 -0.301770 0.916862
11.02000046 12.14999962 -0.18000001 21 75 207 0.000000 0.000000 0.000000 0.000000 0.000000 0.000000 173.000000 0.020578 -0.094227 0.995338
11.02999973 12.09000015 -0.20000000 21 75 207 0.000000 0.000000 0.000000 0.000000 0.000000 0.000000 173.000000 0.132860 -0.188534 0.973038
10.94999981 12.14999962 -0.16000000 21 75 207 0.000000 0.000000 0.000000 0.000000 0.000000 0.000000 173.000000 0.051692 -0.540670 0.839645
10.96000004 12.09000015 -0.19000000 21 75 207 0.000000 0.000000 0.000000 0.000000 0.000000 0.000000 173.000000 0.006142 -0.298479 0.954396
10.94999981 12.13000011 -0.18000001 21 75 207 0.000000 0.000000 0.000000 0.000000 0.000000 0.000000 173.000000 -0.083009 -0.087557 0.992695
10.98999977 12.13000011 -0.17000000 21 75 207 0.000000 0.000000 0.000000 0.000000 0.000000 0.000000 173.000000 -0.046348 0.191332 0.980430
